ply
format ascii 1.0
element vertex 1744
property float x
property float y
property float z
end_header
-0.057105 0.057221 0.212421
-0.056175 0.057293 0.212650
-0.055751 0.057893 0.214836
-0.055302 0.058489 0.217008
-0.054300 0.058512 0.217048
-0.053465 0.058719 0.217773
-0.052687 0.058998 0.218760
-0.051767 0.059126 0.219187
-0.051097 0.059550 0.220713
-0.050051 0.059546 0.220647
-0.049211 0.059790 0.221503
-0.048344 0.060013 0.222275
-0.047401 0.060149 0.222728
-0.046427 0.060250 0.223050
-0.045507 0.060429 0.223657
-0.044646 0.060696 0.224594
-0.043896 0.061130 0.226144
-0.043070 0.061478 0.227377
-0.042388 0.062054 0.229452
-0.041783 0.062777 0.232071
-0.042368 0.065374 0.241613
-0.048726 0.077273 0.285519
-0.047419 0.077346 0.285720
-0.046031 0.077289 0.285440
-0.044599 0.077152 0.284868
-0.043233 0.077123 0.284695
-0.041922 0.077195 0.284895
-0.040141 0.076378 0.281815
-0.038881 0.076530 0.282311
-0.037571 0.076591 0.282472
-0.035909 0.075912 0.279905
-0.034007 0.074655 0.275211
-0.032724 0.074709 0.275352
-0.029743 0.070730 0.260634
-0.028139 0.069823 0.257238
-0.026828 0.069593 0.256342
-0.025631 0.069652 0.256508
-0.024356 0.069496 0.255887
-0.023148 0.069522 0.255934
-0.021995 0.069727 0.256645
-0.020888 0.070110 0.258010
-0.019788 0.070567 0.259650
-0.018681 0.071058 0.261415
-0.017590 0.071682 0.263672
-0.016367 0.071827 0.264165
-0.015190 0.072213 0.265547
-0.013948 0.072330 0.265945
-0.012678 0.072313 0.265849
-0.011389 0.072175 0.265310
-0.010082 0.071869 0.264156
-0.008798 0.071666 0.263385
-0.007531 0.071558 0.262964
-0.006270 0.071478 0.262647
-0.005025 0.071593 0.263050
-0.003772 0.071622 0.263137
-0.002523 0.071787 0.263728
-0.001261 0.071560 0.262880
-0.000007 0.072845 0.267588
0.001278 0.073301 0.269253
0.002558 0.073175 0.268779
0.003924 0.074764 0.274613
0.005234 0.074760 0.274592
0.006150 0.070247 0.258014
0.007391 0.070339 0.258352
0.008627 0.070361 0.258437
0.009839 0.070209 0.257883
0.011095 0.070371 0.258483
0.012340 0.070434 0.258724
0.013579 0.070456 0.258813
0.014831 0.070535 0.259115
0.016101 0.070678 0.259654
0.017337 0.070664 0.259619
0.018670 0.071020 0.260946
0.020111 0.071719 0.263532
0.021658 0.072689 0.267119
0.022999 0.072900 0.267917
0.024322 0.073032 0.268428
0.025547 0.072872 0.267867
0.026652 0.072400 0.266159
0.027845 0.072200 0.265454
0.028939 0.071772 0.263910
0.030198 0.071772 0.263940
0.031346 0.071518 0.263041
0.033486 0.073461 0.270220
0.033835 0.071475 0.262951
0.035925 0.073178 0.269252
0.036413 0.071612 0.263528
0.037597 0.071473 0.263056
0.039006 0.071758 0.264144
0.040657 0.072456 0.266753
0.041614 0.071913 0.264793
0.042590 0.071432 0.263065
0.043519 0.070903 0.261155
0.044561 0.070581 0.260012
0.045492 0.070107 0.258306
0.046392 0.069611 0.256520
0.047548 0.069514 0.256203
0.048769 0.069516 0.256249
0.050107 0.069678 0.256890
0.051450 0.069841 0.257530
0.052872 0.070100 0.258527
0.054495 0.070607 0.260436
0.055595 0.070430 0.259823
0.057149 0.070823 0.261312
0.059274 0.071892 0.265294
0.061149 0.072619 0.268016
0.062528 0.072739 0.268497
0.063973 0.072930 0.269238
0.065413 0.073107 0.269928
0.066812 0.073233 0.270428
0.068073 0.073206 0.270359
0.069408 0.073257 0.270577
0.070502 0.073056 0.269866
0.071384 0.072647 0.268382
0.072543 0.072530 0.267974
0.073378 0.072099 0.266402
0.074158 0.071628 0.264681
0.075135 0.071360 0.263711
0.075784 0.070795 0.261637
0.076830 0.070612 0.260972
0.077855 0.070417 0.260261
0.079232 0.070541 0.260725
0.080929 0.070941 0.262205
0.082429 0.071159 0.263012
0.084249 0.071643 0.264797
0.085013 0.071227 0.263254
0.087360 0.072131 0.266584
0.094125 0.076605 0.283102
0.095350 0.076507 0.282718
0.099171 0.078465 0.289928
0.100376 0.078328 0.289394
0.101899 0.078440 0.289770
0.103287 0.078446 0.289753
0.104445 0.078280 0.289091
0.105874 0.078318 0.289179
0.107166 0.078255 0.288890
0.108544 0.078256 0.288828
0.109943 0.078272 0.288817
0.111266 0.078233 0.288598
0.112818 0.078355 0.288963
0.114166 0.078334 0.288794
0.115582 0.078358 0.288788
0.116992 0.078379 0.288757
0.118415 0.078407 0.288749
0.120030 0.078561 0.289193
0.121404 0.078555 0.289040
0.122943 0.078654 0.289267
0.124399 0.078699 0.289284
0.125763 0.078685 0.289075
0.127339 0.078803 0.289341
0.128755 0.078820 0.289226
0.130581 0.079085 0.290011
0.132018 0.079111 0.289908
0.133457 0.079137 0.289796
0.134848 0.079135 0.289568
0.136304 0.079171 0.289466
0.137968 0.079325 0.289785
0.139616 0.079467 0.290045
0.141023 0.079471 0.289786
0.142569 0.079551 0.289795
0.144618 0.079908 0.290795
0.146304 0.080059 0.291031
0.148055 0.080243 0.291367
0.149619 0.080323 0.291308
0.151265 0.080445 0.291386
0.153051 0.080638 0.291703
0.154522 0.080662 0.291393
-0.046406 0.024106 0.086237
-0.046131 0.024178 0.086610
-0.045775 0.024209 0.086828
-0.045270 0.024161 0.086760
-0.046433 0.025724 0.092761
-0.042501 0.027770 0.101167
-0.043095 0.028477 0.103781
-0.042581 0.028461 0.103755
-0.041153 0.027826 0.101470
-0.041893 0.028659 0.104538
-0.041985 0.030900 0.112846
-0.041510 0.030941 0.113010
-0.041114 0.031044 0.113396
-0.040362 0.030876 0.112794
-0.040082 0.031070 0.113511
-0.039556 0.031076 0.113537
-0.041035 0.032679 0.119397
-0.041814 0.033762 0.123355
-0.041609 0.034069 0.124477
-0.041373 0.034359 0.125535
-0.040929 0.034482 0.125983
-0.040588 0.034697 0.126760
-0.040510 0.035147 0.128397
-0.041180 0.036268 0.132485
-0.041884 0.037455 0.136809
-0.041749 0.037917 0.138484
-0.041517 0.038305 0.139884
-0.040595 0.038057 0.138965
-0.040087 0.038196 0.139454
-0.040339 0.039076 0.142648
-0.056518 0.056635 0.206684
-0.055614 0.056706 0.206910
-0.055545 0.057645 0.210303
-0.055571 0.058720 0.214184
-0.054951 0.059139 0.215675
-0.054114 0.059336 0.216352
-0.053246 0.059506 0.216931
-0.052363 0.059665 0.217466
-0.051414 0.059754 0.217746
-0.050520 0.059913 0.218278
-0.049718 0.060189 0.219235
-0.048926 0.060489 0.220280
-0.048139 0.060809 0.221396
-0.047307 0.061085 0.222352
-0.046333 0.061186 0.222668
-0.045429 0.061386 0.223345
-0.044541 0.061618 0.224137
-0.043736 0.061978 0.225395
-0.042901 0.062313 0.226560
-0.042234 0.062917 0.228703
-0.041601 0.063603 0.231144
-0.042304 0.066424 0.241338
-0.048664 0.078532 0.285263
-0.047358 0.078605 0.285463
-0.046108 0.078780 0.286031
-0.044767 0.078805 0.286057
-0.043378 0.078744 0.285770
-0.041717 0.078171 0.283627
-0.040266 0.077965 0.282814
-0.039115 0.078346 0.284136
-0.037797 0.078408 0.284297
-0.036213 0.077904 0.282408
-0.034758 0.077648 0.281421
-0.031541 0.073277 0.265525
-0.029615 0.071667 0.259637
-0.028092 0.070935 0.256937
-0.026890 0.070986 0.257069
-0.025695 0.071059 0.257286
-0.024407 0.070868 0.256549
-0.023175 0.070833 0.256375
-0.022056 0.071156 0.257500
-0.020904 0.071403 0.258351
-0.019849 0.072034 0.260591
-0.018706 0.072411 0.261915
-0.017572 0.072876 0.263558
-0.016404 0.073265 0.264929
-0.015141 0.073254 0.264853
-0.013879 0.073250 0.264805
-0.012564 0.072937 0.263642
-0.011293 0.072838 0.263255
-0.009996 0.072525 0.262094
-0.008698 0.072125 0.260622
-0.007440 0.071962 0.260012
-0.006221 0.072201 0.260851
-0.004983 0.072273 0.261091
-0.003738 0.072266 0.261048
-0.002505 0.072609 0.262273
-0.001254 0.072601 0.262228
-0.000004 0.073511 0.265503
0.001271 0.074028 0.267361
0.002559 0.074393 0.268670
0.003934 0.076200 0.275188
0.005246 0.076195 0.275168
0.006122 0.071122 0.256845
0.007358 0.071221 0.257204
0.008601 0.071360 0.257705
0.009831 0.071363 0.257722
0.011067 0.071404 0.257875
0.012325 0.071565 0.258463
0.013581 0.071682 0.258896
0.014862 0.071907 0.259721
0.016129 0.072028 0.260172
0.017386 0.072095 0.260428
0.018650 0.072178 0.260744
0.020062 0.072788 0.262965
0.021723 0.074173 0.267991
0.023129 0.074585 0.269503
0.024366 0.074438 0.268995
0.025657 0.074459 0.269094
0.026923 0.074412 0.268952
0.028262 0.074558 0.269510
0.029557 0.074583 0.269628
0.030803 0.074487 0.269312
0.032154 0.074641 0.269903
0.033437 0.074632 0.269905
0.034623 0.074416 0.269155
0.035873 0.074346 0.268939
0.037184 0.074404 0.269184
0.038375 0.074226 0.268577
0.039471 0.073880 0.267363
0.040584 0.073587 0.266343
0.041705 0.073327 0.265439
0.042678 0.072828 0.263672
0.043629 0.072322 0.261880
0.044716 0.072064 0.260984
0.045550 0.071423 0.258701
0.046360 0.070778 0.256403
0.047554 0.070737 0.256294
0.048659 0.070570 0.255727
0.049898 0.070599 0.255874
0.051330 0.070894 0.256979
0.052673 0.071056 0.257605
0.054153 0.071390 0.258856
0.055638 0.071717 0.260076
0.057191 0.072113 0.261552
0.059135 0.072976 0.264718
0.060983 0.073688 0.267335
0.062564 0.074053 0.268696
0.064001 0.074237 0.269397
0.065448 0.074425 0.270112
0.066813 0.074514 0.270467
0.068086 0.074499 0.270440
0.069437 0.074568 0.270721
0.070548 0.074382 0.270070
0.071369 0.073902 0.268352
0.072542 0.073797 0.267993
0.073425 0.073406 0.266593
0.074068 0.072791 0.264376
0.074869 0.072351 0.262792
0.075562 0.071822 0.260882
0.076456 0.071498 0.259713
0.077304 0.071141 0.258423
0.078635 0.071233 0.258762
0.080124 0.071464 0.259599
0.081538 0.071621 0.260168
0.083647 0.072375 0.262899
0.084328 0.071890 0.261126
0.087268 0.073316 0.266291
0.096901 0.079111 0.287297
0.098653 0.079420 0.288390
0.100442 0.079751 0.289557
0.101662 0.079627 0.289067
0.102935 0.079547 0.288731
0.104274 0.079519 0.288579
0.105590 0.079474 0.288362
0.106975 0.079482 0.288330
0.108280 0.079431 0.288076
0.109714 0.079475 0.288160
0.111157 0.079524 0.288258
0.112742 0.079672 0.288705
0.114089 0.079650 0.288531
0.115580 0.079728 0.288713
0.117035 0.079780 0.288789
0.118305 0.079705 0.288401
0.119940 0.079876 0.288891
0.121318 0.079873 0.288746
0.122613 0.079816 0.288396
0.124172 0.079930 0.288657
0.125676 0.080007 0.288772
0.127290 0.080151 0.289121
0.128902 0.080290 0.289442
0.130536 0.080441 0.289791
0.131853 0.080394 0.289421
0.133558 0.080583 0.289886
0.135144 0.080697 0.290067
0.136561 0.080708 0.289869
0.138495 0.081022 0.290744
0.139904 0.081024 0.290489
0.141241 0.080986 0.290073
0.143168 0.081283 0.290846
0.144606 0.081300 0.290599
0.146622 0.081638 0.291484
0.148313 0.081790 0.291688
0.149952 0.081910 0.291761
0.151653 0.082062 0.291930
0.152936 0.081987 0.291275
0.154612 0.082122 0.291345
-0.046040 0.024328 0.085497
-0.045394 0.024203 0.085168
-0.045467 0.024461 0.086187
-0.046543 0.025983 0.091963
-0.046306 0.026096 0.092458
-0.042167 0.028027 0.100347
-0.042346 0.028465 0.101955
-0.042544 0.028927 0.103642
-0.041974 0.028870 0.103473
-0.038870 0.029101 0.104463
-0.041614 0.031554 0.113283
-0.041367 0.031774 0.114086
-0.040682 0.031658 0.113681
-0.040942 0.032284 0.115939
-0.040537 0.032397 0.116350
-0.041377 0.033520 0.120390
-0.040766 0.033483 0.120260
-0.041653 0.034694 0.124610
-0.041343 0.034927 0.125447
-0.041111 0.035233 0.126544
-0.040535 0.035250 0.126600
-0.040383 0.035641 0.128001
-0.040146 0.035968 0.129166
-0.042332 0.038509 0.138283
-0.041829 0.038645 0.138760
-0.042133 0.039543 0.141971
-0.041092 0.039189 0.140683
-0.056390 0.054658 0.196195
-0.056997 0.056166 0.201582
-0.056119 0.056237 0.201808
-0.056213 0.057301 0.205599
-0.056044 0.058130 0.208542
-0.055488 0.058580 0.210124
-0.055015 0.059136 0.212083
-0.054205 0.059344 0.212790
-0.053406 0.059571 0.213565
-0.052569 0.059763 0.214216
-0.051730 0.059963 0.214888
-0.050827 0.060093 0.215313
-0.049978 0.060293 0.215987
-0.049206 0.060598 0.217036
-0.048596 0.061119 0.218854
-0.047811 0.061438 0.219949
-0.047102 0.061870 0.221450
-0.046171 0.062025 0.221956
-0.045250 0.062201 0.222534
-0.044364 0.062432 0.223314
-0.043557 0.062792 0.224549
-0.042738 0.063150 0.225779
-0.042119 0.063829 0.228155
-0.041692 0.064844 0.231732
-0.049391 0.078893 0.281874
-0.048103 0.078968 0.282076
-0.047385 0.080010 0.285735
-0.046052 0.080046 0.285798
-0.044661 0.079978 0.285491
-0.043412 0.080170 0.286113
-0.042071 0.080198 0.286151
-0.039953 0.078698 0.280738
-0.038909 0.079283 0.282764
-0.037597 0.079344 0.282924
-0.036023 0.078836 0.281051
-0.034282 0.077909 0.277691
-0.032987 0.077965 0.277832
-0.029643 0.072978 0.260009
-0.028085 0.072146 0.256998
-0.026930 0.072324 0.257581
-0.025655 0.072179 0.257019
-0.024390 0.072048 0.256508
-0.023199 0.072135 0.256770
-0.022033 0.072314 0.257366
-0.020878 0.072554 0.258179
-0.019792 0.073077 0.259999
-0.018634 0.073384 0.261052
-0.017542 0.074016 0.263263
-0.016291 0.074024 0.263253
-0.015116 0.074409 0.264588
-0.013852 0.074381 0.264455
-0.012515 0.073924 0.262798
-0.011249 0.073826 0.262421
-0.009956 0.073507 0.261261
-0.008686 0.073289 0.260460
-0.007405 0.072886 0.259004
-0.006186 0.073062 0.259608
-0.004955 0.073159 0.259934
-0.003722 0.073268 0.260303
-0.002498 0.073740 0.261963
-0.001246 0.073566 0.261331
-0.000001 0.074484 0.264579
0.001271 0.075095 0.266742
0.002534 0.074855 0.265879
0.003869 0.076169 0.270541
0.005158 0.076165 0.270521
0.006118 0.072262 0.256658
0.007344 0.072282 0.256729
0.008580 0.072384 0.257092
0.009777 0.072171 0.256339
0.011023 0.072324 0.256889
0.012265 0.072421 0.257240
0.013492 0.072424 0.257259
0.014761 0.072629 0.257999
0.016015 0.072739 0.258401
0.017243 0.072720 0.258348
0.018460 0.072660 0.258149
0.020016 0.073859 0.262429
0.021661 0.075227 0.267309
0.022922 0.075180 0.267163
0.024213 0.075233 0.267372
0.025400 0.074973 0.266472
0.026660 0.074944 0.266396
0.028048 0.075261 0.267550
0.029286 0.075163 0.267230
0.030684 0.075469 0.268346
0.032032 0.075631 0.268953
0.033356 0.075726 0.269323
0.034548 0.075526 0.268646
0.035811 0.075488 0.268544
0.037010 0.075324 0.267995
0.038186 0.075125 0.267321
0.039322 0.074863 0.266427
0.040419 0.074545 0.265329
0.041661 0.074506 0.265230
0.042783 0.074260 0.264389
0.043851 0.073937 0.263277
0.044606 0.073119 0.260403
0.045508 0.072580 0.258520
0.046532 0.072259 0.257412
0.047484 0.071845 0.255976
0.048595 0.071686 0.255444
0.049769 0.071625 0.255264
0.051068 0.071743 0.255721
0.052392 0.071889 0.256278
0.053747 0.072071 0.256960
0.055223 0.072403 0.258180
0.056968 0.073065 0.260577
0.059262 0.074388 0.265329
0.060987 0.074958 0.267394
0.062318 0.075028 0.267677
0.063975 0.075481 0.269324
0.065403 0.075651 0.269961
0.066795 0.075774 0.270428
0.068026 0.075712 0.270236
0.069361 0.075767 0.270455
0.070551 0.075663 0.270107
0.071582 0.075396 0.269175
0.072576 0.075100 0.268138
0.073471 0.074713 0.266774
0.074245 0.074219 0.265023
0.074608 0.073337 0.261887
0.075271 0.072774 0.259883
0.076196 0.072478 0.258833
0.076821 0.071912 0.256813
0.078070 0.071937 0.256904
0.078797 0.071488 0.255296
0.080069 0.071539 0.255473
0.081543 0.071767 0.256278
0.082518 0.071555 0.255508
0.083051 0.070972 0.253408
0.097272 0.081935 0.292528
0.098540 0.081832 0.292132
0.097328 0.079700 0.284491
0.100375 0.081067 0.289332
0.101851 0.081146 0.289569
0.103130 0.081067 0.289238
0.104435 0.081011 0.288984
0.105777 0.080984 0.288828
0.107077 0.080926 0.288555
0.108608 0.081041 0.288894
0.109862 0.080950 0.288490
0.111395 0.081064 0.288812
0.112751 0.081048 0.288663
0.114111 0.081035 0.288517
0.115581 0.081099 0.288638
0.116934 0.081081 0.288460
0.118409 0.081147 0.288571
0.119671 0.081066 0.288154
0.121184 0.081156 0.288334
0.122781 0.081300 0.288694
0.124255 0.081359 0.288747
0.125813 0.081471 0.288978
0.127222 0.081485 0.288853
0.129023 0.081748 0.289594
0.130490 0.081795 0.289564
0.131923 0.081820 0.289444
0.133464 0.081911 0.289546
0.134903 0.081938 0.289409
0.136317 0.081949 0.289205
0.137974 0.082104 0.289495
0.140047 0.082502 0.290627
0.141766 0.082685 0.290985
0.143119 0.082653 0.290574
0.144676 0.082738 0.290559
0.146420 0.082927 0.290895
0.148209 0.083138 0.291288
0.149762 0.083213 0.291191
0.151474 0.083375 0.291377
0.153180 0.083530 0.291522
0.154602 0.083528 0.291101
-0.046235 0.024846 0.085795
-0.045892 0.024883 0.086041
-0.045593 0.024945 0.086368
-0.045308 0.025016 0.086720
-0.045108 0.025135 0.087237
-0.046002 0.026365 0.091799
-0.042496 0.028725 0.101103
-0.042850 0.029293 0.103143
-0.042483 0.029375 0.103470
-0.041451 0.028995 0.102163
-0.041188 0.029149 0.102739
-0.042235 0.032157 0.113492
-0.041756 0.032199 0.113657
-0.041390 0.032330 0.114138
-0.041026 0.032467 0.114633
-0.040540 0.032510 0.114793
-0.041846 0.034010 0.120100
-0.042208 0.034774 0.122806
-0.041921 0.035016 0.123666
-0.041578 0.035218 0.124382
-0.041251 0.035440 0.125167
-0.040869 0.035620 0.125801
-0.040506 0.035822 0.126513
-0.040460 0.036315 0.128248
-0.041891 0.038168 0.134788
-0.041720 0.038597 0.136293
-0.041364 0.038865 0.137230
-0.040937 0.039073 0.137953
-0.057171 0.055447 0.195747
-0.056320 0.055517 0.195974
-0.056078 0.056199 0.198358
-0.057182 0.058276 0.205662
-0.056377 0.058445 0.206231
-0.055835 0.058897 0.207797
-0.055092 0.059149 0.208658
-0.054582 0.059667 0.210452
-0.053884 0.059994 0.211569
-0.053280 0.060440 0.213106
-0.052432 0.060620 0.213704
-0.051562 0.060783 0.214238
-0.050651 0.060902 0.214618
-0.049756 0.061045 0.215082
-0.048885 0.061225 0.215674
-0.048178 0.061622 0.217027
-0.047753 0.062405 0.219740
-0.047001 0.062787 0.221040
-0.046053 0.062917 0.221451
-0.045119 0.063074 0.221957
-0.044258 0.063342 0.222851
-0.043480 0.063745 0.224221
-0.042633 0.064065 0.225297
-0.041912 0.064595 0.227112
-0.041651 0.065881 0.231581
-0.050074 0.081344 0.285874
-0.048767 0.081420 0.286078
-0.047439 0.081464 0.286172
-0.046096 0.081485 0.286182
-0.044607 0.081241 0.285263
-0.043489 0.081678 0.286738
-0.042001 0.081427 0.285794
-0.040407 0.080947 0.284049
-0.039291 0.081424 0.285665
-0.037966 0.081487 0.285826
-0.036415 0.081050 0.284237
-0.034540 0.079832 0.279909
-0.031512 0.075746 0.265530
-0.029678 0.074309 0.260443
-0.028185 0.073638 0.258041
-0.026920 0.073528 0.257612
-0.025682 0.073485 0.257414
-0.024403 0.073316 0.256778
-0.023152 0.073219 0.256395
-0.022007 0.073461 0.257199
-0.020923 0.073950 0.258870
-0.019807 0.074382 0.260341
-0.018676 0.074809 0.261798
-0.017553 0.075330 0.263586
-0.016329 0.075470 0.264037
-0.015128 0.075743 0.264958
-0.013876 0.075791 0.265094
-0.012499 0.075097 0.262636
-0.011260 0.075172 0.262872
-0.009969 0.074871 0.261791
-0.008644 0.074196 0.259406
-0.007392 0.074020 0.258768
-0.006161 0.074043 0.258828
-0.004932 0.074098 0.259000
-0.003713 0.074386 0.259990
-0.002487 0.074757 0.261271
-0.001240 0.074608 0.260734
0.000002 0.076011 0.265626
0.001281 0.076797 0.268363
0.002577 0.077295 0.270094
0.003947 0.078964 0.275920
0.005262 0.078959 0.275899
0.006454 0.077491 0.270766
0.007392 0.073954 0.258408
0.008686 0.074496 0.260302
0.009998 0.075028 0.262164
0.011197 0.074688 0.260981
0.012482 0.074933 0.261845
0.013777 0.075188 0.262742
0.015069 0.075388 0.263452
0.016294 0.075244 0.262962
0.017545 0.075234 0.262941
0.018787 0.075189 0.262796
0.020215 0.075844 0.265102
0.021691 0.076593 0.267741
0.022887 0.076327 0.266829
0.024068 0.076040 0.265848
0.025334 0.076035 0.265853
0.026534 0.075842 0.265205
0.027791 0.075823 0.265164
0.028977 0.075621 0.264485
0.030175 0.075466 0.263968
0.031509 0.075647 0.264631
0.032880 0.075901 0.265548
0.034172 0.075961 0.265791
0.035302 0.075668 0.264798
0.036458 0.075450 0.264068
0.037585 0.075188 0.263183
0.038834 0.075179 0.263185
0.040098 0.075200 0.263292
0.041492 0.075454 0.264217
0.042863 0.075653 0.264950
0.043965 0.075380 0.264028
0.044502 0.074179 0.259858
0.045436 0.073688 0.258171
0.046524 0.073464 0.257424
0.047473 0.073039 0.255967
0.048573 0.072862 0.255382
0.049861 0.072968 0.255787
0.051160 0.073085 0.256233
0.052568 0.073347 0.257186
0.053990 0.073618 0.258169
0.055465 0.073947 0.259356
0.057279 0.074704 0.262042
0.059199 0.075564 0.265091
0.060939 0.076162 0.267221
0.062428 0.076430 0.268189
0.063748 0.076483 0.268405
0.065379 0.076899 0.269892
0.066768 0.077021 0.270345
0.067921 0.076871 0.269844
0.069395 0.077083 0.270610
0.070574 0.076966 0.270218
0.071528 0.076611 0.268993
0.072633 0.076428 0.268366
0.073443 0.075946 0.266686
0.074118 0.075344 0.264584
0.074252 0.074220 0.260646
0.074884 0.073623 0.258556
0.075791 0.073311 0.257461
0.076418 0.072742 0.255465
0.077641 0.072750 0.255490
0.078957 0.072842 0.255808
0.080283 0.072942 0.256148
0.081759 0.073173 0.256946
0.082737 0.072957 0.256172
0.084501 0.073431 0.257815
0.095359 0.081680 0.286752
0.096604 0.081579 0.286364
0.098404 0.081943 0.287605
0.100019 0.082145 0.288273
0.101508 0.082239 0.288555
0.102868 0.082227 0.288460
0.104230 0.082217 0.288369
0.105711 0.082300 0.288596
0.107184 0.082375 0.288788
0.108542 0.082361 0.288662
0.110021 0.082437 0.288847
0.111432 0.082462 0.288842
0.112720 0.082395 0.288511
0.114005 0.082328 0.288173
0.115423 0.082357 0.288164
0.117034 0.082522 0.288621
0.118355 0.082480 0.288348
0.119918 0.082607 0.288655
0.121426 0.082692 0.288809
0.122914 0.082763 0.288903
0.124276 0.082748 0.288687
0.125732 0.082794 0.288678
0.127167 0.082827 0.288608
0.128721 0.082935 0.288792
0.130940 0.083464 0.290432
0.132242 0.083404 0.290008
0.133938 0.083591 0.290430
0.135304 0.083571 0.290121
0.136525 0.083462 0.289492
0.138631 0.083890 0.290714
0.140243 0.084014 0.290867
0.141586 0.083976 0.290443
0.143305 0.084159 0.290770
0.144877 0.084253 0.290775
0.146684 0.084481 0.291224
0.148279 0.084583 0.291225
0.149962 0.084733 0.291369
0.151407 0.084746 0.291030
0.153225 0.084967 0.291381
0.154646 0.084965 0.290951
-0.045983 0.025123 0.085264
-0.045673 0.025178 0.085569
-0.045670 0.025404 0.086452
-0.045238 0.025394 0.086528
-0.044945 0.025463 0.086866
-0.045597 0.026073 0.089051
-0.046251 0.026949 0.092241
-0.042140 0.028960 0.100229
-0.043051 0.029921 0.103598
-0.042741 0.030047 0.104073
-0.042037 0.029895 0.103581
-0.041150 0.029608 0.102622
-0.040490 0.031342 0.108789
-0.041992 0.032921 0.114287
-0.041015 0.032572 0.113093
-0.040714 0.032758 0.113752
-0.041293 0.033666 0.116917
-0.042191 0.034863 0.121084
-0.042056 0.035226 0.122355
-0.041302 0.035075 0.121836
-0.041278 0.035548 0.123482
-0.040990 0.035803 0.124373
-0.041466 0.036743 0.127639
-0.041006 0.036870 0.128078
-0.042151 0.038464 0.133615
-0.041446 0.038393 0.133362
-0.041082 0.038641 0.134216
-0.041212 0.039368 0.136734
-0.056828 0.055146 0.191522
-0.055997 0.055215 0.191746
-0.056913 0.057037 0.198055
-0.056950 0.058025 0.201464
-0.057041 0.059101 0.205178
-0.056264 0.059300 0.205844
-0.055622 0.059652 0.207036
-0.054814 0.059834 0.207640
-0.054292 0.060340 0.209367
-0.053654 0.060735 0.210705
-0.053021 0.061150 0.212110
-0.052163 0.061317 0.212653
-0.051428 0.061637 0.213727
-0.050607 0.061865 0.214479
-0.049737 0.062040 0.215048
-0.048935 0.062311 0.215947
-0.048051 0.062486 0.216512
-0.047424 0.063011 0.218286
-0.046705 0.063433 0.219704
-0.045871 0.063716 0.220642
-0.045008 0.063970 0.221476
-0.044255 0.064396 0.222904
-0.043378 0.064658 0.223764
-0.042543 0.064999 0.224896
-0.041926 0.065696 0.227263
-0.041612 0.066920 0.231446
-0.048724 0.080474 0.278266
-0.048381 0.082125 0.283915
-0.047396 0.082751 0.286020
-0.046146 0.082937 0.286600
-0.044737 0.082841 0.286207
-0.043483 0.083034 0.286815
-0.042109 0.083002 0.286647
-0.040350 0.082185 0.283767
-0.039454 0.083129 0.286969
-0.038123 0.083193 0.287131
-0.036437 0.082456 0.284532
-0.035185 0.082685 0.285265
-0.031357 0.076635 0.264344
-0.029567 0.075272 0.259596
-0.028140 0.074751 0.257752
-0.026990 0.074957 0.258414
-0.025659 0.074650 0.257312
-0.024412 0.074573 0.257002
-0.023183 0.074546 0.256865
-0.022021 0.074745 0.257510
-0.020879 0.075034 0.258466
-0.019742 0.075385 0.259637
-0.018694 0.076139 0.262196
-0.017554 0.076606 0.263768
-0.016298 0.076596 0.263700
-0.015165 0.077207 0.265769
-0.013931 0.077376 0.266320
-0.012472 0.076204 0.262254
-0.011225 0.076207 0.262239
-0.009937 0.075897 0.261145
-0.008611 0.075172 0.258624
-0.007355 0.074916 0.257723
-0.006134 0.074980 0.257921
-0.004917 0.075152 0.258494
-0.003700 0.075420 0.259398
-0.002467 0.075485 0.259606
-0.001236 0.075784 0.260623
0.000006 0.076453 0.262910
0.001262 0.076730 0.263852
0.002544 0.077487 0.266446
0.003845 0.078141 0.268690
0.005159 0.078647 0.270427
0.006447 0.078650 0.270431
0.007754 0.078839 0.271083
0.009059 0.078954 0.271477
0.010362 0.079025 0.271726
0.011607 0.078692 0.270585
0.012862 0.078479 0.269858
0.014092 0.078168 0.268797
0.015339 0.077997 0.268220
0.016596 0.077899 0.267893
0.017840 0.077757 0.267417
0.019118 0.077772 0.267484
0.020282 0.077351 0.266052
0.021614 0.077581 0.266859
0.022919 0.077695 0.267273
0.024088 0.077360 0.266139
0.025295 0.077174 0.265520
0.026578 0.077225 0.265719
0.027705 0.076840 0.264418
0.028863 0.076569 0.263512
0.030041 0.076373 0.262864
0.031318 0.076432 0.263095
0.032623 0.076554 0.263544
0.033923 0.076655 0.263918
0.035117 0.076519 0.263481
0.036251 0.076264 0.262635
0.037554 0.076370 0.263031
0.038790 0.076337 0.262950
0.040118 0.076483 0.263483
0.041472 0.076666 0.264149
0.043015 0.077179 0.265948
0.044095 0.076855 0.264865
0.044416 0.075262 0.259410
0.045242 0.074588 0.257120
0.046384 0.074458 0.256706
0.047332 0.074030 0.255261
0.048461 0.073899 0.254841
0.049673 0.073899 0.254875
0.050935 0.073971 0.255154
0.052335 0.074235 0.256095
0.053564 0.074249 0.256175
0.055085 0.074659 0.257620
0.056969 0.075533 0.260666
0.059448 0.077141 0.266244
0.060780 0.077224 0.266559
0.062275 0.077507 0.267565
0.063897 0.077933 0.269062
0.065360 0.078153 0.269846
0.066747 0.078275 0.270289
0.068019 0.078260 0.270259
0.069318 0.078276 0.270333
0.070550 0.078216 0.270146
0.071430 0.077777 0.268642
0.072559 0.077618 0.268107
0.073584 0.077355 0.267212
0.074132 0.076609 0.264642
0.073595 0.074784 0.258344
0.074454 0.074415 0.257072
0.075479 0.074222 0.256403
0.076011 0.073556 0.254101
0.077224 0.073561 0.254111
0.078629 0.073745 0.254738
0.080072 0.073959 0.255463
0.081467 0.074122 0.256014
0.082841 0.074262 0.256475
0.084755 0.074875 0.258568
0.095060 0.082777 0.285825
0.096302 0.082675 0.285439
0.098714 0.083567 0.288477
0.100064 0.083547 0.288364
0.101528 0.083622 0.288570
0.102923 0.083638 0.288570
0.104396 0.083717 0.288779
0.105751 0.083700 0.288651
0.107254 0.083799 0.288919
0.108743 0.083884 0.289133
0.110088 0.083858 0.288954
0.111469 0.083859 0.288865
0.112737 0.083777 0.288480
0.114177 0.083822 0.288528
0.115482 0.083768 0.288227
0.116923 0.083813 0.288257
0.118705 0.084099 0.289108
0.119851 0.083932 0.288394
0.121524 0.084135 0.288939
0.123024 0.084214 0.289053
0.124475 0.084258 0.289035
0.125941 0.084310 0.289038
0.127218 0.084237 0.288600
0.128665 0.084277 0.288537
0.130665 0.084673 0.289685
0.132068 0.084679 0.289484
0.133757 0.084866 0.289890
0.135229 0.084912 0.289805
0.136544 0.084861 0.289373
0.138225 0.085035 0.289697
0.139776 0.085126 0.289724
0.141690 0.085434 0.290475
0.143561 0.085711 0.291102
0.144842 0.085633 0.290511
0.146663 0.085873 0.290981
0.148748 0.086261 0.291934
0.150331 0.086354 0.291870
0.152236 0.086627 0.292397
0.153751 0.086676 0.292148
0.155003 0.086577 0.291381
-0.046001 0.025545 0.085229
-0.045618 0.025560 0.085401
-0.045307 0.025615 0.085702
-0.045191 0.025784 0.086376
-0.045699 0.026314 0.088262
-0.045646 0.026529 0.089087
-0.045317 0.026839 0.090324
-0.042335 0.029571 0.100662
-0.042829 0.030255 0.103035
-0.042519 0.030381 0.103504
-0.041431 0.029947 0.102064
-0.040925 0.029929 0.102036
-0.041941 0.031037 0.105846
-0.041417 0.031017 0.105810
-0.041144 0.031188 0.106421
-0.040694 0.031228 0.106582
-0.040621 0.031561 0.107743
-0.042554 0.033480 0.114318
-0.041724 0.033247 0.113543
-0.041348 0.033376 0.113998
-0.040444 0.033075 0.112987
-0.041839 0.034672 0.118455
-0.041651 0.034981 0.119525
-0.041700 0.035502 0.121314
-0.041240 0.035597 0.121648
-0.041286 0.036139 0.123504
-0.040956 0.036361 0.124269
-0.041068 0.036988 0.126414
-0.041128 0.037586 0.128459
-0.042171 0.039114 0.133679
-0.041881 0.039433 0.134765
-0.041299 0.039482 0.134930
-0.056602 0.056728 0.193833
-0.057844 0.058922 0.201313
-0.057333 0.059374 0.202839
-0.056652 0.059662 0.203803
-0.055702 0.059672 0.203814
-0.055333 0.060316 0.205990
-0.054750 0.060746 0.207430
-0.054171 0.061195 0.208934
-0.053498 0.061553 0.210127
-0.052836 0.061938 0.211408
-0.052004 0.062134 0.212044
-0.051215 0.062390 0.212885
-0.050422 0.062652 0.213742
-0.049569 0.062847 0.214372
-0.048691 0.063019 0.214919
-0.047919 0.063338 0.215969
-0.047253 0.063815 0.217554
-0.046516 0.064215 0.218877
-0.045694 0.064513 0.219851
-0.044792 0.064709 0.220477
-0.044022 0.065110 0.221799
-0.043259 0.065541 0.223222
-0.042397 0.065840 0.224194
-0.041735 0.066473 0.226304
-0.050415 0.082410 0.280502
-0.049135 0.082486 0.280706
-0.048300 0.083337 0.283543
-0.047440 0.084190 0.286386
-0.046150 0.084308 0.286730
-0.044803 0.084327 0.286736
-0.043519 0.084469 0.287163
-0.042159 0.084468 0.287100
-0.040365 0.083568 0.283984
-0.039754 0.085140 0.289272
-0.038412 0.085204 0.289434
-0.036224 0.083324 0.282994
-0.034657 0.082786 0.281113
-0.031338 0.077853 0.264312
-0.029684 0.076814 0.260737
-0.028191 0.076123 0.258346
-0.026946 0.076069 0.258118
-0.025648 0.075850 0.257332
-0.024397 0.075759 0.256981
-0.023143 0.075646 0.256556
-0.021976 0.075823 0.257116
-0.020833 0.076109 0.258047
-0.019711 0.076511 0.259372
-0.018620 0.077095 0.261316
-0.017541 0.077814 0.263717
-0.016204 0.077413 0.262324
-0.015132 0.078321 0.265368
-0.013896 0.078462 0.265813
-0.012409 0.077078 0.261099
-0.011173 0.077114 0.261190
-0.009883 0.076742 0.259905
-0.008570 0.076061 0.257577
-0.007341 0.076031 0.257453
-0.006120 0.076073 0.257576
-0.004901 0.076182 0.257926
-0.003674 0.076194 0.257949
-0.002440 0.075983 0.257219
-0.001223 0.076454 0.258800
0.000009 0.077937 0.263809
0.001286 0.079252 0.268248
0.002575 0.079608 0.269446
0.003915 0.080786 0.273426
0.005189 0.080360 0.271978
0.006483 0.080341 0.271913
0.007811 0.080684 0.273071
0.009088 0.080479 0.272379
0.010384 0.080464 0.272330
0.011663 0.080342 0.271920
0.012935 0.080198 0.271438
0.014188 0.079971 0.270678
0.015419 0.079671 0.269671
0.016665 0.079488 0.269062
0.017968 0.079585 0.269402
0.019186 0.079313 0.268497
0.020431 0.079183 0.268070
0.021666 0.079030 0.267570
0.022820 0.078613 0.266176
0.023994 0.078307 0.265161
0.025124 0.077896 0.263788
0.026334 0.077758 0.263342
0.027454 0.077380 0.262086
0.028513 0.076871 0.260385
0.029647 0.076596 0.259478
0.030870 0.076566 0.259403
0.032227 0.076856 0.260411
0.033580 0.077117 0.261322
0.034896 0.077276 0.261888
0.036259 0.077523 0.262756
0.037527 0.077559 0.262908
0.038930 0.077861 0.263961
0.040227 0.077940 0.264262
0.041496 0.077962 0.264365
0.043007 0.078422 0.265958
0.044148 0.078202 0.265244
0.044092 0.075931 0.257574
0.044879 0.075196 0.255111
0.046217 0.075400 0.255832
0.047014 0.074731 0.253595
0.048203 0.074704 0.253533
0.049357 0.074626 0.253297
0.050623 0.074716 0.253633
0.051953 0.074895 0.254267
0.053047 0.074732 0.253743
0.054398 0.074931 0.254445
0.056032 0.075502 0.256414
0.058414 0.077036 0.261650
0.061010 0.078781 0.267602
0.062288 0.078789 0.267653
0.063469 0.078676 0.267292
0.065262 0.079309 0.269467
0.066717 0.079517 0.270194
0.067927 0.079430 0.269917
0.069177 0.079392 0.269803
0.070412 0.079339 0.269636
0.071180 0.078770 0.267717
0.072420 0.078734 0.267605
0.073574 0.078608 0.267183
0.073974 0.077694 0.264083
0.073281 0.075681 0.257244
0.073924 0.075092 0.255241
0.075155 0.075110 0.255300
0.075913 0.074661 0.253767
0.076929 0.074477 0.253133
0.078121 0.074465 0.253079
0.079413 0.074548 0.253348
0.080868 0.074780 0.254114
0.082285 0.074968 0.254732
0.083736 0.075183 0.255435
0.085344 0.075531 0.256585
0.097592 0.085151 0.289228
0.098296 0.084572 0.287217
0.100067 0.084915 0.288330
0.101622 0.085067 0.288790
0.103054 0.085113 0.288885
0.104444 0.085123 0.288855
0.106079 0.085332 0.289489
0.107382 0.085270 0.289200
0.108718 0.085236 0.289000
0.110103 0.085240 0.288922
0.111489 0.085245 0.288842
0.113004 0.085348 0.289082
0.114275 0.085265 0.288690
0.115712 0.085307 0.288712
0.117285 0.085447 0.289056
0.118507 0.085331 0.288526
0.120005 0.085414 0.288660
0.121723 0.085650 0.289304
0.123165 0.085688 0.289269
0.124565 0.085696 0.289123
0.125999 0.085728 0.289047
0.127322 0.085684 0.288704
0.128741 0.085705 0.288572
0.130534 0.085971 0.289254
0.132157 0.086121 0.289530
0.133620 0.086165 0.289441
0.135284 0.086335 0.289762
0.136952 0.086505 0.290068
0.138385 0.086525 0.289858
0.140439 0.086928 0.290916
0.142082 0.087072 0.291092
0.143543 0.087101 0.290870
0.145182 0.087237 0.290989
0.146848 0.087387 0.291138
0.148875 0.087746 0.291965
0.150375 0.087791 0.291728
0.152312 0.088087 0.292309
0.153812 0.088127 0.292020
0.155356 0.088192 0.291792
-0.045672 0.025772 0.084552
-0.045590 0.025956 0.085281
-0.045361 0.026060 0.085739
-0.045199 0.026205 0.086328
-0.045000 0.026331 0.086852
-0.044710 0.026405 0.087202
-0.044297 0.026407 0.087309
-0.046060 0.027719 0.091747
-0.042631 0.030258 0.101334
-0.042899 0.030794 0.103175
-0.042467 0.030834 0.103348
-0.041397 0.030406 0.101954
-0.041302 0.030692 0.102951
-0.041310 0.031063 0.104229
-0.040101 0.030889 0.103703
-0.039939 0.031143 0.104584
-0.042346 0.033432 0.112299
-0.042510 0.033986 0.114184
-0.041986 0.033997 0.114241
-0.040851 0.033507 0.112615
-0.041821 0.034753 0.116821
-0.041836 0.035228 0.118433
-0.041611 0.035512 0.119400
-0.041100 0.035556 0.119559
-0.040979 0.035943 0.120872
-0.041161 0.036610 0.123123
-0.043467 0.039214 0.131884
-0.042738 0.039114 0.131553
-0.042798 0.039744 0.133673
-0.041984 0.039570 0.133088
-0.046949 0.044919 0.151080
-0.059611 0.059747 0.200928
-0.058738 0.059820 0.201163
-0.058220 0.060263 0.202638
-0.057419 0.060424 0.203163
-0.056511 0.060476 0.203318
-0.055742 0.060681 0.203988
-0.055266 0.061216 0.205765
-0.054588 0.061544 0.206844
-0.054168 0.062180 0.208955
-0.053343 0.062366 0.209553
-0.052628 0.062691 0.210613
-0.051911 0.063025 0.211705
-0.051070 0.063219 0.212323
-0.050243 0.063438 0.213026
-0.049423 0.063675 0.213789
-0.048562 0.063869 0.214402
-0.047724 0.064101 0.215144
-0.047017 0.064524 0.216525
-0.046342 0.065009 0.218114
-0.045702 0.065568 0.219948
-0.044865 0.065863 0.220896
-0.043926 0.066019 0.221379
-0.043111 0.066373 0.222523
-0.042397 0.066905 0.224262
-0.041738 0.067553 0.226393
-0.051344 0.085286 0.285764
-0.050039 0.085365 0.285972
-0.048604 0.085218 0.285424
-0.047385 0.085454 0.286159
-0.046121 0.085620 0.286657
-0.044762 0.085614 0.286581
-0.043447 0.085696 0.286800
-0.042133 0.085783 0.287038
-0.040241 0.084661 0.283230
-0.039746 0.086502 0.289333
-0.038404 0.086567 0.289495
-0.036371 0.085021 0.284272
-0.035011 0.084988 0.284112
-0.031231 0.078843 0.263521
-0.029565 0.077748 0.259815
-0.028162 0.077277 0.258198
-0.027009 0.077482 0.258838
-0.025668 0.077142 0.257661
-0.024405 0.077015 0.257194
-0.023198 0.077059 0.257300
-0.022006 0.077161 0.257603
-0.020862 0.077455 0.258545
-0.019754 0.077925 0.260080
-0.018683 0.078613 0.262339
-0.017616 0.079421 0.265002
-0.016239 0.078846 0.263050
-0.015194 0.079923 0.266610
-0.014040 0.080575 0.268753
-0.012403 0.078302 0.261145
-0.011117 0.077985 0.260059
-0.009863 0.077848 0.259578
-0.008561 0.077235 0.257513
-0.007333 0.077200 0.257373
-0.006120 0.077342 0.257825
-0.004900 0.077433 0.258110
-0.003673 0.077448 0.258143
-0.002454 0.077743 0.259113
-0.001220 0.077680 0.258889
0.000012 0.078191 0.260580
0.001271 0.079356 0.264454
0.002547 0.079918 0.266317
0.003857 0.080807 0.269272
0.005144 0.080896 0.269564
0.006445 0.081118 0.270302
0.007738 0.081178 0.270500
0.009038 0.081294 0.270886
0.010306 0.081120 0.270308
0.011582 0.081047 0.270069
0.012826 0.080783 0.269193
0.014094 0.080704 0.268938
0.015317 0.080401 0.267936
0.016568 0.080284 0.267556
0.017859 0.080358 0.267813
0.019160 0.080466 0.268186
0.020340 0.080088 0.266939
0.021597 0.080035 0.266778
0.022883 0.080090 0.266981
0.023903 0.079256 0.264218
0.025109 0.079094 0.263695
0.026177 0.078530 0.261836
0.027306 0.078193 0.260735
0.028482 0.078016 0.260167
0.029520 0.077488 0.258430
0.030672 0.077291 0.257797
0.031977 0.077480 0.258453
0.033326 0.077758 0.259405
0.034693 0.078057 0.260427
0.036116 0.078456 0.261786
0.037418 0.078572 0.262202
0.038783 0.078812 0.263030
0.039962 0.078668 0.262579
0.041441 0.079106 0.264071
0.043107 0.079865 0.266635
0.044340 0.079801 0.266452
0.043866 0.076754 0.256305
0.044546 0.075836 0.253269
0.045635 0.075645 0.252659
0.046958 0.075841 0.253342
0.048023 0.075620 0.252632
0.049179 0.075550 0.252428
0.050419 0.075610 0.252654
0.051702 0.075730 0.253080
0.052914 0.075741 0.253144
0.054309 0.076010 0.254069
0.056108 0.076818 0.256794
0.058857 0.078866 0.263665
0.060664 0.079593 0.266118
0.062260 0.080018 0.267561
0.063643 0.080158 0.268050
0.065241 0.080557 0.269405
0.066716 0.080792 0.270209
0.067932 0.080712 0.269954
0.069354 0.080873 0.270508
0.070366 0.080561 0.269475
0.071281 0.080149 0.268107
0.072582 0.080178 0.268211
0.073741 0.080052 0.267796
0.074180 0.079162 0.264820
0.073333 0.076953 0.257429
0.073750 0.076120 0.254639
0.074974 0.076133 0.254679
0.075779 0.075727 0.253312
0.076773 0.075520 0.252607
0.078171 0.075711 0.253229
0.079575 0.075901 0.253845
0.081265 0.076354 0.255339
0.082659 0.076519 0.255865
0.084763 0.077328 0.258539
0.086305 0.077609 0.259443
0.095302 0.084490 0.282404
0.098747 0.086326 0.288491
0.100147 0.086349 0.288513
0.101629 0.086440 0.288759
0.102919 0.086368 0.288452
0.104629 0.086645 0.289309
0.106000 0.086639 0.289210
0.107323 0.086593 0.288973
0.108764 0.086643 0.289051
0.110203 0.086689 0.289109
0.111656 0.086746 0.289194
0.113145 0.086828 0.289357
0.114657 0.086926 0.289565
0.116124 0.086987 0.289644
0.117413 0.086916 0.289272
0.119018 0.087077 0.289665
0.120426 0.087092 0.289565
0.121731 0.087033 0.289208
0.123257 0.087131 0.289365
0.124612 0.087108 0.289108
0.125968 0.087085 0.288844
0.127376 0.087099 0.288690
0.128774 0.087105 0.288502
0.130488 0.087323 0.289003
0.132244 0.087564 0.289568
0.133930 0.087754 0.289950
0.135466 0.087842 0.289986
0.136876 0.087848 0.289734
0.138562 0.088029 0.290049
0.140399 0.088301 0.290647
0.142077 0.088469 0.290887
0.144023 0.088798 0.291640
0.145698 0.088955 0.291814
0.147473 0.089170 0.292158
0.149199 0.089351 0.292374
0.150842 0.089479 0.292398
0.152387 0.089548 0.292210
0.153912 0.089603 0.291958
0.155570 0.089734 0.291931
-0.045679 0.026185 0.084493
-0.045407 0.026263 0.084870
-0.045220 0.026392 0.085406
-0.045023 0.026518 0.085928
-0.044824 0.026644 0.086449
-0.045690 0.027933 0.090950
-0.043255 0.030843 0.101595
-0.042302 0.030502 0.100518
-0.042634 0.031090 0.102504
-0.041844 0.030865 0.101804
-0.040863 0.030491 0.100610
-0.040353 0.030464 0.100560
-0.041271 0.031527 0.104105
-0.043353 0.033516 0.110708
-0.040557 0.031737 0.104861
-0.042687 0.033815 0.111759
-0.042424 0.034027 0.112486
-0.042047 0.034151 0.112922
-0.041221 0.033908 0.112143
-0.041017 0.034177 0.113055
-0.040705 0.034364 0.113689
-0.041981 0.035912 0.118831
-0.041863 0.036295 0.120111
-0.041590 0.036552 0.120976
-0.041393 0.036884 0.122085
-0.043652 0.039444 0.130568
-0.043092 0.039493 0.130739
-0.043529 0.040471 0.133983
-0.042952 0.040521 0.134154
-0.047259 0.045250 0.149810
-0.046612 0.045306 0.149996
-0.059555 0.058775 0.194587
-0.058711 0.058847 0.194822
-0.059537 0.060621 0.200687
-0.058780 0.060814 0.201317
-0.057987 0.060977 0.201843
-0.057123 0.061068 0.202132
-0.056374 0.061289 0.202846
-0.055619 0.061509 0.203556
-0.054863 0.061737 0.204292
-0.054408 0.062317 0.206188
-0.053965 0.062933 0.208204
-0.053282 0.063286 0.209346
-0.052579 0.063629 0.210453
-0.051743 0.063820 0.211057
-0.050947 0.064070 0.211852
-0.050190 0.064379 0.212842
-0.049381 0.064634 0.213652
-0.048529 0.064841 0.214304
-0.047624 0.064984 0.214740
-0.046809 0.065260 0.215616
-0.046203 0.065846 0.217516
-0.045395 0.066164 0.218529
-0.044588 0.066498 0.219591
-0.043793 0.066867 0.220771
-0.042992 0.067243 0.221972
-0.042211 0.067672 0.223346
-0.052326 0.086039 0.283912
-0.051033 0.086119 0.284123
-0.050103 0.086835 0.286433
-0.048760 0.086854 0.286439
-0.047489 0.087005 0.286883
-0.046119 0.086981 0.286750
-0.044777 0.087008 0.286787
-0.043485 0.087136 0.287154
-0.042085 0.087051 0.286820
-0.040073 0.085652 0.282157
-0.040131 0.088732 0.292252
-0.038775 0.088798 0.292415
-0.036231 0.086043 0.283294
-0.034976 0.086257 0.283948
-0.030974 0.079443 0.261471
-0.029581 0.079033 0.260077
-0.028167 0.078526 0.258366
-0.026970 0.078608 0.258594
-0.025651 0.078323 0.257614
-0.024378 0.078158 0.257033
-0.023173 0.078207 0.257155
-0.021996 0.078360 0.257619
-0.020892 0.078807 0.259051
-0.019738 0.079109 0.260008
-0.018677 0.079850 0.262408
-0.017613 0.080683 0.265113
-0.016236 0.080100 0.263165
-0.015322 0.081894 0.269026
-0.014106 0.082256 0.270185
-0.012333 0.079113 0.259835
-0.011023 0.078576 0.258045
-0.009793 0.078547 0.257924
-0.008545 0.078341 0.257227
-0.007333 0.078457 0.257586
-0.006112 0.078510 0.257740
-0.004895 0.078638 0.258144
-0.003672 0.078732 0.258434
-0.002451 0.079001 0.259303
-0.001214 0.078751 0.258468
0.000015 0.079053 0.259447
0.001271 0.080419 0.263922
0.002548 0.081113 0.266190
0.003828 0.081391 0.267097
0.005070 0.080936 0.265596
0.006335 0.080957 0.265663
0.007620 0.081176 0.266379
0.008854 0.080864 0.265355
0.010110 0.080814 0.265194
0.011384 0.080901 0.265482
0.012650 0.080917 0.265538
0.013906 0.080868 0.265382
0.015162 0.080830 0.265265
0.016395 0.080685 0.264798
0.017678 0.080792 0.265159
0.019037 0.081203 0.266521
0.020223 0.080872 0.265448
0.021497 0.080915 0.265604
0.022751 0.080879 0.265501
0.023925 0.080575 0.264519
0.025021 0.080055 0.262830
0.026125 0.079609 0.261385
0.027263 0.079301 0.260393
0.028429 0.079095 0.259739
0.029496 0.078644 0.258279
0.030725 0.078645 0.258307
0.032012 0.078788 0.258798
0.033314 0.078954 0.259368
0.034816 0.079567 0.261408
0.036072 0.079594 0.261522
0.037456 0.079892 0.262528
0.038957 0.080413 0.264265
0.040147 0.080279 0.263854
0.041527 0.080521 0.264675
0.043156 0.081217 0.266992
0.044459 0.081277 0.267218
0.043101 0.076606 0.251888
0.044281 0.076575 0.251810
0.045397 0.076438 0.251386
0.046556 0.076377 0.251213
0.047879 0.076583 0.251915
0.049030 0.076511 0.251704
0.050351 0.076700 0.252351
0.051648 0.076845 0.252854
0.053076 0.077173 0.253955
0.054248 0.077123 0.253813
0.055883 0.077719 0.255796
0.058383 0.079467 0.261571
0.061177 0.081534 0.268396
0.062367 0.081422 0.268047
0.063706 0.081505 0.268337
0.065217 0.081800 0.269327
0.066704 0.082055 0.270179
0.067994 0.082062 0.270216
0.069262 0.082042 0.270163
0.070448 0.081929 0.269798
0.071406 0.081559 0.268585
0.072489 0.081341 0.267874
0.073811 0.081395 0.268052
0.074690 0.080967 0.266641
0.073871 0.078742 0.259312
0.073829 0.077406 0.254905
0.074940 0.077302 0.254553
0.076083 0.077233 0.254314
0.076958 0.076899 0.253199
0.078312 0.077047 0.253667
0.079907 0.077423 0.254884
0.081688 0.077966 0.256644
0.083116 0.078159 0.257252
0.086076 0.079768 0.262511
0.095003 0.086782 0.285551
0.096248 0.086679 0.285165
0.098532 0.087501 0.287816
0.100360 0.087901 0.289074
0.101739 0.087902 0.289017
0.103126 0.087911 0.288975
0.104452 0.087867 0.288755
0.105723 0.087779 0.288385
0.107206 0.087867 0.288586
0.108515 0.087812 0.288311
0.109902 0.087820 0.288238
0.111377 0.087898 0.288386
0.112869 0.087986 0.288561
0.114161 0.087919 0.288217
0.115626 0.087985 0.288303
0.117280 0.088191 0.288839
0.118872 0.088347 0.289201
0.120361 0.088422 0.289292
0.121771 0.088439 0.289181
0.123337 0.088567 0.289425
0.124820 0.088634 0.289458
0.126424 0.088784 0.289753
0.127882 0.088829 0.289695
0.129196 0.088774 0.289301
0.130876 0.088969 0.289708
0.132756 0.089294 0.290527
0.134291 0.089383 0.290564
0.135742 0.089414 0.290401
0.137532 0.089666 0.290941
0.138987 0.089696 0.290749
0.140369 0.089679 0.290389
0.142077 0.089869 0.290683
0.143777 0.090049 0.290933
0.145441 0.090204 0.291081
0.146973 0.090274 0.290941
0.149078 0.090692 0.291901
0.150683 0.090800 0.291847
0.152285 0.090904 0.291761
0.153972 0.091057 0.291810
0.155588 0.091165 0.291696
-0.045540 0.026514 0.084162
-0.045406 0.026673 0.084795
-0.045452 0.026943 0.085774
-0.045288 0.027091 0.086365
-0.045309 0.027354 0.087317
-0.045389 0.027658 0.088398
-0.045214 0.028074 0.089941
-0.043325 0.031376 0.101721
-0.042894 0.031413 0.101892
-0.042940 0.031803 0.103206
-0.043006 0.032218 0.104597
-0.042902 0.032513 0.105599
-0.042455 0.032552 0.105768
-0.043779 0.033966 0.110402
-0.043311 0.034008 0.110574
-0.042989 0.034166 0.111124
-0.042698 0.034353 0.111765
-0.041871 0.034108 0.110998
-0.041669 0.034372 0.111884
-0.041599 0.034755 0.113153
-0.041573 0.035183 0.114570
-0.041858 0.035890 0.116893
-0.041832 0.036346 0.118397
-0.041584 0.036618 0.119299
-0.041314 0.036878 0.120161
-0.040941 0.037051 0.120740
-0.044284 0.040640 0.132448
-0.043715 0.040691 0.132622
-0.043886 0.041442 0.135077
-0.060321 0.059548 0.194111
-0.059481 0.059621 0.194348
-0.058431 0.059483 0.193898
-0.059690 0.061728 0.201209
-0.058872 0.061863 0.201643
-0.058127 0.062081 0.202344
-0.057258 0.062171 0.202625
-0.056567 0.062461 0.203557
-0.055847 0.062728 0.204412
-0.055105 0.062980 0.205213
-0.054327 0.063199 0.205909
-0.053723 0.063632 0.207297
-0.052969 0.063899 0.208144
-0.052272 0.064248 0.209255
-0.051549 0.064577 0.210301
-0.050681 0.064734 0.210784
-0.049914 0.065028 0.211712
-0.049291 0.065526 0.213304
-0.048407 0.065691 0.213807
-0.047622 0.066000 0.214780
-0.046751 0.066200 0.215399
-0.045979 0.066553 0.216510
-0.045207 0.066922 0.217675
-0.044339 0.067163 0.218424
-0.043513 0.067481 0.219419
-0.042934 0.068206 0.221739
-0.042649 0.069446 0.225729
-0.052419 0.087543 0.284504
-0.051123 0.087624 0.284715
-0.049962 0.087948 0.285716
-0.048663 0.088041 0.285966
-0.047281 0.087984 0.285729
-0.046045 0.088202 0.286386
-0.044719 0.088259 0.286517
-0.043395 0.088322 0.286670
-0.041244 0.086652 0.281199
-0.039994 0.086825 0.281710
-0.041094 0.092290 0.299389
-0.039706 0.092357 0.299556
-0.036146 0.087189 0.282745
-0.034713 0.086954 0.281933
-0.031090 0.080993 0.262564
-0.029660 0.080488 0.260883
-0.028223 0.079920 0.259000
-0.026982 0.079878 0.258824
-0.025634 0.079505 0.257572
-0.024393 0.079438 0.257319
-0.023163 0.079406 0.257175
-0.021996 0.079597 0.257757
-0.020846 0.079874 0.258618
-0.019738 0.080356 0.260146
-0.018642 0.080959 0.262063
-0.017610 0.081945 0.265221
-0.016272 0.081548 0.263904
-0.015352 0.083355 0.269721
-0.014079 0.083399 0.269836
-0.012192 0.079453 0.257040
-0.010935 0.079188 0.256160
-0.009752 0.079470 0.257048
-0.008512 0.079287 0.256432
-0.007301 0.079374 0.256694
-0.006089 0.079476 0.257003
-0.004867 0.079469 0.256964
-0.003656 0.079692 0.257669
-0.002428 0.079585 0.257307
-0.001201 0.079330 0.256470
0.000018 0.079809 0.258008
0.001287 0.082458 0.266562
0.002573 0.083077 0.268553
0.003864 0.083364 0.269473
0.005102 0.082667 0.267214
0.006341 0.082251 0.265866
0.007626 0.082467 0.266562
0.008846 0.082026 0.265135
0.010057 0.081616 0.263811
0.011304 0.081560 0.263634
0.012536 0.081414 0.263164
0.013824 0.081628 0.263864
0.015069 0.081571 0.263686
0.016300 0.081454 0.263316
0.017585 0.081605 0.263814
0.018883 0.081790 0.264421
0.020174 0.081923 0.264865
0.021432 0.081916 0.264855
0.022749 0.082122 0.265535
0.024048 0.082244 0.265946
0.024991 0.081197 0.262577
0.026103 0.080771 0.261218
0.027244 0.080470 0.260263
0.028299 0.079954 0.258612
0.029383 0.079558 0.257353
0.030597 0.079530 0.257283
0.031799 0.079476 0.257131
0.033124 0.079721 0.257945
0.034406 0.079850 0.258385
0.035767 0.080145 0.259365
0.037204 0.080585 0.260814
0.038888 0.081517 0.263854
0.040255 0.081745 0.264617
0.041567 0.081850 0.264985
0.043137 0.082442 0.266927
0.044394 0.082419 0.266879
0.046290 0.083552 0.270572
0.044494 0.078139 0.253068
0.045206 0.077299 0.250373
0.046534 0.077528 0.251139
0.047719 0.077513 0.251112
0.048856 0.077424 0.250847
0.050154 0.077587 0.251399
0.051418 0.077692 0.251762
0.052627 0.077711 0.251842
0.053975 0.077928 0.252568
0.056002 0.079096 0.256373
0.058550 0.080933 0.262345
0.060946 0.082489 0.267406
0.062557 0.082940 0.268887
0.063720 0.082790 0.268416
0.065194 0.083044 0.269251
0.066674 0.083294 0.270075
0.067938 0.083271 0.270009
0.069249 0.083304 0.270125
0.070376 0.083119 0.269531
0.071189 0.082576 0.267772
0.072080 0.082140 0.266363
0.073286 0.082074 0.266145
0.074051 0.081523 0.264356
0.077185 0.083555 0.270939
0.078818 0.083923 0.272120
0.074660 0.078211 0.253587
0.075790 0.078134 0.253322
0.076709 0.077843 0.252361
0.078069 0.078003 0.252858
0.079558 0.078284 0.253744
0.081597 0.079091 0.256329
0.083455 0.079700 0.258270
0.086136 0.081067 0.262660
0.094725 0.087875 0.284672
0.095968 0.087772 0.284287
