ply
format ascii 1.0
element vertex 1746
property float x
property float y
property float z
end_header
-0.070859 0.002861 0.290873
-0.067862 0.002795 0.283983
-0.066007 0.002774 0.281701
-0.063798 0.002737 0.277786
-0.062559 0.002741 0.278032
-0.061344 0.002747 0.278402
-0.059943 0.002744 0.277929
-0.058750 0.002750 0.278429
-0.057851 0.002771 0.280385
-0.056589 0.002775 0.280642
-0.056600 0.002843 0.287376
-0.055232 0.002844 0.287280
-0.053588 0.002830 0.285715
-0.052176 0.002828 0.285345
-0.050859 0.002831 0.285502
-0.049404 0.002827 0.284876
-0.047918 0.002820 0.284044
-0.046455 0.002814 0.283312
-0.045240 0.002823 0.284109
-0.043888 0.002824 0.284070
-0.041981 0.002789 0.280340
-0.040731 0.002796 0.280906
-0.039378 0.002796 0.280787
-0.038174 0.002807 0.281774
-0.036509 0.002784 0.279315
-0.035267 0.002792 0.280035
-0.034265 0.002821 0.282815
-0.030791 0.002641 0.264592
-0.029048 0.002599 0.260326
-0.027580 0.002580 0.258269
-0.026381 0.002585 0.258666
-0.025156 0.002587 0.258838
-0.023903 0.002587 0.258755
-0.022618 0.002584 0.258301
-0.021365 0.002584 0.258198
-0.020241 0.002600 0.259741
-0.019111 0.002618 0.261432
-0.017839 0.002617 0.261296
-0.017054 0.002693 0.268829
-0.015476 0.002646 0.264088
-0.014202 0.002648 0.264170
-0.013393 0.002745 0.273778
-0.007863 0.002672 0.266348
0.001186 0.002651 0.264022
0.002468 0.002648 0.263749
0.003836 0.002708 0.269769
0.005148 0.002708 0.269747
0.006241 0.002616 0.260607
0.007458 0.002599 0.258894
0.008636 0.002575 0.256485
0.009921 0.002584 0.257473
0.011168 0.002583 0.257390
0.012431 0.002585 0.257644
0.013725 0.002593 0.258440
0.015024 0.002600 0.259209
0.016348 0.002610 0.260257
0.017699 0.002623 0.261569
0.019011 0.002629 0.262176
0.020421 0.002646 0.263974
0.021698 0.002645 0.263957
0.033651 0.002677 0.267834
0.034918 0.002674 0.267672
0.036254 0.002677 0.268043
0.037513 0.002674 0.267848
0.038854 0.002677 0.268247
0.039923 0.002661 0.266800
0.040784 0.002633 0.264105
0.042118 0.002637 0.264557
0.043375 0.002635 0.264517
0.044050 0.002599 0.261039
0.044267 0.002539 0.255117
0.045407 0.002534 0.254698
0.046763 0.002541 0.255482
0.047862 0.002533 0.254868
0.049052 0.002531 0.254764
0.050321 0.002533 0.255071
0.051599 0.002535 0.255411
0.052966 0.002541 0.256176
0.054309 0.002546 0.256797
0.055995 0.002566 0.258981
0.057737 0.002588 0.261330
0.059867 0.002626 0.265302
0.061693 0.002650 0.267802
0.063197 0.002659 0.268833
0.064421 0.002656 0.268663
0.065728 0.002656 0.268843
0.067130 0.002660 0.269399
0.068377 0.002658 0.269326
0.069639 0.002657 0.269321
0.070837 0.002653 0.269074
0.071675 0.002636 0.267496
0.072505 0.002619 0.265943
0.073532 0.002610 0.265155
0.074474 0.002598 0.264095
0.075457 0.002589 0.263217
0.076453 0.002579 0.262410
0.077486 0.002572 0.261754
0.078604 0.002567 0.261405
0.080060 0.002573 0.262173
0.081308 0.002573 0.262248
0.083041 0.002587 0.263862
0.084685 0.002599 0.265149
0.086170 0.002605 0.265907
0.087978 0.002621 0.267627
0.096712 0.002840 0.290073
0.097810 0.002831 0.289309
0.099610 0.002843 0.290612
0.100930 0.002840 0.290497
0.102272 0.002839 0.290444
0.103632 0.002838 0.290443
0.104961 0.002836 0.290352
0.106334 0.002835 0.290379
0.107704 0.002834 0.290397
0.108926 0.002830 0.290013
0.110273 0.002828 0.289966
0.111619 0.002827 0.289913
0.113020 0.002827 0.289996
0.114263 0.002823 0.289674
0.115615 0.002822 0.289625
0.117220 0.002827 0.290199
0.118900 0.002834 0.290936
0.120187 0.002831 0.290699
0.121029 0.002818 0.289398
0.122925 0.002830 0.290608
0.124146 0.002826 0.290209
0.125628 0.002827 0.290412
0.127269 0.002833 0.290966
0.128418 0.002827 0.290387
0.129782 0.002826 0.290290
0.131275 0.002828 0.290473
0.132719 0.002829 0.290534
0.134377 0.002834 0.291046
0.135376 0.002825 0.290125
0.136936 0.002828 0.290402
0.138341 0.002828 0.290335
0.139504 0.002823 0.289755
0.141199 0.002829 0.290266
0.142687 0.002830 0.290333
0.144901 0.002846 0.291847
0.146001 0.002840 0.291095
0.147474 0.002841 0.291078
0.148902 0.002841 0.290957
0.150049 0.002835 0.290280
0.151321 0.002833 0.289837
-0.133758 0.004124 0.286924
-0.132627 0.004131 0.287448
-0.131610 0.004142 0.288222
-0.130473 0.004149 0.288738
-0.136416 0.004528 0.315062
-0.122137 0.004099 0.285175
-0.121666 0.004129 0.287217
-0.120293 0.004128 0.287145
-0.118844 0.004125 0.286882
-0.117938 0.004141 0.287931
-0.115690 0.004110 0.285685
-0.113959 0.004096 0.284674
-0.112187 0.004081 0.283532
-0.110902 0.004083 0.283603
-0.109984 0.004098 0.284622
-0.108620 0.004098 0.284494
-0.107218 0.004096 0.284257
-0.105043 0.004064 0.281937
-0.103715 0.004064 0.281859
-0.102417 0.004065 0.281858
-0.101350 0.004076 0.282501
-0.100143 0.004082 0.282761
-0.098837 0.004083 0.282744
-0.097896 0.004100 0.283784
-0.096582 0.004101 0.283752
-0.096686 0.004163 0.287945
-0.095153 0.004156 0.287311
-0.093706 0.004152 0.286920
-0.091848 0.004130 0.285243
-0.090759 0.004142 0.285942
-0.089539 0.004149 0.286241
-0.087868 0.004134 0.285089
-0.087789 0.004195 0.289145
-0.086024 0.004176 0.287688
-0.083624 0.004125 0.284033
-0.082285 0.004126 0.283924
-0.081495 0.004154 0.285741
-0.079883 0.004141 0.284690
-0.078854 0.004158 0.285718
-0.075098 0.004030 0.276734
-0.074307 0.004059 0.278562
-0.075789 0.004215 0.289128
-0.072270 0.004094 0.280657
-0.074035 0.004273 0.292774
-0.072494 0.004264 0.292032
-0.068909 0.004133 0.282875
-0.067352 0.004120 0.281855
-0.065653 0.004099 0.280196
-0.064463 0.004108 0.280692
-0.062942 0.004097 0.279740
-0.061574 0.004095 0.279454
-0.060089 0.004085 0.278614
-0.061057 0.004245 0.289373
-0.059759 0.004251 0.289643
-0.057860 0.004214 0.286952
-0.056565 0.004220 0.287210
-0.054639 0.004178 0.284206
-0.053003 0.004157 0.282608
-0.051781 0.004168 0.283198
-0.050514 0.004175 0.283572
-0.049152 0.004176 0.283431
-0.047727 0.004170 0.282922
-0.046323 0.004166 0.282519
-0.045085 0.004178 0.283142
-0.043838 0.004189 0.283759
-0.042532 0.004195 0.284030
-0.040584 0.004136 0.279904
-0.038848 0.004095 0.277019
-0.038796 0.004235 0.286375
-0.036016 0.004077 0.275555
-0.035499 0.004173 0.281891
-0.034149 0.004174 0.281873
-0.030372 0.003867 0.261001
-0.028843 0.003831 0.258498
-0.027587 0.003830 0.258340
-0.026335 0.003830 0.258222
-0.025057 0.003826 0.257831
-0.023885 0.003838 0.258569
-0.022633 0.003838 0.258485
-0.021410 0.003843 0.258756
-0.020248 0.003861 0.259852
-0.019127 0.003889 0.261672
-0.017764 0.003868 0.260213
-0.016818 0.003943 0.265125
-0.015541 0.003945 0.265203
-0.014714 0.004072 0.273693
-0.013392 0.004074 0.273761
-0.012068 0.004076 0.273823
-0.009153 0.003965 0.266291
-0.007862 0.003966 0.266332
-0.006570 0.003967 0.266367
0.001178 0.003904 0.262011
0.002452 0.003904 0.262002
0.005183 0.004047 0.271604
0.006345 0.003948 0.264984
0.007511 0.003885 0.260723
0.008715 0.003856 0.258832
0.010017 0.003873 0.259969
0.011262 0.003866 0.259558
0.012536 0.003870 0.259834
0.013847 0.003883 0.260757
0.015188 0.003902 0.262047
0.016493 0.003909 0.262571
0.017832 0.003923 0.263542
0.019123 0.003925 0.263726
0.020527 0.003948 0.265354
0.021850 0.003954 0.265810
0.023127 0.003952 0.265702
0.036604 0.004013 0.270641
0.037878 0.004009 0.270466
0.038818 0.003971 0.268001
0.039929 0.003952 0.266847
0.040929 0.003924 0.265055
0.041895 0.003894 0.263166
0.042945 0.003874 0.261900
0.043941 0.003850 0.260402
0.044013 0.003749 0.253660
0.045213 0.003746 0.253612
0.046571 0.003757 0.254444
0.047577 0.003739 0.253358
0.048758 0.003736 0.253244
0.049980 0.003736 0.253348
0.051240 0.003738 0.253644
0.052501 0.003741 0.253935
0.053604 0.003732 0.253470
0.055027 0.003746 0.254508
0.057278 0.003814 0.259260
0.059863 0.003901 0.265295
0.061943 0.003952 0.268892
0.063095 0.003943 0.268405
0.064402 0.003943 0.268591
0.065852 0.003953 0.269355
0.067123 0.003951 0.269377
0.068396 0.003950 0.269408
0.069594 0.003944 0.269150
0.070885 0.003944 0.269262
0.071910 0.003929 0.268375
0.073312 0.003935 0.268907
0.074085 0.003907 0.267157
0.075014 0.003889 0.266017
0.076200 0.003884 0.265813
0.077122 0.003866 0.264710
0.078143 0.003854 0.263981
0.079407 0.003853 0.264081
0.080652 0.003852 0.264116
0.082147 0.003863 0.264959
0.083432 0.003863 0.265107
0.085239 0.003888 0.266887
0.087067 0.003912 0.268681
0.095483 0.004228 0.290463
0.096706 0.004220 0.290058
0.098772 0.004249 0.292158
0.099742 0.004231 0.291000
0.100839 0.004218 0.290237
0.102231 0.004218 0.290332
0.103610 0.004218 0.290384
0.104880 0.004213 0.290129
0.106297 0.004214 0.290281
0.107809 0.004218 0.290681
0.109107 0.004215 0.290498
0.110454 0.004213 0.290445
0.111866 0.004213 0.290556
0.113199 0.004211 0.290457
0.114460 0.004206 0.290175
0.115916 0.004208 0.290381
0.117196 0.004204 0.290139
0.119948 0.004252 0.293501
0.119694 0.004194 0.289507
0.120967 0.004190 0.289250
0.122744 0.004203 0.290180
0.123884 0.004195 0.289595
0.125272 0.004194 0.289589
0.127007 0.004206 0.290366
0.128636 0.004213 0.290879
0.129774 0.004205 0.290272
0.131043 0.004201 0.289960
0.132611 0.004206 0.290297
0.133942 0.004204 0.290104
0.135592 0.004212 0.290588
0.137083 0.004214 0.290712
0.138399 0.004211 0.290455
0.139901 0.004214 0.290577
0.141424 0.004218 0.290727
0.143508 0.004238 0.292001
0.144892 0.004237 0.291826
0.146353 0.004238 0.291793
0.147643 0.004235 0.291408
0.149125 0.004236 0.291389
0.150258 0.004228 0.290680
0.151680 0.004228 0.290521
-0.122482 0.006211 0.324732
-0.121426 0.006236 0.325916
-0.093764 0.005514 0.287105
-0.093377 0.005572 0.289998
-0.091616 0.005549 0.288648
-0.090409 0.005559 0.289028
-0.087781 0.005566 0.289125
-0.082798 0.005334 0.276908
-0.083615 0.005473 0.284012
-0.082362 0.005480 0.284201
-0.081152 0.005489 0.284548
-0.080449 0.005534 0.286715
-0.079221 0.005543 0.287056
-0.075028 0.005342 0.276486
-0.073942 0.005359 0.277202
-0.072482 0.005349 0.276520
-0.071088 0.005343 0.276075
-0.070128 0.005370 0.277335
-0.068762 0.005367 0.277010
-0.067680 0.005386 0.277842
-0.066497 0.005398 0.278289
-0.065188 0.005399 0.278222
-0.065452 0.005534 0.285009
-0.065234 0.005633 0.289939
-0.063945 0.005641 0.290225
-0.061596 0.005555 0.285617
-0.060282 0.005560 0.285713
-0.058885 0.005557 0.285421
-0.057146 0.005521 0.283426
-0.055251 0.005468 0.280549
-0.053864 0.005464 0.280189
-0.052773 0.005490 0.281392
-0.051396 0.005488 0.281106
-0.050157 0.005500 0.281585
-0.049076 0.005531 0.283007
-0.047639 0.005522 0.282417
-0.046133 0.005504 0.281373
-0.044932 0.005523 0.282200
-0.043465 0.005509 0.281361
-0.043175 0.005649 0.288340
-0.041833 0.005655 0.288537
-0.040154 0.005615 0.286349
-0.038815 0.005621 0.286533
-0.036791 0.005525 0.281501
-0.035469 0.005530 0.281671
-0.034052 0.005521 0.281087
-0.030206 0.005101 0.259591
-0.028830 0.005080 0.258401
-0.027617 0.005086 0.258640
-0.026330 0.005079 0.258185
-0.025080 0.005079 0.258089
-0.023882 0.005090 0.258553
-0.022606 0.005085 0.258196
-0.021372 0.005089 0.258309
-0.020265 0.005125 0.260079
-0.019062 0.005141 0.260801
-0.017840 0.005153 0.261346
-0.013308 0.005370 0.272071
-0.011471 0.005138 0.260303
-0.010142 0.005106 0.258599
-0.008943 0.005138 0.260209
-0.007621 0.005099 0.258200
-0.006368 0.005100 0.258217
-0.005117 0.005104 0.258367
-0.003866 0.005109 0.258598
-0.002613 0.005117 0.258952
-0.001350 0.005102 0.258212
-0.000095 0.005134 0.259816
0.001170 0.005145 0.260352
0.002446 0.005167 0.261452
0.003862 0.005368 0.271603
0.005182 0.005367 0.271581
0.006393 0.005276 0.266988
0.007549 0.005178 0.262055
0.008792 0.005160 0.261124
0.010058 0.005158 0.261055
0.011319 0.005154 0.260889
0.012601 0.005160 0.261193
0.013927 0.005180 0.262271
0.015294 0.005211 0.263888
0.016643 0.005232 0.264979
0.018002 0.005253 0.266074
0.019220 0.005232 0.265080
0.020478 0.005224 0.264730
0.021712 0.005212 0.264152
0.022895 0.005189 0.263057
0.025186 0.005406 0.274141
0.036182 0.005261 0.267534
0.036626 0.005142 0.261538
0.038058 0.005164 0.262768
0.039437 0.005178 0.263573
0.040613 0.005165 0.263021
0.041843 0.005159 0.262850
0.042560 0.005093 0.259563
0.043765 0.005087 0.259365
0.044130 0.004986 0.254343
0.045320 0.004982 0.254223
0.046587 0.004986 0.254542
0.047710 0.004974 0.254078
0.048959 0.004977 0.254301
0.050185 0.004976 0.254400
0.051425 0.004977 0.254569
0.052703 0.004982 0.254919
0.053996 0.004988 0.255330
0.055476 0.005010 0.256593
0.057014 0.005036 0.258075
0.059851 0.005174 0.265249
0.061761 0.005227 0.268113
0.063197 0.005239 0.268852
0.064468 0.005237 0.268874
0.065880 0.005247 0.269477
0.067155 0.005245 0.269515
0.068436 0.005243 0.269574
0.069832 0.005251 0.270083
0.071052 0.005245 0.269905
0.072331 0.005244 0.269955
0.073445 0.005230 0.269402
0.074511 0.005214 0.268699
0.075910 0.005222 0.269202
0.076960 0.005205 0.268472
0.077944 0.005185 0.267539
0.079029 0.005172 0.266979
0.080248 0.005168 0.266883
0.081571 0.005170 0.267132
0.083144 0.005189 0.268181
0.084641 0.005201 0.268955
0.086221 0.005219 0.269967
0.088092 0.005253 0.271847
0.095065 0.005586 0.289197
0.096283 0.005577 0.288795
0.098675 0.005634 0.291875
0.099557 0.005605 0.290466
0.100728 0.005593 0.289924
0.102263 0.005601 0.290428
0.103289 0.005581 0.289488
0.105047 0.005601 0.290597
0.106379 0.005597 0.290508
0.107912 0.005605 0.290963
0.109138 0.005596 0.290584
0.110524 0.005596 0.290632
0.111801 0.005590 0.290390
0.113230 0.005592 0.290540
0.114546 0.005588 0.290393
0.115947 0.005589 0.290460
0.117223 0.005583 0.290208
0.118411 0.005573 0.289742
0.119914 0.005579 0.290040
0.121172 0.005573 0.289739
0.122582 0.005574 0.289799
0.123927 0.005571 0.289696
0.125260 0.005569 0.289562
0.127036 0.005586 0.290433
0.128337 0.005582 0.290201
0.129604 0.005576 0.289890
0.131206 0.005585 0.290319
0.132373 0.005576 0.289775
0.133984 0.005585 0.290192
0.135238 0.005579 0.289828
0.137628 0.005619 0.291866
0.138826 0.005611 0.291348
0.140397 0.005617 0.291604
0.142221 0.005634 0.292362
0.143525 0.005630 0.292033
0.144980 0.005631 0.291999
0.145818 0.005609 0.290723
0.147387 0.005615 0.290899
0.149007 0.005623 0.291155
0.150348 0.005621 0.290849
0.151688 0.005618 0.290531
-0.122470 0.007742 0.324704
-0.121413 0.007773 0.325887
-0.120091 0.007787 0.326376
-0.067713 0.006716 0.277993
-0.066493 0.006727 0.278287
-0.066433 0.006857 0.283550
-0.065885 0.006943 0.286911
-0.064207 0.006909 0.285390
-0.060861 0.006692 0.276242
-0.059329 0.006668 0.275119
-0.057975 0.006664 0.274793
-0.056913 0.006694 0.275879
-0.055726 0.006710 0.276399
-0.054446 0.006715 0.276481
-0.053263 0.006733 0.277077
-0.052245 0.006774 0.278595
-0.051075 0.006796 0.279363
-0.050129 0.006850 0.281445
-0.048839 0.006859 0.281659
-0.046739 0.006751 0.277098
-0.045564 0.006775 0.277924
-0.044286 0.006784 0.278162
-0.042821 0.006764 0.277214
-0.042758 0.006971 0.285575
-0.041507 0.006992 0.286308
-0.039688 0.006916 0.283049
-0.038126 0.006880 0.281464
-0.036807 0.006887 0.281640
-0.035309 0.006860 0.280424
-0.033899 0.006849 0.279846
-0.030765 0.006474 0.264417
-0.028682 0.006297 0.257091
-0.027505 0.006312 0.257607
-0.026283 0.006318 0.257753
-0.025024 0.006315 0.257538
-0.023832 0.006329 0.258036
-0.022604 0.006335 0.258192
-0.021415 0.006353 0.258848
-0.020215 0.006370 0.259458
-0.019096 0.006417 0.261277
-0.017814 0.006411 0.260977
-0.013418 0.006746 0.274356
-0.011312 0.006314 0.256712
-0.010052 0.006305 0.256314
-0.008864 0.006346 0.257934
-0.007558 0.006301 0.256073
-0.006330 0.006317 0.256690
-0.005098 0.006337 0.257442
-0.003852 0.006343 0.257691
-0.002602 0.006351 0.257986
-0.001349 0.006351 0.257980
-0.000095 0.006393 0.259671
0.001175 0.006434 0.261303
0.002445 0.006434 0.261294
0.003909 0.006768 0.274873
0.005245 0.006767 0.274851
0.006397 0.006578 0.267171
0.007592 0.006489 0.263541
0.008835 0.006460 0.262416
0.010210 0.006524 0.265021
0.011535 0.006544 0.265862
0.012769 0.006514 0.264675
0.014138 0.006552 0.266256
0.015508 0.006585 0.267600
0.016904 0.006622 0.269152
0.018221 0.006625 0.269322
0.019522 0.006622 0.269259
0.020672 0.006571 0.267254
0.021902 0.006551 0.266480
0.023866 0.006740 0.274230
0.025182 0.006735 0.274112
0.026421 0.006712 0.273222
0.027672 0.006694 0.272554
0.029016 0.006698 0.272817
0.030226 0.006673 0.271866
0.031370 0.006636 0.270435
0.032543 0.006607 0.269363
0.033668 0.006572 0.268005
0.034782 0.006537 0.266667
0.036176 0.006555 0.267506
0.037348 0.006533 0.266710
0.038645 0.006534 0.266836
0.040081 0.006558 0.267896
0.040860 0.006475 0.264635
0.041879 0.006435 0.263091
0.042929 0.006401 0.261833
0.043748 0.006336 0.259278
0.044158 0.006218 0.254520
0.045299 0.006205 0.254120
0.046573 0.006211 0.254476
0.047707 0.006199 0.254073
0.048978 0.006204 0.254409
0.050188 0.006202 0.254427
0.051468 0.006208 0.254796
0.052755 0.006215 0.255183
0.054127 0.006231 0.255961
0.055380 0.006233 0.256164
0.058186 0.006406 0.263390
0.059014 0.006358 0.261554
0.062015 0.006542 0.269230
0.063253 0.006535 0.269101
0.064459 0.006526 0.268847
0.065902 0.006541 0.269579
0.067198 0.006541 0.269696
0.068491 0.006540 0.269802
0.069871 0.006548 0.270241
0.071281 0.006558 0.270786
0.072439 0.006545 0.270371
0.073838 0.006554 0.270855
0.074850 0.006529 0.269933
0.076128 0.006527 0.269985
0.077306 0.006517 0.269689
0.078315 0.006493 0.268821
0.079327 0.006471 0.267993
0.080516 0.006463 0.267785
0.082013 0.006480 0.268586
0.083579 0.006501 0.269591
0.085119 0.006520 0.270483
0.086599 0.006534 0.271158
0.088247 0.006560 0.272334
0.097986 0.007074 0.293910
0.099221 0.007062 0.293496
0.099775 0.007002 0.291108
0.100891 0.006983 0.290399
0.102053 0.006967 0.289835
0.104943 0.006975 0.290312
0.106391 0.006979 0.290546
0.108001 0.006993 0.291207
0.109193 0.006980 0.290734
0.110513 0.006976 0.290605
0.112273 0.006999 0.291620
0.113258 0.006973 0.290616
0.114850 0.006985 0.291168
0.116287 0.006988 0.291315
0.117187 0.006959 0.290121
0.118761 0.006970 0.290599
0.120077 0.006965 0.290435
0.120867 0.006931 0.289012
0.122761 0.006960 0.290223
0.123969 0.006949 0.289795
0.125096 0.006935 0.289181
0.126573 0.006940 0.289374
0.128573 0.006973 0.290735
0.129829 0.006965 0.290393
0.131220 0.006965 0.290348
0.132605 0.006965 0.290280
0.134256 0.006978 0.290779
0.136064 0.006999 0.291593
0.137926 0.007023 0.292495
0.139422 0.007027 0.292595
0.140513 0.007011 0.291842
0.142132 0.007022 0.292174
0.143571 0.007023 0.292121
0.144793 0.007014 0.291617
0.146192 0.007014 0.291462
0.147630 0.007015 0.291370
0.149386 0.007031 0.291889
0.150375 0.007012 0.290894
0.152393 0.007040 0.291873
-0.120872 0.008416 0.295102
-0.119694 0.008431 0.295582
-0.118680 0.008458 0.296478
-0.117566 0.008479 0.297138
-0.116373 0.008494 0.297607
-0.122454 0.009273 0.324669
-0.114203 0.008758 0.306541
-0.113472 0.008814 0.308393
-0.112526 0.008854 0.309698
-0.111513 0.008890 0.310849
-0.110619 0.008936 0.312361
-0.109866 0.008995 0.314317
-0.109105 0.009055 0.316299
-0.108303 0.009114 0.318214
-0.106990 0.009130 0.318658
-0.073710 0.008930 0.308511
-0.072179 0.008923 0.308095
-0.064476 0.008137 0.280791
-0.062258 0.008024 0.276744
-0.060703 0.007993 0.275546
-0.059272 0.007978 0.274874
-0.057848 0.007963 0.274210
-0.056610 0.007973 0.274428
-0.055320 0.007977 0.274406
-0.054014 0.007978 0.274306
-0.052722 0.007982 0.274282
-0.051520 0.007999 0.274748
-0.050257 0.008008 0.274913
-0.048958 0.008012 0.274890
-0.047695 0.008021 0.275086
-0.046425 0.008030 0.275257
-0.045141 0.008037 0.275361
-0.043871 0.008047 0.275573
-0.043815 0.008288 0.283668
-0.042383 0.008275 0.283095
-0.040988 0.008268 0.282751
-0.039316 0.008204 0.280417
-0.037919 0.008194 0.279964
-0.035753 0.008012 0.273605
-0.035288 0.008210 0.280276
-0.033916 0.008206 0.280006
-0.030185 0.007606 0.259448
-0.028731 0.007554 0.257557
-0.027451 0.007544 0.257124
-0.026232 0.007551 0.257271
-0.025002 0.007555 0.257327
-0.023759 0.007556 0.257266
-0.022558 0.007571 0.257684
-0.021407 0.007606 0.258784
-0.020224 0.007632 0.259600
-0.019058 0.007669 0.260785
-0.017853 0.007694 0.261585
-0.017240 0.007998 0.271837
-0.015586 0.007830 0.266045
-0.014634 0.008015 0.272292
-0.013319 0.008019 0.272359
-0.011233 0.007508 0.254962
-0.010062 0.007558 0.256611
-0.008875 0.007608 0.258276
-0.007587 0.007575 0.257098
-0.006346 0.007584 0.257373
-0.005109 0.007604 0.258022
-0.003860 0.007612 0.258278
-0.002608 0.007624 0.258638
-0.001353 0.007633 0.258927
-0.000095 0.007646 0.259379
0.001171 0.007678 0.260450
0.002434 0.007669 0.260126
0.010826 0.008283 0.281013
0.012189 0.008281 0.280957
0.013519 0.008258 0.280236
0.014872 0.008253 0.280094
0.016153 0.008212 0.278747
0.017627 0.008268 0.280687
0.018983 0.008264 0.280599
0.019518 0.007928 0.269224
0.020507 0.007806 0.265141
0.021873 0.007834 0.266147
0.024260 0.008204 0.278768
0.025597 0.008198 0.278649
0.026681 0.008117 0.275939
0.028029 0.008119 0.276081
0.029452 0.008141 0.276938
0.030555 0.008078 0.274847
0.031862 0.008071 0.274699
0.033089 0.008045 0.273909
0.034238 0.008003 0.272560
0.035465 0.007982 0.271927
0.036449 0.007909 0.269545
0.037745 0.007907 0.269561
0.038691 0.007834 0.267172
0.039838 0.007805 0.266287
0.040828 0.007748 0.264446
0.042142 0.007754 0.264760
0.042919 0.007664 0.261788
0.043710 0.007581 0.259070
0.044032 0.007424 0.253810
0.045232 0.007420 0.253761
0.046381 0.007407 0.253444
0.047515 0.007393 0.253067
0.048758 0.007396 0.253285
0.049930 0.007389 0.253134
0.051164 0.007390 0.253303
0.052447 0.007399 0.253708
0.053435 0.007366 0.252704
0.054732 0.007377 0.253179
0.056600 0.007462 0.256226
0.060441 0.007798 0.267891
0.062090 0.007844 0.269569
0.063360 0.007840 0.269571
0.064644 0.007838 0.269636
0.065983 0.007843 0.269926
0.067207 0.007834 0.269744
0.068572 0.007842 0.270135
0.070007 0.007857 0.270782
0.071581 0.007887 0.271935
0.073486 0.007952 0.274290
0.074606 0.007931 0.273684
0.075445 0.007881 0.272089
0.076581 0.007864 0.271602
0.077400 0.007815 0.270024
0.078585 0.007804 0.269758
0.079519 0.007769 0.268653
0.080742 0.007762 0.268546
0.082371 0.007795 0.269768
0.083865 0.007813 0.270521
0.085444 0.007839 0.271522
0.086651 0.007831 0.271328
0.088966 0.007921 0.274561
0.095522 0.008381 0.290602
0.096746 0.008366 0.290198
0.098892 0.008431 0.292533
0.099275 0.008345 0.289657
0.100500 0.008332 0.289278
0.103171 0.008324 0.289169
0.105202 0.008376 0.291035
0.106493 0.008368 0.290829
0.107676 0.008351 0.290336
0.109111 0.008355 0.290520
0.110622 0.008364 0.290896
0.111765 0.008346 0.290302
0.113116 0.008343 0.290254
0.114572 0.008348 0.290466
0.115653 0.008325 0.289726
0.117079 0.008328 0.289856
0.118387 0.008323 0.289685
0.119560 0.008308 0.289187
0.120936 0.008307 0.289178
0.122811 0.008341 0.290340
0.123830 0.008316 0.289469
0.125393 0.008328 0.289867
0.126563 0.008313 0.289348
0.128464 0.008347 0.290486
0.129900 0.008349 0.290549
0.131063 0.008335 0.289998
0.132640 0.008346 0.290353
0.134047 0.008347 0.290323
0.135589 0.008356 0.290572
0.137329 0.008377 0.291223
0.138711 0.008376 0.291098
0.140395 0.008393 0.291590
0.141745 0.008390 0.291374
0.142967 0.008380 0.290885
0.144773 0.008403 0.291570
0.145881 0.008386 0.290834
0.147207 0.008382 0.290528
0.149024 0.008405 0.291171
0.150626 0.008416 0.291369
0.151955 0.008411 0.291024
-0.133975 0.009269 0.278734
-0.132876 0.009284 0.279259
-0.130056 0.009178 0.276129
-0.119160 0.009345 0.281307
-0.118897 0.009429 0.283819
-0.118690 0.009520 0.286518
-0.118051 0.009578 0.288218
-0.117124 0.009613 0.289238
-0.116166 0.009647 0.290201
-0.115010 0.009665 0.290682
-0.113806 0.009679 0.291046
-0.113558 0.009776 0.293890
-0.113040 0.009851 0.296089
-0.113006 0.009971 0.299624
-0.112523 0.010054 0.302038
-0.112164 0.010151 0.304846
-0.111526 0.010224 0.306956
-0.110622 0.010275 0.308374
-0.109835 0.010338 0.310157
-0.109081 0.010406 0.312082
-0.108059 0.010449 0.313278
-0.106847 0.010476 0.313948
-0.105799 0.010519 0.315123
-0.076271 0.010352 0.307311
-0.074926 0.010368 0.307641
-0.073695 0.010402 0.308468
-0.072164 0.010393 0.308053
-0.070664 0.010389 0.307762
-0.069315 0.010407 0.308135
-0.067371 0.010335 0.305835
-0.066008 0.010350 0.306131
-0.063807 0.010232 0.302479
-0.062121 0.010193 0.301169
-0.060401 0.010146 0.299632
-0.058582 0.010080 0.297528
-0.057235 0.010095 0.297789
-0.045130 0.009361 0.275321
-0.044175 0.009440 0.277510
-0.042891 0.009451 0.277711
-0.041327 0.009399 0.276066
-0.040165 0.009439 0.277100
-0.039053 0.009493 0.278571
-0.037236 0.009374 0.274948
-0.035414 0.009244 0.271031
-0.035151 0.009528 0.279224
-0.033807 0.009529 0.279139
-0.030278 0.008888 0.260278
-0.028670 0.008781 0.257036
-0.027409 0.008775 0.256766
-0.026269 0.008809 0.257666
-0.024995 0.008799 0.257283
-0.023761 0.008803 0.257318
-0.022599 0.008836 0.258188
-0.021393 0.008854 0.258634
-0.020164 0.008864 0.258863
-0.019063 0.008936 0.260882
-0.017872 0.008973 0.261890
-0.017235 0.009315 0.271796
-0.015562 0.009107 0.265675
-0.013315 0.009339 0.272317
-0.011321 0.008815 0.256998
-0.010062 0.008804 0.256636
-0.008871 0.008860 0.258208
-0.007599 0.008839 0.257555
-0.006350 0.008841 0.257600
-0.005109 0.008859 0.258069
-0.003862 0.008874 0.258486
-0.002608 0.008882 0.258710
-0.001356 0.008913 0.259601
-0.000095 0.008927 0.259995
0.001173 0.008959 0.260897
0.002447 0.008980 0.261511
0.003718 0.008980 0.261497
0.019304 0.009134 0.266292
0.020587 0.009129 0.266196
0.021928 0.009148 0.266829
0.023530 0.009269 0.270406
0.024827 0.009263 0.270290
0.025883 0.009172 0.267703
0.028022 0.009455 0.276040
0.029445 0.009482 0.276896
0.029335 0.009034 0.263892
0.030084 0.008877 0.259386
0.031372 0.008885 0.259715
0.032696 0.008903 0.260311
0.033749 0.008848 0.258788
0.035102 0.008873 0.259602
0.036472 0.008900 0.260496
0.037853 0.008928 0.261410
0.039300 0.008969 0.262710
0.040568 0.008968 0.262781
0.042197 0.009045 0.265128
0.043066 0.008959 0.262705
0.043746 0.008839 0.259307
0.044140 0.008670 0.254454
0.045405 0.008677 0.254749
0.046567 0.008664 0.254481
0.047776 0.008660 0.254479
0.048958 0.008652 0.254339
0.050254 0.008663 0.254794
0.051557 0.008676 0.255268
0.052759 0.008671 0.255236
0.054252 0.008713 0.256586
0.055597 0.008730 0.257198
0.057192 0.008784 0.258924
0.059040 0.008874 0.261697
0.061883 0.009107 0.268686
0.063125 0.009100 0.268587
0.064323 0.009086 0.268309
0.065772 0.009108 0.269078
0.067111 0.009114 0.269378
0.068372 0.009110 0.269361
0.069909 0.009141 0.270418
0.071488 0.009177 0.271598
0.073264 0.009236 0.273476
0.074263 0.009197 0.272440
0.075174 0.009149 0.271123
0.076335 0.009132 0.270741
0.077396 0.009104 0.270026
0.078349 0.009065 0.268961
0.079587 0.009059 0.268895
0.080863 0.009057 0.268957
0.082272 0.009070 0.269454
0.083523 0.009066 0.269429
0.085225 0.009110 0.270838
0.086203 0.009076 0.269937
0.088615 0.009192 0.273486
0.090695 0.009271 0.275925
0.099744 0.010050 0.299199
0.101001 0.010032 0.298778
0.100678 0.009861 0.293757
0.101026 0.009759 0.290801
0.101843 0.009704 0.289252
0.104157 0.009791 0.291937
0.104925 0.009733 0.290276
0.106518 0.009752 0.290904
0.107826 0.009744 0.290744
0.108999 0.009725 0.290228
0.110427 0.009729 0.290388
0.111834 0.009730 0.290487
0.112937 0.009706 0.289797
0.114621 0.009731 0.290592
0.115931 0.009724 0.290426
0.117203 0.009715 0.290164
0.118547 0.009711 0.290078
0.120018 0.009718 0.290295
0.121470 0.009723 0.290455
0.122783 0.009717 0.290274
0.124163 0.009716 0.290247
0.125259 0.009694 0.289557
0.127669 0.009772 0.291876
0.129032 0.009769 0.291768
0.130296 0.009759 0.291432
0.131544 0.009748 0.291059
0.132989 0.009752 0.291113
0.134743 0.009778 0.291827
0.136055 0.009772 0.291565
0.137358 0.009765 0.291279
0.139000 0.009782 0.291698
0.140339 0.009777 0.291467
0.141838 0.009784 0.291557
0.143155 0.009778 0.291259
0.144830 0.009797 0.291676
0.146125 0.009789 0.291311
0.148111 0.009828 0.292303
0.149405 0.009820 0.291905
0.150707 0.009813 0.291516
0.152172 0.009817 0.291428
-0.133943 0.010479 0.275875
-0.132855 0.010496 0.276400
-0.130409 0.010405 0.274070
-0.127584 0.010281 0.270877
-0.126516 0.010298 0.271377
-0.117738 0.010543 0.277951
-0.117061 0.010601 0.279439
-0.117344 0.010747 0.283272
-0.117207 0.010858 0.286161
-0.116268 0.010896 0.287130
-0.115487 0.010950 0.288511
-0.114727 0.011008 0.289971
-0.113619 0.011033 0.290575
-0.113175 0.011124 0.292904
-0.112862 0.011230 0.295631
-0.112937 0.011378 0.299448
-0.112884 0.011517 0.303016
-0.112339 0.011608 0.305331
-0.112045 0.011728 0.308393
-0.111480 0.011822 0.310776
-0.110600 0.011885 0.312329
-0.110321 0.012016 0.315639
-0.109402 0.012079 0.317182
-0.108401 0.012134 0.318526
-0.107086 0.012156 0.318970
-0.078922 0.011777 0.306573
-0.077589 0.011796 0.306913
-0.076233 0.011812 0.307182
-0.075480 0.011925 0.309940
-0.074509 0.012006 0.311902
-0.073175 0.012032 0.312394
-0.071852 0.012060 0.312960
-0.070399 0.012067 0.312983
-0.069050 0.012092 0.313482
-0.064006 0.011718 0.303450
-0.062644 0.011735 0.303733
-0.059496 0.011410 0.295171
-0.058567 0.011505 0.297479
-0.043664 0.010045 0.258939
-0.042472 0.010057 0.259136
-0.041632 0.010156 0.261561
-0.041785 0.010511 0.270582
-0.040513 0.010519 0.270664
-0.039624 0.010630 0.273400
-0.038711 0.010742 0.276160
-0.037472 0.010769 0.276724
-0.035631 0.010618 0.272724
-0.035153 0.010877 0.279266
-0.033816 0.010881 0.279247
-0.030231 0.010131 0.259910
-0.028765 0.010057 0.257915
-0.027369 0.010003 0.256420
-0.026102 0.009992 0.256060
-0.024975 0.010037 0.257114
-0.023749 0.010044 0.257221
-0.022544 0.010062 0.257599
-0.021351 0.010088 0.258170
-0.020161 0.010118 0.258859
-0.019018 0.010177 0.260315
-0.017870 0.010242 0.261905
-0.017225 0.010627 0.271683
-0.015589 0.010414 0.266176
-0.014391 0.010482 0.267841
-0.013098 0.010487 0.267907
-0.011324 0.010066 0.257100
-0.010094 0.010083 0.257498
-0.008861 0.010103 0.257955
-0.007594 0.010083 0.257408
-0.006356 0.010102 0.257871
-0.005105 0.010104 0.257898
-0.003862 0.010130 0.258529
-0.002610 0.010145 0.258886
-0.001356 0.010179 0.259732
-0.000094 0.010169 0.259453
0.001170 0.010196 0.260145
0.002433 0.010191 0.259999
0.003681 0.010148 0.258899
0.018818 0.010164 0.259617
0.020476 0.010365 0.264793
0.021781 0.010374 0.265074
0.023561 0.010595 0.270787
0.024859 0.010588 0.270671
0.025450 0.010295 0.263250
0.026527 0.010217 0.261337
0.028175 0.010357 0.264980
0.028749 0.010107 0.258649
0.030022 0.010113 0.258878
0.031544 0.010199 0.261160
0.032564 0.010122 0.259283
0.033985 0.010171 0.260623
0.035415 0.010219 0.261946
0.036719 0.010229 0.262281
0.038138 0.010269 0.263401
0.039559 0.010307 0.264468
0.040939 0.010332 0.265208
0.042615 0.010428 0.267776
0.043563 0.010345 0.265758
0.044570 0.010281 0.264212
0.044446 0.009966 0.256237
0.045565 0.009940 0.255673
0.046858 0.009952 0.256092
0.047843 0.009900 0.254855
0.049113 0.009908 0.255168
0.050417 0.009922 0.255643
0.051650 0.009922 0.255749
0.053433 0.010025 0.258517
0.055062 0.010095 0.260438
0.056369 0.010104 0.260788
0.057851 0.010144 0.261926
0.059481 0.010207 0.263671
0.061769 0.010378 0.268212
0.063161 0.010394 0.268759
0.064332 0.010375 0.268366
0.065674 0.010383 0.268694
0.067047 0.010395 0.269136
0.068411 0.010406 0.269533
0.069826 0.010424 0.270113
0.071394 0.010463 0.271256
0.072164 0.010386 0.269386
0.072827 0.010297 0.267188
0.074216 0.010312 0.267685
0.075059 0.010252 0.266231
0.075684 0.010164 0.264064
0.076871 0.010154 0.263901
0.077767 0.010106 0.262759
0.078550 0.010045 0.261279
0.080218 0.010097 0.262740
0.081654 0.010119 0.263412
0.083331 0.010170 0.264829
0.085173 0.010239 0.266721
0.087095 0.010315 0.268806
0.089713 0.010470 0.272949
0.098150 0.011291 0.294430
0.099388 0.011271 0.294016
0.100915 0.011285 0.294457
0.100855 0.011123 0.290318
0.102025 0.011099 0.289776
0.103860 0.011147 0.291113
0.105429 0.011166 0.291677
0.106659 0.011149 0.291296
0.107840 0.011127 0.290790
0.109034 0.011107 0.290325
0.110767 0.011142 0.291287
0.111542 0.011081 0.289731
0.111751 0.010965 0.286758
0.114998 0.011147 0.291551
0.116089 0.011118 0.290826
0.117696 0.011139 0.291388
0.119216 0.011151 0.291718
0.120060 0.011100 0.290398
0.121641 0.011117 0.290865
0.123285 0.011140 0.291460
0.124407 0.011116 0.290817
0.126170 0.011149 0.291661
0.127092 0.011107 0.290553
0.128577 0.011116 0.290736
0.130125 0.011129 0.291047
0.131876 0.011159 0.291790
0.133301 0.011161 0.291791
0.134457 0.011141 0.291202
0.136007 0.011154 0.291456
0.137373 0.011151 0.291304
0.138729 0.011148 0.291123
0.140305 0.011162 0.291389
0.141684 0.011161 0.291232
0.143434 0.011188 0.291818
0.144791 0.011184 0.291586
0.146278 0.011190 0.291604
0.147676 0.011190 0.291432
0.149173 0.011197 0.291440
0.150654 0.011202 0.291400
0.151875 0.011189 0.290845
-0.131865 0.011599 0.271587
-0.129909 0.011539 0.270264
-0.126249 0.011325 0.265322
-0.123545 0.011193 0.262296
-0.121091 0.011082 0.259737
-0.120066 0.011100 0.260212
-0.117718 0.011851 0.277906
-0.114513 0.011658 0.273359
-0.114645 0.011804 0.276760
-0.114847 0.011961 0.280402
-0.114185 0.012030 0.281989
-0.113564 0.012105 0.283711
-0.112782 0.012165 0.285062
-0.111536 0.012176 0.285252
-0.111031 0.012268 0.287362
-0.110853 0.012400 0.290375
-0.110618 0.012528 0.293308
-0.110640 0.012689 0.297002
-0.110225 0.012804 0.299596
-0.109722 0.012911 0.302009
-0.109226 0.013022 0.304504
-0.108114 0.013061 0.305320
-0.107283 0.013135 0.306959
-0.106669 0.013239 0.309272
-0.105734 0.013305 0.310703
-0.104749 0.013367 0.312023
-0.103458 0.013390 0.312453
-0.078490 0.013165 0.304920
-0.077844 0.013303 0.307949
-0.075989 0.013235 0.306224
-0.074564 0.013241 0.306205
-0.073637 0.013338 0.308279
-0.071546 0.013223 0.305466
-0.071832 0.013552 0.312904
-0.045372 0.010531 0.242031
-0.044270 0.010545 0.242234
-0.043618 0.010670 0.244979
-0.042660 0.010725 0.246121
-0.041889 0.010831 0.248440
-0.041175 0.010959 0.251250
-0.040977 0.011236 0.257481
-0.040580 0.011474 0.262808
-0.039875 0.011638 0.266433
-0.039235 0.011831 0.270748
-0.038437 0.011989 0.274242
-0.037498 0.012113 0.276949
-0.036376 0.012184 0.278469
-0.035069 0.012197 0.278636
-0.033936 0.012273 0.280273
-0.030149 0.011357 0.259240
-0.028637 0.011254 0.256803
-0.027355 0.011238 0.256330
-0.026168 0.011260 0.256739
-0.024947 0.011269 0.256859
-0.023772 0.011301 0.257507
-0.022585 0.011331 0.258103
-0.021338 0.011332 0.258050
-0.020116 0.011348 0.258331
-0.018947 0.011397 0.259382
-0.017971 0.011577 0.263419
-0.017129 0.011879 0.270213
-0.015520 0.011654 0.265034
-0.014487 0.011861 0.269682
-0.013185 0.011867 0.269748
-0.011305 0.011295 0.256711
-0.010059 0.011295 0.256660
-0.008866 0.011362 0.258134
-0.007587 0.011324 0.257239
-0.006340 0.011328 0.257298
-0.005106 0.011361 0.258015
-0.003861 0.011385 0.258536
-0.002612 0.011416 0.259223
-0.001357 0.011456 0.260098
-0.000094 0.011462 0.260220
0.001174 0.011494 0.260946
0.002459 0.011574 0.262764
0.003736 0.011574 0.262749
0.019217 0.011666 0.265142
0.020494 0.011660 0.265047
0.021893 0.011720 0.266466
0.024852 0.011897 0.270617
0.025400 0.011549 0.262766
0.026088 0.011294 0.257042
0.027357 0.011303 0.257310
0.028613 0.011306 0.257456
0.029836 0.011296 0.257301
0.031106 0.011304 0.257565
0.032523 0.011363 0.258980
0.033862 0.011391 0.259708
0.035125 0.011392 0.259827
0.036746 0.011506 0.262499
0.038263 0.011580 0.264289
0.039640 0.011608 0.265036
0.041225 0.011694 0.267090
0.042659 0.011733 0.268080
0.043587 0.011634 0.265933
0.044647 0.011576 0.264697
0.045368 0.011435 0.261579
0.046637 0.011436 0.261711
0.047682 0.011384 0.260620
0.048644 0.011314 0.259146
0.050004 0.011339 0.259822
0.051280 0.011344 0.260038
0.052653 0.011369 0.260738
0.053995 0.011387 0.261258
0.055277 0.011392 0.261479
0.056686 0.011421 0.262277
0.058185 0.011468 0.263460
0.059869 0.011548 0.265414
0.061690 0.011650 0.267890
0.063009 0.011656 0.268132
0.064327 0.011661 0.268366
0.065736 0.011682 0.268970
0.067107 0.011695 0.269398
0.068466 0.011706 0.269767
0.069754 0.011705 0.269852
0.070956 0.011689 0.269612
0.071940 0.011639 0.268566
0.073015 0.011605 0.267893
0.073946 0.011549 0.266729
0.075113 0.011532 0.266439
0.075817 0.011445 0.264546
0.076376 0.011340 0.262216
0.077512 0.011322 0.261912
0.078386 0.011267 0.260744
0.079583 0.011260 0.260674
0.080868 0.011265 0.260890
0.082806 0.011360 0.263172
0.084642 0.011438 0.265070
0.086572 0.011526 0.267203
0.088838 0.011655 0.270296
0.097268 0.012578 0.291795
0.098494 0.012556 0.291384
0.101736 0.012789 0.296863
0.100346 0.012441 0.288862
0.101484 0.012411 0.288249
0.103011 0.012429 0.288741
0.104921 0.012492 0.290278
0.106448 0.012508 0.290725
0.107610 0.012482 0.290175
0.109738 0.012567 0.292207
0.111046 0.012557 0.292027
0.112237 0.012534 0.291543
0.113583 0.012529 0.291463
0.114895 0.012520 0.291295
0.116119 0.012502 0.290902
0.117332 0.012483 0.290487
0.118715 0.012483 0.290492
0.120234 0.012496 0.290819
0.121576 0.012491 0.290708
0.122649 0.012459 0.289957
0.124274 0.012483 0.290504
0.125572 0.012474 0.290276
0.127730 0.012550 0.292009
0.129337 0.012570 0.292451
0.130548 0.012552 0.291988
0.131653 0.012524 0.291292
0.133088 0.012528 0.291320
0.134565 0.012536 0.291429
0.135717 0.012513 0.290828
0.137131 0.012515 0.290783
0.138543 0.012516 0.290723
0.140046 0.012526 0.290842
0.141718 0.012550 0.291292
0.143233 0.012561 0.291398
0.144589 0.012557 0.291169
0.146021 0.012559 0.291081
0.147465 0.012563 0.291002
0.148927 0.012568 0.290944
0.150670 0.012596 0.291415
0.152011 0.012591 0.291090
-0.129045 0.012605 0.265771
-0.126631 0.012491 0.263437
-0.124370 0.012389 0.261366
-0.122304 0.012305 0.259656
-0.119901 0.012186 0.257180
-0.117900 0.012104 0.255512
-0.112810 0.012612 0.266320
-0.112984 0.012773 0.269711
-0.113361 0.012961 0.273662
-0.113878 0.013170 0.278040
-0.113470 0.013275 0.280228
-0.112471 0.013313 0.280985
-0.111891 0.013402 0.282816
-0.110823 0.013434 0.283436
-0.110203 0.013522 0.285226
-0.109908 0.013652 0.287909
-0.109999 0.013834 0.291677
-0.109674 0.013968 0.294419
-0.108788 0.014033 0.295699
-0.108888 0.014228 0.299725
-0.107850 0.014277 0.300679
-0.106564 0.014295 0.300955
-0.105958 0.014406 0.303182
-0.105199 0.014498 0.305026
-0.104043 0.014538 0.305750
-0.103294 0.014637 0.307703
-0.103428 0.014865 0.312380
-0.071524 0.014678 0.305404
-0.046104 0.011035 0.228778
-0.045071 0.011051 0.228983
-0.044291 0.011130 0.230515
-0.043567 0.011229 0.232435
-0.043158 0.011415 0.236180
-0.042715 0.011603 0.239942
-0.042059 0.011741 0.242683
-0.041454 0.011902 0.245891
-0.040848 0.012072 0.249292
-0.040573 0.012353 0.254978
-0.040293 0.012650 0.260991
-0.039718 0.012871 0.265421
-0.039211 0.013129 0.270620
-0.038460 0.013320 0.274447
-0.037085 0.013302 0.273943
-0.035576 0.013231 0.272384
-0.035091 0.013551 0.278852
-0.033923 0.013623 0.280212
-0.030212 0.012636 0.259822
-0.028680 0.012515 0.257235
-0.027275 0.012441 0.255620
-0.026056 0.012449 0.255687
-0.024896 0.012487 0.256385
-0.023791 0.012558 0.257752
-0.022593 0.012586 0.258238
-0.021352 0.012590 0.258256
-0.020133 0.012610 0.258589
-0.018960 0.012663 0.259594
-0.017881 0.012790 0.262143
-0.017070 0.013145 0.269331
-0.015475 0.012903 0.264313
-0.014466 0.013150 0.269323
-0.013165 0.013156 0.269390
-0.011367 0.012610 0.258165
-0.010095 0.012586 0.257617
-0.008851 0.012595 0.257754
-0.007600 0.012595 0.257727
-0.006355 0.012608 0.257965
-0.005101 0.012604 0.257843
-0.003861 0.012644 0.258626
-0.002610 0.012669 0.259123
-0.001352 0.012674 0.259205
-0.000093 0.012673 0.259183
0.001174 0.012753 0.260803
0.002454 0.012821 0.262176
0.014876 0.013699 0.280276
0.016231 0.013693 0.280201
0.017485 0.013610 0.278533
0.018915 0.013665 0.279715
0.020264 0.013658 0.279621
0.020472 0.012932 0.264798
0.021707 0.012902 0.264233
0.024981 0.012611 0.258459
0.026140 0.012565 0.257588
0.027467 0.012601 0.258380
0.028596 0.012546 0.257329
0.029968 0.012598 0.258469
0.031248 0.012608 0.258768
0.032535 0.012621 0.259107
0.033826 0.012634 0.259464
0.035253 0.012695 0.260800
0.036545 0.012705 0.261094
0.037901 0.012736 0.261822
0.039638 0.012888 0.265052
0.041300 0.013008 0.267605
0.042903 0.013102 0.269640
0.044153 0.013086 0.269415
0.045128 0.012991 0.267575
0.046584 0.013037 0.268617
0.047684 0.012983 0.267613
0.048730 0.012917 0.266373
0.050175 0.012958 0.267331
0.051336 0.012926 0.266767
0.052408 0.012873 0.265787
0.053679 0.012870 0.265843
0.054727 0.012815 0.264824
0.056134 0.012845 0.265554
0.057197 0.012796 0.264667
0.058092 0.012713 0.263060
0.060092 0.012870 0.266429
0.061627 0.012923 0.267639
0.063034 0.012947 0.268263
0.064367 0.012956 0.268556
0.065739 0.012972 0.269002
0.067168 0.012998 0.269665
0.068516 0.013008 0.269985
0.069768 0.012999 0.269929
0.070874 0.012964 0.269318
0.071736 0.012887 0.267822
0.072655 0.012822 0.266590
0.073620 0.012768 0.265570
0.074552 0.012709 0.264464
0.075068 0.012583 0.261949
0.075538 0.012454 0.259354
0.076718 0.012443 0.259245
0.077551 0.012378 0.257983
0.078696 0.012364 0.257783
0.080142 0.012397 0.258562
0.081635 0.012436 0.259466
0.083281 0.012496 0.260820
0.084758 0.012530 0.261617
0.088817 0.012939 0.270244
0.099483 0.014083 0.294322
0.100717 0.014059 0.293903
0.099953 0.013760 0.287742
0.101845 0.013830 0.289285
0.103847 0.013913 0.291095
0.106349 0.013877 0.290463
0.107920 0.013900 0.291019
0.110581 0.013885 0.290809
0.112087 0.013900 0.291157
0.113769 0.013936 0.291944
0.114918 0.013906 0.291354
0.116179 0.013890 0.291055
0.117493 0.013881 0.290889
0.118572 0.013845 0.290143
0.120043 0.013855 0.290358
0.121252 0.013834 0.289933
0.123407 0.013921 0.291749
0.124044 0.013837 0.289964
0.126179 0.013919 0.291678
0.127721 0.013936 0.291986
0.128804 0.013902 0.291242
0.130007 0.013881 0.290773
0.131527 0.013895 0.291007
0.132579 0.013859 0.290199
0.134034 0.013866 0.290272
0.135731 0.013897 0.290850
0.137183 0.013903 0.290885
0.138450 0.013890 0.290519
0.140123 0.013918 0.290991
0.141732 0.013939 0.291308
0.143152 0.013941 0.291221
0.144447 0.013931 0.290869
0.146034 0.013949 0.291092
0.147610 0.013965 0.291274
0.149257 0.013988 0.291573
0.150794 0.014000 0.291637
0.152141 0.013995 0.291319
-0.124349 0.013620 0.261314
-0.122282 0.013528 0.259605
-0.119292 0.013330 0.255867
-0.117118 0.013221 0.253815
-0.111479 0.013703 0.263181
-0.111737 0.013889 0.266737
-0.113198 0.014230 0.273272
-0.113062 0.014377 0.276052
-0.112390 0.014457 0.277567
-0.111847 0.014557 0.279433
-0.111386 0.014669 0.281546
-0.110191 0.014686 0.281827
-0.109625 0.014789 0.283739
-0.109489 0.014953 0.286821
-0.108794 0.015044 0.288492
-0.108480 0.015190 0.291222
-0.108095 0.015330 0.293826
-0.107133 0.015391 0.294906
-0.105966 0.015423 0.295439
-0.105220 0.015519 0.297172
-0.104045 0.015553 0.297723
-0.103174 0.015633 0.299168
-0.102818 0.015796 0.302166
-0.103267 0.016088 0.307640
-0.046128 0.010408 0.196988
-0.045241 0.010420 0.197116
-0.045035 0.010593 0.200284
-0.044994 0.010813 0.204338
-0.044482 0.010926 0.206384
-0.043975 0.011047 0.208557
-0.043545 0.011193 0.211200
-0.043233 0.011377 0.214559
-0.043092 0.011616 0.218955
-0.043083 0.011903 0.224260
-0.042818 0.012132 0.228466
-0.042452 0.012345 0.232350
-0.042173 0.012594 0.236932
-0.041710 0.012801 0.240704
-0.041287 0.013032 0.244935
-0.040807 0.013259 0.249077
-0.040432 0.013534 0.254129
-0.040170 0.013865 0.260229
-0.039454 0.014056 0.263697
-0.039036 0.014369 0.269453
-0.038266 0.014570 0.273107
-0.037391 0.014744 0.276246
-0.035252 0.014414 0.269946
-0.035048 0.014880 0.278555
-0.033737 0.014894 0.278717
-0.029889 0.013744 0.257085
-0.028610 0.013726 0.256651
-0.027374 0.013727 0.256583
-0.026150 0.013736 0.256656
-0.024955 0.013760 0.257032
-0.023720 0.013765 0.257034
-0.022613 0.013849 0.258511
-0.021337 0.013832 0.258126
-0.020101 0.013842 0.258231
-0.018982 0.013938 0.259950
-0.017864 0.014049 0.261953
-0.017131 0.014503 0.270344
-0.015829 0.014510 0.270423
-0.013159 0.014457 0.269323
-0.011347 0.013840 0.257771
-0.010045 0.013769 0.256405
-0.008786 0.013745 0.255918
-0.007542 0.013742 0.255823
-0.006315 0.013774 0.256384
-0.005076 0.013790 0.256646
-0.003829 0.013785 0.256532
-0.002596 0.013856 0.257832
-0.001345 0.013865 0.257975
-0.000092 0.013924 0.259071
0.001174 0.014019 0.260827
0.002461 0.014132 0.262922
0.003907 0.014768 0.274743
0.005241 0.014766 0.274721
0.006575 0.014764 0.274693
0.007382 0.013780 0.256388
0.008660 0.013830 0.257340
0.010002 0.013959 0.259749
0.011115 0.013773 0.256322
0.012360 0.013774 0.256351
0.013631 0.013799 0.256850
0.014901 0.013820 0.257271
0.016163 0.013830 0.257498
0.017474 0.013878 0.258434
0.018737 0.013884 0.258591
0.020370 0.014146 0.263515
0.021676 0.014163 0.263886
0.024765 0.013744 0.256262
0.025952 0.013714 0.255764
0.027261 0.013748 0.256475
0.028339 0.013668 0.255049
0.029656 0.013705 0.255813
0.030919 0.013715 0.256076
0.032205 0.013734 0.256515
0.033447 0.013734 0.256589
0.034691 0.013734 0.256676
0.036005 0.013761 0.257271
0.037519 0.013860 0.259215
0.039680 0.014184 0.265370
0.041727 0.014448 0.270408
0.043262 0.014524 0.271936
0.044285 0.014429 0.270254
0.045811 0.014498 0.271657
0.047051 0.014476 0.271342
0.048304 0.014459 0.271128
0.049479 0.014419 0.270500
0.050697 0.014394 0.270141
0.051879 0.014360 0.269620
0.052975 0.014305 0.268694
0.054350 0.014326 0.269196
0.055658 0.014328 0.269359
0.056446 0.014200 0.267058
0.057472 0.014136 0.265969
0.058875 0.014165 0.266633
0.060537 0.014254 0.268427
0.061933 0.014278 0.268993
0.063083 0.014245 0.268497
0.064456 0.014263 0.268951
0.065825 0.014279 0.269379
0.067131 0.014282 0.269541
0.068556 0.014309 0.270168
0.069838 0.014306 0.270220
0.070933 0.014265 0.269565
0.071927 0.014206 0.268559
0.072622 0.014090 0.266491
0.073728 0.014057 0.265978
0.074595 0.013981 0.264636
0.074463 0.013723 0.259857
0.074842 0.013565 0.256981
0.075978 0.013548 0.256759
0.076759 0.013470 0.255364
0.077688 0.013419 0.254495
0.078755 0.013393 0.254101
0.079858 0.013374 0.253833
0.081131 0.013384 0.254102
0.082654 0.013434 0.255137
0.083954 0.013447 0.255461
0.084656 0.013365 0.253983
0.098589 0.015344 0.291688
0.100687 0.015452 0.293827
0.100904 0.015272 0.290488
0.102010 0.015230 0.289765
0.103556 0.015254 0.290290
0.104837 0.015239 0.290063
0.106505 0.015279 0.290899
0.108006 0.015295 0.291257
0.109154 0.015261 0.290665
0.110520 0.015258 0.290654
0.112116 0.015286 0.291238
0.113460 0.015280 0.291157
0.114878 0.015284 0.291259
0.115956 0.015243 0.290500
0.117269 0.015233 0.290337
0.118766 0.015247 0.290621
0.119815 0.015204 0.289808
0.121110 0.015193 0.289594
0.122485 0.015192 0.289567
0.124390 0.015256 0.290772
0.125713 0.015248 0.290598
0.126795 0.015211 0.289866
0.128294 0.015224 0.290086
0.129919 0.015252 0.290571
0.131205 0.015240 0.290288
0.132471 0.015226 0.289955
0.133975 0.015239 0.290135
0.135415 0.015245 0.290164
0.136909 0.015256 0.290295
0.138280 0.015254 0.290151
0.139733 0.015261 0.290169
0.141337 0.015284 0.290484
0.143282 0.015343 0.291471
0.144505 0.015324 0.290970
0.145793 0.015312 0.290595
0.147428 0.015337 0.290897
0.148948 0.015349 0.290953
0.150675 0.015382 0.291388
0.151946 0.015368 0.290926
-0.120942 0.014304 0.251586
-0.119948 0.014327 0.252060
-0.118049 0.014242 0.250612
-0.116498 0.014196 0.249869
-0.114579 0.014105 0.248307
-0.114000 0.015281 0.269134
-0.112929 0.015307 0.269584
-0.112775 0.015460 0.272254
-0.112615 0.015615 0.274963
-0.111677 0.015665 0.275808
-0.110824 0.015728 0.276881
-0.109813 0.015770 0.277575
-0.108381 0.015752 0.277205
-0.109598 0.016123 0.283677
-0.108452 0.016560 0.291158
-0.105924 0.016381 0.287937
-0.105974 0.016601 0.291728
-0.105514 0.016747 0.294192
-0.103781 0.016691 0.293124
-0.104016 0.016955 0.297656
-0.045699 0.011018 0.191378
-0.044856 0.011036 0.191577
-0.044512 0.011179 0.193962
-0.043914 0.011263 0.195322
-0.043415 0.011376 0.197193
-0.043194 0.011570 0.200437
-0.043218 0.011838 0.204990
-0.043052 0.012067 0.208837
-0.042849 0.012295 0.212682
-0.042620 0.012527 0.216591
-0.042685 0.012859 0.222218
-0.042550 0.013146 0.227072
-0.042431 0.013454 0.232269
-0.042037 0.013688 0.236202
-0.041700 0.013955 0.240686
-0.041253 0.014199 0.244772
-0.040728 0.014429 0.248635
-0.040367 0.014733 0.253757
-0.039936 0.015031 0.258756
-0.039085 0.015184 0.261275
-0.038642 0.015511 0.266784
-0.038099 0.015818 0.271956
-0.036522 0.015704 0.269872
-0.034621 0.015436 0.265160
-0.035032 0.016218 0.278483
-0.029961 0.015022 0.257748
-0.028607 0.014965 0.256668
-0.027397 0.014981 0.256851
-0.026102 0.014950 0.256227
-0.024919 0.014983 0.256716
-0.023772 0.015042 0.257645
-0.022562 0.015066 0.257974
-0.021325 0.015074 0.258033
-0.020082 0.015079 0.258038
-0.018928 0.015155 0.259260
-0.017967 0.015407 0.263511
-0.017088 0.015774 0.269724
