ply
format ascii 1.0
element vertex 1680
property float x
property float y
property float z
end_header
0.049180 -0.068738 0.258240
0.050277 -0.068555 0.257597
0.051420 -0.068443 0.257216
0.052753 -0.068583 0.257784
0.054261 -0.068939 0.259163
0.055941 -0.069492 0.261283
0.057769 -0.070202 0.263993
0.059707 -0.071011 0.267076
0.061497 -0.071615 0.269386
0.063015 -0.071883 0.270436
0.064618 -0.072236 0.271800
0.065983 -0.072314 0.272133
0.067252 -0.072286 0.272061
0.068457 -0.072191 0.271738
0.069607 -0.072044 0.271215
0.070492 -0.071632 0.269693
0.071025 -0.070883 0.266901
0.071881 -0.070477 0.265401
0.072835 -0.070179 0.264302
0.073370 -0.069496 0.261748
0.074324 -0.069224 0.260744
0.075334 -0.069014 0.259968
0.076208 -0.068687 0.258748
0.077557 -0.068792 0.259156
0.078958 -0.068939 0.259717
0.080543 -0.069239 0.260852
0.082255 -0.069639 0.262357
0.083850 -0.069928 0.263445
0.085830 -0.070525 0.265688
0.087057 -0.070496 0.265567
0.088393 -0.070553 0.265770
0.099826 -0.078555 0.295892
0.101103 -0.078454 0.295485
0.101628 -0.077779 0.292915
0.103060 -0.077807 0.292987
0.104544 -0.077874 0.293198
0.105774 -0.077752 0.292694
0.107116 -0.077715 0.292501
0.108523 -0.077724 0.292479
0.109978 -0.077768 0.292580
0.111295 -0.077714 0.292306
0.112683 -0.077710 0.292216
0.114291 -0.077856 0.292682
0.115954 -0.078037 0.293268
0.117687 -0.078258 0.294002
0.119065 -0.078242 0.293834
0.120439 -0.078223 0.293648
0.121904 -0.078263 0.293677
0.123285 -0.078249 0.293492
0.124732 -0.078276 0.293454
0.126095 -0.078250 0.293209
0.127655 -0.078346 0.293411
0.129085 -0.078361 0.293300
0.130716 -0.078496 0.293626
0.132108 -0.078487 0.293403
0.133585 -0.078528 0.293355
0.135000 -0.078531 0.293158
0.136566 -0.078622 0.293273
0.138142 -0.078716 0.293389
0.139734 -0.078817 0.293520
0.141345 -0.078927 0.293669
0.142775 -0.078934 0.293422
0.144450 -0.079075 0.293661
0.145969 -0.079130 0.293561
0.147660 -0.079275 0.293782
0.149099 -0.079283 0.293481
0.150508 -0.079276 0.293106
0.152152 -0.079391 0.293166
0.153362 -0.079280 0.292374
0.154805 -0.079290 0.292012
-0.122866 -0.060438 0.228679
-0.121931 -0.060516 0.229262
-0.121071 -0.060633 0.229979
-0.120133 -0.060713 0.230544
-0.119254 -0.060825 0.231219
-0.118421 -0.060962 0.231981
-0.117560 -0.061088 0.232689
-0.116662 -0.061197 0.233321
-0.115921 -0.061390 0.234267
-0.115090 -0.061540 0.235036
-0.114298 -0.061713 0.235889
-0.113555 -0.061917 0.236848
-0.112857 -0.062150 0.237908
-0.112259 -0.062443 0.239193
-0.111542 -0.062675 0.240237
-0.110720 -0.062853 0.241064
-0.109790 -0.062972 0.241658
-0.109100 -0.063233 0.242790
-0.108290 -0.063429 0.243665
-0.107396 -0.063580 0.244360
-0.106566 -0.063772 0.245206
-0.105821 -0.064021 0.246263
-0.104874 -0.064150 0.246856
-0.104281 -0.064502 0.248298
-0.105089 -0.065739 0.253139
-0.105144 -0.066527 0.256252
-0.104243 -0.066722 0.257073
-0.102815 -0.066580 0.256589
-0.102095 -0.066899 0.257875
-0.101865 -0.067551 0.260440
-0.101272 -0.067975 0.262120
-0.101428 -0.068918 0.265798
-0.101073 -0.069533 0.268205
-0.101100 -0.070430 0.271696
-0.100555 -0.070947 0.273715
-0.100450 -0.071791 0.276992
-0.099648 -0.072153 0.278405
-0.098657 -0.072385 0.279312
-0.097956 -0.072840 0.281074
-0.097130 -0.073214 0.282515
-0.095652 -0.073099 0.282069
-0.095160 -0.073745 0.284553
-0.093613 -0.073581 0.283908
-0.092305 -0.073602 0.283974
-0.091243 -0.073823 0.284806
-0.090026 -0.073924 0.285172
-0.088835 -0.074049 0.285627
-0.087496 -0.074052 0.285610
-0.086423 -0.074285 0.286474
-0.090175 -0.078739 0.303608
-0.088784 -0.078772 0.303694
-0.087381 -0.078796 0.303741
-0.085979 -0.078822 0.303791
-0.084557 -0.078830 0.303773
-0.082981 -0.078693 0.303189
-0.081658 -0.078794 0.303522
-0.080788 -0.079345 0.305586
-0.079448 -0.079445 0.305911
-0.078293 -0.079737 0.306973
-0.076803 -0.079694 0.306739
-0.075613 -0.079966 0.307719
-0.074608 -0.080447 0.309503
-0.073899 -0.081275 0.312617
-0.067235 -0.075453 0.290154
-0.066017 -0.075627 0.290754
-0.064842 -0.075860 0.291579
-0.063452 -0.075845 0.291452
-0.062136 -0.075920 0.291670
-0.060861 -0.076051 0.292098
-0.059493 -0.076068 0.292090
-0.058083 -0.076030 0.291873
-0.056758 -0.076106 0.292091
-0.055337 -0.076053 0.291813
-0.053925 -0.076010 0.291575
-0.052530 -0.075991 0.291427
-0.051197 -0.076061 0.291624
-0.049822 -0.076073 0.291596
-0.048377 -0.075974 0.291143
-0.047027 -0.076025 0.291263
-0.045636 -0.076009 0.291133
-0.044251 -0.076002 0.291035
-0.042902 -0.076060 0.291184
-0.041346 -0.075742 0.289899
-0.039399 -0.074662 0.285695
-0.039263 -0.077059 0.294799
-0.037892 -0.077119 0.294963
-0.035960 -0.075999 0.290615
-0.034656 -0.076170 0.291202
-0.032896 -0.075311 0.287856
-0.030735 -0.073421 0.280574
-0.029544 -0.073779 0.281883
-0.028068 -0.073429 0.280488
-0.026581 -0.073013 0.278844
-0.025212 -0.072892 0.278330
-0.023863 -0.072823 0.278017
-0.022501 -0.072700 0.277499
-0.021049 -0.072254 0.275749
-0.019720 -0.072202 0.275507
-0.018438 -0.072325 0.275933
-0.017041 -0.071981 0.274577
-0.015527 -0.071044 0.270967
-0.014338 -0.071563 0.272909
-0.013025 -0.071503 0.272646
-0.011296 -0.068887 0.262638
-0.009982 -0.068477 0.261048
-0.008779 -0.068810 0.262287
-0.007504 -0.068597 0.261452
-0.006259 -0.068634 0.261569
-0.005016 -0.068727 0.261904
-0.003773 -0.068870 0.262430
-0.002516 -0.068761 0.261996
-0.001268 -0.068931 0.262631
-0.000013 -0.069063 0.263121
0.001247 -0.069243 0.263799
0.002541 -0.070170 0.267320
0.003849 -0.070726 0.269433
0.005118 -0.070478 0.268484
0.006390 -0.070350 0.267996
0.007675 -0.070388 0.268140
0.008944 -0.070292 0.267777
0.010176 -0.069963 0.266533
0.011386 -0.069576 0.265063
0.012620 -0.069391 0.264367
0.013874 -0.069346 0.264208
0.015178 -0.069533 0.264933
0.016449 -0.069555 0.265033
0.017757 -0.069715 0.265659
0.019128 -0.070088 0.267099
0.020441 -0.070211 0.267592
0.021796 -0.070458 0.268557
0.023032 -0.070315 0.268036
0.024254 -0.070144 0.267410
0.025652 -0.070475 0.268701
0.026922 -0.070438 0.268587
0.027481 -0.068629 0.261719
0.028714 -0.068589 0.261599
0.030599 -0.070042 0.267178
0.031062 -0.068256 0.260400
0.032379 -0.068411 0.261027
0.033775 -0.068715 0.262224
0.035040 -0.068740 0.262357
0.036155 -0.068481 0.261406
0.037481 -0.068622 0.261988
0.038743 -0.068644 0.262111
0.039672 -0.068091 0.260040
0.041366 -0.068845 0.262966
0.042227 -0.068208 0.260574
0.043256 -0.067872 0.259334
0.044630 -0.068082 0.260179
0.045639 -0.067737 0.258906
0.046834 -0.067679 0.258729
0.048236 -0.067917 0.259682
0.049554 -0.068026 0.260144
0.050731 -0.067941 0.259864
0.051999 -0.067981 0.260060
0.053492 -0.068305 0.261342
0.054936 -0.068552 0.262334
0.056373 -0.068780 0.263250
0.058173 -0.069432 0.265787
0.059951 -0.070030 0.268120
0.061743 -0.070619 0.270417
0.063173 -0.070779 0.271071
0.064648 -0.070981 0.271886
0.065994 -0.071036 0.272136
0.067255 -0.071000 0.272035
0.068460 -0.070908 0.271718
0.069672 -0.070825 0.271436
0.070718 -0.070580 0.270528
0.071369 -0.069956 0.268167
0.072016 -0.069350 0.265873
0.072852 -0.068944 0.264341
0.073494 -0.068371 0.262170
0.074154 -0.067834 0.260133
0.075319 -0.067769 0.259900
0.076330 -0.067569 0.259150
0.077493 -0.067509 0.258931
0.079108 -0.067837 0.260203
0.080659 -0.068102 0.261225
0.082665 -0.068737 0.263665
0.084589 -0.069285 0.265768
0.086038 -0.069435 0.266339
0.087724 -0.069768 0.267608
0.089928 -0.070498 0.270398
0.099242 -0.076702 0.294177
0.100510 -0.076602 0.293772
0.101670 -0.076423 0.293060
0.102985 -0.076364 0.292802
0.104433 -0.076404 0.292918
0.105775 -0.076366 0.292730
0.107148 -0.076351 0.292625
0.108489 -0.076314 0.292430
0.109848 -0.076290 0.292280
0.111240 -0.076290 0.292213
0.112785 -0.076393 0.292534
0.114310 -0.076480 0.292789
0.115978 -0.076660 0.293390
0.117573 -0.076787 0.293784
0.119312 -0.077004 0.294513
0.120604 -0.076932 0.294126
0.122076 -0.076974 0.294169
0.123410 -0.076930 0.293872
0.124790 -0.076914 0.293678
0.126302 -0.076980 0.293784
0.127637 -0.076937 0.293468
0.129116 -0.076981 0.293471
0.130673 -0.077070 0.293638
0.132164 -0.077119 0.293640
0.133526 -0.077092 0.293342
0.135043 -0.077154 0.293375
0.136507 -0.077185 0.293274
0.138016 -0.077240 0.293257
0.139651 -0.077364 0.293486
0.141070 -0.077367 0.293243
0.142797 -0.077537 0.293620
0.144343 -0.077607 0.293602
0.145805 -0.077630 0.293395
0.147285 -0.077662 0.293207
0.148960 -0.077796 0.293386
0.150232 -0.077718 0.292752
0.151936 -0.077863 0.292941
0.153478 -0.077924 0.292794
0.154602 -0.077772 0.291833
-0.122813 -0.059311 0.228722
-0.121972 -0.059433 0.229475
-0.121129 -0.059557 0.230222
-0.120176 -0.059628 0.230755
-0.119364 -0.059772 0.231556
-0.118553 -0.059918 0.232358
-0.117733 -0.060063 0.233144
-0.116960 -0.060235 0.234026
-0.116154 -0.060392 0.234843
-0.115405 -0.060584 0.235782
-0.114689 -0.060796 0.236793
-0.113841 -0.060942 0.237536
-0.113366 -0.061292 0.239071
-0.112587 -0.061484 0.239978
-0.111820 -0.061686 0.240918
-0.111099 -0.061918 0.241967
-0.110471 -0.062207 0.243232
-0.109898 -0.062534 0.244637
-0.109033 -0.062700 0.245405
-0.108426 -0.063019 0.246767
-0.107652 -0.063248 0.247767
-0.106555 -0.063289 0.248026
-0.105477 -0.063343 0.248330
-0.104671 -0.063563 0.249276
-0.105786 -0.064969 0.254867
-0.105169 -0.065330 0.256358
-0.104843 -0.065883 0.258594
-0.103509 -0.065808 0.258359
-0.102079 -0.065670 0.257870
-0.104768 -0.068210 0.267893
-0.102420 -0.067492 0.265117
-0.103111 -0.068784 0.270233
-0.101588 -0.068613 0.269594
-0.100047 -0.068426 0.268885
-0.103511 -0.071701 0.281776
-0.101926 -0.071517 0.281073
-0.100786 -0.071646 0.281592
-0.100145 -0.072138 0.283530
-0.098880 -0.072187 0.283725
-0.097828 -0.072395 0.284544
-0.096802 -0.072629 0.285453
-0.095673 -0.072791 0.286080
-0.095967 -0.074055 0.291034
-0.092567 -0.072465 0.284764
-0.091508 -0.072687 0.285615
-0.090259 -0.072764 0.285888
-0.089017 -0.072847 0.286187
-0.092181 -0.076595 0.300875
-0.091619 -0.077315 0.303664
-0.090280 -0.077392 0.303923
-0.088974 -0.077501 0.304303
-0.087587 -0.077541 0.304413
-0.086031 -0.077431 0.303928
-0.084884 -0.077692 0.304898
-0.079226 -0.073761 0.289418
-0.080412 -0.076176 0.298837
-0.081155 -0.078251 0.306914
-0.079810 -0.078351 0.307241
-0.078752 -0.078742 0.308707
-0.077036 -0.078477 0.307600
-0.075813 -0.078714 0.308460
-0.075095 -0.079495 0.311447
-0.074915 -0.080888 0.316831
-0.067477 -0.074343 0.291122
-0.066297 -0.074561 0.291906
-0.065021 -0.074680 0.292297
-0.063594 -0.074627 0.292019
-0.062279 -0.074705 0.292249
-0.060898 -0.074708 0.292183
-0.059557 -0.074759 0.292309
-0.058185 -0.074774 0.292292
-0.056722 -0.074670 0.291808
-0.055357 -0.074692 0.291820
-0.054037 -0.074778 0.292080
-0.052608 -0.074714 0.291753
-0.051228 -0.074717 0.291691
-0.049858 -0.074738 0.291693
-0.048400 -0.074622 0.291168
-0.047067 -0.074699 0.291394
-0.045699 -0.074723 0.291413
-0.044272 -0.074649 0.291052
-0.042949 -0.074752 0.291382
-0.041596 -0.074807 0.291523
-0.039589 -0.073651 0.286947
-0.038926 -0.075000 0.292134
-0.037567 -0.075059 0.292296
-0.035878 -0.074440 0.289817
-0.034204 -0.073803 0.287271
-0.032336 -0.072675 0.282819
-0.030419 -0.071336 0.277548
-0.029189 -0.071558 0.278356
-0.027612 -0.070913 0.275790
-0.026216 -0.070690 0.274868
-0.024736 -0.070207 0.272936
-0.023384 -0.070051 0.272277
-0.022074 -0.070014 0.272085
-0.020791 -0.070062 0.272225
-0.019429 -0.069829 0.271275
-0.018092 -0.069664 0.270589
-0.016805 -0.069680 0.270611
-0.015456 -0.069417 0.269551
-0.014156 -0.069354 0.269269
-0.012867 -0.069331 0.269145
-0.011427 -0.068401 0.265502
-0.010094 -0.067960 0.263762
-0.008848 -0.068070 0.264158
-0.007570 -0.067915 0.263532
-0.006302 -0.067820 0.263140
-0.005055 -0.067959 0.263660
-0.003798 -0.068012 0.263846
-0.002522 -0.067588 0.262183
-0.001270 -0.067652 0.262419
-0.000016 -0.068147 0.264327
0.001248 -0.068196 0.264507
0.002552 -0.069277 0.268691
0.003840 -0.069341 0.268932
0.005099 -0.068975 0.267510
0.006401 -0.069226 0.268481
0.007692 -0.069291 0.268735
0.008946 -0.069052 0.267811
0.010220 -0.069009 0.267651
0.011474 -0.068849 0.267039
0.012746 -0.068824 0.266951
0.014057 -0.068995 0.267624
0.015300 -0.068831 0.267002
0.016563 -0.068773 0.266793
0.017962 -0.069249 0.268659
0.019220 -0.069154 0.268311
0.020502 -0.069148 0.268311
0.021737 -0.068999 0.267755
0.023021 -0.069010 0.267823
0.024328 -0.069085 0.268144
0.025689 -0.069299 0.269004
0.025702 -0.066030 0.256341
0.026550 -0.065103 0.252777
0.027959 -0.065575 0.254641
0.029107 -0.065420 0.254074
0.030382 -0.065552 0.254621
0.031724 -0.065813 0.255672
0.033139 -0.066200 0.257212
0.034401 -0.066263 0.257497
0.035647 -0.066294 0.257657
0.036891 -0.066318 0.257792
0.038103 -0.066285 0.257703
0.039690 -0.066886 0.260084
0.041400 -0.067651 0.263105
0.042102 -0.066773 0.259732
0.043029 -0.066292 0.257907
0.044561 -0.066744 0.259711
0.045394 -0.066151 0.257450
0.046531 -0.066022 0.256995
0.047868 -0.066175 0.257635
0.049220 -0.066341 0.258329
0.050642 -0.066592 0.259350
0.051858 -0.066566 0.259296
0.053672 -0.067290 0.262164
0.055059 -0.067459 0.262867
0.056379 -0.067540 0.263227
0.058270 -0.068285 0.266179
0.059942 -0.068748 0.268028
0.061733 -0.069326 0.270324
0.063222 -0.069547 0.271233
0.064520 -0.069554 0.271301
0.065974 -0.069725 0.272011
0.067225 -0.069680 0.271876
0.068387 -0.069545 0.271387
0.069632 -0.069498 0.271242
0.070641 -0.069222 0.270200
0.071278 -0.068598 0.267796
0.071797 -0.067883 0.265037
0.072640 -0.067495 0.263549
0.073510 -0.067144 0.262205
0.074181 -0.066626 0.260206
0.075083 -0.066329 0.259069
0.076284 -0.066302 0.258983
0.077603 -0.066377 0.259290
0.079011 -0.066523 0.259875
0.080818 -0.066997 0.261734
0.082793 -0.067592 0.264068
0.084421 -0.067891 0.265240
0.086143 -0.068256 0.266666
0.088190 -0.068864 0.269037
0.090019 -0.069287 0.270680
0.100590 -0.076331 0.298186
0.101874 -0.076231 0.297776
0.101651 -0.075020 0.293026
0.103063 -0.075033 0.293046
0.104341 -0.074949 0.292685
0.105787 -0.074987 0.292795
0.107077 -0.074914 0.292466
0.108450 -0.074900 0.292363
0.109928 -0.074958 0.292534
0.111265 -0.074920 0.292323
0.112570 -0.074862 0.292027
0.114003 -0.074889 0.292057
0.115940 -0.075242 0.293351
0.117463 -0.075321 0.293572
0.118925 -0.075360 0.293625
0.120484 -0.075458 0.293902
0.121843 -0.075431 0.293682
0.123190 -0.075397 0.293428
0.124698 -0.075461 0.293545
0.126176 -0.075506 0.293580
0.127684 -0.075567 0.293669
0.129114 -0.075581 0.293566
0.130751 -0.075715 0.293916
0.132152 -0.075710 0.293720
0.133700 -0.075790 0.293839
0.135060 -0.075761 0.293528
0.136525 -0.075792 0.293437
0.138010 -0.075833 0.293371
0.139496 -0.075874 0.293294
0.141176 -0.076018 0.293604
0.142838 -0.076150 0.293850
0.144278 -0.076162 0.293622
0.145887 -0.076262 0.293717
0.147574 -0.076401 0.293947
0.149019 -0.076412 0.293673
0.150584 -0.076484 0.293615
0.151945 -0.076453 0.293142
0.153337 -0.076437 0.292715
0.154865 -0.076489 0.292529
-0.123522 -0.058546 0.230179
-0.122638 -0.058649 0.230860
-0.121827 -0.058788 0.231676
-0.120727 -0.058790 0.231936
-0.119817 -0.058885 0.232553
-0.119079 -0.059067 0.233504
-0.118148 -0.059156 0.234076
-0.117302 -0.059289 0.234815
-0.116633 -0.059516 0.235914
-0.115786 -0.059655 0.236658
-0.115112 -0.059887 0.237759
-0.114292 -0.060048 0.238569
-0.113617 -0.060288 0.239688
-0.113000 -0.060564 0.240942
-0.112142 -0.060716 0.241692
-0.111512 -0.060995 0.242943
-0.110961 -0.061324 0.244383
-0.110217 -0.061552 0.245415
-0.109945 -0.062051 0.247524
-0.109333 -0.062367 0.248894
-0.109463 -0.063118 0.251994
-0.108695 -0.063362 0.253065
-0.108343 -0.063856 0.255128
-0.107897 -0.064306 0.257008
-0.106274 -0.064057 0.256087
-0.106143 -0.064711 0.258774
-0.106726 -0.065821 0.263276
-0.106826 -0.066656 0.266674
-0.106636 -0.067327 0.269413
-0.105337 -0.067307 0.269377
-0.104561 -0.067624 0.270686
-0.103480 -0.067748 0.271221
-0.108274 -0.071771 0.287356
-0.106931 -0.071776 0.287402
-0.105605 -0.071793 0.287490
-0.104280 -0.071811 0.287574
-0.103027 -0.071879 0.287857
-0.101912 -0.072047 0.288535
-0.100667 -0.072127 0.288852
-0.099488 -0.072256 0.289366
-0.098727 -0.072697 0.291122
-0.097370 -0.072706 0.291144
-0.096107 -0.072786 0.291444
-0.095229 -0.073164 0.292935
-0.098826 -0.077042 0.308434
-0.096867 -0.076640 0.306790
-0.095262 -0.076510 0.306234
-0.093794 -0.076488 0.306107
-0.092110 -0.076286 0.305257
-0.090625 -0.076245 0.305046
-0.089210 -0.076263 0.305070
-0.087528 -0.076050 0.304163
-0.085696 -0.075697 0.302699
-0.080588 -0.072389 0.289418
-0.079920 -0.073025 0.291900
-0.082294 -0.076511 0.305775
-0.080958 -0.076611 0.306106
-0.079858 -0.076941 0.307360
-0.078568 -0.077098 0.307916
-0.077127 -0.077110 0.307894
-0.075830 -0.077269 0.308457
-0.075192 -0.078119 0.311772
-0.073738 -0.078138 0.311771
-0.067332 -0.072804 0.290417
-0.066174 -0.073040 0.291285
-0.065004 -0.073273 0.292140
-0.063635 -0.073287 0.292117
-0.062267 -0.073302 0.292103
-0.060996 -0.073437 0.292561
-0.059477 -0.073271 0.291822
-0.058039 -0.073199 0.291456
-0.056637 -0.073170 0.291265
-0.055294 -0.073219 0.291381
-0.053928 -0.073239 0.291382
-0.052542 -0.073233 0.291280
-0.051205 -0.073295 0.291449
-0.049838 -0.073318 0.291463
-0.048453 -0.073313 0.291368
-0.047036 -0.073261 0.291084
-0.045630 -0.073221 0.290849
-0.044297 -0.073301 0.291091
-0.042794 -0.073096 0.290204
-0.041102 -0.072542 0.287932
-0.039486 -0.072091 0.286070
-0.039248 -0.074213 0.294420
-0.037879 -0.074273 0.294585
-0.035710 -0.072710 0.288320
-0.033891 -0.071764 0.284501
-0.032485 -0.071649 0.283981
-0.030849 -0.070996 0.281330
-0.029577 -0.071160 0.281918
-0.028053 -0.070702 0.280045
-0.026588 -0.070357 0.278624
-0.025124 -0.069976 0.277060
-0.023778 -0.069903 0.276717
-0.022423 -0.069791 0.276223
-0.020974 -0.069357 0.274459
-0.019613 -0.069175 0.273692
-0.018265 -0.069016 0.273018
-0.016837 -0.068507 0.270961
-0.015455 -0.068117 0.269380
-0.014180 -0.068168 0.269543
-0.012847 -0.067927 0.268554
-0.011476 -0.067402 0.266449
-0.010165 -0.067152 0.265430
-0.008897 -0.067155 0.265411
-0.007611 -0.066997 0.264762
-0.006345 -0.066987 0.264696
-0.005101 -0.067263 0.265767
-0.003838 -0.067400 0.266289
-0.002508 -0.065899 0.260341
-0.001281 -0.066839 0.264039
-0.000019 -0.067313 0.265898
0.001271 -0.068323 0.269879
0.002572 -0.068583 0.270900
0.003899 -0.069140 0.273094
0.005204 -0.069127 0.273037
0.006486 -0.068868 0.272016
0.007785 -0.068853 0.271958
0.009100 -0.068962 0.272391
0.010324 -0.068437 0.270322
0.011575 -0.068190 0.269357
0.012827 -0.067995 0.268598
0.014086 -0.067868 0.268108
0.015350 -0.067785 0.267795
0.016641 -0.067828 0.267982
0.017965 -0.067986 0.268626
0.019244 -0.067965 0.268561
0.020589 -0.068166 0.269379
0.021887 -0.068196 0.269524
0.023057 -0.067843 0.268156
0.024397 -0.068005 0.268823
0.025669 -0.067969 0.268714
0.025527 -0.064371 0.254520
0.026714 -0.064298 0.254261
0.027999 -0.064459 0.254931
0.029227 -0.064480 0.255048
0.030466 -0.064521 0.255250
0.031808 -0.064769 0.256268
0.033203 -0.065104 0.257632
0.034508 -0.065242 0.258221
0.035746 -0.065250 0.258294
0.036987 -0.065262 0.258384
0.038139 -0.065122 0.257874
0.039330 -0.065055 0.257653
0.041619 -0.066753 0.264422
0.042488 -0.066140 0.262044
0.043322 -0.065510 0.259594
0.045124 -0.066337 0.262917
0.046004 -0.065801 0.260841
0.047103 -0.065598 0.260086
0.048285 -0.065518 0.259816
0.049758 -0.065827 0.261090
0.051150 -0.066016 0.261890
0.052563 -0.066223 0.262757
0.053992 -0.066439 0.263665
0.055373 -0.066588 0.264305
0.056556 -0.066498 0.263994
0.058177 -0.066915 0.265698
0.060006 -0.067549 0.268264
0.061859 -0.068182 0.270824
0.063302 -0.068348 0.271528
0.064563 -0.068314 0.271439
0.065956 -0.068417 0.271894
0.067344 -0.068511 0.272312
0.068459 -0.068330 0.271633
0.069610 -0.068191 0.271119
0.070681 -0.067980 0.270318
0.071334 -0.067382 0.267975
0.071769 -0.066602 0.264907
0.072691 -0.066293 0.263709
0.073697 -0.066070 0.262851
0.074605 -0.065768 0.261675
0.075565 -0.065520 0.260714
0.076674 -0.065408 0.260290
0.078374 -0.065796 0.261852
0.079690 -0.065854 0.262098
0.081510 -0.066320 0.263965
0.083220 -0.066684 0.265426
0.084981 -0.067078 0.266999
0.086804 -0.067507 0.268713
0.088456 -0.067794 0.269851
0.099386 -0.075081 0.298854
0.100674 -0.074981 0.298447
0.100258 -0.073633 0.293065
0.101563 -0.073568 0.292786
0.103001 -0.073600 0.292891
0.104135 -0.073416 0.292132
0.105668 -0.073515 0.292491
0.106952 -0.073441 0.292155
0.108302 -0.073413 0.291998
0.109765 -0.073461 0.292138
0.111138 -0.073449 0.292032
0.112433 -0.073387 0.291718
0.113721 -0.073321 0.291385
0.115253 -0.073411 0.291667
0.116981 -0.073623 0.292424
0.118790 -0.073881 0.293355
0.120150 -0.073856 0.293154
0.121474 -0.073811 0.292863
0.123032 -0.073906 0.293125
0.124510 -0.073953 0.293184
0.126079 -0.074051 0.293438
0.127643 -0.074144 0.293663
0.129333 -0.074308 0.294157
0.130825 -0.074355 0.294180
0.132315 -0.074400 0.294186
0.133763 -0.074421 0.294084
0.135225 -0.074450 0.294000
0.136481 -0.074365 0.293459
0.137895 -0.074368 0.293252
0.139328 -0.074380 0.293070
0.141023 -0.074530 0.293419
0.142575 -0.074603 0.293449
0.143970 -0.074593 0.293141
0.145732 -0.074771 0.293556
0.147252 -0.074823 0.293463
0.149047 -0.075012 0.293892
0.150367 -0.074960 0.293362
0.152282 -0.075204 0.293970
0.153480 -0.075092 0.293172
0.154856 -0.075069 0.292702
-0.123676 -0.057511 0.230599
-0.122990 -0.057705 0.231650
-0.122099 -0.057805 0.232317
-0.121076 -0.057845 0.232725
-0.120258 -0.057984 0.233524
-0.119454 -0.058133 0.234350
-0.118666 -0.058292 0.235209
-0.117840 -0.058435 0.235994
-0.117101 -0.058625 0.236958
-0.116452 -0.058864 0.238114
-0.115648 -0.059029 0.238958
-0.114885 -0.059218 0.239893
-0.114216 -0.059460 0.241034
-0.113616 -0.059743 0.242335
-0.113482 -0.060279 0.244656
-0.112314 -0.060272 0.244763
-0.112079 -0.060770 0.246914
-0.111458 -0.061068 0.248246
-0.110853 -0.061380 0.249630
-0.109993 -0.061557 0.250457
-0.108863 -0.061585 0.250668
-0.108179 -0.061869 0.251916
-0.109481 -0.063307 0.257858
-0.108355 -0.063358 0.258145
-0.106890 -0.063209 0.257613
-0.109054 -0.065228 0.265910
-0.108533 -0.065669 0.267771
-0.108694 -0.066539 0.271371
-0.107831 -0.066794 0.272462
-0.106767 -0.066930 0.273062
-0.111651 -0.070843 0.289065
-0.111442 -0.071581 0.292111
-0.110129 -0.071620 0.292299
-0.108814 -0.071658 0.292476
-0.107547 -0.071730 0.292785
-0.105939 -0.071573 0.292157
-0.104419 -0.071472 0.291751
-0.102842 -0.071329 0.291168
-0.101389 -0.071270 0.290921
-0.100147 -0.071359 0.291278
-0.098775 -0.071357 0.291255
-0.097494 -0.071422 0.291501
-0.096250 -0.071515 0.291860
-0.095250 -0.071796 0.292981
-0.098932 -0.075666 0.308741
-0.097103 -0.075373 0.307511
-0.095502 -0.075252 0.306976
-0.094325 -0.075465 0.307804
-0.092365 -0.075050 0.306064
-0.090920 -0.075045 0.305997
-0.089488 -0.075053 0.305977
-0.087667 -0.074729 0.304599
-0.083875 -0.072686 0.296215
-0.082142 -0.072389 0.294946
-0.083418 -0.074779 0.304621
-0.082091 -0.074877 0.304957
-0.080694 -0.074915 0.305044
-0.079615 -0.075255 0.306358
-0.078307 -0.075387 0.306825
-0.076690 -0.075221 0.306075
-0.075720 -0.075696 0.307933
-0.074979 -0.077949 0.316938
-0.067325 -0.071418 0.290306
-0.066081 -0.071557 0.290794
-0.064863 -0.071730 0.291420
-0.063473 -0.071716 0.291287
-0.062153 -0.071783 0.291480
-0.060759 -0.071765 0.291328
-0.059372 -0.071756 0.291210
-0.058033 -0.071806 0.291332
-0.056652 -0.071804 0.291244
-0.055295 -0.071833 0.291283
-0.053966 -0.071902 0.291480
-0.052596 -0.071918 0.291467
-0.051201 -0.071900 0.291314
-0.049821 -0.071903 0.291248
-0.048446 -0.071914 0.291213
-0.047019 -0.071846 0.290859
-0.045633 -0.071839 0.290750
-0.044306 -0.071925 0.291025
-0.042920 -0.071920 0.290928
-0.041467 -0.071799 0.290364
-0.039363 -0.070504 0.285054
-0.038862 -0.072089 0.291388
-0.037506 -0.072147 0.291551
-0.035195 -0.070302 0.284027
-0.033498 -0.069586 0.281066
-0.031882 -0.068985 0.278577
-0.030107 -0.067973 0.274428
-0.028739 -0.067829 0.273785
-0.027243 -0.067357 0.271824
-0.025842 -0.067082 0.270655
-0.024523 -0.067005 0.270291
-0.023228 -0.066988 0.270171
-0.021939 -0.066987 0.270113
-0.020675 -0.067066 0.270384
-0.019344 -0.066928 0.269780
-0.018049 -0.066901 0.269627
-0.016809 -0.067088 0.270339
-0.015479 -0.066919 0.269619
-0.014169 -0.066816 0.269164
-0.012853 -0.066657 0.268487
-0.011519 -0.066365 0.267280
-0.010185 -0.065998 0.265769
-0.008900 -0.065884 0.265280
-0.007611 -0.065707 0.264542
-0.006345 -0.065695 0.264469
-0.005086 -0.065763 0.264720
-0.003833 -0.065980 0.265576
-0.002569 -0.066152 0.266251
-0.001301 -0.066440 0.267393
-0.000022 -0.066664 0.268282
0.001265 -0.066867 0.269090
0.002563 -0.067128 0.270131
0.003864 -0.067282 0.270747
0.005177 -0.067512 0.271668
0.006489 -0.067636 0.272166
0.007754 -0.067306 0.270842
0.009070 -0.067456 0.271448
0.010400 -0.067659 0.272272
0.011559 -0.066822 0.268914
0.012827 -0.066727 0.268540
0.014125 -0.066783 0.268781
0.015376 -0.066630 0.268181
0.016707 -0.066821 0.268964
0.017947 -0.066647 0.268286
0.019166 -0.066421 0.267396
0.020503 -0.066607 0.268169
0.021903 -0.066966 0.269640
0.023197 -0.066976 0.269710
0.024465 -0.066914 0.269489
0.025741 -0.066879 0.269379
0.025897 -0.064077 0.258126
0.027140 -0.064095 0.258233
0.028449 -0.064264 0.258948
0.029643 -0.064166 0.258592
0.030928 -0.064267 0.259036
0.032177 -0.064288 0.259160
0.033474 -0.064399 0.259650
0.034725 -0.064417 0.259765
0.035999 -0.064476 0.260046
0.037197 -0.064399 0.259778
0.038441 -0.064402 0.259839
0.040041 -0.064985 0.262236
0.041517 -0.065335 0.263697
0.042391 -0.064747 0.261370
0.043442 -0.064454 0.260238
0.044958 -0.064848 0.261878
0.045948 -0.064484 0.260457
0.046965 -0.064174 0.259258
0.048120 -0.064064 0.258861
0.049943 -0.064828 0.261998
0.051336 -0.065008 0.262777
0.052714 -0.065162 0.263452
0.054499 -0.065801 0.266084
0.055921 -0.065981 0.266864
0.056919 -0.065664 0.265631
0.058566 -0.066093 0.267420
0.060347 -0.066652 0.269732
0.061937 -0.066982 0.271116
0.063299 -0.067056 0.271466
0.064542 -0.067004 0.271300
0.065920 -0.067091 0.271700
0.067236 -0.067112 0.271832
0.068402 -0.066986 0.271365
0.069506 -0.066806 0.270678
0.070508 -0.066535 0.269619
0.071228 -0.066013 0.267542
0.071705 -0.065288 0.264640
0.072635 -0.064992 0.263475
0.073892 -0.064995 0.263520
0.074586 -0.064510 0.261583
0.075689 -0.064391 0.261123
0.077042 -0.064483 0.261520
0.078430 -0.064601 0.262021
0.080268 -0.065081 0.263987
0.081586 -0.065130 0.264201
0.083560 -0.065694 0.266502
0.085175 -0.065962 0.267601
0.086709 -0.066162 0.268417
0.088997 -0.066922 0.271502
0.096482 -0.071513 0.290125
0.097731 -0.071417 0.289730
0.100074 -0.072112 0.292538
0.101594 -0.072203 0.292892
0.102946 -0.072173 0.292753
0.104153 -0.072044 0.292203
0.105573 -0.072064 0.292253
0.106973 -0.072070 0.292241
0.108393 -0.072089 0.292275
0.109801 -0.072100 0.292271
0.111130 -0.072059 0.292051
0.112436 -0.072004 0.291767
0.113775 -0.071972 0.291569
0.115201 -0.071994 0.291586
0.116997 -0.072245 0.292519
0.118529 -0.072329 0.292769
0.119975 -0.072358 0.292792
0.121365 -0.072354 0.292668
0.122918 -0.072445 0.292927
0.124523 -0.072565 0.293288
0.126151 -0.072696 0.293687
0.127510 -0.072670 0.293442
0.129160 -0.072808 0.293852
0.130553 -0.072801 0.293664
0.131963 -0.072803 0.293503
0.133647 -0.072954 0.293933
0.135070 -0.072962 0.293772
0.136420 -0.072930 0.293441
0.137721 -0.072872 0.292998
0.139291 -0.072957 0.293114
0.141034 -0.073130 0.293571
0.142525 -0.073170 0.293481
0.143847 -0.073123 0.293029
0.145532 -0.073260 0.293300
0.146874 -0.073223 0.292862
0.148539 -0.073346 0.293048
0.149811 -0.073275 0.292442
0.151162 -0.073243 0.291979
0.152789 -0.073344 0.292030
0.153939 -0.073217 0.291152
-0.124202 -0.056642 0.231707
-0.123129 -0.056657 0.232037
-0.122357 -0.056811 0.232926
-0.121447 -0.056904 0.233553
-0.120579 -0.057018 0.234258
-0.119848 -0.057200 0.235229
-0.119092 -0.057373 0.236155
-0.118415 -0.057589 0.237246
-0.117625 -0.057753 0.238115
-0.116986 -0.057994 0.239297
-0.116222 -0.058178 0.240231
-0.115531 -0.058403 0.241325
-0.114942 -0.058684 0.242647
-0.114210 -0.058897 0.243677
-0.113813 -0.059290 0.245443
-0.113733 -0.059857 0.247925
-0.113271 -0.060233 0.249609
-0.112676 -0.060545 0.251022
-0.111971 -0.060804 0.252208
-0.111008 -0.060928 0.252823
-0.111843 -0.062051 0.257584
-0.110978 -0.062246 0.258483
-0.109760 -0.062245 0.258563
-0.108791 -0.062387 0.259228
-0.111217 -0.064500 0.268083
-0.110033 -0.064545 0.268336
-0.108762 -0.064539 0.268369
-0.114203 -0.068563 0.285158
-0.113379 -0.068877 0.286511
-0.113253 -0.069627 0.289675
-0.112799 -0.070192 0.292060
-0.111533 -0.070259 0.292369
-0.110269 -0.070328 0.292684
-0.109047 -0.070428 0.293116
-0.107746 -0.070477 0.293335
-0.106267 -0.070410 0.293064
-0.104865 -0.070394 0.292998
-0.103559 -0.070442 0.293197
-0.102137 -0.070411 0.293061
-0.100393 -0.070155 0.291983
-0.099030 -0.070162 0.291994
-0.097393 -0.069972 0.291183
-0.096126 -0.070046 0.291467
-0.093058 -0.068791 0.286216
-0.099057 -0.074300 0.309104
-0.097651 -0.074337 0.309216
-0.095315 -0.073656 0.306342
-0.094084 -0.073821 0.306982
-0.092542 -0.073743 0.306609
-0.090978 -0.073645 0.306150
-0.089280 -0.073434 0.305217
-0.085620 -0.071576 0.297440
-0.084558 -0.071865 0.298579
-0.083822 -0.072444 0.300922
-0.083733 -0.073613 0.305711
-0.082401 -0.073711 0.306049
-0.081001 -0.073750 0.306142
-0.079861 -0.074031 0.307237
-0.078562 -0.074174 0.307754
-0.076907 -0.073979 0.306868
-0.075682 -0.074198 0.307701
-0.076479 -0.076447 0.316945
-0.075075 -0.076543 0.317258
-0.067556 -0.070280 0.291222
-0.066429 -0.070545 0.292242
-0.065200 -0.070711 0.292846
-0.063728 -0.070615 0.292369
-0.062413 -0.070692 0.292608
-0.061167 -0.070853 0.293190
-0.059381 -0.070381 0.291155
-0.058040 -0.070427 0.291264
-0.056678 -0.070449 0.291273
-0.055309 -0.070465 0.291255
-0.053965 -0.070512 0.291368
-0.052619 -0.070560 0.291483
-0.051236 -0.070561 0.291404
-0.049837 -0.070538 0.291228
-0.048471 -0.070561 0.291243
-0.047112 -0.070597 0.291312
-0.045700 -0.070554 0.291053
-0.044345 -0.070599 0.291162
-0.043004 -0.070669 0.291373
-0.041200 -0.069958 0.288366
-0.039577 -0.069516 0.286469
-0.038792 -0.070567 0.290727
-0.037439 -0.070625 0.290890
-0.035703 -0.069938 0.287989
-0.033827 -0.068910 0.283688
-0.031970 -0.067837 0.279204
-0.030035 -0.066498 0.273629
-0.028737 -0.066513 0.273632
-0.027394 -0.066418 0.273181
-0.025874 -0.065866 0.270852
-0.024478 -0.065587 0.269650
-0.023207 -0.065631 0.269778
-0.021945 -0.065707 0.270038
-0.020624 -0.065605 0.269569
-0.019343 -0.065626 0.269608
-0.018065 -0.065659 0.269699
-0.016731 -0.065481 0.268925
-0.015432 -0.065419 0.268628
-0.014128 -0.065326 0.268208
-0.012846 -0.065325 0.268165
-0.011512 -0.065032 0.266930
-0.010197 -0.064780 0.265863
-0.008908 -0.064657 0.265329
-0.007607 -0.064382 0.264175
-0.006343 -0.064375 0.264120
-0.005086 -0.064469 0.264483
-0.003830 -0.064615 0.265065
-0.002567 -0.064763 0.265655
-0.001300 -0.064975 0.266506
-0.000025 -0.065426 0.268346
0.001262 -0.065568 0.268916
0.002561 -0.065857 0.270094
0.003873 -0.066184 0.271430
0.005182 -0.066314 0.271960
0.006515 -0.066621 0.273220
0.007822 -0.066613 0.273188
0.008930 -0.065156 0.267219
0.010414 -0.066459 0.272567
0.011574 -0.065637 0.269205
0.012832 -0.065479 0.268571
0.014189 -0.065809 0.269938
0.015483 -0.065815 0.269976
0.016805 -0.065928 0.270461
0.018119 -0.065998 0.270768
0.019360 -0.065809 0.270017
0.020671 -0.065870 0.270289
0.021943 -0.065802 0.270038
0.023110 -0.065446 0.268606
0.024336 -0.065287 0.267986
0.025543 -0.065095 0.267228
0.026034 -0.063181 0.259405
0.027112 -0.062802 0.257885
0.028483 -0.063106 0.259170
0.029636 -0.062922 0.258450
0.030890 -0.062957 0.258634
0.032175 -0.063051 0.259063
0.033403 -0.063031 0.259019
0.034672 -0.063087 0.259294
0.035945 -0.063145 0.259578
0.037111 -0.063017 0.259097
0.038419 -0.063131 0.259614
0.039915 -0.063536 0.261329
0.041568 -0.064161 0.263948
0.042674 -0.063928 0.263040
0.043723 -0.063626 0.261849
0.044983 -0.063640 0.261955
0.046160 -0.063537 0.261584
0.047176 -0.063225 0.260351
0.048164 -0.062892 0.259034
0.049680 -0.063247 0.260548
0.051241 -0.063642 0.262226
0.052669 -0.063856 0.263164
0.054505 -0.064543 0.266048
0.056009 -0.064815 0.267221
0.057131 -0.064643 0.266566
0.058839 -0.065126 0.268609
0.060553 -0.065595 0.270596
0.061924 -0.065681 0.271003
0.063365 -0.065836 0.271695
0.064681 -0.065858 0.271836
0.066016 -0.065897 0.272046
0.067250 -0.065837 0.271843
0.068448 -0.065743 0.271504
0.069551 -0.065564 0.270810
0.070513 -0.065261 0.269601
0.071380 -0.064882 0.268075
0.072150 -0.064430 0.266247
0.073176 -0.064218 0.265408
0.074276 -0.064077 0.264860
0.075479 -0.064029 0.264691
0.076309 -0.063670 0.263239
0.077642 -0.063736 0.263537
0.079018 -0.063835 0.263970
0.080450 -0.063974 0.264569
0.081898 -0.064123 0.265201
0.083415 -0.064319 0.266031
0.084603 -0.064261 0.265799
0.086551 -0.064772 0.267924
0.088900 -0.065564 0.271206
0.098861 -0.071867 0.297279
0.100140 -0.071770 0.296875
0.099613 -0.070400 0.291199
0.101212 -0.070549 0.291803
0.102781 -0.070672 0.292298
0.104103 -0.070626 0.292082
0.105490 -0.070623 0.292045
0.106894 -0.070632 0.292050
0.108386 -0.070699 0.292285
0.109776 -0.070698 0.292236
0.111249 -0.070749 0.292398
0.112604 -0.070725 0.292242
0.113881 -0.070654 0.291883
0.115334 -0.070692 0.291969
0.117173 -0.070962 0.293009
0.118801 -0.071101 0.293495
0.120164 -0.071079 0.293312
0.121539 -0.071064 0.293151
0.122986 -0.071092 0.293154
0.124444 -0.071125 0.293174
0.125954 -0.071187 0.293303
0.127584 -0.071314 0.293692
0.129070 -0.071359 0.293733
0.130769 -0.071520 0.294239
0.132089 -0.071471 0.293876
0.133396 -0.071418 0.293480
0.134802 -0.071417 0.293292
0.135871 -0.071240 0.292368
0.137312 -0.071259 0.292241
0.138857 -0.071332 0.292319
0.140828 -0.071619 0.293266
0.142395 -0.071698 0.293343
0.143602 -0.071595 0.292666
0.145280 -0.071727 0.292934
0.146839 -0.071798 0.292937
0.148357 -0.071848 0.292841
0.149836 -0.071878 0.292649
0.151107 -0.071809 0.292036
0.152737 -0.071909 0.292099
0.154351 -0.072001 0.292108
-0.124637 -0.055724 0.232643
-0.123551 -0.055734 0.232952
-0.122855 -0.055922 0.233990
-0.121959 -0.056021 0.234648
-0.121117 -0.056147 0.235408
-0.120490 -0.056377 0.236592
-0.119748 -0.056556 0.237555
-0.119133 -0.056799 0.238779
-0.118379 -0.056980 0.239732
-0.117649 -0.057177 0.240740
-0.116805 -0.057321 0.241521
-0.115702 -0.057340 0.241764
-0.114894 -0.057507 0.242621
-0.113923 -0.057595 0.243139
-0.115135 -0.058800 0.248365
-0.114869 -0.059267 0.250469
-0.114987 -0.059944 0.253455
-0.114269 -0.060194 0.254631
-0.113893 -0.060632 0.256595
-0.112992 -0.060798 0.257396
-0.111876 -0.060850 0.257711
-0.111841 -0.061497 0.260542
-0.110768 -0.061582 0.260980
-0.120541 -0.068534 0.290602
-0.119208 -0.068553 0.290749
-0.116750 -0.067918 0.288115
-0.116578 -0.068614 0.291119
-0.115450 -0.068756 0.291771
-0.114125 -0.068784 0.291928
-0.112984 -0.068925 0.292559
-0.111682 -0.068970 0.292777
-0.110442 -0.069055 0.293158
-0.109183 -0.069129 0.293491
-0.107733 -0.069084 0.293307
-0.106389 -0.069106 0.293405
-0.105011 -0.069106 0.293405
-0.103583 -0.069073 0.293261
-0.102233 -0.069092 0.293330
-0.100895 -0.069120 0.293433
-0.099008 -0.068767 0.291914
-0.097984 -0.069012 0.292931
-0.096632 -0.069030 0.292980
-0.094711 -0.068636 0.291275
-0.099165 -0.072919 0.309411
-0.097624 -0.072854 0.309097
-0.096172 -0.072856 0.309059
-0.094742 -0.072875 0.309091
-0.093056 -0.072695 0.308272
-0.091083 -0.072280 0.306460
-0.089211 -0.071935 0.304937
-0.087139 -0.071413 0.302665
-0.085104 -0.070906 0.300452
-0.084128 -0.071279 0.301968
-0.083402 -0.071880 0.304443
-0.082076 -0.071976 0.304781
-0.080686 -0.072018 0.304885
-0.079655 -0.072389 0.306379
-0.078224 -0.072402 0.306357
-0.076531 -0.072169 0.305296
-0.075499 -0.072563 0.306881
-0.074339 -0.072847 0.307996
-0.072976 -0.072938 0.308300
-0.067495 -0.068835 0.290877
-0.066293 -0.069015 0.291556
-0.065004 -0.069111 0.291879
-0.063593 -0.069078 0.291657
-0.062441 -0.069332 0.292645
-0.060821 -0.069066 0.291437
-0.059506 -0.069141 0.291670
-0.058140 -0.069161 0.291669
-0.056707 -0.069098 0.291320
-0.055319 -0.069090 0.291201
-0.053991 -0.069158 0.291402
-0.052620 -0.069173 0.291382
-0.051149 -0.069053 0.290795
-0.049820 -0.069125 0.291013
-0.048468 -0.069168 0.291112
-0.047065 -0.069139 0.290905
-0.045710 -0.069179 0.290992
-0.044356 -0.069225 0.291108
-0.042977 -0.069234 0.291065
-0.041225 -0.068621 0.288410
-0.039665 -0.068299 0.286980
-0.039180 -0.069869 0.293500
-0.037814 -0.069926 0.293666
-0.035974 -0.069080 0.290039
-0.034825 -0.069544 0.291914
-0.033459 -0.069596 0.292062
-0.030081 -0.065287 0.273915
-0.027783 -0.063036 0.264412
-0.026752 -0.063582 0.266642
-0.025282 -0.063089 0.264518
-0.023952 -0.062910 0.263709
-0.022744 -0.063050 0.264244
-0.021479 -0.063040 0.264152
-0.020358 -0.063479 0.265941
-0.019124 -0.063599 0.266393
-0.017909 -0.063805 0.267211
-0.016674 -0.063964 0.267833
-0.015410 -0.064031 0.268074
-0.014062 -0.063732 0.266783
-0.012825 -0.063922 0.267540
-0.011491 -0.063620 0.266241
-0.010151 -0.063209 0.264492
-0.008886 -0.063206 0.264450
-0.007598 -0.063024 0.263660
-0.006323 -0.062890 0.263075
-0.005089 -0.063204 0.264365
-0.003834 -0.063365 0.265018
-0.002578 -0.063681 0.266324
-0.001303 -0.063719 0.266467
-0.000028 -0.064107 0.268074
0.001264 -0.064508 0.269744
0.002577 -0.065043 0.271970
0.003863 -0.064770 0.270825
0.005201 -0.065277 0.272941
0.006522 -0.065413 0.273511
0.007353 -0.061415 0.256796
0.008563 -0.061267 0.256183
0.009821 -0.061465 0.257017
0.011059 -0.061502 0.257179
0.012283 -0.061459 0.257013
0.013560 -0.061668 0.257902
0.014841 -0.061860 0.258719
0.016095 -0.061915 0.258966
0.017368 -0.062030 0.259471
0.018652 -0.062170 0.260076
0.019924 -0.062250 0.260436
0.021844 -0.064227 0.268736
0.023133 -0.064235 0.268798
0.024354 -0.064060 0.268100
0.025500 -0.063716 0.266692
0.026273 -0.062517 0.261709
0.027312 -0.062030 0.259704
0.028595 -0.062117 0.260106
0.029774 -0.061979 0.259570
0.030955 -0.061856 0.259097
0.032210 -0.061885 0.259259
0.033542 -0.062055 0.260013
0.034818 -0.062113 0.260302
0.036012 -0.062024 0.259978
0.037334 -0.062155 0.260576
0.038819 -0.062539 0.262235
0.040198 -0.062735 0.263106
0.041543 -0.062867 0.263710
0.042795 -0.062855 0.263713
0.043914 -0.062653 0.262915
0.045445 -0.063035 0.264572
0.046753 -0.063094 0.264875
0.047879 -0.062910 0.264158
0.049062 -0.062809 0.263790
0.050233 -0.062700 0.263383
0.051793 -0.063068 0.264986
0.053326 -0.063386 0.266379
0.054804 -0.063627 0.267445
0.056180 -0.063740 0.267977
0.057364 -0.063635 0.267591
0.058865 -0.063879 0.268670
0.060437 -0.064187 0.270023
0.061843 -0.064310 0.270594
0.063367 -0.064549 0.271651
0.064700 -0.064587 0.271865
0.065983 -0.064575 0.271863
0.067293 -0.064588 0.271972
0.068432 -0.064440 0.271397
0.069601 -0.064326 0.270964
0.070592 -0.064054 0.269862
0.071356 -0.063590 0.267949
0.072188 -0.063201 0.266352
0.073423 -0.063173 0.266273
0.074335 -0.062872 0.265042
0.075438 -0.062739 0.264518
0.076768 -0.062798 0.264798
0.077685 -0.062521 0.263661
0.079048 -0.062607 0.264049
0.080586 -0.062827 0.265000
0.081846 -0.062826 0.265017
0.083385 -0.063036 0.265923
0.084235 -0.062727 0.264634
0.086121 -0.063187 0.266585
0.088988 -0.064342 0.271469
0.097918 -0.068802 0.290291
0.099849 -0.069183 0.291893
0.101346 -0.069257 0.292196
0.102720 -0.069246 0.292136
0.104235 -0.069329 0.292468
0.105713 -0.069385 0.292682
0.107106 -0.069385 0.292651
0.108396 -0.069319 0.292338
0.109789 -0.069320 0.292300
0.111147 -0.069299 0.292164
0.112511 -0.069282 0.292038
0.113859 -0.069256 0.291868
0.115287 -0.069278 0.291895
0.116742 -0.069316 0.291980
0.118631 -0.069607 0.293126
0.119769 -0.069456 0.292402
0.121363 -0.069570 0.292787
0.122802 -0.069594 0.292780
0.124038 -0.069503 0.292285
0.125407 -0.069488 0.292100
0.126813 -0.069493 0.291992
0.127993 -0.069376 0.291362
0.129484 -0.069428 0.291431
0.130879 -0.069429 0.291274
0.132979 -0.069798 0.292656
0.134657 -0.069941 0.293075
0.135836 -0.069825 0.292397
0.137215 -0.069813 0.292143
0.138763 -0.069886 0.292235
0.140468 -0.070036 0.292636
0.142309 -0.070250 0.293289
0.143688 -0.070234 0.292969
0.145231 -0.070297 0.292968
0.146750 -0.070348 0.292901
0.148274 -0.070400 0.292824
0.149748 -0.070427 0.292628
0.151043 -0.070371 0.292070
0.152485 -0.070383 0.291781
0.153815 -0.070344 0.291263
-0.125057 -0.054791 0.233547
-0.124173 -0.054892 0.234239
-0.123569 -0.055119 0.235462
-0.122586 -0.055180 0.235962
-0.121922 -0.055388 0.237077
-0.121516 -0.055717 0.238706
-0.120806 -0.055912 0.239751
-0.120212 -0.056165 0.241034
-0.120270 -0.056730 0.243650
-0.119362 -0.056847 0.244331
-0.118657 -0.057063 0.245431
-0.118053 -0.057332 0.246754
-0.117433 -0.057600 0.248058
-0.117171 -0.058050 0.250142
-0.116533 -0.058321 0.251449
-0.116070 -0.058686 0.253153
-0.115368 -0.058937 0.254355
-0.115088 -0.059411 0.256515
-0.114562 -0.059766 0.258159
-0.113825 -0.060018 0.259347
-0.112644 -0.060039 0.259528
-0.125081 -0.067398 0.291434
-0.121938 -0.067177 0.290643
-0.120637 -0.067213 0.290871
-0.119304 -0.067233 0.291018
-0.117971 -0.067253 0.291159
-0.116775 -0.067352 0.291638
-0.115484 -0.067398 0.291881
-0.114238 -0.067472 0.292238
-0.112978 -0.067539 0.292559
-0.111842 -0.067684 0.293209
-0.110550 -0.067736 0.293455
-0.109226 -0.067770 0.293612
-0.108009 -0.067872 0.294062
-0.106343 -0.067690 0.293276
-0.104894 -0.067645 0.293075
-0.103624 -0.067714 0.293368
-0.101771 -0.067401 0.291996
-0.100331 -0.067355 0.291780
-0.099521 -0.067737 0.293410
-0.097816 -0.067513 0.292411
-0.096323 -0.067429 0.292019
-0.093520 -0.066414 0.287588
-0.099707 -0.071847 0.311073
-0.098321 -0.071903 0.311271
-0.096133 -0.071367 0.308899
-0.094616 -0.071319 0.308639
-0.092784 -0.071028 0.307327
-0.090652 -0.070496 0.304965
-0.089311 -0.070571 0.305229
-0.086381 -0.069372 0.299982
-0.085663 -0.069940 0.302372
-0.084339 -0.070024 0.302667
-0.083379 -0.070419 0.304300
-0.082055 -0.070514 0.304637
-0.080491 -0.070403 0.304084
-0.079381 -0.070692 0.305253
-0.077974 -0.070723 0.305308
-0.076318 -0.070524 0.304370
-0.075096 -0.070728 0.305164
-0.073067 -0.071564 0.308601
-0.067213 -0.067172 0.289579
-0.066206 -0.067542 0.291089
-0.064899 -0.067615 0.291320
-0.063546 -0.067642 0.291352
-0.062225 -0.067705 0.291539
-0.060840 -0.067701 0.291433
-0.059525 -0.067775 0.291666
-0.058175 -0.067812 0.291740
-0.056761 -0.067775 0.291493
-0.055393 -0.067793 0.291485
-0.054057 -0.067852 0.291649
-0.052695 -0.067880 0.291684
-0.051246 -0.067794 0.291231
-0.049898 -0.067843 0.291354
-0.048503 -0.067828 0.291203
-0.047077 -0.067767 0.290859
-0.045670 -0.067730 0.290616
-0.044320 -0.067779 0.290744
-0.042974 -0.067838 0.290917
-0.041393 -0.067516 0.289456
-0.039645 -0.066892 0.286703
-0.039164 -0.068436 0.293243
-0.037798 -0.068493 0.293409
-0.035870 -0.067494 0.289057
-0.034869 -0.068233 0.292145
-0.033502 -0.068284 0.292293
-0.029144 -0.061980 0.265243
-0.027775 -0.061749 0.264196
-0.026549 -0.061830 0.264481
-0.025180 -0.061568 0.263305
-0.023893 -0.061493 0.262924
-0.022638 -0.061492 0.262868
-0.021410 -0.061572 0.263157
-0.020207 -0.061738 0.263816
-0.019044 -0.062054 0.265119
-0.017847 -0.062302 0.266133
-0.016661 -0.062624 0.267464
-0.015364 -0.062552 0.267111
-0.014071 -0.062485 0.266786
-0.012812 -0.062567 0.267097
-0.011501 -0.062386 0.266293
-0.010155 -0.061953 0.264409
-0.008909 -0.062082 0.264931
-0.007616 -0.061883 0.264053
-0.006341 -0.061779 0.263583
-0.005094 -0.061961 0.264338
-0.003835 -0.062075 0.264804
-0.002568 -0.062109 0.264931
-0.001302 -0.062269 0.265598
-0.000030 -0.062639 0.267166
0.001254 -0.062845 0.268032
0.002573 -0.063699 0.271669
0.003856 -0.063400 0.270387
0.005164 -0.063546 0.271010
0.006462 -0.063540 0.270983
0.007363 -0.060283 0.257096
0.008622 -0.060477 0.257926
0.009867 -0.060531 0.258166
0.011096 -0.060483 0.257970
0.012349 -0.060565 0.258332
0.013614 -0.060686 0.258861
0.014888 -0.060822 0.259460
0.016191 -0.061048 0.260442
0.017403 -0.060922 0.259923
0.018689 -0.061053 0.260506
0.020011 -0.061277 0.261488
0.021688 -0.062500 0.266735
0.023011 -0.062622 0.267287
0.024065 -0.062038 0.264828
0.025291 -0.061934 0.264420
0.026531 -0.061872 0.264189
0.027516 -0.061248 0.261563
0.028742 -0.061192 0.261362
0.029954 -0.061110 0.261051
0.031049 -0.060807 0.259800
0.032282 -0.060788 0.259763
0.033595 -0.060913 0.260343
0.034869 -0.060961 0.260597
0.036144 -0.061010 0.260852
0.037494 -0.061176 0.261613
0.038962 -0.061518 0.263125
0.040474 -0.061905 0.264831
0.041663 -0.061790 0.264393
0.042919 -0.061778 0.264395
0.044130 -0.061704 0.264135
0.045410 -0.061728 0.264290
0.046954 -0.062099 0.265938
0.048360 -0.062274 0.266742
0.049287 -0.061838 0.264932
0.051097 -0.062503 0.267841
0.052666 -0.062850 0.269383
0.053915 -0.062806 0.269255
0.055835 -0.063528 0.272408
0.057141 -0.063534 0.272493
0.058300 -0.063381 0.271894
0.059344 -0.063111 0.270794
0.060454 -0.062923 0.270042
0.061931 -0.063115 0.270925
0.063224 -0.063116 0.270985
0.064653 -0.063250 0.271615
0.065897 -0.063201 0.271457
0.067158 -0.063170 0.271377
0.068377 -0.063102 0.271136
0.069509 -0.062957 0.270563
0.070553 -0.062739 0.269672
0.071465 -0.062413 0.268319
0.072248 -0.061989 0.266538
0.073046 -0.061592 0.264872
0.073822 -0.061189 0.263180
0.074670 -0.060860 0.261799
0.075768 -0.060741 0.261321
0.076826 -0.060594 0.260722
0.077966 -0.060515 0.260413
0.079577 -0.060799 0.261663
0.080802 -0.060785 0.261623
0.082353 -0.061011 0.262618
0.083794 -0.061150 0.263236
0.084982 -0.061104 0.263052
0.086116 -0.061021 0.262702
0.097232 -0.067912 0.292379
0.098488 -0.067819 0.291980
0.098350 -0.066782 0.287515
0.101470 -0.067955 0.292561
0.102964 -0.068022 0.292839
0.104635 -0.068203 0.293603
0.105760 -0.068028 0.292828
0.107150 -0.068026 0.292792
0.108510 -0.068004 0.292668
0.109946 -0.068031 0.292744
0.111370 -0.068049 0.292778
0.112821 -0.068084 0.292877
0.114085 -0.068005 0.292482
0.115524 -0.068032 0.292535
0.117204 -0.068198 0.293181
0.118657 -0.068230 0.293238
0.119916 -0.068151 0.292814
0.121412 -0.068206 0.292959
0.122758 -0.068178 0.292736
0.124215 -0.068210 0.292766
0.125509 -0.068154 0.292407
0.126975 -0.068191 0.292438
0.128273 -0.068138 0.292076
0.129462 -0.068029 0.291463
0.131367 -0.068294 0.292444
0.132715 -0.068267 0.292165
0.134382 -0.068403 0.292572
0.135809 -0.068415 0.292438
0.136917 -0.068268 0.291612
0.138921 -0.068566 0.292676
0.140596 -0.068698 0.293016
0.142104 -0.068746 0.292985
0.143603 -0.068789 0.292921
0.145185 -0.068870 0.293006
0.146782 -0.068956 0.293100
0.148298 -0.069003 0.293010
0.150020 -0.069145 0.293306
0.151197 -0.069034 0.292519
0.152822 -0.069129 0.292585
0.154262 -0.069138 0.292274
-0.125372 -0.053806 0.234252
-0.124874 -0.054073 0.235673
-0.124061 -0.054207 0.236506
-0.123040 -0.054252 0.236939
-0.123270 -0.054855 0.239800
-0.122969 -0.055230 0.241658
-0.121777 -0.055209 0.241771
-0.121136 -0.055439 0.242975
-0.120299 -0.055583 0.243794
-0.119244 -0.055629 0.244171
-0.118229 -0.055694 0.244624
-0.118126 -0.056194 0.246981
-0.129256 -0.064016 0.281981
-0.140947 -0.072027 0.317678
-0.140013 -0.072317 0.319074
-0.126370 -0.065977 0.291203
-0.125174 -0.066069 0.291699
-0.123448 -0.065880 0.290947
-0.122032 -0.065854 0.290906
-0.120754 -0.065903 0.291190
-0.119678 -0.066064 0.291962
-0.118276 -0.066047 0.291940
-0.117006 -0.066104 0.292241
-0.115674 -0.066128 0.292383
-0.114498 -0.066242 0.292921
-0.113203 -0.066289 0.293157
-0.111864 -0.066312 0.293277
-0.110579 -0.066368 0.293539
-0.109265 -0.066407 0.293722
-0.107480 -0.066158 0.292623
-0.106228 -0.066234 0.292959
-0.104984 -0.066318 0.293322
-0.103309 -0.066128 0.292469
-0.101943 -0.066133 0.292477
-0.100531 -0.066108 0.292344
-0.099221 -0.066151 0.292508
-0.098145 -0.066353 0.293371
-0.096181 -0.065952 0.291565
-0.094357 -0.065638 0.290137
-0.099972 -0.070564 0.311867
-0.098574 -0.070613 0.312037
-0.097266 -0.070730 0.312499
-0.094317 -0.069638 0.307622
-0.092619 -0.069451 0.306736
-0.090507 -0.068942 0.304429
-0.087718 -0.067894 0.299736
-0.085525 -0.067279 0.296960
-0.084253 -0.067381 0.297340
-0.082882 -0.067406 0.297378
-0.083524 -0.069097 0.304765
-0.082198 -0.069191 0.305104
-0.080567 -0.069027 0.304303
-0.079354 -0.069221 0.305078
-0.078101 -0.069388 0.305730
-0.076547 -0.069288 0.305208
-0.075186 -0.069362 0.305449
-0.073886 -0.069497 0.305956
-0.072533 -0.069586 0.306260
-0.067195 -0.065779 0.289418
-0.066201 -0.066154 0.290982
-0.065003 -0.066336 0.291698
