ply
format ascii 1.0
element vertex 1745
property float x
property float y
property float z
end_header
0.088269 0.042204 0.276978
0.089845 0.042324 0.277827
0.091871 0.042650 0.280021
0.097208 0.044481 0.292099
0.098447 0.044411 0.291695
0.099022 0.044049 0.289361
0.100347 0.044025 0.289250
0.101759 0.044039 0.289384
0.102932 0.043952 0.288842
0.104617 0.044082 0.289726
0.106025 0.044093 0.289827
0.107259 0.044032 0.289449
0.108670 0.044045 0.289552
0.110089 0.044061 0.289663
0.111329 0.044005 0.289303
0.112957 0.044103 0.289943
0.114299 0.044087 0.289833
0.115613 0.044062 0.289651
0.116896 0.044025 0.289389
0.118171 0.043986 0.289106
0.119637 0.044018 0.289282
0.120982 0.044005 0.289160
0.122541 0.044070 0.289535
0.123962 0.044084 0.289571
0.125836 0.044257 0.290645
0.127528 0.044362 0.291267
0.128937 0.044368 0.291226
0.130236 0.044337 0.290932
0.131595 0.044326 0.290762
0.133028 0.044341 0.290749
0.134456 0.044353 0.290711
0.135888 0.044366 0.290671
0.137355 0.044390 0.290693
0.139193 0.044532 0.291477
0.140539 0.044516 0.291210
0.141813 0.044477 0.290787
0.143446 0.044551 0.291087
0.145173 0.044652 0.291551
0.146528 0.044637 0.291251
0.147940 0.044640 0.291053
0.149555 0.044704 0.291234
0.150802 0.044657 0.290685
0.152205 0.044657 0.290424
-0.042940 0.016147 0.103672
-0.043064 0.016380 0.105169
-0.042548 0.016371 0.105116
-0.041894 0.016309 0.104714
-0.041589 0.016382 0.105185
-0.041655 0.016606 0.106613
-0.041325 0.016675 0.107049
-0.040118 0.016387 0.105195
-0.040350 0.016688 0.107112
-0.040632 0.017017 0.109209
-0.040845 0.017325 0.111172
-0.040375 0.017347 0.111298
-0.039348 0.017128 0.109874
-0.038725 0.018042 0.115611
-0.042421 0.020046 0.128417
-0.041883 0.020078 0.128588
-0.041758 0.020312 0.130050
-0.041801 0.020636 0.132085
-0.041771 0.020933 0.133947
-0.042067 0.021405 0.136925
-0.042414 0.021918 0.140160
-0.041992 0.022044 0.140919
-0.041917 0.022359 0.142884
-0.041953 0.022745 0.145297
-0.042307 0.023318 0.148907
-0.042365 0.023745 0.151577
-0.042365 0.024154 0.154128
-0.042336 0.024560 0.156662
-0.042576 0.025140 0.160300
-0.042606 0.025614 0.163259
-0.042425 0.025977 0.165507
-0.042432 0.026470 0.168582
-0.042229 0.026849 0.170930
-0.042065 0.027268 0.173529
-0.041999 0.027769 0.176645
-0.042097 0.028401 0.180589
-0.042038 0.028951 0.184009
-0.042053 0.029576 0.187906
-0.041859 0.030078 0.191020
-0.041854 0.030742 0.195157
-0.041706 0.031329 0.198796
-0.041771 0.032106 0.203643
-0.041532 0.032680 0.207203
-0.041592 0.033524 0.212467
-0.041343 0.034155 0.216377
-0.041065 0.034793 0.220331
-0.040829 0.035502 0.224728
-0.040455 0.036126 0.228587
-0.039896 0.036614 0.231584
-0.039339 0.037132 0.234769
-0.045763 0.044463 0.281013
-0.044468 0.044512 0.281213
-0.042264 0.043625 0.275505
-0.040844 0.043516 0.274716
-0.038825 0.042740 0.269721
-0.038950 0.044354 0.279803
-0.036880 0.043493 0.274277
-0.035003 0.042804 0.269838
-0.034675 0.044030 0.277475
-0.033054 0.043646 0.274964
-0.030098 0.041394 0.260696
-0.028619 0.041068 0.258559
-0.027167 0.040750 0.256481
-0.025906 0.040705 0.256120
-0.024656 0.040671 0.255839
-0.023465 0.040738 0.256185
-0.022283 0.040827 0.256681
-0.020896 0.040530 0.254749
-0.019829 0.040857 0.256738
-0.018834 0.041384 0.259990
-0.017787 0.041865 0.262955
-0.016475 0.041746 0.262152
-0.015205 0.041723 0.261956
-0.013994 0.041874 0.262857
-0.012721 0.041852 0.262674
-0.011173 0.040817 0.256134
-0.009930 0.040784 0.255887
-0.008735 0.040963 0.256972
-0.007464 0.040784 0.255817
-0.006243 0.040865 0.256296
-0.005023 0.040994 0.257080
-0.003792 0.041083 0.257613
-0.002556 0.041197 0.258313
-0.001310 0.041170 0.258127
-0.000065 0.041360 0.259301
0.001194 0.041639 0.261045
0.002448 0.041549 0.260470
0.003702 0.041512 0.260234
0.020057 0.041566 0.260829
0.021482 0.041891 0.262910
0.024684 0.043052 0.270287
0.025554 0.042334 0.265833
0.026335 0.041544 0.260923
0.027543 0.041470 0.260513
0.028566 0.041135 0.258462
0.029734 0.041027 0.257845
0.031115 0.041211 0.259064
0.032599 0.041512 0.261017
0.034082 0.041789 0.262823
0.035623 0.042115 0.264942
0.036868 0.042079 0.264791
0.038301 0.042254 0.265965
0.039624 0.042300 0.266329
0.040653 0.042039 0.264763
0.042225 0.042339 0.266727
0.043323 0.042160 0.265678
0.044554 0.042116 0.265481
0.043603 0.040069 0.252660
0.044813 0.040065 0.252715
0.046023 0.040061 0.252770
0.047153 0.039991 0.252405
0.048411 0.040029 0.252725
0.049574 0.039988 0.252552
0.050786 0.039988 0.252637
0.052103 0.040069 0.253230
0.053238 0.040009 0.252934
0.054617 0.040132 0.253792
0.056144 0.040354 0.255287
0.058808 0.041368 0.261787
0.060980 0.042000 0.265876
0.062584 0.042223 0.267374
0.063913 0.042256 0.267667
0.065390 0.042382 0.268557
0.066867 0.042504 0.269415
0.068157 0.042505 0.269507
0.069393 0.042473 0.269388
0.070726 0.042499 0.269641
0.071694 0.042310 0.268520
0.072454 0.042006 0.266677
0.073268 0.041744 0.265089
0.074522 0.041737 0.265123
0.075842 0.041767 0.265387
0.076586 0.041483 0.263657
0.077784 0.041451 0.263522
0.079357 0.041617 0.264645
0.080983 0.041804 0.265902
0.082352 0.041855 0.266289
0.084455 0.042272 0.269003
0.086007 0.042405 0.269909
0.087948 0.042722 0.271988
0.090555 0.043349 0.276035
0.096695 0.045625 0.290581
0.097927 0.045554 0.290179
0.098670 0.045260 0.288352
0.100344 0.045396 0.289259
0.101676 0.045376 0.289165
0.103269 0.045470 0.289800
0.104566 0.045434 0.289597
0.105922 0.045423 0.289554
0.107266 0.045408 0.289477
0.108608 0.045393 0.289390
0.110005 0.045400 0.289445
0.111652 0.045509 0.290143
0.113111 0.045540 0.290336
0.114386 0.045496 0.290049
0.115747 0.045488 0.289979
0.116857 0.045382 0.289282
0.118006 0.045294 0.288691
0.119511 0.045343 0.288964
0.121028 0.045395 0.289253
0.122731 0.045514 0.289965
0.123671 0.045352 0.288871
0.125324 0.045451 0.289437
0.126891 0.045517 0.289785
0.129072 0.045800 0.291501
0.130284 0.045737 0.291005
0.131385 0.045636 0.290264
0.132911 0.045683 0.290454
0.134297 0.045682 0.290325
0.135883 0.045748 0.290616
0.137441 0.045803 0.290828
0.138886 0.045820 0.290784
0.140355 0.045844 0.290776
0.141649 0.045811 0.290395
0.143277 0.045886 0.290684
0.144624 0.045870 0.290387
0.146523 0.046028 0.291174
0.147969 0.046042 0.291039
0.150068 0.046257 0.292160
0.151599 0.046294 0.292143
0.153086 0.046317 0.292025
-0.042472 0.016270 0.101381
-0.042153 0.016331 0.101769
-0.042939 0.016826 0.104861
-0.042464 0.016833 0.104908
-0.041387 0.016599 0.103447
-0.040234 0.016328 0.101759
-0.040614 0.016681 0.103953
-0.040370 0.016782 0.104578
-0.039426 0.016592 0.103384
-0.039484 0.016824 0.104819
-0.040026 0.017270 0.107588
-0.040626 0.017753 0.110582
-0.039922 0.017672 0.110058
-0.039728 0.019070 0.118619
-0.038649 0.018817 0.117015
-0.041697 0.020594 0.128034
-0.041603 0.020850 0.129587
-0.041277 0.020994 0.130448
-0.041164 0.021254 0.132021
-0.042327 0.022189 0.137792
-0.042345 0.022545 0.139957
-0.042322 0.022890 0.142052
-0.041987 0.023075 0.143148
-0.042388 0.023676 0.146831
-0.042471 0.024117 0.149513
-0.042340 0.024450 0.151521
-0.042196 0.024786 0.153546
-0.042155 0.025195 0.156026
-0.042370 0.025775 0.159558
-0.042428 0.026279 0.162616
-0.042438 0.026771 0.165597
-0.042324 0.027202 0.168195
-0.042222 0.027658 0.170947
-0.042049 0.028083 0.173508
-0.042035 0.028634 0.176842
-0.041846 0.029086 0.179563
-0.041871 0.029709 0.183331
-0.041932 0.030384 0.187424
-0.041921 0.031035 0.191359
-0.041667 0.031532 0.194344
-0.041745 0.032307 0.199043
-0.041887 0.033169 0.204270
-0.041671 0.033783 0.207964
-0.041434 0.034408 0.211729
-0.041342 0.035189 0.216446
-0.041174 0.035943 0.220995
-0.040720 0.036480 0.224210
-0.040432 0.037199 0.228539
-0.040002 0.037823 0.232282
-0.041423 0.040283 0.247297
-0.044938 0.044984 0.276054
-0.043666 0.045033 0.276250
-0.042525 0.045223 0.277312
-0.041241 0.045270 0.277498
-0.040324 0.045735 0.280247
-0.039510 0.046354 0.283940
-0.037660 0.045758 0.280193
-0.035010 0.044110 0.270008
-0.034539 0.045186 0.276503
-0.033353 0.045376 0.277575
-0.030014 0.042530 0.260084
-0.028527 0.042176 0.257839
-0.027094 0.041873 0.255914
-0.025942 0.041996 0.256588
-0.024682 0.041949 0.256230
-0.023441 0.041930 0.256045
-0.022264 0.042031 0.256592
-0.020962 0.041893 0.255687
-0.019801 0.042036 0.256498
-0.018897 0.042781 0.260986
-0.017935 0.043493 0.265269
-0.016656 0.043485 0.265166
-0.015278 0.043199 0.263369
-0.014160 0.043658 0.266118
-0.012731 0.043157 0.263023
-0.011087 0.041736 0.254320
-0.009908 0.041930 0.255462
-0.008701 0.042044 0.256120
-0.007446 0.041924 0.255359
-0.006236 0.042068 0.256204
-0.005008 0.042123 0.256513
-0.003787 0.042294 0.257535
-0.002547 0.042312 0.257626
-0.001307 0.042393 0.258104
-0.000063 0.042404 0.258153
0.001184 0.042463 0.258506
0.002444 0.042691 0.259886
0.003699 0.042717 0.260039
0.021028 0.044891 0.273536
0.021839 0.043870 0.267357
0.023187 0.043983 0.268091
0.024465 0.043958 0.267982
0.025091 0.042821 0.261098
0.025985 0.042229 0.257539
0.027310 0.042359 0.258388
0.028684 0.042551 0.259612
0.029622 0.042106 0.256957
0.031034 0.042344 0.258468
0.032579 0.042739 0.260939
0.034071 0.043037 0.262827
0.035624 0.043387 0.265032
0.037059 0.043574 0.266246
0.038339 0.043573 0.266309
0.039696 0.043657 0.266894
0.041139 0.043826 0.268008
0.042447 0.043847 0.268209
0.043606 0.043717 0.267492
0.044845 0.043671 0.267295
0.043990 0.041646 0.254976
0.045197 0.041629 0.254950
0.046388 0.041599 0.254849
0.047492 0.041495 0.254290
0.048812 0.041580 0.254889
0.049867 0.041440 0.254115
0.051127 0.041473 0.254401
0.052385 0.041503 0.254666
0.053567 0.041473 0.254565
0.055076 0.041691 0.255986
0.056641 0.041942 0.257608
0.058357 0.042291 0.259839
0.060599 0.042999 0.264273
0.062789 0.043641 0.268309
0.064025 0.043608 0.268192
0.065464 0.043712 0.268917
0.066978 0.043861 0.269920
0.068236 0.043840 0.269872
0.069603 0.043888 0.270252
0.070719 0.043779 0.269665
0.071811 0.043660 0.269011
0.072716 0.043433 0.267688
0.073530 0.043160 0.266083
0.075028 0.043291 0.266965
0.076010 0.043124 0.266015
0.076708 0.042806 0.264119
0.078086 0.042870 0.264584
0.078973 0.042667 0.263399
0.080298 0.042703 0.263685
0.082202 0.043041 0.265836
0.084045 0.043338 0.267728
0.085722 0.043542 0.269043
0.087485 0.043782 0.270582
0.090406 0.044586 0.275604
0.098124 0.047025 0.290783
0.099355 0.046953 0.290376
0.100225 0.046713 0.288932
0.101554 0.046691 0.288832
0.102932 0.046692 0.288868
0.104286 0.046682 0.288832
0.105934 0.046802 0.289596
0.107333 0.046810 0.289662
0.108877 0.046881 0.290110
0.110151 0.046835 0.289831
0.111341 0.046754 0.289333
0.112822 0.046797 0.289589
0.114088 0.046750 0.289289
0.115451 0.046744 0.289230
0.116803 0.046733 0.289139
0.118062 0.046686 0.288814
0.119691 0.046784 0.289384
0.121058 0.046779 0.289307
0.122549 0.046821 0.289514
0.123946 0.046827 0.289490
0.125455 0.046874 0.289713
0.126853 0.046880 0.289669
0.128469 0.046964 0.290107
0.130136 0.047066 0.290639
0.131575 0.047084 0.290646
0.132785 0.047020 0.290139
0.134310 0.047068 0.290311
0.135611 0.047037 0.289989
0.137018 0.047043 0.289882
0.138857 0.047196 0.290670
0.140306 0.047214 0.290619
0.142039 0.047327 0.291134
0.143189 0.047245 0.290443
0.145009 0.047383 0.291093
0.146189 0.047312 0.290442
0.147820 0.047386 0.290673
0.150057 0.047652 0.292061
0.152040 0.047832 0.292912
0.153730 0.047918 0.293168
-0.043260 0.017059 0.103259
-0.042841 0.017085 0.103429
-0.042573 0.017173 0.103967
-0.042305 0.017263 0.104514
-0.041563 0.017159 0.103888
-0.040359 0.016860 0.102077
-0.040571 0.017153 0.103843
-0.040506 0.017548 0.106221
-0.040730 0.017865 0.108130
-0.040332 0.017914 0.108415
-0.040724 0.018319 0.110856
-0.039857 0.018162 0.109888
-0.039697 0.019615 0.118540
-0.042069 0.021084 0.127385
-0.041535 0.021117 0.127555
-0.041405 0.021360 0.128986
-0.041111 0.021524 0.129944
-0.041468 0.022039 0.133015
-0.042051 0.022693 0.136918
-0.042232 0.023146 0.139608
-0.041924 0.023341 0.140739
-0.041841 0.023670 0.142678
-0.042261 0.024299 0.146420
-0.042589 0.024895 0.149959
-0.042454 0.025236 0.151961
-0.042325 0.025592 0.154050
-0.042488 0.026141 0.157296
-0.042391 0.026546 0.159674
-0.042335 0.026992 0.162298
-0.042328 0.027487 0.165208
-0.042350 0.028019 0.168344
-0.042200 0.028455 0.170900
-0.042114 0.028953 0.173822
-0.041922 0.029397 0.176417
-0.041801 0.029909 0.179420
-0.041827 0.030550 0.183192
-0.041935 0.031280 0.187493
-0.041728 0.031800 0.190538
-0.041652 0.032446 0.194332
-0.041287 0.032892 0.196922
-0.041402 0.033749 0.201972
-0.041724 0.034820 0.208296
-0.041410 0.035399 0.211677
-0.041202 0.036100 0.215784
-0.041389 0.037192 0.222226
-0.040544 0.037389 0.223316
-0.040388 0.038251 0.228373
-0.042509 0.041375 0.246933
-0.041377 0.041422 0.247117
-0.040821 0.042064 0.250857
-0.040240 0.042720 0.254674
-0.039065 0.042765 0.254849
-0.041185 0.048086 0.286352
-0.039854 0.048133 0.286532
-0.037020 0.046303 0.275546
-0.035128 0.045560 0.271033
-0.034497 0.046459 0.276288
-0.032877 0.046044 0.273732
-0.030476 0.044455 0.264208
-0.028794 0.043822 0.260367
-0.027324 0.043471 0.258200
-0.026148 0.043576 0.258753
-0.024919 0.043598 0.258814
-0.023681 0.043607 0.258793
-0.022575 0.043872 0.260302
-0.021576 0.044388 0.263298
-0.020304 0.044375 0.263156
-0.019099 0.044514 0.263920
-0.017807 0.044454 0.263511
-0.016637 0.044717 0.265016
-0.015307 0.044555 0.264000
-0.014100 0.044755 0.265138
-0.012803 0.044683 0.264668
-0.011099 0.043014 0.254743
-0.009908 0.043168 0.255613
-0.008677 0.043166 0.255569
-0.007440 0.043130 0.255324
-0.006220 0.043203 0.255725
-0.004990 0.043222 0.255810
-0.003765 0.043302 0.256267
-0.002533 0.043343 0.256490
-0.001299 0.043418 0.256918
-0.000061 0.043511 0.257450
0.001184 0.043640 0.258209
0.002439 0.043817 0.259246
0.003897 0.046296 0.273912
0.005217 0.046293 0.273891
0.006464 0.045770 0.270800
0.007769 0.045763 0.270767
0.014572 0.046643 0.276058
0.015897 0.046627 0.275988
0.017188 0.046520 0.275382
0.018633 0.046814 0.277160
0.019960 0.046793 0.277071
0.021005 0.046154 0.273327
0.022049 0.045588 0.270015
0.023337 0.045563 0.269911
0.024472 0.045258 0.268147
0.025067 0.044033 0.260938
0.026389 0.044142 0.261635
0.027565 0.044006 0.260883
0.028627 0.043710 0.259181
0.029684 0.043430 0.257578
0.031031 0.043581 0.258531
0.032181 0.043454 0.257839
0.033583 0.043663 0.259143
0.035129 0.044038 0.261430
0.036382 0.044032 0.261468
0.037924 0.044365 0.263515
0.039303 0.044492 0.264339
0.040479 0.044388 0.263794
0.041947 0.044600 0.265132
0.043117 0.044493 0.264567
0.044424 0.044529 0.264863
0.044221 0.043092 0.256388
0.045138 0.042794 0.254694
0.046414 0.042843 0.255062
0.047466 0.042688 0.254218
0.048738 0.042734 0.254574
0.049997 0.042766 0.254845
0.051241 0.042784 0.255034
0.052721 0.042994 0.256364
0.054273 0.043251 0.257982
0.055774 0.043458 0.259295
0.057178 0.043582 0.260118
0.058999 0.044011 0.262762
0.061056 0.044594 0.266330
0.062770 0.044908 0.268289
0.064100 0.044940 0.268567
0.065403 0.044953 0.268725
0.066884 0.045084 0.269597
0.068227 0.045120 0.269893
0.069468 0.045088 0.269782
0.070724 0.045066 0.269734
0.071439 0.044708 0.267665
0.072776 0.044744 0.267957
0.073461 0.044384 0.265879
0.074598 0.044305 0.265478
0.075775 0.044252 0.265235
0.076414 0.043892 0.263143
0.077348 0.043710 0.262119
0.078495 0.043653 0.261839
0.079719 0.043639 0.261820
0.081350 0.043845 0.263112
0.082997 0.044053 0.264420
0.084724 0.044297 0.265936
0.086089 0.044347 0.266290
0.088433 0.044893 0.269616
0.096682 0.048377 0.290592
0.097917 0.048303 0.290191
0.099276 0.048292 0.290164
0.100207 0.048075 0.288899
0.101707 0.048133 0.289281
0.103046 0.048115 0.289200
0.104309 0.048062 0.288906
0.105800 0.048114 0.289237
0.107219 0.048133 0.289361
0.109073 0.048343 0.290635
0.110236 0.048246 0.290055
0.111732 0.048296 0.290349
0.112873 0.048192 0.289717
0.113984 0.048078 0.289017
0.115441 0.048111 0.289196
0.116585 0.048014 0.288586
0.117743 0.047926 0.288019
0.119258 0.047983 0.288321
0.121219 0.048216 0.289670
0.122575 0.048205 0.289552
0.123693 0.048103 0.288872
0.125285 0.048185 0.289293
0.126950 0.048292 0.289859
0.128570 0.048381 0.290302
0.129830 0.048334 0.289920
0.131001 0.048254 0.289337
0.132141 0.048165 0.288688
0.133747 0.048246 0.289048
0.135771 0.048475 0.290280
0.137020 0.048425 0.289835
0.138295 0.048385 0.289439
0.140025 0.048503 0.289979
0.141038 0.048373 0.289022
0.142524 0.048406 0.289030
0.144306 0.048538 0.289613
0.145870 0.048595 0.289737
0.147549 0.048688 0.290065
0.148919 0.048679 0.289766
0.150589 0.048767 0.290033
0.152917 0.049064 0.291530
-0.043084 0.017474 0.102835
-0.042667 0.017501 0.103004
-0.042704 0.017717 0.104283
-0.042330 0.017766 0.104574
-0.041557 0.017647 0.103873
-0.039750 0.018391 0.108211
-0.040997 0.019214 0.113037
-0.040529 0.019245 0.113200
-0.042404 0.020678 0.121589
-0.041898 0.020711 0.121758
-0.040355 0.020225 0.118874
-0.041006 0.020840 0.122464
-0.041541 0.021413 0.125800
-0.041898 0.021909 0.128684
-0.041359 0.021945 0.128863
-0.040616 0.021872 0.128399
-0.040854 0.022333 0.131067
-0.041527 0.023050 0.135233
-0.041955 0.023651 0.138717
-0.042157 0.024141 0.141548
-0.042142 0.024520 0.143729
-0.041937 0.024801 0.145325
-0.042091 0.025306 0.148235
-0.042316 0.025872 0.151496
-0.042441 0.026395 0.154507
-0.042292 0.026763 0.156606
-0.042348 0.027276 0.159549
-0.042313 0.027748 0.162253
-0.042244 0.028215 0.164920
-0.042261 0.028758 0.168033
-0.042075 0.029181 0.170439
-0.041995 0.029696 0.173377
-0.041972 0.030272 0.176676
-0.042012 0.030918 0.180376
-0.041899 0.031476 0.183561
-0.041924 0.032164 0.187498
-0.041956 0.032887 0.191640
-0.041650 0.033371 0.194382
-0.041425 0.033944 0.197640
-0.041382 0.034696 0.201938
-0.041618 0.035723 0.207837
-0.041491 0.036481 0.212167
-0.041505 0.037404 0.217447
-0.040824 0.037731 0.219266
-0.040388 0.038309 0.222538
-0.043157 0.042040 0.244120
-0.042041 0.042088 0.244307
-0.040948 0.042163 0.244650
-0.040277 0.042689 0.247608
-0.039828 0.043491 0.252166
-0.038881 0.043780 0.253753
-0.041568 0.048312 0.279922
-0.040002 0.048038 0.278236
-0.038349 0.047638 0.275824
-0.036393 0.046819 0.270991
-0.035247 0.047021 0.272069
-0.033708 0.046693 0.270086
-0.032411 0.046688 0.269972
-0.030793 0.046201 0.267075
-0.029575 0.046298 0.267554
-0.028390 0.046458 0.268398
-0.027078 0.046415 0.268074
-0.025738 0.046319 0.267447
-0.024506 0.046415 0.267934
-0.023281 0.046538 0.268575
-0.022005 0.046567 0.268675
-0.020705 0.046544 0.268480
-0.019299 0.046266 0.266813
-0.018090 0.046456 0.267852
-0.016692 0.046149 0.266027
-0.015469 0.046317 0.266949
-0.014358 0.046880 0.270144
-0.012467 0.044756 0.257858
-0.011060 0.044095 0.254010
-0.009862 0.044202 0.254590
-0.008661 0.044325 0.255262
-0.007414 0.044220 0.254630
-0.006212 0.044387 0.255563
-0.004989 0.044457 0.255940
-0.003761 0.044515 0.256250
-0.002531 0.044593 0.256680
-0.001296 0.044629 0.256874
-0.000059 0.044779 0.257723
0.001188 0.044959 0.258746
0.002442 0.045087 0.259479
0.003821 0.046667 0.268569
0.005115 0.046664 0.268548
0.006325 0.046047 0.265003
0.007714 0.046728 0.268930
0.008902 0.046164 0.265693
0.010110 0.045837 0.263821
0.011330 0.045631 0.262649
0.012623 0.045729 0.263233
0.013934 0.045867 0.264050
0.015232 0.045943 0.264513
0.016586 0.046164 0.265813
0.017910 0.046275 0.266482
0.019388 0.046742 0.269208
0.020527 0.046387 0.267200
0.021660 0.046058 0.265344
0.023114 0.046411 0.267422
0.024322 0.046259 0.266588
0.024844 0.044883 0.258703
0.026118 0.044930 0.259026
0.027205 0.044667 0.257561
0.028433 0.044650 0.257513
0.029555 0.044472 0.256546
0.030864 0.044580 0.257224
0.032162 0.044663 0.257765
0.033584 0.044907 0.259233
0.034955 0.045067 0.260220
0.036371 0.045272 0.261471
0.037943 0.045651 0.263726
0.039384 0.045853 0.264966
0.040901 0.046128 0.266626
0.042317 0.046275 0.267554
0.043534 0.046202 0.267208
0.044806 0.046191 0.267219
0.045855 0.045957 0.265942
0.046510 0.045350 0.262509
0.047166 0.044777 0.259271
0.048341 0.044713 0.258980
0.049526 0.044662 0.258761
0.050680 0.044585 0.258394
0.051883 0.044554 0.258296
0.053135 0.044566 0.258445
0.054623 0.044771 0.259714
0.056155 0.045001 0.261132
0.057623 0.045171 0.262203
0.059284 0.045482 0.264091
0.061352 0.046087 0.267684
0.062736 0.046162 0.268204
0.064152 0.046258 0.268844
0.065594 0.046369 0.269569
0.066899 0.046379 0.269713
0.068299 0.046454 0.270230
0.069597 0.046459 0.270336
0.070701 0.046336 0.269697
0.071673 0.046132 0.268589
0.072618 0.045918 0.267421
0.073297 0.045547 0.265328
0.074128 0.045281 0.263849
0.075100 0.045108 0.262913
0.075626 0.044678 0.260470
0.076266 0.044327 0.258489
0.077402 0.044272 0.258227
0.078757 0.044341 0.258691
0.080069 0.044384 0.259000
0.081724 0.044614 0.260394
0.083839 0.045084 0.263187
0.084630 0.044838 0.261803
0.087571 0.045722 0.267008
0.098748 0.050102 0.292676
0.099989 0.050025 0.292267
0.100234 0.049459 0.288992
0.101430 0.049370 0.288507
0.102978 0.049454 0.289020
0.104428 0.049489 0.289245
0.106024 0.049591 0.289857
0.107251 0.049519 0.289452
0.108904 0.049644 0.290187
0.110089 0.049555 0.289667
0.111258 0.049462 0.289114
0.112771 0.049521 0.289449
0.114005 0.049458 0.289062
0.115368 0.049452 0.289002
0.116869 0.049504 0.289276
0.118244 0.049502 0.289228
0.119916 0.049623 0.289892
0.121248 0.049602 0.289719
0.122601 0.049591 0.289591
0.123986 0.049592 0.289530
0.125555 0.049665 0.289887
0.127534 0.049898 0.291160
0.129038 0.049942 0.291323
0.130225 0.049863 0.290762
0.131449 0.049800 0.290285
0.132783 0.049779 0.290046
0.133962 0.049702 0.289465
0.135557 0.049778 0.289771
0.136813 0.049730 0.289343
0.138495 0.049836 0.289798
0.140012 0.049881 0.289889
0.141905 0.050058 0.290734
0.143195 0.050020 0.290320
0.144532 0.050000 0.289995
0.146079 0.050052 0.290076
0.147624 0.050102 0.290132
0.149614 0.050301 0.291036
0.151334 0.050406 0.291381
0.153190 0.050553 0.291957
-0.041265 0.017201 0.098489
-0.043258 0.018236 0.104428
-0.042119 0.017960 0.102853
-0.042525 0.018343 0.105055
-0.039707 0.018882 0.108101
-0.040053 0.019293 0.110443
-0.039816 0.019431 0.111214
-0.039174 0.019372 0.110861
-0.038739 0.019415 0.111089
-0.038020 0.019315 0.110498
-0.041108 0.021174 0.121106
-0.041396 0.021622 0.123644
-0.041459 0.021964 0.125567
-0.041165 0.022124 0.126451
-0.040703 0.022197 0.126836
-0.040636 0.022490 0.128481
-0.040958 0.023011 0.131420
-0.041636 0.023751 0.135609
-0.042031 0.024351 0.138990
-0.042093 0.024773 0.141360
-0.042182 0.025225 0.143894
-0.042174 0.025633 0.146173
-0.042517 0.026271 0.149765
-0.042290 0.026574 0.151438
-0.042307 0.027042 0.154051
-0.042104 0.027383 0.155944
-0.041861 0.027710 0.157750
-0.042034 0.028330 0.161222
-0.042143 0.028929 0.164567
-0.042274 0.029565 0.168126
-0.042155 0.030048 0.170810
-0.042265 0.030717 0.174542
-0.042156 0.031249 0.177501
-0.042088 0.031834 0.180756
-0.041939 0.032381 0.183789
-0.041816 0.032972 0.187071
-0.042217 0.034010 0.192887
-0.041823 0.034440 0.195252
-0.041631 0.035060 0.198687
-0.041308 0.035596 0.201647
-0.041200 0.036346 0.205819
-0.040462 0.036564 0.206974
-0.040157 0.037194 0.210458
-0.045668 0.043381 0.245375
-0.044552 0.043432 0.245572
-0.042623 0.042673 0.241188
-0.041877 0.043089 0.243445
-0.040926 0.043311 0.244613
-0.039991 0.043563 0.245947
-0.039432 0.044253 0.249754
-0.038960 0.045087 0.254369
-0.041518 0.049595 0.279704
-0.040222 0.049644 0.279885
-0.038513 0.049172 0.277125
-0.037409 0.049464 0.278678
-0.035200 0.048263 0.271828
-0.033130 0.047168 0.265572
-0.032172 0.047631 0.268099
-0.030616 0.047213 0.265664
-0.029218 0.047011 0.264449
-0.028033 0.047149 0.265149
-0.026634 0.046924 0.263811
-0.025377 0.046938 0.263817
-0.024073 0.046863 0.263329
-0.022885 0.047019 0.264140
-0.021636 0.047060 0.264306
-0.020353 0.047028 0.264062
-0.019079 0.047012 0.263915
-0.017895 0.047232 0.265095
-0.016520 0.046946 0.263438
-0.015354 0.047254 0.265115
-0.014372 0.048233 0.270558
-0.012359 0.045607 0.255785
-0.011029 0.045198 0.253454
-0.009823 0.045256 0.253740
-0.008619 0.045344 0.254197
-0.007410 0.045435 0.254679
-0.006188 0.045458 0.254780
-0.004964 0.045479 0.254875
-0.003751 0.045646 0.255788
-0.002523 0.045720 0.256183
-0.001298 0.045995 0.257705
-0.000057 0.046066 0.258089
0.001193 0.046336 0.259596
0.002459 0.046630 0.261236
0.005167 0.048426 0.271293
0.006359 0.047565 0.266475
0.007714 0.048010 0.268969
0.008869 0.047260 0.264781
0.010113 0.047114 0.263972
0.011253 0.046566 0.260919
0.012546 0.046701 0.261692
0.013903 0.047028 0.263544
0.015150 0.046956 0.263167
0.016440 0.047022 0.263564
0.017800 0.047262 0.264940
0.019319 0.047864 0.268344
0.020539 0.047696 0.267439
0.021792 0.047620 0.267054
0.023088 0.047640 0.267208
0.024405 0.047700 0.267591
0.024766 0.045978 0.257974
0.025910 0.045806 0.257057
0.026976 0.045517 0.255482
0.028193 0.045497 0.255424
0.029305 0.045316 0.254461
0.030559 0.045360 0.254762
0.031792 0.045371 0.254886
0.033197 0.045618 0.256330
0.034459 0.045657 0.256614
0.035785 0.045776 0.257344
0.037472 0.046331 0.260533
0.038884 0.046523 0.261684
0.040350 0.046766 0.263116
0.041833 0.047012 0.264575
0.042983 0.046880 0.263907
0.044471 0.047114 0.265299
0.045908 0.047283 0.266325
0.047083 0.047180 0.265820
0.048597 0.047413 0.267215
0.049731 0.047272 0.266499
0.050733 0.047016 0.265138
0.052092 0.047096 0.265666
0.053299 0.047038 0.265418
0.054528 0.047001 0.265293
0.055960 0.047136 0.266138
0.056932 0.046888 0.264814
0.058308 0.046975 0.265387
0.059826 0.047170 0.266571
0.061350 0.047362 0.267737
0.062838 0.047518 0.268701
0.064204 0.047578 0.269123
0.065623 0.047674 0.269744
0.066975 0.047718 0.270076
0.068367 0.047789 0.270555
0.069697 0.047815 0.270779
0.070943 0.047782 0.270671
0.071837 0.047519 0.269253
0.072466 0.047091 0.266906
0.073263 0.046787 0.265250
0.074293 0.046639 0.264480
0.074881 0.046223 0.262187
0.075339 0.045741 0.259518
0.076247 0.045544 0.258462
0.077148 0.045349 0.257413
0.078016 0.045141 0.256288
0.079388 0.045226 0.256829
0.080682 0.045265 0.257100
0.082648 0.045674 0.259473
0.083606 0.045523 0.258659
0.085198 0.045716 0.259796
0.099292 0.051053 0.290247
0.100533 0.050981 0.289871
0.101800 0.050924 0.289575
0.103132 0.050901 0.289465
0.104358 0.050826 0.289060
0.105684 0.050802 0.288933
0.107043 0.050793 0.288893
0.108357 0.050764 0.288731
0.109825 0.050807 0.288971
0.111067 0.050745 0.288612
0.112363 0.050709 0.288395
0.116249 0.051829 0.294742
0.117534 0.051776 0.294414
0.116826 0.050857 0.289154
0.118281 0.050890 0.289301
0.119841 0.050967 0.289689
0.121186 0.050951 0.289546
0.122356 0.050863 0.288984
0.123756 0.050871 0.288962
0.125234 0.050912 0.289113
0.126746 0.050964 0.289326
0.128538 0.051127 0.290155
0.129928 0.051128 0.290059
0.131184 0.051077 0.289655
0.132476 0.051041 0.289327
0.133984 0.051088 0.289461
0.135567 0.051162 0.289738
0.136745 0.051083 0.289141
0.138221 0.051116 0.289164
0.139768 0.051174 0.289319
0.141039 0.051132 0.288891
0.142834 0.051278 0.289517
0.144377 0.051331 0.289609
0.145922 0.051384 0.289684
0.147553 0.051466 0.289909
0.149809 0.051763 0.291328
0.151398 0.051825 0.291411
0.152761 0.051810 0.291045
-0.041734 0.017866 0.099605
-0.043230 0.018716 0.104355
-0.042752 0.018722 0.104395
-0.042496 0.018826 0.104981
-0.042068 0.018855 0.105148
-0.040885 0.019967 0.111313
-0.040425 0.019998 0.111475
-0.039632 0.019863 0.110709
-0.039070 0.019842 0.110575
-0.038674 0.019906 0.110913
-0.038072 0.019864 0.110660
-0.041523 0.021966 0.122342
-0.041380 0.022197 0.123609
-0.041046 0.022332 0.124332
-0.040617 0.022418 0.124783
-0.040418 0.022637 0.125966
-0.040204 0.022852 0.127132
-0.040043 0.023105 0.128505
-0.041031 0.024039 0.133663
-0.042128 0.025066 0.139336
-0.042613 0.025757 0.143133
-0.042282 0.025968 0.144263
-0.041854 0.026126 0.145094
-0.042022 0.026667 0.148052
-0.042244 0.027262 0.151305
-0.042040 0.027597 0.153113
-0.042010 0.028060 0.155630
-0.041978 0.028539 0.158229
-0.041999 0.029071 0.161125
-0.042137 0.029706 0.164584
-0.041976 0.030150 0.166985
-0.042060 0.030790 0.170468
-0.042351 0.031610 0.174944
-0.042607 0.032436 0.179448
-0.042088 0.032694 0.180806
-0.042038 0.033334 0.184278
-0.041853 0.033893 0.187295
-0.042062 0.034801 0.192240
-0.041978 0.035502 0.196038
-0.041471 0.035869 0.197990
-0.040857 0.036158 0.199512
-0.040779 0.036947 0.203786
-0.040590 0.037671 0.207699
-0.044676 0.042497 0.234224
-0.044122 0.043045 0.237151
-0.043043 0.043095 0.237340
-0.042399 0.043596 0.240008
-0.041789 0.044160 0.243027
-0.040768 0.044309 0.243760
-0.039822 0.044552 0.245007
-0.039275 0.045268 0.248859
-0.038770 0.046080 0.253234
-0.041468 0.050874 0.279482
-0.039620 0.050224 0.275818
-0.038804 0.050882 0.279335
-0.036235 0.049207 0.270051
-0.035382 0.049824 0.273351
-0.034104 0.049868 0.273505
-0.032253 0.049043 0.268899
-0.030769 0.048732 0.267115
-0.029655 0.049005 0.268532
-0.028328 0.048934 0.268067
-0.026902 0.048678 0.266589
-0.025634 0.048696 0.266620
-0.024333 0.048651 0.266305
-0.023047 0.048634 0.266143
-0.022287 0.049789 0.272401
-0.020993 0.049818 0.272498
-0.019571 0.049530 0.270865
-0.018252 0.049482 0.270543
-0.016861 0.049212 0.269016
-0.015579 0.049246 0.269148
-0.014351 0.049470 0.270326
-0.013057 0.049490 0.270388
-0.011003 0.046317 0.253017
-0.009806 0.046406 0.253465
-0.008595 0.046451 0.253676
-0.007380 0.046479 0.253798
-0.006171 0.046574 0.254289
-0.004951 0.046602 0.254417
-0.003731 0.046655 0.254687
-0.002508 0.046710 0.254968
-0.001286 0.046881 0.255885
-0.000055 0.047424 0.258836
0.001203 0.047877 0.261301
0.002445 0.047576 0.259651
0.003858 0.049673 0.271090
0.005163 0.049669 0.271069
0.006310 0.048458 0.264460
0.007640 0.048818 0.266434
0.008841 0.048370 0.263998
0.010053 0.048086 0.262457
0.011197 0.047575 0.259682
0.012471 0.047665 0.260190
0.013713 0.047630 0.260021
0.015020 0.047805 0.261000
0.016314 0.047914 0.261623
0.017545 0.047835 0.261222
0.019045 0.048452 0.264623
0.020350 0.048525 0.265057
0.021664 0.048613 0.265573
0.023146 0.049043 0.267963
0.024390 0.048952 0.267509
0.025079 0.047812 0.261328
0.025714 0.046681 0.255192
0.026983 0.046754 0.255636
0.028318 0.046928 0.256640
0.029377 0.046649 0.255169
0.030590 0.046628 0.255105
0.031864 0.046697 0.255543
0.033144 0.046771 0.256005
0.034311 0.046684 0.255592
0.035570 0.046725 0.255879
0.036876 0.046823 0.256476
0.038841 0.047723 0.261474
0.041725 0.049661 0.272168
0.042991 0.049614 0.271980
0.043837 0.049099 0.269231
0.045091 0.049057 0.269078
0.046546 0.049231 0.270106
0.047693 0.049078 0.269345
0.048855 0.048948 0.268707
0.050045 0.048853 0.268262
0.051140 0.048670 0.267340
0.052503 0.048747 0.267837
0.053567 0.048548 0.266824
0.054960 0.048650 0.267465
0.056156 0.048576 0.267141
0.057133 0.048320 0.265814
0.058479 0.048382 0.266231
0.060229 0.048767 0.268429
0.061527 0.048778 0.268571
0.062849 0.048807 0.268811
0.064312 0.048942 0.269635
0.065586 0.048931 0.269653
0.066953 0.048988 0.270046
0.068316 0.049040 0.270407
0.069630 0.049056 0.270570
0.070822 0.048986 0.270261
0.071447 0.048535 0.267842
0.072284 0.048240 0.266285
0.073191 0.048001 0.265034
0.074001 0.047708 0.263482
0.074647 0.047320 0.261405
0.075294 0.046946 0.259400
0.076123 0.046696 0.258079
0.077115 0.046552 0.257339
0.078110 0.046413 0.256628
0.079235 0.046356 0.256362
0.080320 0.046277 0.255976
0.081574 0.046297 0.256129
0.082859 0.046333 0.256372
0.083180 0.045836 0.253663
0.099519 0.052549 0.290926
0.100543 0.052361 0.289915
0.101803 0.052298 0.289595
0.103276 0.052346 0.289879
0.104458 0.052247 0.289344
0.105935 0.052295 0.289625
0.107278 0.052277 0.289530
0.108749 0.052321 0.289774
0.110037 0.052278 0.289526
0.111455 0.052296 0.289616
0.112809 0.052283 0.289531
0.113997 0.052196 0.289022
0.115469 0.052238 0.289229
0.116815 0.052224 0.289110
0.118642 0.052422 0.290163
0.120167 0.052483 0.290455
0.121436 0.052433 0.290119
0.122641 0.052356 0.289629
0.124343 0.052491 0.290303
0.126066 0.052632 0.290997
0.127427 0.052620 0.290843
0.128726 0.052583 0.290538
0.129872 0.052485 0.289889
0.131473 0.052570 0.290246
0.132651 0.052487 0.289660
0.133695 0.052352 0.288783
0.136014 0.052715 0.290638
0.137070 0.052586 0.289768
0.138718 0.052684 0.290139
0.140032 0.052654 0.289799
0.141642 0.052735 0.290054
0.143192 0.052793 0.290169
0.144565 0.052784 0.289906
0.146162 0.052857 0.290078
0.148171 0.053076 0.291036
0.149754 0.053139 0.291128
0.151271 0.053178 0.291072
0.152649 0.053168 0.290730
-0.043335 0.019039 0.103419
-0.042914 0.019068 0.103589
-0.042924 0.019292 0.104812
-0.042261 0.019214 0.104399
-0.041355 0.019023 0.103364
-0.041083 0.020591 0.111858
-0.040621 0.020623 0.112021
-0.040302 0.020730 0.112588
-0.039608 0.020644 0.112107
-0.039223 0.020719 0.112497
-0.041987 0.022483 0.122051
-0.041477 0.022518 0.122219
-0.041160 0.022660 0.122966
-0.040786 0.022774 0.123559
-0.040271 0.022812 0.123738
-0.040024 0.023005 0.124755
-0.039741 0.023183 0.125687
-0.040031 0.023705 0.128486
-0.041663 0.025051 0.135743
-0.041712 0.025472 0.137985
-0.041717 0.025878 0.140145
-0.041970 0.026454 0.143225
-0.041887 0.026834 0.145239
-0.041944 0.027318 0.147808
-0.042114 0.027893 0.150871
-0.041984 0.028285 0.152944
-0.041852 0.028690 0.155082
-0.041690 0.029088 0.157181
-0.041942 0.029795 0.160947
-0.042019 0.030402 0.164168
-0.042216 0.031120 0.167985
-0.042135 0.031657 0.170820
-0.042207 0.032331 0.174398
-0.042307 0.033055 0.178237
-0.042165 0.033615 0.181189
-0.042023 0.034199 0.184268
-0.041940 0.034856 0.187741
-0.042186 0.035821 0.192867
-0.042196 0.036625 0.197121
-0.041298 0.036659 0.197229
-0.041068 0.037301 0.200607
-0.040517 0.037675 0.202546
-0.045418 0.043261 0.232489
-0.045228 0.044155 0.237205
-0.043451 0.043506 0.233631
-0.042450 0.043621 0.234163
-0.042135 0.044464 0.238604
-0.041278 0.044768 0.240147
-0.040587 0.045274 0.242774
-0.039888 0.045800 0.245512
-0.039247 0.046427 0.248784
-0.038722 0.047235 0.253026
-0.038449 0.048412 0.259242
-0.039299 0.051128 0.273695
-0.038137 0.051325 0.274659
-0.036278 0.050562 0.270492
-0.035222 0.050905 0.272238
-0.033950 0.050949 0.272391
-0.032211 0.050270 0.268677
-0.030730 0.049951 0.266895
-0.029617 0.050230 0.268310
-0.028291 0.050157 0.267844
-0.026866 0.049894 0.266368
-0.025599 0.049913 0.266398
-0.024300 0.049867 0.266083
-0.023016 0.049848 0.265921
-0.021815 0.050018 0.266761
-0.020507 0.049950 0.266341
-0.019270 0.050055 0.266845
-0.018137 0.050467 0.268982
-0.016837 0.050442 0.268798
-0.015557 0.050476 0.268929
-0.014439 0.051090 0.272154
-0.013137 0.051110 0.272216
-0.011037 0.047688 0.253950
-0.009804 0.047625 0.253578
-0.008618 0.047806 0.254510
-0.007429 0.048030 0.255672
-0.006434 0.049851 0.265339
-0.005171 0.049974 0.265968
-0.003889 0.049936 0.265740
-0.002626 0.050226 0.267265
-0.001338 0.050143 0.266806
-0.000055 0.050686 0.269684
0.001243 0.050687 0.269680
0.002471 0.049306 0.262325
0.003861 0.050985 0.271250
0.005166 0.050981 0.271229
0.006267 0.049372 0.262672
0.007571 0.049630 0.264051
0.008785 0.049315 0.262384
0.009971 0.048934 0.260369
0.011136 0.048549 0.258334
0.012410 0.048671 0.258999
0.013656 0.048670 0.259015
0.014940 0.048792 0.259687
0.016233 0.048923 0.260408
0.017503 0.048967 0.260674
0.018903 0.049349 0.262734
0.020279 0.049622 0.264224
0.021385 0.049242 0.262239
0.022910 0.049814 0.265323
0.024318 0.050085 0.266807
0.024865 0.048645 0.259184
0.025665 0.047814 0.254798
0.026879 0.047793 0.254733
0.028138 0.047851 0.255092
0.029416 0.047935 0.255593
0.030667 0.047971 0.255840
0.031923 0.048010 0.256104
0.033206 0.048086 0.256566
0.034400 0.048032 0.256341
0.035627 0.048026 0.256369
0.036921 0.048108 0.256868
0.038465 0.048500 0.259028
0.041018 0.050100 0.267640
0.042809 0.050700 0.270918
0.043908 0.050468 0.269753
0.044982 0.050223 0.268513
0.046510 0.050483 0.269980
0.047619 0.050287 0.269007
0.048875 0.050252 0.268896
0.049899 0.049988 0.267557
0.051123 0.049930 0.267326
0.052468 0.049992 0.267732
0.053295 0.049568 0.265543
0.054648 0.049642 0.266015
0.055814 0.049547 0.265583
0.056965 0.049442 0.265099
0.058289 0.049490 0.265433
0.060136 0.049969 0.268080
0.061676 0.050179 0.269286
0.062964 0.050179 0.269364
0.064302 0.050218 0.269652
0.065637 0.050254 0.269920
0.066922 0.050251 0.269977
0.068347 0.050350 0.270588
0.069597 0.050319 0.270494
0.070825 0.050274 0.270326
0.071608 0.049920 0.268491
0.072379 0.049571 0.266682
0.073524 0.049485 0.266285
0.074206 0.049095 0.264253
0.074419 0.048414 0.260647
0.075136 0.048077 0.258896
0.076154 0.047941 0.258219
0.076865 0.047619 0.256538
0.078055 0.047599 0.256481
0.079363 0.047650 0.256806
0.080732 0.047736 0.257316
0.082083 0.047808 0.257751
0.083053 0.047660 0.256995
0.084764 0.047935 0.258517
0.085868 0.047864 0.258166
0.099238 0.053776 0.290121
0.100389 0.053653 0.289483
0.101803 0.053671 0.289606
0.103421 0.053796 0.290293
0.104438 0.053608 0.289293
0.105900 0.053650 0.289531
0.107336 0.053679 0.289689
0.108453 0.053549 0.288984
0.110003 0.053633 0.289431
0.111416 0.053650 0.289507
0.112852 0.053677 0.289630
0.114056 0.053594 0.289158
0.115433 0.053593 0.289122
0.116934 0.053650 0.289387
0.118357 0.053669 0.289446
0.120121 0.053841 0.290320
0.121712 0.053932 0.290751
0.122474 0.053658 0.289204
0.124467 0.053924 0.290559
0.125901 0.053943 0.290580
0.127210 0.053910 0.290306
0.128731 0.053966 0.290506
0.130221 0.054008 0.290622
0.131607 0.054006 0.290493
0.133061 0.054032 0.290502
0.134608 0.054094 0.290698
0.136171 0.054162 0.290912
0.137389 0.054093 0.290379
0.138886 0.054133 0.290424
0.140593 0.054254 0.290889
0.141878 0.054211 0.290463
0.143201 0.054183 0.290107
0.144652 0.054203 0.289999
0.146406 0.054336 0.290475
0.148502 0.054592 0.291595
0.150031 0.054636 0.291572
0.151263 0.054572 0.290957
0.152741 0.054598 0.290802
-0.042969 0.019582 0.103716
-0.042687 0.019677 0.104230
-0.042150 0.019655 0.104121
-0.041725 0.019685 0.104286
-0.039641 0.018924 0.100259
-0.041655 0.021142 0.111996
-0.040577 0.020858 0.110485
-0.041351 0.021532 0.114042
-0.040922 0.021589 0.114328
-0.040748 0.021783 0.115342
-0.040309 0.021839 0.115623
-0.040466 0.022224 0.117642
-0.041034 0.022849 0.120927
-0.040928 0.023110 0.122287
-0.040561 0.023229 0.122892
-0.040359 0.023448 0.124024
-0.040068 0.023621 0.124909
-0.039633 0.023712 0.125363
-0.039727 0.024128 0.127531
-0.041860 0.025814 0.136408
-0.041280 0.025853 0.136577
-0.041842 0.026621 0.140592
-0.042244 0.027310 0.144189
-0.042066 0.027639 0.145886
-0.042099 0.028121 0.148385
-0.041986 0.028520 0.150443
-0.041640 0.028772 0.151723
-0.041696 0.029315 0.154538
-0.041843 0.029943 0.157795
-0.041922 0.030544 0.160909
-0.041882 0.031079 0.163671
-0.042175 0.031887 0.167866
-0.042100 0.032441 0.170725
-0.042285 0.033222 0.174770
-0.042237 0.033847 0.177993
-0.042107 0.034430 0.180995
-0.041928 0.034996 0.183907
-0.042027 0.035824 0.188190
-0.042350 0.036883 0.193680
-0.041979 0.037370 0.196169
-0.041824 0.038078 0.199809
-0.040603 0.037824 0.198406
-0.040470 0.038597 0.202382
-0.045365 0.044318 0.232300
-0.043488 0.043545 0.228161
-0.043204 0.044368 0.232392
-0.042712 0.045015 0.235696
-0.042179 0.045652 0.238947
-0.041243 0.045877 0.240039
-0.040464 0.046294 0.242135
-0.039806 0.046879 0.245109
-0.039207 0.047570 0.248636
-0.038648 0.048354 0.252651
-0.040310 0.052057 0.271906
-0.039050 0.052108 0.272080
-0.038040 0.052507 0.274078
-0.036327 0.051930 0.270979
-0.035196 0.052173 0.272165
-0.033283 0.051231 0.267167
-0.031789 0.050884 0.265278
-0.030215 0.050376 0.262554
-0.029279 0.050933 0.265380
-0.027874 0.050687 0.264029
-0.026387 0.050264 0.261752
-0.025135 0.050266 0.261695
-0.023926 0.050360 0.262122
-0.022714 0.050458 0.262570
-0.021511 0.050589 0.263190
-0.020220 0.050517 0.262757
-0.018973 0.050552 0.262879
-0.017784 0.050759 0.263903
-0.016594 0.050992 0.265066
-0.015420 0.051319 0.266715
-0.014196 0.051523 0.267731
-0.012919 0.051559 0.267874
-0.011656 0.051661 0.268363
-0.010370 0.051678 0.268413
-0.009121 0.051909 0.269580
-0.007828 0.051923 0.269619
-0.006533 0.051929 0.269624
-0.005244 0.051997 0.269952
-0.003940 0.051915 0.269500
-0.002641 0.051856 0.269174
-0.001346 0.051832 0.269032
-0.000053 0.051938 0.269569
0.001240 0.051780 0.268739
0.002533 0.051779 0.268729
0.003856 0.052199 0.270904
0.005153 0.052138 0.270587
0.006249 0.050477 0.261970
0.007528 0.050599 0.262609
0.008714 0.050155 0.260312
0.009931 0.049977 0.259397
0.011136 0.049786 0.258422
0.012375 0.049766 0.258332
0.013643 0.049858 0.258832
0.014930 0.049999 0.259585
0.016224 0.050139 0.260337
0.017546 0.050338 0.261398
0.018891 0.050573 0.262649
0.020233 0.050770 0.263708
0.021501 0.050770 0.263742
0.023150 0.051619 0.268192
0.024426 0.051591 0.268085
0.025700 0.051560 0.267972
0.025655 0.049014 0.254781
0.026936 0.049116 0.255361
0.028193 0.049169 0.255682
0.029303 0.048969 0.254696
0.030577 0.049051 0.255172
0.031776 0.049009 0.255008
0.032983 0.048982 0.254928
0.034277 0.049082 0.255506
0.035441 0.048996 0.255116
0.036620 0.048935 0.254860
0.038186 0.049379 0.257234
0.041263 0.051686 0.269325
0.042515 0.051638 0.269139
0.043814 0.051647 0.269258
0.044605 0.051074 0.266341
0.046148 0.051370 0.267958
0.047342 0.051272 0.267519
0.048260 0.050889 0.265594
0.049398 0.050749 0.264941
0.050690 0.050773 0.265138
0.051965 0.050778 0.265237
0.053217 0.050760 0.265223
0.054261 0.050550 0.264200
0.055484 0.050513 0.264081
0.056674 0.050447 0.263813
0.058110 0.050599 0.264680
0.060031 0.051157 0.267678
0.061676 0.051462 0.269350
0.062941 0.051443 0.269326
0.064245 0.051457 0.269474
0.065620 0.051526 0.269909
0.066880 0.051503 0.269862
0.068177 0.051509 0.269968
0.069483 0.051522 0.270106
0.070652 0.051434 0.269716
0.071562 0.051164 0.268368
0.072891 0.051198 0.268615
0.073849 0.050975 0.267508
0.074389 0.050475 0.264949
0.074024 0.049388 0.259305
0.074885 0.049142 0.258068
0.076098 0.049131 0.258063
0.076656 0.048703 0.255871
0.077784 0.048646 0.255620
0.079055 0.048679 0.255837
0.080147 0.048601 0.255477
0.081311 0.048570 0.255352
0.082778 0.048717 0.256164
0.083830 0.048620 0.255687
0.084980 0.048581 0.255516
0.097982 0.055223 0.290483
0.099218 0.055141 0.290079
0.100282 0.054967 0.289187
0.101769 0.055026 0.289520
0.103222 0.055066 0.289742
0.104367 0.054942 0.289101
0.105780 0.054960 0.289205
0.107235 0.055000 0.289414
0.108687 0.055038 0.289605
0.109863 0.054935 0.289056
0.111670 0.055148 0.290158
0.112921 0.055084 0.289797
0.114399 0.055130 0.290013
0.115730 0.055106 0.289848
0.116991 0.055049 0.289508
0.118570 0.055141 0.289944
0.121202 0.055716 0.292906
0.122127 0.055501 0.291711
0.123048 0.055289 0.290528
0.124538 0.055334 0.290687
0.125903 0.055324 0.290547
0.127800 0.055546 0.291612
0.129095 0.055503 0.291283
0.130397 0.055464 0.290964
0.131992 0.055550 0.291288
0.133146 0.055449 0.290630
0.134835 0.055572 0.291129
0.136172 0.055548 0.290850
0.137779 0.055634 0.291135
0.139299 0.055683 0.291217
0.140778 0.055715 0.291197
0.142107 0.055687 0.290853
0.143567 0.055711 0.290766
0.144928 0.055696 0.290464
0.147032 0.055965 0.291627
0.148523 0.055996 0.291541
0.149971 0.056012 0.291355
0.151263 0.055969 0.290853
0.152723 0.055988 0.290659
-0.042503 0.019854 0.102586
-0.042747 0.020197 0.104370
-0.042172 0.020156 0.104171
-0.040786 0.019723 0.101939
-0.040864 0.019996 0.103352
-0.039927 0.019772 0.102198
-0.040325 0.020212 0.104475
-0.039895 0.020243 0.104634
-0.039298 0.020189 0.104349
-0.040519 0.021079 0.108946
-0.040934 0.021568 0.111463
-0.040416 0.021571 0.111469
-0.040888 0.022110 0.114241
-0.041900 0.022958 0.118611
-0.041406 0.022994 0.118777
-0.040857 0.022999 0.118788
-0.040823 0.023299 0.120316
-0.040856 0.023645 0.122083
-0.040443 0.023741 0.122551
-0.040348 0.024028 0.124007
-0.039710 0.023995 0.123811
-0.039395 0.024159 0.124630
-0.039469 0.024571 0.126723
-0.041219 0.026054 0.134341
-0.041368 0.026556 0.136892
-0.041455 0.027034 0.139318
-0.042021 0.027844 0.143453
-0.041823 0.028166 0.145072
-0.041986 0.028747 0.148018
-0.042111 0.029321 0.150926
-0.041831 0.029627 0.152455
-0.041791 0.030117 0.154928
-0.041837 0.030688 0.157814
-0.041984 0.031354 0.161188
-0.042152 0.032062 0.164772
-0.042108 0.032631 0.167641
-0.042073 0.033231 0.170662
-0.041955 0.033786 0.173454
-0.042238 0.034693 0.178047
-0.042149 0.035326 0.181229
-0.042429 0.036300 0.186161
-0.042330 0.036984 0.189604
-0.042590 0.038019 0.194839
-0.041823 0.038163 0.195505
-0.040975 0.038237 0.195816
-0.040556 0.038725 0.198242
-0.045600 0.044576 0.228117
-0.044570 0.044630 0.228310
-0.043314 0.044455 0.227330
-0.043418 0.045703 0.233631
-0.042704 0.046131 0.235737
-0.042036 0.046635 0.238227
-0.041081 0.046839 0.239187
-0.040528 0.047528 0.242618
-0.039831 0.048081 0.245358
-0.039302 0.048877 0.249339
-0.038816 0.049779 0.253854
-0.039327 0.052059 0.265393
-0.038825 0.053103 0.270631
-0.037953 0.053697 0.273570
-0.036466 0.053432 0.272135
-0.034966 0.053129 0.270509
-0.033312 0.052558 0.267519
-0.031819 0.052208 0.265659
-0.030147 0.051520 0.262085
-0.028706 0.051186 0.260312
-0.027543 0.051340 0.261024
-0.026117 0.050994 0.259198
-0.024849 0.050939 0.258855
-0.023651 0.051028 0.259241
-0.022498 0.051231 0.260211
-0.021327 0.051413 0.261075
-0.020120 0.051527 0.261598
-0.019022 0.051954 0.263710
-0.017969 0.052571 0.266790
-0.016679 0.052540 0.266579
-0.015450 0.052711 0.267397
-0.014261 0.053060 0.269122
-0.012917 0.052844 0.267985
-0.011630 0.052842 0.267935
-0.010346 0.052857 0.267972
-0.009030 0.052686 0.267076
-0.007743 0.052656 0.266889
-0.006464 0.052679 0.266981
-0.005188 0.052750 0.267314
-0.003917 0.052935 0.268231
-0.002623 0.052820 0.267625
-0.001340 0.052981 0.268429
-0.000050 0.053201 0.269528
0.001247 0.053286 0.269946
0.002476 0.051842 0.262624
0.003853 0.053429 0.270664
0.005172 0.053612 0.271586
0.006272 0.051905 0.262940
0.007435 0.051211 0.259429
0.008649 0.051007 0.258406
0.009899 0.051045 0.258611
0.011078 0.050752 0.257136
0.012302 0.050698 0.256882
0.013539 0.050708 0.256948
0.014838 0.050924 0.258067
0.016043 0.050810 0.257512
0.017366 0.051061 0.258809
0.018734 0.051398 0.260549
0.020206 0.051964 0.263449
0.021290 0.051522 0.261244
0.023508 0.053720 0.272430
0.024803 0.053691 0.272321
0.024828 0.051051 0.258975
0.025483 0.049896 0.253157
0.026668 0.049837 0.252906
0.028071 0.050174 0.254663
0.029220 0.050046 0.254065
0.030485 0.050120 0.254492
0.031745 0.050181 0.254852
0.032971 0.050183 0.254919
0.034256 0.050273 0.255433
0.035436 0.050209 0.255167
0.036629 0.050165 0.255003
0.038002 0.050364 0.256076
0.041524 0.053309 0.271115
0.042784 0.053259 0.270928
0.043956 0.053105 0.270215
0.044893 0.052684 0.268144
0.046088 0.052581 0.267691
0.047251 0.052448 0.267086
0.048186 0.052076 0.265264
0.049182 0.051787 0.263861
0.050180 0.051515 0.262547
0.051510 0.051587 0.262990
0.052508 0.051333 0.261765
0.053668 0.051244 0.261384
0.054814 0.051146 0.260958
0.056018 0.051106 0.260824
0.057506 0.051320 0.261994
0.059727 0.052167 0.266389
0.061595 0.052675 0.269059
0.062919 0.052707 0.269296
0.064171 0.052678 0.269221
0.065461 0.052682 0.269311
0.066748 0.052682 0.269386
0.067959 0.052624 0.269158
0.069287 0.052657 0.269396
0.070638 0.052706 0.269713
0.071601 0.052468 0.268565
0.073082 0.052612 0.269363
0.074487 0.052697 0.269864
0.074811 0.052027 0.266492
0.074459 0.050917 0.260868
0.074203 0.049909 0.255753
0.075651 0.050060 0.256580
0.076961 0.050116 0.256921
0.077680 0.049792 0.255307
0.078874 0.049778 0.255280
0.080089 0.049777 0.255318
0.081330 0.049792 0.255434
0.082639 0.049848 0.255756
0.083665 0.049734 0.255204
0.084531 0.049529 0.254182
0.094520 0.054600 0.280235
0.098217 0.055946 0.287166
0.099847 0.056093 0.287943
0.101450 0.056222 0.288620
0.103570 0.056629 0.290724
0.104611 0.056444 0.289780
0.105968 0.056431 0.289719
0.107456 0.056488 0.290007
0.108755 0.056445 0.289780
0.110104 0.056429 0.289684
0.111552 0.056463 0.289839
0.112873 0.056434 0.289659
0.114102 0.056359 0.289244
0.115463 0.056350 0.289161
0.118009 0.056913 0.292003
0.119179 0.056807 0.291406
0.120542 0.056794 0.291281
0.122012 0.056831 0.291404
0.123150 0.056715 0.290732
0.124495 0.056695 0.290548
0.126121 0.056803 0.291009
0.127435 0.056769 0.290733
0.129021 0.056855 0.291066
0.130616 0.056943 0.291401
0.131903 0.056897 0.291037
0.133229 0.056869 0.290754
0.134981 0.057020 0.291381
0.136703 0.057156 0.291919
0.137874 0.057061 0.291266
0.139450 0.057134 0.291458
0.141006 0.057198 0.291590
0.142530 0.057247 0.291636
0.144065 0.057299 0.291688
0.145425 0.057282 0.291371
0.147083 0.057381 0.291632
0.148527 0.057395 0.291450
