ply
format ascii 1.0
element vertex 1680
property float x
property float y
property float z
end_header
-0.091900 -0.055960 0.303922
-0.090394 -0.055915 0.303590
-0.089115 -0.056011 0.304026
-0.087640 -0.055984 0.303792
-0.086230 -0.056000 0.303783
-0.084864 -0.056045 0.303934
-0.083491 -0.056087 0.304063
-0.082073 -0.056099 0.304033
-0.080883 -0.056271 0.304864
-0.079784 -0.056514 0.306075
-0.078404 -0.056562 0.306234
-0.076910 -0.056529 0.305946
-0.075987 -0.056922 0.307969
-0.071750 -0.055893 0.302188
-0.067658 -0.053779 0.290652
-0.066306 -0.053800 0.290662
-0.064983 -0.053846 0.290804
-0.063688 -0.053918 0.291085
-0.062330 -0.053939 0.291092
-0.060989 -0.053975 0.291179
-0.059661 -0.054025 0.291342
-0.058182 -0.053938 0.290768
-0.056888 -0.054022 0.291112
-0.055594 -0.054110 0.291482
-0.054143 -0.054046 0.291033
-0.052734 -0.054022 0.290799
-0.051385 -0.054060 0.290899
-0.050050 -0.054115 0.291091
-0.048709 -0.054167 0.291269
-0.047332 -0.054181 0.291240
-0.045898 -0.054127 0.290852
-0.044608 -0.054247 0.291395
-0.043192 -0.054215 0.291129
-0.041743 -0.054140 0.290629
-0.040393 -0.054191 0.290810
-0.037455 -0.053963 0.289404
-0.035975 -0.053820 0.288548
-0.034877 -0.054260 0.290820
-0.030885 -0.050047 0.268159
-0.028914 -0.048885 0.261857
-0.027487 -0.048579 0.260148
-0.026369 -0.048817 0.261352
-0.025082 -0.048751 0.260931
-0.023801 -0.048689 0.260536
-0.022551 -0.048687 0.260461
-0.021354 -0.048807 0.261040
-0.020169 -0.048971 0.261859
-0.019058 -0.049348 0.263822
-0.017992 -0.049906 0.266750
-0.016811 -0.050203 0.268283
-0.015483 -0.050074 0.267548
-0.014296 -0.050421 0.269356
-0.013011 -0.050458 0.269507
-0.011611 -0.050010 0.267073
-0.010290 -0.049829 0.266070
-0.008992 -0.049724 0.265475
-0.007693 -0.049578 0.264663
-0.006394 -0.049380 0.263582
-0.005126 -0.049377 0.263536
-0.003858 -0.049379 0.263526
-0.002596 -0.049487 0.264083
-0.001326 -0.049537 0.264335
-0.000054 -0.049651 0.264931
0.001225 -0.049819 0.265816
0.002532 -0.050368 0.268740
0.003811 -0.050170 0.267677
0.005123 -0.050406 0.268935
0.006472 -0.050825 0.271172
0.007339 -0.047958 0.255884
0.008593 -0.048084 0.256563
0.009829 -0.048088 0.256597
0.011073 -0.048126 0.256810
0.012303 -0.048099 0.256684
0.013542 -0.048109 0.256758
0.014797 -0.048171 0.257109
0.016052 -0.048223 0.257412
0.017297 -0.048240 0.257528
0.018564 -0.048312 0.257943
0.019848 -0.048416 0.258534
0.021578 -0.049530 0.264519
0.022842 -0.049511 0.264455
0.024031 -0.049339 0.263579
0.025125 -0.049000 0.261811
0.026070 -0.048417 0.258738
0.027268 -0.048333 0.258339
0.028571 -0.048437 0.258944
0.029795 -0.048402 0.258809
0.031036 -0.048397 0.258839
0.032355 -0.048509 0.259493
0.033643 -0.048569 0.259867
0.034690 -0.048287 0.258423
0.035882 -0.048221 0.258128
0.037341 -0.048506 0.259717
0.039458 -0.049599 0.265633
0.040879 -0.049777 0.266654
0.042305 -0.049949 0.267644
0.043729 -0.050109 0.268571
0.045005 -0.050094 0.268566
0.046196 -0.049989 0.268073
0.047746 -0.050268 0.269643
0.049037 -0.050266 0.269708
0.050003 -0.049939 0.268028
0.051329 -0.049980 0.268326
0.052679 -0.050041 0.268729
0.054004 -0.050076 0.268993
0.055216 -0.050007 0.268698
0.056206 -0.049745 0.267368
0.057454 -0.049718 0.267298
0.059035 -0.049974 0.268750
0.060313 -0.049967 0.268792
0.062085 -0.050362 0.270993
0.063455 -0.050421 0.271384
0.064730 -0.050403 0.271366
0.066162 -0.050507 0.272000
0.067456 -0.050503 0.272053
0.068583 -0.050376 0.271440
0.069661 -0.050219 0.270666
0.070801 -0.050111 0.270156
0.071805 -0.049913 0.269153
0.072785 -0.049705 0.268099
0.073855 -0.049565 0.267409
0.075078 -0.049530 0.267284
0.076138 -0.049391 0.266593
0.077125 -0.049210 0.265675
0.078261 -0.049128 0.265288
0.079638 -0.049197 0.265717
0.080543 -0.048978 0.264583
0.081993 -0.049091 0.265242
0.083407 -0.049180 0.265768
0.084402 -0.049022 0.264961
0.086196 -0.049327 0.266646
0.087836 -0.049536 0.267812
0.098168 -0.054570 0.295067
0.099425 -0.054489 0.294661
0.099546 -0.053797 0.290945
0.101152 -0.053915 0.291605
0.102670 -0.053983 0.291992
0.104291 -0.054103 0.292656
0.105451 -0.053983 0.292019
0.106678 -0.053901 0.291580
0.108137 -0.053937 0.291770
0.109777 -0.054061 0.292435
0.111004 -0.053981 0.291988
0.112083 -0.053831 0.291160
0.113663 -0.053923 0.291635
0.115088 -0.053940 0.291697
0.116538 -0.053968 0.291813
0.118145 -0.054068 0.292306
0.119437 -0.054022 0.292008
0.120675 -0.053954 0.291580
0.122181 -0.054005 0.291794
0.123555 -0.053998 0.291680
0.125284 -0.054144 0.292387
0.126314 -0.053988 0.291455
0.127851 -0.054050 0.291691
0.129321 -0.054083 0.291761
0.131266 -0.054311 0.292876
0.132625 -0.054295 0.292661
0.134199 -0.054366 0.292908
0.135714 -0.054412 0.293009
0.137064 -0.054391 0.292741
0.138573 -0.054433 0.292800
0.140105 -0.054483 0.292893
0.141669 -0.054545 0.293034
0.143304 -0.054633 0.293301
0.144738 -0.054643 0.293141
0.146142 -0.054641 0.292906
0.147841 -0.054749 0.293242
0.149353 -0.054786 0.293186
0.150671 -0.054752 0.292733
0.152187 -0.054789 0.292651
0.153595 -0.054788 0.292346
-0.143181 -0.048626 0.268606
-0.143265 -0.049090 0.271427
-0.142815 -0.049379 0.273266
-0.141479 -0.049364 0.273412
-0.150607 -0.053033 0.293970
-0.149272 -0.053052 0.294296
-0.145429 -0.052172 0.289618
-0.143997 -0.052148 0.289680
-0.142712 -0.052178 0.290025
-0.141673 -0.052299 0.290868
-0.140127 -0.052233 0.290664
-0.138927 -0.052297 0.291166
-0.137567 -0.052301 0.291326
-0.136251 -0.052322 0.291572
-0.134257 -0.052080 0.290344
-0.132437 -0.051902 0.289458
-0.129104 -0.051121 0.285202
-0.142741 -0.057113 0.318733
-0.141451 -0.057197 0.319293
-0.140584 -0.057456 0.320817
-0.139284 -0.057541 0.321368
-0.123557 -0.051603 0.288261
-0.123478 -0.052141 0.291318
-0.122168 -0.052166 0.291498
-0.120481 -0.052028 0.290765
-0.119303 -0.052110 0.291248
-0.118291 -0.052267 0.292149
-0.116557 -0.052105 0.291259
-0.115117 -0.052072 0.291083
-0.114006 -0.052189 0.291741
-0.112612 -0.052177 0.291673
-0.111162 -0.052140 0.291453
-0.109750 -0.052119 0.291323
-0.108554 -0.052202 0.291766
-0.107332 -0.052274 0.292147
-0.105952 -0.052270 0.292095
-0.104562 -0.052261 0.292010
-0.103050 -0.052190 0.291574
-0.101845 -0.052276 0.292006
-0.100476 -0.052277 0.291966
-0.099044 -0.052246 0.291740
-0.097956 -0.052398 0.292534
-0.096483 -0.052346 0.292178
-0.095329 -0.052468 0.292794
-0.097488 -0.054443 0.303745
-0.096205 -0.054526 0.304139
-0.094653 -0.054458 0.303678
-0.093202 -0.054446 0.303530
-0.092105 -0.054643 0.304548
-0.090617 -0.054612 0.304288
-0.089006 -0.054504 0.303596
-0.087638 -0.054544 0.303727
-0.086234 -0.054563 0.303737
-0.084661 -0.054474 0.303144
-0.083218 -0.054466 0.303003
-0.081857 -0.054513 0.303164
-0.080545 -0.054595 0.303520
-0.079176 -0.054640 0.303667
-0.078261 -0.055007 0.305599
-0.076645 -0.054886 0.304817
-0.075621 -0.055191 0.306405
-0.074273 -0.055268 0.306720
-0.071704 -0.054422 0.301913
-0.067750 -0.052468 0.290966
-0.066501 -0.052571 0.291429
-0.065144 -0.052592 0.291440
-0.063783 -0.052610 0.291432
-0.062525 -0.052716 0.291909
-0.061158 -0.052733 0.291894
-0.059706 -0.052675 0.291466
-0.058360 -0.052712 0.291559
-0.056965 -0.052703 0.291406
-0.055516 -0.052644 0.290970
-0.054041 -0.052557 0.290380
-0.052655 -0.052554 0.290257
-0.051382 -0.052667 0.290776
-0.050011 -0.052682 0.290754
-0.048686 -0.052748 0.291017
-0.047327 -0.052781 0.291093
-0.045892 -0.052728 0.290700
-0.044588 -0.052827 0.291147
-0.043233 -0.052871 0.291289
-0.041745 -0.052749 0.290517
-0.039697 -0.051887 0.285680
-0.038771 -0.052482 0.288863
-0.037423 -0.052530 0.289032
-0.035959 -0.052412 0.288294
-0.034857 -0.052832 0.290515
-0.033493 -0.052875 0.290668
-0.028973 -0.047723 0.262269
-0.027486 -0.047327 0.260021
-0.026349 -0.047524 0.261029
-0.025104 -0.047536 0.261030
-0.023787 -0.047406 0.260247
-0.022539 -0.047407 0.260192
-0.021319 -0.047470 0.260475
-0.020167 -0.047703 0.261692
-0.019003 -0.047936 0.262916
-0.017889 -0.048338 0.265064
-0.016998 -0.049450 0.271112
-0.015447 -0.048670 0.266783
-0.014334 -0.049249 0.269913
-0.013111 -0.049532 0.271418
-0.011662 -0.048929 0.268070
-0.010352 -0.048832 0.267504
-0.009038 -0.048684 0.266657
-0.007749 -0.048644 0.266408
-0.006430 -0.048363 0.264839
-0.005155 -0.048362 0.264805
-0.003880 -0.048363 0.264791
-0.002610 -0.048433 0.265155
-0.001338 -0.048603 0.266069
-0.000057 -0.048639 0.266252
0.001231 -0.048848 0.267386
0.002523 -0.048930 0.267826
0.003819 -0.049020 0.268315
0.005126 -0.049158 0.269072
0.006375 -0.048796 0.267093
0.007431 -0.047327 0.259057
0.008662 -0.047234 0.258555
0.009888 -0.047143 0.258071
0.011147 -0.047209 0.258444
0.012377 -0.047154 0.258160
0.013611 -0.047122 0.258006
0.014855 -0.047126 0.258052
0.016115 -0.047176 0.258349
0.017361 -0.047182 0.258410
0.018639 -0.047267 0.258908
0.019929 -0.047369 0.259500
0.021605 -0.048323 0.264763
0.022811 -0.048178 0.264007
0.023927 -0.047868 0.262351
0.025161 -0.047813 0.262095
0.026183 -0.047381 0.259771
0.027449 -0.047407 0.259965
0.028618 -0.047273 0.259281
0.029810 -0.047185 0.258851
0.031111 -0.047270 0.259373
0.032345 -0.047252 0.259330
0.033740 -0.047459 0.260527
0.034948 -0.047399 0.260258
0.036279 -0.047505 0.260899
0.037835 -0.047887 0.263065
0.039341 -0.048185 0.264766
0.040944 -0.048578 0.266993
0.042250 -0.048605 0.267213
0.043596 -0.048676 0.267674
0.045135 -0.048951 0.269260
0.046454 -0.048979 0.269492
0.047800 -0.049034 0.269870
0.049091 -0.049031 0.269925
0.050145 -0.048797 0.268719
0.051376 -0.048743 0.268496
0.052683 -0.048762 0.268678
0.054061 -0.048844 0.269208
0.055069 -0.048595 0.267915
0.056104 -0.048382 0.266817
0.057404 -0.048400 0.266997
0.059136 -0.048775 0.269142
0.060567 -0.048891 0.269860
0.062145 -0.049118 0.271193
0.063547 -0.049199 0.271718
0.064913 -0.049249 0.272076
0.066307 -0.049320 0.272540
0.067524 -0.049257 0.272271
0.068836 -0.049265 0.272389
0.070017 -0.049181 0.271997
0.071025 -0.048980 0.270959
0.072028 -0.048783 0.269944
0.072910 -0.048513 0.268515
0.073859 -0.048296 0.267379
0.074919 -0.048157 0.266677
0.075881 -0.047961 0.265657
0.077097 -0.047930 0.265541
0.078009 -0.047713 0.264399
0.079084 -0.047601 0.263835
0.080868 -0.047914 0.265619
0.082064 -0.047873 0.265443
0.083421 -0.047926 0.265785
0.084596 -0.047874 0.265544
0.086063 -0.047987 0.266213
0.087889 -0.048294 0.267953
0.097686 -0.052909 0.293599
0.098936 -0.052830 0.293195
0.099506 -0.052395 0.290811
0.101304 -0.052610 0.292030
0.102926 -0.052729 0.292712
0.104059 -0.052598 0.291999
0.105198 -0.052472 0.291316
0.106762 -0.052560 0.291807
0.108339 -0.052651 0.292316
0.109835 -0.052701 0.292591
0.111006 -0.052596 0.291999
0.112443 -0.052618 0.292105
0.113773 -0.052590 0.291928
0.115173 -0.052595 0.291927
0.116457 -0.052547 0.291626
0.118094 -0.052658 0.292201
0.119322 -0.052585 0.291751
0.120689 -0.052576 0.291641
0.122086 -0.052579 0.291597
0.123526 -0.052600 0.291643
0.124849 -0.052571 0.291407
0.126388 -0.052634 0.291666
0.127737 -0.052617 0.291475
0.129891 -0.052927 0.293092
0.130708 -0.052693 0.291679
0.132201 -0.052732 0.291778
0.134100 -0.052932 0.292747
0.135447 -0.052911 0.292490
0.137119 -0.053017 0.292921
0.138626 -0.053057 0.292980
0.140216 -0.053128 0.293195
0.141521 -0.053090 0.292802
0.142823 -0.053053 0.292396
0.144434 -0.053129 0.292606
0.146035 -0.053200 0.292776
0.147996 -0.053400 0.293639
0.149381 -0.053390 0.293334
0.150567 -0.053310 0.292629
0.152271 -0.053413 0.292916
0.154026 -0.053532 0.293273
-0.142217 -0.047025 0.266881
-0.142381 -0.047501 0.269835
-0.142427 -0.047946 0.272604
-0.140771 -0.047822 0.272121
-0.139909 -0.047967 0.273161
-0.146629 -0.050739 0.289159
-0.145497 -0.050820 0.289824
-0.144918 -0.052086 0.297592
-0.143714 -0.052158 0.298162
-0.140162 -0.051370 0.293807
-0.138508 -0.051270 0.293370
-0.137212 -0.051301 0.293674
-0.132880 -0.050187 0.287409
-0.131425 -0.050147 0.287286
-0.127559 -0.049177 0.281824
-0.143127 -0.055758 0.319633
-0.141835 -0.055840 0.320194
-0.141024 -0.056116 0.321852
-0.139722 -0.056200 0.322405
-0.124815 -0.050754 0.291218
-0.122857 -0.050511 0.289871
-0.121794 -0.050635 0.290621
-0.120568 -0.050693 0.290988
-0.119237 -0.050708 0.291099
-0.117940 -0.050738 0.291290
-0.116531 -0.050720 0.291199
-0.115166 -0.050720 0.291210
-0.113820 -0.050729 0.291263
-0.112415 -0.050712 0.291159
-0.110890 -0.050640 0.290735
-0.109668 -0.050707 0.291098
-0.108361 -0.050734 0.291236
-0.107074 -0.050773 0.291428
-0.105883 -0.050859 0.291889
-0.104630 -0.050916 0.292182
-0.103277 -0.050926 0.292195
-0.101848 -0.050898 0.291989
-0.100569 -0.050946 0.292213
-0.099150 -0.050923 0.292025
-0.097877 -0.050975 0.292264
-0.096357 -0.050898 0.291762
-0.096442 -0.051680 0.296175
-0.097095 -0.052793 0.302482
-0.095819 -0.052875 0.302874
-0.094315 -0.052831 0.302546
-0.093354 -0.053096 0.303976
-0.091879 -0.053071 0.303750
-0.090433 -0.053063 0.303615
-0.089163 -0.053160 0.304077
-0.087699 -0.053142 0.303883
-0.086230 -0.053121 0.303664
-0.084883 -0.053175 0.303876
-0.083518 -0.053220 0.304031
-0.081960 -0.053142 0.303479
-0.080588 -0.053183 0.303611
-0.079104 -0.053151 0.303322
-0.077672 -0.053153 0.303224
-0.076277 -0.053181 0.303275
-0.075121 -0.053380 0.304298
-0.073782 -0.053454 0.304612
-0.071811 -0.053064 0.302277
-0.067550 -0.050932 0.290022
-0.066295 -0.051025 0.290444
-0.064975 -0.051071 0.290594
-0.063601 -0.051076 0.290512
-0.062359 -0.051188 0.291044
-0.061040 -0.051242 0.291239
-0.059649 -0.051236 0.291094
-0.058232 -0.051207 0.290820
-0.056813 -0.051176 0.290531
-0.055327 -0.051080 0.289881
-0.054042 -0.051170 0.290281
-0.052696 -0.051206 0.290380
-0.051312 -0.051206 0.290271
-0.049979 -0.051258 0.290459
-0.048665 -0.051333 0.290780
-0.047287 -0.051343 0.290731
-0.045913 -0.051359 0.290715
-0.044610 -0.051458 0.291173
-0.043202 -0.051438 0.290959
-0.041804 -0.051428 0.290808
-0.040452 -0.051478 0.290990
-0.037279 -0.050946 0.287795
-0.035882 -0.050917 0.287545
-0.034810 -0.051368 0.289999
-0.033449 -0.051410 0.290152
-0.028927 -0.046389 0.261736
-0.027493 -0.046087 0.259958
-0.026298 -0.046178 0.260398
-0.025091 -0.046255 0.260764
-0.023800 -0.046178 0.260264
-0.022558 -0.046191 0.260274
-0.021358 -0.046299 0.260820
-0.020187 -0.046488 0.261824
-0.019103 -0.046913 0.264161
-0.018066 -0.047525 0.267551
-0.017004 -0.048158 0.271061
-0.015604 -0.047862 0.269342
-0.014401 -0.048171 0.271032
-0.013122 -0.048260 0.271489
-0.011762 -0.048039 0.270207
-0.010479 -0.048117 0.270603
-0.009143 -0.047940 0.269573
-0.007826 -0.047818 0.268853
-0.006508 -0.047643 0.267842
-0.005205 -0.047526 0.267155
-0.003919 -0.047533 0.267176
-0.002640 -0.047660 0.267871
-0.001350 -0.047669 0.267903
-0.000059 -0.047714 0.268140
0.001238 -0.047930 0.269344
0.002530 -0.047820 0.268721
0.003840 -0.048006 0.269761
0.005168 -0.048273 0.271264
0.006394 -0.047665 0.267847
0.007420 -0.046026 0.258642
0.008643 -0.045902 0.257954
0.009893 -0.045934 0.258147
0.011150 -0.045985 0.258448
0.012375 -0.045912 0.258055
0.013641 -0.045986 0.258489
0.014903 -0.046039 0.258809
0.016165 -0.046081 0.259073
0.017427 -0.046117 0.259307
0.018693 -0.046157 0.259563
0.020022 -0.046340 0.260628
0.021644 -0.047138 0.265154
0.022855 -0.047002 0.264429
0.023977 -0.046707 0.262809
0.025208 -0.046645 0.262506
0.026369 -0.046462 0.261525
0.027592 -0.046403 0.261243
0.028792 -0.046310 0.260774
0.029978 -0.046203 0.260224
0.031292 -0.046296 0.260802
0.032470 -0.046186 0.260243
0.033752 -0.046227 0.260534
0.035068 -0.046311 0.261067
0.036463 -0.046490 0.262139
0.037826 -0.046616 0.262918
0.039204 -0.046753 0.263760
0.040708 -0.047026 0.265369
0.042028 -0.047077 0.265728
0.043463 -0.047250 0.266777
0.044757 -0.047264 0.266927
0.045587 -0.046800 0.264385
0.045580 -0.045527 0.257264
0.046850 -0.045561 0.257533
0.048093 -0.045569 0.257649
0.049115 -0.045372 0.256611
0.050357 -0.045382 0.256745
0.051611 -0.045403 0.256940
0.052919 -0.045469 0.257391
0.054263 -0.045562 0.257997
0.055693 -0.045721 0.258975
0.057506 -0.046182 0.261662
0.059364 -0.046658 0.264438
0.062294 -0.047939 0.271779
0.063736 -0.048046 0.272465
0.064853 -0.047909 0.271768
0.066375 -0.048070 0.272762
0.067668 -0.048063 0.272797
0.068823 -0.047959 0.272286
0.069996 -0.047872 0.271866
0.071032 -0.047695 0.270939
0.072009 -0.047486 0.269824
0.072925 -0.047245 0.268525
0.073816 -0.046996 0.267180
0.074985 -0.046930 0.266871
0.075712 -0.046594 0.265023
0.076061 -0.046040 0.261934
0.077042 -0.045881 0.261088
0.078054 -0.045744 0.260366
0.079135 -0.045652 0.259897
0.080353 -0.045641 0.259883
0.081854 -0.045788 0.260768
0.083662 -0.046099 0.262588
0.084563 -0.045909 0.261550
0.087124 -0.046613 0.265601
0.099689 -0.052572 0.299597
0.100963 -0.052493 0.299184
0.101470 -0.052023 0.296537
0.101406 -0.051276 0.292313
0.102946 -0.051350 0.292758
0.104349 -0.051355 0.292805
0.105450 -0.051213 0.292008
0.106943 -0.051262 0.292300
0.108447 -0.051316 0.292608
0.109802 -0.051298 0.292506
0.111140 -0.051273 0.292358
0.112500 -0.051259 0.292262
0.113899 -0.051262 0.292261
0.115564 -0.051384 0.292932
0.116834 -0.051329 0.292587
0.118180 -0.051308 0.292432
0.119496 -0.051275 0.292199
0.120795 -0.051236 0.291922
0.122118 -0.051208 0.291700
0.123493 -0.051201 0.291596
0.124876 -0.051198 0.291505
0.126158 -0.051155 0.291173
0.127674 -0.051205 0.291370
0.128879 -0.051132 0.290851
0.130731 -0.051314 0.291776
0.132374 -0.051411 0.292209
0.134340 -0.051630 0.293324
0.135698 -0.051613 0.293089
0.137144 -0.051630 0.293035
0.138667 -0.051675 0.293129
0.140243 -0.051739 0.293320
0.141530 -0.051696 0.292892
0.142859 -0.051669 0.292544
0.144373 -0.051708 0.292561
0.145736 -0.051693 0.292259
0.147389 -0.051781 0.292521
0.149195 -0.051920 0.293059
0.150510 -0.051887 0.292612
0.151970 -0.051904 0.292436
0.153460 -0.051931 0.292298
-0.141535 -0.045532 0.265684
-0.141711 -0.045997 0.268644
-0.142125 -0.046549 0.272102
-0.140547 -0.046453 0.271760
-0.139687 -0.046594 0.272797
-0.139765 -0.047054 0.275689
-0.138647 -0.047116 0.276243
-0.141888 -0.049616 0.291426
-0.140711 -0.049685 0.291985
-0.140775 -0.050198 0.295142
-0.140315 -0.050532 0.297244
-0.140199 -0.050999 0.300113
-0.139340 -0.051201 0.301423
-0.138124 -0.051276 0.301970
-0.127788 -0.047931 0.282363
-0.126649 -0.048002 0.282863
-0.141918 -0.054360 0.320412
-0.141107 -0.054628 0.322071
-0.123734 -0.048952 0.288714
-0.123124 -0.049250 0.290519
-0.121897 -0.049305 0.290881
-0.120302 -0.049211 0.290357
-0.119014 -0.049242 0.290563
-0.117654 -0.049244 0.290590
-0.116483 -0.049326 0.291083
-0.115037 -0.049291 0.290883
-0.113701 -0.049304 0.290957
-0.112560 -0.049403 0.291531
-0.111247 -0.049427 0.291664
-0.109885 -0.049431 0.291664
-0.108648 -0.049491 0.291995
-0.107344 -0.049522 0.292150
-0.106004 -0.049537 0.292204
-0.104516 -0.049483 0.291843
-0.103053 -0.049439 0.291539
-0.101670 -0.049433 0.291454
-0.100307 -0.049437 0.291424
-0.099109 -0.049522 0.291872
-0.097587 -0.049447 0.291368
-0.096248 -0.049464 0.291400
-0.094516 -0.049276 0.290223
-0.097112 -0.051372 0.302495
-0.095837 -0.051452 0.302888
-0.094353 -0.051421 0.302623
-0.093194 -0.051569 0.303409
-0.091796 -0.051587 0.303427
-0.090269 -0.051532 0.303011
-0.088862 -0.051545 0.302994
-0.087454 -0.051558 0.302976
-0.085988 -0.051536 0.302751
-0.084455 -0.051473 0.302280
-0.083165 -0.051560 0.302683
-0.081794 -0.051597 0.302798
-0.080102 -0.051430 0.301711
-0.079155 -0.051744 0.303445
-0.077817 -0.051809 0.303717
-0.076093 -0.051615 0.302468
-0.075021 -0.051864 0.303815
-0.072246 -0.051939 0.304027
-0.066464 -0.048755 0.285280
-0.066345 -0.049679 0.290578
-0.065053 -0.049746 0.290856
-0.063665 -0.049741 0.290713
-0.062354 -0.049797 0.290928
-0.061072 -0.049879 0.291296
-0.059708 -0.049896 0.291287
-0.058365 -0.049933 0.291388
-0.056879 -0.049846 0.290770
-0.055521 -0.049870 0.290799
-0.054234 -0.049960 0.291212
-0.052838 -0.049952 0.291054
-0.051476 -0.049977 0.291093
-0.050116 -0.050005 0.291149
-0.048832 -0.050113 0.291666
-0.047455 -0.050128 0.291652
-0.045848 -0.049895 0.290190
-0.044460 -0.049894 0.290079
-0.043272 -0.050123 0.291311
-0.041774 -0.049997 0.290479
-0.040424 -0.050046 0.290662
-0.039436 -0.050562 0.293562
-0.037393 -0.049714 0.288548
-0.036022 -0.049728 0.288537
-0.034823 -0.049992 0.289978
-0.030505 -0.045612 0.264492
-0.028959 -0.045179 0.261899
-0.027540 -0.044912 0.260281
-0.026330 -0.044979 0.260593
-0.025082 -0.044983 0.260550
-0.023799 -0.044922 0.260123
-0.022541 -0.044905 0.259961
-0.021316 -0.044953 0.260175
-0.020167 -0.045180 0.261428
-0.019121 -0.045681 0.264273
-0.018007 -0.046081 0.266526
-0.016918 -0.046613 0.269550
-0.015628 -0.046631 0.269601
-0.014363 -0.046734 0.270151
-0.013131 -0.046976 0.271504
-0.011870 -0.047161 0.272529
-0.010521 -0.046994 0.271529
-0.009202 -0.046932 0.271129
-0.007878 -0.046821 0.270454
-0.006542 -0.046588 0.269081
-0.005270 -0.046796 0.270254
-0.003951 -0.046599 0.269093
-0.002663 -0.046750 0.269949
-0.001363 -0.046768 0.270032
-0.000061 -0.046582 0.268947
0.001235 -0.046572 0.268879
0.002514 -0.046275 0.267159
0.003834 -0.046663 0.269391
0.005159 -0.046903 0.270779
0.006332 -0.045944 0.265243
0.007479 -0.045146 0.260646
0.008697 -0.044949 0.259514
0.009970 -0.045048 0.260099
0.011219 -0.045028 0.259999
0.012453 -0.044956 0.259598
0.013712 -0.044982 0.259772
0.014989 -0.045056 0.260223
0.016248 -0.045067 0.260316
0.017527 -0.045131 0.260715
0.018828 -0.045238 0.261366
0.020276 -0.045662 0.263850
0.021718 -0.046024 0.265978
0.022817 -0.045658 0.263905
0.024043 -0.045572 0.263455
0.025205 -0.045379 0.262383
0.026447 -0.045341 0.262214
0.027694 -0.045315 0.262115
0.028835 -0.045126 0.261071
0.030053 -0.045068 0.260791
0.031331 -0.045100 0.261037
0.032484 -0.044958 0.260272
0.033744 -0.044968 0.260392
0.035089 -0.045087 0.261144
0.036492 -0.045270 0.262266
0.037837 -0.045370 0.262915
0.039125 -0.045398 0.263148
0.040696 -0.045742 0.265212
0.042011 -0.045787 0.265543
0.043299 -0.045800 0.265693
0.044696 -0.045924 0.266487
0.045928 -0.045876 0.266286
0.045456 -0.044175 0.256487
0.046991 -0.044463 0.258234
0.048181 -0.044418 0.258049
0.049182 -0.044205 0.256891
0.050475 -0.044259 0.257280
0.051666 -0.044222 0.257145
0.052852 -0.044183 0.256997
0.054097 -0.044195 0.257142
0.055439 -0.044282 0.257732
0.057057 -0.044582 0.259557
0.059874 -0.045786 0.266648
0.062165 -0.046546 0.271154
0.063571 -0.046626 0.271700
0.064719 -0.046517 0.271147
0.066167 -0.046624 0.271850
0.067469 -0.046625 0.271937
0.068764 -0.046622 0.272000
0.069774 -0.046429 0.270952
0.070453 -0.046027 0.268682
0.071103 -0.045621 0.266385
0.072330 -0.045592 0.266288
0.073502 -0.045531 0.266002
0.074266 -0.045223 0.264271
0.074804 -0.044790 0.261807
0.075191 -0.044283 0.258905
0.076383 -0.044258 0.258818
0.077470 -0.044174 0.258387
0.078500 -0.044061 0.257779
0.079747 -0.044071 0.257891
0.081214 -0.044201 0.258702
0.082829 -0.044406 0.259949
0.083679 -0.044200 0.258793
0.085307 -0.044406 0.260039
0.096684 -0.049608 0.290547
0.097919 -0.049533 0.290146
0.101899 -0.050829 0.297773
0.101375 -0.049874 0.292207
0.102715 -0.049849 0.292091
0.104424 -0.050002 0.293005
0.105677 -0.049935 0.292629
0.107106 -0.049952 0.292741
0.108373 -0.049894 0.292407
0.109810 -0.049914 0.292528
0.111167 -0.049898 0.292431
0.112477 -0.049862 0.292208
0.113875 -0.049865 0.292209
0.115185 -0.049830 0.291982
0.116733 -0.049897 0.292349
0.118180 -0.049920 0.292448
0.119559 -0.049915 0.292372
0.120921 -0.049902 0.292248
0.122249 -0.049876 0.292039
0.123699 -0.049899 0.292112
0.124920 -0.049831 0.291639
0.126581 -0.049938 0.292183
0.127958 -0.049931 0.292056
0.130019 -0.050189 0.293465
0.130991 -0.050025 0.292402
0.132259 -0.049977 0.292001
0.134546 -0.050310 0.293823
0.135679 -0.050210 0.293101
0.137336 -0.050304 0.293502
0.138669 -0.050278 0.293194
0.140332 -0.050371 0.293568
0.141417 -0.050257 0.292724
0.142800 -0.050250 0.292493
0.144443 -0.050334 0.292777
0.145785 -0.050312 0.292434
0.147213 -0.050320 0.292252
0.148782 -0.050376 0.292333
0.150218 -0.050386 0.292135
0.151667 -0.050400 0.291947
0.153218 -0.050447 0.291936
-0.140649 -0.043988 0.264099
-0.140389 -0.044300 0.266214
-0.141064 -0.044916 0.270143
-0.139570 -0.044846 0.269941
-0.138212 -0.044819 0.269983
-0.137433 -0.044981 0.271153
-0.136204 -0.044998 0.271435
-0.134999 -0.045023 0.271756
-0.133717 -0.045022 0.271914
-0.132747 -0.045128 0.272703
-0.131654 -0.045193 0.273240
-0.130572 -0.045264 0.273796
-0.129652 -0.045393 0.274698
-0.128784 -0.045542 0.275718
-0.128262 -0.045819 0.277496
-0.127212 -0.045911 0.278147
-0.126074 -0.045972 0.278607
-0.125175 -0.046123 0.279601
-0.123975 -0.046165 0.279927
-0.122753 -0.046200 0.280201
-0.121622 -0.046270 0.280683
-0.123810 -0.047618 0.288911
-0.122642 -0.047691 0.289396
-0.121550 -0.047796 0.290067
-0.120396 -0.047879 0.290595
-0.119052 -0.047887 0.290665
-0.117934 -0.047987 0.291286
-0.116803 -0.048084 0.291884
-0.113386 -0.047231 0.286709
-0.112083 -0.047249 0.286815
-0.111110 -0.047409 0.287771
-0.109651 -0.047362 0.287471
-0.108642 -0.047511 0.288355
-0.108014 -0.047833 0.290279
-0.106073 -0.047573 0.288675
-0.105582 -0.047966 0.291022
-0.104546 -0.048119 0.291906
-0.102880 -0.047982 0.291029
-0.101827 -0.048131 0.291879
-0.100472 -0.048139 0.291875
-0.099102 -0.048141 0.291824
-0.097837 -0.048194 0.292081
-0.095358 -0.047642 0.288670
-0.093131 -0.047202 0.285936
-0.096637 -0.049697 0.300973
-0.095368 -0.049775 0.301364
-0.094135 -0.049873 0.301877
-0.093070 -0.050066 0.302957
-0.091737 -0.050118 0.303180
-0.090291 -0.050109 0.303036
-0.088972 -0.050172 0.303316
-0.087442 -0.050115 0.302877
-0.085894 -0.050047 0.302363
-0.084345 -0.049975 0.301826
-0.082763 -0.049881 0.301155
-0.081354 -0.049890 0.301104
-0.080018 -0.049945 0.301327
-0.078641 -0.049976 0.301401
-0.077561 -0.050200 0.302645
-0.075865 -0.050027 0.301488
-0.075039 -0.050431 0.303809
-0.073703 -0.050503 0.304124
-0.072318 -0.050542 0.304245
-0.067635 -0.048232 0.290228
-0.066509 -0.048415 0.291214
-0.065179 -0.048454 0.291337
-0.063722 -0.048398 0.290887
-0.062513 -0.048533 0.291584
-0.061167 -0.048565 0.291660
-0.059734 -0.048528 0.291323
-0.058419 -0.048587 0.291565
-0.057015 -0.048573 0.291369
-0.055530 -0.048487 0.290742
-0.054205 -0.048542 0.290958
-0.052835 -0.048557 0.290937
-0.051452 -0.048562 0.290852
-0.050091 -0.048587 0.290896
-0.048738 -0.048623 0.290998
-0.047353 -0.048627 0.290920
-0.045940 -0.048602 0.290661
-0.044570 -0.048623 0.290680
-0.043216 -0.048663 0.290820
-0.041803 -0.048637 0.290562
-0.039688 -0.047765 0.285251
-0.039482 -0.049210 0.293785
-0.037452 -0.048404 0.288879
-0.036007 -0.048323 0.288299
-0.034811 -0.048581 0.289751
-0.030334 -0.044092 0.262892
-0.029018 -0.044008 0.262313
-0.027615 -0.043779 0.260874
-0.026389 -0.043821 0.261052
-0.025114 -0.043784 0.260759
-0.023832 -0.043729 0.260359
-0.022581 -0.043727 0.260286
-0.021339 -0.043746 0.260333
-0.020121 -0.043819 0.260703
-0.019161 -0.044499 0.264693
-0.018117 -0.045069 0.268025
-0.017158 -0.045953 0.273227
-0.015723 -0.045604 0.271099
-0.014609 -0.046207 0.274637
-0.013377 -0.046520 0.276449
-0.012014 -0.046394 0.275656
-0.010753 -0.046681 0.277320
-0.009366 -0.046429 0.275785
-0.007978 -0.046086 0.273716
-0.006658 -0.046078 0.273634
-0.005329 -0.045987 0.273066
-0.004014 -0.045997 0.273106
-0.002703 -0.046093 0.273651
-0.001384 -0.046086 0.273597
-0.000064 -0.046039 0.273301
0.001250 -0.045928 0.272635
0.002543 -0.045527 0.270247
0.003863 -0.045734 0.271472
0.005165 -0.045667 0.271073
0.006350 -0.044801 0.265938
0.007532 -0.044212 0.262446
0.008733 -0.043889 0.260536
0.010018 -0.044013 0.261288
0.011231 -0.043830 0.260215
0.012471 -0.043774 0.259904
0.013732 -0.043798 0.260064
0.015020 -0.043897 0.260676
0.016296 -0.043949 0.261015
0.017532 -0.043893 0.260709
0.018876 -0.044095 0.261943
0.020372 -0.044606 0.265015
0.021761 -0.044835 0.266419
0.023050 -0.044845 0.266519
0.024181 -0.044562 0.264880
0.025306 -0.044297 0.263354
0.026566 -0.044281 0.263310
0.027740 -0.044132 0.262472
0.028860 -0.043911 0.261215
0.030033 -0.043788 0.260539
0.031325 -0.043840 0.260908
0.032612 -0.043882 0.261213
0.033869 -0.043881 0.261273
0.035260 -0.044048 0.262333
0.036668 -0.044224 0.263449
0.038040 -0.044346 0.264245
0.039283 -0.044315 0.264130
0.040786 -0.044570 0.265721
0.042067 -0.044573 0.265815
0.043452 -0.044685 0.266553
0.044517 -0.044469 0.265343
0.044877 -0.043580 0.260116
0.045790 -0.043263 0.258298
0.046900 -0.043143 0.257660
0.048283 -0.043275 0.258524
0.049354 -0.043127 0.257721
0.050469 -0.043023 0.257179
0.051705 -0.043026 0.257274
0.052869 -0.042969 0.257015
0.054198 -0.043047 0.257559
0.055322 -0.042961 0.257125
0.056488 -0.042911 0.256909
0.058055 -0.043161 0.258486
0.062229 -0.045299 0.271375
0.063493 -0.045274 0.271308
0.064768 -0.045258 0.271293
0.066204 -0.045353 0.271946
0.067459 -0.045322 0.271843
0.068695 -0.045280 0.271672
0.069869 -0.045200 0.271269
0.070748 -0.044935 0.269755
0.071369 -0.044519 0.267334
0.072271 -0.044289 0.266029
0.073458 -0.044239 0.265798
0.074241 -0.043951 0.264140
0.074614 -0.043434 0.261102
0.075024 -0.042956 0.258293
0.076308 -0.042985 0.258529
0.077344 -0.042876 0.257935
0.078443 -0.042805 0.257562
0.079603 -0.042768 0.257397
0.080991 -0.042854 0.257965
0.082576 -0.043039 0.259132
0.083457 -0.042858 0.258084
0.085523 -0.043281 0.260677
0.086633 -0.043215 0.260322
0.099772 -0.049067 0.295616
0.101025 -0.048992 0.295202
0.101493 -0.048544 0.292535
0.102854 -0.048529 0.292472
0.104392 -0.048597 0.292905
0.105459 -0.048446 0.292019
0.107262 -0.048634 0.293162
0.108511 -0.048568 0.292776
0.109842 -0.048541 0.292615
0.111234 -0.048540 0.292611
0.112463 -0.048470 0.292178
0.113972 -0.048520 0.292467
0.115292 -0.048489 0.292263
0.116809 -0.048542 0.292553
0.118146 -0.048518 0.292380
0.119508 -0.048506 0.292267
0.120782 -0.048459 0.291933
0.122199 -0.048469 0.291943
0.123693 -0.048510 0.292123
0.125059 -0.048499 0.291993
0.126463 -0.048504 0.291944
0.127765 -0.048470 0.291650
0.129158 -0.048471 0.291560
0.130659 -0.048511 0.291701
0.131808 -0.048422 0.291051
0.133342 -0.048474 0.291242
0.135649 -0.048804 0.293089
0.137218 -0.048863 0.293304
0.138406 -0.048788 0.292696
0.139888 -0.048816 0.292700
0.141380 -0.048847 0.292713
0.142801 -0.048854 0.292563
0.144194 -0.048850 0.292345
0.145633 -0.048862 0.292204
0.147186 -0.048912 0.292278
0.148851 -0.048998 0.292552
0.150212 -0.048983 0.292210
0.151841 -0.049055 0.292371
0.153296 -0.049069 0.292178
-0.141108 -0.042868 0.265035
-0.140721 -0.043134 0.266916
-0.140112 -0.043336 0.268390
-0.138846 -0.043337 0.268606
-0.138145 -0.043515 0.269916
-0.136862 -0.043512 0.270087
-0.135861 -0.043600 0.270809
-0.134808 -0.043672 0.271426
-0.133488 -0.043659 0.271500
-0.132263 -0.043676 0.271757
-0.130940 -0.043661 0.271802
-0.129753 -0.043692 0.272122
-0.128372 -0.043658 0.272026
-0.127061 -0.043647 0.272065
-0.125715 -0.043623 0.272020
-0.124646 -0.043697 0.272568
-0.123571 -0.043769 0.273104
-0.122512 -0.043850 0.273679
-0.121320 -0.043883 0.273956
-0.120504 -0.044055 0.275088
-0.120173 -0.044410 0.277357
-0.128540 -0.048022 0.299966
-0.127329 -0.048096 0.300470
-0.126114 -0.048171 0.300970
-0.120470 -0.046536 0.290782
-0.119127 -0.046545 0.290852
-0.113460 -0.045909 0.286894
-0.112157 -0.045927 0.287001
-0.111185 -0.046082 0.287958
-0.109725 -0.046037 0.287658
-0.111714 -0.047456 0.296497
-0.110498 -0.047531 0.296941
-0.105561 -0.045988 0.287268
-0.104393 -0.046068 0.287728
-0.103712 -0.046368 0.289556
-0.102866 -0.046602 0.290966
-0.101393 -0.046553 0.290610
-0.100103 -0.046589 0.290776
-0.099114 -0.046767 0.291827
-0.096729 -0.046283 0.288741
-0.095501 -0.046347 0.289068
-0.094531 -0.046539 0.290196
-0.096524 -0.048217 0.300580
-0.095258 -0.048293 0.300972
-0.093562 -0.048150 0.299995
-0.092897 -0.048541 0.302344
-0.091385 -0.048496 0.301969
-0.089766 -0.048391 0.301220
-0.088592 -0.048526 0.301966
-0.087206 -0.048548 0.302003
-0.085506 -0.048393 0.300935
-0.084161 -0.048438 0.301108
-0.082743 -0.048441 0.301020
-0.081121 -0.048322 0.300174
-0.079966 -0.048483 0.301064
-0.078579 -0.048506 0.301096
-0.077056 -0.048445 0.300602
-0.075664 -0.048465 0.300615
-0.074363 -0.048545 0.300996
-0.073040 -0.048614 0.301309
-0.070772 -0.048045 0.297662
-0.067676 -0.046879 0.290325
-0.066285 -0.046869 0.290152
-0.065072 -0.046988 0.290774
-0.063747 -0.047030 0.290918
-0.062379 -0.047041 0.290869
-0.061083 -0.047108 0.291168
-0.059703 -0.047112 0.291079
-0.058342 -0.047132 0.291084
-0.056924 -0.047105 0.290804
-0.055459 -0.047038 0.290274
-0.054158 -0.047109 0.290602
-0.052814 -0.047147 0.290722
-0.051438 -0.047156 0.290667
-0.050067 -0.047172 0.290650
-0.048687 -0.047180 0.290588
-0.047333 -0.047213 0.290684
-0.045957 -0.047226 0.290659
-0.044588 -0.047248 0.290688
-0.043168 -0.047215 0.290380
-0.041783 -0.047220 0.290307
-0.039661 -0.046364 0.284947
-0.039528 -0.047854 0.294003
-0.037247 -0.046759 0.287179
-0.035961 -0.046877 0.287807
-0.034823 -0.047204 0.289724
-0.030214 -0.042659 0.261745
-0.028877 -0.042537 0.260922
-0.027575 -0.042461 0.260373
-0.026354 -0.042507 0.260586
-0.025121 -0.042539 0.260706
-0.023859 -0.042522 0.260534
-0.022611 -0.042530 0.260515
-0.021396 -0.042603 0.260896
-0.020210 -0.042749 0.261728
-0.019092 -0.043064 0.263601
-0.018062 -0.043641 0.267071
-0.016877 -0.043902 0.268612
-0.015729 -0.044309 0.271053
-0.014403 -0.044245 0.270613
-0.013194 -0.044563 0.272508
-0.011891 -0.044598 0.272681
-0.010537 -0.044426 0.271589
-0.009223 -0.044402 0.271404
-0.007885 -0.044234 0.270346
-0.006560 -0.044088 0.269420
-0.005252 -0.044006 0.268893
-0.003950 -0.043947 0.268507
-0.002655 -0.043949 0.268502
-0.001361 -0.043972 0.268621
-0.000065 -0.043994 0.268747
0.001233 -0.044081 0.269269
0.002514 -0.043768 0.267346
0.003815 -0.043887 0.268070
0.005143 -0.044190 0.269923
0.006334 -0.043424 0.265246
0.007551 -0.043067 0.263071
0.008758 -0.042763 0.261226
0.010036 -0.042836 0.261680
0.011251 -0.042656 0.260599
0.012495 -0.042609 0.260331
0.013775 -0.042684 0.260811
0.015092 -0.042850 0.261851
0.016420 -0.043022 0.262927
0.017801 -0.043293 0.264619
0.019079 -0.043298 0.264678
0.020412 -0.043417 0.265448
0.021795 -0.043624 0.266753
0.023109 -0.043676 0.267112
0.024271 -0.043450 0.265779
0.025500 -0.043362 0.265287
0.026802 -0.043399 0.265566
0.027983 -0.043246 0.264683
0.029161 -0.043102 0.263858
0.030354 -0.042992 0.263238
0.031675 -0.043063 0.263737
0.032986 -0.043116 0.264123
0.034208 -0.043054 0.263803
0.035404 -0.042965 0.263326
0.036700 -0.042998 0.263597
0.038100 -0.043147 0.264582
0.039334 -0.043104 0.264389
0.040688 -0.043191 0.264997
0.041973 -0.043202 0.265140
0.043261 -0.043216 0.265298
0.044343 -0.043029 0.264231
0.044850 -0.042310 0.259889
0.045827 -0.042061 0.258438
0.046920 -0.041928 0.257702
0.048150 -0.041922 0.257743
0.049298 -0.041846 0.257355
0.050482 -0.041804 0.257180
0.051612 -0.041721 0.256747
0.052848 -0.041724 0.256847
0.054152 -0.041780 0.257275
0.055068 -0.041541 0.255886
0.056544 -0.041726 0.257102
0.059477 -0.042954 0.264758
0.061898 -0.043770 0.269868
0.063374 -0.043897 0.270740
0.064718 -0.043930 0.271029
0.066032 -0.043941 0.271182
0.067380 -0.043975 0.271472
0.068639 -0.043950 0.271399
0.069715 -0.043810 0.270619
0.070784 -0.043672 0.269843
0.071471 -0.043307 0.267669
0.072253 -0.043011 0.265916
0.073580 -0.043045 0.266196
0.074225 -0.042685 0.264043
0.074383 -0.042062 0.260256
0.074891 -0.041654 0.257798
0.076193 -0.041693 0.258105
0.077215 -0.041581 0.257472
0.078219 -0.041462 0.256796
0.079534 -0.041509 0.257146
0.080574 -0.041414 0.256610
0.081892 -0.041462 0.256960
0.083263 -0.041535 0.257460
0.084604 -0.041591 0.257854
0.085979 -0.041663 0.258339
0.098910 -0.047252 0.293043
0.100151 -0.047180 0.292632
0.101244 -0.047040 0.291801
0.102376 -0.046922 0.291100
0.104497 -0.047254 0.293190
0.105620 -0.047133 0.292456
0.106701 -0.046996 0.291623
0.108326 -0.047099 0.292275
0.109757 -0.047116 0.292387
0.111127 -0.047106 0.292329
0.112616 -0.047147 0.292578
0.113836 -0.047076 0.292125
0.115352 -0.047127 0.292424
0.116713 -0.047115 0.292324
0.118080 -0.047105 0.292231
0.119430 -0.047088 0.292092
0.120781 -0.047073 0.291951
0.122067 -0.047032 0.291650
0.123610 -0.047091 0.291952
0.125174 -0.047156 0.292289
0.126652 -0.047187 0.292409
0.127931 -0.047145 0.292062
0.129284 -0.047130 0.291881
0.130729 -0.047149 0.291897
0.132473 -0.047274 0.292561
0.133932 -0.047296 0.292575
0.135387 -0.047316 0.292570
0.137008 -0.047393 0.292907
0.138433 -0.047402 0.292808
0.139954 -0.047443 0.292898
0.141240 -0.047403 0.292485
0.142634 -0.047401 0.292285
0.144124 -0.047430 0.292271
0.145890 -0.047549 0.292793
0.147305 -0.047552 0.292590
0.148691 -0.047546 0.292315
0.150198 -0.047578 0.292265
0.151586 -0.047572 0.291968
0.153262 -0.047656 0.292204
-0.139902 -0.041250 0.262842
-0.138938 -0.041333 0.263601
-0.138184 -0.041480 0.264762
-0.136725 -0.041417 0.264565
-0.135813 -0.041520 0.265417
-0.135271 -0.041739 0.267004
-0.134452 -0.041876 0.268054
-0.133264 -0.041900 0.268368
-0.132247 -0.041978 0.269024
-0.131202 -0.042049 0.269621
-0.130017 -0.042076 0.269929
-0.128768 -0.042083 0.270096
-0.127568 -0.042106 0.270358
-0.126419 -0.042147 0.270726
-0.125318 -0.042204 0.271192
-0.124123 -0.042231 0.271454
-0.123134 -0.042329 0.272166
-0.122113 -0.042419 0.272812
-0.121235 -0.042560 0.273786
-0.120569 -0.042780 0.275257
-0.120091 -0.043072 0.277186
-0.119151 -0.043202 0.278069
-0.118008 -0.043262 0.278487
-0.117264 -0.043470 0.279859
-0.116001 -0.043489 0.280004
-0.114571 -0.043445 0.279735
-0.113437 -0.043514 0.280186
-0.113641 -0.044103 0.283984
-0.112487 -0.044174 0.284433
-0.111501 -0.044312 0.285317
-0.110483 -0.044441 0.286134
-0.109476 -0.044579 0.286996
-0.108501 -0.044732 0.287959
-0.112221 -0.046849 0.301556
-0.110860 -0.046873 0.301669
-0.109618 -0.046948 0.302110
-0.104914 -0.045523 0.292892
-0.102672 -0.045142 0.290392
-0.101436 -0.045200 0.290710
-0.100075 -0.045203 0.290667
-0.098891 -0.045287 0.291142
-0.097613 -0.045329 0.291350
-0.095702 -0.045075 0.289644
-0.094594 -0.045197 0.290354
-0.097127 -0.047088 0.302418
-0.095854 -0.047162 0.302812
-0.094294 -0.047096 0.302299
-0.092897 -0.047110 0.302297
-0.091483 -0.047116 0.302242
-0.090039 -0.047107 0.302086
-0.088402 -0.046995 0.301265
-0.086667 -0.046826 0.300080
-0.085281 -0.046843 0.300086
-0.083883 -0.046854 0.300054
-0.082306 -0.046764 0.299365
-0.081042 -0.046852 0.299820
-0.079915 -0.047023 0.300804
-0.078742 -0.047173 0.301652
-0.077402 -0.047227 0.301879
-0.075817 -0.047131 0.301150
-0.075170 -0.047625 0.304186
-0.073833 -0.047693 0.304503
-0.072373 -0.047683 0.304316
-0.067752 -0.045547 0.290570
-0.066408 -0.045571 0.290610
-0.065069 -0.045601 0.290680
-0.063758 -0.045651 0.290883
-0.062441 -0.045699 0.291071
-0.061096 -0.045729 0.291143
-0.059760 -0.045766 0.291266
-0.058446 -0.045823 0.291511
-0.056989 -0.045768 0.291043
-0.055601 -0.045767 0.290922
-0.054280 -0.045823 0.291162
-0.052857 -0.045793 0.290859
-0.051477 -0.045800 0.290788
-0.050130 -0.045838 0.290913
-0.048710 -0.045809 0.290621
-0.047336 -0.045823 0.290599
-0.045899 -0.045775 0.290187
-0.044549 -0.045814 0.290324
-0.043163 -0.045817 0.290236
-0.041753 -0.045794 0.289985
-0.039750 -0.045097 0.285472
-0.039554 -0.046473 0.294081
-0.037273 -0.045410 0.287259
-0.035898 -0.045412 0.287178
-0.034794 -0.045772 0.289356
-0.030761 -0.042148 0.266366
-0.028899 -0.041313 0.261006
-0.027585 -0.041222 0.260355
-0.026430 -0.041372 0.261227
-0.025112 -0.041268 0.260496
-0.023844 -0.041240 0.260253
-0.022609 -0.041270 0.260369
-0.021370 -0.041295 0.260461
-0.020145 -0.041350 0.260750
-0.019131 -0.041876 0.264006
-0.018059 -0.042342 0.266886
-0.017082 -0.043121 0.271734
-0.015917 -0.043513 0.274152
-0.014781 -0.044060 0.277551
-0.013406 -0.043939 0.276739
-0.012078 -0.043956 0.276797
-0.010551 -0.043167 0.271791
-0.009236 -0.043144 0.271607
-0.007896 -0.042981 0.270547
-0.006570 -0.042839 0.269622
-0.005260 -0.042759 0.269094
-0.003956 -0.042701 0.268707
-0.002660 -0.042704 0.268703
-0.001364 -0.042726 0.268822
-0.000067 -0.042748 0.268948
0.001233 -0.042837 0.269501
0.002534 -0.042837 0.269492
0.003828 -0.042767 0.269050
0.005109 -0.042621 0.268130
0.006307 -0.041976 0.264076
0.007551 -0.041809 0.263031
0.008775 -0.041590 0.261662
0.010042 -0.041606 0.261776
0.011272 -0.041482 0.261015
0.012542 -0.041517 0.261252
0.013811 -0.041541 0.261427
0.015160 -0.041780 0.262958
0.016498 -0.041955 0.264088
0.017792 -0.042001 0.264407
0.019216 -0.042329 0.266505
0.020532 -0.042390 0.266932
0.021862 -0.042472 0.267486
0.023217 -0.042590 0.268276
0.024441 -0.042469 0.267559
0.025663 -0.042357 0.266901
0.026981 -0.042405 0.267255
0.028195 -0.042293 0.266605
0.029405 -0.042185 0.265982
0.030573 -0.042029 0.265056
0.031942 -0.042150 0.265881
0.033171 -0.042084 0.265527
0.034375 -0.041992 0.265017
0.035598 -0.041929 0.264686
0.036769 -0.041811 0.264010
0.038116 -0.041895 0.264609
0.039487 -0.041998 0.265336
0.040651 -0.041883 0.264682
0.042019 -0.041977 0.265355
0.043153 -0.041840 0.264564
0.044142 -0.041573 0.262957
0.044933 -0.041140 0.260294
0.045770 -0.040772 0.258046
0.046874 -0.040654 0.257379
0.048174 -0.040709 0.257804
0.049343 -0.040652 0.257526
0.050423 -0.040526 0.256811
0.051735 -0.040588 0.257289
0.053035 -0.040640 0.257695
0.054295 -0.040657 0.257892
0.055651 -0.040745 0.258532
0.057259 -0.041009 0.260292
0.059412 -0.041644 0.264406
0.061776 -0.042398 0.269277
0.063246 -0.042519 0.270134
0.064629 -0.042578 0.270598
0.066021 -0.042640 0.271079
0.067320 -0.042642 0.271176
0.068533 -0.042590 0.270928
0.069642 -0.042476 0.270288
0.070514 -0.042225 0.268768
0.071127 -0.041830 0.266334
0.071974 -0.041584 0.264847
0.073262 -0.041597 0.265005
0.074104 -0.041361 0.263574
0.074511 -0.040893 0.260665
0.075204 -0.040596 0.258839
0.076210 -0.040475 0.258129
0.077264 -0.040382 0.257602
0.078352 -0.040310 0.257203
0.079553 -0.040297 0.257179
0.080806 -0.040310 0.257319
0.082081 -0.040334 0.257527
0.083402 -0.040380 0.257867
0.084794 -0.040458 0.258413
0.086207 -0.040543 0.259003
0.099491 -0.046131 0.294744
0.100739 -0.046059 0.294331
0.101087 -0.045584 0.291331
0.102674 -0.045673 0.291934
0.103642 -0.045488 0.290780
0.104848 -0.045411 0.290311
0.106944 -0.045716 0.292281
0.108377 -0.045734 0.292408
0.109389 -0.045575 0.291405
0.111073 -0.045698 0.292189
0.112496 -0.045710 0.292268
0.113902 -0.045717 0.292299
0.115297 -0.045718 0.292293
0.116757 -0.045745 0.292444
0.118244 -0.045782 0.292651
0.119630 -0.045779 0.292597
0.120833 -0.045707 0.292096
0.122235 -0.045710 0.292071
0.123689 -0.045733 0.292162
0.125076 -0.045732 0.292085
0.126472 -0.045733 0.292023
0.128147 -0.045834 0.292588
0.129816 -0.045931 0.293116
0.131198 -0.045925 0.292981
0.132388 -0.045853 0.292413
0.133927 -0.045902 0.292608
0.135527 -0.045971 0.292919
0.136880 -0.045955 0.292682
0.138345 -0.045977 0.292675
0.139911 -0.046032 0.292863
0.141209 -0.045998 0.292478
0.142621 -0.046001 0.292321
0.144288 -0.046086 0.292667
0.145640 -0.046070 0.292360
0.147348 -0.046166 0.292748
0.148872 -0.046202 0.292748
0.150276 -0.046201 0.292495
0.151898 -0.046267 0.292650
0.153428 -0.046303 0.292608
-0.139212 -0.039800 0.261612
-0.138253 -0.039880 0.262366
-0.137407 -0.039995 0.263336
-0.136317 -0.040040 0.263835
-0.135344 -0.040121 0.264558
-0.134508 -0.040244 0.265550
-0.133654 -0.040364 0.266514
-0.132676 -0.040448 0.267232
-0.131598 -0.040504 0.267750
-0.130588 -0.040581 0.268403
-0.129559 -0.040655 0.269018
-0.128359 -0.040675 0.269276
-0.127162 -0.040698 0.269534
-0.126061 -0.040751 0.269992
-0.125040 -0.040832 0.270622
-0.123903 -0.040876 0.271000
-0.122749 -0.040916 0.271341
-0.121725 -0.041000 0.271967
-0.120676 -0.041077 0.272544
-0.119459 -0.041099 0.272741
-0.118340 -0.041155 0.273160
-0.117319 -0.041246 0.273806
-0.116131 -0.041281 0.274068
-0.114847 -0.041282 0.274100
-0.113669 -0.041321 0.274379
-0.112721 -0.041446 0.275222
-0.111755 -0.041567 0.276033
-0.110570 -0.041609 0.276310
-0.109635 -0.041746 0.277220
-0.109523 -0.042204 0.280250
-0.107984 -0.042117 0.279656
-0.107225 -0.042336 0.281085
-0.106447 -0.042552 0.282495
-0.105452 -0.042687 0.283355
-0.104988 -0.043042 0.285674
-0.106217 -0.044110 0.292717
-0.105098 -0.044218 0.293383
-0.105892 -0.045144 0.299477
-0.104097 -0.044977 0.298309
-0.099411 -0.043539 0.288710
-0.098510 -0.043742 0.289991
-0.096923 -0.043642 0.289256
-0.095573 -0.043647 0.289217
-0.093974 -0.043537 0.288415
-0.096829 -0.045518 0.301450
-0.095561 -0.045590 0.301844
-0.094022 -0.045534 0.301382
-0.092840 -0.045651 0.302066
-0.091281 -0.045584 0.301525
-0.089778 -0.045544 0.301159
-0.088343 -0.045537 0.301012
-0.086764 -0.045454 0.300361
-0.084975 -0.045257 0.298953
-0.083821 -0.045397 0.299772
-0.082185 -0.045276 0.298865
-0.080633 -0.045199 0.298242
-0.079598 -0.045413 0.299545
-0.078337 -0.045504 0.300030
-0.077140 -0.045637 0.300787
-0.075636 -0.045590 0.300359
-0.074589 -0.045821 0.301765
-0.073264 -0.045887 0.302079
-0.071281 -0.045536 0.299647
-0.067708 -0.044135 0.290306
-0.066445 -0.044211 0.290692
-0.065170 -0.044283 0.291046
-0.063771 -0.044272 0.290857
-0.062432 -0.044304 0.290946
-0.061125 -0.044360 0.291195
-0.059656 -0.044298 0.290671
-0.058323 -0.044337 0.290808
-0.057079 -0.044447 0.291412
-0.055538 -0.044326 0.290496
-0.054171 -0.044341 0.290480
-0.052777 -0.044334 0.290319
-0.051462 -0.044395 0.290600
-0.050045 -0.044369 0.290319
-0.048703 -0.044410 0.290474
-0.047335 -0.044428 0.290482
-0.045935 -0.044418 0.290302
-0.044602 -0.044473 0.290555
-0.043232 -0.044494 0.290588
-0.041857 -0.044511 0.290593
-0.040262 -0.044288 0.289032
-0.039598 -0.045109 0.294288
-0.037191 -0.043933 0.286515
-0.035865 -0.043991 0.286800
-0.034790 -0.044374 0.289203
-0.030345 -0.040313 0.262650
-0.028886 -0.040039 0.260784
-0.027624 -0.040025 0.260612
-0.026415 -0.040089 0.260956
-0.025138 -0.040053 0.260646
-0.023905 -0.040087 0.260796
-0.022652 -0.040090 0.260743
-0.021403 -0.040098 0.260735
-0.020237 -0.040274 0.261813
-0.019091 -0.040518 0.263336
-0.018047 -0.041026 0.266581
-0.017327 -0.042406 0.275492
-0.015745 -0.041731 0.271050
-0.014841 -0.042891 0.278534
-0.013504 -0.042909 0.278600
-0.011173 -0.039421 0.255913
-0.009924 -0.039363 0.255496
-0.008700 -0.039400 0.255704
-0.007479 -0.039467 0.256102
-0.006262 -0.039581 0.256812
-0.005036 -0.039682 0.257445
-0.003810 -0.039851 0.258518
-0.002572 -0.040010 0.259528
-0.001325 -0.040190 0.260679
-0.000067 -0.040395 0.261998
0.001220 -0.041168 0.267000
0.002509 -0.041168 0.266991
0.003797 -0.041147 0.266855
0.005039 -0.040776 0.264445
0.006303 -0.040691 0.263896
0.007585 -0.040730 0.264162
0.008791 -0.040409 0.262088
0.010041 -0.040346 0.261695
0.011268 -0.040214 0.260855
0.012529 -0.040221 0.260916
0.013812 -0.040288 0.261375
0.015124 -0.040420 0.262254
0.016435 -0.040531 0.263009
0.017829 -0.040816 0.264886
0.019232 -0.041081 0.266645
0.020513 -0.041068 0.266597
0.021886 -0.041231 0.267700
0.023197 -0.041265 0.267962
0.024478 -0.041244 0.267877
0.025845 -0.041364 0.268706
0.027109 -0.041314 0.268435
0.028384 -0.041286 0.268304
0.029676 -0.041284 0.268351
0.030824 -0.041089 0.267146
0.032137 -0.041122 0.267422
0.033445 -0.041144 0.267634
0.034652 -0.041048 0.267071
0.035861 -0.040958 0.266557
0.037158 -0.040973 0.266726
0.038415 -0.040944 0.266607
0.039715 -0.040961 0.266796
0.040947 -0.040909 0.266533
0.042151 -0.040832 0.266112
0.043235 -0.040648 0.264988
0.044127 -0.040299 0.262795
0.045002 -0.039954 0.260621
0.045832 -0.039589 0.258323
0.046967 -0.039499 0.257820
0.048113 -0.039423 0.257405
0.049299 -0.039383 0.257227
0.050464 -0.039329 0.256957
0.051769 -0.039383 0.257395
0.053058 -0.039424 0.257742
0.054421 -0.039516 0.258431
0.055816 -0.039626 0.259238
0.057441 -0.039892 0.261059
0.060302 -0.040986 0.268307
0.061908 -0.041199 0.269794
0.063345 -0.041294 0.270499
0.064793 -0.041391 0.271226
0.066075 -0.041381 0.271249
0.067403 -0.041399 0.271454
0.068552 -0.041310 0.270952
0.069705 -0.041225 0.270481
0.070648 -0.041022 0.269229
0.071170 -0.040585 0.266448
0.071986 -0.040329 0.264845
0.073207 -0.040305 0.264764
0.074051 -0.040077 0.263342
0.074835 -0.039826 0.261762
0.075342 -0.039437 0.259278
0.076399 -0.039344 0.258733
0.077370 -0.039210 0.257921
0.078492 -0.039157 0.257631
0.079649 -0.039121 0.257459
0.080818 -0.039093 0.257331
0.082178 -0.039157 0.257804
0.083389 -0.039149 0.257804
0.084891 -0.039275 0.258686
0.086113 -0.039270 0.258701
0.099156 -0.044580 0.293729
0.100398 -0.044511 0.293317
