ply
format ascii 1.0
element vertex 1680
property float x
property float y
property float z
end_header
0.039449 -0.094645 0.259537
0.040795 -0.094911 0.260268
0.041558 -0.093845 0.257345
0.042843 -0.093984 0.257727
0.044106 -0.094070 0.257961
0.045198 -0.093794 0.257203
0.046075 -0.093101 0.255300
0.047687 -0.093888 0.257456
0.049099 -0.094252 0.258449
0.050562 -0.094695 0.259658
0.052001 -0.095071 0.260682
0.053422 -0.095398 0.261572
0.054792 -0.095622 0.262176
0.056307 -0.096082 0.263427
0.057784 -0.096461 0.264452
0.059200 -0.096723 0.265155
0.060704 -0.097113 0.266208
0.062114 -0.097342 0.266816
0.063676 -0.097793 0.268031
0.064980 -0.097840 0.268136
0.066475 -0.098165 0.269002
0.067592 -0.097932 0.268334
0.068302 -0.097127 0.266097
0.069202 -0.096617 0.264667
0.069586 -0.095418 0.261347
0.069976 -0.094270 0.258162
0.070635 -0.093516 0.256057
0.071942 -0.093631 0.256327
0.072787 -0.093152 0.254967
0.073707 -0.092783 0.253907
0.075947 -0.094060 0.257346
0.077601 -0.094582 0.258713
0.078878 -0.094636 0.258797
0.080637 -0.095257 0.260426
0.082306 -0.095754 0.261712
0.085350 -0.097813 0.267259
0.086871 -0.098091 0.267935
0.088402 -0.098372 0.268614
0.100091 -0.108240 0.295342
0.101402 -0.108133 0.294934
0.102957 -0.108286 0.295227
0.104394 -0.108313 0.295171
0.105716 -0.108221 0.294781
0.107175 -0.108270 0.294770
0.108726 -0.108409 0.294996
0.110280 -0.108546 0.295211
0.111764 -0.108614 0.295225
0.113244 -0.108675 0.295215
0.114678 -0.108690 0.295072
0.116140 -0.108733 0.294992
0.117674 -0.108840 0.295079
0.119174 -0.108913 0.295065
0.120665 -0.108977 0.295014
0.122150 -0.109033 0.294933
0.123681 -0.109129 0.294947
0.125283 -0.109285 0.295113
0.126735 -0.109307 0.294906
0.128288 -0.109416 0.294919
0.129988 -0.109645 0.295246
0.131416 -0.109643 0.294934
0.132967 -0.109742 0.294883
0.134771 -0.110046 0.295366
0.136503 -0.110284 0.295658
0.138242 -0.110524 0.295937
0.139754 -0.110579 0.295705
0.141271 -0.110636 0.295463
0.143030 -0.110880 0.295703
0.144415 -0.110831 0.295144
0.145941 -0.110891 0.294856
0.147415 -0.110911 0.294442
0.148911 -0.110946 0.294050
0.150478 -0.111033 0.293776
0.151832 -0.110962 0.293062
0.153320 -0.110989 0.292586
0.154522 -0.110812 0.291548
0.155939 -0.110789 0.290896
0.157782 -0.111067 0.291007
-0.125848 -0.085623 0.229654
-0.124920 -0.085754 0.230447
-0.124150 -0.085997 0.231526
-0.123122 -0.086064 0.232117
-0.122303 -0.086280 0.233093
-0.121667 -0.086630 0.234421
-0.121027 -0.086984 0.235746
-0.120345 -0.087315 0.236996
-0.119548 -0.087568 0.238025
-0.118852 -0.087900 0.239255
-0.118164 -0.088245 0.240511
-0.117345 -0.088499 0.241506
-0.116472 -0.088716 0.242393
-0.116048 -0.089284 0.244226
-0.115436 -0.089716 0.245681
-0.114712 -0.090070 0.246912
-0.114873 -0.091134 0.250081
-0.113782 -0.091216 0.250549
-0.112172 -0.090879 0.249856
-0.111327 -0.091161 0.250856
-0.110703 -0.091634 0.252370
-0.109738 -0.091831 0.253116
-0.109747 -0.092856 0.256141
-0.113152 -0.101357 0.280526
-0.106874 -0.098036 0.271637
-0.105133 -0.097612 0.270602
-0.103925 -0.097680 0.270923
-0.102681 -0.097716 0.271146
-0.101210 -0.097533 0.270758
-0.099729 -0.097336 0.270321
-0.098630 -0.097511 0.270913
-0.097949 -0.098110 0.272675
-0.096806 -0.098256 0.273174
-0.095817 -0.098565 0.274120
-0.095421 -0.099501 0.276806
-0.094670 -0.100087 0.278513
-0.093729 -0.100486 0.279695
-0.092716 -0.100819 0.280689
-0.091656 -0.101108 0.281557
-0.090691 -0.101514 0.282746
-0.089727 -0.101931 0.283961
-0.088760 -0.102360 0.285203
-0.087993 -0.103035 0.287129
-0.087593 -0.104168 0.290327
-0.086737 -0.104786 0.292085
-0.085659 -0.105151 0.293137
-0.084456 -0.105373 0.293783
-0.083293 -0.105653 0.294589
-0.082107 -0.105912 0.295332
-0.081099 -0.106415 0.296752
-0.079333 -0.105923 0.295394
-0.084560 -0.114916 0.320487
-0.083134 -0.115032 0.320818
-0.081616 -0.115022 0.320797
-0.079690 -0.114424 0.319133
-0.078539 -0.114941 0.320573
-0.078132 -0.116586 0.325159
-0.076674 -0.116698 0.325466
-0.067121 -0.104242 0.290720
-0.065977 -0.104600 0.291709
-0.064631 -0.104646 0.291826
-0.063230 -0.104603 0.291692
-0.061965 -0.104789 0.292196
-0.060607 -0.104821 0.292267
-0.059215 -0.104796 0.292181
-0.057881 -0.104874 0.292377
-0.056520 -0.104907 0.292447
-0.055109 -0.104846 0.292255
-0.053782 -0.104945 0.292509
-0.052424 -0.104989 0.292606
-0.050946 -0.104787 0.292019
-0.049639 -0.104935 0.292405
-0.048245 -0.104905 0.292295
-0.046727 -0.104594 0.291398
-0.045401 -0.104708 0.291688
-0.044068 -0.104813 0.291952
-0.042612 -0.104621 0.291389
-0.041251 -0.104658 0.291463
-0.039545 -0.103794 0.289026
-0.038286 -0.107939 0.300509
-0.035667 -0.104430 0.290710
-0.034676 -0.105593 0.293917
-0.032923 -0.104439 0.290676
-0.031705 -0.104955 0.292082
-0.029801 -0.103145 0.287016
-0.027869 -0.101057 0.281178
-0.026495 -0.100887 0.280677
-0.024961 -0.100059 0.278349
-0.023523 -0.099545 0.276893
-0.022290 -0.099888 0.277820
-0.020759 -0.098858 0.274930
-0.019440 -0.098766 0.274649
-0.018119 -0.098650 0.274305
-0.016702 -0.097952 0.272341
-0.015354 -0.097577 0.271275
-0.014081 -0.097656 0.271475
-0.012730 -0.097157 0.270066
-0.011316 -0.096012 0.266864
-0.009968 -0.095204 0.264600
-0.008647 -0.094467 0.262535
-0.007343 -0.093696 0.260374
-0.006124 -0.093918 0.260977
-0.004901 -0.094177 0.261681
-0.003662 -0.094197 0.261723
-0.002433 -0.094630 0.262913
-0.001191 -0.094970 0.263846
0.000059 -0.095293 0.264731
0.001327 -0.096229 0.267321
0.002622 -0.097256 0.270165
0.003965 -0.098811 0.274475
0.005278 -0.099028 0.275068
0.006630 -0.099753 0.277076
0.007881 -0.098965 0.274879
0.009169 -0.098795 0.274403
0.010447 -0.098574 0.273783
0.011619 -0.097510 0.270826
0.012855 -0.097150 0.269822
0.014123 -0.097065 0.269585
0.015348 -0.096727 0.268643
0.016627 -0.096756 0.268723
0.017826 -0.096345 0.267582
0.019262 -0.097187 0.269920
0.020663 -0.097758 0.271508
0.021884 -0.097456 0.270671
0.023142 -0.097346 0.270369
0.024045 -0.095834 0.266171
0.025274 -0.095704 0.265812
0.026391 -0.095185 0.264376
0.027282 -0.093935 0.260908
0.028503 -0.093878 0.260753
0.029657 -0.093614 0.260025
0.030778 -0.093271 0.259076
0.032071 -0.093457 0.259597
0.033348 -0.093584 0.259955
0.034698 -0.093900 0.260838
0.035945 -0.093924 0.260907
0.037130 -0.093788 0.260534
0.038488 -0.094086 0.261365
0.039848 -0.094369 0.262156
0.041029 -0.094225 0.261759
0.041874 -0.093338 0.259299
0.043059 -0.093240 0.259028
0.044300 -0.093263 0.259094
0.045563 -0.093330 0.259281
0.046368 -0.092483 0.256926
0.047786 -0.092868 0.257996
0.049301 -0.093416 0.259518
0.050606 -0.093552 0.259890
0.052296 -0.094375 0.262175
0.053736 -0.094720 0.263127
0.054936 -0.094634 0.262882
0.056617 -0.095364 0.264899
0.058276 -0.096024 0.266723
0.059428 -0.095839 0.266196
0.061046 -0.096397 0.267733
0.062424 -0.096561 0.268173
0.063880 -0.096837 0.268921
0.065339 -0.097107 0.269650
0.066574 -0.097040 0.269442
0.067751 -0.096892 0.269006
0.068791 -0.096556 0.268045
0.069548 -0.095844 0.266037
0.070771 -0.095787 0.265846
0.071176 -0.094645 0.262641
0.071849 -0.093892 0.260512
0.072156 -0.092695 0.257151
0.072980 -0.092191 0.255707
0.074296 -0.092313 0.255998
0.075610 -0.092430 0.256270
0.076885 -0.092496 0.256398
0.078583 -0.093061 0.257905
0.080715 -0.094115 0.260760
0.082376 -0.094595 0.262020
0.085405 -0.096609 0.267524
0.086876 -0.096827 0.268047
0.101711 -0.107058 0.295958
0.102899 -0.106823 0.295190
0.104388 -0.106904 0.295287
0.105553 -0.106654 0.294467
0.107071 -0.106764 0.294630
0.108491 -0.106773 0.294509
0.110103 -0.106968 0.294894
0.111662 -0.107109 0.295118
0.113035 -0.107069 0.294839
0.114571 -0.107183 0.294973
0.116010 -0.107204 0.294844
0.117553 -0.107319 0.294962
0.118983 -0.107330 0.294786
0.120695 -0.107591 0.295288
0.122128 -0.107601 0.295088
0.123587 -0.107634 0.294939
0.125221 -0.107815 0.295189
0.126719 -0.107877 0.295099
0.128183 -0.107910 0.294915
0.129770 -0.108043 0.294996
0.131385 -0.108197 0.295120
0.132760 -0.108152 0.294687
0.134519 -0.108417 0.295086
0.136525 -0.108873 0.295988
0.138142 -0.109013 0.296014
0.139586 -0.109015 0.295650
0.141412 -0.109312 0.296069
0.142912 -0.109353 0.295779
0.144375 -0.109365 0.295392
0.145949 -0.109460 0.295213
0.147319 -0.109402 0.294601
0.148816 -0.109439 0.294225
0.150389 -0.109529 0.293974
0.151864 -0.109548 0.293509
0.153289 -0.109530 0.292925
0.154448 -0.109324 0.291818
0.155782 -0.109244 0.291025
0.157451 -0.109398 0.290832
-0.125572 -0.084307 0.229450
-0.124766 -0.084517 0.230455
-0.123766 -0.084598 0.231092
-0.122715 -0.084646 0.231623
-0.122051 -0.084965 0.232881
-0.121140 -0.085116 0.233665
-0.120273 -0.085301 0.234530
-0.119985 -0.085904 0.236534
-0.121608 -0.087901 0.242370
-0.121739 -0.088847 0.245307
-0.121154 -0.089284 0.246831
-0.120088 -0.089372 0.247378
-0.118852 -0.089334 0.247565
-0.117772 -0.089413 0.248065
-0.116553 -0.089388 0.248264
-0.115406 -0.089418 0.248604
-0.114255 -0.089446 0.248927
-0.113117 -0.089485 0.249271
-0.112179 -0.089684 0.250052
-0.111318 -0.089950 0.251010
-0.110472 -0.090235 0.252012
-0.109673 -0.090564 0.253131
-0.108740 -0.090789 0.253948
-0.107835 -0.091043 0.254841
-0.107257 -0.091581 0.256522
-0.106778 -0.092219 0.258473
-0.105670 -0.092320 0.258917
-0.104871 -0.092698 0.260128
-0.103748 -0.092795 0.260543
-0.106977 -0.096834 0.272027
-0.105236 -0.096417 0.270990
-0.104029 -0.096486 0.271311
-0.101112 -0.094951 0.267114
-0.100197 -0.095281 0.268154
-0.099823 -0.096140 0.270676
-0.099541 -0.097112 0.273514
-0.098445 -0.097304 0.274150
-0.097313 -0.097466 0.274695
-0.096574 -0.098031 0.276370
-0.095749 -0.098524 0.277838
-0.094751 -0.098849 0.278828
-0.093896 -0.099334 0.280266
-0.092962 -0.099750 0.281500
-0.091967 -0.100111 0.282577
-0.091082 -0.100604 0.284023
-0.090209 -0.101125 0.285542
-0.089074 -0.101364 0.286263
-0.088347 -0.102082 0.288331
-0.087708 -0.102925 0.290750
-0.087009 -0.103724 0.293039
-0.085886 -0.104035 0.293947
-0.084725 -0.104310 0.294749
-0.083551 -0.104578 0.295525
-0.082427 -0.104918 0.296505
-0.081028 -0.104915 0.296508
-0.079714 -0.105023 0.296826
-0.083229 -0.113640 0.321193
-0.081230 -0.112963 0.319280
-0.080464 -0.114008 0.322235
-0.078665 -0.113601 0.321081
-0.077642 -0.114322 0.323111
-0.076194 -0.114433 0.323417
-0.067135 -0.102885 0.290768
-0.065931 -0.103144 0.291487
-0.064693 -0.103361 0.292084
-0.063290 -0.103317 0.291945
-0.061982 -0.103430 0.292246
-0.060693 -0.103581 0.292652
-0.059344 -0.103634 0.292782
-0.057948 -0.103606 0.292680
-0.056572 -0.103612 0.292672
-0.055189 -0.103606 0.292630
-0.053819 -0.103627 0.292664
-0.052406 -0.103562 0.292454
-0.050983 -0.103474 0.292177
-0.049642 -0.103551 0.292367
-0.048223 -0.103467 0.292098
-0.046798 -0.103364 0.291778
-0.045412 -0.103344 0.291691
-0.044070 -0.103426 0.291893
-0.042709 -0.103467 0.291975
-0.041282 -0.103347 0.291605
-0.039662 -0.102718 0.289801
-0.035730 -0.103224 0.291133
-0.033927 -0.101941 0.287483
-0.032982 -0.103234 0.291099
-0.029375 -0.095946 0.270520
-0.028063 -0.095834 0.270174
-0.026500 -0.094815 0.267274
-0.024942 -0.093708 0.264127
-0.023744 -0.093914 0.264682
-0.022492 -0.093912 0.264650
-0.021373 -0.094503 0.266289
-0.020134 -0.094598 0.266533
-0.018840 -0.094435 0.266049
-0.017966 -0.096508 0.271863
-0.016629 -0.096216 0.271016
-0.015311 -0.095997 0.270378
-0.014113 -0.096565 0.271955
-0.012752 -0.096010 0.270373
-0.011405 -0.095453 0.268784
-0.010021 -0.094412 0.265831
-0.008682 -0.093550 0.263388
-0.007423 -0.093415 0.262989
-0.006145 -0.092941 0.261640
-0.004935 -0.093504 0.263210
-0.003687 -0.093491 0.263160
-0.002447 -0.093773 0.263939
-0.001200 -0.094070 0.264762
0.000056 -0.094516 0.266005
0.001335 -0.095847 0.269742
0.002631 -0.096451 0.271431
0.003950 -0.097231 0.273616
0.005242 -0.097142 0.273359
0.006562 -0.097487 0.274322
0.007911 -0.098082 0.275990
0.009087 -0.096664 0.271997
0.010299 -0.095940 0.269955
0.011615 -0.096229 0.270766
0.012800 -0.095486 0.268671
0.014042 -0.095265 0.268048
0.015300 -0.095179 0.267807
0.016525 -0.094916 0.267067
0.017903 -0.095511 0.268740
0.019277 -0.096000 0.270119
0.020518 -0.095810 0.269587
0.021999 -0.096697 0.272086
0.023289 -0.096692 0.272075
0.024378 -0.095899 0.269846
0.025595 -0.095658 0.269173
0.026307 -0.093646 0.263516
0.027364 -0.092987 0.261668
0.028622 -0.093041 0.261824
0.029802 -0.092847 0.261285
0.030926 -0.092500 0.260313
0.032203 -0.092619 0.260656
0.033535 -0.092882 0.261401
0.034809 -0.092969 0.261654
0.036143 -0.093207 0.262330
0.037399 -0.093233 0.262409
0.038533 -0.092964 0.261657
0.039904 -0.093266 0.262512
0.041203 -0.093385 0.262853
0.042338 -0.093138 0.262162
0.043289 -0.092511 0.260403
0.044746 -0.092970 0.261700
0.045844 -0.092678 0.260879
0.046619 -0.091765 0.258312
0.047764 -0.091611 0.257879
0.048956 -0.091550 0.257709
0.050605 -0.092326 0.259891
0.052043 -0.092690 0.260915
0.053280 -0.092685 0.260899
0.054928 -0.093381 0.262855
0.056331 -0.093639 0.263575
0.057953 -0.094240 0.265259
0.059575 -0.094817 0.266874
0.061117 -0.095245 0.268067
0.062461 -0.095353 0.268359
0.063893 -0.095588 0.269005
0.065371 -0.095882 0.269814
0.066470 -0.095617 0.269050
0.067803 -0.095696 0.269248
0.069004 -0.095586 0.268915
0.069670 -0.094754 0.266546
0.071301 -0.095239 0.267882
0.071586 -0.093942 0.264200
0.071989 -0.092842 0.261073
0.072724 -0.092200 0.259228
0.073901 -0.092129 0.258989
0.074824 -0.091751 0.257879
0.076180 -0.091905 0.258265
0.077628 -0.092165 0.258943
0.078869 -0.092174 0.258913
0.080524 -0.092660 0.260217
0.082304 -0.093273 0.261872
0.083780 -0.093527 0.262518
0.085679 -0.094239 0.264441
0.089012 -0.096485 0.270662
0.101282 -0.105207 0.294826
0.102739 -0.105258 0.294856
0.104197 -0.105308 0.294876
0.105538 -0.105240 0.294558
0.106873 -0.105167 0.294222
0.108481 -0.105362 0.294625
0.109944 -0.105412 0.294619
0.111432 -0.105485 0.294665
0.112905 -0.105542 0.294661
0.114418 -0.105635 0.294747
0.115872 -0.105670 0.294664
0.117376 -0.105751 0.294699
0.119020 -0.105954 0.295066
0.120557 -0.106058 0.295143
0.122030 -0.106104 0.295051
0.123584 -0.106219 0.295140
0.125041 -0.106248 0.294980
0.126591 -0.106354 0.295022
0.128047 -0.106380 0.294832
0.129481 -0.106388 0.294577
0.131098 -0.106544 0.294720
0.132622 -0.106621 0.294632
0.134225 -0.106760 0.294701
0.136162 -0.107159 0.295472
0.137924 -0.107413 0.295827
0.139454 -0.107482 0.295659
0.140991 -0.107556 0.295485
0.142767 -0.107808 0.295786
0.144373 -0.107928 0.295707
0.145752 -0.107878 0.295143
0.147280 -0.107938 0.294862
0.148799 -0.107990 0.294541
0.150248 -0.107990 0.294059
0.151688 -0.107984 0.293540
0.153216 -0.108040 0.293169
0.154488 -0.107917 0.292289
0.155761 -0.107795 0.291393
0.157238 -0.107816 0.290859
-0.125442 -0.083093 0.229504
-0.124773 -0.083391 0.230751
-0.123953 -0.083593 0.231717
-0.122753 -0.083540 0.231961
-0.122031 -0.083814 0.233100
-0.121261 -0.084061 0.234151
-0.120613 -0.084398 0.235438
-0.119993 -0.084760 0.236787
-0.119274 -0.085060 0.237949
-0.118438 -0.085281 0.238880
-0.117676 -0.085560 0.239963
-0.117064 -0.085955 0.241360
-0.115923 -0.085966 0.241670
-0.115207 -0.086295 0.242861
-0.114477 -0.086621 0.244036
-0.113490 -0.086757 0.244664
-0.112529 -0.086915 0.245348
-0.111668 -0.087156 0.246254
-0.110896 -0.087472 0.247364
-0.109772 -0.087514 0.247689
-0.108918 -0.087775 0.248626
-0.108821 -0.088658 0.251319
-0.107607 -0.088641 0.251453
-0.106430 -0.088654 0.251665
-0.106022 -0.089316 0.253709
-0.104997 -0.089466 0.254296
-0.103797 -0.089470 0.254457
-0.102739 -0.089598 0.254964
-0.101650 -0.089701 0.255395
-0.100612 -0.089853 0.255956
-0.099539 -0.089977 0.256430
-0.098467 -0.090105 0.256912
-0.097293 -0.090142 0.257125
-0.096578 -0.090610 0.258564
-0.096734 -0.091918 0.262395
-0.098737 -0.095038 0.271396
-0.099295 -0.096830 0.276606
-0.098019 -0.096859 0.276772
-0.096685 -0.096829 0.276767
-0.095911 -0.097368 0.278382
-0.094938 -0.097718 0.279450
-0.093976 -0.098088 0.280573
-0.093071 -0.098530 0.281894
-0.092022 -0.098829 0.282805
-0.091267 -0.099458 0.284654
-0.090889 -0.100523 0.287747
-0.089980 -0.101023 0.289219
-0.089455 -0.101978 0.291990
-0.088286 -0.102216 0.292704
-0.087031 -0.102361 0.293149
-0.085803 -0.102543 0.293694
-0.084509 -0.102650 0.294021
-0.083332 -0.102907 0.294775
-0.082005 -0.102983 0.295006
-0.080016 -0.102216 0.292819
-0.077851 -0.101194 0.289899
-0.077190 -0.102126 0.292571
-0.083346 -0.112273 0.321644
-0.081713 -0.112111 0.321176
-0.079616 -0.111294 0.318831
-0.078474 -0.111806 0.320291
-0.077652 -0.112804 0.323139
-0.076205 -0.112915 0.323444
-0.067261 -0.101696 0.291294
-0.066052 -0.101948 0.292000
-0.064797 -0.102137 0.292525
-0.063397 -0.102103 0.292405
-0.062052 -0.102158 0.292542
-0.060764 -0.102310 0.292955
-0.059387 -0.102317 0.292951
-0.058007 -0.102318 0.292930
-0.056624 -0.102316 0.292897
-0.055229 -0.102290 0.292794
-0.053810 -0.102218 0.292561
-0.052414 -0.102186 0.292439
-0.051013 -0.102145 0.292289
-0.049593 -0.102060 0.292018
-0.048216 -0.102061 0.291989
-0.046813 -0.102009 0.291806
-0.045409 -0.101948 0.291599
-0.044074 -0.102046 0.291847
-0.042676 -0.101997 0.291674
-0.041252 -0.101883 0.291314
-0.039604 -0.101187 0.289292
-0.039959 -0.105744 0.302283
-0.038555 -0.105811 0.302442
-0.035113 -0.100075 0.286012
-0.033817 -0.100241 0.286456
-0.031110 -0.096062 0.274482
-0.029385 -0.094688 0.270524
-0.028122 -0.094740 0.270645
-0.026471 -0.093431 0.266877
-0.024965 -0.092531 0.264276
-0.023678 -0.092388 0.263841
-0.022430 -0.092388 0.263814
-0.021260 -0.092732 0.264770
-0.020023 -0.092807 0.264956
-0.018814 -0.093031 0.265570
-0.017708 -0.093833 0.267835
-0.016607 -0.094783 0.270524
-0.015326 -0.094784 0.270501
-0.013973 -0.094302 0.269103
-0.012709 -0.094379 0.269303
-0.011373 -0.093886 0.267874
-0.010010 -0.093012 0.265361
-0.008681 -0.092257 0.263189
-0.007381 -0.091605 0.261310
-0.006141 -0.091583 0.261233
-0.004928 -0.092041 0.262525
-0.003694 -0.092305 0.263263
-0.002461 -0.092903 0.264953
-0.001210 -0.093326 0.266148
0.000052 -0.093886 0.267733
0.001335 -0.094818 0.270381
0.002639 -0.095597 0.272591
0.003940 -0.095804 0.273174
0.005250 -0.096068 0.273917
0.006580 -0.096511 0.275175
0.007859 -0.096181 0.274227
0.009117 -0.095737 0.272957
0.010358 -0.095235 0.271523
0.011525 -0.094240 0.268682
0.012721 -0.093662 0.267033
0.014022 -0.093889 0.267679
0.015332 -0.094133 0.268376
0.016656 -0.094417 0.269187
0.017939 -0.094443 0.269260
0.019283 -0.094768 0.270191
0.020539 -0.094646 0.269846
0.021774 -0.094448 0.269286
0.023103 -0.094657 0.269885
0.024340 -0.094485 0.269400
0.025437 -0.093814 0.267495
0.026289 -0.092348 0.263319
0.027443 -0.092027 0.262410
0.028602 -0.091746 0.261617
0.029762 -0.091496 0.260911
0.030965 -0.091392 0.260622
0.032155 -0.091257 0.260245
0.033371 -0.091203 0.260099
0.034743 -0.091565 0.261139
0.036142 -0.091971 0.262306
0.037330 -0.091829 0.261909
0.038472 -0.091588 0.261229
0.040107 -0.092499 0.263834
0.040977 -0.091643 0.261401
0.042713 -0.092718 0.264475
0.043654 -0.092054 0.262586
0.044808 -0.091863 0.262049
0.046136 -0.092031 0.262532
0.046731 -0.090765 0.258926
0.047958 -0.090761 0.258917
0.049452 -0.091250 0.260316
0.050525 -0.090957 0.259481
0.052069 -0.091505 0.261045
0.053346 -0.091568 0.261226
0.054573 -0.091547 0.261163
0.056066 -0.091960 0.262340
0.057880 -0.092873 0.264938
0.059524 -0.093478 0.266658
0.061183 -0.094082 0.268373
0.062820 -0.094627 0.269918
0.064465 -0.095163 0.271435
0.065814 -0.095249 0.271666
0.066934 -0.095006 0.270958
0.068495 -0.095387 0.272024
0.069785 -0.095383 0.271992
0.070636 -0.094790 0.270277
0.071097 -0.093705 0.267155
0.072221 -0.093516 0.266589
0.072610 -0.092398 0.263368
0.073112 -0.091459 0.260656
0.074505 -0.091648 0.261156
0.074947 -0.090680 0.258358
0.075877 -0.090322 0.257295
0.077141 -0.090369 0.257379
0.078649 -0.090695 0.258256
0.080923 -0.091880 0.261575
0.082452 -0.092198 0.262418
0.084002 -0.092528 0.263291
0.086280 -0.093638 0.266378
0.089109 -0.095307 0.271047
0.099610 -0.103534 0.294260
0.100910 -0.103427 0.293855
0.102679 -0.103798 0.294800
0.104131 -0.103842 0.294809
0.105227 -0.103534 0.293816
0.106745 -0.103644 0.294001
0.108148 -0.103642 0.293859
0.109748 -0.103824 0.294235
0.111146 -0.103815 0.294057
0.112598 -0.103855 0.294014
0.114200 -0.104030 0.294343
0.115606 -0.104026 0.294155
0.117149 -0.104142 0.294300
0.118800 -0.104351 0.294696
0.120416 -0.104525 0.294984
0.121986 -0.104655 0.295138
0.123350 -0.104606 0.294778
0.124935 -0.104745 0.294935
0.126444 -0.104817 0.294893
0.127882 -0.104830 0.294671
0.129417 -0.104920 0.294656
0.130948 -0.105005 0.294616
0.132493 -0.105100 0.294588
0.134149 -0.105280 0.294786
0.136144 -0.105719 0.295692
0.137851 -0.105927 0.295938
0.139239 -0.105889 0.295481
0.140955 -0.106097 0.295696
0.142555 -0.106216 0.295644
0.144062 -0.106263 0.295377
0.145613 -0.106341 0.295177
0.147258 -0.106486 0.295144
0.148687 -0.106473 0.294657
0.150115 -0.106459 0.294147
0.151576 -0.106469 0.293683
0.153007 -0.106458 0.293140
0.154486 -0.106480 0.292667
0.155721 -0.106334 0.291712
0.157059 -0.106261 0.290935
-0.124778 -0.081532 0.228567
-0.124316 -0.081959 0.230177
-0.123530 -0.082178 0.231190
-0.122302 -0.082104 0.231366
-0.121581 -0.082373 0.232490
-0.120804 -0.082609 0.233510
-0.120130 -0.082919 0.234729
-0.119391 -0.083191 0.235828
-0.118752 -0.083539 0.237130
-0.118043 -0.083844 0.238300
-0.117341 -0.084159 0.239489
-0.116651 -0.084490 0.240713
-0.115808 -0.084716 0.241628
-0.115026 -0.084992 0.242673
-0.114249 -0.085276 0.243736
-0.113172 -0.085341 0.244160
-0.112241 -0.085517 0.244894
-0.111278 -0.085674 0.245562
-0.110212 -0.085754 0.246001
-0.109246 -0.085913 0.246660
-0.108267 -0.086067 0.247292
-0.107343 -0.086268 0.248054
-0.106481 -0.086524 0.248964
-0.105681 -0.086836 0.250032
-0.104823 -0.087108 0.250973
-0.103948 -0.087371 0.251884
-0.102940 -0.087528 0.252480
-0.102011 -0.087757 0.253277
-0.101005 -0.087923 0.253887
-0.099939 -0.088042 0.254353
-0.098956 -0.088236 0.255032
-0.097913 -0.088382 0.255565
-0.096899 -0.088558 0.256178
-0.096032 -0.088876 0.257193
-0.095372 -0.089394 0.258787
-0.095606 -0.090775 0.262872
-0.096896 -0.093209 0.270004
-0.097369 -0.094911 0.275015
-0.096998 -0.095825 0.277737
-0.096757 -0.096894 0.280907
-0.096402 -0.097878 0.283825
-0.095158 -0.097974 0.284163
-0.094262 -0.098436 0.285559
-0.093067 -0.098594 0.286068
-0.092071 -0.098972 0.287210
-0.091121 -0.099411 0.288525
-0.089609 -0.099242 0.288069
-0.088769 -0.099822 0.289786
-0.087901 -0.100388 0.291459
-0.086987 -0.100920 0.293028
-0.085719 -0.101052 0.293430
-0.084330 -0.101042 0.293420
-0.083124 -0.101256 0.294053
-0.081787 -0.101314 0.294233
-0.080461 -0.101389 0.294457
-0.078983 -0.101272 0.294120
-0.077296 -0.100878 0.292975
-0.076352 -0.101456 0.294653
-0.081828 -0.110744 0.321621
-0.079433 -0.109529 0.318086
-0.078142 -0.109821 0.318921
-0.077389 -0.110894 0.322022
-0.075947 -0.111004 0.322327
-0.067213 -0.100242 0.291060
-0.066063 -0.100578 0.292017
-0.064811 -0.100771 0.292556
-0.063348 -0.100637 0.292145
-0.062046 -0.100759 0.292475
-0.060752 -0.100899 0.292856
-0.059374 -0.100904 0.292844
-0.057976 -0.100874 0.292729
-0.056609 -0.100897 0.292765
-0.055192 -0.100831 0.292545
-0.053800 -0.100808 0.292446
-0.052441 -0.100849 0.292532
-0.051020 -0.100768 0.292266
-0.049605 -0.100694 0.292018
-0.048238 -0.100717 0.292051
-0.046819 -0.100632 0.291767
-0.045448 -0.100647 0.291777
-0.044083 -0.100676 0.291826
-0.042692 -0.100647 0.291706
-0.041288 -0.100581 0.291481
-0.039639 -0.099897 0.289462
-0.040336 -0.105286 0.305041
-0.038919 -0.105354 0.305201
-0.035680 -0.100304 0.290538
-0.034051 -0.099555 0.288333
-0.032706 -0.099614 0.288468
-0.029232 -0.092908 0.269019
-0.028205 -0.093721 0.271341
-0.026468 -0.092143 0.266741
-0.025087 -0.091711 0.265462
-0.023809 -0.091625 0.265182
-0.022501 -0.091410 0.264531
-0.021343 -0.091815 0.265675
-0.020158 -0.092151 0.266621
-0.018895 -0.092145 0.266578
-0.017825 -0.093155 0.269473
-0.016702 -0.094015 0.271935
-0.015423 -0.094073 0.272078
-0.014071 -0.093652 0.270837
-0.012780 -0.093598 0.270659
-0.011453 -0.093233 0.269583
-0.010068 -0.092251 0.266723
-0.008731 -0.091491 0.264506
-0.007397 -0.090516 0.261669
-0.006143 -0.090316 0.261074
-0.004919 -0.090566 0.261780
-0.003685 -0.090760 0.262327
-0.002451 -0.091111 0.263328
-0.001208 -0.091577 0.264662
0.000048 -0.092133 0.266257
0.001309 -0.091992 0.265839
0.002589 -0.092683 0.267829
0.003940 -0.094603 0.273367
0.005185 -0.093655 0.270619
0.006438 -0.093207 0.269319
0.007859 -0.094937 0.274312
0.009073 -0.094025 0.271675
0.010240 -0.092917 0.268468
0.011458 -0.092459 0.267143
0.012684 -0.092155 0.266265
0.013846 -0.091478 0.264307
0.015098 -0.091464 0.264270
0.016463 -0.092079 0.266047
0.017482 -0.090812 0.262388
0.018823 -0.091276 0.263734
0.020270 -0.092161 0.266294
0.021668 -0.092733 0.267952
0.022962 -0.092824 0.268220
0.024143 -0.092468 0.267199
0.025383 -0.092364 0.266906
0.026476 -0.091761 0.265171
0.027502 -0.090987 0.262942
0.028592 -0.090485 0.261500
0.029856 -0.090556 0.261712
0.030942 -0.090098 0.260400
0.032104 -0.089891 0.259809
0.033431 -0.090142 0.260544
0.034745 -0.090342 0.261133
0.036029 -0.090451 0.261458
0.037333 -0.090603 0.261907
0.038681 -0.090848 0.262625
0.040039 -0.091101 0.263367
0.041364 -0.091265 0.263850
0.042778 -0.091611 0.264857
0.043862 -0.091250 0.263824
0.044928 -0.090872 0.262739
0.046117 -0.090757 0.262415
0.047159 -0.090367 0.261292
0.048055 -0.089722 0.259433
0.049473 -0.090061 0.260419
0.050706 -0.090055 0.260406
0.052137 -0.090392 0.261384
0.053620 -0.090800 0.262567
0.054893 -0.090843 0.262693
0.056397 -0.091259 0.263895
0.058071 -0.091925 0.265820
0.059637 -0.092394 0.267172
0.061393 -0.093134 0.269306
0.062989 -0.093605 0.270660
0.064404 -0.093792 0.271194
0.066031 -0.094277 0.272583
0.067325 -0.094274 0.272562
0.068595 -0.094240 0.272447
0.069817 -0.094142 0.272145
0.071125 -0.094161 0.272180
0.071870 -0.093448 0.270095
0.072746 -0.092926 0.268562
0.074366 -0.093357 0.269777
0.074800 -0.092310 0.266719
0.074909 -0.090904 0.262621
0.076013 -0.090730 0.262081
0.076580 -0.089932 0.259735
0.078215 -0.090392 0.261020
0.078781 -0.089623 0.258749
0.081449 -0.091232 0.263341
0.082833 -0.091376 0.263699
0.083425 -0.090654 0.261555
0.086351 -0.092452 0.266674
0.089477 -0.094410 0.272249
0.098264 -0.102199 0.294623
0.099564 -0.102091 0.294223
0.100809 -0.101931 0.293664
0.102469 -0.102189 0.294305
0.103896 -0.102211 0.294258
0.105086 -0.102002 0.293542
0.106615 -0.102123 0.293768
0.108025 -0.102128 0.293653
0.109442 -0.102139 0.293548
0.110960 -0.102244 0.293706
0.112424 -0.102296 0.293704
0.113983 -0.102433 0.293937
0.115391 -0.102432 0.293764
0.117013 -0.102618 0.294121
0.118750 -0.102901 0.294743
0.120507 -0.103193 0.295384
0.122037 -0.103286 0.295443
0.123421 -0.103255 0.295137
0.124846 -0.103259 0.294921
0.126415 -0.103380 0.295028
0.127814 -0.103361 0.294725
0.129148 -0.103290 0.294263
0.130709 -0.103400 0.294303
0.132144 -0.103410 0.294045
0.133914 -0.103678 0.294509
0.135909 -0.104113 0.295433
0.137514 -0.104243 0.295474
0.138985 -0.104270 0.295208
0.140628 -0.104424 0.295287
0.142348 -0.104631 0.295500
0.143907 -0.104717 0.295353
0.145483 -0.104814 0.295219
0.147149 -0.104972 0.295241
0.148579 -0.104961 0.294767
0.150197 -0.105081 0.294642
0.151607 -0.105055 0.294088
0.153065 -0.105062 0.293608
0.154621 -0.105135 0.293291
0.155965 -0.105065 0.292551
0.157365 -0.105032 0.291893
-0.124581 -0.080284 0.228474
-0.123877 -0.080546 0.229625
-0.123358 -0.080935 0.231123
-0.122048 -0.080807 0.231131
-0.121234 -0.081009 0.232066
-0.120544 -0.081298 0.233240
-0.119781 -0.081542 0.234275
-0.119024 -0.081796 0.235323
-0.118236 -0.082033 0.236313
-0.117464 -0.082285 0.237337
-0.116721 -0.082564 0.238426
-0.116052 -0.082901 0.239672
-0.115179 -0.083097 0.240503
-0.114294 -0.083290 0.241312
-0.113475 -0.083534 0.242262
-0.112623 -0.083759 0.243147
-0.111680 -0.083921 0.243839
-0.110764 -0.084106 0.244589
-0.109800 -0.084258 0.245236
-0.108722 -0.084326 0.245627
-0.107943 -0.084629 0.246697
-0.106991 -0.084803 0.247380
-0.105812 -0.084798 0.247535
-0.105365 -0.085386 0.249414
-0.104426 -0.085585 0.250147
-0.103533 -0.085826 0.250999
-0.102739 -0.086156 0.252102
-0.101784 -0.086357 0.252824
-0.100804 -0.086542 0.253490
-0.099834 -0.086739 0.254187
-0.098891 -0.086966 0.254964
-0.097914 -0.087168 0.255662
-0.096996 -0.087429 0.256525
-0.096009 -0.087632 0.257215
-0.095064 -0.087880 0.258032
-0.094549 -0.088537 0.260044
-0.094116 -0.089290 0.262331
-0.097812 -0.094032 0.276339
-0.096841 -0.094354 0.277357
-0.096253 -0.095064 0.279509
-0.095356 -0.095485 0.280806
-0.095425 -0.096897 0.285016
-0.094231 -0.097050 0.285518
-0.092578 -0.096728 0.284615
-0.091513 -0.097019 0.285513
-0.089623 -0.096432 0.283822
-0.088898 -0.097099 0.285818
-0.087920 -0.097507 0.287048
-0.088085 -0.099215 0.292100
-0.087121 -0.099685 0.293505
-0.085818 -0.099776 0.293787
-0.084519 -0.099875 0.294094
-0.083177 -0.099927 0.294255
-0.081855 -0.100003 0.294486
-0.080536 -0.100087 0.294735
-0.079192 -0.100141 0.294896
-0.077767 -0.100094 0.294754
-0.076459 -0.100199 0.295056
-0.075148 -0.100304 0.295356
-0.079759 -0.108466 0.319379
-0.078336 -0.108578 0.319693
-0.077595 -0.109658 0.322857
-0.076151 -0.109769 0.323163
-0.067478 -0.099251 0.292178
-0.066127 -0.099289 0.292269
-0.064812 -0.099385 0.292528
-0.063435 -0.099387 0.292508
-0.062097 -0.099452 0.292671
-0.060676 -0.099385 0.292447
-0.059411 -0.099575 0.292977
-0.057997 -0.099519 0.292782
-0.056582 -0.099458 0.292570
-0.055240 -0.099528 0.292743
-0.053853 -0.099516 0.292673
-0.052498 -0.099565 0.292782
-0.051057 -0.099449 0.292406
-0.049671 -0.099438 0.292338
-0.048280 -0.099415 0.292233
-0.046835 -0.099278 0.291793
-0.045411 -0.099177 0.291459
-0.044073 -0.099263 0.291677
-0.042656 -0.099173 0.291373
-0.041251 -0.099104 0.291132
-0.039563 -0.098329 0.288819
-0.040637 -0.104607 0.307221
-0.039211 -0.104675 0.307383
-0.035290 -0.097836 0.287261
-0.033601 -0.096882 0.284425
-0.030768 -0.092412 0.271269
-0.028963 -0.090777 0.266436
-0.027817 -0.091152 0.267504
-0.026335 -0.090410 0.265297
-0.024874 -0.089669 0.263090
-0.023574 -0.089463 0.262455
-0.022305 -0.089356 0.262114
-0.021173 -0.089819 0.263441
-0.019984 -0.090083 0.264190
-0.018826 -0.090534 0.265484
-0.017834 -0.091902 0.269468
-0.016686 -0.092617 0.271539
-0.015358 -0.092369 0.270787
-0.014090 -0.092467 0.271049
-0.012765 -0.092178 0.270178
-0.011421 -0.091667 0.268659
-0.010081 -0.091071 0.266890
-0.008721 -0.090096 0.264014
-0.007413 -0.089419 0.262014
-0.006173 -0.089462 0.262120
-0.004936 -0.089569 0.262419
-0.003702 -0.089831 0.263171
-0.002463 -0.090176 0.264170
-0.001219 -0.090843 0.266109
0.000044 -0.091199 0.267142
0.001311 -0.091111 0.266873
0.002588 -0.091500 0.268002
0.003887 -0.092127 0.269829
0.005153 -0.091866 0.269060
0.006423 -0.091765 0.268759
0.007606 -0.090659 0.265512
0.008664 -0.088594 0.259463
0.009968 -0.089237 0.261344
0.011169 -0.088922 0.260418
0.012353 -0.088544 0.259313
0.013650 -0.088972 0.260564
0.014884 -0.088954 0.260513
0.016258 -0.089708 0.262725
0.017502 -0.089693 0.262684
0.018713 -0.089517 0.262174
0.020188 -0.090549 0.265201
0.021615 -0.091255 0.267275
0.022892 -0.091286 0.267373
0.023986 -0.090621 0.265432
0.025305 -0.090830 0.266052
0.026475 -0.090512 0.265131
0.027479 -0.089677 0.262692
0.028601 -0.089286 0.261558
0.029829 -0.089243 0.261442
0.030958 -0.088919 0.260503
0.032144 -0.088779 0.260105
0.033497 -0.089092 0.261033
0.034799 -0.089251 0.261508
0.036114 -0.089432 0.262052
0.037336 -0.089378 0.261906
0.038858 -0.090023 0.263807
0.040112 -0.090024 0.263820
0.041248 -0.089771 0.263090
0.042631 -0.090052 0.263925
0.043720 -0.089716 0.262951
0.044901 -0.089580 0.262564
0.046336 -0.089945 0.263644
0.047128 -0.089076 0.261106
0.048505 -0.089327 0.261850
0.049152 -0.088257 0.258720
0.050533 -0.088523 0.259506
0.052031 -0.088976 0.260842
0.053310 -0.089045 0.261048
0.054767 -0.089399 0.262089
0.056299 -0.089857 0.263436
0.057777 -0.090211 0.264474
0.059569 -0.091030 0.266875
0.061422 -0.091906 0.269439
0.063148 -0.092559 0.271351
0.064614 -0.092813 0.272090
0.066109 -0.093099 0.272918
0.067464 -0.093179 0.273145
0.068578 -0.092930 0.272401
0.069869 -0.092925 0.272372
0.070692 -0.092310 0.270550
0.071614 -0.091844 0.269164
0.072637 -0.091520 0.268193
0.073693 -0.091250 0.267375
0.074252 -0.090383 0.264806
0.074621 -0.089317 0.261652
0.075809 -0.089250 0.261421
0.076913 -0.089089 0.260913
0.078048 -0.088967 0.260514
0.079441 -0.089139 0.260973
0.080777 -0.089243 0.261228
0.082663 -0.089942 0.263219
0.083173 -0.089146 0.260832
0.085013 -0.089776 0.262613
0.089576 -0.093223 0.272626
0.097500 -0.098609 0.288215
0.101004 -0.100732 0.294329
0.102350 -0.100675 0.294065
0.103816 -0.100736 0.294139
0.105166 -0.100684 0.293875
0.106536 -0.100652 0.293666
0.108023 -0.100730 0.293769
0.109476 -0.100775 0.293769
0.110957 -0.100844 0.293831
0.112511 -0.100976 0.294070
0.114066 -0.101106 0.294295
0.115576 -0.101194 0.294385
0.117266 -0.101435 0.294916
0.118814 -0.101549 0.295064
0.120352 -0.101651 0.295171
0.121815 -0.101689 0.295080
0.123302 -0.101746 0.295036
0.124893 -0.101885 0.295219
0.126258 -0.101840 0.294857
0.127793 -0.101931 0.294879
0.129298 -0.101997 0.294814
0.130679 -0.101963 0.294452
0.132356 -0.102159 0.294740
0.133919 -0.102265 0.294753
0.135577 -0.102439 0.294950
0.137117 -0.102521 0.294868
0.138525 -0.102504 0.294487
0.140166 -0.102658 0.294582
0.141952 -0.102914 0.294953
0.143682 -0.103124 0.295174
0.145417 -0.103334 0.295379
0.146882 -0.103349 0.295007
0.148586 -0.103531 0.295094
0.150157 -0.103617 0.294888
0.151620 -0.103628 0.294449
0.153201 -0.103718 0.294215
0.154539 -0.103643 0.293491
0.155951 -0.103619 0.292890
0.157400 -0.103620 0.292339
-0.124375 -0.079034 0.228356
-0.123634 -0.079268 0.229427
-0.123165 -0.079682 0.231006
-0.121886 -0.079575 0.231061
-0.121079 -0.079777 0.231999
-0.120366 -0.080046 0.233118
-0.119546 -0.080248 0.234031
-0.118866 -0.080549 0.235222
-0.118124 -0.080813 0.236294
-0.117338 -0.081052 0.237282
-0.116590 -0.081322 0.238350
-0.115791 -0.081562 0.239321
-0.114880 -0.081727 0.240061
-0.114009 -0.081924 0.240885
-0.113068 -0.082074 0.241563
-0.112116 -0.082220 0.242217
-0.111210 -0.082403 0.242971
-0.110201 -0.082512 0.243500
-0.109252 -0.082670 0.244162
-0.108340 -0.082859 0.244908
-0.107483 -0.083094 0.245785
-0.106577 -0.083297 0.246555
-0.105808 -0.083613 0.247654
-0.105146 -0.084021 0.249020
-0.104180 -0.084193 0.249677
-0.103514 -0.084614 0.251068
-0.102538 -0.084789 0.251721
-0.101536 -0.084946 0.252315
-0.100432 -0.085020 0.252656
-0.099475 -0.085223 0.253372
-0.098594 -0.085497 0.254292
-0.097280 -0.085397 0.254095
-0.096450 -0.085724 0.255165
-0.096133 -0.086522 0.257629
-0.095424 -0.086984 0.259087
-0.094792 -0.087527 0.260785
-0.094498 -0.088402 0.263464
-0.095573 -0.090598 0.270079
-0.096133 -0.092359 0.275393
-0.095239 -0.092751 0.276623
-0.094446 -0.093254 0.278179
-0.093256 -0.093374 0.278589
-0.093983 -0.095445 0.284814
-0.091725 -0.094500 0.282033
-0.090785 -0.094905 0.283281
-0.089622 -0.095086 0.283852
-0.088353 -0.095158 0.284098
-0.087431 -0.095613 0.285478
-0.086296 -0.095843 0.286187
-0.086805 -0.097937 0.292456
-0.085462 -0.097977 0.292587
-0.084050 -0.097935 0.292473
-0.082944 -0.098256 0.293436
-0.081621 -0.098326 0.293649
-0.080193 -0.098270 0.293480
-0.078907 -0.098389 0.293830
-0.077581 -0.098462 0.294042
-0.076104 -0.098342 0.293674
-0.074812 -0.098462 0.294022
-0.080035 -0.107322 0.320462
-0.078608 -0.107434 0.320778
-0.077206 -0.107586 0.321212
-0.075771 -0.107696 0.321517
-0.067325 -0.097644 0.291485
-0.066064 -0.097810 0.291955
-0.064784 -0.097955 0.292363
-0.063412 -0.097964 0.292361
-0.062085 -0.098044 0.292569
-0.060740 -0.098100 0.292706
-0.059377 -0.098128 0.292758
-0.057986 -0.098111 0.292672
-0.056578 -0.098062 0.292491
-0.055222 -0.098104 0.292583
-0.053823 -0.098071 0.292446
-0.052438 -0.098061 0.292379
-0.051068 -0.098081 0.292402
-0.049674 -0.098053 0.292281
-0.048242 -0.097948 0.291929
-0.046831 -0.097881 0.291689
-0.045441 -0.097853 0.291567
-0.044108 -0.097953 0.291825
-0.042705 -0.097896 0.291617
-0.041204 -0.097605 0.290709
-0.039441 -0.096652 0.287833
-0.041072 -0.104245 0.310403
-0.039631 -0.104314 0.310568
-0.035803 -0.097866 0.291331
-0.033686 -0.095765 0.285039
-0.030681 -0.090860 0.270405
-0.029168 -0.090138 0.268221
-0.028075 -0.090707 0.269882
-0.026386 -0.089315 0.265707
-0.024964 -0.088731 0.263938
-0.023683 -0.088614 0.263557
-0.022436 -0.088618 0.263537
-0.021217 -0.088741 0.263873
-0.020049 -0.089103 0.264921
-0.018891 -0.089564 0.266265
-0.017815 -0.090508 0.269042
-0.016687 -0.091314 0.271412
-0.015371 -0.091140 0.270869
-0.014074 -0.091051 0.270577
-0.012754 -0.090792 0.269784
-0.011403 -0.090222 0.268069
-0.010035 -0.089363 0.265497
-0.008728 -0.088879 0.264038
-0.007428 -0.088308 0.262322
-0.006165 -0.088040 0.261508
-0.004938 -0.088298 0.262258
-0.003717 -0.088844 0.263866
-0.002485 -0.089575 0.266023
-0.001232 -0.090264 0.268057
0.000041 -0.090981 0.270174
0.001323 -0.090978 0.270152
0.002629 -0.091772 0.272502
0.003942 -0.092235 0.273867
0.005228 -0.091980 0.273106
0.006548 -0.092303 0.274058
0.007527 -0.088513 0.262802
0.008680 -0.087562 0.259975
0.009949 -0.087859 0.260853
0.011177 -0.087773 0.260597
0.012381 -0.087535 0.259891
0.013650 -0.087763 0.260569
0.014928 -0.087999 0.261272
0.016254 -0.088462 0.262650
0.017537 -0.088638 0.263177
0.018829 -0.088837 0.263773
0.020205 -0.089379 0.265389
0.021652 -0.090156 0.267703
0.022900 -0.090062 0.267431
0.024044 -0.089591 0.266042
0.025295 -0.089546 0.265916
0.026494 -0.089328 0.265280
0.027540 -0.088639 0.263243
0.028621 -0.088118 0.261709
0.029792 -0.087904 0.261086
0.030916 -0.087575 0.260118
0.032169 -0.087623 0.260274
0.033454 -0.087751 0.260666
0.034760 -0.087920 0.261182
0.036064 -0.088075 0.261657
0.037458 -0.088432 0.262731
0.038863 -0.088792 0.263812
0.040407 -0.089435 0.265738
0.041456 -0.088977 0.264391
0.042590 -0.088723 0.263647
0.044087 -0.089218 0.265131
0.044810 -0.088163 0.262010
0.046400 -0.088823 0.263983
0.047548 -0.088626 0.263409
0.048227 -0.087587 0.260331
0.049632 -0.087886 0.261230
0.050813 -0.087782 0.260931
0.052227 -0.088076 0.261814
0.053980 -0.088916 0.264317
0.055268 -0.088969 0.264479
0.056633 -0.089140 0.264995
0.058396 -0.089916 0.267306
0.059874 -0.090229 0.268238
0.061510 -0.090764 0.269829
0.063307 -0.091509 0.272042
0.064720 -0.091680 0.272546
0.066203 -0.091940 0.273316
0.067569 -0.092032 0.273582
0.068941 -0.092129 0.273861
0.070087 -0.091926 0.273244
0.071470 -0.092034 0.273553
0.072546 -0.091750 0.272692
0.073253 -0.091018 0.270497
0.073979 -0.090335 0.268443
0.074846 -0.089843 0.266956
0.075379 -0.088975 0.264349
0.076258 -0.088535 0.263011
0.077810 -0.088879 0.263997
0.078136 -0.087834 0.260855
0.079277 -0.087722 0.260483
0.080862 -0.088100 0.261558
0.082370 -0.088381 0.262345
0.083300 -0.088044 0.261289
0.085337 -0.088870 0.263682
0.099767 -0.099503 0.295003
0.100886 -0.099220 0.294076
0.102363 -0.099292 0.294197
0.103794 -0.099319 0.294177
0.105106 -0.099231 0.293813
0.106480 -0.099205 0.293621
0.107863 -0.099186 0.293449
0.109274 -0.099194 0.293346
0.110665 -0.099184 0.293183
0.112055 -0.099173 0.293009
0.113524 -0.099231 0.293032
0.114977 -0.099274 0.293002
0.116685 -0.099533 0.293603
0.118377 -0.099773 0.294134
0.120310 -0.100207 0.295231
0.121750 -0.100226 0.295090
0.123167 -0.100226 0.294886
0.124604 -0.100241 0.294717
0.126064 -0.100274 0.294589
0.127499 -0.100287 0.294393
0.128893 -0.100267 0.294089
0.130326 -0.100278 0.293863
0.132112 -0.100558 0.294412
0.133752 -0.100721 0.294606
0.135475 -0.100942 0.294957
0.137091 -0.101081 0.295051
0.138525 -0.101083 0.294733
0.140004 -0.101118 0.294496
0.141903 -0.101452 0.295113
0.143441 -0.101524 0.294952
0.145094 -0.101675 0.295004
0.146754 -0.101828 0.295043
0.148335 -0.101923 0.294897
0.149959 -0.102046 0.294812
0.151583 -0.102166 0.294699
0.152992 -0.102141 0.294145
0.154405 -0.102118 0.293580
0.155946 -0.102180 0.293237
0.157434 -0.102206 0.292768
-0.124294 -0.077867 0.228458
-0.123500 -0.078063 0.229422
-0.122880 -0.078375 0.230709
-0.121662 -0.078306 0.230865
-0.120811 -0.078476 0.231709
-0.120020 -0.078688 0.232664
-0.119238 -0.078910 0.233637
-0.118492 -0.079160 0.234684
-0.117738 -0.079411 0.235720
-0.116916 -0.079619 0.236619
-0.116089 -0.079828 0.237513
-0.115214 -0.080009 0.238309
-0.114370 -0.080214 0.239169
-0.113456 -0.080374 0.239886
-0.112585 -0.080569 0.240695
-0.111621 -0.080700 0.241305
-0.110703 -0.080868 0.242016
-0.109947 -0.081159 0.243086
-0.109044 -0.081346 0.243839
-0.108070 -0.081484 0.244434
-0.107184 -0.081692 0.245233
-0.106503 -0.082063 0.246512
-0.105620 -0.082285 0.247337
-0.104769 -0.082537 0.248246
-0.103975 -0.082840 0.249301
-0.103287 -0.083236 0.250628
-0.102354 -0.083440 0.251374
-0.101490 -0.083707 0.252300
-0.100441 -0.083827 0.252776
-0.099554 -0.084086 0.253666
-0.098649 -0.084335 0.254521
-0.097562 -0.084433 0.254913
-0.096822 -0.084838 0.256228
-0.095932 -0.085121 0.257165
-0.095040 -0.085408 0.258114
-0.094574 -0.086091 0.260251
-0.094365 -0.087029 0.263156
-0.094521 -0.088334 0.267166
-0.094253 -0.089272 0.270062
-0.094328 -0.090565 0.274031
-0.092831 -0.090364 0.273473
-0.092025 -0.090839 0.274955
-0.091240 -0.091349 0.276541
-0.094105 -0.095581 0.289391
-0.090630 -0.093403 0.282831
-0.089636 -0.093756 0.283926
-0.088402 -0.093864 0.284279
-0.087421 -0.094249 0.285466
-0.086359 -0.094557 0.286414
-0.086129 -0.095800 0.290194
-0.085004 -0.096072 0.291027
-0.084019 -0.096514 0.292371
-0.082854 -0.096760 0.293119
-0.081515 -0.096809 0.293265
-0.080229 -0.096922 0.293605
-0.078950 -0.097049 0.293983
-0.077637 -0.097139 0.294243
-0.075524 -0.096212 0.291423
-0.074382 -0.096510 0.292311
-0.080054 -0.105828 0.320515
-0.078628 -0.105940 0.320831
-0.077474 -0.106431 0.322294
-0.076035 -0.106541 0.322600
-0.067292 -0.096214 0.291304
-0.066014 -0.096351 0.291693
-0.064698 -0.096440 0.291931
-0.063363 -0.096502 0.292089
-0.062005 -0.096531 0.292143
-0.060639 -0.096549 0.292163
-0.059296 -0.096606 0.292300
-0.057917 -0.096605 0.292261
-0.056540 -0.096608 0.292233
-0.055179 -0.096639 0.292291
-0.053830 -0.096693 0.292415
-0.052457 -0.096706 0.292415
-0.051077 -0.096706 0.292374
-0.049653 -0.096621 0.292077
-0.048226 -0.096526 0.291749
-0.046818 -0.096464 0.291520
-0.045407 -0.096393 0.291264
-0.044023 -0.096376 0.291170
-0.042629 -0.096334 0.291004
-0.041252 -0.096331 0.290953
-0.039789 -0.096121 0.290277
-0.040634 -0.101668 0.306985
-0.039208 -0.101736 0.307148
-0.035790 -0.096440 0.291117
-0.033905 -0.095019 0.286788
-0.032568 -0.095077 0.286924
-0.029108 -0.088673 0.267563
-0.028067 -0.089390 0.269691
-0.026477 -0.088345 0.266505
-0.025100 -0.087944 0.265262
-0.023771 -0.087676 0.264420
-0.022541 -0.087761 0.264645
-0.021251 -0.087613 0.264165
-0.019998 -0.087609 0.264125
-0.018885 -0.088256 0.266044
-0.017873 -0.089502 0.269772
-0.016714 -0.090150 0.271697
-0.015425 -0.090145 0.271656
-0.014131 -0.090112 0.271531
-0.012815 -0.089908 0.270893
-0.011491 -0.089611 0.269973
-0.010103 -0.088669 0.267114
-0.008777 -0.088079 0.265316
-0.007467 -0.087482 0.263500
-0.006205 -0.087311 0.262966
-0.004970 -0.087548 0.263661
-0.003735 -0.087933 0.264808
-0.002495 -0.088526 0.266577
-0.001239 -0.089211 0.268627
0.000037 -0.089773 0.270308
0.001322 -0.089863 0.270569
0.002601 -0.089646 0.269907
0.003906 -0.090199 0.271562
0.005247 -0.091087 0.274231
0.006469 -0.089967 0.270853
0.007596 -0.088113 0.265267
0.008811 -0.087660 0.263900
0.010058 -0.087604 0.263731
0.011233 -0.087000 0.261911
0.012479 -0.087010 0.261941
0.013682 -0.086747 0.261152
0.014914 -0.086695 0.260998
0.016242 -0.087171 0.262434
0.017490 -0.087174 0.262450
0.018751 -0.087237 0.262644
0.020094 -0.087654 0.263908
0.021462 -0.088119 0.265317
0.022823 -0.088507 0.266494
0.023955 -0.088017 0.265028
0.025279 -0.088242 0.265715
0.026470 -0.088004 0.265009
0.027535 -0.087386 0.263162
0.028747 -0.087269 0.262823
0.029884 -0.086944 0.261858
0.031093 -0.086846 0.261576
0.032280 -0.086695 0.261135
0.033608 -0.086920 0.261827
0.034935 -0.087126 0.262462
0.036226 -0.087234 0.262801
0.037579 -0.087476 0.263546
0.038955 -0.087755 0.264402
0.040521 -0.088430 0.266452
0.041614 -0.088065 0.265368
0.042831 -0.087976 0.265113
0.044191 -0.088176 0.265732
0.045429 -0.088127 0.265599
0.046529 -0.087822 0.264695
0.047701 -0.087665 0.264235
0.048827 -0.087433 0.263550
0.049935 -0.087182 0.262804
0.051103 -0.087045 0.262404
0.052649 -0.087543 0.263917
0.053835 -0.087434 0.263595
0.055218 -0.087640 0.264227
0.056774 -0.088107 0.265642
0.058349 -0.088582 0.267082
0.059848 -0.088924 0.268118
0.061576 -0.089585 0.270114
0.063156 -0.090008 0.271391
0.064663 -0.090313 0.272309
0.066044 -0.090431 0.272665
0.067431 -0.090555 0.273033
0.068810 -0.090663 0.273352
0.070069 -0.090611 0.273189
0.071517 -0.090801 0.273749
0.072616 -0.090549 0.272975
0.073564 -0.090121 0.271670
0.074570 -0.089777 0.270615
0.075174 -0.088970 0.268158
0.075865 -0.088290 0.266084
0.076987 -0.088126 0.265562
0.077261 -0.087012 0.262175
0.078270 -0.086748 0.261346
0.079329 -0.086547 0.260702
0.080433 -0.086401 0.260218
0.082495 -0.087271 0.262795
0.083355 -0.086865 0.261520
0.084602 -0.086866 0.261470
0.086876 -0.087907 0.264545
0.098790 -0.097144 0.292195
0.100766 -0.097709 0.293812
0.102189 -0.097731 0.293789
0.103712 -0.097845 0.294039
0.105083 -0.097816 0.293850
0.106376 -0.097715 0.293440
0.107837 -0.097769 0.293488
0.109295 -0.097819 0.293519
0.110767 -0.097880 0.293574
0.112111 -0.097828 0.293281
0.113608 -0.097908 0.293379
0.115233 -0.098096 0.293790
0.117010 -0.098408 0.294562
0.118526 -0.098494 0.294651
0.120091 -0.098619 0.294846
0.121543 -0.098649 0.294749
0.123097 -0.098760 0.294884
0.124417 -0.098683 0.294447
0.125777 -0.098639 0.294098
0.127252 -0.098686 0.294008
0.128654 -0.098675 0.293736
0.130190 -0.098766 0.293757
0.131715 -0.098846 0.293734
0.133147 -0.098856 0.293488
0.134892 -0.099095 0.293909
0.136502 -0.099232 0.294013
0.137929 -0.099233 0.293701
0.139532 -0.099360 0.293747
0.141333 -0.099624 0.294183
0.143187 -0.099920 0.294694
0.144840 -0.100070 0.294759
0.146523 -0.100238 0.294860
0.148122 -0.100346 0.294763
0.149724 -0.100454 0.294650
0.151354 -0.100578 0.294564
0.152781 -0.100566 0.294061
0.154292 -0.100609 0.293697
0.155816 -0.100659 0.293334
0.157519 -0.100823 0.293280
-0.124110 -0.076637 0.228362
-0.123490 -0.076938 0.229638
-0.122707 -0.077142 0.230611
-0.121370 -0.076999 0.230533
-0.120603 -0.077218 0.231524
-0.119769 -0.077398 0.232385
-0.118920 -0.077572 0.233216
-0.118125 -0.077785 0.234154
-0.117362 -0.078022 0.235155
-0.116533 -0.078221 0.236029
-0.115623 -0.078368 0.236737
-0.114853 -0.078615 0.237734
-0.113938 -0.078766 0.238434
-0.112979 -0.078890 0.239039
-0.112088 -0.079063 0.239788
-0.111127 -0.079191 0.240387
-0.110352 -0.079456 0.241394
-0.109410 -0.079605 0.242040
-0.108645 -0.079887 0.243082
-0.107796 -0.080112 0.243946
-0.106855 -0.080274 0.244607
-0.106079 -0.080565 0.245653
-0.105135 -0.080733 0.246319
-0.104226 -0.080932 0.247070
-0.103444 -0.081235 0.248135
-0.102691 -0.081569 0.249285
-0.101998 -0.081959 0.250600
-0.101058 -0.082156 0.251322
-0.100280 -0.082492 0.252461
-0.099354 -0.082713 0.253242
-0.098368 -0.082889 0.253878
-0.097508 -0.083177 0.254852
-0.096570 -0.083404 0.255634
-0.095741 -0.083733 0.256723
-0.094794 -0.083966 0.257512
-0.093998 -0.084341 0.258731
-0.093734 -0.085208 0.261457
-0.093907 -0.086501 0.265485
-0.094093 -0.087842 0.269657
-0.093781 -0.088748 0.272490
-0.092921 -0.089154 0.273783
-0.091825 -0.089342 0.274399
-0.091013 -0.089815 0.275891
-0.090727 -0.090828 0.279037
-0.091148 -0.092589 0.284475
-0.089508 -0.092279 0.283546
-0.088431 -0.092548 0.284394
-0.087445 -0.092923 0.285562
-0.086282 -0.093118 0.286175
-0.085274 -0.093489 0.287323
-0.084666 -0.094318 0.289878
-0.083703 -0.094772 0.291275
-0.082679 -0.095171 0.292500
-0.081331 -0.095205 0.292599
-0.080076 -0.095350 0.293038
-0.078778 -0.095448 0.293329
-0.077554 -0.095642 0.293912
-0.075989 -0.095414 0.293196
-0.074173 -0.094857 0.291466
-0.079697 -0.103844 0.319055
-0.078278 -0.103955 0.319371
-0.076966 -0.104214 0.320141
-0.075536 -0.104323 0.320446
-0.067374 -0.094948 0.291619
-0.066101 -0.095093 0.292034
-0.064757 -0.095141 0.292149
-0.063365 -0.095119 0.292048
-0.062008 -0.095149 0.292103
