ply
format ascii 1.0
element vertex 1745
property float x
property float y
property float z
end_header
0.099061 0.024826 0.289190
0.100532 0.024849 0.289520
0.101845 0.024832 0.289391
0.103673 0.024939 0.290704
0.104972 0.024918 0.290516
0.106242 0.024891 0.290253
0.107838 0.024940 0.290870
0.109362 0.024971 0.291276
0.110663 0.024951 0.291081
0.112043 0.024949 0.291092
0.113441 0.024951 0.291143
0.114910 0.024969 0.291368
0.116178 0.024943 0.291078
0.117512 0.024931 0.290952
0.118961 0.024944 0.291102
0.120350 0.024944 0.291097
0.122008 0.024999 0.291730
0.123334 0.024985 0.291556
0.124654 0.024971 0.291364
0.126221 0.025006 0.291737
0.127593 0.025002 0.291646
0.129000 0.025004 0.291629
0.130111 0.024950 0.290941
0.131469 0.024944 0.290804
0.133401 0.025046 0.291914
0.134764 0.025039 0.291757
0.136276 0.025061 0.291914
0.137726 0.025070 0.291922
0.139184 0.025081 0.291935
0.140741 0.025109 0.292139
0.142305 0.025138 0.292339
0.143665 0.025131 0.292108
0.144764 0.025078 0.291340
0.146194 0.025083 0.291233
0.147639 0.025091 0.291141
0.148801 0.025051 0.290482
0.151465 0.025262 0.292722
0.152442 0.025190 0.291671
-0.047595 0.008485 0.094154
-0.047221 0.008498 0.094341
-0.046660 0.008477 0.094150
-0.046565 0.008541 0.094902
-0.044492 0.009642 0.107418
-0.043430 0.009520 0.106052
-0.043888 0.009732 0.108406
-0.045486 0.010205 0.113661
-0.045697 0.010374 0.115531
-0.046364 0.010653 0.118612
-0.045989 0.010695 0.119065
-0.045473 0.010705 0.119160
-0.045214 0.010777 0.119936
-0.045137 0.010895 0.121219
-0.044706 0.010929 0.121569
-0.045234 0.011202 0.124569
-0.044930 0.011272 0.125324
-0.044758 0.011379 0.126472
-0.044812 0.011546 0.128296
-0.044759 0.011691 0.129858
-0.044474 0.011777 0.130778
-0.045922 0.012332 0.136890
-0.045785 0.012470 0.138379
-0.046260 0.012782 0.141787
-0.046280 0.012975 0.143878
-0.046307 0.013176 0.146052
-0.046353 0.013389 0.148349
-0.046417 0.013613 0.150776
-0.046682 0.013905 0.153942
-0.046512 0.014073 0.155746
-0.046589 0.014324 0.158450
-0.046721 0.014599 0.161428
-0.047165 0.014983 0.165601
-0.047406 0.015315 0.169187
-0.048049 0.015790 0.174356
-0.048367 0.016172 0.178500
-0.048432 0.016483 0.181841
-0.048025 0.016641 0.183500
-0.047749 0.016851 0.185733
-0.047928 0.017233 0.189848
-0.047903 0.017555 0.193303
-0.047898 0.017896 0.196967
-0.047652 0.018160 0.199773
-0.047520 0.018478 0.203179
-0.047428 0.018826 0.206904
-0.047605 0.019297 0.211981
-0.047821 0.019805 0.217457
-0.047742 0.020211 0.221808
-0.047559 0.020590 0.225856
-0.047389 0.020993 0.230165
-0.046950 0.021292 0.233334
-0.046589 0.021643 0.237063
-0.046030 0.021917 0.239949
-0.045672 0.022302 0.244056
-0.045194 0.022649 0.247731
-0.044616 0.022962 0.251041
-0.043837 0.023186 0.253377
-0.042962 0.023371 0.255277
-0.042177 0.023617 0.257851
-0.041282 0.023814 0.259894
-0.040461 0.024068 0.262554
-0.039338 0.024153 0.263364
-0.038476 0.024409 0.266044
-0.037895 0.024867 0.270927
-0.036550 0.024839 0.270507
-0.035216 0.024816 0.270153
-0.033949 0.024840 0.270313
-0.031074 0.023643 0.257188
-0.029899 0.023694 0.257649
-0.028662 0.023698 0.257601
-0.027439 0.023714 0.257685
-0.026231 0.023746 0.257942
-0.025034 0.023791 0.258350
-0.023787 0.023791 0.258270
-0.022595 0.023849 0.258825
-0.021359 0.023865 0.258923
-0.020292 0.024083 0.261215
-0.018754 0.023735 0.257365
-0.017647 0.023921 0.259322
-0.016738 0.024425 0.264716
-0.015780 0.024935 0.270182
-0.014480 0.024946 0.270254
-0.012503 0.023681 0.256492
-0.011274 0.023707 0.256734
-0.010047 0.023746 0.257104
-0.008796 0.023730 0.256893
-0.007554 0.023738 0.256942
-0.006329 0.023813 0.257722
-0.005078 0.023800 0.257559
-0.003830 0.023805 0.257581
-0.002589 0.023872 0.258290
-0.001338 0.023895 0.258521
-0.000085 0.023867 0.258202
0.001203 0.024596 0.266079
0.002490 0.024569 0.265783
0.006247 0.024143 0.261181
0.007513 0.024139 0.261148
0.008903 0.024479 0.264831
0.010033 0.024109 0.260847
0.011339 0.024196 0.261811
0.012647 0.024269 0.262631
0.013944 0.024310 0.263093
0.015295 0.024429 0.264421
0.016614 0.024484 0.265045
0.017932 0.024529 0.265571
0.019247 0.024564 0.265999
0.020657 0.024708 0.267606
0.022049 0.024814 0.268808
0.023233 0.024689 0.267502
0.024514 0.024673 0.267390
0.024781 0.023691 0.256799
0.025989 0.023658 0.256501
0.027252 0.023675 0.256757
0.028394 0.023591 0.255915
0.029655 0.023609 0.256177
0.030934 0.023638 0.256567
0.032200 0.023657 0.256840
0.033452 0.023663 0.256989
0.034653 0.023635 0.256761
0.035911 0.023645 0.256956
0.037391 0.023797 0.258688
0.039138 0.024103 0.262099
0.040660 0.024255 0.263850
0.041843 0.024202 0.263364
0.042963 0.024117 0.262534
0.044359 0.024187 0.263394
0.045730 0.024240 0.264064
0.047091 0.024285 0.264652
0.048500 0.024352 0.265481
0.049834 0.024378 0.265874
0.051438 0.024532 0.267652
0.052647 0.024495 0.267352
0.054286 0.024654 0.269195
0.055648 0.024683 0.269621
0.056440 0.024464 0.267337
0.057943 0.024556 0.268447
0.059594 0.024705 0.270187
0.061081 0.024781 0.271130
0.062312 0.024752 0.270926
0.063582 0.024740 0.270899
0.064938 0.024761 0.271237
0.066234 0.024758 0.271321
0.067507 0.024747 0.271311
0.068815 0.024749 0.271440
0.070136 0.024756 0.271621
0.071470 0.024767 0.271847
0.072580 0.024701 0.271230
0.073828 0.024684 0.271145
0.075070 0.024665 0.271039
0.076349 0.024659 0.271074
0.077492 0.024610 0.270633
0.078750 0.024598 0.270600
0.080023 0.024591 0.270622
0.081553 0.024662 0.271499
0.083423 0.024833 0.273465
0.084926 0.024890 0.274184
0.086557 0.024982 0.275290
0.088188 0.025072 0.276363
0.090232 0.025275 0.278681
0.096027 0.026507 0.292352
0.097262 0.026463 0.291947
0.098994 0.026553 0.293022
0.099840 0.026407 0.291483
0.101095 0.026371 0.291158
0.102382 0.026345 0.290930
0.103650 0.026314 0.290654
0.104966 0.026297 0.290514
0.106471 0.026326 0.290891
0.108047 0.026372 0.291446
0.109198 0.026314 0.290848
0.110818 0.026370 0.291498
0.112283 0.026387 0.291723
0.113333 0.026308 0.290870
0.114987 0.026369 0.291567
0.116352 0.026363 0.291517
0.117770 0.026369 0.291590
0.118941 0.026321 0.291053
0.120333 0.026322 0.291056
0.121675 0.026311 0.290930
0.123082 0.026315 0.290955
0.124495 0.026320 0.290984
0.125808 0.026305 0.290774
0.127326 0.026331 0.291028
0.128510 0.026289 0.290511
0.129929 0.026295 0.290521
0.131397 0.026311 0.290630
0.133366 0.026426 0.291822
0.134585 0.026392 0.291355
0.136018 0.026399 0.291342
0.137510 0.026418 0.291443
0.139071 0.026449 0.291676
0.140435 0.026443 0.291479
0.141804 0.026437 0.291284
0.143952 0.026576 0.292664
0.145322 0.026570 0.292433
0.146720 0.026568 0.292250
0.148133 0.026570 0.292083
0.149462 0.026556 0.291737
0.150923 0.026566 0.291638
0.152358 0.026571 0.291471
-0.047153 0.008453 0.088830
-0.046801 0.008465 0.089024
-0.046469 0.008482 0.089255
-0.046040 0.008480 0.089298
-0.045893 0.008532 0.089890
-0.045572 0.008551 0.090144
-0.045512 0.008620 0.090919
-0.045851 0.008767 0.092510
-0.045417 0.010478 0.110905
-0.045657 0.010656 0.112777
-0.045457 0.010734 0.113591
-0.045086 0.010773 0.113990
-0.044935 0.010866 0.114959
-0.044568 0.010909 0.115392
-0.044263 0.010968 0.115993
-0.043975 0.011032 0.116656
-0.043929 0.011160 0.117980
-0.044692 0.011499 0.121539
-0.045883 0.011959 0.126364
-0.045823 0.012100 0.127824
-0.045822 0.012261 0.129488
-0.045554 0.012354 0.130431
-0.045431 0.012489 0.131816
-0.045201 0.012598 0.132927
-0.045417 0.012836 0.135396
-0.045402 0.013015 0.137236
-0.045585 0.013256 0.139731
-0.045735 0.013495 0.142200
-0.045945 0.013759 0.144926
-0.046056 0.014001 0.147416
-0.046100 0.014230 0.149765
-0.046432 0.014556 0.153136
-0.046927 0.014944 0.157154
-0.047137 0.015253 0.160334
-0.047177 0.015515 0.163025
-0.047090 0.015745 0.165361
-0.047280 0.016076 0.168764
-0.047781 0.016526 0.173410
-0.047978 0.016884 0.177094
-0.047919 0.017164 0.179946
-0.047740 0.017410 0.182444
-0.047577 0.017671 0.185094
-0.047515 0.017981 0.188248
-0.047744 0.018414 0.192693
-0.047764 0.018783 0.196455
-0.047516 0.019058 0.199238
-0.047320 0.019366 0.202363
-0.047141 0.019694 0.205692
-0.047260 0.020163 0.210490
-0.047720 0.020801 0.217044
-0.047724 0.021264 0.221770
-0.047413 0.021605 0.225215
-0.047029 0.021927 0.228464
-0.046490 0.022190 0.231103
-0.045896 0.022440 0.233591
-0.045505 0.022804 0.237266
-0.045302 0.023283 0.242139
-0.044996 0.023733 0.246701
-0.044421 0.024061 0.250003
-0.043660 0.024304 0.252412
-0.042801 0.024505 0.254386
-0.042040 0.024775 0.257078
-0.041230 0.025032 0.259632
-0.040330 0.025249 0.261768
-0.039222 0.025345 0.262654
-0.038530 0.025727 0.266492
-0.037833 0.026130 0.270558
-0.036499 0.026106 0.270206
-0.035281 0.026167 0.270728
-0.034012 0.026192 0.270888
-0.030881 0.024730 0.255666
-0.029810 0.024863 0.256953
-0.028636 0.024919 0.257442
-0.027347 0.024876 0.256900
-0.026204 0.024967 0.257760
-0.024984 0.024991 0.257921
-0.023957 0.025220 0.260203
-0.022529 0.025028 0.258152
-0.021518 0.025305 0.260932
-0.020311 0.025373 0.261556
-0.018803 0.025047 0.258133
-0.017663 0.025201 0.259652
-0.016832 0.025853 0.266307
-0.015767 0.026223 0.270061
-0.012464 0.024847 0.255782
-0.011223 0.024841 0.255674
-0.010014 0.024912 0.256365
-0.008764 0.024885 0.256043
-0.007540 0.024939 0.256561
-0.006303 0.024961 0.256761
-0.005065 0.024992 0.257044
-0.003823 0.025009 0.257204
-0.002577 0.025016 0.257254
-0.001332 0.025058 0.257666
-0.000084 0.025057 0.257645
0.001213 0.026075 0.268096
0.002502 0.025969 0.267004
0.005342 0.027247 0.280142
0.006186 0.025156 0.258652
0.007515 0.025411 0.261277
0.008891 0.025726 0.264535
0.010005 0.025300 0.260167
0.011234 0.025227 0.259435
0.012564 0.025372 0.260949
0.013875 0.025456 0.261846
0.015166 0.025493 0.262253
0.016435 0.025489 0.262250
0.017784 0.025601 0.263445
0.019063 0.025603 0.263508
0.020549 0.025867 0.266265
0.021822 0.025847 0.266107
0.023206 0.025953 0.267253
0.024485 0.025936 0.267140
0.024713 0.024864 0.256152
0.025959 0.024868 0.256259
0.027233 0.024899 0.256635
0.028451 0.024878 0.256484
0.029697 0.024881 0.256593
0.030982 0.024916 0.257023
0.032221 0.024913 0.257064
0.033470 0.024917 0.257182
0.034721 0.024923 0.257320
0.035906 0.024881 0.256975
0.037154 0.024886 0.257104
0.038785 0.025138 0.259792
0.040515 0.025436 0.262963
0.041641 0.025348 0.262151
0.042675 0.025211 0.260825
0.044165 0.025344 0.262296
0.045446 0.025353 0.262482
0.046566 0.025273 0.261755
0.047890 0.025306 0.262194
0.049291 0.025377 0.263025
0.050478 0.025337 0.262711
0.051983 0.025454 0.264028
0.053392 0.025520 0.264815
0.054578 0.025478 0.264487
0.056161 0.025620 0.266064
0.057779 0.025770 0.267736
0.059712 0.026052 0.270768
0.061027 0.026057 0.270935
0.062357 0.026069 0.271166
0.063704 0.026087 0.271462
0.064983 0.026077 0.271468
0.066270 0.026071 0.271507
0.067558 0.026065 0.271555
0.068817 0.026048 0.271490
0.070139 0.026056 0.271671
0.071371 0.026030 0.271507
0.072580 0.025997 0.271266
0.073899 0.026004 0.271441
0.075318 0.026045 0.271971
0.076758 0.026091 0.272558
0.078121 0.026111 0.272859
0.079561 0.026155 0.273420
0.081384 0.026321 0.275254
0.083033 0.026427 0.276457
0.084496 0.026471 0.277010
0.086313 0.026623 0.278689
0.087596 0.026608 0.278620
0.089270 0.026711 0.279779
0.090970 0.026818 0.280983
0.095174 0.027649 0.289776
0.096398 0.027604 0.289376
0.098294 0.027749 0.290972
0.099633 0.027735 0.290897
0.100928 0.027709 0.290696
0.102024 0.027630 0.289932
0.103487 0.027652 0.290213
0.104686 0.027603 0.289753
0.106521 0.027720 0.291039
0.107880 0.027713 0.291006
0.109260 0.027711 0.291024
0.110786 0.027746 0.291423
0.111979 0.027697 0.290939
0.113224 0.027662 0.290598
0.114766 0.027700 0.291011
0.115989 0.027660 0.290607
0.117775 0.027754 0.291604
0.118986 0.027712 0.291161
0.120214 0.027675 0.290765
0.121570 0.027668 0.290677
0.122757 0.027623 0.290181
0.124318 0.027663 0.290565
0.125823 0.027688 0.290801
0.127236 0.027694 0.290812
0.128371 0.027639 0.290185
0.129760 0.027639 0.290130
0.131339 0.027680 0.290488
0.133295 0.027798 0.291651
0.134777 0.027816 0.291750
0.136294 0.027841 0.291913
0.137566 0.027816 0.291540
0.139101 0.027844 0.291715
0.140489 0.027842 0.291567
0.141791 0.027823 0.291231
0.143355 0.027855 0.291422
0.144810 0.027866 0.291374
0.146185 0.027861 0.291151
0.147846 0.027911 0.291482
0.149356 0.027931 0.291493
0.150786 0.027936 0.291334
0.152309 0.027957 0.291337
-0.046570 0.008765 0.087720
-0.046304 0.008794 0.088067
-0.046145 0.008843 0.088623
-0.045995 0.008895 0.089200
-0.045777 0.008935 0.089652
-0.045612 0.008986 0.090213
-0.046309 0.009209 0.092503
-0.045941 0.009223 0.092685
-0.044516 0.010783 0.108707
-0.044773 0.010971 0.110597
-0.045077 0.011175 0.112645
-0.044954 0.011277 0.113661
-0.044759 0.011364 0.114514
-0.044493 0.011434 0.115202
-0.044696 0.011627 0.117133
-0.044676 0.011767 0.118520
-0.044911 0.011979 0.120625
-0.044930 0.012137 0.122194
-0.045299 0.012395 0.124764
-0.045197 0.012530 0.126087
-0.045068 0.012661 0.127369
-0.045486 0.012950 0.130246
-0.045727 0.013197 0.132688
-0.045522 0.013320 0.133883
-0.045332 0.013451 0.135154
-0.045331 0.013643 0.137034
-0.045691 0.013950 0.140071
-0.045632 0.014136 0.141893
-0.045356 0.014260 0.143086
-0.045166 0.014415 0.144584
-0.045511 0.014749 0.147871
-0.046122 0.015180 0.152134
-0.046541 0.015560 0.155883
-0.046834 0.015910 0.159325
-0.046683 0.016119 0.161342
-0.046709 0.016396 0.164049
-0.046809 0.016709 0.167107
-0.047347 0.017192 0.171861
-0.047746 0.017641 0.176267
-0.047637 0.017914 0.178918
-0.047569 0.018213 0.181820
-0.047360 0.018468 0.184285
-0.047316 0.018798 0.187491
-0.047664 0.019300 0.192407
-0.047486 0.019604 0.195346
-0.047431 0.019973 0.198924
-0.047042 0.020212 0.201214
-0.046993 0.020611 0.205087
-0.047019 0.021060 0.209456
-0.047522 0.021747 0.216189
-0.047487 0.022213 0.220716
-0.047284 0.022620 0.224648
-0.046861 0.022938 0.227701
-0.046226 0.023165 0.229844
-0.045737 0.023477 0.232837
-0.045382 0.023876 0.236680
-0.045005 0.024283 0.240608
-0.044705 0.024755 0.245168
-0.044370 0.025232 0.249777
-0.043594 0.025478 0.252099
-0.042757 0.025701 0.254191
-0.041913 0.025932 0.256370
-0.041096 0.026196 0.258861
-0.040209 0.026429 0.261053
-0.039109 0.026533 0.261973
-0.038429 0.026939 0.265867
-0.037745 0.027369 0.270002
-0.036437 0.027361 0.269819
-0.035206 0.027413 0.270228
-0.033939 0.027440 0.270388
-0.030889 0.025970 0.255813
-0.029764 0.026063 0.256635
-0.028606 0.026135 0.257256
-0.027377 0.026145 0.257262
-0.026286 0.026294 0.258645
-0.024927 0.026177 0.257410
-0.023725 0.026221 0.257768
-0.022539 0.026289 0.258355
-0.021222 0.026202 0.257427
-0.019654 0.025776 0.253177
-0.018472 0.025834 0.253673
-0.017885 0.026790 0.263002
-0.016713 0.026951 0.264513
-0.011409 0.026513 0.260009
-0.010155 0.026523 0.260060
-0.008914 0.026577 0.260553
-0.007707 0.026767 0.262378
-0.006436 0.026762 0.262292
-0.005174 0.026805 0.262688
-0.003910 0.026865 0.263251
-0.002635 0.026869 0.263267
-0.001399 0.027638 0.270786
-0.000087 0.027640 0.270790
0.001213 0.027361 0.268050
0.002500 0.027223 0.266692
0.003982 0.028585 0.280031
0.005339 0.028583 0.280009
0.006209 0.026504 0.259648
0.007467 0.026501 0.259633
0.008803 0.026738 0.261966
0.010027 0.026616 0.260781
0.011247 0.026512 0.259788
0.012586 0.026682 0.261476
0.013924 0.026818 0.262834
0.015286 0.026972 0.264382
0.016538 0.026925 0.263954
0.017983 0.027176 0.266455
0.019318 0.027238 0.267099
0.020481 0.027065 0.265452
0.022048 0.027415 0.268930
0.023580 0.027683 0.271618
0.024879 0.027666 0.271503
0.024624 0.026007 0.255286
0.025827 0.025975 0.255023
0.027071 0.025983 0.255168
0.028341 0.026015 0.255552
0.029590 0.026027 0.255731
0.030792 0.025997 0.255511
0.032060 0.026023 0.255836
0.033362 0.026074 0.256415
0.034567 0.026048 0.256234
0.035785 0.026033 0.256169
0.037121 0.026102 0.256933
0.038896 0.026465 0.260590
0.041182 0.027143 0.267355
0.042428 0.027114 0.267163
0.043574 0.027025 0.266379
0.045000 0.027110 0.267311
0.046383 0.027165 0.267950
0.047591 0.027116 0.267573
0.048861 0.027106 0.267566
0.050471 0.027279 0.269375
0.051692 0.027238 0.269079
0.052960 0.027224 0.269040
0.054307 0.027250 0.269405
0.055457 0.027178 0.268798
0.056857 0.027229 0.269410
0.058102 0.027205 0.269278
0.059594 0.027296 0.270280
0.061140 0.027406 0.271485
0.062381 0.027379 0.271318
0.063556 0.027323 0.270877
0.064937 0.027357 0.271320
0.066271 0.027370 0.271556
0.067477 0.027331 0.271271
0.068833 0.027353 0.271594
0.070183 0.027371 0.271885
0.071693 0.027450 0.272774
0.073494 0.027636 0.274721
0.075182 0.027773 0.276191
0.076659 0.027829 0.276849
0.077922 0.027807 0.276729
0.079413 0.027865 0.277408
0.081216 0.028029 0.279139
0.082884 0.028142 0.280359
0.084582 0.028262 0.281642
0.085855 0.028238 0.281494
0.087149 0.028221 0.281416
0.088560 0.028242 0.281713
0.089963 0.028260 0.281977
0.091308 0.028259 0.282052
0.094936 0.028955 0.289074
0.096157 0.028907 0.288675
0.099115 0.029375 0.293423
0.099280 0.029014 0.289886
0.100976 0.029104 0.290851
0.102227 0.029065 0.290523
0.103133 0.028931 0.289236
0.104617 0.028960 0.289577
0.105992 0.028958 0.289607
0.107283 0.028933 0.289405
0.108434 0.028872 0.288834
0.109634 0.028826 0.288398
0.111568 0.028971 0.289876
0.113363 0.029077 0.290959
0.114754 0.029078 0.290984
0.116202 0.029092 0.291143
0.117610 0.029097 0.291195
0.118967 0.029089 0.291114
0.120359 0.029090 0.291113
0.121687 0.029076 0.290952
0.122696 0.028986 0.290032
0.124202 0.029015 0.290285
0.125939 0.029096 0.291058
0.127351 0.029101 0.291064
0.128517 0.029050 0.290502
0.129844 0.029037 0.290304
0.131295 0.029051 0.290373
0.132918 0.029102 0.290806
0.134794 0.029207 0.291767
0.136253 0.029221 0.291803
0.137939 0.029282 0.292307
0.139150 0.029242 0.291792
0.140621 0.029258 0.291814
0.142138 0.029282 0.291915
0.143905 0.029357 0.292508
0.145165 0.029327 0.292054
0.146618 0.029337 0.291977
0.147836 0.029301 0.291425
0.149653 0.029382 0.292034
0.151058 0.029382 0.291818
0.152720 0.029431 0.292079
-0.046685 0.009205 0.087924
-0.045929 0.009137 0.087342
-0.045803 0.009195 0.087954
-0.045906 0.009300 0.089017
-0.045683 0.009340 0.089458
-0.045026 0.009292 0.089044
-0.043816 0.011118 0.107000
-0.043703 0.011218 0.107956
-0.044886 0.011657 0.112171
-0.044969 0.011817 0.113701
-0.045081 0.011989 0.115341
-0.044969 0.012105 0.116439
-0.044569 0.012145 0.116807
-0.044553 0.012292 0.118200
-0.044546 0.012446 0.119652
-0.044638 0.012631 0.121407
-0.044603 0.012785 0.122856
-0.044610 0.012955 0.124459
-0.044606 0.013126 0.126072
-0.044909 0.013393 0.128604
-0.045352 0.013711 0.131612
-0.045706 0.014009 0.134436
-0.045474 0.014134 0.135593
-0.045564 0.014364 0.137752
-0.045432 0.014530 0.139292
-0.045710 0.014833 0.142152
-0.045306 0.014921 0.142944
-0.045555 0.015230 0.145849
-0.045572 0.015470 0.148088
-0.046113 0.015898 0.152124
-0.046154 0.016164 0.154610
-0.046463 0.016534 0.158085
-0.046379 0.016774 0.160314
-0.046587 0.017130 0.163644
-0.046907 0.017539 0.167484
-0.047228 0.017963 0.171456
-0.047518 0.018390 0.175453
-0.047480 0.018703 0.178357
-0.047342 0.018987 0.180986
-0.047180 0.019272 0.183616
-0.047172 0.019632 0.186958
-0.047417 0.020112 0.191448
-0.047349 0.020477 0.194824
-0.047096 0.020774 0.197558
-0.046987 0.021148 0.201023
-0.046969 0.021579 0.205027
-0.047120 0.022108 0.209952
-0.047239 0.022645 0.214950
-0.047155 0.023106 0.219222
-0.046928 0.023516 0.223010
-0.046355 0.023768 0.225293
-0.045826 0.024055 0.227910
-0.045262 0.024337 0.230474
-0.044866 0.024726 0.234050
-0.044810 0.025327 0.239625
-0.044584 0.025861 0.244565
-0.044175 0.026314 0.248743
-0.043460 0.026606 0.251391
-0.042626 0.026839 0.253482
-0.041883 0.027145 0.256256
-0.041023 0.027391 0.258471
-0.040145 0.027641 0.260714
-0.039130 0.027809 0.262192
-0.038339 0.028152 0.265318
-0.037629 0.028581 0.269251
-0.036432 0.028657 0.269866
-0.035116 0.028642 0.269621
-0.033852 0.028670 0.269780
-0.030786 0.027114 0.255041
-0.029802 0.027337 0.257049
-0.028604 0.027375 0.257314
-0.027478 0.027489 0.258301
-0.026303 0.027561 0.258897
-0.024592 0.027053 0.254039
-0.023218 0.026881 0.252345
-0.022173 0.027091 0.254249
-0.021112 0.027306 0.256187
-0.019638 0.026980 0.253065
-0.018553 0.027180 0.254877
-0.017951 0.028168 0.264074
-0.016902 0.028550 0.267596
-0.015616 0.028565 0.267673
0.001214 0.028637 0.267917
0.002487 0.028355 0.265271
0.005336 0.029915 0.279870
0.006146 0.027476 0.257051
0.007413 0.027555 0.257804
0.008700 0.027676 0.258943
0.009938 0.027629 0.258526
0.011193 0.027634 0.258585
0.012489 0.027730 0.259511
0.013770 0.027778 0.259985
0.015099 0.027906 0.261217
0.016399 0.027964 0.261794
0.017760 0.028111 0.263209
0.019063 0.028153 0.263640
0.020361 0.028182 0.263961
0.021912 0.028536 0.267328
0.023604 0.029025 0.271960
0.024905 0.029007 0.271846
0.024705 0.027330 0.256189
0.025876 0.027258 0.255569
0.027129 0.027274 0.255780
0.028411 0.027316 0.256243
0.029613 0.027282 0.255989
0.030845 0.027277 0.256012
0.032123 0.027311 0.256404
0.033433 0.027369 0.257024
0.034660 0.027357 0.256984
0.035880 0.027340 0.256911
0.037297 0.027470 0.258212
0.038739 0.027609 0.259600
0.040973 0.028286 0.266056
0.042199 0.028247 0.265781
0.043245 0.028093 0.264424
0.044796 0.028267 0.266156
0.045843 0.028122 0.264888
0.047135 0.028131 0.265067
0.048471 0.028165 0.265486
0.049829 0.028210 0.266005
0.051456 0.028401 0.267908
0.052679 0.028365 0.267670
0.053895 0.028327 0.267415
0.055350 0.028413 0.268332
0.056638 0.028412 0.268425
0.057971 0.028432 0.268725
0.059706 0.028645 0.270840
0.061199 0.028735 0.271797
0.062410 0.028691 0.271490
0.063654 0.028664 0.271340
0.064907 0.028642 0.271239
0.066210 0.028643 0.271352
0.067430 0.028608 0.271125
0.068669 0.028583 0.270988
0.069962 0.028580 0.271067
0.071356 0.028618 0.271531
0.073058 0.028776 0.273131
0.074637 0.028881 0.274226
0.076226 0.028986 0.275322
0.077542 0.028985 0.275412
0.079085 0.029068 0.276298
0.080637 0.029151 0.277181
0.082427 0.029316 0.278848
0.084087 0.029430 0.280026
0.085650 0.029507 0.280852
0.087046 0.029526 0.281113
0.088302 0.029496 0.280920
0.089840 0.029561 0.281618
0.091304 0.029599 0.282063
0.094225 0.030103 0.286936
0.095439 0.030053 0.286539
0.097781 0.030356 0.289495
0.099287 0.030394 0.289927
0.100685 0.030398 0.290033
0.102065 0.030397 0.290082
0.103522 0.030419 0.290342
0.104424 0.030279 0.289055
0.105915 0.030311 0.289409
0.107460 0.030357 0.289895
0.108924 0.030380 0.290148
0.110541 0.030444 0.290792
0.111857 0.030425 0.290636
0.113166 0.030404 0.290458
0.114728 0.030451 0.290919
0.116191 0.030471 0.291117
0.117496 0.030450 0.290913
0.118755 0.030417 0.290594
0.120016 0.030385 0.290281
0.121208 0.030337 0.289801
0.122480 0.030309 0.289513
0.123898 0.030318 0.289566
0.125689 0.030417 0.290470
0.127486 0.030515 0.291360
0.128755 0.030486 0.291026
0.130213 0.030502 0.291113
0.131400 0.030455 0.290589
0.133086 0.030523 0.291154
0.134471 0.030521 0.291048
0.135891 0.030527 0.291004
0.137359 0.030544 0.291054
0.139229 0.030649 0.291930
0.140513 0.030624 0.291560
0.141753 0.030590 0.291094
0.143585 0.030683 0.291824
0.145434 0.030778 0.292561
0.146610 0.030729 0.291924
0.148495 0.030829 0.292684
0.149516 0.030750 0.291726
0.150894 0.030744 0.291456
0.152478 0.030780 0.291571
-0.046413 0.009566 0.087399
-0.046296 0.009628 0.088028
-0.045215 0.009488 0.086813
-0.044515 0.009427 0.086308
-0.044280 0.009464 0.086700
-0.044450 0.011790 0.108549
-0.044158 0.011848 0.109081
-0.044779 0.012156 0.111905
-0.045085 0.012385 0.113999
-0.044800 0.012455 0.114626
-0.044317 0.012470 0.114755
-0.044167 0.012581 0.115757
-0.044267 0.012767 0.117449
-0.044626 0.013033 0.119872
-0.044485 0.013159 0.120998
-0.044521 0.013340 0.122640
-0.044159 0.013405 0.123210
-0.043653 0.013428 0.123389
-0.044782 0.013961 0.128253
-0.045320 0.014322 0.131531
-0.045737 0.014655 0.134542
-0.045447 0.014766 0.135524
-0.045254 0.014913 0.136829
-0.045321 0.015152 0.138969
-0.045741 0.015517 0.142268
-0.045682 0.015727 0.144149
-0.045629 0.015947 0.146104
-0.045423 0.016118 0.147623
-0.045791 0.016502 0.151081
-0.046151 0.016896 0.154621
-0.046435 0.017274 0.158016
-0.046457 0.017564 0.160609
-0.046563 0.017897 0.163585
-0.046888 0.018327 0.167444
-0.047339 0.018822 0.171890
-0.047534 0.019231 0.175543
-0.047427 0.019529 0.178190
-0.047290 0.019826 0.180820
-0.047150 0.020133 0.183534
-0.046947 0.020424 0.186102
-0.046995 0.020837 0.189781
-0.047027 0.021260 0.193539
-0.047214 0.021770 0.198092
-0.047205 0.022209 0.201997
-0.047196 0.022666 0.206060
-0.046925 0.023015 0.209133
-0.047052 0.023578 0.214146
-0.047034 0.024092 0.218710
-0.046693 0.024459 0.221946
-0.046116 0.024717 0.224184
-0.045527 0.024982 0.226477
-0.044927 0.025252 0.228825
-0.044353 0.025552 0.231433
-0.044296 0.026172 0.236940
-0.044210 0.026807 0.242582
-0.043826 0.027291 0.246849
-0.043123 0.027597 0.249510
-0.042426 0.027925 0.252365
-0.041674 0.028235 0.255053
-0.040938 0.028574 0.258012
-0.040115 0.028872 0.260595
-0.039089 0.029039 0.261992
-0.038535 0.029579 0.266756
-0.038021 0.030189 0.272142
-0.036326 0.029870 0.269163
-0.035163 0.029982 0.270071
-0.033897 0.030011 0.270229
-0.030726 0.028287 0.254619
-0.029732 0.028509 0.256525
-0.028607 0.028620 0.257427
-0.027474 0.028731 0.258347
-0.026330 0.028842 0.259256
-0.024721 0.028428 0.255455
-0.023448 0.028378 0.254930
-0.022285 0.028463 0.255619
-0.021032 0.028437 0.255316
-0.019762 0.028382 0.254751
-0.018615 0.028510 0.255831
-0.017734 0.029090 0.260973
-0.016500 0.029137 0.261338
-0.015255 0.029172 0.261593
0.001196 0.029467 0.263819
0.002483 0.029576 0.264782
0.006176 0.028855 0.258336
0.007385 0.028688 0.256849
0.008657 0.028781 0.257695
0.009899 0.028765 0.257563
0.011129 0.028718 0.257167
0.012398 0.028772 0.257668
0.013672 0.028827 0.258187
0.014937 0.028855 0.258469
0.016240 0.028945 0.259315
0.017564 0.029059 0.260370
0.018846 0.029092 0.260706
0.020190 0.029210 0.261808
0.021706 0.029548 0.264882
0.023930 0.030758 0.275787
0.025249 0.030739 0.275671
0.024841 0.028725 0.257664
0.025889 0.028507 0.255764
0.027099 0.028477 0.255561
0.028342 0.028484 0.255689
0.029547 0.028454 0.255480
0.030791 0.028462 0.255624
0.032045 0.028478 0.255841
0.033366 0.028551 0.256571
0.035211 0.029050 0.261134
0.036509 0.029080 0.261477
0.037523 0.028888 0.259838
0.039212 0.029212 0.262833
0.040943 0.029545 0.265924
0.041981 0.029374 0.264466
0.042871 0.029112 0.262203
0.044320 0.029234 0.263388
0.045412 0.029119 0.262452
0.046394 0.028943 0.260956
0.047628 0.028929 0.260926
0.048920 0.028950 0.261208
0.050384 0.029069 0.262384
0.051762 0.029133 0.263065
0.053193 0.029224 0.263982
0.054495 0.029241 0.264242
0.055636 0.029173 0.263726
0.057381 0.029418 0.266041
0.058951 0.029564 0.267465
0.061133 0.030004 0.271554
0.062505 0.030037 0.271955
0.063573 0.029925 0.271047
0.064993 0.029980 0.271648
0.066245 0.029956 0.271539
0.067376 0.029880 0.270953
0.068664 0.029876 0.271014
0.069828 0.029818 0.270592
0.071117 0.029815 0.270662
0.072247 0.029746 0.270141
0.073514 0.029735 0.270138
0.074909 0.029776 0.270603
0.076211 0.029778 0.270724
0.077578 0.029806 0.271067
0.078651 0.029721 0.270392
0.080376 0.029882 0.271943
0.082035 0.030013 0.273225
0.083593 0.030104 0.274137
0.085051 0.030156 0.274699
0.086708 0.030277 0.275879
0.087628 0.030140 0.274709
0.089529 0.030340 0.276605
0.090702 0.030290 0.276229
0.097088 0.031958 0.291516
0.098319 0.031906 0.291109
0.099982 0.031994 0.291976
0.100817 0.031818 0.290432
0.102026 0.031763 0.289986
0.103465 0.031780 0.290198
0.104615 0.031709 0.289597
0.105690 0.031617 0.288806
0.107203 0.031658 0.289213
0.108820 0.031727 0.289881
0.110471 0.031804 0.290615
0.112014 0.031849 0.291049
0.113393 0.031847 0.291045
0.114704 0.031825 0.290863
0.116006 0.031802 0.290656
0.117402 0.031804 0.290679
0.118765 0.031798 0.290617
0.119992 0.031756 0.290219
0.121234 0.031719 0.289858
0.122608 0.031716 0.289809
0.124010 0.031721 0.289819
0.125501 0.031749 0.290026
0.126924 0.031758 0.290062
0.128235 0.031740 0.289837
0.129785 0.031780 0.290140
0.131627 0.031891 0.291071
0.132772 0.031831 0.290448
0.134514 0.031915 0.291117
0.136103 0.031961 0.291436
0.137662 0.031999 0.291668
0.139143 0.032019 0.291721
0.140655 0.032045 0.291823
0.141893 0.032008 0.291347
0.143527 0.032061 0.291671
0.144987 0.032074 0.291622
0.146297 0.032054 0.291262
0.147625 0.032039 0.290927
0.149639 0.032171 0.291921
0.150634 0.032083 0.290908
0.152020 0.032080 0.290644
-0.046885 0.010083 0.088273
-0.045652 0.009906 0.086789
-0.045547 0.009973 0.087437
-0.044641 0.012354 0.109016
-0.044554 0.012473 0.110061
-0.044629 0.012641 0.111533
-0.044668 0.012803 0.112947
-0.044405 0.012880 0.113620
-0.043966 0.012908 0.113852
-0.043897 0.013047 0.115056
-0.044021 0.013247 0.116802
-0.043918 0.013383 0.117978
-0.044157 0.013628 0.120116
-0.043074 0.013466 0.118661
-0.045033 0.014264 0.125660
-0.044517 0.014288 0.125841
-0.045014 0.014642 0.128927
-0.045680 0.015062 0.132587
-0.045412 0.015182 0.133598
-0.045415 0.015396 0.135445
-0.045601 0.015680 0.137896
-0.045703 0.015942 0.140155
-0.045668 0.016164 0.142058
-0.045431 0.016319 0.143374
-0.045136 0.016459 0.144546
-0.045131 0.016710 0.146696
-0.045747 0.017202 0.150957
-0.045886 0.017528 0.153757
-0.046211 0.017936 0.157278
-0.046099 0.018185 0.159397
-0.046232 0.018541 0.162451
-0.046636 0.019020 0.166571
-0.046997 0.019497 0.170679
-0.047277 0.019956 0.174626
-0.047184 0.020272 0.177313
-0.047142 0.020622 0.180291
-0.046945 0.020915 0.182772
-0.046592 0.021149 0.184730
-0.046585 0.021551 0.188163
-0.046672 0.022014 0.192115
-0.046901 0.022564 0.196822
-0.047158 0.023150 0.201841
-0.047118 0.023611 0.205768
-0.046703 0.023900 0.208188
-0.046768 0.024452 0.212903
-0.046857 0.025042 0.217938
-0.046417 0.025370 0.220689
-0.045991 0.025720 0.223634
-0.045385 0.025984 0.225828
-0.044732 0.026234 0.227892
-0.044244 0.026595 0.230926
-0.044089 0.027179 0.235895
-0.043824 0.027726 0.240531
-0.043564 0.028304 0.245441
-0.042929 0.028664 0.248455
-0.042371 0.029099 0.252108
-0.041657 0.029448 0.255024
-0.040865 0.029761 0.257627
-0.040164 0.030162 0.260991
-0.039135 0.030335 0.262385
-0.038546 0.030872 0.266918
-0.037888 0.031389 0.271278
-0.036271 0.031119 0.268846
-0.035044 0.031177 0.269240
-0.030699 0.029490 0.254486
-0.028994 0.029008 0.250244
-0.027827 0.029048 0.250498
-0.027450 0.029952 0.258211
-0.025476 0.029117 0.250933
-0.024559 0.029469 0.253882
-0.023334 0.029467 0.253792
-0.022030 0.029359 0.252788
-0.020918 0.029510 0.254018
-0.019704 0.029527 0.254098
-0.018357 0.029335 0.252381
-0.018138 0.031045 0.267030
-0.016858 0.031062 0.267112
-0.015880 0.031686 0.272414
0.001199 0.030785 0.264250
0.002478 0.030784 0.264241
0.006182 0.030128 0.258612
0.007397 0.029979 0.257336
0.008655 0.030019 0.257700
0.009885 0.029964 0.257238
0.011138 0.029983 0.257418
0.012400 0.030020 0.257765
0.013671 0.030072 0.258236
0.014936 0.030101 0.258510
0.016225 0.030171 0.259149
0.017511 0.030224 0.259639
0.018841 0.030343 0.260700
0.020164 0.030435 0.261539
0.021711 0.030835 0.265018
0.023932 0.032093 0.275882
0.025041 0.031806 0.273470
0.025317 0.030543 0.262670
0.026124 0.030010 0.258148
0.027432 0.030076 0.258771
0.028621 0.030011 0.258274
0.029877 0.030018 0.258407
0.031037 0.029932 0.257735
0.032335 0.029981 0.258225
0.034035 0.030385 0.261780
0.035365 0.030441 0.262342
0.036692 0.030492 0.262857
0.038007 0.030528 0.263254
0.039345 0.030581 0.263790
0.040952 0.030832 0.266046
0.041929 0.030609 0.264208
0.043039 0.030492 0.263291
0.044308 0.030492 0.263382
0.045227 0.030258 0.261446
0.046547 0.030297 0.261881
0.047425 0.030054 0.259873
0.048666 0.030047 0.259912
0.050144 0.030184 0.261188
0.051420 0.030195 0.261385
0.052839 0.030288 0.262283
0.054334 0.030418 0.263514
0.055546 0.030388 0.263355
0.056951 0.030463 0.264101
0.058746 0.030738 0.266589
0.060820 0.031144 0.270213
0.062280 0.031226 0.271024
0.063444 0.031158 0.270544
0.064814 0.031193 0.270949
0.066066 0.031170 0.270854
0.067290 0.031136 0.270657
0.068585 0.031135 0.270745
0.069868 0.031128 0.270790
0.071351 0.031209 0.271597
0.072322 0.031068 0.270460
0.073311 0.030938 0.269432
0.074351 0.030835 0.268625
0.075607 0.030823 0.268614
0.076866 0.030812 0.268615
0.077780 0.030666 0.267429
0.079105 0.030684 0.267673
0.080559 0.030751 0.268341
0.082176 0.030877 0.269522
0.083503 0.030891 0.269730
0.085081 0.030997 0.270728
0.086985 0.031216 0.272721
0.087963 0.031101 0.271791
0.090104 0.031395 0.274433
0.096944 0.033294 0.291106
0.098173 0.033240 0.290701
0.099129 0.033096 0.289507
0.100808 0.033194 0.290424
0.102193 0.033194 0.290480
0.103448 0.033152 0.290166
0.104548 0.033063 0.289427
0.105929 0.033063 0.289471
0.107203 0.033030 0.289223
0.108570 0.033027 0.289224
0.110654 0.033238 0.291105
0.111795 0.033165 0.290486
0.113086 0.033138 0.290262
0.114679 0.033198 0.290802
0.115990 0.033176 0.290617
0.117143 0.033111 0.290038
0.118591 0.033129 0.290187
0.119794 0.033079 0.289734
0.121012 0.033034 0.289321
0.122398 0.033035 0.289304
0.123563 0.032978 0.288763
0.125536 0.033135 0.290095
0.126765 0.033094 0.289686
0.128207 0.033109 0.289758
0.129598 0.033111 0.289704
0.131007 0.033117 0.289681
0.132826 0.033226 0.290545
0.134297 0.033246 0.290624
0.135733 0.033257 0.290617
0.137386 0.033321 0.291056
0.139066 0.033389 0.291529
0.140407 0.033376 0.291277
0.141826 0.033381 0.291175
0.143256 0.033389 0.291084
0.144813 0.033426 0.291234
0.146081 0.033396 0.290791
0.147356 0.033368 0.290353
0.149023 0.033428 0.290673
0.150844 0.033522 0.291265
0.152127 0.033495 0.290799
-0.045700 0.010237 0.086026
-0.046238 0.010450 0.087889
-0.045744 0.010433 0.087803
-0.044651 0.012871 0.109042
-0.044183 0.012884 0.109148
-0.044621 0.013165 0.111516
-0.044519 0.013291 0.112573
-0.044249 0.013369 0.113226
-0.043960 0.013443 0.113840
-0.043882 0.013585 0.115022
-0.044010 0.013795 0.116779
-0.044386 0.014088 0.119244
-0.044508 0.014308 0.121078
-0.044262 0.014413 0.121943
-0.043964 0.014504 0.122686
-0.044110 0.014746 0.124701
-0.044409 0.015047 0.127208
-0.044632 0.015329 0.129559
-0.044650 0.015548 0.131370
-0.044982 0.015883 0.134166
-0.045242 0.016203 0.136825
-0.045370 0.016484 0.139152
-0.045474 0.016764 0.141470
-0.045068 0.016862 0.142248
-0.044958 0.017076 0.143995
-0.044993 0.017351 0.146266
-0.045397 0.017780 0.149826
-0.045990 0.018298 0.154128
-0.045993 0.018593 0.156557
-0.046009 0.018904 0.159112
-0.046043 0.019233 0.161813
-0.046441 0.019728 0.165904
-0.046895 0.020263 0.170339
-0.047023 0.020675 0.173721
-0.047172 0.021110 0.177299
-0.046998 0.021414 0.179775
-0.046773 0.021705 0.182141
-0.046497 0.021983 0.184394
-0.046288 0.022304 0.187003
-0.046333 0.022763 0.190763
-0.046412 0.023257 0.194813
-0.047086 0.024075 0.201576
-0.047180 0.024625 0.206086
-0.046851 0.024972 0.208898
-0.046716 0.025441 0.212718
-0.046447 0.025855 0.216085
-0.046191 0.026296 0.219672
-0.045700 0.026620 0.222277
-0.045151 0.026925 0.224725
-0.044494 0.027179 0.226742
-0.044137 0.027634 0.230430
-0.043933 0.028210 0.235128
-0.043718 0.028809 0.240015
-0.043437 0.029396 0.244797
-0.042840 0.029795 0.248015
-0.042314 0.030268 0.251847
-0.041571 0.030609 0.254577
-0.040770 0.030927 0.257111
-0.040124 0.031385 0.260813
-0.039150 0.031609 0.262566
-0.038498 0.032116 0.266669
-0.037971 0.032765 0.271959
-0.036293 0.032433 0.269099
-0.035067 0.032495 0.269509
-0.034008 0.032722 0.271296
-0.031247 0.032564 0.269791
-0.030013 0.032633 0.270274
-0.027460 0.032691 0.270579
-0.026165 0.032701 0.270576
-0.024853 0.032691 0.270412
-0.023523 0.032654 0.270029
-0.022179 0.032591 0.269438
-0.020949 0.032700 0.270262
-0.019528 0.032506 0.268591
-0.016761 0.032170 0.265694
-0.015864 0.032973 0.272263
-0.014556 0.032988 0.272334
0.006155 0.031237 0.257520
0.007398 0.031221 0.257402
0.008660 0.031280 0.257893
0.009883 0.031198 0.257234
0.011162 0.031295 0.258051
0.012437 0.031358 0.258594
0.013713 0.031415 0.259090
0.014968 0.031416 0.259131
0.016281 0.031530 0.260107
0.017583 0.031607 0.260776
0.018855 0.031625 0.260959
0.020170 0.031707 0.261684
0.021708 0.032110 0.265052
0.023912 0.033397 0.275729
0.024968 0.033029 0.272752
0.025796 0.032412 0.267708
0.026934 0.032226 0.266228
0.028210 0.032213 0.266185
0.029453 0.032165 0.265852
0.030641 0.032064 0.265085
0.031903 0.032044 0.264996
0.033177 0.032039 0.265021
0.034343 0.031933 0.264219
0.035752 0.032052 0.265285
0.036996 0.032021 0.265103
0.038115 0.031886 0.264070
0.039572 0.032034 0.265378
0.041055 0.032194 0.266787
0.042162 0.032057 0.265741
0.043121 0.031819 0.263856
0.044520 0.031910 0.264706
0.045467 0.031682 0.262899
0.046507 0.031528 0.261715
0.047320 0.031233 0.259359
0.048490 0.031182 0.259032
0.049758 0.031196 0.259238
0.051063 0.031231 0.259626
0.052413 0.031291 0.260227
0.053797 0.031368 0.260965
0.055013 0.031347 0.260883
0.056428 0.031436 0.261726
0.058311 0.031778 0.264669
0.060641 0.032343 0.269473
0.062130 0.032445 0.270425
0.063347 0.032403 0.270181
0.064664 0.032414 0.270370
0.065928 0.032398 0.270339
0.067188 0.032380 0.270293
0.068396 0.032339 0.270046
0.069601 0.032297 0.269800
0.070822 0.032265 0.269628
0.071831 0.032139 0.268668
0.073259 0.032201 0.269282
0.074019 0.031973 0.267466
0.075255 0.031954 0.267401
0.076634 0.031996 0.267841
0.077354 0.031766 0.266002
0.078364 0.031660 0.265199
0.079785 0.031721 0.265795
0.080875 0.031650 0.265284
0.082339 0.031726 0.265998
0.083876 0.031827 0.266923
0.085520 0.031965 0.268154
0.086467 0.031843 0.267197
0.088515 0.032123 0.269616
0.096427 0.034493 0.289578
0.097650 0.034437 0.289175
0.099663 0.034657 0.291087
0.100754 0.034555 0.290288
0.101945 0.034490 0.289793
0.103304 0.034482 0.289779
0.104533 0.034432 0.289399
0.105708 0.034365 0.288880
0.107117 0.034375 0.289000
0.108417 0.034351 0.288826
0.109984 0.034410 0.289350
0.111267 0.034380 0.289119
0.113301 0.034580 0.290817
0.114877 0.034638 0.291306
0.116162 0.034607 0.291048
0.117436 0.034573 0.290762
0.118736 0.034548 0.290539
0.119984 0.034508 0.290189
0.121250 0.034475 0.289883
0.122839 0.034532 0.290338
0.124172 0.034518 0.290175
0.125548 0.034515 0.290109
0.126811 0.034482 0.289775
0.128114 0.034460 0.289531
0.129555 0.034476 0.289587
0.132024 0.034762 0.291909
0.132686 0.034570 0.290214
0.134530 0.034688 0.291103
0.136082 0.034728 0.291335
0.137399 0.034709 0.291053
0.138747 0.034697 0.290829
0.140121 0.034692 0.290648
0.141605 0.034715 0.290685
0.143485 0.034832 0.291509
0.145082 0.034880 0.291733
0.146465 0.034875 0.291510
0.147836 0.034868 0.291252
0.149243 0.034869 0.291053
0.150590 0.034856 0.290721
0.151901 0.034836 0.290311
-0.046004 0.010717 0.086585
-0.045996 0.010811 0.087414
-0.046171 0.010951 0.088608
-0.041896 0.012417 0.101156
-0.044629 0.013378 0.108990
-0.044601 0.013525 0.110182
-0.044404 0.013624 0.110978
-0.044507 0.013818 0.112547
-0.044250 0.013903 0.113231
-0.043835 0.013940 0.113522
-0.043802 0.014102 0.114820
-0.043887 0.014305 0.116458
-0.044343 0.014637 0.119135
-0.044206 0.014778 0.120265
-0.044158 0.014953 0.121666
-0.043710 0.014996 0.121986
-0.043270 0.015043 0.122335
-0.043393 0.015289 0.124306
-0.043875 0.015670 0.127373
-0.044394 0.016075 0.130629
-0.044951 0.016506 0.134090
-0.045166 0.016822 0.136611
-0.045253 0.017098 0.138811
-0.045028 0.017263 0.140101
-0.045009 0.017513 0.142080
-0.044886 0.017729 0.143785
-0.044863 0.017992 0.145865
-0.045626 0.018583 0.150605
-0.045932 0.019004 0.153959
-0.046059 0.019364 0.156810
-0.045857 0.019594 0.158614
-0.046002 0.019983 0.161696
-0.046174 0.020397 0.164980
-0.046763 0.021013 0.169889
-0.047003 0.021491 0.173679
-0.047029 0.021886 0.176798
-0.047126 0.022329 0.180300
-0.046748 0.022559 0.182080
-0.046363 0.022795 0.183903
-0.046102 0.023102 0.186293
-0.046248 0.023628 0.190456
-0.046963 0.024473 0.197174
-0.047172 0.025082 0.201995
-0.047162 0.025598 0.206056
-0.046872 0.025981 0.209046
-0.046500 0.026334 0.211789
-0.046155 0.026719 0.214784
-0.046006 0.027236 0.218847
-0.045628 0.027639 0.221985
-0.045160 0.028006 0.224829
-0.044503 0.028270 0.226852
-0.044075 0.028697 0.230170
-0.043807 0.029252 0.234520
-0.043644 0.029908 0.239677
-0.043174 0.030384 0.243384
-0.042718 0.030896 0.247382
-0.042128 0.031338 0.250815
-0.041428 0.031722 0.253778
-0.040815 0.032197 0.257473
-0.040179 0.032684 0.261259
-0.039202 0.032914 0.262999
-0.038579 0.033469 0.267321
-0.037893 0.034004 0.271495
-0.036228 0.033668 0.268708
-0.035039 0.033766 0.269390
-0.033977 0.033998 0.271143
-0.032483 0.033799 0.269461
-0.031218 0.033833 0.269638
-0.029985 0.033905 0.270120
-0.028701 0.033923 0.270177
-0.027434 0.033965 0.270425
-0.026140 0.033975 0.270422
-0.024829 0.033964 0.270257
-0.023500 0.033926 0.269874
-0.022157 0.033861 0.269283
-0.020928 0.033973 0.270107
-0.019509 0.033772 0.268437
-0.018224 0.033791 0.268524
-0.016668 0.033270 0.264326
-0.015848 0.034256 0.272105
-0.014454 0.034067 0.270549
-0.007794 0.033520 0.265987
-0.006510 0.033528 0.266021
-0.005227 0.033548 0.266151
-0.003946 0.033605 0.266580
-0.002667 0.033736 0.267592
-0.001373 0.033739 0.267601
0.006164 0.032523 0.257930
0.007375 0.032361 0.256654
0.008629 0.032404 0.257009
0.009886 0.032447 0.257364
0.011137 0.032464 0.257517
0.012392 0.032488 0.257728
0.013685 0.032598 0.258628
0.014970 0.032670 0.259228
0.016253 0.032729 0.259723
0.017582 0.032864 0.260836
0.018891 0.032947 0.261533
0.020178 0.032983 0.261857
0.021631 0.033269 0.264177
0.023052 0.033478 0.265889
0.024654 0.033913 0.269393
0.025902 0.033842 0.268885
0.027052 0.033656 0.267463
0.028698 0.034075 0.270857
0.030067 0.034143 0.271467
0.031316 0.034076 0.270999
0.032599 0.034049 0.270853
0.033880 0.034021 0.270708
0.035156 0.033992 0.270548
0.036262 0.033805 0.269139
0.037662 0.033896 0.269948
0.038871 0.033815 0.269382
0.039962 0.033639 0.268063
0.041209 0.033602 0.267856
0.042469 0.033577 0.267741
0.043324 0.033243 0.265166
0.044209 0.032950 0.262920
0.045258 0.032793 0.261754
0.046460 0.032751 0.261512
0.046961 0.032231 0.257450
0.048132 0.032186 0.257181
0.049300 0.032140 0.256909
0.050535 0.032140 0.257002
0.051906 0.032224 0.257766
0.053055 0.032170 0.257424
0.054357 0.032208 0.257827
0.056202 0.032559 0.260735
0.058228 0.032998 0.264346
0.060179 0.033376 0.267474
0.061829 0.033575 0.269169
0.063258 0.033648 0.269857
0.064595 0.033670 0.270135
0.065906 0.033678 0.270298
0.067143 0.033649 0.270161
0.068366 0.033614 0.269974
0.069501 0.033537 0.269460
0.070578 0.033436 0.268742
0.071405 0.033222 0.267118
0.072642 0.033203 0.267056
0.073439 0.032987 0.265409
0.074690 0.032979 0.265434
0.075777 0.032900 0.264881
0.076405 0.032627 0.262772
0.077501 0.032560 0.262313
0.078587 0.032491 0.261835
0.079827 0.032486 0.261878
0.081335 0.032589 0.262784
0.082473 0.032543 0.262487
0.084209 0.032731 0.264069
0.085161 0.032613 0.263186
0.087021 0.032841 0.265090
0.095459 0.035509 0.286695
0.096671 0.035452 0.286296
0.100167 0.036222 0.292580
0.100772 0.035940 0.290360
0.101900 0.035850 0.289682
0.103252 0.035840 0.289648
0.104421 0.035767 0.289103
0.105675 0.035725 0.288802
0.107007 0.035710 0.288715
0.108127 0.035625 0.288061
0.110260 0.035873 0.290082
0.111886 0.035951 0.290734
0.112976 0.035857 0.289986
0.114767 0.035985 0.291027
0.115978 0.035930 0.290585
0.117281 0.035905 0.290374
0.118718 0.035921 0.290490
0.119915 0.035865 0.290016
0.121094 0.035804 0.289500
0.122594 0.035839 0.289748
0.124144 0.035887 0.290099
0.125595 0.035906 0.290202
0.127028 0.035920 0.290255
0.128283 0.035883 0.289892
0.129864 0.035937 0.290259
0.131047 0.035881 0.289726
0.132679 0.035948 0.290174
0.134129 0.035965 0.290209
0.135540 0.035971 0.290146
0.137025 0.035996 0.290229
0.138437 0.036001 0.290144
0.139856 0.036009 0.290062
0.141230 0.036005 0.289876
0.142756 0.036038 0.289986
0.144853 0.036215 0.291229
0.146709 0.036328 0.291948
0.147800 0.036251 0.291132
0.149345 0.036286 0.291198
0.150676 0.036269 0.290834
0.151894 0.036225 0.290241
-0.046166 0.011167 0.086872
-0.045894 0.011201 0.087205
-0.045580 0.011226 0.087458
-0.045111 0.013883 0.108919
-0.044673 0.013906 0.109097
-0.044608 0.014047 0.110199
-0.044467 0.014167 0.111135
-0.044053 0.014202 0.111402
-0.043751 0.014274 0.111958
-0.043497 0.014364 0.112651
-0.043334 0.014487 0.113597
-0.043549 0.014740 0.115569
-0.044217 0.015155 0.118803
-0.044749 0.015534 0.121749
-0.045304 0.015931 0.124832
-0.044766 0.015948 0.124943
-0.044463 0.016051 0.125719
-0.044395 0.016243 0.127191
-0.043862 0.016267 0.127347
-0.044085 0.016577 0.129735
-0.044528 0.016979 0.132844
-0.045189 0.017476 0.136696
-0.045347 0.017791 0.139115
-0.045095 0.017952 0.140328
-0.044719 0.018068 0.141185
-0.044645 0.018310 0.143032
-0.044613 0.018579 0.145074
-0.045372 0.019189 0.149788
-0.045520 0.019557 0.152603
-0.045704 0.019952 0.155625
-0.045596 0.020231 0.157737
-0.045665 0.020598 0.160540
-0.046067 0.021132 0.164630
-0.046415 0.021658 0.168659
-0.046695 0.022170 0.172576
-0.046861 0.022645 0.176201
-0.046912 0.023081 0.179519
-0.046825 0.023464 0.182419
-0.046514 0.023747 0.184540
-0.046147 0.024012 0.186515
-0.046015 0.024412 0.189539
-0.046264 0.025034 0.194285
-0.047289 0.026110 0.202546
-0.047217 0.026612 0.206347
-0.046722 0.026893 0.208431
-0.046234 0.027189 0.210634
-0.045813 0.027539 0.213248
-0.045729 0.028112 0.217589
-0.045441 0.028583 0.221140
-0.045115 0.029052 0.224666
-0.044532 0.029375 0.227062
-0.043969 0.029727 0.229685
-0.043820 0.030384 0.234659
-0.043526 0.030973 0.239102
-0.043099 0.031496 0.243037
-0.042541 0.031950 0.246438
-0.041980 0.032427 0.250012
-0.041398 0.032916 0.253676
-0.040754 0.033384 0.257177
-0.040130 0.033897 0.261025
-0.039188 0.034166 0.262994
-0.038578 0.034753 0.267405
-0.037732 0.035160 0.270433
-0.036082 0.034821 0.267723
-0.034808 0.034832 0.267709
-0.033386 0.034690 0.266523
-0.032052 0.034633 0.265990
-0.030870 0.034741 0.266728
-0.029477 0.034611 0.265647
-0.028245 0.034667 0.265992
-0.026978 0.034684 0.266034
-0.025743 0.034746 0.266429
-0.024480 0.034773 0.266561
-0.023200 0.034779 0.266529
-0.021891 0.034740 0.266159
-0.020614 0.034751 0.266171
-0.019244 0.034594 0.264907
-0.017958 0.034578 0.264720
-0.016561 0.034329 0.262757
-0.015434 0.034644 0.265111
-0.014302 0.035006 0.267828
-0.013015 0.035021 0.267892
-0.011333 0.033860 0.258971
-0.010174 0.034169 0.261287
-0.008811 0.033784 0.258306
-0.007608 0.033983 0.259790
-0.006383 0.034147 0.261018
-0.005164 0.034426 0.263124
-0.003910 0.034586 0.264321
-0.002636 0.034640 0.264713
-0.001361 0.034765 0.265651
-0.000078 0.035330 0.269949
0.001223 0.035206 0.268995
0.002479 0.034571 0.264133
0.006161 0.033749 0.257857
0.007413 0.033766 0.257996
0.008678 0.033834 0.258524
0.009886 0.033689 0.257437
0.011160 0.033775 0.258106
0.012444 0.033872 0.258876
0.013698 0.033877 0.258935
0.014960 0.033899 0.259132
0.016263 0.034002 0.259950
0.017540 0.034041 0.260284
0.018876 0.034181 0.261391
0.020221 0.034319 0.262491
0.021428 0.034220 0.261780
0.022692 0.034217 0.261805
0.024004 0.034284 0.262368
0.025187 0.034169 0.261539
0.026407 0.034112 0.261163
0.027641 0.034078 0.260961
0.030040 0.035420 0.271306
0.038938 0.035171 0.269917
0.039292 0.034343 0.263642
0.041172 0.034858 0.267682
0.042681 0.035039 0.269153
0.043258 0.034465 0.264831
0.043854 0.033939 0.260874
0.044285 0.033318 0.256193
0.045630 0.033400 0.256909
0.046598 0.033209 0.255526
0.047668 0.033098 0.254764
0.048881 0.033089 0.254786
0.050102 0.033086 0.254857
0.051447 0.033164 0.255546
0.052924 0.033320 0.256844
0.053892 0.033157 0.255677
0.055680 0.033494 0.258369
0.058136 0.034209 0.263985
0.060142 0.034634 0.267365
0.061681 0.034779 0.268578
0.063116 0.034860 0.269303
0.064549 0.034937 0.269996
0.065869 0.034950 0.270197
0.067162 0.034949 0.270287
0.068384 0.034912 0.270097
0.069564 0.034855 0.269749
0.070603 0.034731 0.268881
0.071601 0.034591 0.267896
0.072762 0.034534 0.267542
0.073525 0.034292 0.265760
0.074383 0.034103 0.264380
0.075208 0.033905 0.262933
0.075891 0.033651 0.261042
0.076620 0.033425 0.259366
0.077557 0.033295 0.258436
0.078660 0.033239 0.258081
0.079787 0.033195 0.257814
0.080859 0.033130 0.257376
0.082164 0.033161 0.257685
0.083656 0.033265 0.258558
0.085055 0.033330 0.259124
0.096775 0.037379 0.290673
0.098004 0.037319 0.290269
0.099290 0.037282 0.290040
0.100708 0.037295 0.290193
0.102002 0.037262 0.289990
0.103328 0.037242 0.289876
0.104619 0.037210 0.289667
0.106905 0.037527 0.292176
0.107979 0.037417 0.291348
0.109469 0.037452 0.291645
0.110762 0.037419 0.291410
0.112037 0.037380 0.291129
