ply
format ascii 1.0
element vertex 1681
property float x
property float y
property float z
end_header
-0.010211 -0.055858 0.264918
-0.008929 -0.055789 0.264559
-0.007585 -0.055240 0.261925
-0.006311 -0.055095 0.261212
-0.005052 -0.055036 0.260905
-0.003805 -0.055109 0.261232
-0.002557 -0.055256 0.261913
-0.001303 -0.055403 0.262591
-0.000043 -0.055600 0.263513
0.001228 -0.055848 0.264676
0.002513 -0.056140 0.266055
0.003801 -0.056298 0.266799
0.005096 -0.056445 0.267496
0.006246 -0.055250 0.261832
0.007364 -0.054220 0.256957
0.008614 -0.054323 0.257450
0.009875 -0.054455 0.258086
0.011081 -0.054288 0.257307
0.012336 -0.054373 0.257722
0.013595 -0.054458 0.258142
0.014854 -0.054527 0.258486
0.016139 -0.054674 0.259210
0.017342 -0.054543 0.258611
0.018616 -0.054635 0.259074
0.019959 -0.054909 0.260402
0.021517 -0.055704 0.264207
0.023032 -0.056305 0.267091
0.024321 -0.056321 0.267204
0.025220 -0.055477 0.263237
0.026235 -0.054956 0.260807
0.027325 -0.054633 0.259318
0.028477 -0.054456 0.258522
0.029686 -0.054398 0.258291
0.030856 -0.054276 0.257763
0.032054 -0.054212 0.257505
0.033442 -0.054460 0.258734
0.034779 -0.054610 0.259504
0.035986 -0.054555 0.259295
0.037374 -0.054767 0.260360
0.038936 -0.055212 0.262532
0.040377 -0.055464 0.263792
0.041670 -0.055503 0.264037
0.042949 -0.055520 0.264180
0.044281 -0.055604 0.264644
0.045357 -0.055371 0.263599
0.046751 -0.055527 0.264406
0.048120 -0.055647 0.265043
0.048984 -0.055192 0.262940
0.050556 -0.055536 0.264646
0.051955 -0.055680 0.265395
0.053518 -0.055987 0.266928
0.054890 -0.056085 0.267462
0.056349 -0.056265 0.268390
0.057620 -0.056253 0.268400
0.059024 -0.056369 0.269021
0.060478 -0.056527 0.269842
0.061800 -0.056558 0.270053
0.063257 -0.056708 0.270838
0.064693 -0.056834 0.271505
0.066124 -0.056950 0.272125
0.067494 -0.057011 0.272478
0.068861 -0.057066 0.272805
0.070022 -0.056952 0.272321
0.071219 -0.056870 0.271992
0.072236 -0.056651 0.271000
0.073029 -0.056267 0.269220
0.073750 -0.055841 0.267238
0.074666 -0.055575 0.266015
0.075325 -0.055130 0.263933
0.076726 -0.055233 0.264473
0.077662 -0.055004 0.263422
0.078667 -0.054830 0.262629
0.080973 -0.055554 0.266136
0.082235 -0.055551 0.266158
0.083986 -0.055873 0.267735
0.084701 -0.055505 0.266006
0.086701 -0.055979 0.268306
0.087852 -0.055899 0.267947
0.099176 -0.061324 0.293992
0.099849 -0.060881 0.291883
0.101332 -0.060938 0.292164
0.102793 -0.060980 0.292368
0.104191 -0.060984 0.292388
0.105683 -0.061042 0.292661
0.107013 -0.061006 0.292479
0.108371 -0.060986 0.292371
0.109818 -0.061017 0.292497
0.111129 -0.060973 0.292256
0.112412 -0.060914 0.291942
0.113762 -0.060892 0.291800
0.115153 -0.060893 0.291756
0.116426 -0.060832 0.291412
0.117759 -0.060803 0.291215
0.119097 -0.060778 0.291027
0.120485 -0.060778 0.290955
0.121980 -0.060832 0.291131
0.123543 -0.060918 0.291452
0.125184 -0.061040 0.291936
0.126605 -0.061053 0.291894
0.128095 -0.061099 0.291998
0.129735 -0.061215 0.292424
0.131030 -0.061167 0.292062
0.132497 -0.061199 0.292073
0.133964 -0.061231 0.292071
0.135414 -0.061255 0.292019
0.136873 -0.061282 0.291972
0.138597 -0.061426 0.292471
0.140135 -0.061485 0.292554
0.141477 -0.061458 0.292216
0.143149 -0.061573 0.292542
0.144830 -0.061690 0.292861
0.146518 -0.061808 0.293171
0.147920 -0.061804 0.292887
0.149541 -0.061890 0.293020
0.150950 -0.061888 0.292719
0.152537 -0.061959 0.292745
0.154482 -0.062172 0.293426
-0.140769 -0.054109 0.263602
-0.140405 -0.054453 0.265546
-0.142625 -0.055815 0.272449
-0.141290 -0.055798 0.272615
-0.140168 -0.055865 0.273180
-0.147362 -0.059278 0.290110
-0.145038 -0.058892 0.288443
-0.143632 -0.058874 0.288567
-0.142164 -0.058831 0.288554
-0.141314 -0.059044 0.289789
-0.139359 -0.058797 0.288749
-0.138074 -0.058829 0.289073
-0.137631 -0.059224 0.291173
-0.137291 -0.059673 0.293524
-0.133620 -0.058668 0.288716
-0.131036 -0.058124 0.286165
-0.128076 -0.057401 0.282718
-0.129823 -0.058794 0.289687
-0.141492 -0.064759 0.319182
-0.140496 -0.064992 0.320430
-0.139190 -0.065085 0.320980
-0.125903 -0.059517 0.293595
-0.123586 -0.059069 0.291450
-0.121888 -0.058910 0.290723
-0.120329 -0.058815 0.290306
-0.119022 -0.058843 0.290487
-0.117939 -0.058984 0.291217
-0.116541 -0.058969 0.291172
-0.115249 -0.059007 0.291386
-0.113977 -0.059057 0.291649
-0.112496 -0.058999 0.291372
-0.111367 -0.059126 0.292004
-0.110084 -0.059173 0.292238
-0.108677 -0.059154 0.292138
-0.107432 -0.059224 0.292471
-0.106386 -0.059407 0.293360
-0.104995 -0.059400 0.293303
-0.103309 -0.059223 0.292403
-0.101916 -0.059212 0.292317
-0.100555 -0.059220 0.292319
-0.099183 -0.059221 0.292287
-0.097569 -0.059076 0.291525
-0.096312 -0.059147 0.291825
-0.095921 -0.059758 0.294787
-0.097735 -0.061781 0.304713
-0.096445 -0.061873 0.305105
-0.095752 -0.062358 0.307429
-0.094425 -0.062437 0.307751
-0.092925 -0.062404 0.307513
-0.091352 -0.062319 0.307020
-0.089915 -0.062326 0.306975
-0.088591 -0.062413 0.307324
-0.087008 -0.062317 0.306769
-0.085177 -0.062037 0.305307
-0.083609 -0.061943 0.304757
-0.082274 -0.062021 0.305051
-0.080706 -0.061923 0.304478
-0.079018 -0.061728 0.303425
-0.078252 -0.062259 0.305943
-0.076696 -0.062171 0.305412
-0.075384 -0.062280 0.305848
-0.067530 -0.059200 0.290441
-0.066262 -0.059296 0.290813
-0.064987 -0.059391 0.291180
-0.063651 -0.059431 0.291280
-0.062369 -0.059526 0.291645
-0.061026 -0.059566 0.291741
-0.059680 -0.059604 0.291831
-0.058271 -0.059579 0.291610
-0.056872 -0.059565 0.291442
-0.055612 -0.059699 0.291996
-0.054249 -0.059726 0.292032
-0.052672 -0.059513 0.290890
-0.051437 -0.059685 0.291637
-0.050215 -0.059883 0.292503
-0.048599 -0.059608 0.291068
-0.047211 -0.059606 0.290960
-0.045883 -0.059681 0.291236
-0.044520 -0.059715 0.291309
-0.043065 -0.059623 0.290765
-0.041706 -0.059663 0.290874
-0.039688 -0.058730 0.286236
-0.039246 -0.060146 0.293050
-0.037880 -0.060198 0.293219
-0.036057 -0.059501 0.289741
-0.034983 -0.060032 0.292245
-0.030439 -0.054408 0.264791
-0.028849 -0.053803 0.261780
-0.027453 -0.053522 0.260345
-0.026410 -0.053934 0.262282
-0.025029 -0.053665 0.260910
-0.023733 -0.053556 0.260319
-0.022535 -0.053673 0.260829
-0.021333 -0.053791 0.261345
-0.020128 -0.053917 0.261901
-0.019019 -0.054334 0.263872
-0.017878 -0.054710 0.265649
-0.016786 -0.055310 0.268509
-0.015505 -0.055332 0.268570
-0.014390 -0.056006 0.271800
-0.013128 -0.056182 0.272610
-0.011733 -0.055770 0.270574
-0.010450 -0.055850 0.270926
-0.009157 -0.055895 0.271108
-0.007758 -0.055201 0.267713
-0.006421 -0.054761 0.265550
-0.005150 -0.054801 0.265721
-0.003846 -0.054409 0.263801
-0.002588 -0.054602 0.264716
-0.001324 -0.054925 0.266268
-0.000045 -0.054630 0.264822
0.001237 -0.055048 0.266838
0.002516 -0.054980 0.266502
0.003827 -0.055429 0.268677
0.005130 -0.055552 0.269269
0.006241 -0.053976 0.261633
0.007408 -0.053321 0.258462
0.008674 -0.053469 0.259186
0.009938 -0.053569 0.259677
0.011169 -0.053489 0.259303
0.012442 -0.053605 0.259881
0.013725 -0.053737 0.260538
0.014996 -0.053803 0.260879
0.016269 -0.053869 0.261220
0.017539 -0.053914 0.261464
0.018796 -0.053917 0.261506
0.020112 -0.054076 0.262308
0.021572 -0.054582 0.264798
0.022881 -0.054670 0.265261
0.024287 -0.054967 0.266741
0.025234 -0.054249 0.263297
0.026341 -0.053927 0.261777
0.027437 -0.053612 0.260291
0.028548 -0.053354 0.259080
0.029756 -0.053290 0.258817
0.030970 -0.053241 0.258631
0.032204 -0.053229 0.258625
0.033509 -0.053330 0.259166
0.034859 -0.053494 0.260017
0.036259 -0.053721 0.261176
0.037632 -0.053893 0.262073
0.039063 -0.054135 0.263309
0.040351 -0.054169 0.263534
0.041751 -0.054347 0.264463
0.043061 -0.054402 0.264792
0.044343 -0.054418 0.264935
0.045688 -0.054509 0.265445
0.046912 -0.054454 0.265243
0.048177 -0.054448 0.265282
0.049042 -0.054002 0.263176
0.050615 -0.054338 0.264883
0.051711 -0.054159 0.264076
0.052955 -0.054139 0.264049
0.054448 -0.054369 0.265238
0.055625 -0.054281 0.264875
0.056978 -0.054363 0.265345
0.058316 -0.054428 0.265731
0.059963 -0.054773 0.267483
0.061543 -0.055043 0.268871
0.063070 -0.055255 0.269977
0.064796 -0.055631 0.271879
0.066093 -0.055630 0.271942
0.067515 -0.055732 0.272507
0.069064 -0.055934 0.273558
0.070308 -0.055885 0.273384
0.071487 -0.055787 0.272967
0.072424 -0.055508 0.271663
0.073104 -0.055045 0.269454
0.073853 -0.054648 0.267568
0.074833 -0.054433 0.266572
0.075271 -0.053838 0.263706
0.075798 -0.053325 0.261242
0.076354 -0.052848 0.258953
0.077100 -0.052516 0.257371
0.078213 -0.052441 0.257041
0.079396 -0.052413 0.256945
0.080388 -0.052263 0.256242
0.082110 -0.052584 0.257851
0.083402 -0.052625 0.258079
0.084700 -0.052668 0.258318
0.096092 -0.058897 0.288892
0.097326 -0.058812 0.288496
0.099694 -0.059405 0.291423
0.101315 -0.059543 0.292110
0.102823 -0.059611 0.292452
0.104167 -0.059583 0.292320
0.105263 -0.059417 0.291503
0.106892 -0.059551 0.292155
0.108051 -0.059424 0.291519
0.109497 -0.059456 0.291656
0.111110 -0.059576 0.292223
0.112459 -0.059554 0.292083
0.113700 -0.059476 0.291663
0.115170 -0.059517 0.291824
0.116472 -0.059473 0.291557
0.117874 -0.059479 0.291532
0.119204 -0.059450 0.291324
0.120680 -0.059493 0.291464
0.122148 -0.059531 0.291573
0.123593 -0.059557 0.291615
0.125064 -0.059595 0.291706
0.126390 -0.059564 0.291450
0.127644 -0.059500 0.291026
0.129092 -0.059527 0.291035
0.130299 -0.059443 0.290495
0.131608 -0.059407 0.290181
0.133869 -0.059797 0.291935
0.135352 -0.059835 0.291960
0.137040 -0.059962 0.292408
0.138494 -0.059984 0.292335
0.140149 -0.060093 0.292671
0.141674 -0.060145 0.292715
0.143278 -0.060228 0.292901
0.144565 -0.060178 0.292426
0.146214 -0.060277 0.292667
0.148025 -0.060442 0.293206
0.149584 -0.060501 0.293221
0.150946 -0.060480 0.292831
0.152511 -0.060540 0.292819
0.154220 -0.060655 0.293060
-0.140538 -0.052762 0.263272
-0.140685 -0.053291 0.266177
-0.142636 -0.054518 0.272568
-0.140857 -0.054330 0.271872
-0.140230 -0.054587 0.273391
-0.139450 -0.054789 0.274621
-0.145112 -0.057549 0.288677
-0.143707 -0.057532 0.288800
-0.142240 -0.057491 0.288786
-0.141391 -0.057700 0.290022
-0.143989 -0.059334 0.298415
-0.142774 -0.059414 0.298982
-0.141620 -0.059521 0.299678
-0.140286 -0.059554 0.299989
-0.139660 -0.059891 0.301825
-0.132524 -0.057414 0.289466
-0.132240 -0.057886 0.291958
-0.131053 -0.057968 0.292477
-0.142084 -0.063514 0.320563
-0.140957 -0.063686 0.321525
-0.139649 -0.063778 0.322077
-0.124886 -0.057661 0.291256
-0.123339 -0.057577 0.290895
-0.121677 -0.057437 0.290245
-0.119903 -0.057242 0.289302
-0.118930 -0.057428 0.290282
-0.117524 -0.057407 0.290210
-0.116226 -0.057438 0.290396
-0.115135 -0.057575 0.291107
-0.113503 -0.057441 0.290443
-0.112477 -0.057613 0.291324
-0.111474 -0.057803 0.292285
-0.109796 -0.057643 0.291470
-0.108690 -0.057782 0.292168
-0.107516 -0.057889 0.292691
-0.106354 -0.058005 0.293261
-0.104714 -0.057860 0.292503
-0.103391 -0.057889 0.292617
-0.101743 -0.057734 0.291801
-0.100256 -0.057668 0.291428
-0.099486 -0.058018 0.293154
-0.097905 -0.057898 0.292501
-0.095265 -0.057140 0.288621
-0.095094 -0.057861 0.292213
-0.098475 -0.060798 0.306980
-0.097175 -0.060889 0.307376
-0.095763 -0.060911 0.307418
-0.094484 -0.061020 0.307896
-0.092996 -0.060995 0.307698
-0.091226 -0.060782 0.306546
-0.089931 -0.060883 0.306975
-0.088324 -0.060774 0.306339
-0.086583 -0.060566 0.305208
-0.085252 -0.060644 0.305513
-0.083465 -0.060394 0.304166
-0.082260 -0.060564 0.304930
-0.080814 -0.060560 0.304815
-0.079164 -0.060400 0.303912
-0.078184 -0.060755 0.305603
-0.076515 -0.060577 0.304612
-0.075351 -0.060801 0.305633
-0.071435 -0.059942 0.301114
-0.067541 -0.057829 0.290404
-0.066283 -0.057931 0.290818
-0.065051 -0.058062 0.291376
-0.063784 -0.058167 0.291800
-0.062432 -0.058196 0.291847
-0.061032 -0.058182 0.291674
-0.059653 -0.058187 0.291600
-0.058424 -0.058343 0.292277
-0.056810 -0.058112 0.291021
-0.055529 -0.058219 0.291457
-0.054249 -0.058332 0.291920
-0.052754 -0.058215 0.291236
-0.051392 -0.058242 0.291270
-0.050024 -0.058263 0.291278
-0.048579 -0.058193 0.290832
-0.047228 -0.058235 0.290947
-0.045863 -0.058263 0.290988
-0.044488 -0.058278 0.290972
-0.043081 -0.058252 0.290749
-0.041696 -0.058256 0.290676
-0.039763 -0.057467 0.286652
-0.038910 -0.058238 0.290411
-0.037556 -0.058290 0.290579
-0.036083 -0.058153 0.289815
-0.035021 -0.058695 0.292432
-0.030264 -0.052831 0.263144
-0.028767 -0.052395 0.260901
-0.027389 -0.052149 0.259606
-0.026311 -0.052476 0.261167
-0.025013 -0.052376 0.260603
-0.023713 -0.052260 0.259964
-0.022495 -0.052323 0.260218
-0.021328 -0.052519 0.261135
-0.020152 -0.052718 0.262070
-0.019012 -0.053040 0.263615
-0.017911 -0.053529 0.265994
-0.016810 -0.054091 0.268736
-0.015479 -0.053944 0.267961
-0.014389 -0.054687 0.271603
-0.013121 -0.054833 0.272287
-0.011776 -0.054658 0.271377
-0.010481 -0.054701 0.271554
-0.009156 -0.054572 0.270882
-0.007821 -0.054336 0.269678
-0.006463 -0.053818 0.267080
-0.005199 -0.054012 0.268016
-0.003900 -0.053857 0.267228
-0.002605 -0.053626 0.266063
-0.001333 -0.053887 0.267341
-0.000048 -0.053899 0.267386
0.001241 -0.054042 0.268086
0.002521 -0.053865 0.267202
0.003834 -0.054264 0.269173
0.005135 -0.054345 0.269576
0.006289 -0.053144 0.263622
0.007449 -0.052385 0.259857
0.008702 -0.052408 0.259983
0.009961 -0.052453 0.260214
0.011201 -0.052402 0.259975
0.012469 -0.052478 0.260366
0.013722 -0.052482 0.260405
0.014992 -0.052546 0.260743
0.016254 -0.052573 0.260898
0.017515 -0.052592 0.261021
0.018803 -0.052685 0.261512
0.020086 -0.052754 0.261884
0.021598 -0.053380 0.265029
0.023004 -0.053689 0.266595
0.024237 -0.053582 0.266104
0.025251 -0.053027 0.263389
0.026439 -0.052872 0.262661
0.027552 -0.052588 0.261296
0.028701 -0.052394 0.260380
0.029917 -0.052333 0.260124
0.031125 -0.052265 0.259838
0.032441 -0.052374 0.260435
0.033676 -0.052351 0.260374
0.035021 -0.052495 0.261143
0.036364 -0.052625 0.261850
0.037728 -0.052775 0.262655
0.039136 -0.052976 0.263716
0.040470 -0.053066 0.264228
0.041722 -0.053048 0.264201
0.043309 -0.053443 0.266232
0.044685 -0.053563 0.266899
0.045918 -0.053510 0.266700
0.045020 -0.051043 0.254470
0.046279 -0.051087 0.254755
0.047571 -0.051165 0.255212
0.048803 -0.051175 0.255331
0.050049 -0.051200 0.255521
0.051381 -0.051309 0.256135
0.052646 -0.051347 0.256393
0.053825 -0.051303 0.256238
0.055492 -0.051714 0.258364
0.056904 -0.051875 0.259236
0.059653 -0.053222 0.266036
0.061441 -0.053674 0.268366
0.063455 -0.054300 0.271566
0.064777 -0.054321 0.271743
0.066049 -0.054300 0.271704
0.067643 -0.054539 0.272971
0.068999 -0.054581 0.273248
0.070134 -0.054450 0.272656
0.071349 -0.054385 0.272396
0.071823 -0.053767 0.269363
0.072391 -0.053240 0.266780
0.073603 -0.053196 0.266621
0.074177 -0.052701 0.264197
0.074010 -0.051705 0.259254
0.074182 -0.050974 0.255638
0.075410 -0.050981 0.255719
0.076398 -0.050827 0.254996
0.077544 -0.050783 0.254816
0.078842 -0.050837 0.255127
0.080371 -0.051036 0.256165
0.081849 -0.051198 0.257013
0.083071 -0.051197 0.257037
0.084614 -0.051391 0.258041
0.087566 -0.052423 0.263248
0.098021 -0.057854 0.290544
0.101468 -0.059055 0.296597
0.101504 -0.058266 0.292649
0.102946 -0.058294 0.292797
0.104470 -0.058367 0.293171
0.105682 -0.058266 0.292665
0.107010 -0.058230 0.292481
0.108368 -0.058212 0.292382
0.109714 -0.058188 0.292244
0.111101 -0.058185 0.292212
0.112396 -0.058136 0.291936
0.114010 -0.058251 0.292479
0.115367 -0.058232 0.292348
0.116598 -0.058152 0.291896
0.118027 -0.058171 0.291939
0.119306 -0.058117 0.291606
0.120536 -0.058039 0.291152
0.122060 -0.058104 0.291401
0.123728 -0.058235 0.291975
0.124897 -0.058131 0.291361
0.126476 -0.058218 0.291698
0.127860 -0.058214 0.291571
0.129056 -0.058126 0.291010
0.130523 -0.058160 0.291055
0.132288 -0.058325 0.291744
0.133782 -0.058368 0.291814
0.135029 -0.058303 0.291333
0.136740 -0.058438 0.291842
0.138668 -0.058663 0.292783
0.140017 -0.058640 0.292479
0.141456 -0.058655 0.292353
0.143031 -0.058725 0.292490
0.144756 -0.058855 0.292909
0.146501 -0.058991 0.293344
0.147989 -0.059021 0.293241
0.149439 -0.059036 0.293046
0.150780 -0.059008 0.292626
0.152017 -0.058940 0.291992
0.153754 -0.059065 0.292300
-0.140271 -0.051405 0.262872
-0.140566 -0.051975 0.266047
-0.141774 -0.052897 0.271016
-0.141684 -0.053346 0.273560
-0.140119 -0.053243 0.273260
-0.139610 -0.053543 0.275018
-0.138694 -0.053692 0.275987
-0.137878 -0.053882 0.277162
-0.136536 -0.053869 0.277276
-0.135668 -0.054044 0.278353
-0.140867 -0.056663 0.292012
-0.139680 -0.056739 0.292567
-0.138959 -0.057009 0.294109
-0.137815 -0.057109 0.294764
-0.136420 -0.057105 0.294876
-0.135666 -0.057374 0.296381
-0.134463 -0.057455 0.296913
-0.131135 -0.056621 0.292704
-0.142175 -0.062038 0.320811
-0.141049 -0.062207 0.321774
-0.123931 -0.055855 0.289058
-0.122707 -0.055916 0.289432
-0.121542 -0.056005 0.289947
-0.120240 -0.056033 0.290134
-0.118635 -0.055918 0.289580
-0.117530 -0.056040 0.290238
-0.115700 -0.055814 0.289095
-0.114496 -0.055889 0.289499
-0.113258 -0.055949 0.289821
-0.111807 -0.055904 0.289591
-0.110818 -0.056092 0.290563
-0.109599 -0.056166 0.290943
-0.108415 -0.056261 0.291422
-0.107291 -0.056389 0.292071
-0.103876 -0.055301 0.286414
-0.104867 -0.056562 0.292913
-0.103575 -0.056608 0.293120
-0.101936 -0.056463 0.292334
-0.100483 -0.056419 0.292065
-0.098812 -0.056249 0.291140
-0.097859 -0.056489 0.292335
-0.095495 -0.055910 0.289285
-0.095371 -0.056645 0.293028
-0.096998 -0.058457 0.302339
-0.095719 -0.058545 0.302729
-0.094920 -0.058933 0.304667
-0.093706 -0.059073 0.305316
-0.092143 -0.058993 0.304826
-0.090609 -0.058930 0.304420
-0.089043 -0.058843 0.303890
-0.087541 -0.058797 0.303565
-0.086202 -0.058861 0.303807
-0.084768 -0.058860 0.303717
-0.083297 -0.058833 0.303486
-0.081909 -0.058866 0.303562
-0.080608 -0.058963 0.303967
-0.079125 -0.058929 0.303692
-0.077690 -0.058929 0.303595
-0.076091 -0.058803 0.302845
-0.075009 -0.059079 0.304165
-0.073669 -0.059160 0.304476
-0.071514 -0.058575 0.301364
-0.067492 -0.056407 0.290106
-0.066257 -0.056526 0.290620
-0.064966 -0.056601 0.290905
-0.063642 -0.056651 0.291056
-0.062334 -0.056717 0.291295
-0.061013 -0.056774 0.291485
-0.059696 -0.056839 0.291713
-0.058311 -0.056839 0.291609
-0.056975 -0.056889 0.291763
-0.055617 -0.056918 0.291811
-0.054281 -0.056972 0.291988
-0.052874 -0.056953 0.291788
-0.051443 -0.056906 0.291445
-0.050145 -0.057009 0.291871
-0.048705 -0.056950 0.291472
-0.047290 -0.056919 0.291216
-0.045916 -0.056936 0.291204
-0.044564 -0.056984 0.291351
-0.043156 -0.056960 0.291135
-0.041669 -0.056826 0.290361
-0.039809 -0.056158 0.286853
-0.038968 -0.056931 0.290714
-0.037612 -0.056981 0.290883
-0.036040 -0.056695 0.289334
-0.034897 -0.057088 0.291254
-0.030533 -0.052025 0.265349
-0.028807 -0.051213 0.261138
-0.027364 -0.050854 0.259239
-0.026318 -0.051233 0.261102
-0.024998 -0.051091 0.260314
-0.023706 -0.050994 0.259753
-0.022502 -0.051086 0.260163
-0.021309 -0.051216 0.260763
-0.020135 -0.051412 0.261707
-0.019031 -0.051821 0.263735
-0.017933 -0.052309 0.266165
-0.016807 -0.052784 0.268530
-0.015492 -0.052694 0.268026
-0.014360 -0.053267 0.270895
-0.013123 -0.053526 0.272166
-0.011757 -0.053260 0.270773
-0.010453 -0.053241 0.270644
-0.009136 -0.053140 0.270093
-0.007787 -0.052795 0.268310
-0.006480 -0.052652 0.267557
-0.005189 -0.052598 0.267255
-0.003908 -0.052646 0.267476
-0.002626 -0.052718 0.267825
-0.001337 -0.052660 0.267512
-0.000050 -0.052812 0.268274
0.001241 -0.052872 0.268564
0.002527 -0.052759 0.267986
0.003839 -0.053073 0.269575
0.005127 -0.052981 0.269108
0.006282 -0.051836 0.263292
0.007478 -0.051347 0.260815
0.008729 -0.051329 0.260731
0.009973 -0.051276 0.260471
0.011187 -0.051097 0.259575
0.012448 -0.051147 0.259847
0.013706 -0.051178 0.260023
0.014985 -0.051275 0.260533
0.016272 -0.051382 0.261102
0.017539 -0.051414 0.261292
0.018792 -0.051405 0.261277
0.020186 -0.051759 0.263107
0.021554 -0.052005 0.264392
0.022876 -0.052122 0.265025
0.024092 -0.051997 0.264427
0.025190 -0.051640 0.262657
0.026500 -0.051734 0.263179
0.027615 -0.051454 0.261802
0.028829 -0.051377 0.261455
0.030024 -0.051272 0.260970
0.031225 -0.051186 0.260586
0.032444 -0.051134 0.260375
0.033757 -0.051230 0.260917
0.035031 -0.051260 0.261129
0.036252 -0.051214 0.260954
0.037640 -0.051400 0.261963
0.038855 -0.051344 0.261737
0.040167 -0.051416 0.262171
0.041548 -0.051569 0.263014
0.043000 -0.051799 0.264253
0.044239 -0.051766 0.264154
0.044137 -0.050210 0.256280
0.045257 -0.050090 0.255734
0.046484 -0.050092 0.255813
0.047681 -0.050062 0.255728
0.048882 -0.050038 0.255671
0.050056 -0.049988 0.255487
0.051292 -0.050000 0.255620
0.052593 -0.050074 0.256068
0.053839 -0.050094 0.256236
0.055087 -0.050114 0.256411
0.056442 -0.050229 0.257068
0.058544 -0.050989 0.261031
0.061711 -0.052626 0.269481
0.063097 -0.052708 0.269974
0.064649 -0.052923 0.271146
0.066161 -0.053097 0.272107
0.067474 -0.053107 0.272232
0.068903 -0.053208 0.272816
0.070120 -0.053143 0.272553
0.071189 -0.052971 0.271735
0.071989 -0.052608 0.269939
0.072612 -0.052131 0.267554
0.073767 -0.052046 0.267176
0.074549 -0.051704 0.265480
0.073870 -0.050378 0.258728
0.074292 -0.049834 0.255985
0.075645 -0.049922 0.256487
0.076722 -0.049827 0.256049
0.077768 -0.049716 0.255524
0.079061 -0.049764 0.255811
0.080634 -0.049984 0.256980
0.082134 -0.050152 0.257884
0.083169 -0.050037 0.257323
0.085073 -0.050439 0.259422
0.086407 -0.050497 0.259748
0.099010 -0.057046 0.293462
0.100259 -0.056962 0.293054
0.101745 -0.057013 0.293334
0.103124 -0.057003 0.293298
0.104580 -0.057036 0.293476
0.105732 -0.056905 0.292803
0.107094 -0.056888 0.292714
0.108440 -0.056863 0.292580
0.109751 -0.056821 0.292351
0.111120 -0.056809 0.292273
0.112388 -0.056747 0.291930
0.113636 -0.056676 0.291535
0.115043 -0.056686 0.291547
0.116424 -0.056682 0.291485
0.117765 -0.056659 0.291317
0.119214 -0.056688 0.291410
0.120689 -0.056729 0.291555
0.122089 -0.056733 0.291507
0.123444 -0.056718 0.291346
0.124811 -0.056707 0.291205
0.126232 -0.056721 0.291181
0.127581 -0.056704 0.290985
0.128923 -0.056683 0.290764
0.130398 -0.056720 0.290834
0.132058 -0.056836 0.291296
0.133676 -0.056932 0.291646
0.135094 -0.056942 0.291542
0.136401 -0.056905 0.291191
0.138128 -0.057042 0.291718
0.139841 -0.057171 0.292192
0.141490 -0.057271 0.292506
0.142740 -0.057210 0.291982
0.144459 -0.057335 0.292401
0.146241 -0.057483 0.292920
0.147863 -0.057566 0.293092
0.149394 -0.057612 0.293064
0.150727 -0.057582 0.292634
0.152316 -0.057649 0.292683
0.153941 -0.057729 0.292776
-0.140329 -0.050170 0.263075
-0.139934 -0.050477 0.264944
-0.140152 -0.051014 0.268004
-0.139409 -0.051207 0.269252
-0.138392 -0.051302 0.269974
-0.136875 -0.051212 0.269710
-0.136136 -0.051414 0.270972
-0.135083 -0.051500 0.271615
-0.133861 -0.051523 0.271912
-0.133039 -0.051701 0.273022
-0.132289 -0.051912 0.274291
-0.131016 -0.051920 0.274479
-0.130519 -0.052238 0.276299
-0.129708 -0.052436 0.277476
-0.127476 -0.052057 0.275591
-0.127673 -0.052674 0.278964
-0.126587 -0.052767 0.279563
-0.124376 -0.052390 0.277656
-0.124505 -0.053000 0.280974
-0.123488 -0.053131 0.281745
-0.129536 -0.056337 0.298819
-0.128322 -0.056420 0.299327
-0.124564 -0.055374 0.293836
-0.123223 -0.055392 0.293977
-0.121813 -0.055378 0.293947
-0.120557 -0.055435 0.294285
-0.116916 -0.054384 0.288733
-0.116111 -0.054643 0.290131
-0.114168 -0.054367 0.288675
-0.113298 -0.054601 0.289927
-0.111563 -0.054418 0.288961
-0.110036 -0.054334 0.288511
-0.108375 -0.054181 0.287687
-0.107285 -0.054313 0.288375
-0.106207 -0.054455 0.289109
-0.104796 -0.054427 0.288936
-0.103620 -0.054523 0.289414
-0.103355 -0.055107 0.292478
-0.101688 -0.054949 0.291601
-0.099813 -0.054672 0.290092
-0.098570 -0.054740 0.290401
-0.097136 -0.054701 0.290144
-0.095626 -0.054618 0.289650
-0.094511 -0.054762 0.290352
-0.097605 -0.057384 0.304191
-0.096319 -0.057472 0.304585
-0.094250 -0.057087 0.302475
-0.093421 -0.057453 0.304337
-0.091822 -0.057350 0.303714
-0.089937 -0.057063 0.302110
-0.088817 -0.057258 0.303063
-0.087179 -0.057122 0.302254
-0.085752 -0.057122 0.302162
-0.084731 -0.057395 0.303518
-0.083164 -0.057303 0.302937
-0.081786 -0.057340 0.303036
-0.080477 -0.057428 0.303401
-0.078999 -0.057396 0.303136
-0.077526 -0.057367 0.302879
-0.075905 -0.057225 0.302026
-0.074695 -0.057393 0.302813
-0.071592 -0.057205 0.301609
-0.067517 -0.055048 0.290132
-0.066293 -0.055173 0.290693
-0.064922 -0.055179 0.290619
-0.063833 -0.055431 0.291839
-0.062470 -0.055450 0.291836
-0.060905 -0.055288 0.290876
-0.059756 -0.055503 0.291906
-0.058350 -0.055485 0.291704
-0.056846 -0.055371 0.290999
-0.055576 -0.055485 0.291494
-0.053937 -0.055226 0.290033
-0.052682 -0.055358 0.290620
-0.051417 -0.055486 0.291189
-0.049972 -0.055421 0.290748
-0.048596 -0.055432 0.290705
-0.047234 -0.055460 0.290753
-0.045871 -0.055488 0.290800
-0.044537 -0.055554 0.291052
-0.043022 -0.055393 0.290109
-0.041651 -0.055411 0.290111
-0.039689 -0.054617 0.285863
-0.038753 -0.055230 0.288979
-0.037405 -0.055279 0.289147
-0.036049 -0.055319 0.289271
-0.035007 -0.055864 0.292033
-0.030518 -0.050725 0.265094
-0.028763 -0.049882 0.260612
-0.027429 -0.049725 0.259724
-0.026318 -0.049979 0.260980
-0.025014 -0.049871 0.260349
-0.023723 -0.049781 0.259816
-0.022471 -0.049766 0.259674
-0.021301 -0.049942 0.260533
-0.020174 -0.050247 0.262066
-0.019101 -0.050735 0.264556
-0.017945 -0.051058 0.266186
-0.016845 -0.051603 0.268976
-0.015619 -0.051821 0.270066
-0.014468 -0.052348 0.272765
-0.013201 -0.052519 0.273614
-0.011929 -0.052707 0.274550
-0.010605 -0.052684 0.274394
-0.009304 -0.052786 0.274888
-0.007895 -0.052202 0.271818
-0.006550 -0.051903 0.270232
-0.005271 -0.052097 0.271213
-0.003950 -0.051881 0.270070
-0.002639 -0.051649 0.268840
-0.001350 -0.051797 0.269595
-0.000053 -0.051739 0.269278
0.001244 -0.051803 0.269602
0.002536 -0.051702 0.269069
0.003830 -0.051684 0.268969
0.005127 -0.051712 0.269118
0.006319 -0.050880 0.264789
0.007520 -0.050394 0.262265
0.008773 -0.050341 0.261994
0.010002 -0.050178 0.261158
0.011211 -0.049967 0.260074
0.012468 -0.049988 0.260200
0.013722 -0.049994 0.260250
0.014975 -0.049997 0.260287
0.016275 -0.050145 0.261081
0.017583 -0.050291 0.261868
0.018842 -0.050288 0.261885
0.020263 -0.050691 0.264018
0.021586 -0.050815 0.264701
0.022781 -0.050642 0.263836
0.024100 -0.050748 0.264427
0.025270 -0.050545 0.263412
0.026547 -0.050564 0.263554
0.027795 -0.050530 0.263424
0.029104 -0.050604 0.263862
0.030329 -0.050531 0.263531
0.031576 -0.050500 0.263423
0.032888 -0.050571 0.263853
0.034130 -0.050533 0.263712
0.035441 -0.050597 0.264104
0.036593 -0.050436 0.263326
0.037800 -0.050360 0.262987
0.039145 -0.050466 0.263609
0.040393 -0.050446 0.263565
0.041560 -0.050326 0.263008
0.042974 -0.050506 0.264013
0.044223 -0.050486 0.263978
0.044205 -0.049061 0.256598
0.045493 -0.049124 0.256995
0.046692 -0.049090 0.256885
0.047856 -0.049021 0.256596
0.049030 -0.048966 0.256377
0.050212 -0.048921 0.256212
0.051421 -0.048904 0.256195
0.052672 -0.048927 0.256386
0.053857 -0.048888 0.256257
0.055087 -0.048892 0.256347
0.056300 -0.048880 0.256358
0.058281 -0.049522 0.259797
0.061094 -0.050829 0.266726
0.063267 -0.051561 0.270642
0.064676 -0.051653 0.271199
0.066125 -0.051774 0.271905
0.067616 -0.051921 0.272752
0.068930 -0.051930 0.272869
0.070212 -0.051914 0.272857
0.071382 -0.051818 0.272422
0.072077 -0.051387 0.270220
0.073066 -0.051176 0.269179
0.074254 -0.051111 0.268895
0.074611 -0.050485 0.265663
0.074802 -0.049769 0.261953
0.074861 -0.048990 0.257909
0.076071 -0.048978 0.257897
0.077189 -0.048907 0.257576
0.078025 -0.048664 0.256340
0.079252 -0.048667 0.256401
0.080427 -0.048639 0.256298
0.081660 -0.048647 0.256375
0.082886 -0.048649 0.256425
0.084528 -0.048893 0.257743
0.085980 -0.049022 0.258451
0.097717 -0.054927 0.289615
0.099710 -0.055268 0.291436
0.101760 -0.055630 0.293366
0.103154 -0.055629 0.293378
0.104479 -0.055591 0.293189
0.105478 -0.055383 0.292097
0.106881 -0.055389 0.292133
0.108243 -0.055375 0.292054
0.109361 -0.055238 0.291321
0.110658 -0.055193 0.291069
0.112070 -0.055206 0.291116
0.114481 -0.055705 0.293720
0.115608 -0.055574 0.292997
0.116501 -0.055336 0.291700
0.118156 -0.055460 0.292309
0.119452 -0.055415 0.292020
0.120558 -0.055284 0.291269
0.122036 -0.055325 0.291414
0.123858 -0.055519 0.292360
0.124691 -0.055270 0.290965
0.126674 -0.055531 0.292245
0.127918 -0.055466 0.291801
0.129073 -0.055364 0.291153
0.130692 -0.055461 0.291544
0.132366 -0.055579 0.292035
0.133722 -0.055562 0.291808
0.135376 -0.055668 0.292216
0.136667 -0.055625 0.291828
0.138359 -0.055743 0.292280
0.139887 -0.055794 0.292365
0.141439 -0.055854 0.292482
0.142733 -0.055811 0.292053
0.144518 -0.055959 0.292609
0.146195 -0.056063 0.292922
0.147755 -0.056121 0.292977
0.149138 -0.056110 0.292664
0.150546 -0.056110 0.292388
0.151869 -0.056078 0.291934
0.153450 -0.056141 0.291959
-0.140092 -0.048831 0.262723
-0.139206 -0.048957 0.263652
-0.138567 -0.049173 0.265057
-0.138426 -0.049572 0.267435
-0.136390 -0.049293 0.266146
-0.136569 -0.049817 0.269181
-0.135542 -0.049907 0.269862
-0.134089 -0.049840 0.269683
-0.133231 -0.049996 0.270696
-0.132098 -0.050050 0.271152
-0.130859 -0.050065 0.271384
-0.129664 -0.050097 0.271700
-0.128645 -0.050198 0.272384
-0.127335 -0.050187 0.272447
-0.126236 -0.050260 0.272955
-0.125185 -0.050353 0.273570
-0.123988 -0.050390 0.273864
-0.122962 -0.050497 0.274534
-0.121961 -0.050617 0.275268
-0.120832 -0.050685 0.275714
-0.120070 -0.050912 0.277011
-0.118918 -0.050975 0.277415
-0.124832 -0.054103 0.294490
-0.123132 -0.053964 0.293779
-0.121742 -0.053960 0.293794
-0.121055 -0.054270 0.295516
-0.119985 -0.054413 0.296323
-0.118965 -0.054584 0.297269
-0.117750 -0.054667 0.297737
-0.113382 -0.053272 0.290142
-0.116083 -0.055204 0.300666
-0.114849 -0.055290 0.301124
-0.113051 -0.055103 0.300093
-0.110964 -0.054768 0.298255
-0.106145 -0.053060 0.288929
-0.104771 -0.053051 0.288854
-0.103772 -0.053235 0.289822
-0.102668 -0.053369 0.290515
-0.101745 -0.053602 0.291743
-0.100105 -0.053458 0.290915
-0.098862 -0.053526 0.291232
-0.097732 -0.053658 0.291895
-0.095642 -0.053259 0.289667
-0.093046 -0.052562 0.285818
-0.097320 -0.055783 0.303264
-0.096039 -0.055868 0.303657
-0.093962 -0.055486 0.301505
-0.092769 -0.055622 0.302166
-0.091441 -0.055681 0.302404
-0.089711 -0.055492 0.301296
-0.088447 -0.055591 0.301745
-0.087198 -0.055702 0.302260
-0.085741 -0.055682 0.302060
-0.084625 -0.055887 0.303077
-0.083350 -0.055992 0.303549
-0.081928 -0.056000 0.303496
-0.080427 -0.055953 0.303142
-0.078818 -0.055829 0.302368
-0.077530 -0.055931 0.302817
-0.075443 -0.055451 0.300113
-0.073810 -0.055291 0.299145
-0.072493 -0.055368 0.299452
-0.070217 -0.054699 0.295732
-0.067510 -0.053662 0.290017
-0.066192 -0.053708 0.290161
-0.064862 -0.053746 0.290262
-0.063624 -0.053864 0.290796
-0.062180 -0.053809 0.290388
-0.060942 -0.053934 0.290956
-0.059645 -0.054011 0.291266
-0.058227 -0.053980 0.290991
-0.056937 -0.054068 0.291364
-0.055551 -0.054069 0.291259
-0.054238 -0.054142 0.291546
-0.052832 -0.054122 0.291337
-0.051479 -0.054159 0.291428
-0.050112 -0.054182 0.291453
-0.048684 -0.054139 0.291116
-0.047356 -0.054207 0.291383
-0.045864 -0.054088 0.290638
-0.044573 -0.054204 0.291167
-0.043111 -0.054114 0.290582
-0.041720 -0.054110 0.290465
-0.040370 -0.054161 0.290646
-0.037315 -0.053762 0.288321
-0.035952 -0.053786 0.288367
-0.034909 -0.054309 0.291083
-0.030643 -0.049654 0.266054
-0.028942 -0.048932 0.262112
-0.027421 -0.048462 0.259523
-0.026304 -0.048697 0.260709
-0.025049 -0.048685 0.260581
-0.023730 -0.048543 0.259755
-0.022489 -0.048553 0.259744
-0.021317 -0.048723 0.260594
-0.020148 -0.048920 0.261586
-0.019007 -0.049217 0.263118
-0.017899 -0.049647 0.265367
-0.016744 -0.050002 0.267209
-0.015558 -0.050318 0.268850
-0.014328 -0.050537 0.269974
-0.013165 -0.051055 0.272695
-0.011883 -0.051179 0.273315
-0.010568 -0.051175 0.273256
-0.009283 -0.051334 0.274069
-0.007947 -0.051219 0.273427
-0.006605 -0.051012 0.272292
-0.005306 -0.051111 0.272796
-0.003988 -0.051040 0.272391
-0.002669 -0.050886 0.271551
-0.001362 -0.050865 0.271423
-0.000055 -0.050765 0.270873
0.001241 -0.050482 0.269353
0.002546 -0.050640 0.270189
0.003827 -0.050382 0.268809
0.005109 -0.050268 0.268200
0.006302 -0.049496 0.264084
0.007532 -0.049222 0.262628
0.008768 -0.049066 0.261802
0.010012 -0.048981 0.261358
0.011208 -0.048710 0.259926
0.012462 -0.048721 0.260000
0.013734 -0.048794 0.260413
0.014968 -0.048729 0.260086
0.016272 -0.048886 0.260950
0.017564 -0.048985 0.261509
0.018901 -0.049188 0.262622
0.020211 -0.049301 0.263260
0.021529 -0.049417 0.263916
0.022897 -0.049630 0.265091
0.024084 -0.049448 0.264159
0.025403 -0.049542 0.264705
0.026736 -0.049653 0.265348
0.028027 -0.049679 0.265532
0.029293 -0.049660 0.265481
0.030629 -0.049757 0.266054
0.031977 -0.049864 0.266681
0.033260 -0.049865 0.266746
0.034512 -0.049822 0.266573
0.035759 -0.049775 0.266386
0.036930 -0.049629 0.265663
0.037986 -0.049344 0.264201
0.039241 -0.049325 0.264169
0.040471 -0.049280 0.263992
0.041546 -0.049053 0.262842
0.043069 -0.049353 0.264520
0.044162 -0.049157 0.263539
0.044513 -0.048168 0.258310
0.045416 -0.047815 0.256485
0.046612 -0.047780 0.256370
0.047817 -0.047756 0.256314
0.049022 -0.047734 0.256264
0.050222 -0.047708 0.256196
0.051431 -0.047691 0.256179
0.052728 -0.047754 0.256591
0.053941 -0.047740 0.256592
0.055184 -0.047753 0.256736
0.056747 -0.048037 0.258333
0.059058 -0.048927 0.263198
0.061801 -0.050132 0.269752
0.063113 -0.050149 0.269924
0.064553 -0.050266 0.270627
0.066053 -0.050424 0.271552
0.067495 -0.050532 0.272208
0.068785 -0.050524 0.272241
0.069974 -0.050445 0.271883
0.071082 -0.050310 0.271228
0.071652 -0.049807 0.268582
0.072747 -0.049679 0.267962
0.074027 -0.049680 0.268031
0.074474 -0.049132 0.265135
0.074683 -0.048447 0.261500
0.075093 -0.047913 0.258676
0.075973 -0.047691 0.257533
0.076959 -0.047542 0.256778
0.078122 -0.047505 0.256628
0.079300 -0.047478 0.256530
0.080435 -0.047427 0.256298
0.081822 -0.047524 0.256862
0.083064 -0.047534 0.256957
0.084797 -0.047822 0.258546
0.086234 -0.047937 0.259198
0.099623 -0.054598 0.295249
0.100878 -0.054517 0.294838
0.101733 -0.054224 0.293279
0.102538 -0.053914 0.291618
0.104328 -0.054122 0.292759
0.105630 -0.054075 0.292517
0.106898 -0.054012 0.292179
0.108294 -0.054015 0.292193
0.109611 -0.053979 0.291991
0.111063 -0.054009 0.292142
0.112126 -0.053852 0.291274
0.113397 -0.053797 0.290951
0.115063 -0.053928 0.291632
0.116515 -0.053958 0.291754
0.117877 -0.053945 0.291641
0.119234 -0.053930 0.291511
0.120521 -0.053885 0.291207
0.121984 -0.053918 0.291323
0.123499 -0.053974 0.291548
0.124857 -0.053960 0.291391
0.126219 -0.053948 0.291238
0.127811 -0.054033 0.291601
0.128926 -0.053918 0.290870
0.130237 -0.053885 0.290579
0.132227 -0.054132 0.291783
0.134032 -0.054298 0.292543
0.135385 -0.054280 0.292298
0.136603 -0.054208 0.291756
0.138394 -0.054363 0.292424
0.140043 -0.054459 0.292764
0.141412 -0.054446 0.292504
0.142758 -0.054425 0.292186
0.144292 -0.054474 0.292237
0.145922 -0.054559 0.292464
0.147843 -0.054750 0.293245
0.149209 -0.054733 0.292903
0.150584 -0.054720 0.292565
0.152117 -0.054764 0.292518
0.153374 -0.054709 0.291924
-0.138964 -0.047193 0.260694
-0.138462 -0.047445 0.262328
-0.138121 -0.047756 0.264285
-0.136068 -0.047476 0.262956
-0.136210 -0.047963 0.265868
-0.135423 -0.048130 0.266992
-0.133955 -0.048056 0.266768
-0.133153 -0.048221 0.267864
-0.132244 -0.048351 0.268753
-0.130671 -0.048237 0.268280
-0.129376 -0.048226 0.268363
-0.128307 -0.048299 0.268908
-0.127383 -0.048429 0.269761
-0.126166 -0.048449 0.269990
-0.125162 -0.048552 0.270676
-0.124185 -0.048668 0.271423
-0.123190 -0.048779 0.272137
-0.122270 -0.048923 0.273023
-0.121212 -0.049013 0.273606
-0.120353 -0.049187 0.274649
-0.119529 -0.049380 0.275787
-0.118434 -0.049463 0.276307
-0.117329 -0.049545 0.276809
-0.116156 -0.049599 0.277154
-0.114827 -0.049587 0.277120
-0.113534 -0.049590 0.277166
-0.112353 -0.049643 0.277484
-0.111205 -0.049712 0.277884
-0.109972 -0.049744 0.278073
-0.108891 -0.049847 0.278650
-0.107952 -0.050018 0.279604
-0.106783 -0.050086 0.279973
-0.112024 -0.053199 0.297361
-0.110703 -0.053235 0.297543
-0.109948 -0.053548 0.299266
-0.108649 -0.053601 0.299530
-0.107409 -0.053685 0.299962
-0.102321 -0.051821 0.289511
-0.101033 -0.051859 0.289677
-0.099836 -0.051945 0.290108
-0.098587 -0.052005 0.290393
-0.097302 -0.052049 0.290580
-0.095705 -0.051924 0.289823
-0.094450 -0.051983 0.290092
-0.096462 -0.053870 0.300548
-0.095193 -0.053953 0.300938
-0.093464 -0.053773 0.299861
-0.092563 -0.054072 0.301450
-0.090998 -0.053987 0.300889
-0.089624 -0.054014 0.300954
-0.088387 -0.054125 0.301485
-0.087035 -0.054169 0.301638
-0.085851 -0.054320 0.302388
-0.084568 -0.054414 0.302811
-0.083298 -0.054518 0.303295
-0.082128 -0.054694 0.304169
-0.080631 -0.054654 0.303843
-0.079214 -0.054667 0.303815
-0.077799 -0.054682 0.303794
-0.075924 -0.054369 0.301949
-0.075002 -0.054739 0.303895
-0.073665 -0.054816 0.304208
-0.070996 -0.053884 0.298931
-0.067689 -0.052420 0.290701
-0.066404 -0.052494 0.291005
-0.065108 -0.052563 0.291277
-0.063702 -0.052543 0.291059
-0.062393 -0.052604 0.291290
-0.061095 -0.052679 0.291594
-0.059642 -0.052619 0.291157
-0.058253 -0.052615 0.291024
-0.056826 -0.052575 0.290694
-0.055472 -0.052603 0.290743
-0.054168 -0.052680 0.291063
-0.052727 -0.052626 0.290654
-0.051467 -0.052753 0.291253
-0.050068 -0.052742 0.291087
-0.048684 -0.052746 0.291004
-0.047312 -0.052764 0.291002
-0.045895 -0.052731 0.290716
-0.044525 -0.052753 0.290738
-0.043166 -0.052789 0.290835
-0.041670 -0.052654 0.289996
-0.039550 -0.051695 0.284619
-0.038553 -0.052187 0.287236
-0.037212 -0.052234 0.287404
-0.035921 -0.052355 0.287983
-0.034884 -0.052873 0.290740
-0.033519 -0.052916 0.290892
-0.028778 -0.047403 0.260510
-0.027413 -0.047201 0.259327
-0.026249 -0.047343 0.260040
-0.024993 -0.047325 0.259871
-0.023731 -0.047295 0.259638
-0.022490 -0.047305 0.259628
-0.021262 -0.047345 0.259787
-0.020102 -0.047549 0.260849
-0.018965 -0.047841 0.262395
-0.017895 -0.048355 0.265159
-0.016905 -0.049182 0.269642
-0.015513 -0.048878 0.267922
-0.014438 -0.049608 0.271879
-0.013184 -0.049807 0.272925
-0.011356 -0.047644 0.261034
-0.010062 -0.047464 0.260010
-0.008862 -0.047734 0.261455
-0.007960 -0.049968 0.273658
-0.006520 -0.049044 0.268565
-0.005193 -0.048723 0.266784
-0.003922 -0.048884 0.267642
-0.002675 -0.049643 0.271781
-0.001359 -0.049386 0.270352
-0.000058 -0.049525 0.271102
0.001242 -0.049289 0.269800
0.002541 -0.049289 0.269791
0.003847 -0.049375 0.270260
0.005134 -0.049228 0.269456
0.006343 -0.048556 0.265776
0.007622 -0.048543 0.265713
0.008843 -0.048223 0.263972
0.010089 -0.048104 0.263329
0.011286 -0.047799 0.261673
0.012520 -0.047699 0.261143
0.013794 -0.047755 0.261470
0.015067 -0.047798 0.261728
0.016317 -0.047767 0.261587
0.017607 -0.047848 0.262059
0.018895 -0.047916 0.262464
0.020270 -0.048179 0.263940
0.021556 -0.048214 0.264168
0.022907 -0.048380 0.265117
0.024237 -0.048489 0.265757
0.025598 -0.048644 0.266651
0.026973 -0.048810 0.267606
0.028289 -0.048859 0.267927
0.029512 -0.048751 0.267384
0.030916 -0.048936 0.268455
0.032170 -0.048880 0.268207
0.033362 -0.048737 0.267478
0.034656 -0.048749 0.267603
0.035926 -0.048726 0.267541
0.036965 -0.048404 0.265835
0.038045 -0.048154 0.264527
0.039173 -0.047978 0.263630
0.040391 -0.047921 0.263387
0.041519 -0.047764 0.262592
0.042793 -0.047779 0.262741
0.044010 -0.047731 0.262549
0.044829 -0.047267 0.260068
0.045715 -0.046896 0.258100
0.047021 -0.046964 0.258546
0.048134 -0.046840 0.257938
0.049318 -0.046791 0.257743
0.050621 -0.046853 0.258161
0.051814 -0.046813 0.258017
0.053049 -0.046813 0.258089
0.054284 -0.046812 0.258162
0.055683 -0.046950 0.258994
0.057307 -0.047266 0.260819
0.059264 -0.047839 0.264055
0.061654 -0.048730 0.269049
0.062858 -0.048666 0.268774
0.064377 -0.048843 0.269832
0.066051 -0.049129 0.271488
0.067285 -0.049082 0.271305
0.068585 -0.049085 0.271395
0.069894 -0.049095 0.271521
0.070801 -0.048826 0.270108
0.071447 -0.048390 0.267766
0.072683 -0.048362 0.267680
0.073640 -0.048152 0.266587
0.074322 -0.047773 0.264552
0.074991 -0.047399 0.262539
0.075395 -0.046871 0.259678
0.076478 -0.046777 0.259209
0.077399 -0.046587 0.258213
0.078267 -0.046372 0.257076
0.079462 -0.046355 0.257029
0.080589 -0.046299 0.256765
0.081795 -0.046289 0.256752
0.083119 -0.046345 0.257104
0.084951 -0.046680 0.258996
0.086780 -0.047002 0.260821
0.099008 -0.052869 0.293410
0.100255 -0.052790 0.293001
0.101410 -0.052665 0.292336
0.102789 -0.052659 0.292321
0.104175 -0.052656 0.292325
0.105333 -0.052540 0.291689
0.106738 -0.052548 0.291741
0.108027 -0.052500 0.291476
0.109593 -0.052585 0.291947
0.110865 -0.052529 0.291628
0.111998 -0.052410 0.290950
0.113604 -0.052512 0.291496
0.115209 -0.052611 0.292017
0.116307 -0.052480 0.291252
0.117899 -0.052571 0.291718
0.119227 -0.052543 0.291518
0.120535 -0.052508 0.291269
0.121985 -0.052535 0.291354
0.123420 -0.052555 0.291394
0.124755 -0.052532 0.291188
0.126095 -0.052512 0.290989
0.127557 -0.052542 0.291063
0.128963 -0.052549 0.290998
0.130372 -0.052557 0.290929
0.132252 -0.052753 0.291890
0.133821 -0.052821 0.292138
0.135294 -0.052852 0.292162
0.136724 -0.052864 0.292078
0.138229 -0.052905 0.292141
0.139968 -0.053034 0.292678
0.141240 -0.052985 0.292220
0.142602 -0.052970 0.291943
0.144239 -0.053057 0.292211
0.146140 -0.053239 0.292987
0.147825 -0.053338 0.293300
0.149343 -0.053377 0.293259
0.150728 -0.053367 0.292943
0.152145 -0.053369 0.292673
0.153652 -0.053402 0.292562
-0.138776 -0.045887 0.260425
-0.138122 -0.046080 0.261763
-0.137379 -0.046247 0.262942
-0.135953 -0.046185 0.262808
-0.135109 -0.046322 0.263791
-0.134184 -0.046432 0.264616
-0.133137 -0.046503 0.265204
-0.132000 -0.046543 0.265606
-0.130924 -0.046606 0.266126
-0.129815 -0.046658 0.266578
-0.128761 -0.046731 0.267139
-0.127712 -0.046808 0.267711
-0.126626 -0.046872 0.268201
-0.125628 -0.046970 0.268882
-0.124570 -0.047048 0.269434
-0.123546 -0.047141 0.270064
-0.122426 -0.047198 0.270484
-0.121345 -0.047272 0.270989
-0.120241 -0.047339 0.271445
-0.119112 -0.047397 0.271844
-0.118151 -0.047524 0.272630
-0.117020 -0.047584 0.273029
-0.116006 -0.047694 0.273707
-0.114975 -0.047800 0.274349
-0.113876 -0.047879 0.274838
-0.112878 -0.048004 0.275575
-0.111637 -0.048026 0.275721
-0.110580 -0.048129 0.276328
-0.109480 -0.048216 0.276832
-0.108208 -0.048228 0.276903
-0.107145 -0.048335 0.277510
-0.105979 -0.048398 0.277860
-0.104854 -0.048481 0.278320
-0.103756 -0.048579 0.278860
-0.102580 -0.048642 0.279199
-0.106498 -0.051154 0.293582
-0.106429 -0.051792 0.297205
-0.105754 -0.052147 0.299203
-0.103561 -0.051754 0.296901
-0.099535 -0.050422 0.289206
-0.098605 -0.050643 0.290419
-0.097110 -0.050575 0.289974
-0.095369 -0.050376 0.288771
-0.094786 -0.050792 0.291089
-0.096070 -0.052236 0.299288
-0.094807 -0.052317 0.299676
-0.093451 -0.052347 0.299775
-0.092007 -0.052329 0.299590
-0.090920 -0.052517 0.300580
-0.089554 -0.052547 0.300664
-0.088122 -0.052539 0.300526
-0.086972 -0.052702 0.301362
-0.085736 -0.052816 0.301923
-0.084501 -0.052936 0.302509
-0.083321 -0.053095 0.303314
-0.081927 -0.053120 0.303358
-0.080646 -0.053221 0.303828
-0.079116 -0.053159 0.303366
-0.077517 -0.053047 0.302620
-0.075772 -0.052829 0.301269
-0.074323 -0.052813 0.301068
-0.072999 -0.052887 0.301379
-0.070613 -0.052179 0.297237
-0.067646 -0.051005 0.290438
-0.066159 -0.050921 0.289850
-0.064971 -0.051068 0.290578
-0.063644 -0.051110 0.290708
-0.062243 -0.051093 0.290501
-0.061096 -0.051288 0.291502
-0.059642 -0.051230 0.291060
-0.058262 -0.051234 0.290970
-0.056911 -0.051264 0.291032
-0.055566 -0.051301 0.291130
-0.054141 -0.051264 0.290815
-0.052683 -0.051194 0.290307
-0.051485 -0.051378 0.291246
-0.050078 -0.051360 0.291034
-0.048617 -0.051283 0.290494
-0.047276 -0.051331 0.290664
-0.045952 -0.051403 0.290966
-0.044555 -0.051395 0.290816
-0.043154 -0.051380 0.290634
-0.041746 -0.051357 0.290407
-0.039614 -0.050411 0.284961
-0.038502 -0.050741 0.286733
-0.037164 -0.050787 0.286901
-0.035852 -0.050875 0.287304
-0.034923 -0.051534 0.290939
-0.033557 -0.051577 0.291092
-0.028902 -0.046349 0.261509
-0.027440 -0.045998 0.259457
-0.026326 -0.046226 0.260673
-0.025076 -0.046227 0.260605
-0.023773 -0.046126 0.259970
-0.022531 -0.046138 0.259973
-0.021325 -0.046229 0.260425
-0.020109 -0.046307 0.260806
-0.018989 -0.046633 0.262585
-0.017878 -0.047031 0.264766
-0.016897 -0.047856 0.269360
-0.015577 -0.047779 0.268874
-0.014458 -0.048361 0.272103
-0.012362 -0.045466 0.255771
-0.011136 -0.045482 0.255824
-0.009938 -0.045631 0.256623
-0.008723 -0.045736 0.257178
-0.007470 -0.045647 0.256650
-0.006256 -0.045805 0.257507
-0.005020 -0.045832 0.257635
-0.003781 -0.045857 0.257756
-0.002538 -0.045832 0.257593
-0.001295 -0.045748 0.257104
-0.000057 -0.045794 0.257350
0.001196 -0.046297 0.260167
0.002531 -0.047833 0.268796
0.003858 -0.048236 0.271056
0.005138 -0.047991 0.269675
0.006378 -0.047548 0.267191
0.007677 -0.047619 0.267594
0.008917 -0.047356 0.266125
0.010143 -0.047094 0.264663
0.011368 -0.046887 0.263514
0.012591 -0.046711 0.262546
0.013888 -0.046821 0.263186
0.015164 -0.046845 0.263344
0.016376 -0.046681 0.262448
0.017700 -0.046839 0.263364
0.018978 -0.046863 0.263530
0.020328 -0.047047 0.264604
0.021688 -0.047235 0.265700
0.022980 -0.047260 0.265880
0.024409 -0.047550 0.267553
0.025796 -0.047731 0.268621
0.027188 -0.047906 0.269655
0.028538 -0.047993 0.270192
0.029843 -0.048000 0.270290
0.031297 -0.048237 0.271680
0.032627 -0.048270 0.271924
0.033884 -0.048198 0.271575
0.035066 -0.048027 0.270677
0.036407 -0.048080 0.271041
0.037516 -0.047832 0.269709
0.038412 -0.047339 0.266993
0.039629 -0.047260 0.266619
0.040606 -0.046909 0.264707
0.041668 -0.046674 0.263454
0.042909 -0.046648 0.263376
0.043876 -0.046333 0.261672
0.044952 -0.046148 0.260701
0.045874 -0.045820 0.258923
0.047092 -0.045797 0.258865
0.048194 -0.045664 0.258190
0.049272 -0.045517 0.257432
0.050542 -0.045549 0.257689
0.051737 -0.045513 0.257566
0.052996 -0.045535 0.257767
0.054228 -0.045532 0.257826
0.055790 -0.045801 0.259426
0.057847 -0.046456 0.263212
0.059736 -0.046950 0.266094
0.061462 -0.047299 0.268147
0.063200 -0.047642 0.270173
0.064683 -0.047783 0.271054
0.066006 -0.047802 0.271243
0.067315 -0.047812 0.271374
0.068602 -0.047804 0.271409
0.069810 -0.047744 0.271143
0.070784 -0.047529 0.269993
0.071336 -0.047042 0.267302
0.072388 -0.046897 0.266549
0.073443 -0.046759 0.265831
0.074235 -0.046461 0.264203
0.075075 -0.046202 0.262794
0.075885 -0.045934 0.261329
0.076696 -0.045675 0.259914
0.077600 -0.045479 0.258854
0.078587 -0.045336 0.258097
0.079564 -0.045192 0.257330
0.080712 -0.045148 0.257129
0.082072 -0.045223 0.257597
0.083573 -0.045371 0.258487
0.085358 -0.045668 0.260217
0.086678 -0.045711 0.260496
0.096995 -0.050430 0.287425
0.100245 -0.051395 0.292958
0.101327 -0.051237 0.292085
0.102914 -0.051334 0.292666
0.104278 -0.051320 0.292604
0.105666 -0.051318 0.292606
0.106895 -0.051239 0.292167
0.108320 -0.051256 0.292265
0.109800 -0.051297 0.292501
0.111124 -0.051266 0.292315
0.112323 -0.051178 0.291802
0.113740 -0.051191 0.291855
0.115264 -0.051250 0.292170
0.116448 -0.051159 0.291619
0.117903 -0.051188 0.291745
0.119257 -0.051173 0.291613
0.120531 -0.051124 0.291283
0.121817 -0.051081 0.290980
0.123422 -0.051172 0.291428
0.124752 -0.051148 0.291216
0.126106 -0.051134 0.291053
0.127771 -0.051244 0.291590
0.129175 -0.051249 0.291518
0.130428 -0.051195 0.291101
0.132176 -0.051334 0.291771
0.133853 -0.051443 0.292261
0.135332 -0.051474 0.292299
0.136883 -0.051532 0.292477
0.138318 -0.051545 0.292392
0.140091 -0.051683 0.293001
0.141585 -0.051716 0.293005
0.142822 -0.051655 0.292468
0.144440 -0.051732 0.292697
0.146150 -0.051840 0.293089
0.147652 -0.051873 0.293042
0.149062 -0.051873 0.292798
0.150582 -0.051912 0.292753
0.152072 -0.051939 0.292632
0.153330 -0.051887 0.292051
-0.138841 -0.044665 0.260626
-0.138044 -0.044807 0.261693
-0.137182 -0.044930 0.262639
-0.135949 -0.044933 0.262869
-0.134927 -0.045007 0.263502
-0.133933 -0.045091 0.264186
-0.132965 -0.045185 0.264922
-0.131840 -0.045228 0.265342
-0.130728 -0.045276 0.265784
-0.129775 -0.045380 0.266547
-0.128643 -0.045424 0.266944
-0.127722 -0.045543 0.267776
-0.126492 -0.045554 0.267961
-0.125368 -0.045604 0.268365
-0.124522 -0.045757 0.269369
-0.122988 -0.045657 0.268878
