ply
format ascii 1.0
element vertex 1744
property float x
property float y
property float z
end_header
-0.041924 0.014015 0.106022
-0.041738 0.014121 0.106811
-0.041439 0.014190 0.107326
-0.041226 0.014291 0.108075
-0.041539 0.014580 0.110240
-0.042061 0.014949 0.113018
-0.042450 0.015281 0.115501
-0.042128 0.015361 0.116089
-0.041552 0.015350 0.115981
-0.041274 0.015451 0.116712
-0.040805 0.015481 0.116915
-0.040334 0.015512 0.117116
-0.041539 0.016197 0.122256
-0.042403 0.016766 0.126518
-0.042789 0.017160 0.129452
-0.042657 0.017355 0.130880
-0.042189 0.017416 0.131301
-0.041866 0.017540 0.132195
-0.041644 0.017711 0.133438
-0.041943 0.018113 0.136413
-0.042207 0.018511 0.139361
-0.042506 0.018937 0.142521
-0.042446 0.019215 0.144558
-0.042307 0.019465 0.146384
-0.042273 0.019774 0.148644
-0.042455 0.020195 0.151749
-0.042594 0.020609 0.154804
-0.043041 0.021190 0.159102
-0.043211 0.021653 0.162510
-0.043407 0.022146 0.166140
-0.043174 0.022434 0.168231
-0.042828 0.022674 0.169956
-0.042533 0.022950 0.171949
-0.042412 0.023333 0.174742
-0.042510 0.023853 0.178564
-0.042701 0.024448 0.182938
-0.042706 0.024960 0.186681
-0.042413 0.025315 0.189253
-0.042119 0.025685 0.191937
-0.041818 0.026067 0.194707
-0.041661 0.026558 0.198287
-0.041404 0.027006 0.201547
-0.041012 0.027386 0.204293
-0.040997 0.028043 0.209098
-0.040934 0.028699 0.213896
-0.041054 0.029519 0.219916
-0.040609 0.029966 0.223148
-0.040491 0.030684 0.228402
-0.040263 0.031357 0.233315
-0.040117 0.032135 0.238998
-0.041641 0.034334 0.255248
-0.040464 0.034372 0.255432
-0.040660 0.035615 0.264566
-0.039959 0.036127 0.268263
-0.038890 0.036331 0.269667
-0.038278 0.036988 0.274446
-0.036568 0.036594 0.271422
-0.034414 0.035711 0.264776
-0.016713 0.035927 0.265283
-0.015612 0.036343 0.268301
-0.014800 0.037567 0.277285
-0.013468 0.037583 0.277351
-0.011185 0.034658 0.255721
-0.009981 0.034766 0.256478
-0.008735 0.034733 0.256193
-0.007513 0.034805 0.256695
-0.006274 0.034812 0.256713
-0.005034 0.034814 0.256700
-0.003806 0.034921 0.257465
-0.002566 0.034985 0.257916
-0.001319 0.034964 0.257747
-0.000073 0.034980 0.257853
0.001186 0.035356 0.260614
0.002460 0.035555 0.262075
0.003835 0.036587 0.269676
0.005139 0.036584 0.269655
0.006375 0.036202 0.266845
0.007693 0.036332 0.267811
0.008875 0.035874 0.264446
0.010137 0.035816 0.264036
0.011311 0.035491 0.261658
0.012538 0.035385 0.260894
0.013867 0.035558 0.262196
0.015164 0.035627 0.262736
0.016456 0.035673 0.263105
0.017737 0.035692 0.263281
0.019331 0.036294 0.267765
0.020652 0.036343 0.268163
0.021741 0.036000 0.265676
0.025048 0.035233 0.260168
0.025801 0.034559 0.255244
0.027064 0.034597 0.255587
0.028353 0.034664 0.256138
0.029454 0.034506 0.255033
0.030670 0.034489 0.254972
0.031850 0.034433 0.254629
0.033217 0.034577 0.255764
0.034368 0.034495 0.255227
0.035572 0.034469 0.255107
0.037275 0.034912 0.258463
0.038738 0.035108 0.259995
0.040231 0.035319 0.261639
0.041527 0.035349 0.261944
0.042649 0.035234 0.261176
0.044109 0.035396 0.262462
0.045471 0.035473 0.263119
0.046615 0.035380 0.262519
0.047881 0.035382 0.262623
0.049201 0.035423 0.263019
0.050164 0.035211 0.261539
0.051506 0.035269 0.262063
0.052765 0.035269 0.262151
0.054087 0.035310 0.262551
0.055290 0.035273 0.262369
0.056505 0.035245 0.262259
0.058259 0.035548 0.264603
0.060299 0.036007 0.268122
0.061719 0.036086 0.268802
0.063015 0.036090 0.268929
0.064204 0.036033 0.268604
0.065561 0.036071 0.268985
0.067040 0.036174 0.269847
0.068207 0.036107 0.269445
0.069503 0.036110 0.269560
0.070710 0.036068 0.269336
0.071273 0.035704 0.266711
0.072178 0.035522 0.265437
0.073325 0.035462 0.265080
0.074307 0.035327 0.264150
0.074958 0.035041 0.262096
0.075635 0.034776 0.260197
0.076755 0.034720 0.259858
0.077595 0.034542 0.258596
0.078588 0.034436 0.257877
0.079815 0.034434 0.257933
0.081138 0.034473 0.258294
0.082342 0.034460 0.258268
0.083554 0.034452 0.258271
0.084949 0.034518 0.258825
0.086046 0.034463 0.258470
0.098816 0.039018 0.292696
0.100051 0.038956 0.292284
0.101055 0.038806 0.291212
0.102147 0.038694 0.290418
0.103355 0.038628 0.289967
0.104651 0.038596 0.289768
0.106172 0.038647 0.290186
0.107563 0.038650 0.290237
0.108842 0.038613 0.289983
0.110236 0.038617 0.290033
0.111734 0.038657 0.290346
0.113299 0.038719 0.290820
0.114548 0.038672 0.290472
0.115955 0.038680 0.290524
0.117148 0.038616 0.290039
0.118446 0.038589 0.289813
0.120242 0.038722 0.290790
0.121465 0.038670 0.290369
0.122774 0.038646 0.290150
0.124297 0.038689 0.290427
0.126159 0.038835 0.291472
0.126650 0.038561 0.289353
0.128424 0.038679 0.290171
0.130026 0.038743 0.290574
0.131269 0.038701 0.290166
0.132528 0.038663 0.289788
0.134067 0.038707 0.290013
0.135694 0.038776 0.290411
0.138061 0.039052 0.292353
0.138062 0.038660 0.289284
0.140147 0.038853 0.290586
0.141430 0.038823 0.290201
0.143699 0.039061 0.291812
0.144838 0.038991 0.291103
0.146290 0.039004 0.291013
0.147778 0.039028 0.290982
0.149477 0.039106 0.291343
0.150838 0.039095 0.291029
0.152239 0.039094 0.290776
-0.043394 0.014342 0.104772
-0.042971 0.014365 0.104943
-0.042652 0.014424 0.105371
-0.042321 0.014480 0.105778
-0.041735 0.014449 0.105544
-0.041423 0.014514 0.106007
-0.041610 0.014757 0.107773
-0.041589 0.014931 0.109032
-0.041622 0.015130 0.110467
-0.041508 0.015279 0.111538
-0.041265 0.015384 0.112286
-0.040765 0.015394 0.112341
-0.040809 0.015614 0.113918
-0.040576 0.015731 0.114749
-0.040165 0.015782 0.115094
-0.040527 0.016142 0.117689
-0.040704 0.016437 0.119810
-0.041818 0.017125 0.124786
-0.041933 0.017416 0.126876
-0.041965 0.017682 0.128772
-0.042121 0.018008 0.131109
-0.041933 0.018195 0.132426
-0.042024 0.018510 0.134675
-0.042005 0.018786 0.136636
-0.042374 0.019247 0.139937
-0.042327 0.019530 0.141944
-0.042413 0.019885 0.144470
-0.042221 0.020119 0.146113
-0.042237 0.020461 0.148543
-0.042217 0.020797 0.150926
-0.042342 0.021218 0.153920
-0.042644 0.021744 0.157669
-0.043007 0.022320 0.161777
-0.043302 0.022881 0.165775
-0.043090 0.023189 0.167942
-0.042798 0.023466 0.169875
-0.042567 0.023787 0.172127
-0.042610 0.024277 0.175598
-0.042508 0.024703 0.178600
-0.042546 0.025229 0.182322
-0.042446 0.025692 0.185594
-0.042304 0.026150 0.188818
-0.042067 0.026568 0.191750
-0.041820 0.026998 0.194768
-0.041451 0.027367 0.197343
-0.041460 0.028008 0.201881
-0.041125 0.028442 0.204918
-0.040905 0.028978 0.208691
-0.040780 0.029610 0.213156
-0.041008 0.030538 0.219738
-0.040731 0.031128 0.223889
-0.040569 0.031840 0.228916
-0.040203 0.032427 0.233041
-0.039981 0.033168 0.238268
-0.039806 0.033992 0.244086
-0.040425 0.035564 0.255275
-0.041946 0.038052 0.273028
-0.040682 0.038093 0.273214
-0.040403 0.039090 0.280258
-0.039423 0.039454 0.282760
-0.037225 0.038582 0.276407
-0.035062 0.037682 0.269864
-0.017152 0.038188 0.272380
-0.015677 0.037799 0.269548
-0.014783 0.038865 0.277097
-0.013452 0.038881 0.277163
-0.011138 0.035746 0.254769
-0.009923 0.035798 0.255104
-0.008706 0.035858 0.255491
-0.007468 0.035835 0.255294
-0.006246 0.035898 0.255713
-0.005027 0.036016 0.256527
-0.003789 0.036021 0.256540
-0.002564 0.036231 0.258012
-0.001331 0.036603 0.260646
-0.000072 0.036750 0.261681
0.001202 0.037063 0.263902
0.002468 0.036910 0.262805
0.003862 0.038141 0.271563
0.005174 0.038138 0.271542
0.006402 0.037636 0.267977
0.007657 0.037440 0.266587
0.008894 0.037225 0.265067
0.010165 0.037186 0.264806
0.011277 0.036640 0.260933
0.012566 0.036724 0.261552
0.013889 0.036880 0.262688
0.015193 0.036961 0.263296
0.016470 0.036972 0.263406
0.017768 0.037025 0.263817
0.019481 0.037877 0.269927
0.020495 0.037348 0.266199
0.021628 0.037085 0.264365
0.025125 0.036598 0.261046
0.025838 0.035839 0.255682
0.027052 0.035812 0.255547
0.028455 0.036026 0.257134
0.029479 0.035763 0.255320
0.030667 0.035712 0.255023
0.031900 0.035715 0.255107
0.033146 0.035732 0.255298
0.034336 0.035689 0.255062
0.035548 0.035672 0.255009
0.036873 0.035764 0.255745
0.038476 0.036112 0.258310
0.040396 0.036726 0.262784
0.041646 0.036712 0.262764
0.042800 0.036617 0.262169
0.044234 0.036760 0.263278
0.045313 0.036609 0.262277
0.046764 0.036757 0.263426
0.047909 0.036663 0.262845
0.049072 0.036588 0.262395
0.050466 0.036685 0.263180
0.051666 0.036638 0.262939
0.052741 0.036508 0.262099
0.053989 0.036501 0.262139
0.055266 0.036513 0.262317
0.056473 0.036479 0.262166
0.058719 0.037103 0.266748
0.060393 0.037347 0.268598
0.061833 0.037439 0.269355
0.063064 0.037404 0.269192
0.064328 0.037388 0.269177
0.065651 0.037407 0.269407
0.066990 0.037434 0.269695
0.068316 0.037453 0.269926
0.069530 0.037411 0.269716
0.070738 0.037367 0.269490
0.071298 0.036989 0.266852
0.072039 0.036716 0.264969
0.073270 0.036698 0.264924
0.074131 0.036498 0.263566
0.074585 0.036108 0.260829
0.075293 0.035852 0.259056
0.076378 0.035780 0.258616
0.077241 0.035609 0.257452
0.078308 0.035535 0.256988
0.079635 0.035580 0.257382
0.080864 0.035580 0.257449
0.081971 0.035527 0.257133
0.083157 0.035510 0.257067
0.084535 0.035574 0.257589
0.085739 0.035563 0.257569
0.096889 0.039620 0.287010
0.100570 0.040553 0.293821
0.100215 0.039855 0.288812
0.101452 0.039800 0.288460
0.103175 0.039934 0.289478
0.104675 0.039980 0.289847
0.106182 0.040028 0.290224
0.107660 0.040063 0.290506
0.109012 0.040051 0.290443
0.110336 0.040029 0.290300
0.111751 0.040040 0.290393
0.112948 0.039974 0.289920
0.114451 0.040016 0.290227
0.115732 0.039981 0.289963
0.117100 0.039976 0.289915
0.118601 0.040016 0.290187
0.120073 0.040045 0.290373
0.121742 0.040139 0.291018
0.123116 0.040134 0.290943
0.124613 0.040169 0.291149
0.125584 0.040036 0.290127
0.126805 0.039984 0.289687
0.128344 0.040032 0.289966
0.129809 0.040057 0.290065
0.131211 0.040062 0.290010
0.132894 0.040151 0.290558
0.134286 0.040152 0.290454
0.135701 0.040159 0.290391
0.137374 0.040242 0.290861
0.138975 0.040302 0.291156
0.139830 0.040147 0.289885
0.141472 0.040219 0.290242
0.143269 0.040332 0.290890
0.144972 0.040417 0.291320
0.146366 0.040416 0.291110
0.147824 0.040431 0.291014
0.149196 0.040424 0.290736
0.151122 0.040564 0.291512
0.152131 0.040459 0.290502
-0.043308 0.014807 0.104565
-0.042886 0.014831 0.104735
-0.042608 0.014905 0.105263
-0.042282 0.014965 0.105681
-0.041756 0.014954 0.105600
-0.041979 0.015215 0.107435
-0.041642 0.015277 0.107860
-0.041571 0.015439 0.108992
-0.042016 0.015799 0.111518
-0.042258 0.016091 0.113560
-0.041907 0.016161 0.114040
-0.041599 0.016251 0.114649
-0.041295 0.016343 0.115282
-0.040996 0.016441 0.115949
-0.040554 0.016484 0.116220
-0.040401 0.016646 0.117335
-0.040380 0.016868 0.118871
-0.041462 0.017563 0.123738
-0.041759 0.017942 0.126367
-0.041786 0.018213 0.128241
-0.041692 0.018439 0.129791
-0.041794 0.018759 0.132004
-0.041566 0.018939 0.133226
-0.041988 0.019425 0.136601
-0.042159 0.019809 0.139250
-0.042472 0.020272 0.142455
-0.042341 0.020535 0.144250
-0.042226 0.020814 0.146159
-0.042149 0.021122 0.148264
-0.042147 0.021478 0.150705
-0.042226 0.021888 0.153527
-0.042448 0.022389 0.156975
-0.042750 0.022950 0.160845
-0.042871 0.023433 0.164162
-0.042810 0.023832 0.166891
-0.042663 0.024198 0.169379
-0.042365 0.024490 0.171352
-0.042515 0.025057 0.175251
-0.042374 0.025473 0.178079
-0.042447 0.026036 0.181943
-0.042302 0.026487 0.185013
-0.042209 0.026990 0.188444
-0.041926 0.027391 0.191160
-0.041701 0.027848 0.194270
-0.041596 0.028408 0.198091
-0.041433 0.028954 0.201809
-0.041194 0.029471 0.205326
-0.040839 0.029928 0.208420
-0.040466 0.030394 0.211581
-0.040622 0.031292 0.217737
-0.040782 0.032240 0.224245
-0.040477 0.032862 0.228474
-0.040029 0.033399 0.232110
-0.039459 0.033862 0.235235
-0.039550 0.034936 0.242601
-0.042028 0.040710 0.282360
-0.040213 0.040247 0.279043
-0.038790 0.040158 0.278324
-0.036960 0.039626 0.274538
-0.035273 0.039215 0.271592
-0.035079 0.040495 0.280360
-0.033763 0.040531 0.280516
-0.032325 0.040416 0.279628
-0.030973 0.040405 0.279461
-0.029582 0.040340 0.278925
-0.028116 0.040161 0.277599
-0.026719 0.040067 0.276874
-0.025431 0.040136 0.277266
-0.018435 0.039440 0.272117
-0.017132 0.039460 0.272200
-0.015463 0.038568 0.265991
-0.014556 0.039590 0.272986
-0.013184 0.039424 0.271789
-0.011389 0.037817 0.260668
-0.010040 0.037473 0.258256
-0.008853 0.037725 0.259954
-0.007940 0.039422 0.271614
-0.006483 0.038555 0.265612
-0.005173 0.038343 0.264125
-0.003894 0.038310 0.263873
-0.002642 0.038643 0.266143
-0.001352 0.038507 0.265187
-0.000072 0.038930 0.268090
0.001223 0.038941 0.268155
0.002476 0.038279 0.263587
0.003836 0.039167 0.269699
0.005160 0.039326 0.270801
0.006375 0.038761 0.266913
0.007612 0.038493 0.265075
0.008782 0.038015 0.261791
0.010062 0.038072 0.262201
0.011232 0.037745 0.259967
0.012484 0.037734 0.259911
0.013762 0.037794 0.260346
0.015104 0.038007 0.261838
0.016361 0.037987 0.261738
0.017630 0.037999 0.261849
0.019166 0.038543 0.265639
0.020423 0.038494 0.265341
0.021555 0.038230 0.263563
0.025065 0.037765 0.260505
0.025868 0.037112 0.256056
0.027066 0.037061 0.255756
0.028333 0.037104 0.256113
0.029506 0.037025 0.255629
0.030684 0.036959 0.255236
0.031934 0.036982 0.255458
0.033124 0.036935 0.255202
0.034349 0.036929 0.255233
0.035544 0.036892 0.255049
0.036756 0.036876 0.255008
0.038208 0.037093 0.256584
0.041310 0.038848 0.268805
0.042561 0.038809 0.268616
0.043786 0.038748 0.268283
0.044967 0.038654 0.267714
0.046142 0.038559 0.267147
0.047219 0.038390 0.266061
0.048391 0.038305 0.265559
0.049460 0.038145 0.264543
0.050459 0.037940 0.263209
0.051588 0.037841 0.262608
0.052724 0.037752 0.262080
0.053731 0.037575 0.260947
0.054932 0.037540 0.260795
0.056339 0.037644 0.261608
0.058085 0.037965 0.263929
0.060567 0.038743 0.269432
0.061819 0.038718 0.269354
0.063167 0.038753 0.269690
0.064424 0.038732 0.269636
0.065616 0.038673 0.269319
0.066917 0.038679 0.269456
0.068214 0.038683 0.269573
0.069420 0.038637 0.269340
0.070496 0.038520 0.268617
0.071303 0.038264 0.266916
0.071853 0.037880 0.264327
0.073278 0.037964 0.264995
0.074092 0.037734 0.263468
0.074326 0.037220 0.259963
0.074956 0.036919 0.257934
0.076243 0.036945 0.258196
0.077150 0.036790 0.257180
0.078180 0.036697 0.256602
0.079454 0.036720 0.256827
0.080709 0.036733 0.256986
0.082136 0.036823 0.257679
0.082967 0.036647 0.256506
0.084330 0.036708 0.256986
0.085682 0.036762 0.257419
0.098639 0.041724 0.292219
0.099874 0.041657 0.291809
0.100863 0.041492 0.290699
0.102153 0.041453 0.290472
0.103467 0.041425 0.290311
0.104676 0.041356 0.289864
0.106028 0.041344 0.289813
0.107451 0.041360 0.289951
0.108777 0.041339 0.289823
0.110189 0.041351 0.289918
0.111493 0.041322 0.289726
0.112986 0.041363 0.290018
0.114263 0.041325 0.289749
0.115455 0.041257 0.289266
0.116888 0.041276 0.289385
0.118291 0.041284 0.289418
0.120177 0.041459 0.290614
0.121518 0.041444 0.290471
0.122587 0.041337 0.289679
0.124065 0.041369 0.289852
0.125496 0.041384 0.289902
0.126829 0.041367 0.289719
0.128530 0.041470 0.290361
0.129998 0.041496 0.290458
0.131354 0.041485 0.290295
0.132577 0.041434 0.289833
0.134159 0.041494 0.290146
0.135588 0.041507 0.290110
0.136986 0.041509 0.289999
0.138398 0.041516 0.289905
0.140664 0.041776 0.291568
0.142258 0.041834 0.291806
0.143864 0.041893 0.292046
0.145220 0.041880 0.291763
0.146518 0.041850 0.291355
0.147813 0.041820 0.290933
0.149777 0.041977 0.291803
0.151096 0.041953 0.291395
0.152299 0.041897 0.290753
-0.042062 0.014859 0.101555
-0.043011 0.015369 0.105039
-0.042603 0.015400 0.105250
-0.041779 0.015279 0.104425
-0.041507 0.015360 0.104974
-0.041020 0.015363 0.104984
-0.040604 0.015392 0.105175
-0.041062 0.015758 0.107662
-0.041537 0.016139 0.110253
-0.041970 0.016513 0.112793
-0.041399 0.016497 0.112666
-0.040961 0.016534 0.112900
-0.041127 0.016819 0.114825
-0.040970 0.016978 0.115884
-0.040774 0.017125 0.116861
-0.040393 0.017196 0.117324
-0.040147 0.017329 0.118198
-0.040490 0.017722 0.120850
-0.041019 0.018210 0.124142
-0.041607 0.018739 0.127708
-0.041885 0.019141 0.130411
-0.041683 0.019332 0.131674
-0.041516 0.019546 0.133086
-0.041845 0.020004 0.136159
-0.042453 0.020611 0.140243
-0.042588 0.021004 0.142868
-0.042703 0.021400 0.145509
-0.042431 0.021611 0.146894
-0.042443 0.021977 0.149324
-0.042387 0.022319 0.151594
-0.042203 0.022605 0.153475
-0.042148 0.022971 0.155899
-0.042371 0.023504 0.159455
-0.042783 0.024163 0.163863
-0.042832 0.024638 0.167015
-0.042724 0.025038 0.169659
-0.042579 0.025433 0.172261
-0.042404 0.025824 0.174838
-0.042304 0.026277 0.177832
-0.042311 0.026817 0.181407
-0.042529 0.027516 0.186058
-0.042230 0.027903 0.188592
-0.042052 0.028388 0.191793
-0.041758 0.028815 0.194594
-0.041580 0.029342 0.198072
-0.041339 0.029849 0.201410
-0.041115 0.030393 0.204993
-0.040789 0.030886 0.208233
-0.040673 0.031567 0.212731
-0.041821 0.033288 0.224238
-0.040801 0.033329 0.224420
-0.040807 0.034233 0.230415
-0.039846 0.034353 0.231131
-0.039700 0.035204 0.236755
-0.038983 0.035582 0.239204
-0.043711 0.042386 0.284725
-0.042393 0.042431 0.284918
-0.041051 0.042454 0.284969
-0.038925 0.041639 0.279397
-0.036814 0.040785 0.273564
-0.035342 0.040601 0.272234
-0.034544 0.041206 0.276199
-0.033249 0.041243 0.276353
-0.031768 0.041044 0.274926
-0.030554 0.041186 0.275794
-0.029550 0.041639 0.278738
-0.028085 0.041453 0.277412
-0.026689 0.041357 0.276687
-0.025402 0.041427 0.277079
-0.019224 0.039678 0.265110
-0.017957 0.039700 0.265196
-0.016666 0.039666 0.264915
-0.015419 0.039744 0.265381
-0.014363 0.040369 0.269500
-0.013067 0.040377 0.269510
-0.011801 0.040491 0.270226
-0.010501 0.040505 0.270277
-0.009237 0.040677 0.271388
-0.007930 0.040689 0.271428
-0.006591 0.040507 0.270183
-0.005286 0.040501 0.270119
-0.003979 0.040462 0.269831
-0.002677 0.040470 0.269862
-0.001370 0.040347 0.269026
-0.000072 0.040760 0.271766
0.001241 0.040761 0.271763
0.002495 0.039833 0.265568
0.003911 0.041239 0.274941
0.005243 0.041278 0.275200
0.006347 0.039863 0.265771
0.007497 0.039162 0.261103
0.008708 0.038939 0.259628
0.009990 0.039051 0.260386
0.011199 0.038882 0.259276
0.012429 0.038812 0.258829
0.013716 0.038916 0.259546
0.015004 0.039006 0.260175
0.016288 0.039073 0.260651
0.017589 0.039166 0.261308
0.018987 0.039450 0.263240
0.020222 0.039379 0.262808
0.021497 0.039391 0.262927
0.025175 0.039189 0.261723
0.025756 0.038179 0.255030
0.027012 0.038215 0.255329
0.028290 0.038278 0.255805
0.029472 0.038211 0.255416
0.030681 0.038182 0.255288
0.031891 0.038158 0.255190
0.033139 0.038179 0.255396
0.034360 0.038169 0.255394
0.035533 0.038106 0.255048
0.036805 0.038152 0.255424
0.038258 0.038376 0.256998
0.040675 0.039521 0.264747
0.041907 0.039481 0.264561
0.043205 0.039505 0.264800
0.044377 0.039414 0.264275
0.045726 0.039481 0.264811
0.046712 0.039240 0.263277
0.047865 0.039148 0.262744
0.048924 0.038986 0.261744
0.049859 0.038735 0.260148
0.050927 0.038598 0.259314
0.052117 0.038557 0.259124
0.053334 0.038537 0.259084
0.054479 0.038468 0.258704
0.055746 0.038486 0.258916
0.057560 0.038872 0.261605
0.060336 0.039878 0.268464
0.061864 0.040034 0.269608
0.063338 0.040149 0.270476
0.064501 0.040067 0.270013
0.065715 0.040019 0.269782
0.067025 0.040029 0.269943
0.068254 0.039992 0.269785
0.069458 0.039943 0.269536
0.070546 0.039829 0.268854
0.071160 0.039456 0.266426
0.072233 0.039347 0.265772
0.073363 0.039272 0.265347
0.074111 0.038998 0.263578
0.074159 0.038371 0.259418
0.074551 0.037940 0.256577
0.075944 0.038024 0.257217
0.076889 0.037884 0.256344
0.077768 0.037717 0.255281
0.078937 0.037694 0.255187
0.080128 0.037681 0.255165
0.081473 0.037740 0.255624
0.082744 0.037764 0.255843
0.083874 0.037723 0.255622
0.085175 0.037760 0.255920
0.098701 0.043138 0.292424
0.099937 0.043070 0.292014
0.100275 0.042622 0.289023
0.101359 0.042499 0.288231
0.103377 0.042765 0.290074
0.104370 0.042606 0.289030
0.105851 0.042648 0.289342
0.107293 0.042673 0.289533
0.108693 0.042681 0.289605
0.110068 0.042679 0.289605
0.111497 0.042698 0.289738
0.112864 0.042692 0.289703
0.114168 0.042664 0.289506
0.115502 0.042647 0.289378
0.116804 0.042618 0.289169
0.118123 0.042597 0.288999
0.119637 0.042645 0.289296
0.121323 0.042753 0.289991
0.122609 0.042719 0.289715
0.123925 0.042696 0.289506
0.125495 0.042760 0.289880
0.126512 0.042637 0.288972
0.127981 0.042666 0.289096
0.130018 0.042883 0.290476
0.131574 0.042937 0.290751
0.132855 0.042902 0.290406
0.134357 0.042938 0.290537
0.135740 0.042935 0.290396
0.137659 0.043101 0.291381
0.139152 0.043131 0.291438
0.141534 0.043433 0.293323
0.143048 0.043465 0.293375
0.144530 0.043487 0.293343
0.145744 0.043429 0.292758
0.147016 0.043389 0.292286
0.148355 0.043369 0.291935
0.149779 0.043374 0.291740
0.151356 0.043423 0.291826
0.152553 0.043363 0.291165
-0.042958 0.015665 0.103716
-0.043067 0.015885 0.105176
-0.042802 0.015970 0.105743
-0.041963 0.015841 0.104887
-0.041782 0.015960 0.105672
-0.041518 0.016050 0.106260
-0.041026 0.016053 0.106270
-0.041052 0.016261 0.107638
-0.041255 0.016546 0.109509
-0.041445 0.016832 0.111387
-0.040819 0.016790 0.111094
-0.040130 0.016720 0.110617
-0.040388 0.017049 0.112770
-0.040781 0.017444 0.115360
-0.040583 0.017593 0.116324
-0.040071 0.017609 0.116400
-0.039478 0.017589 0.116239
-0.039836 0.017998 0.118914
-0.042429 0.019443 0.128426
-0.041892 0.019474 0.128598
-0.041919 0.019773 0.130534
-0.041806 0.020014 0.132081
-0.041396 0.020117 0.132722
-0.041674 0.020563 0.135622
-0.042050 0.021073 0.138935
-0.042084 0.021424 0.141203
-0.042222 0.021840 0.143896
-0.042310 0.022244 0.146504
-0.042246 0.022579 0.148660
-0.042248 0.022963 0.151127
-0.042131 0.023293 0.153244
-0.042031 0.023645 0.155501
-0.042359 0.024255 0.159446
-0.042736 0.024914 0.163718
-0.042591 0.025289 0.166115
-0.042394 0.025646 0.168391
-0.042249 0.026049 0.170969
-0.042326 0.026607 0.174558
-0.042341 0.027148 0.178033
-0.042393 0.027735 0.181811
-0.042337 0.028274 0.185266
-0.042122 0.028728 0.188164
-0.041883 0.029185 0.191074
-0.041764 0.029747 0.194675
-0.041551 0.030267 0.197996
-0.041345 0.030816 0.201504
-0.041046 0.031320 0.204711
-0.040740 0.031843 0.208045
-0.040630 0.032550 0.212574
-0.040723 0.033459 0.218424
-0.040910 0.034495 0.225098
-0.040995 0.035499 0.231555
-0.040140 0.035722 0.232918
-0.039720 0.036357 0.236960
-0.039423 0.037144 0.241994
-0.043359 0.042087 0.274094
-0.042093 0.042132 0.274284
-0.040765 0.042117 0.274081
-0.039595 0.042268 0.274964
-0.038842 0.042890 0.278913
-0.036906 0.042205 0.274356
-0.035464 0.042054 0.273279
-0.034029 0.041900 0.272187
-0.033087 0.042366 0.275121
-0.031794 0.042402 0.275268
-0.028453 0.039592 0.256945
-0.027227 0.039603 0.256936
-0.026025 0.039652 0.257181
-0.024723 0.039546 0.256421
-0.023507 0.039573 0.256526
-0.022315 0.039647 0.256934
-0.021110 0.039705 0.257244
-0.019866 0.039690 0.257086
-0.018651 0.039738 0.257335
-0.017528 0.040002 0.258985
-0.016425 0.040357 0.261226
-0.015228 0.040518 0.262214
-0.014007 0.040642 0.262968
-0.012778 0.040761 0.263691
-0.011525 0.040827 0.264073
-0.001366 0.041599 0.268836
-0.000067 0.040710 0.263077
0.001210 0.040980 0.264809
0.002494 0.041075 0.265418
0.003869 0.042097 0.272021
0.005197 0.042212 0.272762
0.006513 0.042207 0.272735
0.007420 0.040001 0.258486
0.008693 0.040116 0.259237
0.009948 0.040129 0.259335
0.011154 0.039965 0.258296
0.012432 0.040065 0.258959
0.013711 0.040148 0.259523
0.014949 0.040109 0.259297
0.016179 0.040056 0.258982
0.017532 0.040292 0.260542
0.018797 0.040309 0.260686
0.020217 0.040634 0.262828
0.021444 0.040555 0.262358
0.025137 0.040386 0.261409
0.025674 0.039280 0.254296
0.026989 0.039410 0.255193
0.028306 0.039529 0.256024
0.029365 0.039296 0.254572
0.030663 0.039386 0.255217
0.031899 0.039394 0.255333
0.033124 0.039388 0.255360
0.034369 0.039405 0.255538
0.035547 0.039347 0.255229
0.036775 0.039346 0.255293
0.038226 0.039576 0.256860
0.040974 0.041092 0.266776
0.041999 0.040840 0.265219
0.042905 0.040491 0.263036
0.044255 0.040569 0.263624
0.045360 0.040424 0.262762
0.046370 0.040205 0.261422
0.047386 0.040003 0.260188
0.048437 0.039838 0.259205
0.049536 0.039721 0.258529
0.050784 0.039727 0.258651
0.051929 0.039653 0.258257
0.053207 0.039682 0.258531
0.054318 0.039588 0.258003
0.055686 0.039681 0.258696
0.057532 0.040103 0.261537
0.060485 0.041262 0.269189
0.062020 0.041426 0.270346
0.063291 0.041410 0.270337
0.064597 0.041417 0.270474
0.065789 0.041352 0.270138
0.067065 0.041342 0.270159
0.068327 0.041323 0.270124
0.069470 0.041235 0.269635
0.070465 0.041063 0.268597
0.071215 0.040757 0.266680
0.072157 0.040570 0.265538
0.073411 0.040562 0.265565
0.074150 0.040274 0.263758
0.074407 0.039738 0.260326
0.074627 0.039200 0.256875
0.075694 0.039118 0.256408
0.076824 0.039070 0.256161
0.077770 0.038932 0.255321
0.078838 0.038858 0.254897
0.079975 0.038819 0.254705
0.081353 0.038897 0.255275
0.082604 0.038913 0.255433
0.083560 0.038791 0.254686
0.085090 0.038936 0.255686
0.098535 0.044451 0.291956
0.099770 0.044382 0.291547
0.099432 0.043624 0.286613
0.101364 0.043868 0.288260
0.102554 0.043790 0.287781
0.104469 0.044019 0.289315
0.105856 0.044022 0.289364
0.107334 0.044063 0.289651
0.108612 0.044022 0.289397
0.109999 0.044025 0.289428
0.111378 0.044025 0.289431
0.112767 0.044029 0.289454
0.114103 0.044012 0.289336
0.115532 0.044031 0.289447
0.116766 0.043976 0.289066
0.118241 0.044012 0.289277
0.119497 0.043966 0.288944
0.120970 0.044001 0.289130
0.122354 0.044003 0.289095
0.123960 0.044083 0.289567
0.125580 0.044167 0.290053
0.127581 0.044381 0.291389
0.128669 0.044276 0.290621
0.130112 0.044295 0.290653
0.131491 0.044291 0.290534
0.132952 0.044315 0.290581
0.134303 0.044302 0.290381
0.136045 0.044417 0.291006
0.138016 0.044604 0.292092
0.139596 0.044661 0.292320
0.141236 0.044737 0.292654
0.142733 0.044766 0.292673
0.144198 0.044784 0.292613
0.145490 0.044749 0.292189
0.146946 0.044765 0.292082
0.148290 0.044746 0.291741
0.149908 0.044810 0.291922
0.151344 0.044818 0.291728
0.152522 0.044750 0.291028
-0.043001 0.016170 0.103819
-0.043195 0.016429 0.105488
-0.042725 0.016439 0.105552
-0.041936 0.016325 0.104819
-0.041662 0.016411 0.105371
-0.041701 0.016624 0.106732
-0.041203 0.016626 0.106734
-0.040163 0.016406 0.105312
-0.040441 0.016726 0.107355
-0.040448 0.016940 0.108716
-0.040910 0.017352 0.111348
-0.040550 0.017423 0.111781
-0.040124 0.017466 0.112041
-0.038372 0.017878 0.114555
-0.042045 0.019868 0.127280
-0.041512 0.019900 0.127449
-0.041548 0.020210 0.129397
-0.041409 0.020443 0.130848
-0.041457 0.020776 0.132938
-0.041653 0.021195 0.135576
-0.041998 0.021704 0.138787
-0.042032 0.022065 0.141051
-0.042115 0.022465 0.143557
-0.042086 0.022817 0.145755
-0.042213 0.023267 0.148576
-0.042245 0.023678 0.151150
-0.042120 0.024014 0.153238
-0.042140 0.024447 0.155939
-0.042541 0.025119 0.160167
-0.042579 0.025598 0.163156
-0.042441 0.025986 0.165568
-0.042230 0.026344 0.167781
-0.042011 0.026711 0.170047
-0.042010 0.027233 0.173304
-0.042060 0.027810 0.176901
-0.042245 0.028501 0.181222
-0.042239 0.029089 0.184890
-0.042116 0.029620 0.188188
-0.041844 0.030068 0.190955
-0.041733 0.030653 0.194590
-0.041719 0.031338 0.198858
-0.041449 0.031858 0.202073
-0.041190 0.032411 0.205498
-0.040874 0.032945 0.208797
-0.040698 0.033622 0.213003
-0.040600 0.034400 0.217840
-0.040888 0.035553 0.225055
-0.040509 0.036174 0.228894
-0.039928 0.036644 0.231772
-0.039947 0.037706 0.238397
-0.039381 0.038263 0.241827
-0.042243 0.043603 0.275371
-0.040782 0.043450 0.274298
-0.039026 0.042961 0.271118
-0.038674 0.044039 0.277820
-0.036849 0.043456 0.274046
-0.035289 0.043153 0.272041
-0.033959 0.043120 0.271742
-0.032863 0.043394 0.273380
-0.030108 0.041408 0.260782
-0.028824 0.041362 0.260410
-0.027602 0.041403 0.260589
-0.026188 0.041148 0.258908
-0.024902 0.041078 0.258394
-0.023705 0.041155 0.258807
-0.022502 0.041229 0.259209
-0.021338 0.041388 0.260141
-0.020162 0.041542 0.261047
-0.018882 0.041489 0.260649
-0.017780 0.041847 0.262843
-0.016882 0.042778 0.268633
-0.015361 0.042152 0.264648
-0.014170 0.042402 0.266171
-0.012902 0.042445 0.266395
-0.000067 0.042793 0.268286
0.001241 0.043256 0.271179
0.002493 0.042304 0.265203
0.003871 0.043403 0.272089
0.005195 0.043501 0.272706
0.006287 0.042003 0.263320
0.007348 0.040838 0.256023
0.008608 0.040954 0.256757
0.009884 0.041106 0.257728
0.011085 0.040948 0.256754
0.012356 0.041055 0.257439
0.013617 0.041113 0.257825
0.014886 0.041180 0.258276
0.016149 0.041225 0.258583
0.017517 0.041509 0.260399
0.018760 0.041480 0.260254
0.020091 0.041636 0.261271
0.021385 0.041702 0.261723
0.025530 0.042295 0.265589
0.025753 0.040627 0.255163
0.027014 0.040674 0.255511
0.028327 0.040791 0.256301
0.029493 0.040695 0.255755
0.030684 0.040640 0.255471
0.031973 0.040714 0.256002
0.033183 0.040687 0.255894
0.034414 0.040685 0.255948
0.035729 0.040780 0.256615
0.037054 0.040878 0.257304
0.038569 0.041175 0.259241
0.040933 0.042329 0.266589
0.042404 0.042518 0.267859
0.043105 0.041947 0.264335
0.044117 0.041702 0.262876
0.045490 0.041803 0.263591
0.046178 0.041286 0.260413
0.047207 0.041092 0.259275
0.048276 0.040943 0.258415
0.049386 0.040835 0.257815
0.050414 0.040666 0.256835
0.051753 0.040750 0.257448
0.053084 0.040824 0.257998
0.054302 0.040809 0.257990
0.055638 0.040881 0.258535
0.057313 0.041195 0.260606
0.059699 0.041995 0.265752
0.061942 0.042663 0.270067
0.063170 0.042619 0.269879
0.064452 0.042612 0.269924
0.065795 0.042645 0.270219
0.066997 0.042587 0.269941
0.068202 0.042533 0.269684
0.069406 0.042480 0.269435
0.070462 0.042341 0.268636
0.071361 0.042113 0.267275
0.072390 0.041970 0.266443
0.073934 0.042124 0.267499
0.074786 0.041885 0.266062
0.074853 0.041222 0.261927
0.074997 0.040623 0.258190
0.076132 0.040571 0.257925
0.077262 0.040518 0.257657
0.078544 0.040545 0.257895
0.079861 0.040589 0.258236
0.081087 0.040586 0.258278
0.082598 0.040724 0.259211
0.084114 0.040860 0.260129
0.085613 0.040983 0.260969
0.086722 0.040920 0.260613
0.099234 0.045519 0.290000
0.100619 0.045521 0.290051
0.100030 0.044641 0.284482
0.103180 0.045431 0.289552
0.104447 0.045382 0.289266
0.105888 0.045409 0.289461
0.107210 0.045384 0.289324
0.108554 0.045370 0.289245
0.109905 0.045359 0.289182
0.111291 0.045362 0.289204
0.112649 0.045354 0.289149
0.114072 0.045372 0.289254
0.115390 0.045348 0.289086
0.116707 0.045324 0.288910
0.117969 0.045280 0.288599
0.119396 0.045299 0.288686
0.121827 0.045694 0.291162
0.123270 0.045714 0.291238
0.124375 0.045610 0.290515
0.125767 0.045612 0.290461
0.127184 0.045622 0.290454
0.128656 0.045652 0.290562
0.129907 0.045604 0.290164
0.131174 0.045562 0.289798
0.132530 0.045552 0.289621
0.134209 0.045652 0.290136
0.136167 0.045843 0.291224
0.137858 0.045942 0.291709
0.138316 0.045632 0.289589
0.141011 0.046058 0.292135
0.142065 0.045946 0.291248
0.144036 0.046129 0.292223
0.145475 0.046140 0.292095
0.146932 0.046156 0.291988
0.148189 0.046110 0.291473
0.149687 0.046139 0.291418
0.151287 0.046198 0.291542
0.152526 0.046147 0.290955
-0.043013 0.016664 0.103846
-0.043177 0.016919 0.105442
-0.042783 0.016960 0.105696
-0.041790 0.016761 0.104456
-0.040183 0.016308 0.101631
-0.040699 0.016716 0.104169
-0.040375 0.016785 0.104592
-0.039748 0.016727 0.104227
-0.039528 0.016843 0.104935
-0.040545 0.017494 0.108981
-0.040967 0.017902 0.111510
-0.040318 0.017847 0.111149
-0.040223 0.019307 0.120097
-0.042303 0.020596 0.128077
-0.041767 0.020628 0.128248
-0.041275 0.020685 0.128562
-0.041028 0.020867 0.129661
-0.040892 0.021113 0.131147
-0.041666 0.021843 0.135640
-0.041900 0.022308 0.138486
-0.041997 0.022714 0.140959
-0.041970 0.023065 0.143091
-0.042261 0.023605 0.146389
-0.042519 0.024144 0.149682
-0.042480 0.024530 0.152020
-0.042365 0.024885 0.154161
-0.042327 0.025298 0.156662
-0.042572 0.025898 0.160317
-0.042695 0.026444 0.163638
-0.042505 0.026813 0.165858
-0.042161 0.027097 0.167548
-0.042050 0.027545 0.170251
-0.042011 0.028058 0.173353
-0.042287 0.028806 0.177905
-0.042062 0.029236 0.180489
-0.042112 0.029880 0.184387
-0.041881 0.030347 0.187195
-0.041765 0.030919 0.190647
-0.041683 0.031544 0.194418
-0.041812 0.032359 0.199359
-0.041548 0.032901 0.202617
-0.041070 0.033295 0.204966
-0.041016 0.034061 0.209594
-0.040855 0.034774 0.213897
-0.040930 0.035730 0.219686
-0.040698 0.036459 0.224085
-0.040509 0.037270 0.228975
-0.039764 0.037598 0.230903
-0.040938 0.039812 0.244404
-0.040777 0.040819 0.250491
-0.044363 0.045752 0.280657
-0.043067 0.045800 0.280851
-0.041310 0.045345 0.277959
-0.040246 0.045647 0.279709
-0.039548 0.046398 0.284210
-0.037093 0.045069 0.275971
-0.035212 0.044364 0.271563
-0.034445 0.045063 0.275752
-0.032759 0.044567 0.272630
-0.030019 0.042537 0.260128
-0.028807 0.042590 0.260372
-0.027552 0.042581 0.260236
-0.026178 0.042378 0.258920
-0.024988 0.042468 0.259402
-0.023701 0.042395 0.258883
-0.022474 0.042425 0.259003
-0.021321 0.042609 0.260056
-0.020138 0.042751 0.260861
-0.018819 0.042605 0.259910
-0.017674 0.042859 0.261404
-0.016564 0.043245 0.263701
-0.015285 0.043218 0.263489
-0.014152 0.043634 0.265973
-0.012885 0.043678 0.266197
-0.002631 0.043720 0.266198
-0.001348 0.043724 0.266207
-0.000065 0.044035 0.268085
0.001241 0.044512 0.270976
0.002489 0.043475 0.264661
0.003827 0.044191 0.269016
0.005207 0.044902 0.273343
0.006250 0.043005 0.261801
0.007357 0.042114 0.256377
0.008602 0.042152 0.256623
0.009844 0.042170 0.256745
0.011086 0.042183 0.256839
0.012338 0.042231 0.257149
0.013598 0.042291 0.257536
0.014878 0.042398 0.258217
0.016149 0.042465 0.258652
0.017408 0.042493 0.258851
0.018693 0.042576 0.259394
0.020024 0.042748 0.260478
0.021383 0.042954 0.261775
0.023373 0.044337 0.270244
0.024593 0.044187 0.269380
0.025503 0.043525 0.265393
0.025620 0.041635 0.253920
0.027196 0.042182 0.257306
0.028614 0.042448 0.258983
0.029830 0.042402 0.258761
0.030964 0.042250 0.257891
0.032238 0.042292 0.258211
0.033483 0.042294 0.258288
0.034862 0.042459 0.259360
0.036323 0.042710 0.260963
0.037700 0.042847 0.261872
0.038884 0.042764 0.261439
0.040652 0.043308 0.264837
0.042159 0.043550 0.266393
0.042918 0.043026 0.263268
0.043856 0.042708 0.261397
0.045396 0.042976 0.263120
0.046109 0.042469 0.260097
0.047092 0.042230 0.258714
0.048102 0.042028 0.257554
0.049252 0.041954 0.257184
0.050403 0.041886 0.256847
0.051563 0.041826 0.256567
0.052964 0.041962 0.257483
0.054414 0.042129 0.258590
0.055447 0.041973 0.257714
0.057124 0.042300 0.259807
0.059690 0.043257 0.265773
0.061698 0.043779 0.269066
0.063118 0.043870 0.269714
0.064490 0.043925 0.270142
0.065804 0.043939 0.270314
0.067055 0.043912 0.270230
0.068253 0.043851 0.269943
0.069423 0.043775 0.269553
0.070568 0.043686 0.269091
0.071397 0.043408 0.267457
0.072505 0.043306 0.266911
0.074122 0.043507 0.268226
0.074408 0.042933 0.264761
0.075353 0.042752 0.263716
0.075593 0.042183 0.260278
0.076545 0.042024 0.259362
0.077774 0.042019 0.259399
0.078717 0.041862 0.258494
0.079930 0.041852 0.258491
0.081547 0.042050 0.259772
0.083180 0.042250 0.261063
0.084418 0.042247 0.261097
0.086592 0.042705 0.263979
0.090104 0.043801 0.270797
0.099324 0.046938 0.290285
0.098991 0.046138 0.285374
0.101260 0.046556 0.287995
0.102925 0.046689 0.288849
0.104345 0.046708 0.288995
0.105838 0.046759 0.289333
0.107364 0.046824 0.289746
0.108809 0.046852 0.289930
0.109948 0.046749 0.289298
0.111408 0.046783 0.289508
0.112890 0.046825 0.289764
0.113933 0.046687 0.288896
0.115277 0.046673 0.288793
0.116692 0.046689 0.288864
0.118322 0.046789 0.289451
0.119012 0.046519 0.287742
0.120407 0.046527 0.287750
0.121752 0.046517 0.287632
0.124657 0.047095 0.291149
0.125813 0.047008 0.290540
0.127326 0.047055 0.290750
0.128619 0.047020 0.290447
0.130018 0.047023 0.290377
0.131309 0.046989 0.290058
0.132756 0.047010 0.290076
0.134124 0.047003 0.289910
0.135629 0.047043 0.290026
0.137047 0.047053 0.289944
0.138611 0.047112 0.290156
0.140422 0.047253 0.290859
0.142371 0.047438 0.291817
0.144042 0.047526 0.292174
0.145530 0.047553 0.292139
0.146970 0.047565 0.291993
0.148222 0.047515 0.291465
0.149756 0.047556 0.291476
0.151369 0.047621 0.291620
0.152854 0.047645 0.291498
-0.043007 0.017151 0.103828
-0.042734 0.017238 0.104360
-0.042375 0.017292 0.104688
-0.041716 0.017222 0.104269
-0.040098 0.016751 0.101417
-0.040488 0.017118 0.103630
-0.040422 0.017511 0.105999
-0.040347 0.017696 0.107112
-0.039969 0.017753 0.107440
-0.040924 0.018409 0.111402
-0.040767 0.018577 0.112397
-0.040192 0.019859 0.120018
-0.041088 0.020591 0.124412
-0.041418 0.021057 0.127195
-0.041172 0.021240 0.128262
-0.040579 0.021246 0.128263
-0.041285 0.021942 0.132429
-0.041713 0.022510 0.135817
-0.041906 0.022967 0.138529
-0.041701 0.023217 0.139992
-0.041920 0.023714 0.142945
-0.042359 0.024355 0.146757
-0.042598 0.024900 0.149991
-0.042624 0.025337 0.152567
-0.042560 0.025734 0.154907
-0.042660 0.026247 0.157932
-0.042533 0.026635 0.160209
-0.042524 0.027112 0.163020
-0.042336 0.027492 0.165239
-0.042348 0.028017 0.168335
-0.042194 0.028452 0.170878
-0.042355 0.029119 0.174820
-0.042290 0.029655 0.177964
-0.042076 0.030106 0.180599
-0.041934 0.030628 0.183659
-0.041885 0.031242 0.187268
-0.041584 0.031691 0.189880
-0.041566 0.032379 0.193929
-0.041627 0.033163 0.198543
-0.041487 0.033818 0.202386
-0.041160 0.034349 0.205480
-0.041096 0.035130 0.210073
-0.041170 0.036072 0.215616
-0.041161 0.036987 0.221000
-0.041124 0.037924 0.226512
-0.040387 0.038250 0.228367
-0.042351 0.041221 0.246014
-0.041223 0.041268 0.246198
-0.040731 0.041972 0.250308
-0.040593 0.043095 0.256906
-0.043320 0.047424 0.282611
-0.042012 0.047473 0.282800
-0.040921 0.047777 0.284514
-0.039599 0.047824 0.284693
-0.036657 0.045849 0.272842
-0.035233 0.045696 0.271843
-0.034553 0.046534 0.276736
-0.032730 0.045838 0.272509
-0.029828 0.043510 0.258589
-0.028398 0.043220 0.256788
-0.027203 0.043278 0.257053
-0.025984 0.043302 0.257126
-0.024776 0.043347 0.257323
-0.023519 0.043307 0.257014
-0.022303 0.043344 0.257167
-0.021087 0.043382 0.257330
-0.019898 0.043486 0.257884
-0.018719 0.043628 0.258669
-0.017519 0.043736 0.259251
-0.016428 0.044156 0.261687
-0.015201 0.044246 0.262173
-0.013896 0.044109 0.261309
-0.012626 0.044065 0.261007
-0.011374 0.044082 0.261062
-0.010057 0.043817 0.259458
-0.008794 0.043751 0.259030
-0.007484 0.043388 0.256849
-0.006262 0.043491 0.257432
-0.005036 0.043617 0.258151
-0.003804 0.043755 0.258947
-0.002570 0.043985 0.260289
-0.001315 0.043976 0.260216
-0.000062 0.044501 0.263311
0.001217 0.044862 0.265437
0.002486 0.044670 0.264293
0.003801 0.045160 0.267189
0.005137 0.045584 0.269697
0.006343 0.044916 0.265749
0.007337 0.043224 0.255741
0.008598 0.043361 0.256562
0.009849 0.043425 0.256957
0.011052 0.043282 0.256124
0.012304 0.043344 0.256510
0.013573 0.043447 0.257142
0.014848 0.043549 0.257768
0.016120 0.043630 0.258275
0.017412 0.043745 0.258989
0.018718 0.043881 0.259829
0.020115 0.044198 0.261740
0.021552 0.044561 0.263930
0.023348 0.045585 0.270038
0.024566 0.045431 0.269175
0.025971 0.045622 0.270352
0.027256 0.045592 0.270231
0.033689 0.045489 0.269916
0.034959 0.045452 0.269760
0.036123 0.045283 0.268826
0.037438 0.045310 0.269054
0.038631 0.045191 0.268421
0.039535 0.044754 0.265894
0.040831 0.044773 0.266085
0.042293 0.044969 0.267320
0.043276 0.044657 0.265547
0.043870 0.043973 0.261555
0.045195 0.044040 0.262032
0.046160 0.043763 0.260460
0.047081 0.043458 0.258727
0.048128 0.043283 0.257765
0.049304 0.043230 0.257529
0.050499 0.043195 0.257401
0.051748 0.043208 0.257559
0.053170 0.043360 0.258548
0.054529 0.043456 0.259200
0.055716 0.043412 0.259025
0.057303 0.043677 0.260686
0.059700 0.044533 0.265882
0.061764 0.045111 0.269418
0.063025 0.045091 0.269381
0.064380 0.045137 0.269742
0.065813 0.045235 0.270411
0.067047 0.045195 0.270255
0.068308 0.045173 0.270212
0.069504 0.045112 0.269923
0.070760 0.045090 0.269873
0.072043 0.045086 0.269927
0.073300 0.045066 0.269885
0.074647 0.045101 0.270172
0.075538 0.044863 0.268824
0.076821 0.044863 0.268894
0.078030 0.044820 0.268709
0.078810 0.044537 0.267077
0.080169 0.044584 0.267422
0.081294 0.044501 0.266990
0.082528 0.044480 0.266924
0.084162 0.044672 0.268131
0.085232 0.044563 0.267533
0.086623 0.044622 0.267940
0.088456 0.044904 0.269685
0.090036 0.045052 0.270615
0.097726 0.048209 0.289626
0.098954 0.048135 0.289222
0.098635 0.047321 0.284366
0.100639 0.047628 0.286245
0.102547 0.047882 0.287800
0.104449 0.048127 0.289294
0.106076 0.048240 0.289993
0.107490 0.048255 0.290094
0.108515 0.048096 0.289150
0.110051 0.048165 0.289569
0.111340 0.048126 0.289329
0.112579 0.048067 0.288963
0.114243 0.048187 0.289673
0.115465 0.048121 0.289255
0.116607 0.048023 0.288640
0.118148 0.048091 0.289010
0.119356 0.048022 0.288556
0.121533 0.048341 0.290421
0.122516 0.048182 0.289414
0.123645 0.048084 0.288761
0.124917 0.048043 0.288443
0.126083 0.047963 0.287881
0.128635 0.048405 0.290448
0.129939 0.048374 0.290164
0.130947 0.048234 0.289219
0.132574 0.048323 0.289635
0.134116 0.048379 0.289846
0.135722 0.048457 0.290177
0.137262 0.048510 0.290348
0.138659 0.048512 0.290201
0.140068 0.048517 0.290066
0.141351 0.048480 0.289663
0.143025 0.048576 0.290044
0.144985 0.048766 0.290977
0.146754 0.048889 0.291493
0.148017 0.048843 0.290985
0.149706 0.048936 0.291299
0.151299 0.048997 0.291401
0.152470 0.048921 0.290677
-0.043063 0.017466 0.102785
-0.042646 0.017493 0.102954
-0.042918 0.017806 0.104806
-0.042531 0.017851 0.105072
-0.040938 0.017384 0.102327
-0.040362 0.018675 0.109877
-0.041233 0.019325 0.113690
-0.040764 0.019356 0.113854
-0.042747 0.020846 0.122574
-0.042238 0.020879 0.122744
-0.040747 0.020421 0.120028
-0.041069 0.020872 0.122652
-0.041035 0.021152 0.124268
-0.041625 0.021767 0.127848
-0.040994 0.021751 0.127724
-0.040348 0.021728 0.127549
-0.040344 0.022054 0.129432
-0.041455 0.023010 0.134998
-0.041681 0.023496 0.137808
-0.041994 0.024048 0.141002
-0.042319 0.024624 0.144334
-0.042245 0.024983 0.146391
-0.042183 0.025362 0.148560
-0.042403 0.025925 0.151808
-0.042710 0.026562 0.155486
-0.042655 0.026992 0.157948
-0.042665 0.027480 0.160744
-0.042435 0.027828 0.162718
-0.042331 0.028273 0.165262
-0.042117 0.028660 0.167460
-0.041947 0.029092 0.169920
-0.041921 0.029644 0.173074
-0.042218 0.030449 0.177710
-0.042226 0.031076 0.181296
-0.042103 0.031630 0.184454
-0.042016 0.032235 0.187909
-0.041895 0.032839 0.191357
-0.041723 0.033430 0.194723
-0.041777 0.034232 0.199321
-0.041482 0.034780 0.202430
-0.041311 0.035459 0.206303
-0.041225 0.036248 0.210807
-0.041315 0.037233 0.216453
-0.040729 0.037644 0.218758
-0.040265 0.038193 0.221861
-0.042644 0.041540 0.241215
-0.041739 0.041786 0.242552
-0.040858 0.042070 0.244108
-0.040165 0.042571 0.246922
-0.040178 0.043872 0.254378
-0.039529 0.044510 0.257984
-0.041102 0.047771 0.276784
-0.039819 0.047818 0.276964
-0.038842 0.048251 0.279374
-0.037347 0.048047 0.278099
-0.035199 0.046957 0.271698
-0.034802 0.048209 0.278854
-0.032429 0.046714 0.270123
-0.029770 0.044666 0.258202
-0.028409 0.044473 0.257008
-0.027255 0.044601 0.257671
-0.026019 0.044600 0.257592
-0.024792 0.044615 0.257611
-0.023576 0.044654 0.257768
-0.022376 0.044728 0.258130
-0.021175 0.044810 0.258536
-0.020003 0.044966 0.259378
-0.018798 0.045065 0.259887
-0.017640 0.045299 0.261182
-0.016742 0.046287 0.266828
-0.015273 0.045729 0.263559
-0.014078 0.045966 0.264877
-0.012860 0.046168 0.265996
-0.011314 0.045108 0.259848
-0.010000 0.044820 0.258152
-0.008763 0.044850 0.258290
-0.007460 0.044493 0.256202
-0.006216 0.044417 0.255734
-0.004999 0.044544 0.256443
-0.003776 0.044687 0.257241
-0.002553 0.044972 0.258865
-0.001304 0.044903 0.258449
-0.000060 0.045450 0.261584
0.001234 0.046692 0.268722
0.002468 0.045574 0.262281
0.003779 0.046152 0.265604
0.005179 0.047244 0.271888
0.006336 0.046127 0.265462
0.007332 0.044410 0.255590
0.008580 0.044493 0.256076
0.009824 0.044540 0.256359
0.011043 0.044473 0.255985
0.012288 0.044514 0.256241
0.013550 0.044602 0.256769
0.014847 0.044783 0.257834
0.016114 0.044852 0.258256
0.017387 0.044924 0.258701
0.018686 0.045052 0.259472
0.019970 0.045128 0.259948
0.021306 0.045306 0.261012
0.022819 0.045818 0.264002
0.024539 0.046671 0.268965
0.025265 0.045642 0.263082
0.032906 0.045697 0.263730
0.034161 0.045678 0.263685
0.035392 0.045631 0.263477
0.036880 0.045906 0.265130
0.038096 0.045835 0.264792
0.039010 0.045417 0.262450
0.040595 0.045782 0.264628
0.042164 0.046107 0.266582
0.043195 0.045842 0.265125
0.043834 0.045188 0.261418
0.044999 0.045098 0.260973
0.045977 0.044831 0.259503
0.046899 0.044523 0.257802
0.047936 0.044338 0.256807
0.049053 0.044235 0.256286
0.050247 0.044204 0.256190
0.051399 0.044138 0.255886
0.052797 0.044282 0.256800
0.053969 0.044234 0.256604
0.055320 0.044332 0.257252
0.056934 0.044631 0.259066
0.058951 0.045227 0.262608
0.061322 0.046064 0.267549
0.062844 0.046242 0.268666
0.064119 0.046235 0.268707
0.065606 0.046377 0.269617
0.066958 0.046420 0.269951
0.068284 0.046444 0.270171
0.069501 0.046395 0.269964
0.070770 0.046381 0.269963
0.072031 0.046362 0.269930
0.073333 0.046370 0.270052
0.074493 0.046290 0.269659
0.075717 0.046251 0.269504
0.077306 0.046433 0.270633
0.078558 0.046410 0.270569
0.079629 0.046282 0.269888
0.081027 0.046345 0.270322
0.082352 0.046365 0.270499
0.083572 0.046327 0.270333
0.085250 0.046539 0.271628
0.086553 0.046543 0.271708
0.087610 0.046417 0.271019
0.089211 0.046579 0.272011
0.091119 0.046893 0.273893
0.100612 0.050336 0.294087
0.101857 0.050259 0.293671
0.102051 0.049673 0.290276
0.101806 0.048891 0.285731
0.104092 0.049329 0.288313
0.105698 0.049438 0.288965
0.107247 0.049518 0.289441
0.109352 0.049849 0.291382
0.109785 0.049419 0.288869
0.111304 0.049482 0.289232
0.112770 0.049521 0.289447
0.113690 0.049321 0.288263
0.115193 0.049376 0.288563
0.116803 0.049476 0.289112
0.117805 0.049318 0.288154
0.119371 0.049398 0.288575
0.120876 0.049450 0.288831
0.123115 0.049798 0.290805
0.124566 0.049824 0.290885
0.125830 0.049774 0.290520
0.127176 0.049758 0.290342
0.128795 0.049848 0.290774
0.130093 0.049813 0.290469
0.131319 0.049751 0.289999
0.132696 0.049747 0.289855
0.134275 0.049818 0.290141
0.135921 0.049912 0.290550
0.137700 0.050053 0.291219
0.138675 0.049901 0.290175
0.139914 0.049846 0.289686
0.141931 0.050067 0.290786
0.143323 0.050065 0.290579
0.144897 0.050126 0.290727
0.146603 0.050231 0.291117
0.147802 0.050162 0.290483
0.149274 0.050186 0.290373
0.150999 0.050294 0.290736
0.152509 0.050329 0.290661
-0.041356 0.017239 0.098708
-0.041882 0.017656 0.101106
-0.042573 0.018153 0.103961
-0.041697 0.017986 0.103010
-0.041278 0.018015 0.103174
-0.039494 0.018780 0.107522
-0.040579 0.019546 0.111892
-0.040277 0.019656 0.112502
-0.039882 0.019722 0.112864
-0.039020 0.019556 0.111896
-0.038494 0.019557 0.111877
-0.040766 0.020998 0.120099
-0.041277 0.021560 0.123286
-0.041312 0.021886 0.125123
-0.041162 0.022122 0.126441
-0.040678 0.022183 0.126757
-0.040254 0.022278 0.127271
-0.042294 0.023762 0.135709
-0.041719 0.023799 0.135880
-0.041886 0.024267 0.138513
-0.042053 0.024750 0.141224
-0.042394 0.025352 0.144616
-0.042475 0.025816 0.147217
-0.042359 0.026174 0.149209
-0.042241 0.026543 0.151260
-0.042508 0.027170 0.154785
-0.042698 0.027770 0.158144
-0.042405 0.028071 0.159802
-0.042484 0.028634 0.162947
-0.042365 0.029081 0.165434
-0.042331 0.029605 0.168352
-0.042006 0.029942 0.170204
-0.042230 0.030691 0.174395
-0.042480 0.031489 0.178864
-0.042227 0.031939 0.181351
-0.042191 0.032576 0.184896
-0.041930 0.033061 0.187580
-0.041937 0.033785 0.191610
-0.041728 0.034362 0.194807
-0.041584 0.035021 0.198466
-0.041576 0.035826 0.202955
-0.041299 0.036433 0.206314
-0.041256 0.037282 0.211037
-0.040356 0.037378 0.211500
-0.040992 0.038939 0.220250
-0.043141 0.042057 0.237797
-0.042678 0.042728 0.241496
-0.041807 0.043016 0.243035
-0.040886 0.043269 0.244374
-0.039832 0.043390 0.244971
-0.039623 0.044468 0.250966
-0.039064 0.045208 0.255053
-0.038338 0.045796 0.258277
-0.040148 0.049554 0.279374
-0.038729 0.049446 0.278674
-0.037431 0.049493 0.278843
-0.035655 0.048886 0.275338
-0.035101 0.049974 0.281373
-0.032912 0.048727 0.274269
-0.029666 0.045747 0.257415
-0.028430 0.045744 0.257320
-0.027301 0.045919 0.258230
-0.026024 0.045850 0.257772
-0.024801 0.045874 0.257835
-0.023584 0.045912 0.257985
-0.022390 0.046001 0.258422
-0.021172 0.046051 0.258636
-0.019925 0.046038 0.258503
-0.018717 0.046121 0.258914
-0.017638 0.046556 0.261298
-0.016583 0.047124 0.264434
