ply
format ascii 1.0
element vertex 1733
property float x
property float y
property float z
end_header
-0.021355 -0.002422 0.258064
-0.020148 -0.002427 0.258543
-0.018945 -0.002433 0.259157
-0.017842 -0.002454 0.261330
-0.013276 -0.002551 0.271369
-0.011386 -0.002429 0.258332
-0.010263 -0.002460 0.261644
-0.008999 -0.002462 0.261773
-0.007719 -0.002459 0.261464
-0.006494 -0.002476 0.263251
-0.005244 -0.002490 0.264713
-0.003979 -0.002504 0.266150
-0.002702 -0.002519 0.267758
-0.001404 -0.002526 0.268464
-0.000099 -0.002539 0.269815
0.001213 -0.002539 0.269812
0.002459 -0.002473 0.262811
0.003888 -0.002573 0.273436
0.005218 -0.002573 0.273414
0.006378 -0.002506 0.266333
0.007621 -0.002489 0.264524
0.008809 -0.002462 0.261627
0.010034 -0.002450 0.260398
0.011317 -0.002454 0.260822
0.012579 -0.002453 0.260710
0.013842 -0.002452 0.260643
0.015157 -0.002460 0.261500
0.016408 -0.002457 0.261216
0.017730 -0.002464 0.262016
0.019057 -0.002471 0.262804
0.020299 -0.002467 0.262396
0.021551 -0.002464 0.262162
0.024905 -0.002419 0.257511
0.026052 -0.002409 0.256549
0.027263 -0.002407 0.256297
0.028427 -0.002400 0.255642
0.029717 -0.002404 0.256142
0.030924 -0.002401 0.255926
0.032201 -0.002404 0.256285
0.033519 -0.002410 0.256949
0.034719 -0.002407 0.256691
0.036059 -0.002413 0.257467
0.037534 -0.002428 0.259123
0.039060 -0.002445 0.261028
0.040397 -0.002450 0.261596
0.053595 -0.002600 0.278352
0.054869 -0.002596 0.278118
0.055899 -0.002582 0.276693
0.057188 -0.002580 0.276590
0.058532 -0.002581 0.276758
0.056848 -0.002451 0.262920
0.059280 -0.002501 0.268310
0.060818 -0.002511 0.269513
0.062180 -0.002514 0.269910
0.063488 -0.002514 0.270068
0.064755 -0.002513 0.270050
0.066114 -0.002516 0.270415
0.067333 -0.002513 0.270207
0.068661 -0.002514 0.270442
0.069893 -0.002512 0.270297
0.071019 -0.002506 0.269762
0.071711 -0.002486 0.267622
0.072622 -0.002473 0.266368
0.073833 -0.002471 0.266236
0.074688 -0.002458 0.264850
0.075368 -0.002439 0.262901
0.075775 -0.002412 0.260079
0.076683 -0.002402 0.259040
0.077855 -0.002400 0.258909
0.078766 -0.002390 0.257931
0.079818 -0.002385 0.257438
0.081169 -0.002389 0.257909
0.082443 -0.002390 0.258124
0.083361 -0.002382 0.257236
0.084895 -0.002390 0.258245
0.086912 -0.002412 0.260676
0.100795 -0.002721 0.294065
0.101443 -0.002701 0.291968
0.102586 -0.002695 0.291331
0.103881 -0.002693 0.291136
0.105018 -0.002686 0.290504
0.106222 -0.002682 0.290070
0.107691 -0.002685 0.290358
0.108829 -0.002679 0.289751
0.110016 -0.002675 0.289286
0.111665 -0.002682 0.290029
0.116047 -0.002688 0.290702
0.117318 -0.002686 0.290437
0.118524 -0.002682 0.290012
0.120116 -0.002687 0.290522
0.121182 -0.002681 0.289759
0.123812 -0.002709 0.292702
0.124547 -0.002695 0.291141
0.125656 -0.002689 0.290472
0.126681 -0.002682 0.289618
0.127961 -0.002680 0.289348
0.129269 -0.002679 0.289139
0.132337 -0.002714 0.292818
0.133583 -0.002712 0.292422
0.134577 -0.002704 0.291476
0.136307 -0.002711 0.292117
0.138231 -0.002722 0.293144
0.138632 -0.002703 0.290942
0.141121 -0.002725 0.293110
0.142331 -0.002722 0.292591
0.143293 -0.002714 0.291564
0.145166 -0.002724 0.292377
0.146310 -0.002719 0.291706
0.147555 -0.002717 0.291233
0.149124 -0.002721 0.291387
0.150190 -0.002715 0.290549
0.151288 -0.002711 0.289769
-0.153413 -0.001313 0.289365
-0.152041 -0.001312 0.289544
-0.150601 -0.001311 0.289582
-0.149301 -0.001311 0.289876
-0.148138 -0.001312 0.290430
-0.146553 -0.001310 0.290145
-0.144998 -0.001308 0.289900
-0.143883 -0.001309 0.290526
-0.142076 -0.001305 0.289739
-0.140787 -0.001305 0.289991
-0.138840 -0.001299 0.288870
-0.137677 -0.001300 0.289359
-0.136717 -0.001304 0.290281
-0.134735 -0.001297 0.289018
-0.132729 -0.001291 0.287666
-0.129580 -0.001272 0.283773
-0.127517 -0.001265 0.282195
-0.134648 -0.001349 0.301135
-0.133458 -0.001351 0.301664
-0.135470 -0.001385 0.309511
-0.136355 -0.001409 0.314917
-0.123171 -0.001286 0.287586
-0.122011 -0.001288 0.288028
-0.120767 -0.001289 0.288271
-0.119584 -0.001290 0.288661
-0.118422 -0.001292 0.289107
-0.117103 -0.001292 0.289170
-0.115729 -0.001291 0.289091
-0.114355 -0.001291 0.289005
-0.112945 -0.001290 0.288821
-0.111813 -0.001292 0.289350
-0.110514 -0.001292 0.289446
-0.108681 -0.001286 0.288130
-0.107288 -0.001286 0.287957
-0.106107 -0.001287 0.288351
-0.104673 -0.001286 0.288060
-0.103430 -0.001287 0.288289
-0.102249 -0.001289 0.288697
-0.100938 -0.001289 0.288745
-0.099678 -0.001290 0.288938
-0.098469 -0.001292 0.289287
-0.097117 -0.001292 0.289218
-0.094674 -0.001277 0.285852
-0.095542 -0.001307 0.292531
-0.096954 -0.001345 0.301089
-0.096077 -0.001353 0.302684
-0.095050 -0.001358 0.303845
-0.093916 -0.001362 0.304699
-0.093884 -0.001383 0.309207
-0.089628 -0.001341 0.299730
-0.088360 -0.001343 0.300106
-0.084478 -0.001304 0.291477
-0.083288 -0.001307 0.292015
-0.081696 -0.001303 0.291136
-0.080121 -0.001300 0.290296
-0.078696 -0.001299 0.289980
-0.077181 -0.001296 0.289322
-0.076143 -0.001302 0.290462
-0.074844 -0.001303 0.290635
-0.073172 -0.001298 0.289346
-0.072319 -0.001307 0.291310
-0.070977 -0.001308 0.291349
-0.068852 -0.001293 0.288120
-0.067621 -0.001296 0.288577
-0.065415 -0.001280 0.284819
-0.063775 -0.001274 0.283425
-0.062373 -0.001273 0.283064
-0.061058 -0.001273 0.283092
-0.059828 -0.001275 0.283532
-0.058494 -0.001276 0.283495
-0.057106 -0.001275 0.283193
-0.055811 -0.001276 0.283364
-0.054407 -0.001275 0.282981
-0.045174 -0.001281 0.283682
-0.043870 -0.001283 0.283945
-0.042383 -0.001279 0.283018
-0.041142 -0.001283 0.283730
-0.039665 -0.001279 0.282826
-0.038343 -0.001280 0.283007
-0.036499 -0.001263 0.279226
-0.035658 -0.001281 0.283133
-0.034502 -0.001289 0.284757
-0.030459 -0.001185 0.261729
-0.028938 -0.001175 0.259333
-0.027547 -0.001169 0.257948
-0.026254 -0.001167 0.257405
-0.025010 -0.001167 0.257328
-0.023829 -0.001170 0.257936
-0.022585 -0.001170 0.257909
-0.021416 -0.001174 0.258796
-0.020167 -0.001174 0.258781
-0.019060 -0.001183 0.260728
-0.017955 -0.001194 0.262980
-0.013368 -0.001241 0.273247
-0.012046 -0.001242 0.273308
-0.010351 -0.001199 0.263871
-0.009093 -0.001202 0.264511
-0.007764 -0.001195 0.262971
-0.006506 -0.001199 0.263762
-0.005232 -0.001201 0.264101
-0.003957 -0.001203 0.264624
-0.002681 -0.001208 0.265677
-0.001391 -0.001210 0.265962
-0.000099 -0.001217 0.267488
0.005218 -0.001244 0.273423
0.006167 -0.001171 0.257549
0.007475 -0.001180 0.259472
0.008708 -0.001176 0.258612
0.009969 -0.001177 0.258721
0.011227 -0.001177 0.258735
0.012508 -0.001179 0.259232
0.013779 -0.001180 0.259447
0.015050 -0.001181 0.259656
0.016324 -0.001181 0.259873
0.017647 -0.001186 0.260793
0.018926 -0.001186 0.260989
0.020175 -0.001185 0.260789
0.021819 -0.001206 0.265423
0.024762 -0.001224 0.269491
0.024916 -0.001170 0.257615
0.025987 -0.001162 0.255909
0.027250 -0.001163 0.256170
0.028454 -0.001162 0.255885
0.029699 -0.001162 0.255986
0.030965 -0.001163 0.256263
0.032227 -0.001164 0.256489
0.033500 -0.001165 0.256793
0.034714 -0.001164 0.256654
0.036015 -0.001166 0.257148
0.037294 -0.001167 0.257469
0.039261 -0.001189 0.262369
0.041232 -0.001210 0.266998
0.050605 -0.001250 0.276465
0.051875 -0.001249 0.276229
0.053174 -0.001248 0.276165
0.054448 -0.001247 0.275982
0.055338 -0.001238 0.273913
0.056471 -0.001234 0.273120
0.057660 -0.001231 0.272632
0.058411 -0.001220 0.270148
0.059377 -0.001213 0.268746
0.060908 -0.001218 0.269911
0.062331 -0.001221 0.270563
0.063594 -0.001220 0.270518
0.064848 -0.001219 0.270438
0.066106 -0.001219 0.270382
0.067368 -0.001218 0.270346
0.068647 -0.001218 0.270382
0.069871 -0.001217 0.270209
0.071038 -0.001215 0.269831
0.071796 -0.001206 0.267938
0.072533 -0.001198 0.266041
0.073714 -0.001196 0.265805
0.074748 -0.001193 0.265063
0.075312 -0.001182 0.262705
0.075859 -0.001171 0.260366
0.076758 -0.001166 0.259291
0.077709 -0.001162 0.258422
0.078642 -0.001158 0.257523
0.079791 -0.001157 0.257349
0.080979 -0.001157 0.257303
0.082169 -0.001156 0.257267
0.083644 -0.001160 0.258107
0.085121 -0.001164 0.258934
0.100390 -0.001316 0.292882
0.100762 -0.001303 0.290007
0.102503 -0.001308 0.291097
0.103740 -0.001306 0.290739
0.104742 -0.001302 0.289741
0.106130 -0.001302 0.289819
0.107502 -0.001303 0.289847
0.108936 -0.001304 0.290036
0.110434 -0.001305 0.290384
0.111701 -0.001304 0.290122
0.113025 -0.001304 0.290005
0.114239 -0.001303 0.289608
0.115962 -0.001307 0.290491
0.117265 -0.001306 0.290306
0.118326 -0.001303 0.289528
0.120216 -0.001309 0.290767
0.121328 -0.001307 0.290108
0.122608 -0.001306 0.289856
0.124567 -0.001313 0.291189
0.125726 -0.001311 0.290636
0.126889 -0.001309 0.290094
0.128163 -0.001308 0.289807
0.129492 -0.001308 0.289639
0.130871 -0.001308 0.289578
0.132880 -0.001315 0.290885
0.134017 -0.001313 0.290266
0.135398 -0.001314 0.290172
0.137285 -0.001319 0.291140
0.138458 -0.001317 0.290579
0.140048 -0.001320 0.290882
0.141522 -0.001321 0.290929
0.143478 -0.001327 0.291941
0.144951 -0.001328 0.291947
0.146130 -0.001326 0.291352
0.147604 -0.001328 0.291334
0.148883 -0.001327 0.290920
0.150192 -0.001327 0.290555
0.152112 -0.001332 0.291352
-0.153289 0.000059 0.289133
-0.151767 0.000060 0.289024
-0.150101 0.000060 0.288622
-0.149043 0.000061 0.289377
-0.147604 0.000061 0.289385
-0.146180 0.000062 0.289409
-0.144585 0.000062 0.289076
-0.143237 0.000063 0.289223
-0.141600 0.000063 0.288771
-0.140444 0.000064 0.289287
-0.138474 0.000064 0.288109
-0.137374 0.000064 0.288724
-0.136121 0.000065 0.289017
-0.134372 0.000065 0.288241
-0.132488 0.000065 0.287146
-0.129866 0.000065 0.284402
-0.127506 0.000065 0.282171
-0.134450 0.000070 0.300693
-0.133262 0.000070 0.301221
-0.134892 0.000073 0.308190
-0.135618 0.000074 0.313215
-0.123275 0.000069 0.287829
-0.121978 0.000069 0.287949
-0.120630 0.000069 0.287945
-0.119585 0.000070 0.288665
-0.118152 0.000070 0.288449
-0.116710 0.000071 0.288199
-0.115291 0.000071 0.287998
-0.114088 0.000072 0.288332
-0.112808 0.000072 0.288472
-0.111545 0.000072 0.288655
-0.110002 0.000073 0.288107
-0.108757 0.000073 0.288331
-0.107436 0.000074 0.288353
-0.106002 0.000074 0.288067
-0.104651 0.000074 0.288000
-0.103205 0.000074 0.287662
-0.101955 0.000075 0.287869
-0.100667 0.000075 0.287970
-0.099237 0.000076 0.287660
-0.097843 0.000076 0.287450
-0.096749 0.000076 0.288123
-0.095072 0.000076 0.287055
-0.095701 0.000078 0.293019
-0.095869 0.000080 0.297719
-0.095554 0.000081 0.301037
-0.093743 0.000081 0.299668
-0.091862 0.000081 0.298035
-0.091933 0.000083 0.302782
-0.091086 0.000084 0.304604
-0.087392 0.000082 0.296819
-0.084512 0.000081 0.291597
-0.083109 0.000081 0.291385
-0.081760 0.000081 0.291366
-0.080257 0.000081 0.290788
-0.078912 0.000082 0.290777
-0.077403 0.000082 0.290153
-0.075980 0.000082 0.289842
-0.074786 0.000082 0.290410
-0.073254 0.000083 0.289668
-0.072030 0.000083 0.290146
-0.071774 0.000085 0.294620
-0.070481 0.000085 0.294932
-0.067621 0.000083 0.288580
-0.065851 0.000083 0.286719
-0.059081 0.000084 0.286337
-0.057761 0.000085 0.286442
-0.057204 0.000086 0.290435
-0.056013 0.000086 0.291332
-0.045680 0.000087 0.286859
-0.043935 0.000086 0.284365
-0.042384 0.000086 0.283021
-0.041142 0.000086 0.283733
-0.039666 0.000086 0.282829
-0.038343 0.000086 0.283010
-0.036161 0.000085 0.276639
-0.035671 0.000087 0.283238
-0.034482 0.000087 0.284595
-0.030425 0.000080 0.261429
-0.028996 0.000080 0.259847
-0.027429 0.000079 0.256836
-0.026094 0.000079 0.255834
-0.025081 0.000080 0.258058
-0.023785 0.000080 0.257469
-0.022596 0.000080 0.258040
-0.021344 0.000080 0.257932
-0.020200 0.000081 0.259209
-0.019013 0.000081 0.260078
-0.017912 0.000082 0.262355
-0.013475 0.000086 0.275432
-0.012037 0.000086 0.273086
-0.010830 0.000087 0.276073
-0.009429 0.000086 0.274285
-0.008060 0.000086 0.272998
-0.006748 0.000086 0.273565
-0.005411 0.000086 0.273118
-0.004063 0.000085 0.271737
-0.002745 0.000085 0.272020
-0.001425 0.000086 0.272391
-0.000101 0.000086 0.272585
0.006201 0.000081 0.258939
0.007443 0.000081 0.258341
0.008714 0.000081 0.258810
0.009963 0.000081 0.258552
0.011231 0.000081 0.258830
0.012508 0.000081 0.259221
0.013766 0.000081 0.259208
0.015061 0.000081 0.259831
0.016331 0.000081 0.259987
0.017659 0.000082 0.260963
0.018918 0.000081 0.260881
0.020230 0.000082 0.261493
0.021562 0.000082 0.262293
0.023468 0.000084 0.269609
0.024762 0.000084 0.269494
0.025000 0.000080 0.258486
0.026049 0.000079 0.256515
0.027276 0.000079 0.256413
0.028632 0.000080 0.257482
0.029847 0.000079 0.257257
0.031158 0.000079 0.257856
0.032459 0.000079 0.258337
0.033844 0.000080 0.259434
0.035446 0.000080 0.262068
0.036798 0.000080 0.262735
0.038175 0.000080 0.263548
0.039560 0.000080 0.264366
0.041232 0.000081 0.267001
0.043295 0.000082 0.271943
0.044996 0.000083 0.274392
0.046438 0.000083 0.275176
0.047408 0.000082 0.273207
0.049049 0.000083 0.275116
0.050594 0.000083 0.276404
0.051592 0.000082 0.274724
0.052839 0.000082 0.274422
0.054449 0.000082 0.275985
0.055185 0.000081 0.273157
0.056190 0.000080 0.271759
0.057612 0.000080 0.272405
0.058880 0.000080 0.272316
0.059847 0.000079 0.270874
0.060736 0.000079 0.269150
0.062245 0.000079 0.270189
0.063607 0.000078 0.270572
0.064820 0.000078 0.270321
0.066043 0.000078 0.270124
0.067273 0.000078 0.269964
0.068523 0.000077 0.269895
0.069758 0.000077 0.269772
0.070994 0.000077 0.269662
0.071891 0.000076 0.268292
0.072577 0.000075 0.266199
0.073690 0.000075 0.265720
0.074707 0.000074 0.264918
0.075255 0.000073 0.262506
0.075840 0.000072 0.260300
0.076707 0.000072 0.259118
0.077713 0.000071 0.258436
0.078758 0.000071 0.257906
0.079819 0.000070 0.257439
0.081252 0.000070 0.258170
0.082459 0.000070 0.258176
0.083709 0.000070 0.258308
0.085182 0.000070 0.259119
0.100813 0.000078 0.294115
0.100594 0.000076 0.289526
0.102122 0.000076 0.290013
0.104609 0.000075 0.289374
0.106132 0.000075 0.289823
0.107639 0.000075 0.290218
0.108964 0.000074 0.290112
0.110441 0.000074 0.290406
0.111675 0.000073 0.290054
0.113157 0.000073 0.290346
0.114565 0.000073 0.290435
0.116259 0.000073 0.291235
0.117217 0.000072 0.290188
0.118408 0.000071 0.289729
0.120476 0.000071 0.291396
0.121791 0.000071 0.291216
0.122924 0.000070 0.290605
0.124296 0.000070 0.290558
0.125594 0.000069 0.290331
0.126884 0.000069 0.290084
0.128227 0.000068 0.289953
0.129553 0.000068 0.289778
0.130932 0.000067 0.289714
0.132677 0.000067 0.290443
0.134155 0.000067 0.290566
0.135917 0.000066 0.291286
0.137191 0.000066 0.290944
0.138852 0.000066 0.291407
0.140000 0.000065 0.290786
0.141538 0.000064 0.290964
0.143125 0.000064 0.291226
0.144256 0.000063 0.290549
0.145525 0.000063 0.290146
0.147032 0.000062 0.290207
0.148801 0.000062 0.290762
0.149641 0.000061 0.289492
0.150956 0.000061 0.289140
-0.152541 0.001423 0.287722
-0.151455 0.001426 0.288431
-0.149743 0.001423 0.287935
-0.148227 0.001422 0.287794
-0.147568 0.001430 0.289315
-0.144963 0.001418 0.286998
-0.144097 0.001423 0.288101
-0.142769 0.001424 0.288277
-0.141271 0.001423 0.288101
-0.140215 0.001427 0.288816
-0.138815 0.001427 0.288820
-0.137742 0.001430 0.289498
-0.136464 0.001432 0.289744
-0.135095 0.001432 0.289791
-0.131510 0.001409 0.285027
-0.130057 0.001408 0.284821
-0.127149 0.001391 0.281383
-0.133968 0.001482 0.299617
-0.132785 0.001485 0.300143
-0.135737 0.001534 0.310121
-0.134416 0.001536 0.310441
-0.122542 0.001416 0.286120
-0.121538 0.001421 0.286912
-0.120208 0.001421 0.286939
-0.118803 0.001421 0.286778
-0.117911 0.001427 0.287862
-0.116118 0.001422 0.286739
-0.115244 0.001428 0.287882
-0.114211 0.001432 0.288643
-0.112207 0.001425 0.286936
-0.111739 0.001436 0.289159
-0.110433 0.001437 0.289237
-0.108165 0.001426 0.286763
-0.106846 0.001427 0.286772
-0.106082 0.001435 0.288285
-0.104408 0.001431 0.287333
-0.103127 0.001432 0.287446
-0.101953 0.001435 0.287866
-0.100541 0.001435 0.287611
-0.099263 0.001436 0.287737
-0.097789 0.001435 0.287292
-0.096642 0.001438 0.287806
-0.095058 0.001435 0.287016
-0.095421 0.001462 0.292162
-0.095066 0.001478 0.295227
-0.093748 0.001479 0.295348
-0.092015 0.001474 0.294146
-0.090714 0.001476 0.294311
-0.089365 0.001477 0.294325
-0.087798 0.001474 0.293612
-0.086168 0.001471 0.292663
-0.084746 0.001470 0.292405
-0.083077 0.001466 0.291274
-0.081809 0.001468 0.291543
-0.080447 0.001469 0.291479
-0.078860 0.001465 0.290586
-0.077370 0.001463 0.290034
-0.076026 0.001464 0.290019
-0.074359 0.001459 0.288755
-0.073069 0.001461 0.288943
-0.071786 0.001463 0.289168
-0.070000 0.001454 0.287340
-0.068361 0.001449 0.286065
-0.067059 0.001451 0.286182
-0.065850 0.001454 0.286715
-0.064579 0.001457 0.287004
-0.060363 0.001455 0.286066
-0.059080 0.001457 0.286334
-0.057759 0.001459 0.286438
-0.057203 0.001480 0.290432
-0.056012 0.001485 0.291328
-0.054511 0.001483 0.290628
-0.053020 0.001480 0.289954
-0.051376 0.001473 0.288396
-0.049969 0.001473 0.288124
-0.048628 0.001474 0.288243
-0.047155 0.001472 0.287578
-0.045679 0.001469 0.286855
-0.043934 0.001457 0.284362
-0.041977 0.001437 0.280309
-0.040726 0.001440 0.280864
-0.039353 0.001440 0.280605
-0.037126 0.001407 0.274026
-0.035954 0.001413 0.275059
-0.035495 0.001448 0.281842
-0.034369 0.001458 0.283661
-0.030397 0.001344 0.261193
-0.028885 0.001332 0.258857
-0.027533 0.001327 0.257815
-0.026254 0.001326 0.257408
-0.025099 0.001331 0.258251
-0.023861 0.001331 0.258292
-0.022616 0.001332 0.258270
-0.021415 0.001335 0.258795
-0.020212 0.001338 0.259363
-0.019084 0.001348 0.261059
-0.017991 0.001361 0.263507
-0.017250 0.001405 0.271915
-0.013401 0.001416 0.273933
-0.012000 0.001408 0.272271
-0.010658 0.001405 0.271696
-0.009284 0.001397 0.270082
-0.007952 0.001393 0.269349
-0.006627 0.001390 0.268636
-0.005297 0.001384 0.267390
-0.004002 0.001385 0.267677
-0.002706 0.001388 0.268135
-0.001405 0.001390 0.268582
-0.000101 0.001413 0.273008
0.001227 0.001413 0.273005
0.006231 0.001347 0.260189
0.007462 0.001341 0.259003
0.008714 0.001339 0.258788
0.009998 0.001343 0.259477
0.011234 0.001340 0.258890
0.012498 0.001340 0.259034
0.013786 0.001343 0.259582
0.015061 0.001344 0.259834
0.016361 0.001347 0.260458
0.017651 0.001349 0.260859
0.018935 0.001350 0.261112
0.020253 0.001353 0.261798
0.021534 0.001353 0.261958
0.023782 0.001411 0.273214
0.025093 0.001410 0.273097
0.025367 0.001354 0.262282
0.026155 0.001329 0.257560
0.027534 0.001335 0.258841
0.028830 0.001337 0.259266
0.029985 0.001332 0.258454
0.031249 0.001333 0.258615
0.032651 0.001339 0.259866
0.034049 0.001344 0.261006
0.035400 0.001347 0.261727
0.036702 0.001348 0.262055
0.038132 0.001354 0.263252
0.039411 0.001354 0.263375
0.040532 0.001348 0.262470
0.041938 0.001353 0.263417
0.042960 0.001345 0.261978
0.046437 0.001412 0.275173
0.044365 0.001311 0.255673
0.045562 0.001310 0.255558
0.046847 0.001311 0.255936
0.047795 0.001303 0.254508
0.049161 0.001306 0.255324
0.050423 0.001307 0.255581
0.051805 0.001310 0.256427
0.053479 0.001321 0.258652
0.055081 0.001329 0.260438
0.056479 0.001333 0.261213
0.058236 0.001344 0.263581
0.060369 0.001363 0.267524
0.062279 0.001377 0.270341
0.063549 0.001376 0.270325
0.064720 0.001373 0.269907
0.066058 0.001374 0.270185
0.067257 0.001371 0.269903
0.068505 0.001370 0.269826
0.069751 0.001369 0.269751
0.070923 0.001366 0.269394
0.071902 0.001360 0.268336
0.072764 0.001352 0.266889
0.073709 0.001346 0.265792
0.074816 0.001342 0.265304
0.075527 0.001332 0.263455
0.076216 0.001322 0.261592
0.076976 0.001313 0.260029
0.078266 0.001314 0.260279
0.079487 0.001313 0.260294
0.080551 0.001310 0.259804
0.082438 0.001320 0.261941
0.083895 0.001323 0.262671
0.085213 0.001324 0.262952
0.086657 0.001326 0.263606
0.100478 0.001494 0.297197
0.101723 0.001491 0.296773
0.100622 0.001454 0.289607
0.102010 0.001454 0.289698
0.103447 0.001454 0.289922
0.104759 0.001453 0.289791
0.105783 0.001448 0.288873
0.107295 0.001449 0.289290
0.109400 0.001458 0.291273
0.110515 0.001454 0.290601
0.111718 0.001452 0.290168
0.113223 0.001453 0.290517
0.114308 0.001449 0.289785
0.116916 0.001464 0.292882
0.117942 0.001459 0.291983
0.118212 0.001444 0.289250
0.120566 0.001456 0.291615
0.121743 0.001453 0.291104
0.122804 0.001449 0.290322
0.124272 0.001449 0.290502
0.125518 0.001447 0.290157
0.126600 0.001443 0.289435
0.128155 0.001445 0.289790
0.129555 0.001445 0.289782
0.131212 0.001447 0.290334
0.132653 0.001447 0.290389
0.133921 0.001445 0.290060
0.135285 0.001445 0.289932
0.136779 0.001445 0.290069
0.138896 0.001453 0.291500
0.140227 0.001451 0.291257
0.142372 0.001459 0.292679
0.143769 0.001458 0.292535
0.144878 0.001455 0.291802
0.146390 0.001455 0.291872
0.147650 0.001453 0.291426
0.148959 0.001452 0.291071
0.150171 0.001450 0.290517
0.151314 0.001447 0.289826
-0.150808 0.002756 0.284451
-0.149707 0.002761 0.285100
-0.148280 0.002760 0.285120
-0.147116 0.002764 0.285635
-0.145856 0.002766 0.285957
-0.144433 0.002765 0.285949
-0.143188 0.002767 0.286283
-0.141654 0.002764 0.286026
-0.140635 0.002771 0.286802
-0.138805 0.002762 0.285911
-0.136855 0.002750 0.284741
-0.134856 0.002737 0.283432
-0.132750 0.002722 0.281860
-0.131683 0.002728 0.282473
-0.130488 0.002731 0.282811
-0.129167 0.002732 0.282872
-0.127265 0.002720 0.281640
-0.132879 0.002870 0.297181
-0.131705 0.002875 0.297703
-0.135732 0.002995 0.310113
-0.133733 0.002984 0.308864
-0.122160 0.002756 0.285227
-0.120472 0.002748 0.284397
-0.118953 0.002744 0.283944
-0.117953 0.002753 0.284728
-0.117236 0.002768 0.286216
-0.115669 0.002763 0.285632
-0.114389 0.002764 0.285748
-0.113451 0.002775 0.286725
-0.112206 0.002778 0.286937
-0.111160 0.002786 0.287663
-0.108525 0.002753 0.284242
-0.107442 0.002760 0.284848
-0.106275 0.002765 0.285241
-0.105055 0.002769 0.285498
-0.103925 0.002775 0.286007
-0.102587 0.002775 0.285944
-0.101516 0.002783 0.286634
-0.100350 0.002789 0.287069
-0.098588 0.002777 0.285783
-0.097836 0.002795 0.287433
-0.096762 0.002803 0.288168
-0.094941 0.002790 0.286664
-0.095377 0.002844 0.292032
-0.094710 0.002866 0.294127
-0.093359 0.002867 0.294128
-0.091750 0.002860 0.293303
-0.090817 0.002875 0.294650
-0.089129 0.002866 0.293553
-0.087949 0.002873 0.294120
-0.086353 0.002867 0.293297
-0.084664 0.002857 0.292127
-0.083090 0.002851 0.291326
-0.081314 0.002837 0.289784
-0.079553 0.002824 0.288243
-0.078096 0.002821 0.287777
-0.076592 0.002816 0.287121
-0.075403 0.002823 0.287649
-0.074161 0.002828 0.287992
-0.072715 0.002825 0.287548
-0.071660 0.002838 0.288664
-0.070402 0.002843 0.288998
-0.067481 0.002779 0.282388
-0.065944 0.002772 0.281431
-0.063719 0.002734 0.277444
-0.062397 0.002734 0.277309
-0.061026 0.002732 0.276958
-0.059774 0.002736 0.277145
-0.058492 0.002738 0.277207
-0.059076 0.002830 0.286324
-0.057180 0.002804 0.283573
-0.056737 0.002850 0.288074
-0.055334 0.002849 0.287813
-0.053610 0.002831 0.285834
-0.052251 0.002832 0.285758
-0.050798 0.002828 0.285158
-0.049340 0.002823 0.284508
-0.047936 0.002821 0.284152
-0.046505 0.002817 0.283618
-0.045275 0.002826 0.284325
-0.043971 0.002830 0.284610
-0.041832 0.002779 0.279346
-0.040622 0.002788 0.280158
-0.039262 0.002788 0.279961
-0.038251 0.002813 0.282338
-0.035993 0.002744 0.275362
-0.035448 0.002807 0.281475
-0.034341 0.002828 0.283445
-0.030326 0.002601 0.260591
-0.028982 0.002593 0.259735
-0.027573 0.002579 0.258199
-0.026391 0.002586 0.258759
-0.025123 0.002584 0.258504
-0.023909 0.002588 0.258822
-0.022676 0.002590 0.258962
-0.021468 0.002596 0.259438
-0.020245 0.002600 0.259792
-0.019124 0.002619 0.261609
-0.018010 0.002642 0.263797
-0.017249 0.002724 0.271905
-0.015939 0.002726 0.271985
-0.006626 0.002695 0.268626
-0.005182 0.002625 0.261606
-0.003922 0.002633 0.262305
-0.002652 0.002638 0.262791
-0.001375 0.002640 0.262973
-0.000098 0.002657 0.264687
0.001190 0.002658 0.264762
0.002598 0.002787 0.277628
0.003887 0.002744 0.273361
0.005250 0.002762 0.275103
0.006217 0.002606 0.259631
0.007450 0.002596 0.258592
0.008679 0.002587 0.257758
0.009974 0.002598 0.258857
0.011216 0.002594 0.258490
0.012473 0.002594 0.258509
0.013776 0.002603 0.259397
0.015045 0.002604 0.259573
0.016299 0.002603 0.259477
0.017621 0.002611 0.260408
0.018913 0.002615 0.260824
0.020232 0.002622 0.261538
0.021577 0.002631 0.262484
0.023797 0.002739 0.273395
0.025109 0.002737 0.273278
0.026418 0.002735 0.273155
0.026744 0.002637 0.263376
0.028157 0.002649 0.264703
0.029194 0.002627 0.262546
0.030410 0.002622 0.262119
0.031927 0.002642 0.264230
0.033172 0.002639 0.264016
0.034553 0.002646 0.264874
0.036079 0.002664 0.266750
0.037472 0.002671 0.267557
0.038905 0.002680 0.268595
0.040049 0.002670 0.267641
0.041541 0.002682 0.269011
0.042746 0.002676 0.268498
0.043808 0.002661 0.267156
0.044860 0.002647 0.265834
0.044673 0.002563 0.257457
0.045538 0.002541 0.255432
0.046866 0.002546 0.256043
0.048015 0.002541 0.255686
0.049262 0.002542 0.255856
0.050436 0.002539 0.255651
0.051827 0.002546 0.256542
0.053822 0.002582 0.260317
0.055443 0.002599 0.262156
0.057047 0.002615 0.263845
0.058708 0.002632 0.265725
0.060476 0.002653 0.268004
0.062177 0.002671 0.269902
0.063463 0.002670 0.269967
0.064687 0.002667 0.269772
0.066055 0.002669 0.270179
0.067312 0.002667 0.270129
0.068561 0.002665 0.270053
0.069753 0.002661 0.269759
0.070777 0.002651 0.268844
0.071524 0.002630 0.266931
0.072424 0.002616 0.265644
0.073434 0.002607 0.264804
0.074701 0.002606 0.264901
0.075736 0.002598 0.264190
0.076796 0.002591 0.263587
0.077926 0.002586 0.263241
0.079233 0.002588 0.263498
0.080452 0.002586 0.263458
0.081986 0.002594 0.264435
0.083573 0.002604 0.265552
0.084934 0.002607 0.265929
0.086092 0.002603 0.265669
0.087755 0.002614 0.266949
0.097187 0.002853 0.291496
0.098411 0.002848 0.291085
0.100526 0.002869 0.293283
0.100866 0.002838 0.290312
0.102733 0.002852 0.291754
0.103853 0.002844 0.291060
0.104946 0.002835 0.290310
0.106568 0.002841 0.291020
0.107909 0.002840 0.290948
0.109379 0.002842 0.291219
0.110816 0.002842 0.291394
0.112190 0.002842 0.291396
0.113489 0.002839 0.291200
0.114749 0.002835 0.290906
0.116326 0.002840 0.291406
0.117913 0.002844 0.291913
0.119079 0.002838 0.291375
0.120341 0.002835 0.291071
0.121762 0.002835 0.291150
0.122977 0.002831 0.290732
0.124145 0.002826 0.290206
0.125538 0.002825 0.290203
0.126771 0.002822 0.289828
0.128047 0.002819 0.289547
0.129584 0.002822 0.289847
0.131241 0.002827 0.290398
0.132442 0.002823 0.289927
0.134221 0.002831 0.290710
0.135554 0.002829 0.290508
0.136257 0.002814 0.288962
0.138730 0.002836 0.291152
0.139718 0.002828 0.290200
0.142065 0.002846 0.292048
0.143108 0.002839 0.291189
0.144826 0.002845 0.291696
0.145846 0.002837 0.290785
0.146941 0.002830 0.290026
0.148853 0.002840 0.290863
0.149836 0.002831 0.289867
0.151079 0.002828 0.289374
-0.135726 0.004142 0.288178
-0.134591 0.004149 0.288710
-0.133150 0.004147 0.288580
-0.131970 0.004153 0.289011
-0.129954 0.004132 0.287589
-0.133587 0.004293 0.298765
-0.132407 0.004301 0.299290
-0.133254 0.004375 0.304451
-0.133726 0.004439 0.308849
-0.123305 0.004138 0.287902
-0.121971 0.004139 0.287936
-0.120969 0.004151 0.288759
-0.119542 0.004149 0.288565
-0.118467 0.004160 0.289223
-0.115354 0.004098 0.284856
-0.113835 0.004092 0.284365
-0.112487 0.004091 0.284290
-0.111319 0.004098 0.284670
-0.110105 0.004103 0.284936
-0.108872 0.004107 0.285153
-0.107673 0.004113 0.285464
-0.105974 0.004100 0.284437
-0.104523 0.004096 0.284055
-0.102208 0.004057 0.281284
-0.100800 0.004054 0.280967
-0.099550 0.004057 0.281085
-0.098267 0.004059 0.281114
-0.097010 0.004063 0.281215
-0.095612 0.004060 0.280902
-0.094232 0.004058 0.280636
-0.093266 0.004074 0.281612
-0.095346 0.004225 0.291941
-0.093627 0.004210 0.290768
-0.093077 0.004248 0.293243
-0.091850 0.004256 0.293630
-0.089451 0.004208 0.290222
-0.088588 0.004233 0.291776
-0.087039 0.004225 0.291085
-0.085796 0.004232 0.291412
-0.084666 0.004245 0.292142
-0.083273 0.004245 0.291975
-0.082198 0.004261 0.292941
-0.080796 0.004261 0.292756
-0.079077 0.004243 0.291399
-0.077083 0.004210 0.288970
-0.075594 0.004204 0.288385
-0.072044 0.004081 0.279780
-0.073088 0.004218 0.289028
-0.071756 0.004221 0.289059
-0.070424 0.004224 0.289097
-0.067497 0.004129 0.282465
-0.066096 0.004126 0.282087
-0.064836 0.004132 0.282314
-0.062791 0.004087 0.279070
-0.061488 0.004089 0.279060
-0.060329 0.004101 0.279728
-0.060260 0.004189 0.285595
-0.058268 0.004244 0.288979
-0.056965 0.004250 0.289239
-0.054831 0.004193 0.285206
-0.053249 0.004176 0.283918
-0.051886 0.004176 0.283768
-0.050553 0.004179 0.283795
-0.049200 0.004180 0.283709
-0.047777 0.004175 0.283216
-0.046249 0.004160 0.282068
-0.045021 0.004172 0.282745
-0.043914 0.004196 0.284255
-0.042503 0.004192 0.283840
-0.040461 0.004123 0.279055
-0.038894 0.004100 0.277350
-0.037687 0.004114 0.278190
-0.036213 0.004100 0.277059
-0.035702 0.004197 0.283501
-0.034280 0.004190 0.282954
-0.030254 0.003852 0.259989
-0.028924 0.003842 0.259221
-0.027587 0.003830 0.258339
-0.026354 0.003833 0.258406
-0.025151 0.003840 0.258803
-0.023916 0.003843 0.258899
-0.022667 0.003844 0.258873
-0.021404 0.003842 0.258683
-0.020222 0.003856 0.259512
-0.019044 0.003872 0.260527
-0.017942 0.003907 0.262811
-0.017365 0.004071 0.273745
-0.015867 0.004028 0.270773
0.001248 0.004137 0.277621
0.002598 0.004137 0.277612
0.003883 0.004069 0.273082
0.005249 0.004099 0.275086
0.006285 0.003911 0.262471
0.007432 0.003844 0.257974
0.008688 0.003845 0.258048
0.009997 0.003866 0.259471
0.011220 0.003852 0.258597
0.012502 0.003860 0.259120
0.013800 0.003870 0.259874
0.015094 0.003878 0.260429
0.016397 0.003887 0.261048
0.017722 0.003899 0.261919
0.018980 0.003896 0.261753
0.020314 0.003907 0.262598
0.021596 0.003908 0.262722
0.023794 0.004066 0.273374
0.025106 0.004063 0.273257
0.034013 0.004017 0.270725
0.035293 0.004013 0.270562
0.036639 0.004017 0.270900
0.038013 0.004023 0.271428
0.039165 0.004006 0.270399
0.040068 0.003966 0.267776
0.040992 0.003930 0.265463
0.042639 0.003963 0.267835
0.043616 0.003935 0.265992
0.044856 0.003930 0.265818
0.044097 0.003756 0.254141
0.045280 0.003752 0.253991
0.046630 0.003762 0.254767
0.047665 0.003746 0.253827
0.048910 0.003748 0.254033
0.050090 0.003744 0.253907
0.051359 0.003747 0.254230
0.052735 0.003757 0.255064
0.053952 0.003756 0.255115
0.055377 0.003770 0.256130
0.057128 0.003804 0.258580
0.060132 0.003918 0.266484
0.061959 0.003953 0.268962
0.063294 0.003955 0.269252
0.064601 0.003956 0.269420
0.066012 0.003962 0.270009
0.067326 0.003963 0.270192
0.068560 0.003959 0.270055
0.069712 0.003951 0.269610
0.070863 0.003942 0.269178
0.071899 0.003928 0.268336
0.072728 0.003903 0.266766
0.073781 0.003891 0.266061
0.074929 0.003884 0.265716
0.076260 0.003887 0.266023
0.077396 0.003880 0.265650
0.078293 0.003861 0.264488
0.079619 0.003864 0.264785
0.080932 0.003866 0.265034
0.081962 0.003854 0.264361
0.083727 0.003877 0.266045
0.085330 0.003892 0.267172
0.086706 0.003896 0.267565
0.088148 0.003903 0.268148
0.097351 0.004248 0.291991
0.098577 0.004241 0.291580
0.099536 0.004222 0.290399
0.100990 0.004225 0.290673
0.102250 0.004219 0.290384
0.103635 0.004219 0.290454
0.104938 0.004215 0.290292
0.106267 0.004212 0.290200
0.108010 0.004226 0.291224
0.109654 0.004236 0.291956
0.110871 0.004229 0.291540
0.112081 0.004221 0.291115
0.113499 0.004222 0.291228
0.114702 0.004215 0.290788
0.115992 0.004211 0.290571
0.117284 0.004207 0.290358
0.118514 0.004202 0.289993
0.119745 0.004196 0.289630
0.121150 0.004196 0.289687
0.122582 0.004198 0.289799
0.124147 0.004203 0.290210
0.125353 0.004197 0.289775
0.126519 0.004190 0.289252
0.128289 0.004202 0.290094
0.129676 0.004202 0.290053
0.131267 0.004208 0.290454
0.132694 0.004209 0.290478
0.134937 0.004235 0.292258
0.136199 0.004230 0.291889
0.137115 0.004215 0.290781
0.138919 0.004227 0.291546
0.140433 0.004230 0.291683
0.142169 0.004240 0.292259
0.143599 0.004241 0.292188
0.144885 0.004237 0.291811
0.146340 0.004238 0.291767
0.147435 0.004229 0.290998
0.149132 0.004237 0.291404
0.150449 0.004234 0.291049
0.151559 0.004225 0.290289
-0.128701 0.006215 0.325271
-0.093940 0.005446 0.283653
-0.092763 0.005456 0.284040
-0.091892 0.005484 0.285386
-0.093068 0.005637 0.293223
-0.085572 0.005343 0.277645
-0.088579 0.005617 0.291755
-0.077075 0.005586 0.288949
-0.073306 0.005409 0.279663
-0.072082 0.005418 0.279937
-0.070791 0.005421 0.279957
-0.069803 0.005448 0.281204
-0.067558 0.005376 0.277341
-0.066454 0.005394 0.278112
-0.065069 0.005389 0.277717
-0.065494 0.005538 0.285191
-0.064230 0.005546 0.285478
-0.062987 0.005557 0.285879
-0.061713 0.005565 0.286157
-0.060253 0.005557 0.285573
-0.058972 0.005565 0.285841
-0.057014 0.005509 0.282770
-0.055418 0.005485 0.281398
-0.053929 0.005471 0.280524
-0.052741 0.005487 0.281223
-0.051453 0.005494 0.281413
-0.050270 0.005512 0.282219
-0.049171 0.005541 0.283559
-0.047722 0.005531 0.282907
-0.045797 0.005464 0.279323
-0.044561 0.005477 0.279869
-0.042925 0.005441 0.277868
-0.041424 0.005420 0.276647
-0.042096 0.005691 0.290346
-0.040714 0.005693 0.290342
-0.038635 0.005595 0.285204
-0.035924 0.005394 0.274866
-0.035392 0.005518 0.281059
-0.034130 0.005534 0.281729
-0.030121 0.005087 0.258856
-0.028857 0.005084 0.258641
-0.027612 0.005085 0.258591
-0.026375 0.005088 0.258630
-0.025145 0.005092 0.258760
-0.023918 0.005098 0.258948
-0.022639 0.005092 0.258567
-0.021424 0.005101 0.258935
-0.020241 0.005119 0.259776
-0.019181 0.005173 0.262422
-0.017981 0.005194 0.263403
-0.017212 0.005352 0.271349
-0.015572 0.005243 0.265756
-0.014744 0.005412 0.274273
-0.013419 0.005414 0.274341
-0.012092 0.005417 0.274402
0.001199 0.005271 0.266739
0.002496 0.005271 0.266730
0.003929 0.005460 0.276286
0.005249 0.005436 0.275045
0.006585 0.005435 0.275017
0.007450 0.005110 0.258615
0.008691 0.005101 0.258135
0.010015 0.005136 0.259937
0.011234 0.005115 0.258931
0.012509 0.005122 0.259269
0.013802 0.005134 0.259914
0.015095 0.005143 0.260447
0.016374 0.005148 0.260692
0.017663 0.005154 0.261060
0.018980 0.005167 0.261766
0.020390 0.005202 0.263597
0.021715 0.005213 0.264187
0.022984 0.005209 0.264080
0.035289 0.005322 0.270540
0.037313 0.005426 0.275897
0.038612 0.005420 0.275719
0.039907 0.005415 0.275534
0.040275 0.005288 0.269176
0.041238 0.005244 0.267069
0.042651 0.005259 0.267924
0.043406 0.005194 0.264728
0.044080 0.005123 0.261234
0.043991 0.004971 0.253546
0.045132 0.004961 0.253174
0.046470 0.004973 0.253899
0.047571 0.004960 0.253339
0.048808 0.004961 0.253515
0.050059 0.004964 0.253760
0.051260 0.004961 0.253751
0.052595 0.004972 0.254397
0.053850 0.004974 0.254641
0.055182 0.004983 0.255236
0.056939 0.005030 0.257735
0.059999 0.005187 0.265906
0.062275 0.005271 0.270343
0.063541 0.005268 0.270315
0.064809 0.005265 0.270295
0.066198 0.005272 0.270777
0.067510 0.005272 0.270938
0.068852 0.005275 0.271213
0.070017 0.005265 0.270798
0.071197 0.005256 0.270454
0.072360 0.005246 0.270064
0.073797 0.005256 0.270697
0.075150 0.005259 0.271003
0.076263 0.005246 0.270452
0.077402 0.005235 0.270014
0.078534 0.005224 0.269564
0.079503 0.005203 0.268581
0.080675 0.005195 0.268302
0.082291 0.005216 0.269492
0.083275 0.005197 0.268603
0.084772 0.005210 0.269372
0.086323 0.005225 0.270287
0.087688 0.005229 0.270601
0.091373 0.005369 0.277965
0.092543 0.005360 0.277578
0.097819 0.005585 0.289343
0.099662 0.005611 0.290771
0.100782 0.005596 0.290078
0.103627 0.005599 0.290434
0.105088 0.005603 0.290709
0.106578 0.005608 0.291052
0.108472 0.005634 0.292473
0.109637 0.005622 0.291912
0.110849 0.005612 0.291485
0.112193 0.005610 0.291407
0.113480 0.005604 0.291181
0.114722 0.005597 0.290840
0.116004 0.005591 0.290603
0.117377 0.005590 0.290590
0.118582 0.005582 0.290160
0.119854 0.005576 0.289894
0.121453 0.005586 0.290412
0.122853 0.005586 0.290440
0.124122 0.005580 0.290151
0.125416 0.005576 0.289921
0.126645 0.005569 0.289538
0.128136 0.005573 0.289746
0.129717 0.005581 0.290144
0.131047 0.005578 0.289966
0.132300 0.005572 0.289614
0.134115 0.005590 0.290477
0.135982 0.005609 0.291422
0.137731 0.005623 0.292083
0.139110 0.005622 0.291945
0.140329 0.005615 0.291462
0.142114 0.005630 0.292141
0.143443 0.005626 0.291866
0.144835 0.005626 0.291707
0.146130 0.005621 0.291343
0.147510 0.005620 0.291140
0.148682 0.005611 0.290520
0.150160 0.005614 0.290485
0.151963 0.005628 0.291057
-0.129989 0.007733 0.324726
-0.128688 0.007747 0.325243
-0.127383 0.007761 0.325757
-0.073295 0.006741 0.279637
-0.071759 0.006722 0.278696
-0.070781 0.006755 0.279930
-0.069793 0.006789 0.281177
-0.068069 0.006751 0.279452
-0.067401 0.006818 0.282086
-0.066343 0.006848 0.283168
-0.065484 0.006900 0.285163
-0.062787 0.006757 0.279080
-0.060621 0.006665 0.275154
-0.059139 0.006647 0.274236
-0.058021 0.006669 0.275012
-0.056837 0.006685 0.275507
-0.055586 0.006693 0.275702
-0.054400 0.006710 0.276244
-0.053281 0.006736 0.277173
-0.052203 0.006768 0.278370
-0.050874 0.006769 0.278264
-0.049912 0.006820 0.280226
-0.048917 0.006870 0.282110
-0.046553 0.006724 0.275996
-0.045367 0.006745 0.276724
-0.044132 0.006760 0.277193
-0.042680 0.006741 0.276296
-0.042710 0.006963 0.285253
-0.041469 0.006986 0.286043
-0.039580 0.006897 0.282274
-0.038029 0.006862 0.280748
-0.035968 0.006730 0.275218
-0.035555 0.006908 0.282378
-0.034283 0.006927 0.283017
-0.030094 0.006333 0.258646
-0.028885 0.006342 0.258912
-0.027618 0.006338 0.258672
-0.026360 0.006336 0.258503
-0.025152 0.006347 0.258849
-0.023901 0.006348 0.258782
-0.022687 0.006359 0.259142
-0.021439 0.006361 0.259140
-0.020194 0.006364 0.259200
-0.019054 0.006403 0.260704
-0.017922 0.006450 0.262558
-0.017209 0.006667 0.271320
-0.013276 0.006675 0.271454
-0.011469 0.006402 0.260285
-0.010065 0.006313 0.256655
-0.008858 0.006342 0.257765
-0.007579 0.006319 0.256806
-0.006330 0.006317 0.256699
-0.005102 0.006340 0.257601
-0.003857 0.006353 0.258078
-0.002609 0.006366 0.258605
-0.001351 0.006363 0.258457
-0.000096 0.006456 0.262200
0.001194 0.006539 0.265575
0.002461 0.006476 0.263026
0.003928 0.006802 0.276257
0.005260 0.006787 0.275632
0.006599 0.006786 0.275603
0.007444 0.006362 0.258416
0.008721 0.006377 0.259034
0.010044 0.006418 0.260715
0.011256 0.006386 0.259446
0.012524 0.006389 0.259596
0.013826 0.006408 0.260383
0.015145 0.006430 0.261326
0.016396 0.006422 0.261052
0.017715 0.006441 0.261840
0.018995 0.006443 0.261992
0.020329 0.006462 0.262825
0.021509 0.006433 0.261690
0.022670 0.006402 0.260484
0.034154 0.006419 0.261855
0.035426 0.006419 0.261962
0.036850 0.006446 0.263152
0.037915 0.006411 0.261796
0.039248 0.006421 0.262326
0.041039 0.006504 0.265798
0.042675 0.006557 0.268088
0.043627 0.006506 0.266089
0.044392 0.006430 0.263098
0.044183 0.006221 0.254666
0.045394 0.006218 0.254652
0.046558 0.006209 0.254394
0.047757 0.006205 0.254341
0.049033 0.006211 0.254693
0.050188 0.006202 0.254425
0.051442 0.006205 0.254666
0.052722 0.006211 0.255026
0.054131 0.006231 0.255983
0.055899 0.006291 0.258564
0.057939 0.006378 0.262270
0.060247 0.006491 0.267017
0.062152 0.006556 0.269825
0.063434 0.006554 0.269871
0.064729 0.006554 0.269973
0.066143 0.006565 0.270565
0.067491 0.006569 0.270874
0.068650 0.006555 0.270430
0.069916 0.006552 0.270414
0.070941 0.006527 0.269492
0.071846 0.006491 0.268157
0.072893 0.006470 0.267387
0.074159 0.006468 0.267441
0.075169 0.006445 0.266584
0.076283 0.006431 0.266118
0.077625 0.006436 0.266452
0.078961 0.006441 0.266759
0.080301 0.006446 0.267069
0.081915 0.006472 0.268266
0.083121 0.006466 0.268114
0.084834 0.006498 0.269577
0.086393 0.006518 0.270514
0.088065 0.006546 0.271772
0.093510 0.006850 0.284474
0.094708 0.006838 0.284078
0.099165 0.007058 0.293332
0.099757 0.007001 0.291054
0.100956 0.006988 0.290586
0.102295 0.006984 0.290523
0.104722 0.006960 0.289701
0.106043 0.006956 0.289596
0.107660 0.006971 0.290289
0.109762 0.007016 0.292248
0.110981 0.007005 0.291838
0.112120 0.006989 0.291222
0.113494 0.006988 0.291221
0.114687 0.006976 0.290753
0.115920 0.006966 0.290394
0.117154 0.006957 0.290038
0.118628 0.006962 0.290273
0.119750 0.006946 0.289646
0.121208 0.006950 0.289827
0.122846 0.006964 0.290423
0.124154 0.006960 0.290227
0.125334 0.006948 0.289731
0.126704 0.006947 0.289673
0.127911 0.006937 0.289238
0.129912 0.006970 0.290578
0.131165 0.006962 0.290226
0.132431 0.006956 0.289899
0.134095 0.006970 0.290431
0.135856 0.006989 0.291149
0.136263 0.006938 0.288968
0.138983 0.007005 0.291673
0.140597 0.007015 0.292016
0.142533 0.007042 0.292999
0.143694 0.007029 0.292371
0.144954 0.007022 0.291942
0.146755 0.007041 0.292585
0.147397 0.007004 0.290912
0.149776 0.007050 0.292650
0.150838 0.007033 0.291789
0.152483 0.007044 0.292046
-0.124296 0.008460 0.296705
-0.123115 0.008475 0.297196
-0.123341 0.008588 0.301131
-0.123104 0.008671 0.304002
-0.122827 0.008754 0.306837
-0.122233 0.008815 0.308934
-0.122038 0.008907 0.312095
-0.121683 0.008990 0.314911
-0.120414 0.009006 0.315398
-0.118639 0.008984 0.314554
-0.117664 0.009023 0.315831
-0.116082 0.009016 0.315488
-0.115059 0.009053 0.316671
-0.114480 0.009126 0.319120
-0.113350 0.009157 0.320075
-0.114165 0.009347 0.326615
-0.112824 0.009364 0.327080
-0.112318 0.009451 0.330010
-0.110956 0.009468 0.330470
-0.075674 0.008989 0.310694
-0.074361 0.009009 0.311234
-0.072612 0.008977 0.309944
-0.063595 0.008025 0.276956
-0.062091 0.008002 0.276003
-0.060430 0.007957 0.274304
-0.059183 0.007966 0.274461
-0.057826 0.007960 0.274108
-0.056534 0.007963 0.274058
-0.055204 0.007960 0.273828
-0.053948 0.007968 0.273969
-0.052668 0.007973 0.274001
-0.051417 0.007983 0.274197
-0.050134 0.007989 0.274241
-0.048889 0.008000 0.274503
-0.047648 0.008013 0.274813
-0.046378 0.008022 0.274980
-0.045106 0.008031 0.275153
-0.043864 0.008046 0.275535
-0.043774 0.008280 0.283403
-0.042472 0.008292 0.283690
-0.040706 0.008212 0.280808
-0.039231 0.008186 0.279811
-0.037894 0.008189 0.279776
-0.035803 0.008023 0.273983
-0.035376 0.008231 0.280975
-0.034310 0.008301 0.283259
-0.030030 0.007567 0.258118
-0.028828 0.007579 0.258425
-0.027554 0.007572 0.258089
-0.026307 0.007573 0.258005
-0.025095 0.007584 0.258292
-0.023828 0.007578 0.258019
-0.022605 0.007587 0.258227
-0.021373 0.007593 0.258366
-0.020122 0.007594 0.258301
-0.019012 0.007650 0.260156
-0.017857 0.007696 0.261633
-0.013272 0.007990 0.271393
-0.011402 0.007621 0.258802
-0.010094 0.007582 0.257424
-0.008880 0.007613 0.258436
-0.007610 0.007598 0.257886
-0.006376 0.007620 0.258600
-0.005136 0.007644 0.259392
-0.003891 0.007674 0.260370
-0.002640 0.007715 0.261750
-0.001365 0.007700 0.261201
-0.000096 0.007764 0.263361
0.001194 0.007828 0.265540
0.002436 0.007674 0.260311
0.003928 0.008143 0.276220
0.005265 0.008135 0.275933
0.006606 0.008134 0.275904
0.007468 0.007643 0.259265
0.008651 0.007575 0.256962
0.009977 0.007634 0.258983
0.011206 0.007613 0.258299
0.012427 0.007592 0.257616
0.013739 0.007625 0.258768
0.015082 0.007668 0.260256
0.016393 0.007689 0.261031
0.017684 0.007699 0.261396
0.019203 0.007800 0.264869
0.020939 0.007971 0.270732
0.022221 0.007959 0.270382
0.023544 0.007962 0.270545
0.034939 0.007863 0.267889
0.036137 0.007841 0.267237
0.037333 0.007821 0.266624
0.038668 0.007829 0.267016
0.040229 0.007882 0.268904
0.040907 0.007763 0.264956
0.042209 0.007767 0.265184
0.043565 0.007779 0.265727
0.043565 0.007556 0.258212
0.043808 0.007387 0.252517
0.045165 0.007409 0.253384
0.046537 0.007432 0.254297
0.047723 0.007426 0.254178
0.048979 0.007430 0.254429
0.050243 0.007435 0.254722
0.051443 0.007431 0.254685
0.052749 0.007441 0.255167
0.054173 0.007468 0.256194
0.055598 0.007494 0.257187
0.057359 0.007562 0.259659
0.059569 0.007686 0.264029
0.061902 0.007820 0.268754
0.063337 0.007837 0.269474
0.064744 0.007850 0.270051
0.066124 0.007860 0.270500
0.067451 0.007863 0.270727
0.068808 0.007869 0.271064
0.070054 0.007863 0.270961
0.071174 0.007842 0.270390
0.072187 0.007811 0.269442
0.073143 0.007775 0.268318
0.074295 0.007761 0.267940
0.075453 0.007748 0.267602
0.076709 0.007745 0.267617
0.078087 0.007754 0.268050
0.079180 0.007735 0.267508
0.080543 0.007743 0.267883
0.082152 0.007774 0.269052
0.083283 0.007759 0.268646
0.084806 0.007781 0.269495
0.086662 0.007832 0.271365
0.088621 0.007890 0.273495
0.098878 0.008551 0.296594
0.100124 0.008536 0.296176
0.099269 0.008345 0.289638
0.100834 0.008360 0.290240
0.104760 0.008340 0.289813
0.106160 0.008341 0.289922
0.107521 0.008339 0.289918
0.109252 0.008366 0.290896
0.109900 0.008310 0.288999
0.111123 0.008298 0.288635
0.113035 0.008337 0.290044
0.114414 0.008336 0.290065
0.115735 0.008331 0.289934
0.117171 0.008335 0.290084
0.118593 0.008337 0.290190
0.119754 0.008321 0.289655
0.121099 0.008319 0.289567
0.122538 0.008322 0.289695
0.124095 0.008334 0.290088
0.125457 0.008332 0.290016
0.126634 0.008318 0.289511
0.128501 0.008349 0.290569
0.129864 0.008347 0.290470
0.131134 0.008339 0.290154
0.132665 0.008348 0.290408
0.134139 0.008353 0.290522
0.135978 0.008380 0.291406
0.137538 0.008390 0.291666
0.138766 0.008380 0.291215
0.140258 0.008385 0.291306
0.142036 0.008407 0.291970
0.143015 0.008382 0.290983
0.144551 0.008390 0.291123
0.146086 0.008398 0.291244
0.147163 0.008379 0.290440
0.148515 0.008376 0.290176
0.150494 0.008408 0.291114
0.152533 0.008443 0.292131
-0.122405 0.009708 0.292192
-0.122337 0.009813 0.295322
-0.122348 0.009926 0.298708
-0.122239 0.010033 0.301871
-0.121574 0.010096 0.303711
-0.120870 0.010157 0.305492
-0.119837 0.010192 0.306470
-0.119176 0.010259 0.308429
-0.118312 0.010311 0.309900
-0.117134 0.010336 0.310569
-0.116007 0.010366 0.311390
-0.115009 0.010408 0.312578
-0.113764 0.010430 0.313116
-0.112699 0.010468 0.314164
-0.111675 0.010511 0.315352
-0.111544 0.010641 0.319127
-0.111068 0.010740 0.322000
-0.109733 0.010759 0.322428
-0.109396 0.010877 0.325835
-0.077017 0.010453 0.310318
-0.075659 0.010470 0.310651
-0.074345 0.010494 0.311191
-0.072597 0.010456 0.309901
-0.071187 0.010466 0.310038
-0.069813 0.010482 0.310350
-0.065268 0.010234 0.302699
-0.063914 0.010249 0.302988
-0.062376 0.010235 0.302403
-0.060695 0.010196 0.301091
-0.058827 0.010123 0.298774
-0.057475 0.010137 0.299037
-0.046644 0.009675 0.284558
-0.045330 0.009687 0.284770
-0.043025 0.009481 0.278580
-0.041591 0.009460 0.277834
-0.040207 0.009449 0.277392
-0.039149 0.009516 0.279253
-0.038031 0.009574 0.280820
-0.036715 0.009584 0.280995
-0.035381 0.009590 0.281045
-0.034236 0.009649 0.282678
-0.029947 0.008791 0.257433
-0.028752 0.008806 0.257774
-0.027498 0.008803 0.257598
-0.026226 0.008795 0.257246
-0.025040 0.008815 0.257749
-0.023737 0.008794 0.257059
-0.022509 0.008800 0.257157
-0.021334 0.008829 0.257924
-0.020089 0.008831 0.257904
-0.018993 0.008903 0.259937
-0.017793 0.008933 0.260733
-0.013179 0.009243 0.269520
-0.011332 0.008823 0.257231
-0.010036 0.008782 0.255992
-0.008814 0.008802 0.256538
-0.007583 0.008819 0.256992
-0.006352 0.008844 0.257673
-0.005114 0.008868 0.258338
-0.003871 0.008895 0.259116
-0.002621 0.008924 0.259922
-0.001358 0.008927 0.260008
-0.000095 0.008977 0.261436
0.001183 0.009035 0.263126
0.002480 0.009098 0.264961
0.009520 0.009710 0.282802
0.010892 0.009707 0.282753
0.012285 0.009721 0.283185
0.013758 0.009790 0.285220
0.015133 0.009783 0.285038
0.016521 0.009784 0.285108
0.018055 0.009865 0.287513
0.019287 0.009781 0.285117
0.020662 0.009776 0.285021
0.020949 0.009289 0.270877
0.022422 0.009355 0.272842
0.023732 0.009349 0.272731
0.035613 0.009337 0.273079
0.036901 0.009328 0.272908
0.038009 0.009275 0.271473
0.038946 0.009186 0.268954
0.040005 0.009130 0.267422
0.041138 0.009094 0.266476
0.042472 0.009104 0.266855
0.043480 0.009045 0.265231
0.043959 0.008882 0.260567
0.044370 0.008715 0.255780
0.045485 0.008692 0.255202
0.046584 0.008667 0.254574
0.047809 0.008666 0.254652
0.048945 0.008650 0.254275
0.050084 0.008634 0.253932
0.051321 0.008636 0.254098
0.052577 0.008641 0.254354
0.053665 0.008619 0.253810
0.054863 0.008614 0.253805
0.057878 0.008890 0.262026
0.059743 0.008980 0.264813
0.062109 0.009141 0.269668
0.063462 0.009148 0.270019
0.064690 0.009138 0.269843
0.066214 0.009169 0.270887
0.067564 0.009176 0.271196
0.068722 0.009156 0.270739
0.070029 0.009157 0.270879
0.071099 0.009127 0.270120
0.072029 0.009081 0.268864
0.073440 0.009095 0.269419
0.074615 0.009081 0.269107
0.075727 0.009060 0.268587
0.076966 0.009054 0.268526
0.078448 0.009076 0.269299
0.079758 0.009078 0.269474
0.080910 0.009062 0.269116
0.082518 0.009097 0.270261
0.083886 0.009105 0.270600
0.085369 0.009125 0.271294
0.086874 0.009147 0.272039
