ply
format ascii 1.0
element vertex 1681
property float x
property float y
property float z
end_header
-0.022048 -0.096168 0.274578
-0.020570 -0.095339 0.272187
-0.019460 -0.096221 0.274677
-0.018109 -0.095954 0.273891
-0.016668 -0.095134 0.271523
-0.015527 -0.096032 0.274063
-0.014204 -0.095859 0.273548
-0.012776 -0.094882 0.270737
-0.011410 -0.094188 0.268736
-0.010048 -0.093368 0.266376
-0.008735 -0.092826 0.264811
-0.007445 -0.092390 0.263551
-0.006188 -0.092285 0.263234
-0.004953 -0.092525 0.263904
-0.003699 -0.092441 0.263648
-0.002456 -0.092711 0.264405
-0.001201 -0.092638 0.264185
0.000051 -0.092820 0.264691
0.001306 -0.092802 0.264632
0.002553 -0.092491 0.263736
0.003831 -0.093140 0.265577
0.005070 -0.092772 0.264519
0.006362 -0.093308 0.266041
0.007690 -0.094117 0.268342
0.008930 -0.093769 0.267346
0.010247 -0.094217 0.268621
0.011667 -0.095402 0.271995
0.012933 -0.095222 0.271481
0.014138 -0.094665 0.269891
0.015498 -0.095152 0.271281
0.016740 -0.094893 0.270542
0.017940 -0.094451 0.269284
0.019316 -0.094931 0.270655
0.020560 -0.094743 0.270123
0.021661 -0.093959 0.267891
0.022911 -0.093871 0.267644
0.024137 -0.093696 0.267153
0.025153 -0.092766 0.264505
0.026146 -0.091844 0.261883
0.027176 -0.091131 0.259855
0.028179 -0.090391 0.257753
0.029495 -0.090674 0.258568
0.030674 -0.090532 0.258171
0.031802 -0.090254 0.257385
0.033214 -0.090774 0.258874
0.034533 -0.091012 0.259564
0.035816 -0.091142 0.259940
0.037299 -0.091752 0.261690
0.038802 -0.092373 0.263469
0.040249 -0.092827 0.264771
0.041890 -0.093684 0.267222
0.042951 -0.093234 0.265946
0.044072 -0.092935 0.265100
0.045366 -0.093008 0.265313
0.046644 -0.093045 0.265424
0.047537 -0.092331 0.263392
0.048976 -0.092687 0.264413
0.050134 -0.092508 0.263904
0.051054 -0.091908 0.262196
0.052424 -0.092129 0.262826
0.053368 -0.091606 0.261333
0.054681 -0.091728 0.261680
0.055816 -0.091551 0.261173
0.057159 -0.091716 0.261638
0.058560 -0.091965 0.262342
0.060358 -0.092812 0.264752
0.062400 -0.093995 0.268114
0.063773 -0.094141 0.268521
0.065246 -0.094426 0.269319
0.066664 -0.094623 0.269863
0.067904 -0.094564 0.269677
0.068929 -0.094213 0.268656
0.069459 -0.093212 0.265777
0.070579 -0.093022 0.265210
0.071369 -0.092413 0.263443
0.072180 -0.091851 0.261810
0.072790 -0.091056 0.259509
0.074064 -0.091105 0.259611
0.074759 -0.090452 0.257709
0.076429 -0.090980 0.259169
0.077899 -0.091257 0.259910
0.079770 -0.091988 0.261936
0.082065 -0.093177 0.265266
0.084052 -0.093986 0.267508
0.086313 -0.095074 0.270534
0.089086 -0.096684 0.275043
0.091913 -0.098305 0.279575
0.100601 -0.106060 0.301536
0.101934 -0.105950 0.301126
0.100886 -0.103403 0.293786
0.102788 -0.103907 0.295110
0.104167 -0.103878 0.294912
0.105612 -0.103913 0.294891
0.107065 -0.103954 0.294881
0.108444 -0.103925 0.294662
0.110017 -0.104079 0.294957
0.111385 -0.104038 0.294690
0.112873 -0.104108 0.294730
0.114340 -0.104158 0.294703
0.115659 -0.104073 0.294289
0.117302 -0.104278 0.294684
0.118860 -0.104404 0.294847
0.120208 -0.104344 0.294475
0.121586 -0.104311 0.294169
0.123152 -0.104439 0.294306
0.124802 -0.104633 0.294619
0.126504 -0.104867 0.295033
0.128005 -0.104930 0.294953
0.129653 -0.105111 0.295194
0.131331 -0.105312 0.295477
0.132943 -0.105457 0.295588
0.134585 -0.105622 0.295743
0.136128 -0.105707 0.295658
0.137736 -0.105838 0.295691
0.139523 -0.106105 0.296083
0.141311 -0.106365 0.296444
0.142843 -0.106430 0.296241
0.144467 -0.106562 0.296206
0.146196 -0.106767 0.296360
0.147718 -0.106819 0.296067
0.149314 -0.106922 0.295899
0.150952 -0.107053 0.295788
0.152433 -0.107071 0.295344
0.154094 -0.107214 0.295222
0.155544 -0.107209 0.294671
0.157032 -0.107229 0.294168
0.158865 -0.107483 0.294279
-0.126027 -0.082348 0.230855
-0.125172 -0.082523 0.231762
-0.124219 -0.082636 0.232479
-0.123098 -0.082639 0.232871
-0.122262 -0.082834 0.233793
-0.121406 -0.083020 0.234673
-0.120565 -0.083220 0.235580
-0.119809 -0.083483 0.236654
-0.119073 -0.083765 0.237770
-0.118219 -0.083969 0.238655
-0.117461 -0.084246 0.239735
-0.116826 -0.084617 0.241074
-0.116242 -0.085033 0.242532
-0.115612 -0.085425 0.243910
-0.115081 -0.085897 0.245510
-0.114536 -0.086369 0.247101
-0.113634 -0.086579 0.247934
-0.112760 -0.086815 0.248833
-0.112236 -0.087329 0.250519
-0.111551 -0.087726 0.251865
-0.110904 -0.088163 0.253315
-0.110531 -0.088830 0.255421
-0.109347 -0.088852 0.255665
-0.110353 -0.090675 0.261083
-0.109203 -0.090747 0.261458
-0.109144 -0.091739 0.264475
-0.108419 -0.092186 0.265917
-0.107538 -0.092511 0.266999
-0.107854 -0.093885 0.271104
-0.107448 -0.094657 0.273464
-0.106469 -0.094936 0.274396
-0.105552 -0.095278 0.275504
-0.104458 -0.095467 0.276163
-0.103985 -0.096235 0.278491
-0.103037 -0.096579 0.279585
-0.102035 -0.096879 0.280549
-0.101190 -0.097339 0.281969
-0.099571 -0.097057 0.281234
-0.098841 -0.097646 0.283015
-0.098066 -0.098206 0.284709
-0.095983 -0.097452 0.282589
-0.095759 -0.098593 0.285958
-0.094542 -0.098728 0.286406
-0.093155 -0.098688 0.286340
-0.092183 -0.099092 0.287558
-0.090846 -0.099111 0.287653
-0.089582 -0.099211 0.287981
-0.088375 -0.099379 0.288500
-0.087224 -0.099616 0.289216
-0.085895 -0.099653 0.289349
-0.090051 -0.106159 0.308261
-0.088509 -0.106050 0.307962
-0.087272 -0.106308 0.308726
-0.085574 -0.106006 0.307859
-0.079845 -0.100613 0.292204
-0.078789 -0.101023 0.293397
-0.077592 -0.101264 0.294097
-0.083590 -0.111073 0.322583
-0.082156 -0.111188 0.322911
-0.080437 -0.110914 0.322108
-0.079609 -0.111883 0.324910
-0.078158 -0.111996 0.325223
-0.068845 -0.100623 0.292183
-0.067663 -0.100913 0.293009
-0.066283 -0.100914 0.292991
-0.065023 -0.101101 0.293514
-0.063605 -0.101046 0.293331
-0.062221 -0.101043 0.293300
-0.060962 -0.101248 0.293868
-0.059491 -0.101103 0.293420
-0.058119 -0.101123 0.293451
-0.056812 -0.101260 0.293819
-0.055330 -0.101084 0.293277
-0.053991 -0.101166 0.293485
-0.052590 -0.101134 0.293360
-0.051140 -0.101004 0.292951
-0.049823 -0.101138 0.293304
-0.048392 -0.101039 0.292984
-0.046938 -0.100888 0.292512
-0.045607 -0.100998 0.292796
-0.044264 -0.101089 0.293023
-0.042804 -0.100908 0.292465
-0.041279 -0.100559 0.291416
-0.040591 -0.102297 0.296417
-0.039426 -0.102911 0.298160
-0.038041 -0.102978 0.298316
-0.035875 -0.100851 0.292120
-0.034665 -0.101352 0.293537
-0.032946 -0.100343 0.290578
-0.030936 -0.098323 0.284696
-0.029298 -0.097354 0.281858
-0.027634 -0.096204 0.278497
-0.026040 -0.095194 0.275542
-0.024526 -0.094384 0.273169
-0.023114 -0.093902 0.271743
-0.021988 -0.094591 0.273707
-0.020650 -0.094398 0.273122
-0.019331 -0.094274 0.272736
-0.018210 -0.095165 0.275287
-0.016837 -0.094778 0.274143
-0.015512 -0.094617 0.273654
-0.014286 -0.095086 0.274986
-0.012896 -0.094448 0.273118
-0.011505 -0.093658 0.270811
-0.010149 -0.092994 0.268870
-0.008824 -0.092461 0.267311
-0.007510 -0.091892 0.265648
-0.006234 -0.091658 0.264953
-0.004971 -0.091532 0.264575
-0.003713 -0.091439 0.264291
-0.002444 -0.090855 0.262588
-0.001188 -0.090075 0.260322
0.000048 -0.091878 0.265522
0.001314 -0.092316 0.266778
0.002584 -0.092476 0.267231
0.003882 -0.093194 0.269296
0.005157 -0.093156 0.269178
0.006441 -0.093252 0.269450
0.007737 -0.093464 0.270057
0.009051 -0.093798 0.271017
0.010341 -0.093831 0.271110
0.011638 -0.093915 0.271350
0.012917 -0.093844 0.271144
0.014201 -0.093828 0.271100
0.015408 -0.093341 0.269691
0.016764 -0.093764 0.270915
0.017960 -0.093299 0.269574
0.019362 -0.093888 0.271282
0.020763 -0.094404 0.272776
0.021809 -0.093337 0.269698
0.023119 -0.093455 0.270045
0.024364 -0.093314 0.269643
0.025409 -0.092460 0.267181
0.026340 -0.091289 0.263805
0.027428 -0.090743 0.262237
0.028568 -0.090411 0.261285
0.029730 -0.090173 0.260605
0.030911 -0.090009 0.260141
0.032085 -0.089835 0.259649
0.033271 -0.089710 0.259296
0.034583 -0.089920 0.259912
0.035812 -0.089908 0.259888
0.037215 -0.090317 0.261079
0.038874 -0.091302 0.263937
0.040441 -0.092017 0.266014
0.041725 -0.092063 0.266156
0.043558 -0.093281 0.269685
0.044636 -0.092859 0.268475
0.045753 -0.092540 0.267561
0.047395 -0.093271 0.269682
0.048389 -0.092723 0.268107
0.049526 -0.092469 0.267378
0.050753 -0.092390 0.267155
0.051918 -0.092206 0.266627
0.052706 -0.091378 0.264235
0.053965 -0.091385 0.264259
0.054930 -0.090905 0.262873
0.055896 -0.090448 0.261550
0.057118 -0.090416 0.261456
0.058672 -0.090899 0.262849
0.060380 -0.091596 0.264860
0.061912 -0.092003 0.266030
0.063524 -0.092512 0.267491
0.064994 -0.092796 0.268302
0.066125 -0.092594 0.267704
0.067325 -0.092495 0.267403
0.068487 -0.092348 0.266961
0.069362 -0.091827 0.265433
0.070013 -0.091034 0.263118
0.071065 -0.090779 0.262357
0.071856 -0.090207 0.260674
0.072677 -0.089690 0.259148
0.073455 -0.089138 0.257521
0.074881 -0.089379 0.258179
0.076257 -0.089552 0.258637
0.077619 -0.089703 0.259030
0.079591 -0.090545 0.261411
0.081635 -0.091440 0.263943
0.083957 -0.092616 0.267277
0.085346 -0.092741 0.267576
0.092424 -0.098954 0.285430
0.093686 -0.098851 0.285054
0.097492 -0.101396 0.292309
0.098782 -0.101290 0.291913
0.100696 -0.101816 0.293335
0.102446 -0.102166 0.294239
0.103801 -0.102117 0.293990
0.105385 -0.102292 0.294377
0.106892 -0.102388 0.294530
0.108361 -0.102445 0.294566
0.109885 -0.102553 0.294737
0.111246 -0.102507 0.294462
0.112776 -0.102617 0.294624
0.114162 -0.102594 0.294397
0.115662 -0.102673 0.294454
0.117076 -0.102674 0.294281
0.118688 -0.102847 0.294590
0.120158 -0.102895 0.294529
0.121506 -0.102837 0.294158
0.123180 -0.103054 0.294561
0.124765 -0.103192 0.294728
0.126517 -0.103463 0.295266
0.128007 -0.103517 0.295170
0.129609 -0.103659 0.295312
0.131271 -0.103845 0.295569
0.132717 -0.103858 0.295320
0.134368 -0.104030 0.295509
0.135902 -0.104108 0.295416
0.137490 -0.104225 0.295421
0.139229 -0.104453 0.295727
0.141157 -0.104817 0.296397
0.142771 -0.104942 0.296378
0.144195 -0.104926 0.295943
0.145938 -0.105142 0.296142
0.147559 -0.105264 0.296063
0.149022 -0.105274 0.295645
0.150530 -0.105314 0.295297
0.152148 -0.105430 0.295138
0.153720 -0.105512 0.294865
0.155076 -0.105445 0.294155
0.156381 -0.105345 0.293331
0.158299 -0.105656 0.293626
-0.126114 -0.081272 0.231287
-0.125091 -0.081336 0.231876
-0.124295 -0.081550 0.232877
-0.123231 -0.081590 0.233371
-0.122397 -0.081785 0.234291
-0.121690 -0.082070 0.235455
-0.120936 -0.082328 0.236532
-0.120272 -0.082653 0.237790
-0.119659 -0.083020 0.239157
-0.118849 -0.083256 0.240136
-0.118351 -0.083717 0.241756
-0.117879 -0.084206 0.243446
-0.117160 -0.084527 0.244640
-0.116474 -0.084878 0.245914
-0.116098 -0.085465 0.247862
-0.115452 -0.085863 0.249254
-0.114452 -0.086003 0.249889
-0.113417 -0.086120 0.250447
-0.112438 -0.086283 0.251128
-0.111434 -0.086429 0.251754
-0.113676 -0.089124 0.259800
-0.113119 -0.089660 0.261550
-0.112316 -0.090010 0.262751
-0.110891 -0.089865 0.262495
-0.110092 -0.090229 0.263720
-0.109509 -0.090780 0.265486
-0.108513 -0.090998 0.266271
-0.109574 -0.092967 0.272175
-0.108611 -0.093244 0.273121
-0.107419 -0.093330 0.273502
-0.106227 -0.093418 0.273879
-0.105151 -0.093611 0.274558
-0.107771 -0.097141 0.285022
-0.106854 -0.097531 0.286271
-0.105740 -0.097749 0.287009
-0.104414 -0.097775 0.287177
-0.103425 -0.098121 0.288278
-0.102714 -0.098744 0.290187
-0.101299 -0.098698 0.290125
-0.099787 -0.098554 0.289770
-0.098575 -0.098708 0.290285
-0.096272 -0.097757 0.287546
-0.094647 -0.097479 0.286778
-0.093549 -0.097742 0.287598
-0.092304 -0.097857 0.287980
-0.090786 -0.097684 0.287505
-0.089402 -0.097650 0.287438
-0.094642 -0.104962 0.308994
-0.092948 -0.104692 0.308223
-0.091201 -0.104353 0.307249
-0.089798 -0.104403 0.307413
-0.088287 -0.104328 0.307204
-0.086736 -0.104201 0.306843
-0.084667 -0.103438 0.304602
-0.080668 -0.100251 0.295220
-0.078588 -0.099378 0.292647
-0.083844 -0.107916 0.317787
-0.082435 -0.108030 0.318117
-0.081976 -0.109417 0.322191
-0.079982 -0.108768 0.320270
-0.078927 -0.109396 0.322104
-0.077489 -0.109508 0.322415
-0.070324 -0.101369 0.298434
-0.067692 -0.099566 0.293106
-0.066315 -0.099573 0.293103
-0.064974 -0.099633 0.293258
-0.063620 -0.099677 0.293360
-0.062274 -0.099736 0.293509
-0.060891 -0.099737 0.293483
-0.059546 -0.099802 0.293643
-0.058109 -0.099712 0.293349
-0.056733 -0.099724 0.293353
-0.055357 -0.099739 0.293362
-0.053957 -0.099709 0.293242
-0.052572 -0.099706 0.293196
-0.051181 -0.099691 0.293117
-0.049803 -0.099702 0.293114
-0.048403 -0.099669 0.292981
-0.046997 -0.099621 0.292802
-0.045592 -0.099572 0.292623
-0.044250 -0.099663 0.292850
-0.042840 -0.099599 0.292626
-0.041183 -0.098941 0.290655
-0.041206 -0.102412 0.300814
-0.039811 -0.102481 0.300978
-0.038187 -0.101943 0.299359
-0.035928 -0.099603 0.292449
-0.034828 -0.100421 0.294814
-0.033090 -0.099387 0.291744
-0.031074 -0.097395 0.285860
-0.029533 -0.096776 0.284009
-0.027909 -0.095814 0.281152
-0.026232 -0.094565 0.277456
-0.024577 -0.093272 0.273629
-0.023184 -0.092878 0.272444
-0.021923 -0.093003 0.272780
-0.020665 -0.093155 0.273198
-0.019411 -0.093347 0.273732
-0.018163 -0.093600 0.274445
-0.016850 -0.093528 0.274209
-0.015510 -0.093284 0.273469
-0.014232 -0.093402 0.273791
-0.012863 -0.092888 0.272260
-0.011547 -0.092683 0.271636
-0.010237 -0.092476 0.271008
-0.008882 -0.091756 0.268878
-0.007587 -0.091515 0.268153
-0.006285 -0.091080 0.266863
-0.005005 -0.090820 0.266083
-0.003750 -0.090987 0.266560
-0.002485 -0.090976 0.266511
-0.001221 -0.091025 0.266642
0.000044 -0.091211 0.267175
0.001315 -0.091418 0.267771
0.002596 -0.091764 0.268777
0.003894 -0.092305 0.270353
0.005177 -0.092301 0.270333
0.006436 -0.091956 0.269316
0.007766 -0.092564 0.271091
0.009054 -0.092581 0.271140
0.010276 -0.091994 0.269416
0.011611 -0.092437 0.270714
0.012874 -0.092278 0.270247
0.014049 -0.091574 0.268185
0.015371 -0.091861 0.269028
0.016662 -0.091938 0.269255
0.017814 -0.091291 0.267365
0.019054 -0.091147 0.266947
0.020523 -0.092050 0.269596
0.021892 -0.092426 0.270704
0.023170 -0.092393 0.270615
0.024496 -0.092549 0.271079
0.025589 -0.091849 0.269037
0.026489 -0.090560 0.265272
0.027527 -0.089834 0.263152
0.028572 -0.089195 0.261292
0.029739 -0.088973 0.260650
0.030910 -0.088782 0.260102
0.032010 -0.088409 0.259019
0.033282 -0.088518 0.259351
0.034622 -0.088796 0.260176
0.035813 -0.088686 0.259865
0.037134 -0.088894 0.260488
0.038788 -0.089860 0.263330
0.040274 -0.090387 0.264886
0.041077 -0.089398 0.261999
0.042760 -0.090324 0.264724
0.043929 -0.090144 0.264206
0.045202 -0.090179 0.264320
0.046715 -0.090681 0.265799
0.048166 -0.091037 0.266852
0.049674 -0.091479 0.268159
0.050751 -0.091127 0.267134
0.052228 -0.091492 0.268211
0.053629 -0.091710 0.268855
0.054706 -0.091376 0.267881
0.055893 -0.091236 0.267475
0.057174 -0.091253 0.267528
0.058330 -0.091075 0.267006
0.059609 -0.091091 0.267054
0.061047 -0.091344 0.267792
0.062628 -0.091798 0.269119
0.063878 -0.091756 0.268991
0.065253 -0.091893 0.269384
0.066447 -0.091775 0.269028
0.067620 -0.091632 0.268595
0.068528 -0.091142 0.267146
0.069655 -0.090957 0.266584
0.070530 -0.090454 0.265091
0.071283 -0.089815 0.263195
0.072153 -0.089343 0.261787
0.073097 -0.088977 0.260687
0.074128 -0.088727 0.259924
0.075491 -0.088875 0.260324
0.076514 -0.088627 0.259559
0.078095 -0.089021 0.260671
0.079451 -0.089151 0.261007
0.081949 -0.090538 0.265018
0.084124 -0.091531 0.267871
0.084625 -0.090701 0.265383
0.097291 -0.099804 0.291794
0.098577 -0.099698 0.291398
0.100504 -0.100234 0.292873
0.102286 -0.100612 0.293882
0.103593 -0.100520 0.293507
0.105287 -0.100800 0.294215
0.106737 -0.100841 0.294219
0.108222 -0.100915 0.294310
0.109763 -0.101039 0.294539
0.111116 -0.100988 0.294252
0.112901 -0.101326 0.295090
0.114257 -0.101276 0.294787
0.115647 -0.101256 0.294568
0.117436 -0.101582 0.295342
0.118901 -0.101623 0.295280
0.120313 -0.101619 0.295077
0.121690 -0.101585 0.294778
0.123152 -0.101622 0.294676
0.124743 -0.101763 0.294865
0.126217 -0.101807 0.294761
0.127664 -0.101828 0.294580
0.129275 -0.101978 0.294761
0.130819 -0.102073 0.294768
0.132335 -0.102143 0.294693
0.134050 -0.102365 0.295041
0.135681 -0.102517 0.295176
0.137333 -0.102682 0.295332
0.139046 -0.102889 0.295594
0.140952 -0.103233 0.296233
0.142586 -0.103373 0.296270
0.144373 -0.103620 0.296595
0.145761 -0.103578 0.296077
0.147259 -0.103614 0.295765
0.149245 -0.103990 0.296402
0.150456 -0.103823 0.295476
0.151982 -0.103875 0.295151
0.153750 -0.104090 0.295268
0.154841 -0.103846 0.294066
0.156372 -0.103899 0.293682
0.158155 -0.104117 0.293740
-0.126446 -0.080350 0.232158
-0.125374 -0.080384 0.232657
-0.124668 -0.080654 0.233825
-0.123624 -0.080710 0.234357
-0.122966 -0.081021 0.235615
-0.122326 -0.081350 0.236915
-0.121578 -0.081612 0.238009
-0.121154 -0.082099 0.239749
-0.120794 -0.082640 0.241636
-0.120386 -0.083157 0.243445
-0.119666 -0.083468 0.244640
-0.118827 -0.083700 0.245595
-0.118181 -0.084075 0.246960
-0.117712 -0.084585 0.248710
-0.116476 -0.084548 0.248845
-0.116967 -0.085777 0.252696
-0.116009 -0.085959 0.253456
-0.115844 -0.086737 0.255968
-0.115309 -0.087253 0.257698
-0.114460 -0.087539 0.258742
-0.113498 -0.087745 0.259540
-0.112382 -0.087834 0.259986
-0.112038 -0.088536 0.262237
-0.114554 -0.091539 0.271302
-0.113945 -0.092085 0.273081
-0.113149 -0.092490 0.274438
-0.111687 -0.092354 0.274180
-0.111394 -0.093194 0.276813
-0.110248 -0.093330 0.277351
-0.107845 -0.092394 0.274690
-0.112562 -0.097609 0.290318
-0.111450 -0.097835 0.291106
-0.110067 -0.097827 0.291188
-0.108638 -0.097777 0.291141
-0.108760 -0.099139 0.295292
-0.107195 -0.098980 0.294907
-0.105276 -0.098485 0.293513
-0.104259 -0.098831 0.294624
-0.102891 -0.098851 0.294751
-0.101190 -0.098546 0.293907
-0.100178 -0.098914 0.295062
-0.097166 -0.097290 0.290270
-0.094980 -0.096457 0.287834
-0.093999 -0.096842 0.289026
-0.099512 -0.104028 0.310510
-0.097778 -0.103739 0.309684
-0.095769 -0.103146 0.307944
-0.094698 -0.103560 0.309206
-0.093103 -0.103404 0.308764
-0.091400 -0.103122 0.307938
-0.089862 -0.103021 0.307650
-0.088186 -0.102755 0.306865
-0.086798 -0.102821 0.307070
-0.082174 -0.098992 0.295636
-0.080459 -0.098595 0.294452
-0.079158 -0.098703 0.294768
-0.084524 -0.107273 0.320356
-0.083104 -0.107388 0.320688
-0.082170 -0.108146 0.322939
-0.080766 -0.108302 0.323388
-0.079768 -0.109019 0.325512
-0.078316 -0.109132 0.325827
-0.069372 -0.098601 0.294364
-0.067707 -0.098197 0.293137
-0.066403 -0.098311 0.293453
-0.065047 -0.098353 0.293549
-0.063688 -0.098389 0.293631
-0.062349 -0.098461 0.293814
-0.060967 -0.098466 0.293797
-0.059588 -0.098477 0.293797
-0.058142 -0.098375 0.293460
-0.056742 -0.098346 0.293338
-0.055413 -0.098443 0.293594
-0.053911 -0.098231 0.292924
-0.052521 -0.098217 0.292845
-0.051127 -0.098194 0.292739
-0.049796 -0.098294 0.292998
-0.048366 -0.098200 0.292681
-0.046905 -0.098035 0.292148
-0.045588 -0.098170 0.292512
-0.044239 -0.098242 0.292686
-0.042796 -0.098105 0.292238
-0.041168 -0.097521 0.290459
-0.040391 -0.098980 0.294765
-0.039227 -0.099561 0.296456
-0.037850 -0.099627 0.296613
-0.035735 -0.097682 0.290782
-0.034636 -0.098466 0.293079
-0.032494 -0.096227 0.286378
-0.030671 -0.094784 0.282046
-0.029166 -0.094233 0.280371
-0.027364 -0.092624 0.275551
-0.026041 -0.092557 0.275318
-0.024437 -0.091436 0.271952
-0.023103 -0.091251 0.271369
-0.021930 -0.091723 0.272742
-0.020637 -0.091717 0.272692
-0.019495 -0.092431 0.274786
-0.018247 -0.092702 0.275564
-0.016859 -0.092257 0.274214
-0.015553 -0.092214 0.274061
-0.014323 -0.092665 0.275374
-0.012953 -0.092209 0.273996
-0.011623 -0.091964 0.273244
-0.010329 -0.091981 0.273274
-0.008953 -0.091161 0.270818
-0.007593 -0.090266 0.268140
-0.006291 -0.089839 0.266852
-0.005025 -0.089853 0.266877
-0.003759 -0.089843 0.266833
-0.002497 -0.090016 0.267331
-0.001235 -0.090526 0.268835
0.000041 -0.090447 0.268586
0.001317 -0.090546 0.268872
0.002604 -0.090900 0.269912
0.003885 -0.090906 0.269921
0.005146 -0.090548 0.268852
0.006430 -0.090648 0.269145
0.007702 -0.090570 0.268907
0.008906 -0.089842 0.266742
0.010224 -0.090290 0.268070
0.011526 -0.090514 0.268733
0.012784 -0.090389 0.268363
0.014036 -0.090243 0.267932
0.015482 -0.091262 0.270958
0.016780 -0.091322 0.271142
0.017730 -0.089617 0.266082
0.019348 -0.091286 0.271043
0.020762 -0.091844 0.272709
0.021805 -0.090795 0.269599
0.023203 -0.091253 0.270968
0.024444 -0.091083 0.270473
0.025501 -0.090274 0.268078
0.026563 -0.089561 0.265972
0.027667 -0.089049 0.264462
0.028647 -0.088198 0.261945
0.029762 -0.087816 0.260822
0.030877 -0.087466 0.259794
0.032023 -0.087223 0.259087
0.033169 -0.087002 0.258441
0.034475 -0.087200 0.259044
0.035758 -0.087328 0.259436
0.037096 -0.087578 0.260193
0.039024 -0.089157 0.264899
0.040330 -0.089263 0.265227
0.041507 -0.089085 0.264712
0.042830 -0.089224 0.265136
0.043950 -0.088940 0.264306
0.045025 -0.088585 0.263264
0.046461 -0.088940 0.264332
0.047626 -0.088772 0.263844
0.048823 -0.088670 0.263550
0.050433 -0.089304 0.265446
0.051707 -0.089327 0.265522
0.053354 -0.089977 0.267465
0.054778 -0.090230 0.268223
0.055886 -0.089963 0.267437
0.057362 -0.090287 0.268404
0.058589 -0.090213 0.268188
0.059639 -0.089875 0.267186
0.061107 -0.090170 0.268061
0.062474 -0.090304 0.268461
0.063887 -0.090499 0.269036
0.065382 -0.090800 0.269926
0.066497 -0.090573 0.269243
0.067539 -0.090256 0.268292
0.068847 -0.090298 0.268408
0.069692 -0.089744 0.266744
0.070633 -0.089331 0.265502
0.071284 -0.088571 0.263225
0.072793 -0.088887 0.264140
0.073008 -0.087637 0.260402
0.074398 -0.087817 0.260908
0.075844 -0.088055 0.261585
0.076617 -0.087517 0.259952
0.078342 -0.088066 0.261544
0.080028 -0.088554 0.262951
0.082134 -0.089485 0.265672
0.083895 -0.090017 0.267200
0.084623 -0.089442 0.265439
0.087432 -0.091051 0.270153
0.096276 -0.097394 0.288830
0.099060 -0.098798 0.292913
0.100722 -0.099059 0.293599
0.102340 -0.099270 0.294132
0.103701 -0.099230 0.293914
0.105074 -0.099202 0.293725
0.106507 -0.099230 0.293696
0.108087 -0.099393 0.294059
0.109427 -0.099333 0.293757
0.110798 -0.099304 0.293537
0.112407 -0.099485 0.293930
0.113901 -0.099561 0.294006
0.115429 -0.099664 0.294155
0.116977 -0.099782 0.294336
0.118541 -0.099911 0.294542
0.120073 -0.100010 0.294649
0.121463 -0.099990 0.294397
0.122948 -0.100048 0.294362
0.124437 -0.100106 0.294322
0.125838 -0.100094 0.294062
0.127299 -0.100130 0.293932
0.128865 -0.100246 0.294027
0.130409 -0.100342 0.294051
0.131954 -0.100437 0.294060
0.133469 -0.100508 0.293984
0.135341 -0.100843 0.294667
0.137069 -0.101064 0.295004
0.138877 -0.101340 0.295483
0.140525 -0.101494 0.295591
0.142376 -0.101790 0.296098
0.143734 -0.101731 0.295554
0.145209 -0.101755 0.295238
0.146870 -0.101908 0.295275
0.148327 -0.101918 0.294882
0.149775 -0.101921 0.294449
0.151350 -0.102009 0.294245
0.153042 -0.102174 0.294241
0.154362 -0.102090 0.293500
0.155758 -0.102056 0.292883
0.157542 -0.102276 0.292968
-0.126638 -0.079335 0.232767
-0.125911 -0.079587 0.233900
-0.125418 -0.079993 0.235473
-0.124348 -0.080036 0.235963
-0.123992 -0.080543 0.237810
-0.123558 -0.081008 0.239523
-0.123367 -0.081642 0.241728
-0.122643 -0.081934 0.242906
-0.121673 -0.082064 0.243597
-0.121153 -0.082504 0.245194
-0.120455 -0.082831 0.246445
-0.120377 -0.083594 0.248986
-0.119206 -0.083606 0.249283
-0.118270 -0.083785 0.250065
-0.117649 -0.084193 0.251521
-0.117065 -0.084636 0.253074
-0.116583 -0.085163 0.254870
-0.117861 -0.087000 0.260583
-0.116495 -0.086904 0.260500
-0.115310 -0.086943 0.260811
-0.114140 -0.086994 0.261148
-0.113856 -0.087729 0.263532
-0.113852 -0.088698 0.266615
-0.114312 -0.090055 0.270858
-0.113220 -0.090206 0.271468
-0.111852 -0.090138 0.271410
-0.119601 -0.097501 0.293732
-0.117931 -0.097268 0.293173
-0.116367 -0.097118 0.292855
-0.115159 -0.097265 0.293425
-0.113836 -0.097318 0.293704
-0.112453 -0.097320 0.293822
-0.111186 -0.097424 0.294239
-0.109812 -0.097437 0.294374
-0.108382 -0.097398 0.294348
-0.107228 -0.097610 0.295073
-0.105641 -0.097429 0.294603
-0.104240 -0.097417 0.294638
-0.102959 -0.097518 0.295009
-0.101373 -0.097329 0.294497
-0.100122 -0.097461 0.294951
-0.098299 -0.097032 0.293701
-0.095457 -0.095570 0.289321
-0.100977 -0.102561 0.310525
-0.099631 -0.102680 0.310920
-0.097921 -0.102421 0.310170
-0.095989 -0.101920 0.308679
-0.094651 -0.102044 0.309075
-0.092829 -0.101642 0.307874
-0.091165 -0.101402 0.307162
-0.089546 -0.101206 0.306578
-0.087812 -0.100872 0.305571
-0.084720 -0.098940 0.299721
-0.082757 -0.098284 0.297733
-0.081445 -0.098392 0.298058
-0.086688 -0.106562 0.322798
-0.084335 -0.105519 0.319627
-0.082846 -0.105538 0.319673
-0.081947 -0.106325 0.322039
-0.080543 -0.106474 0.322472
-0.079565 -0.107203 0.324655
-0.078118 -0.107315 0.324970
-0.069462 -0.097331 0.294712
-0.067556 -0.096592 0.292448
-0.066354 -0.096849 0.293198
-0.065072 -0.096996 0.293616
-0.063643 -0.096928 0.293378
-0.062333 -0.097042 0.293691
-0.061036 -0.097182 0.294079
-0.059603 -0.097106 0.293816
-0.058203 -0.097082 0.293707
-0.056853 -0.097143 0.293854
-0.055325 -0.096895 0.293065
-0.054019 -0.097032 0.293441
-0.052588 -0.096948 0.293145
-0.051178 -0.096898 0.292956
-0.049729 -0.096770 0.292527
-0.048276 -0.096627 0.292054
-0.046921 -0.096677 0.292162
-0.045488 -0.096565 0.291783
-0.044075 -0.096490 0.291515
-0.042623 -0.096321 0.290963
-0.041379 -0.096628 0.291849
-0.040769 -0.098488 0.297425
-0.039390 -0.098556 0.297588
-0.037674 -0.097754 0.295126
-0.035653 -0.096070 0.290002
-0.034415 -0.096448 0.291102
-0.032417 -0.094636 0.285593
-0.029971 -0.091300 0.275491
-0.028857 -0.091908 0.277288
-0.027295 -0.091074 0.274737
-0.025654 -0.089886 0.271118
-0.024312 -0.089671 0.270435
-0.022965 -0.089413 0.269626
-0.021792 -0.089844 0.270895
-0.020630 -0.090377 0.272471
-0.019368 -0.090513 0.272848
-0.018249 -0.091389 0.275460
-0.016919 -0.091257 0.275036
-0.015638 -0.091392 0.275413
-0.014411 -0.091896 0.276906
-0.013030 -0.091420 0.275447
-0.011645 -0.090808 0.273580
-0.010358 -0.090903 0.273843
-0.008979 -0.090101 0.271408
-0.007608 -0.089125 0.268447
-0.006305 -0.088725 0.267224
-0.005055 -0.089035 0.268141
-0.003791 -0.089261 0.268806
-0.002513 -0.089188 0.268571
-0.001245 -0.089707 0.270120
0.000037 -0.090266 0.271792
0.001326 -0.090138 0.271397
0.002613 -0.090063 0.271161
0.003908 -0.090228 0.271649
0.005174 -0.089810 0.270384
0.006384 -0.088785 0.267294
0.007506 -0.087063 0.262107
0.008760 -0.087155 0.262379
0.009989 -0.087002 0.261918
0.011218 -0.086888 0.261573
0.012487 -0.087067 0.262114
0.013750 -0.087181 0.262459
0.015075 -0.087634 0.263824
0.016390 -0.087965 0.264827
0.017632 -0.087879 0.264572
0.018969 -0.088252 0.265702
0.020552 -0.089650 0.269919
0.021962 -0.090172 0.271498
0.023210 -0.090010 0.271020
0.024464 -0.089886 0.270657
0.025670 -0.089607 0.269827
0.026637 -0.088558 0.266680
0.027711 -0.087944 0.264843
0.028733 -0.087227 0.262694
0.029760 -0.086582 0.260767
0.030850 -0.086165 0.259524
0.032009 -0.085966 0.258938
0.033237 -0.085962 0.258939
0.034626 -0.086355 0.260140
0.035996 -0.086679 0.261130
0.037354 -0.086951 0.261966
0.039114 -0.088112 0.265478
0.040531 -0.088452 0.266518
0.041778 -0.088412 0.266412
0.043008 -0.088339 0.266208
0.044355 -0.088503 0.266719
0.045357 -0.087989 0.265183
0.046879 -0.088484 0.266689
0.048325 -0.088811 0.267690
0.049508 -0.088652 0.267224
0.051006 -0.089052 0.268442
0.052848 -0.090017 0.271362
0.053923 -0.089661 0.270302
0.055332 -0.089865 0.270925
0.056367 -0.089464 0.269727
0.057612 -0.089408 0.269564
0.058716 -0.089140 0.268763
0.059826 -0.088892 0.268021
0.061378 -0.089298 0.269247
0.062910 -0.089658 0.270335
0.064218 -0.089691 0.270434
0.065620 -0.089852 0.270918
0.066916 -0.089863 0.270948
0.068242 -0.089914 0.271096
0.069455 -0.089817 0.270793
0.070343 -0.089311 0.269256
0.071445 -0.089089 0.268575
0.072513 -0.088834 0.267789
0.073180 -0.088104 0.265569
0.074447 -0.088109 0.265564
0.074880 -0.087143 0.262629
0.075896 -0.086877 0.261797
0.077282 -0.087035 0.262245
0.078182 -0.086651 0.261051
0.079768 -0.087026 0.262145
0.081988 -0.088071 0.265248
0.083613 -0.088455 0.266358
0.083961 -0.087496 0.263420
0.087529 -0.089871 0.270517
0.097312 -0.097059 0.292016
0.098596 -0.096953 0.291621
0.100612 -0.097560 0.293363
0.102147 -0.097690 0.293666
0.103618 -0.097757 0.293774
0.104972 -0.097713 0.293540
0.106543 -0.097869 0.293901
0.107994 -0.097911 0.293916
0.109497 -0.098000 0.294060
0.110960 -0.098050 0.294083
0.112346 -0.098033 0.293896
0.113835 -0.098105 0.293967
0.115373 -0.098215 0.294147
0.117049 -0.098440 0.294660
0.118504 -0.098476 0.294597
0.119983 -0.098530 0.294582
0.121398 -0.098531 0.294397
0.122848 -0.098561 0.294288
0.124236 -0.098540 0.294019
0.125646 -0.098536 0.293791
0.127166 -0.098619 0.293810
0.128673 -0.098689 0.293779
0.130301 -0.098850 0.294007
0.131855 -0.098951 0.294045
0.133493 -0.099113 0.294251
0.135229 -0.099343 0.294645
0.136979 -0.099578 0.295039
0.138527 -0.099663 0.294975
0.140130 -0.099786 0.295006
0.142035 -0.100119 0.295644
0.144214 -0.100636 0.296807
0.144926 -0.100129 0.294934
0.146613 -0.100300 0.295042
0.148552 -0.100637 0.295621
0.149564 -0.100346 0.294335
0.151046 -0.100373 0.293964
0.152695 -0.100509 0.293894
0.154002 -0.100420 0.293145
0.155441 -0.100417 0.292629
0.156974 -0.100475 0.292266
-0.127184 -0.078535 0.234018
-0.126549 -0.078844 0.235326
-0.126019 -0.079225 0.236837
-0.124712 -0.079119 0.236879
-0.124747 -0.079872 0.239479
-0.124503 -0.080457 0.241570
-0.124730 -0.081361 0.244610
-0.123869 -0.081567 0.245539
-0.123232 -0.081925 0.246918
-0.122580 -0.082280 0.248276
-0.122197 -0.082824 0.250198
-0.122192 -0.083638 0.252924
-0.121060 -0.083689 0.253336
-0.119768 -0.083630 0.253402
-0.119549 -0.084326 0.255749
-0.119615 -0.085240 0.258749
-0.118317 -0.085191 0.258817
-0.116949 -0.085090 0.258716
-0.116568 -0.085713 0.260810
-0.115341 -0.085720 0.261022
-0.113813 -0.085501 0.260534
-0.125967 -0.095669 0.291708
-0.118165 -0.090738 0.276846
-0.117089 -0.090920 0.277563
-0.115725 -0.090880 0.277595
-0.120732 -0.095899 0.293079
-0.119711 -0.096191 0.294119
-0.118041 -0.095963 0.293558
-0.116771 -0.096058 0.293977
-0.115277 -0.095969 0.293827
-0.113954 -0.096022 0.294103
-0.112585 -0.096038 0.294257
-0.111122 -0.095972 0.294156
-0.109926 -0.096139 0.294760
-0.108510 -0.096115 0.294772
-0.107192 -0.096179 0.295047
-0.105860 -0.096231 0.295281
-0.104359 -0.096129 0.295034
-0.102860 -0.096027 0.294783
-0.101387 -0.095946 0.294590
-0.099913 -0.095863 0.294383
-0.098538 -0.095873 0.294461
-0.095898 -0.094636 0.290699
-0.094808 -0.094914 0.291588
-0.099939 -0.101520 0.311914
-0.098266 -0.101308 0.311292
-0.096193 -0.100672 0.309359
-0.094832 -0.100773 0.309686
-0.093374 -0.100772 0.309697
-0.091630 -0.100457 0.308739
-0.089740 -0.099970 0.307248
-0.086092 -0.097477 0.299590
-0.084795 -0.097607 0.299987
-0.084990 -0.099488 0.305763
-0.088229 -0.105058 0.322873
-0.086805 -0.105175 0.323221
-0.083908 -0.103477 0.317990
-0.081853 -0.102777 0.315820
-0.082630 -0.105673 0.324698
-0.080025 -0.104270 0.320366
-0.079050 -0.104980 0.322521
-0.077613 -0.105091 0.322834
-0.069271 -0.095670 0.293867
-0.067682 -0.095382 0.292953
-0.066300 -0.095380 0.292914
-0.065105 -0.095652 0.293719
-0.063672 -0.095580 0.293462
-0.062274 -0.095558 0.293358
-0.060989 -0.095712 0.293795
-0.059606 -0.095716 0.293770
-0.058024 -0.095393 0.292740
-0.056805 -0.095666 0.293538
-0.055333 -0.095515 0.293035
-0.053923 -0.095468 0.292849
-0.052597 -0.095571 0.293123
-0.051130 -0.095416 0.292604
-0.049749 -0.095416 0.292561
-0.048291 -0.095266 0.292057
-0.046927 -0.095298 0.292111
-0.045510 -0.095222 0.291835
-0.044135 -0.095231 0.291819
-0.042781 -0.095288 0.291951
-0.041371 -0.095219 0.291697
-0.040589 -0.096640 0.296006
-0.039216 -0.096708 0.296169
-0.037445 -0.095762 0.293230
-0.035589 -0.094516 0.289371
-0.034350 -0.094878 0.290438
-0.032996 -0.094936 0.290576
-0.029599 -0.088869 0.271968
-0.028781 -0.090343 0.276440
-0.027214 -0.089495 0.273810
-0.025446 -0.087866 0.268791
-0.024200 -0.087966 0.269062
-0.022948 -0.088055 0.269300
-0.021546 -0.087547 0.267713
-0.020399 -0.088073 0.269290
-0.019351 -0.089125 0.272476
-0.018092 -0.089286 0.272938
-0.016833 -0.089472 0.273477
-0.015637 -0.090057 0.275239
-0.014395 -0.090456 0.276431
-0.013088 -0.090485 0.276492
-0.011651 -0.089525 0.273536
-0.010355 -0.089543 0.273569
-0.009000 -0.088982 0.271834
-0.007626 -0.088025 0.268888
-0.006339 -0.087879 0.268425
-0.005064 -0.087854 0.268332
-0.003795 -0.087987 0.268721
-0.002530 -0.088357 0.269837
-0.001254 -0.088788 0.271138
0.000034 -0.088927 0.271551
0.001324 -0.088974 0.271684
0.002617 -0.089063 0.271948
0.003892 -0.088661 0.270710
0.005167 -0.088472 0.270128
0.006395 -0.087719 0.267823
0.007553 -0.086397 0.263784
0.008771 -0.086052 0.262727
0.010046 -0.086281 0.263428
0.011241 -0.085843 0.262088
0.012480 -0.085798 0.261953
0.013766 -0.086054 0.262738
0.015057 -0.086299 0.263490
0.016317 -0.086336 0.263607
0.017652 -0.086740 0.264845
0.018919 -0.086777 0.264966
0.020253 -0.087099 0.265959
0.021633 -0.087567 0.267396
0.022875 -0.087455 0.267064
0.024179 -0.087583 0.267466
0.025420 -0.087478 0.267158
0.026561 -0.087054 0.265875
0.027648 -0.086500 0.264198
0.028811 -0.086222 0.263363
0.029931 -0.085846 0.262227
0.030918 -0.085131 0.260057
0.032143 -0.085103 0.259989
0.033429 -0.085231 0.260394
0.034828 -0.085628 0.261625
0.036345 -0.086277 0.263625
0.037773 -0.086678 0.264868
0.039143 -0.086926 0.265643
0.040582 -0.087305 0.266817
0.041767 -0.087133 0.266310
0.042703 -0.086466 0.264288
0.043779 -0.086110 0.263218
0.045103 -0.086250 0.263663
0.046278 -0.086106 0.263238
0.047346 -0.085775 0.262243
0.049291 -0.087009 0.266032
0.050942 -0.087675 0.268081
0.051995 -0.087305 0.266965
0.054297 -0.088999 0.272159
0.055477 -0.088817 0.271615
0.056198 -0.087927 0.268904
0.057895 -0.088568 0.270877
0.058873 -0.088106 0.269473
0.059933 -0.087783 0.268491
0.061273 -0.087875 0.268779
0.062857 -0.088307 0.270105
0.064197 -0.088385 0.270348
0.065543 -0.088468 0.270602
0.066795 -0.088423 0.270463
0.068220 -0.088604 0.271014
0.069537 -0.088641 0.271122
0.070740 -0.088535 0.270790
0.071713 -0.088149 0.269599
0.072850 -0.087975 0.269052
0.073773 -0.087552 0.267744
0.074506 -0.086922 0.265800
0.075340 -0.086429 0.264271
0.076780 -0.086636 0.264880
0.077314 -0.085831 0.262388
0.078925 -0.086228 0.263571
0.080358 -0.086420 0.264124
0.082214 -0.087055 0.266025
0.083897 -0.087489 0.267310
0.084494 -0.086796 0.265145
0.086776 -0.087829 0.268248
0.094596 -0.094354 0.288117
0.095862 -0.094249 0.287732
0.098545 -0.095522 0.291544
0.100503 -0.096065 0.293126
0.102140 -0.096292 0.293733
0.103680 -0.096420 0.294036
0.104783 -0.096146 0.293103
0.106316 -0.096267 0.293373
0.107893 -0.096425 0.293744
0.109402 -0.096519 0.293913
0.110932 -0.096628 0.294124
0.112355 -0.096643 0.294037
0.113930 -0.096786 0.294335
0.115412 -0.096848 0.294376
0.117006 -0.097000 0.294686
0.118538 -0.097099 0.294823
0.119912 -0.097068 0.294554
0.121468 -0.097182 0.294721
0.122862 -0.097166 0.294479
0.124238 -0.097136 0.294189
0.125711 -0.097181 0.294114
0.127150 -0.097200 0.293950
0.128583 -0.097213 0.293757
0.130074 -0.097270 0.293684
0.131591 -0.097344 0.293653
0.133251 -0.097522 0.293922
0.134894 -0.097683 0.294126
0.136698 -0.097957 0.294655
0.138181 -0.097996 0.294466
0.139619 -0.098004 0.294167
0.141394 -0.098246 0.294554
0.142878 -0.098282 0.294309
0.144601 -0.098480 0.294534
0.146187 -0.098582 0.294453
0.147660 -0.098606 0.294124
0.149466 -0.098850 0.294431
0.150858 -0.098818 0.293898
0.152464 -0.098926 0.293760
0.153944 -0.098950 0.293354
0.155393 -0.098954 0.292868
0.156888 -0.098987 0.292446
-0.128259 -0.078048 0.236238
-0.127480 -0.078270 0.237293
-0.127009 -0.078686 0.238925
-0.126322 -0.078975 0.240159
-0.126384 -0.079743 0.242838
-0.125553 -0.079957 0.243819
-0.125205 -0.080484 0.245747
-0.125042 -0.081142 0.248064
-0.125356 -0.082125 0.251368
-0.123842 -0.081918 0.251020
-0.123221 -0.082304 0.252476
-0.138145 -0.093183 0.286144
-0.136875 -0.093246 0.286624
-0.135688 -0.093369 0.287272
-0.135000 -0.093840 0.288983
-0.125037 -0.087809 0.270641
-0.123459 -0.087601 0.270222
-0.121253 -0.086939 0.268388
-0.120751 -0.087497 0.270314
-0.119599 -0.087592 0.270795
-0.127314 -0.094253 0.291584
-0.126072 -0.094356 0.292089
-0.124576 -0.094271 0.291999
-0.123516 -0.094516 0.292925
-0.122170 -0.094546 0.293175
-0.121014 -0.094725 0.293880
-0.119770 -0.094840 0.294376
-0.118334 -0.094802 0.294391
-0.116902 -0.094768 0.294409
-0.115472 -0.094733 0.294419
-0.113842 -0.094533 0.293904
-0.112351 -0.094444 0.293730
-0.111091 -0.094550 0.294153
-0.109791 -0.094625 0.294473
-0.108428 -0.094646 0.294621
-0.107202 -0.094788 0.295138
-0.105915 -0.094881 0.295494
-0.104524 -0.094881 0.295558
-0.103183 -0.094927 0.295759
-0.101410 -0.094573 0.294706
-0.100046 -0.094594 0.294818
-0.099010 -0.094931 0.295909
-0.096131 -0.093485 0.291438
-0.094502 -0.093231 0.290677
-0.100060 -0.100164 0.312319
-0.098663 -0.100237 0.312571
-0.096627 -0.099655 0.310773
-0.095072 -0.099557 0.310484
-0.093402 -0.099335 0.309799
-0.091477 -0.098830 0.308229
-0.089948 -0.098743 0.307962
-0.086151 -0.096125 0.299793
-0.085222 -0.096671 0.301492
-0.087416 -0.100838 0.314479
-0.086033 -0.100952 0.314824
-0.085063 -0.101563 0.316715
-0.084057 -0.102152 0.318533
-0.082390 -0.101945 0.317867
-0.081089 -0.102193 0.318615
-0.080021 -0.102747 0.320317
-0.079361 -0.103858 0.323751
-0.077919 -0.103969 0.324065
-0.069340 -0.094371 0.294120
-0.067523 -0.093772 0.292221
-0.066369 -0.094089 0.293174
-0.065078 -0.094220 0.293548
-0.063527 -0.093972 0.292738
-0.062280 -0.094173 0.293327
-0.060957 -0.094267 0.293579
-0.059307 -0.093847 0.292230
-0.058045 -0.094036 0.292778
-0.056693 -0.094086 0.292890
-0.055248 -0.093980 0.292516
-0.053906 -0.094046 0.292680
-0.052479 -0.093965 0.292383
-0.051134 -0.094032 0.292546
-0.049632 -0.093804 0.291790
-0.048270 -0.093835 0.291843
-0.046906 -0.093867 0.291895
-0.045487 -0.093784 0.291592
-0.044149 -0.093870 0.291813
-0.042789 -0.093914 0.291905
-0.041399 -0.093893 0.291794
-0.040616 -0.095292 0.296095
-0.039242 -0.095359 0.296259
-0.037464 -0.094411 0.293269
-0.035721 -0.093480 0.290334
-0.034366 -0.093535 0.290459
-0.029666 -0.087765 0.272464
-0.028392 -0.087816 0.272583
-0.026818 -0.086902 0.269709
-0.025255 -0.085932 0.266662
-0.023937 -0.085737 0.266021
-0.022825 -0.086298 0.267728
-0.021601 -0.086482 0.268264
-0.020364 -0.086631 0.268693
-0.019308 -0.087620 0.271728
-0.018064 -0.087839 0.272377
-0.016879 -0.088399 0.274084
-0.015584 -0.088429 0.274149
-0.014319 -0.088652 0.274812
-0.013042 -0.088835 0.275354
-0.011632 -0.088058 0.272920
-0.010296 -0.087712 0.271825
-0.009016 -0.087816 0.272126
-0.007672 -0.087225 0.270273
-0.006348 -0.086666 0.268522
-0.005074 -0.086690 0.268579
-0.003812 -0.087013 0.269562
-0.002535 -0.087118 0.269874
-0.001259 -0.087536 0.271155
0.000030 -0.088107 0.272910
0.001317 -0.087467 0.270918
0.002603 -0.087399 0.270697
0.003898 -0.087606 0.271331
0.005147 -0.086914 0.269184
0.006381 -0.086302 0.267281
0.007619 -0.085929 0.266124
0.008848 -0.085582 0.265046
0.010083 -0.085370 0.264389
0.011337 -0.085349 0.264324
0.012584 -0.085287 0.264136
0.013819 -0.085154 0.263727
0.015097 -0.085293 0.264160
0.016421 -0.085647 0.265264
0.017638 -0.085432 0.264605
0.018889 -0.085401 0.264517
0.020257 -0.085867 0.265968
0.021488 -0.085733 0.265563
0.022549 -0.084974 0.263224
0.023849 -0.085147 0.263772
0.025023 -0.084872 0.262934
0.026079 -0.084245 0.261005
0.027367 -0.084390 0.261468
0.028593 -0.084340 0.261328
0.029709 -0.083984 0.260240
0.030971 -0.084051 0.260464
0.032261 -0.084184 0.260896
0.033477 -0.084123 0.260724
0.034692 -0.084065 0.260561
0.036136 -0.084545 0.262067
0.037402 -0.084590 0.262226
0.038863 -0.085060 0.263703
0.040216 -0.085269 0.264370
0.041344 -0.085005 0.263570
0.042524 -0.084860 0.263138
0.043826 -0.084960 0.263470
0.044453 -0.083781 0.259830
0.045664 -0.083738 0.259715
0.046761 -0.083493 0.258975
0.047727 -0.083032 0.257563
0.048963 -0.083052 0.257641
0.050324 -0.083278 0.258357
0.051690 -0.083502 0.259066
0.052947 -0.083542 0.259207
0.054561 -0.084133 0.261053
0.056104 -0.084588 0.262478
0.057594 -0.084947 0.263605
0.059255 -0.085537 0.265445
0.061236 -0.086554 0.268610
0.062729 -0.086853 0.269545
0.064344 -0.087307 0.270960
0.065799 -0.087531 0.271657
0.066817 -0.087173 0.270551
0.068315 -0.087446 0.271397
0.069508 -0.087324 0.271015
0.070598 -0.087080 0.270255
0.071786 -0.086963 0.269883
0.072587 -0.086390 0.268096
0.073524 -0.085996 0.266860
0.074671 -0.085855 0.266409
0.074633 -0.084381 0.261816
0.075761 -0.084250 0.261390
0.076912 -0.084150 0.261055
0.077832 -0.083804 0.259954
0.079004 -0.083735 0.259710
0.080999 -0.084528 0.262135
0.082990 -0.085293 0.264467
0.084257 -0.085300 0.264448
0.085759 -0.085543 0.265153
0.087764 -0.086273 0.267364
0.097403 -0.094380 0.292424
0.098685 -0.094274 0.292028
0.100644 -0.094809 0.293612
0.102324 -0.095069 0.294340
0.103869 -0.095199 0.294656
0.104969 -0.094923 0.293711
0.106450 -0.094995 0.293836
0.107931 -0.095064 0.293945
0.109394 -0.095115 0.293994
0.110791 -0.095109 0.293857
0.112201 -0.095114 0.293747
0.113508 -0.095032 0.293362
0.115003 -0.095108 0.293456
0.116496 -0.095181 0.293530
0.117814 -0.095110 0.293156
0.119534 -0.095362 0.293766
0.121031 -0.095432 0.293806
0.122580 -0.095541 0.293956
0.124023 -0.095565 0.293835
0.125287 -0.095453 0.293287
0.126841 -0.095561 0.293404
0.128365 -0.095644 0.293435
0.129977 -0.095791 0.293648
0.131464 -0.095843 0.293560
0.133085 -0.095991 0.293751
0.134740 -0.096160 0.293994
0.136407 -0.096334 0.294238
0.137942 -0.096411 0.294175
0.139451 -0.096469 0.294038
0.141110 -0.096630 0.294197
0.142884 -0.096864 0.294566
0.144381 -0.096907 0.294337
0.146049 -0.097064 0.294436
0.147688 -0.097198 0.294450
0.149272 -0.097294 0.294329
0.150857 -0.097388 0.294184
0.152416 -0.097464 0.293964
0.153925 -0.097506 0.293625
0.155403 -0.097529 0.293205
0.156708 -0.097443 0.292438
-0.128621 -0.077113 0.237138
-0.128567 -0.077772 0.239543
-0.128188 -0.078245 0.241365
-0.127375 -0.078460 0.242378
-0.126866 -0.078866 0.243973
-0.125996 -0.079055 0.244881
-0.124962 -0.079143 0.245466
-0.124775 -0.079774 0.247726
-0.126720 -0.081794 0.254292
-0.142018 -0.092556 0.288070
-0.142298 -0.093644 0.291768
-0.138236 -0.091869 0.286525
-0.136967 -0.091933 0.287004
-0.135782 -0.092055 0.287651
-0.135096 -0.092522 0.289362
-0.133485 -0.092358 0.289092
-0.124381 -0.086953 0.272390
-0.122896 -0.086817 0.272169
-0.121737 -0.086910 0.272660
-0.125619 -0.092631 0.291172
-0.124801 -0.093048 0.292652
-0.123705 -0.093264 0.293494
-0.122389 -0.093318 0.293817
-0.121153 -0.093435 0.294328
-0.119790 -0.093455 0.294528
-0.118336 -0.093405 0.294496
-0.117114 -0.093539 0.295037
-0.115140 -0.093067 0.293661
-0.114097 -0.093347 0.294649
-0.112393 -0.093085 0.293919
-0.110997 -0.093076 0.293979
-0.109886 -0.093309 0.294797
-0.108509 -0.093319 0.294906
-0.107304 -0.093479 0.295482
-0.105967 -0.093526 0.295696
-0.104429 -0.093396 0.295342
-0.103342 -0.093670 0.296262
-0.101485 -0.093245 0.294964
-0.099576 -0.092760 0.293471
-0.097729 -0.092319 0.292113
-0.096364 -0.092328 0.292174
-0.095406 -0.092734 0.293483
-0.100382 -0.099003 0.313349
-0.098877 -0.098972 0.313269
-0.097117 -0.098682 0.312364
-0.095657 -0.098691 0.312403
-0.093503 -0.097975 0.310142
-0.091503 -0.097399 0.308322
-0.088946 -0.096202 0.304532
-0.087610 -0.096309 0.304864
-0.085616 -0.095683 0.302876
-0.086787 -0.098634 0.312205
-0.085416 -0.098747 0.312547
-0.085346 -0.100396 0.317745
-0.083944 -0.100509 0.318082
-0.082094 -0.100078 0.316695
-0.082150 -0.102000 0.322748
-0.079948 -0.101137 0.319989
-0.078936 -0.101776 0.321976
-0.077503 -0.101886 0.322290
-0.069241 -0.092843 0.293654
-0.067345 -0.092143 0.291404
-0.066225 -0.092496 0.292484
-0.065005 -0.092724 0.293165
-0.063571 -0.092648 0.292887
-0.062241 -0.092724 0.293084
-0.060945 -0.092855 0.293456
-0.059356 -0.092537 0.292408
-0.058119 -0.092765 0.293085
-0.056779 -0.092835 0.293260
-0.055261 -0.092610 0.292505
-0.053908 -0.092658 0.292611
-0.052522 -0.092652 0.292543
-0.051140 -0.092652 0.292496
-0.049699 -0.092541 0.292100
-0.048232 -0.092375 0.291527
-0.046840 -0.092347 0.291392
-0.045477 -0.092376 0.291436
-0.044113 -0.092406 0.291482
-0.042790 -0.092524 0.291806
-0.041419 -0.092546 0.291828
-0.040506 -0.093628 0.295191
-0.039137 -0.093694 0.295355
-0.037545 -0.093213 0.293790
-0.035811 -0.092327 0.290951
-0.034217 -0.091748 0.289082
-0.032869 -0.091806 0.289220
-0.029129 -0.084899 0.267422
-0.028287 -0.086192 0.271454
-0.026588 -0.084877 0.267274
-0.025172 -0.084374 0.265655
-0.023893 -0.084305 0.265402
-0.022690 -0.084511 0.266015
-0.021563 -0.085041 0.267648
-0.020402 -0.085496 0.269046
-0.019262 -0.086109 0.270942
-0.018168 -0.087023 0.273785
-0.016988 -0.087641 0.275699
-0.015662 -0.087543 0.275360
-0.014378 -0.087685 0.275780
-0.013163 -0.088313 0.277727
-0.011698 -0.087221 0.274267
-0.010397 -0.087240 0.274301
-0.009077 -0.087071 0.273750
-0.007724 -0.086483 0.271880
-0.006393 -0.085956 0.270202
-0.005096 -0.085735 0.269489
-0.003827 -0.085988 0.270269
-0.002555 -0.086402 0.271555
-0.001268 -0.086650 0.272322
0.000026 -0.086760 0.272656
0.001318 -0.086499 0.271824
0.002609 -0.086459 0.271689
0.003887 -0.086136 0.270666
0.005143 -0.085633 0.269078
0.006370 -0.084934 0.266879
0.007567 -0.084133 0.264358
0.008781 -0.083721 0.263063
0.010030 -0.083707 0.263017
0.011233 -0.083349 0.261895
0.012475 -0.083322 0.261813
0.013721 -0.083330 0.261840
0.014950 -0.083239 0.261560
0.016222 -0.083380 0.262011
0.017500 -0.083535 0.262504
0.018813 -0.083819 0.263404
0.020158 -0.084203 0.264623
0.021485 -0.084473 0.265481
0.022641 -0.084077 0.264249
0.023702 -0.083389 0.262100
0.024984 -0.083506 0.262483
0.026087 -0.083043 0.261044
0.027254 -0.082816 0.260344
0.028598 -0.083124 0.261328
0.029722 -0.082793 0.260305
0.031118 -0.083214 0.261648
0.032433 -0.083396 0.262238
0.033582 -0.083154 0.261496
0.034816 -0.083131 0.261443
0.036211 -0.083481 0.262565
0.037553 -0.083689 0.263239
0.038879 -0.083849 0.263763
0.040232 -0.084055 0.264434
0.041426 -0.083928 0.264054
0.042652 -0.083870 0.263893
0.043790 -0.083647 0.263212
0.044725 -0.083060 0.261387
0.045454 -0.082132 0.258487
0.046425 -0.081678 0.257079
0.047683 -0.081740 0.257292
0.048779 -0.081528 0.256645
0.050035 -0.081587 0.256848
0.051349 -0.081735 0.257332
0.052461 -0.081563 0.256806
0.053895 -0.081888 0.257844
0.055461 -0.082394 0.259453
0.057060 -0.082925 0.261140
0.059400 -0.084489 0.266077
0.061385 -0.085492 0.269248
0.063036 -0.085999 0.270857
0.064676 -0.086470 0.272348
0.066232 -0.086814 0.273437
0.067432 -0.086685 0.273038
0.068699 -0.086647 0.272921
0.069744 -0.086335 0.271939
0.070790 -0.086036 0.270995
0.071825 -0.085734 0.270038
0.072719 -0.085277 0.268594
0.073479 -0.084682 0.266710
0.074550 -0.084459 0.265995
0.075054 -0.083611 0.263312
0.075561 -0.082795 0.260723
0.076802 -0.082796 0.260707
0.077733 -0.082469 0.259654
0.078821 -0.082315 0.259141
0.080495 -0.082770 0.260540
0.082204 -0.083244 0.262000
0.083959 -0.083752 0.263558
0.085030 -0.083572 0.262948
0.086962 -0.084230 0.264972
0.097868 -0.093438 0.293880
0.099154 -0.093332 0.293482
0.100583 -0.093360 0.293503
0.102397 -0.093740 0.294623
0.103801 -0.093741 0.294543
0.105061 -0.093612 0.294053
0.106540 -0.093679 0.294170
0.107940 -0.093675 0.294060
0.109364 -0.093694 0.294011
0.110956 -0.093852 0.294396
0.112310 -0.093808 0.294138
0.113611 -0.093722 0.293739
0.114997 -0.093707 0.293558
0.116476 -0.093767 0.293603
0.117837 -0.093732 0.293340
0.119153 -0.093662 0.292961
0.120722 -0.093791 0.293194
0.122408 -0.094005 0.293686
0.123850 -0.094030 0.293575
0.125302 -0.094062 0.293478
0.126773 -0.094107 0.293410
0.128214 -0.094129 0.293259
0.129661 -0.094155 0.293110
0.131268 -0.094296 0.293305
0.132868 -0.094427 0.293461
0.134332 -0.094461 0.293300
0.136146 -0.094737 0.293878
0.137698 -0.094828 0.293866
0.139193 -0.094877 0.293712
0.140887 -0.095060 0.293958
0.142488 -0.095177 0.293982
0.144146 -0.095329 0.294100
0.145753 -0.095444 0.294090
0.147492 -0.095643 0.294318
0.149328 -0.095901 0.294707
0.150780 -0.095909 0.294312
0.152351 -0.095992 0.294128
0.154020 -0.096134 0.294104
0.155508 -0.096162 0.293711
0.156972 -0.096174 0.293248
-0.129647 -0.076565 0.239258
-0.129103 -0.076928 0.240764
-0.128537 -0.077283 0.242237
-0.127460 -0.077336 0.242747
-0.128255 -0.078537 0.246850
-0.126596 -0.078242 0.246244
-0.125384 -0.078222 0.246486
