ply
format ascii 1.0
element vertex 1680
property float x
property float y
property float z
end_header
0.074878 -0.119706 0.296663
0.076341 -0.119786 0.296794
0.077791 -0.119842 0.296862
0.079140 -0.119744 0.296545
0.080576 -0.119778 0.296552
0.082149 -0.120011 0.297046
0.083627 -0.120100 0.297179
0.085072 -0.120139 0.297182
0.086426 -0.120050 0.296868
0.087989 -0.120250 0.297260
0.089452 -0.120308 0.297296
0.090722 -0.120110 0.296695
0.092386 -0.120431 0.297369
0.093859 -0.120497 0.297409
0.095247 -0.120453 0.297169
0.096858 -0.120689 0.297615
0.098334 -0.120751 0.297625
0.099868 -0.120882 0.297799
0.101378 -0.120981 0.297884
0.102896 -0.121086 0.297979
0.104366 -0.121133 0.297924
0.105866 -0.121213 0.297940
0.107291 -0.121205 0.297732
0.108805 -0.121297 0.297764
0.110293 -0.121358 0.297707
0.111824 -0.121464 0.297752
0.113344 -0.121555 0.297752
0.114862 -0.121642 0.297733
0.116485 -0.121836 0.297965
0.117947 -0.121860 0.297770
0.119498 -0.121973 0.297782
0.121205 -0.122241 0.298160
0.122694 -0.122285 0.297979
0.124379 -0.122521 0.298255
0.125858 -0.122551 0.298014
0.127462 -0.122701 0.298053
0.129089 -0.122869 0.298123
0.130396 -0.122732 0.297437
0.132117 -0.122983 0.297677
0.133746 -0.123144 0.297684
0.134955 -0.122920 0.296744
0.136785 -0.123259 0.297148
0.138537 -0.123520 0.297346
0.139903 -0.123437 0.296697
0.141601 -0.123645 0.296728
0.143382 -0.123920 0.296901
0.145119 -0.124151 0.296948
0.146679 -0.124228 0.296604
0.148191 -0.124263 0.296137
0.149859 -0.124427 0.295955
0.151555 -0.124610 0.295794
0.153125 -0.124687 0.295358
0.154871 -0.124904 0.295226
0.156329 -0.124888 0.294515
0.158264 -0.125248 0.294662
0.159896 -0.125365 0.294207
0.161326 -0.125321 0.293345
-0.155283 -0.123407 0.299405
-0.153345 -0.123022 0.299014
-0.151849 -0.122989 0.299456
-0.150466 -0.123049 0.300101
-0.148781 -0.122859 0.300121
-0.147072 -0.122646 0.300063
-0.145324 -0.122397 0.299898
-0.143660 -0.122214 0.299875
-0.141764 -0.121828 0.299337
-0.139842 -0.121412 0.298705
-0.137987 -0.121046 0.298180
-0.136237 -0.120766 0.297849
-0.134639 -0.120615 0.297823
-0.132968 -0.120396 0.297612
-0.131242 -0.120122 0.297250
-0.129644 -0.119960 0.297153
-0.128004 -0.119756 0.296939
-0.126265 -0.119453 0.296466
-0.124801 -0.119407 0.296618
-0.123272 -0.119298 0.296600
-0.121814 -0.119255 0.296739
-0.120323 -0.119179 0.296783
-0.118642 -0.118910 0.296336
-0.117234 -0.118912 0.296555
-0.115795 -0.118883 0.296685
-0.114112 -0.118599 0.296170
-0.112619 -0.118508 0.296130
-0.111298 -0.118599 0.296534
-0.109895 -0.118603 0.296712
-0.108332 -0.118433 0.296447
-0.106912 -0.118417 0.296560
-0.105532 -0.118445 0.296775
-0.103948 -0.118242 0.296404
-0.102610 -0.118317 0.296723
-0.101164 -0.118269 0.296727
-0.099583 -0.118058 0.296316
-0.098084 -0.117941 0.296134
-0.096484 -0.117697 0.295624
-0.095129 -0.117750 0.295856
-0.093510 -0.117472 0.295252
-0.092038 -0.117373 0.295092
-0.090763 -0.117527 0.295559
-0.089347 -0.117500 0.295568
-0.087878 -0.117402 0.295394
-0.086619 -0.117585 0.295923
-0.085256 -0.117631 0.296103
-0.083867 -0.117644 0.296192
-0.082484 -0.117663 0.296296
-0.081129 -0.117727 0.296506
-0.079684 -0.117657 0.296377
-0.078221 -0.117560 0.296176
-0.076737 -0.117426 0.295876
-0.075277 -0.117326 0.295659
-0.073787 -0.117173 0.295305
-0.072383 -0.117154 0.295286
-0.071027 -0.117215 0.295465
-0.069542 -0.117060 0.295097
-0.068150 -0.117058 0.295112
-0.066773 -0.117083 0.295193
-0.065364 -0.117053 0.295131
-0.063979 -0.117064 0.295172
-0.062510 -0.116919 0.294816
-0.061065 -0.116814 0.294558
-0.059646 -0.116755 0.294416
-0.058226 -0.116692 0.294260
-0.056765 -0.116540 0.293880
-0.055414 -0.116613 0.294062
-0.054052 -0.116666 0.294194
-0.052641 -0.116615 0.294062
-0.051263 -0.116633 0.294104
-0.049915 -0.116725 0.294329
-0.048462 -0.116569 0.293929
-0.047058 -0.116527 0.293815
-0.045690 -0.116572 0.293918
-0.044295 -0.116551 0.293856
-0.042939 -0.116633 0.294050
-0.041541 -0.116603 0.293962
-0.040162 -0.116627 0.294010
-0.038812 -0.116740 0.294280
-0.037421 -0.116734 0.294250
-0.036069 -0.116854 0.294538
-0.034687 -0.116883 0.294597
-0.033290 -0.116860 0.294523
-0.031889 -0.116824 0.294416
-0.030472 -0.116723 0.294145
-0.029037 -0.116538 0.293662
-0.027651 -0.116542 0.293656
-0.026256 -0.116509 0.293553
-0.024858 -0.116453 0.293395
-0.023507 -0.116627 0.293818
-0.022126 -0.116665 0.293897
-0.020728 -0.116615 0.293754
-0.019337 -0.116599 0.293695
-0.017959 -0.116664 0.293842
-0.016563 -0.116619 0.293713
-0.015166 -0.116551 0.293527
-0.013782 -0.116586 0.293597
-0.012397 -0.116611 0.293644
-0.011002 -0.116543 0.293459
-0.009612 -0.116526 0.293399
-0.008226 -0.116543 0.293428
-0.006835 -0.116488 0.293275
-0.005456 -0.116682 0.293749
-0.004064 -0.116603 0.293537
-0.002677 -0.116693 0.293750
-0.001288 -0.116801 0.294010
0.000103 -0.116719 0.293790
0.001493 -0.116711 0.293758
0.002886 -0.116797 0.293963
0.004274 -0.116699 0.293705
0.005666 -0.116742 0.293801
0.007060 -0.116791 0.293915
0.008455 -0.116835 0.294015
0.009846 -0.116822 0.293973
0.011242 -0.116868 0.294078
0.012641 -0.116927 0.294216
0.014037 -0.116945 0.294254
0.015438 -0.117003 0.294390
0.016830 -0.116982 0.294330
0.018236 -0.117057 0.294510
0.019611 -0.116938 0.294203
0.021026 -0.117054 0.294486
0.022415 -0.117020 0.294394
0.023822 -0.117079 0.294534
0.025219 -0.117087 0.294544
0.026622 -0.117120 0.294621
0.028030 -0.117167 0.294731
0.029416 -0.117123 0.294611
0.030822 -0.117159 0.294695
0.032241 -0.117241 0.294891
0.033626 -0.117194 0.294764
0.035033 -0.117228 0.294840
0.036466 -0.117339 0.295108
0.037866 -0.117341 0.295103
0.039278 -0.117379 0.295188
0.040697 -0.117434 0.295316
0.042134 -0.117536 0.295558
0.043554 -0.117586 0.295671
0.044953 -0.117577 0.295633
0.046364 -0.117597 0.295667
0.047804 -0.117689 0.295884
0.049145 -0.117538 0.295486
0.050545 -0.117534 0.295456
0.051969 -0.117584 0.295561
0.053315 -0.117458 0.295223
0.054738 -0.117504 0.295316
0.056146 -0.117517 0.295322
0.057496 -0.117410 0.295026
0.058923 -0.117462 0.295128
0.060343 -0.117497 0.295185
0.061827 -0.117653 0.295544
0.063276 -0.117737 0.295720
0.064737 -0.117838 0.295936
0.066142 -0.117835 0.295888
0.067587 -0.117904 0.296017
0.069103 -0.118090 0.296438
0.070687 -0.118381 0.297120
0.072065 -0.118324 0.296923
0.073527 -0.118403 0.297068
0.075054 -0.118582 0.297457
0.076441 -0.118538 0.297285
0.077804 -0.118458 0.297018
0.079249 -0.118504 0.297064
0.080675 -0.118520 0.297029
0.082117 -0.118559 0.297048
0.083632 -0.118700 0.297320
0.085110 -0.118784 0.297443
0.086606 -0.118891 0.297618
0.088141 -0.119047 0.297912
0.089658 -0.119173 0.298126
0.091096 -0.119192 0.298066
0.092532 -0.119207 0.297991
0.094026 -0.119297 0.298096
0.095461 -0.119309 0.298002
0.096899 -0.119325 0.297910
0.098451 -0.119479 0.298156
0.099858 -0.119453 0.297949
0.101277 -0.119444 0.297776
0.102763 -0.119512 0.297787
0.104222 -0.119547 0.297709
0.105629 -0.119524 0.297477
0.107132 -0.119607 0.297504
0.108659 -0.119714 0.297580
0.110011 -0.119629 0.297171
0.111654 -0.119858 0.297533
0.113176 -0.119952 0.297550
0.114642 -0.119986 0.297409
0.116338 -0.120256 0.297843
0.117884 -0.120366 0.297870
0.119401 -0.120445 0.297809
0.120950 -0.120554 0.297810
0.122515 -0.120675 0.297831
0.124198 -0.120909 0.298116
0.125804 -0.121062 0.298191
0.127361 -0.121166 0.298130
0.128926 -0.121275 0.298069
0.130345 -0.121245 0.297652
0.131905 -0.121346 0.297543
0.133460 -0.121440 0.297400
0.134889 -0.121418 0.296959
0.136590 -0.121640 0.297097
0.138318 -0.121880 0.297263
0.139838 -0.121933 0.296955
0.141480 -0.122090 0.296883
0.143138 -0.122258 0.296816
0.144933 -0.122538 0.297001
0.146359 -0.122504 0.296403
0.147897 -0.122562 0.296009
0.149606 -0.122760 0.295931
0.151055 -0.122743 0.295309
0.152668 -0.122857 0.294980
0.154469 -0.123120 0.294981
0.156124 -0.123262 0.294665
0.157584 -0.123248 0.293951
0.159438 -0.123540 0.293936
0.161373 -0.123889 0.294023
-0.154309 -0.121165 0.297956
-0.153048 -0.121316 0.298854
-0.151787 -0.121468 0.299739
-0.150002 -0.121202 0.299569
-0.148426 -0.121100 0.299788
-0.146723 -0.120892 0.299723
-0.145047 -0.120702 0.299685
-0.143168 -0.120339 0.299196
-0.141305 -0.119981 0.298705
-0.139536 -0.119698 0.298379
-0.137755 -0.119397 0.297995
-0.136111 -0.119211 0.297879
-0.134410 -0.118970 0.297612
-0.132649 -0.118671 0.297185
-0.130837 -0.118319 0.296611
-0.129262 -0.118176 0.296547
-0.127676 -0.118020 0.296437
-0.126279 -0.118038 0.296752
-0.124690 -0.117874 0.296598
-0.123118 -0.117724 0.296466
-0.121646 -0.117666 0.296558
-0.120124 -0.117558 0.296512
-0.118505 -0.117352 0.296208
-0.117054 -0.117309 0.296306
-0.115597 -0.117259 0.296376
-0.114066 -0.117133 0.296244
-0.112618 -0.117089 0.296313
-0.111092 -0.116963 0.296163
-0.109712 -0.116989 0.296392
-0.108215 -0.116890 0.296294
-0.106716 -0.116785 0.296175
-0.105278 -0.116746 0.296215
-0.103820 -0.116683 0.296187
-0.102369 -0.116627 0.296170
-0.100839 -0.116477 0.295909
-0.099488 -0.116534 0.296164
-0.097954 -0.116374 0.295865
-0.096468 -0.116269 0.295696
-0.095058 -0.116253 0.295751
-0.093547 -0.116111 0.295477
-0.092090 -0.116033 0.295361
-0.090666 -0.115997 0.295345
-0.089263 -0.115984 0.295387
-0.087872 -0.115989 0.295465
-0.086455 -0.115957 0.295448
-0.085100 -0.116011 0.295643
-0.083720 -0.116031 0.295749
-0.082382 -0.116111 0.296002
-0.080972 -0.116091 0.295998
-0.079573 -0.116086 0.296027
-0.078181 -0.116092 0.296081
-0.076744 -0.116030 0.295956
-0.075331 -0.116003 0.295919
-0.073884 -0.115921 0.295739
-0.072444 -0.115848 0.295577
-0.071057 -0.115857 0.295623
-0.069601 -0.115755 0.295380
-0.068153 -0.115660 0.295153
-0.066702 -0.115556 0.294902
-0.065319 -0.115570 0.294949
-0.063873 -0.115469 0.294701
-0.062432 -0.115372 0.294459
-0.061030 -0.115346 0.294397
-0.059585 -0.115237 0.294121
-0.058240 -0.115318 0.294329
-0.056807 -0.115227 0.294095
-0.055477 -0.115344 0.294392
-0.054075 -0.115314 0.294311
-0.052720 -0.115386 0.294488
-0.051310 -0.115339 0.294360
-0.049915 -0.115323 0.294311
-0.048518 -0.115302 0.294247
-0.047075 -0.115167 0.293892
-0.045664 -0.115106 0.293725
-0.044288 -0.115130 0.293774
-0.042893 -0.115106 0.293699
-0.041504 -0.115097 0.293662
-0.040142 -0.115168 0.293826
-0.038746 -0.115139 0.293736
-0.037378 -0.115197 0.293868
-0.035978 -0.115154 0.293743
-0.034632 -0.115290 0.294073
-0.033241 -0.115281 0.294030
-0.031829 -0.115197 0.293798
-0.030439 -0.115186 0.293752
-0.029034 -0.115118 0.293562
-0.027670 -0.115214 0.293786
-0.026261 -0.115118 0.293525
-0.024868 -0.115089 0.293431
-0.023502 -0.115189 0.293669
-0.022118 -0.115210 0.293702
-0.020725 -0.115183 0.293616
-0.019333 -0.115160 0.293539
-0.017935 -0.115089 0.293341
-0.016556 -0.115147 0.293471
-0.015155 -0.115043 0.293189
-0.013767 -0.115030 0.293140
-0.012383 -0.115046 0.293165
-0.010999 -0.115071 0.293212
-0.009611 -0.115066 0.293183
-0.008223 -0.115049 0.293124
-0.006843 -0.115160 0.293392
-0.005460 -0.115269 0.293656
-0.004072 -0.115314 0.293757
-0.002683 -0.115361 0.293863
-0.001293 -0.115382 0.293904
0.000098 -0.115330 0.293759
0.001488 -0.115306 0.293686
0.002877 -0.115226 0.293470
0.004265 -0.115202 0.293398
0.005656 -0.115245 0.293497
0.007047 -0.115259 0.293520
0.008443 -0.115340 0.293718
0.009840 -0.115422 0.293918
0.011241 -0.115515 0.294145
0.012647 -0.115626 0.294419
0.014051 -0.115705 0.294611
0.015453 -0.115752 0.294724
0.016866 -0.115873 0.295023
0.018245 -0.115753 0.294710
0.019656 -0.115841 0.294927
0.021041 -0.115771 0.294743
0.022442 -0.115794 0.294795
0.023844 -0.115819 0.294852
0.025234 -0.115785 0.294757
0.026634 -0.115795 0.294777
0.028031 -0.115797 0.294776
0.029431 -0.115808 0.294797
0.030843 -0.115861 0.294924
0.032252 -0.115901 0.295019
0.033657 -0.115922 0.295066
0.035070 -0.115970 0.295182
0.036483 -0.116013 0.295283
0.037885 -0.116017 0.295283
0.039276 -0.115989 0.295204
0.040666 -0.115961 0.295122
0.042043 -0.115899 0.294954
0.043446 -0.115909 0.294968
0.044855 -0.115934 0.295021
0.046230 -0.115873 0.294851
0.047639 -0.115898 0.294902
0.049052 -0.115930 0.294968
0.050497 -0.116034 0.295216
0.051943 -0.116134 0.295453
0.053326 -0.116093 0.295329
0.054764 -0.116170 0.295504
0.056188 -0.116214 0.295596
0.057522 -0.116073 0.295212
0.058933 -0.116091 0.295232
0.060378 -0.116174 0.295415
0.061784 -0.116181 0.295403
0.063219 -0.116238 0.295515
0.064662 -0.116309 0.295662
0.066155 -0.116463 0.296017
0.067587 -0.116507 0.296090
0.068986 -0.116493 0.296010
0.070582 -0.116805 0.296758
0.072091 -0.116964 0.297114
0.073516 -0.116983 0.297110
0.074945 -0.117008 0.297118
0.076423 -0.117106 0.297309
0.077813 -0.117068 0.297152
0.079202 -0.117030 0.296990
0.080591 -0.116994 0.296828
0.081992 -0.116975 0.296708
0.083441 -0.117026 0.296757
0.084920 -0.117114 0.296900
0.086386 -0.117184 0.296989
0.087846 -0.117242 0.297044
0.089407 -0.117430 0.297425
0.090968 -0.117614 0.297787
0.092449 -0.117688 0.297868
0.093925 -0.117756 0.297925
0.095442 -0.117871 0.298098
0.096890 -0.117898 0.298041
0.098361 -0.117953 0.298049
0.099806 -0.117975 0.297966
0.101220 -0.117960 0.297784
0.102724 -0.118050 0.297859
0.104209 -0.118115 0.297863
0.105676 -0.118159 0.297805
0.107206 -0.118269 0.297910
0.108634 -0.118267 0.297722
0.110049 -0.118250 0.297486
0.111491 -0.118263 0.297319
0.113085 -0.118434 0.297540
0.114534 -0.118450 0.297363
0.116062 -0.118548 0.297381
0.117571 -0.118623 0.297332
0.119060 -0.118677 0.297218
0.120706 -0.118883 0.297475
0.122367 -0.119099 0.297745
0.124125 -0.119404 0.298225
0.125739 -0.119564 0.298330
0.127232 -0.119608 0.298130
0.128875 -0.119788 0.298260
0.130391 -0.119849 0.298077
0.131831 -0.119839 0.297704
0.133363 -0.119912 0.297523
0.134888 -0.119977 0.297307
0.136457 -0.120079 0.297167
0.138149 -0.120286 0.297269
0.139800 -0.120453 0.297257
0.141320 -0.120505 0.296940
0.143084 -0.120762 0.297109
0.144728 -0.120913 0.297000
0.146221 -0.120936 0.296554
0.147981 -0.121177 0.296623
0.149628 -0.121322 0.296432
0.151034 -0.121270 0.295739
0.152964 -0.121635 0.296040
0.154654 -0.121805 0.295837
0.156294 -0.121932 0.295505
0.157922 -0.122047 0.295116
0.159709 -0.122282 0.294988
0.161619 -0.122605 0.295042
-0.154350 -0.119730 0.298450
-0.152762 -0.119623 0.298697
-0.151582 -0.119836 0.299726
-0.149741 -0.119526 0.299427
-0.148088 -0.119362 0.299473
-0.146440 -0.119198 0.299500
-0.144746 -0.118994 0.299409
-0.142723 -0.118513 0.298600
-0.140983 -0.118259 0.298347
-0.139227 -0.117987 0.298030
-0.137574 -0.117797 0.297906
-0.135838 -0.117532 0.297575
-0.134386 -0.117510 0.297845
-0.132806 -0.117373 0.297812
-0.130854 -0.116903 0.296917
-0.129193 -0.116684 0.296648
-0.127913 -0.116809 0.297238
-0.126358 -0.116682 0.297180
-0.124657 -0.116417 0.296753
-0.123164 -0.116342 0.296804
-0.121745 -0.116336 0.297018
-0.120252 -0.116259 0.297040
-0.118315 -0.115746 0.295936
-0.116844 -0.115682 0.295972
-0.115449 -0.115692 0.296189
-0.113848 -0.115494 0.295863
-0.112407 -0.115456 0.295936
-0.110933 -0.115382 0.295911
-0.109601 -0.115456 0.296256
-0.108079 -0.115329 0.296078
-0.106611 -0.115258 0.296036
-0.105274 -0.115327 0.296349
-0.103742 -0.115183 0.296106
-0.102300 -0.115137 0.296105
-0.100951 -0.115194 0.296366
-0.099422 -0.115046 0.296091
-0.097813 -0.114800 0.295558
-0.096345 -0.114714 0.295432
-0.094947 -0.114711 0.295511
-0.093450 -0.114586 0.295274
-0.091963 -0.114470 0.295052
-0.090616 -0.114528 0.295273
-0.089315 -0.114646 0.295647
-0.087897 -0.114615 0.295630
-0.086448 -0.114543 0.295503
-0.085130 -0.114645 0.295820
-0.083716 -0.114620 0.295804
-0.082306 -0.114599 0.295795
-0.080796 -0.114435 0.295414
-0.079456 -0.114510 0.295646
-0.078075 -0.114529 0.295729
-0.076613 -0.114427 0.295498
-0.075207 -0.114407 0.295473
-0.073784 -0.114360 0.295376
-0.072402 -0.114376 0.295438
-0.070980 -0.114329 0.295335
-0.069564 -0.114290 0.295250
-0.068133 -0.114224 0.295091
-0.066732 -0.114206 0.295056
-0.065288 -0.114113 0.294823
-0.063878 -0.114076 0.294734
-0.062486 -0.114070 0.294722
-0.061061 -0.114005 0.294554
-0.059675 -0.114010 0.294566
-0.058272 -0.113981 0.294489
-0.056879 -0.113973 0.294463
-0.055493 -0.113976 0.294467
-0.054105 -0.113977 0.294460
-0.052715 -0.113975 0.294447
-0.051315 -0.113948 0.294366
-0.049908 -0.113905 0.294245
-0.048497 -0.113852 0.294095
-0.047127 -0.113892 0.294186
-0.045705 -0.113807 0.293951
-0.044317 -0.113806 0.293933
-0.042954 -0.113867 0.294075
-0.041566 -0.113868 0.294060
-0.040207 -0.113949 0.294254
-0.038802 -0.113902 0.294113
-0.037396 -0.113846 0.293951
-0.036011 -0.113856 0.293959
-0.034623 -0.113855 0.293935
-0.033248 -0.113900 0.294033
-0.031803 -0.113699 0.293494
-0.030434 -0.113763 0.293640
-0.029056 -0.113796 0.293705
-0.027676 -0.113827 0.293766
-0.026307 -0.113911 0.293962
-0.024915 -0.113895 0.293902
-0.023531 -0.113918 0.293940
-0.022162 -0.114023 0.294191
-0.020766 -0.113992 0.294094
-0.019361 -0.113902 0.293843
-0.017964 -0.113855 0.293703
-0.016572 -0.113830 0.293620
-0.015168 -0.113713 0.293300
-0.013776 -0.113679 0.293195
-0.012389 -0.113671 0.293155
-0.011003 -0.113683 0.293171
-0.009617 -0.113687 0.293164
-0.008232 -0.113715 0.293221
-0.006851 -0.113827 0.293495
-0.005467 -0.113912 0.293699
-0.004077 -0.113910 0.293679
-0.002689 -0.114019 0.293947
-0.001298 -0.114033 0.293970
0.000093 -0.113993 0.293855
0.001484 -0.113970 0.293783
0.002874 -0.113933 0.293675
0.004260 -0.113820 0.293373
0.005647 -0.113763 0.293217
0.007038 -0.113811 0.293330
0.008437 -0.113934 0.293638
0.009817 -0.113820 0.293336
0.011217 -0.113924 0.293594
0.012615 -0.113987 0.293749
0.014002 -0.113955 0.293658
0.015402 -0.114014 0.293803
0.016816 -0.114168 0.294195
0.018213 -0.114184 0.294228
0.019639 -0.114372 0.294707
0.021028 -0.114331 0.294596
0.022423 -0.114326 0.294579
0.023857 -0.114505 0.295033
0.025234 -0.114410 0.294783
0.026622 -0.114370 0.294675
0.028061 -0.114542 0.295114
0.029408 -0.114339 0.294585
0.030813 -0.114370 0.294660
0.032222 -0.114413 0.294764
0.033606 -0.114367 0.294642
0.035015 -0.114408 0.294742
0.036431 -0.114464 0.294878
0.037847 -0.114518 0.295011
0.039267 -0.114579 0.295161
0.040656 -0.114548 0.295075
0.042064 -0.114571 0.295126
0.043455 -0.114549 0.295061
0.044853 -0.114543 0.295036
0.046237 -0.114504 0.294925
0.047609 -0.114441 0.294750
0.049029 -0.114490 0.294863
0.050445 -0.114529 0.294950
0.051931 -0.114720 0.295427
0.053300 -0.114648 0.295227
0.054727 -0.114702 0.295348
0.056170 -0.114785 0.295542
0.057564 -0.114768 0.295478
0.058971 -0.114775 0.295472
0.060353 -0.114735 0.295344
0.061750 -0.114725 0.295292
0.063153 -0.114727 0.295268
0.064596 -0.114799 0.295422
0.066033 -0.114855 0.295535
0.067538 -0.115028 0.295944
0.068953 -0.115042 0.295940
0.070564 -0.115376 0.296757
0.072048 -0.115493 0.297014
0.073536 -0.115613 0.297275
0.074975 -0.115651 0.297323
0.076388 -0.115649 0.297264
0.077812 -0.115664 0.297243
0.079134 -0.115528 0.296833
0.080565 -0.115553 0.296833
0.081977 -0.115552 0.296761
0.083396 -0.115558 0.296704
0.084979 -0.115791 0.297222
0.086257 -0.115604 0.296660
0.087846 -0.115834 0.297164
0.089394 -0.116004 0.297508
0.090650 -0.115796 0.296877
0.092223 -0.115992 0.297279
0.093685 -0.116045 0.297304
0.095114 -0.116056 0.297219
0.096603 -0.116138 0.297311
0.098081 -0.116205 0.297356
0.099555 -0.116267 0.297381
0.101019 -0.116313 0.297362
0.102571 -0.116460 0.297589
0.104058 -0.116528 0.297612
0.105652 -0.116714 0.297924
0.107103 -0.116737 0.297817
0.108574 -0.116782 0.297754
0.110010 -0.116789 0.297588
0.111498 -0.116850 0.297549
0.112912 -0.116833 0.297304
0.114446 -0.116938 0.297362
0.115976 -0.117037 0.297391
0.117372 -0.117000 0.297067
0.118896 -0.117090 0.297055
0.120529 -0.117283 0.297294
0.122173 -0.117483 0.297538
0.123999 -0.117850 0.298194
0.125630 -0.118026 0.298351
0.127237 -0.118175 0.298430
0.128848 -0.118325 0.298496
0.130351 -0.118374 0.298293
0.131896 -0.118458 0.298168
0.133434 -0.118534 0.298007
0.134819 -0.118475 0.297490
0.136460 -0.118639 0.297519
0.138060 -0.118765 0.297435
0.139767 -0.118978 0.297553
0.141313 -0.119052 0.297304
0.143081 -0.119308 0.297494
0.144685 -0.119425 0.297313
0.146321 -0.119565 0.297172
0.147984 -0.119724 0.297057
0.149581 -0.119827 0.296782
0.151098 -0.119864 0.296319
0.152820 -0.120061 0.296231
0.154499 -0.120221 0.296025
0.156195 -0.120391 0.295818
0.157503 -0.120262 0.294850
0.159480 -0.120640 0.295098
0.161254 -0.120860 0.294927
-0.157797 -0.119780 0.302150
-0.154243 -0.118182 0.298644
-0.152294 -0.117796 0.298170
-0.151257 -0.118115 0.299461
-0.149442 -0.117826 0.299194
-0.147510 -0.117440 0.298658
-0.145982 -0.117370 0.298908
-0.144064 -0.116983 0.298329
-0.142286 -0.116703 0.298008
-0.140386 -0.116316 0.297395
-0.138658 -0.116065 0.297113
-0.136800 -0.115699 0.296520
-0.134988 -0.115366 0.295995
-0.133418 -0.115234 0.295971
-0.131828 -0.115082 0.295882
-0.130294 -0.114976 0.295899
-0.128779 -0.114885 0.295942
-0.127300 -0.114825 0.296053
-0.125847 -0.114787 0.296208
-0.124485 -0.114832 0.296569
-0.122891 -0.114662 0.296362
-0.121499 -0.114679 0.296626
-0.119957 -0.114553 0.296514
-0.118406 -0.114416 0.296359
-0.117047 -0.114463 0.296674
-0.115400 -0.114226 0.296243
-0.113932 -0.114163 0.296254
-0.112351 -0.113984 0.295955
-0.110770 -0.113801 0.295638
-0.109510 -0.113946 0.296166
-0.107918 -0.113746 0.295788
-0.106503 -0.113730 0.295882
-0.105189 -0.113823 0.296250
-0.103658 -0.113680 0.295998
-0.102296 -0.113721 0.296220
-0.100930 -0.113760 0.296428
-0.099418 -0.113631 0.296195
-0.097894 -0.113486 0.295913
-0.096391 -0.113363 0.295680
-0.094789 -0.113116 0.295121
-0.093310 -0.113012 0.294926
-0.091885 -0.112970 0.294891
-0.090489 -0.112965 0.294945
-0.089188 -0.113080 0.295307
-0.087789 -0.113071 0.295342
-0.086442 -0.113131 0.295554
-0.084990 -0.113053 0.295399
-0.083607 -0.113066 0.295480
-0.082246 -0.113111 0.295637
-0.080625 -0.112792 0.294841
-0.079268 -0.112839 0.294997
-0.077922 -0.112903 0.295195
-0.076542 -0.112918 0.295263
-0.075170 -0.112948 0.295363
-0.073782 -0.112954 0.295402
-0.072384 -0.112946 0.295396
-0.070927 -0.112841 0.295137
-0.069544 -0.112854 0.295183
-0.068084 -0.112740 0.294895
-0.066647 -0.112660 0.294693
-0.065260 -0.112662 0.294702
-0.063864 -0.112651 0.294676
-0.062464 -0.112630 0.294619
-0.061053 -0.112588 0.294510
-0.059667 -0.112593 0.294518
-0.058272 -0.112580 0.294478
-0.056863 -0.112539 0.294363
-0.055468 -0.112524 0.294315
-0.054077 -0.112518 0.294290
-0.052679 -0.112496 0.294221
-0.051272 -0.112452 0.294095
-0.049871 -0.112421 0.293999
-0.048485 -0.112422 0.293987
-0.047077 -0.112373 0.293843
-0.045714 -0.112429 0.293973
-0.044341 -0.112464 0.294045
-0.042982 -0.112538 0.294222
-0.041634 -0.112648 0.294490
-0.040180 -0.112468 0.293999
-0.038852 -0.112642 0.294435
-0.037471 -0.112668 0.294483
-0.035963 -0.112301 0.293501
-0.034635 -0.112488 0.293969
-0.033271 -0.112571 0.294167
-0.031814 -0.112332 0.293519
-0.030449 -0.112412 0.293708
-0.029078 -0.112475 0.293850
-0.027690 -0.112476 0.293833
-0.026294 -0.112441 0.293719
-0.024900 -0.112416 0.293634
-0.023520 -0.112451 0.293703
-0.022149 -0.112542 0.293920
-0.020756 -0.112523 0.293850
-0.019349 -0.112418 0.293557
-0.017970 -0.112475 0.293686
-0.016570 -0.112395 0.293458
-0.015181 -0.112390 0.293425
-0.013804 -0.112476 0.293631
-0.012414 -0.112472 0.293604
-0.011026 -0.112473 0.293589
-0.009646 -0.112587 0.293868
-0.008252 -0.112537 0.293722
-0.006864 -0.112572 0.293798
-0.005476 -0.112621 0.293911
-0.004086 -0.112646 0.293962
-0.002694 -0.112628 0.293901
-0.001303 -0.112619 0.293865
0.000089 -0.112644 0.293918
0.001479 -0.112577 0.293730
0.002870 -0.112550 0.293648
0.004261 -0.112563 0.293671
0.005652 -0.112568 0.293674
0.007043 -0.112573 0.293678
0.008443 -0.112689 0.293971
0.009842 -0.112761 0.294151
0.011235 -0.112757 0.294132
0.012634 -0.112813 0.294271
0.014031 -0.112830 0.294309
0.015429 -0.112857 0.294373
0.016822 -0.112844 0.294332
0.018245 -0.113017 0.294779
0.019630 -0.112952 0.294604
0.021019 -0.112911 0.294492
0.022435 -0.113013 0.294754
0.023828 -0.112994 0.294700
0.025233 -0.113032 0.294795
0.026626 -0.113011 0.294739
0.028025 -0.113019 0.294755
0.029436 -0.113071 0.294885
0.030818 -0.113010 0.294723
0.032230 -0.113061 0.294854
0.033640 -0.113104 0.294961
0.035026 -0.113061 0.294846
0.036437 -0.113100 0.294943
0.037877 -0.113225 0.295264
0.039282 -0.113237 0.295291
0.040679 -0.113227 0.295260
0.042101 -0.113285 0.295405
0.043516 -0.113322 0.295495
0.044941 -0.113381 0.295641
0.046339 -0.113370 0.295605
0.047734 -0.113352 0.295549
0.049143 -0.113367 0.295577
0.050599 -0.113486 0.295876
0.051987 -0.113451 0.295775
0.053396 -0.113463 0.295791
0.054786 -0.113434 0.295700
0.056238 -0.113533 0.295942
0.057590 -0.113429 0.295652
0.059008 -0.113455 0.295703
0.060443 -0.113514 0.295834
0.061810 -0.113443 0.295626
0.063163 -0.113353 0.295365
0.064550 -0.113325 0.295265
0.066123 -0.113617 0.295996
0.067346 -0.113309 0.295160
0.068914 -0.113582 0.295836
0.070602 -0.114037 0.296984
0.072068 -0.114123 0.297168
0.073428 -0.114041 0.296910
0.074882 -0.114106 0.297031
0.076348 -0.114184 0.297187
0.077695 -0.114086 0.296877
0.079072 -0.114036 0.296689
0.080550 -0.114128 0.296869
0.081980 -0.114153 0.296867
0.083518 -0.114323 0.297241
0.085075 -0.114512 0.297660
0.086576 -0.114622 0.297867
0.087939 -0.114548 0.297593
0.089443 -0.114657 0.297790
0.090953 -0.114772 0.297994
0.092297 -0.114674 0.297644
0.093711 -0.114667 0.297522
0.095188 -0.114735 0.297590
0.096625 -0.114754 0.297524
0.098050 -0.114758 0.297414
0.099548 -0.114845 0.297513
0.101062 -0.114949 0.297649
0.102472 -0.114933 0.297468
0.104007 -0.115055 0.297637
0.105443 -0.115067 0.297511
0.106978 -0.115184 0.297653
0.108501 -0.115285 0.297744
0.109834 -0.115185 0.297308
0.111341 -0.115267 0.297332
0.112941 -0.115442 0.297589
0.114397 -0.115467 0.297448
0.115828 -0.115466 0.297234
0.117482 -0.115686 0.297576
0.119004 -0.115771 0.297560
0.120490 -0.115819 0.297442
0.122204 -0.116084 0.297866
0.123912 -0.116335 0.298245
0.125458 -0.116431 0.298211
0.127159 -0.116667 0.298525
0.128739 -0.116788 0.298530
0.130266 -0.116858 0.298394
0.131823 -0.116953 0.298308
0.133307 -0.116982 0.298038
0.134747 -0.116972 0.297655
0.136388 -0.117135 0.297695
0.138073 -0.117332 0.297806
0.139657 -0.117439 0.297673
0.141354 -0.117639 0.297757
0.143073 -0.117852 0.297855
0.144614 -0.117915 0.297556
0.146248 -0.118052 0.297425
0.147936 -0.118230 0.297374
0.149478 -0.118289 0.297004
0.151143 -0.118442 0.296849
0.152704 -0.118512 0.296460
0.154261 -0.118577 0.296038
0.156031 -0.118803 0.295990
0.157265 -0.118620 0.294902
0.158998 -0.118814 0.294721
0.160879 -0.119113 0.294772
-0.157864 -0.118344 0.302681
-0.153541 -0.116185 0.297669
-0.151976 -0.116093 0.297921
-0.150875 -0.116355 0.299067
-0.149049 -0.116060 0.298760
-0.147395 -0.115894 0.298766
-0.145664 -0.115662 0.298585
-0.143914 -0.115412 0.298338
-0.141955 -0.114987 0.297622
-0.140450 -0.114926 0.297830
-0.138491 -0.114488 0.297045
-0.136841 -0.114299 0.296888
-0.135022 -0.113964 0.296340
-0.133482 -0.113860 0.296376
-0.132055 -0.113850 0.296645
-0.130480 -0.113713 0.296569
-0.128749 -0.113434 0.296110
-0.127276 -0.113379 0.296226
-0.125903 -0.113414 0.296563
-0.124366 -0.113300 0.296500
-0.122838 -0.113192 0.296441
-0.121370 -0.113137 0.296512
-0.119885 -0.113065 0.296529
-0.118348 -0.112942 0.296401
-0.116766 -0.112772 0.296142
-0.115367 -0.112777 0.296333
-0.113774 -0.112591 0.296011
-0.112322 -0.112541 0.296041
-0.110883 -0.112504 0.296093
-0.109183 -0.112197 0.295430
-0.107892 -0.112309 0.295860
-0.106446 -0.112259 0.295859
-0.105040 -0.112251 0.295960
-0.103682 -0.112295 0.296191
-0.102222 -0.112229 0.296125
-0.100774 -0.112174 0.296082
-0.099344 -0.112138 0.296084
-0.097857 -0.112037 0.295906
-0.096349 -0.111907 0.295648
-0.094855 -0.111790 0.295417
-0.093401 -0.111718 0.295301
-0.091959 -0.111658 0.295212
-0.090493 -0.111568 0.295035
-0.089098 -0.111563 0.295081
-0.087718 -0.111577 0.295174
-0.086299 -0.111542 0.295128
-0.084854 -0.111471 0.294986
-0.083564 -0.111605 0.295384
-0.082099 -0.111506 0.295158
-0.080535 -0.111267 0.294558
-0.079232 -0.111387 0.294907
-0.077920 -0.111498 0.295227
-0.076407 -0.111320 0.294778
-0.075069 -0.111395 0.294996
-0.073763 -0.111522 0.295351
-0.072353 -0.111494 0.295291
-0.071013 -0.111575 0.295514
-0.069555 -0.111470 0.295246
-0.068122 -0.111401 0.295068
-0.066743 -0.111421 0.295125
-0.065288 -0.111310 0.294833
-0.063888 -0.111293 0.294786
-0.062429 -0.111168 0.294453
-0.061036 -0.111158 0.294420
-0.059601 -0.111070 0.294181
-0.058247 -0.111132 0.294336
-0.056831 -0.111076 0.294180
-0.055431 -0.111051 0.294102
-0.054074 -0.111111 0.294248
-0.052659 -0.111054 0.294082
-0.051315 -0.111146 0.294311
-0.049933 -0.111160 0.294331
-0.048501 -0.111060 0.294048
-0.047127 -0.111089 0.294108
-0.045766 -0.111155 0.294264
-0.044367 -0.111127 0.294170
-0.042971 -0.111107 0.294095
-0.041594 -0.111138 0.294155
-0.040196 -0.111110 0.294061
-0.038779 -0.111028 0.293821
-0.037394 -0.111033 0.293813
-0.035917 -0.110757 0.293061
-0.034560 -0.110844 0.293266
-0.033214 -0.110973 0.293585
-0.031778 -0.110802 0.293110
-0.030423 -0.110908 0.293368
-0.029058 -0.110990 0.293561
-0.027664 -0.110963 0.293469
-0.026284 -0.110993 0.293523
-0.024865 -0.110850 0.293124
-0.023501 -0.110952 0.293371
-0.022124 -0.110999 0.293473
-0.020718 -0.110903 0.293199
-0.019343 -0.110969 0.293351
-0.017955 -0.110963 0.293314
-0.016573 -0.110999 0.293390
-0.015183 -0.110982 0.293325
-0.013798 -0.111005 0.293368
-0.012403 -0.110937 0.293170
-0.011027 -0.111048 0.293446
-0.009650 -0.111182 0.293782
-0.008254 -0.111114 0.293586
-0.006874 -0.111262 0.293959
-0.005488 -0.111379 0.294252
-0.004093 -0.111318 0.294077
-0.002702 -0.111384 0.294237
-0.001308 -0.111311 0.294032
0.000084 -0.111196 0.293715
0.001474 -0.111148 0.293577
0.002864 -0.111123 0.293499
0.004255 -0.111141 0.293535
0.005645 -0.111140 0.293523
0.007037 -0.111167 0.293587
0.008432 -0.111219 0.293714
0.009834 -0.111335 0.294012
0.011231 -0.111378 0.294119
0.012633 -0.111447 0.294294
0.014037 -0.111522 0.294486
0.015435 -0.111540 0.294530
0.016853 -0.111686 0.294910
0.018260 -0.111743 0.295054
0.019641 -0.111645 0.294792
0.021071 -0.111816 0.295241
0.022448 -0.111704 0.294942
0.023841 -0.111680 0.294876
0.025243 -0.111696 0.294916
0.026613 -0.111580 0.294607
0.027983 -0.111473 0.294322
0.029383 -0.111489 0.294362
0.030771 -0.111463 0.294291
0.032165 -0.111458 0.294276
0.033578 -0.111515 0.294423
0.034950 -0.111436 0.294214
0.036371 -0.111515 0.294419
0.037858 -0.111783 0.295125
0.039264 -0.111800 0.295167
0.040673 -0.111826 0.295234
0.042126 -0.111964 0.295593
0.043533 -0.111977 0.295623
0.044945 -0.112000 0.295679
0.046345 -0.111995 0.295660
0.047762 -0.112028 0.295741
0.049155 -0.112005 0.295673
0.050536 -0.111955 0.295532
0.051975 -0.112034 0.295731
0.053339 -0.111952 0.295504
0.054839 -0.112151 0.296016
0.056210 -0.112083 0.295825
0.057600 -0.112056 0.295737
0.058998 -0.112044 0.295690
0.060375 -0.111994 0.295539
0.061816 -0.112062 0.295700
0.063121 -0.111885 0.295210
0.064527 -0.111893 0.295205
0.066045 -0.112090 0.295698
0.067710 -0.112522 0.296809
0.069024 -0.112364 0.296363
0.070513 -0.112494 0.296669
0.071937 -0.112516 0.296691
0.073344 -0.112511 0.296638
0.074726 -0.112468 0.296483
0.076052 -0.112343 0.296108
0.077552 -0.112477 0.296411
0.078801 -0.112248 0.295755
0.080180 -0.112208 0.295593
0.081693 -0.112354 0.295916
0.082996 -0.112211 0.295475
0.084557 -0.112416 0.295946
0.086115 -0.112610 0.296385
0.087791 -0.112949 0.297199
0.089128 -0.112849 0.296852
0.090590 -0.112907 0.296919
0.092244 -0.113199 0.297595
0.093652 -0.113185 0.297459
0.095110 -0.113231 0.297477
0.096520 -0.113219 0.297335
0.097959 -0.113240 0.297277
0.099444 -0.113314 0.297350
0.100916 -0.113370 0.297368
0.102154 -0.113167 0.296701
0.103750 -0.113358 0.297062
0.105394 -0.113597 0.297540
0.106713 -0.113485 0.297089
0.108310 -0.113666 0.297401
0.109918 -0.113854 0.297719
0.111330 -0.113837 0.297497
0.112855 -0.113934 0.297562
0.114339 -0.113988 0.297504
0.115886 -0.114103 0.297598
0.117387 -0.114169 0.297554
0.118846 -0.114194 0.297393
0.120356 -0.114267 0.297347
0.122007 -0.114470 0.297627
0.123568 -0.114584 0.297666
0.125341 -0.114891 0.298193
0.126962 -0.115052 0.298329
0.128520 -0.115153 0.298297
0.130140 -0.115307 0.298388
0.131674 -0.115383 0.298262
0.133094 -0.115358 0.297864
0.134714 -0.115504 0.297892
0.136262 -0.115586 0.297741
0.137924 -0.115762 0.297815
0.139701 -0.116030 0.298110
0.141231 -0.116089 0.297850
0.143026 -0.116362 0.298120
0.144702 -0.116535 0.298114
0.146378 -0.116703 0.298077
0.148109 -0.116911 0.298122
0.149656 -0.116972 0.297769
0.151311 -0.117114 0.297603
0.152870 -0.117180 0.297221
0.154496 -0.117296 0.296940
0.156047 -0.117352 0.296487
0.157275 -0.117167 0.295399
0.158926 -0.117298 0.295082
0.160954 -0.117702 0.295422
-0.156599 -0.115923 0.300644
-0.153463 -0.114669 0.297889
-0.151609 -0.114358 0.297560
-0.150293 -0.114452 0.298264
-0.148824 -0.114430 0.298648
-0.146995 -0.114128 0.298282
-0.145370 -0.113980 0.298300
-0.143756 -0.113839 0.298319
-0.141575 -0.113240 0.297121
-0.139884 -0.113026 0.296915
-0.138117 -0.112746 0.296520
-0.136286 -0.112407 0.295953
-0.134782 -0.112333 0.296072
-0.132884 -0.111926 0.295297
-0.131476 -0.111928 0.295587
-0.130045 -0.111911 0.295814
-0.128540 -0.111828 0.295856
-0.127130 -0.111828 0.296106
-0.125709 -0.111818 0.296318
-0.124260 -0.111782 0.296452
-0.122771 -0.111709 0.296476
-0.121351 -0.111698 0.296656
-0.119685 -0.111459 0.296217
-0.118211 -0.111395 0.296235
-0.116705 -0.111298 0.296158
-0.115137 -0.111139 0.295906
-0.113820 -0.111222 0.296288
-0.112373 -0.111179 0.296327
-0.110843 -0.111051 0.296133
-0.109423 -0.111032 0.296220
-0.108036 -0.111045 0.296387
-0.106523 -0.110929 0.296200
-0.105054 -0.110856 0.296122
-0.103634 -0.110834 0.296173
-0.102222 -0.110819 0.296237
-0.100782 -0.110774 0.296213
-0.099320 -0.110703 0.296113
-0.097814 -0.110581 0.295873
-0.096332 -0.110482 0.295688
-0.094837 -0.110365 0.295450
-0.093477 -0.110405 0.295625
-0.091977 -0.110278 0.295348
-0.090579 -0.110271 0.295390
-0.089104 -0.110169 0.295170
-0.087750 -0.110216 0.295345
-0.086435 -0.110314 0.295653
-0.084557 -0.109686 0.294010
-0.083180 -0.109696 0.294074
-0.081903 -0.109842 0.294498
-0.080504 -0.109827 0.294488
-0.079036 -0.109714 0.294212
-0.077750 -0.109855 0.294613
-0.076459 -0.109996 0.295009
-0.075023 -0.109928 0.294843
-0.073682 -0.110000 0.295048
-0.072351 -0.110089 0.295298
-0.070928 -0.110039 0.295172
-0.069551 -0.110061 0.295236
-0.068187 -0.110104 0.295353
-0.066756 -0.110040 0.295182
-0.065321 -0.109966 0.294982
-0.063933 -0.109969 0.294986
-0.062466 -0.109833 0.294614
-0.061020 -0.109731 0.294332
-0.059651 -0.109763 0.294409
-0.058239 -0.109719 0.294279
-0.056878 -0.109769 0.294400
-0.055455 -0.109699 0.294200
-0.054062 -0.109687 0.294153
-0.052723 -0.109787 0.294402
-0.051328 -0.109774 0.294351
-0.049964 -0.109826 0.294471
-0.048607 -0.109900 0.294648
-0.047193 -0.109843 0.294476
-0.045824 -0.109891 0.294582
-0.044383 -0.109765 0.294222
-0.042983 -0.109736 0.294122
-0.041581 -0.109700 0.294001
-0.040163 -0.109616 0.293754
-0.038751 -0.109545 0.293539
-0.037368 -0.109554 0.293538
-0.035989 -0.109577 0.293577
-0.034598 -0.109562 0.293511
-0.033227 -0.109613 0.293623
-0.031842 -0.109621 0.293622
-0.030461 -0.109644 0.293656
-0.029107 -0.109768 0.293965
-0.027719 -0.109772 0.293950
-0.026334 -0.109790 0.293976
-0.024927 -0.109716 0.293753
-0.023550 -0.109769 0.293873
-0.022172 -0.109827 0.294004
-0.020768 -0.109756 0.293791
-0.019376 -0.109741 0.293730
-0.018000 -0.109821 0.293921
-0.016601 -0.109762 0.293743
-0.015203 -0.109706 0.293571
-0.013820 -0.109749 0.293666
-0.012422 -0.109678 0.293459
-0.011045 -0.109799 0.293763
-0.009658 -0.109832 0.293834
-0.008268 -0.109848 0.293859
-0.006883 -0.109939 0.294088
-0.005496 -0.110057 0.294386
-0.004102 -0.110033 0.294308
-0.002706 -0.109939 0.294041
-0.001314 -0.109990 0.294164
0.000079 -0.110012 0.294212
0.001470 -0.109825 0.293700
0.002862 -0.109843 0.293735
0.004257 -0.109929 0.293955
0.005647 -0.109882 0.293819
0.007040 -0.109897 0.293852
0.008435 -0.109921 0.293906
0.009836 -0.110021 0.294167
0.011231 -0.110023 0.294165
0.012629 -0.110060 0.294259
0.014035 -0.110148 0.294489
0.015432 -0.110157 0.294508
0.016832 -0.110183 0.294574
0.018236 -0.110227 0.294688
0.019637 -0.110251 0.294748
0.021040 -0.110279 0.294822
0.022421 -0.110199 0.294606
0.023821 -0.110210 0.294633
0.025216 -0.110202 0.294609
0.026564 -0.109998 0.294065
0.027981 -0.110088 0.294303
0.029371 -0.110069 0.294252
0.030738 -0.109965 0.293975
0.032167 -0.110085 0.294296
0.033551 -0.110047 0.294192
0.034960 -0.110089 0.294304
0.036363 -0.110112 0.294365
0.037817 -0.110278 0.294808
0.039274 -0.110442 0.295247
0.040694 -0.110496 0.295390
0.042126 -0.110578 0.295606
0.043525 -0.110567 0.295576
0.044925 -0.110563 0.295563
0.046322 -0.110550 0.295525
0.047688 -0.110466 0.295296
0.049111 -0.110515 0.295422
0.050511 -0.110510 0.295402
0.051906 -0.110495 0.295356
0.053334 -0.110550 0.295496
0.054768 -0.110614 0.295658
0.056286 -0.110839 0.296248
0.057549 -0.110565 0.295502
0.059021 -0.110694 0.295835
0.060469 -0.110773 0.296029
0.061773 -0.110592 0.295530
0.063096 -0.110450 0.295131
0.064594 -0.110616 0.295554
0.065978 -0.110583 0.295441
0.067246 -0.110360 0.294820
0.068951 -0.110850 0.296102
0.070378 -0.110882 0.296157
0.071916 -0.111082 0.296659
0.073274 -0.111003 0.296412
0.074608 -0.110893 0.296079
0.076090 -0.111001 0.296324
0.077439 -0.110915 0.296049
0.078786 -0.110829 0.295771
0.080197 -0.110834 0.295732
0.081765 -0.111053 0.296261
0.083391 -0.111342 0.296970
0.084873 -0.111430 0.297142
0.086293 -0.111437 0.297092
0.087722 -0.111455 0.297067
0.089182 -0.111511 0.297136
0.090629 -0.111549 0.297157
0.092093 -0.111606 0.297219
0.093626 -0.111743 0.297493
0.094998 -0.111688 0.297248
0.096448 -0.111725 0.297242
0.097991 -0.111866 0.297506
0.099472 -0.111933 0.297569
0.101051 -0.112108 0.297910
0.102508 -0.112143 0.297876
0.103927 -0.112137 0.297723
0.105532 -0.112328 0.298089
0.107006 -0.112378 0.298070
0.108476 -0.112422 0.298029
0.109877 -0.112394 0.297788
0.111436 -0.112525 0.297962
0.112913 -0.112572 0.297903
0.114304 -0.112533 0.297610
0.115910 -0.112704 0.297863
0.117430 -0.112788 0.297874
0.118927 -0.112848 0.297814
0.120401 -0.112884 0.297681
0.121971 -0.113010 0.297772
0.123566 -0.113154 0.297901
0.125243 -0.113370 0.298207
0.126749 -0.113428 0.298085
0.128298 -0.113522 0.298046
0.129937 -0.113693 0.298196
0.131453 -0.113753 0.298043
0.132971 -0.113814 0.297876
0.134589 -0.113959 0.297916
0.136125 -0.114031 0.297750
0.137809 -0.114224 0.297886
0.139464 -0.114389 0.297931
0.141272 -0.114676 0.298276
0.142864 -0.114782 0.298134
0.144561 -0.114970 0.298185
0.146380 -0.115250 0.298453
0.147912 -0.115300 0.298109
0.149415 -0.115327 0.297685
0.150995 -0.115413 0.297391
0.152530 -0.115462 0.296981
0.154070 -0.115515 0.296557
0.155677 -0.115615 0.296233
0.156870 -0.115409 0.295101
0.158603 -0.115601 0.294960
0.160218 -0.115703 0.294565
-0.156166 -0.114133 0.300185
-0.153075 -0.112925 0.297494
-0.151307 -0.112680 0.297314
-0.150047 -0.112812 0.298111
-0.148469 -0.112706 0.298260
-0.146704 -0.112454 0.298006
-0.145118 -0.112336 0.298088
-0.143308 -0.112041 0.297683
-0.141602 -0.111822 0.297464
-0.139405 -0.111208 0.296174
-0.137931 -0.111163 0.296387
-0.136224 -0.110927 0.296075
-0.134418 -0.110606 0.295521
-0.132911 -0.110526 0.295598
-0.131197 -0.110271 0.295193
-0.129699 -0.110195 0.295252
-0.128402 -0.110288 0.295756
-0.126892 -0.110199 0.295761
-0.125422 -0.110144 0.295844
-0.124099 -0.110219 0.296265
-0.122559 -0.110099 0.296154
-0.121009 -0.109968 0.296004
-0.119619 -0.109982 0.296231
-0.117939 -0.109725 0.295721
-0.116396 -0.109592 0.295537
-0.115121 -0.109711 0.296022
-0.113252 -0.109260 0.294960
-0.111942 -0.109344 0.295333
-0.110644 -0.109442 0.295739
-0.109071 -0.109267 0.295399
-0.107766 -0.109360 0.295774
-0.106394 -0.109386 0.295964
-0.105038 -0.109430 0.296193
-0.103499 -0.109282 0.295897
-0.102091 -0.109270 0.295962
-0.100755 -0.109336 0.296233
-0.099263 -0.109232 0.296039
-0.097776 -0.109131 0.295845
-0.096333 -0.109078 0.295776
-0.094790 -0.108908 0.295383
-0.093389 -0.108897 0.295420
-0.091944 -0.108835 0.295310
-0.090515 -0.108790 0.295243
-0.089190 -0.108872 0.295515
-0.087845 -0.108931 0.295720
-0.086448 -0.108927 0.295750
-0.085028 -0.108892 0.295692
-0.083725 -0.109010 0.296045
-0.082202 -0.108840 0.295613
-0.080561 -0.108505 0.294730
-0.079151 -0.108476 0.294672
-0.077781 -0.108501 0.294759
-0.076347 -0.108436 0.294597
-0.074937 -0.108403 0.294522
-0.073565 -0.108426 0.294591
-0.072221 -0.108492 0.294778
-0.070803 -0.108447 0.294659
-0.069419 -0.108454 0.294680
-0.068067 -0.108511 0.294836
-0.066579 -0.108350 0.294394
-0.065204 -0.108370 0.294445
-0.063835 -0.108402 0.294522
-0.062416 -0.108347 0.294364
-0.060983 -0.108265 0.294132
-0.059602 -0.108276 0.294148
-0.058207 -0.108261 0.294092
-0.056844 -0.108305 0.294198
-0.055455 -0.108300 0.294166
-0.054069 -0.108303 0.294157
-0.052691 -0.108321 0.294187
-0.051353 -0.108426 0.294450
-0.049973 -0.108445 0.294481
-0.048611 -0.108504 0.294619
-0.047178 -0.108406 0.294329
-0.045773 -0.108368 0.294202
-0.044426 -0.108468 0.294449
-0.042956 -0.108266 0.293876
-0.041573 -0.108278 0.293883
-0.040240 -0.108422 0.294250
-0.038812 -0.108317 0.293936
-0.037453 -0.108399 0.294133
-0.036030 -0.108297 0.293830
-0.034622 -0.108234 0.293632
-0.033243 -0.108261 0.293681
-0.031848 -0.108234 0.293581
-0.030432 -0.108132 0.293278
-0.029058 -0.108180 0.293383
-0.027710 -0.108331 0.293765
-0.026328 -0.108357 0.293812
-0.024940 -0.108364 0.293804
-0.023573 -0.108466 0.294056
-0.022201 -0.108556 0.294277
-0.020823 -0.108624 0.294438
-0.019423 -0.108589 0.294318
-0.018038 -0.108633 0.294414
-0.016639 -0.108593 0.294285
-0.015235 -0.108505 0.294026
-0.013859 -0.108629 0.294340
-0.012447 -0.108465 0.293877
-0.011063 -0.108537 0.294053
-0.009679 -0.108624 0.294269
-0.008279 -0.108542 0.294028
-0.006893 -0.108638 0.294273
-0.005502 -0.108688 0.294391
-0.004108 -0.108691 0.294386
-0.002714 -0.108696 0.294385
-0.001319 -0.108663 0.294280
0.000075 -0.108673 0.294296
0.001469 -0.108651 0.294224
0.002861 -0.108580 0.294021
0.004258 -0.108688 0.294303
0.005659 -0.108798 0.294591
0.007054 -0.108791 0.294565
0.008448 -0.108758 0.294467
0.009858 -0.108917 0.294892
0.011246 -0.108819 0.294619
0.012634 -0.108747 0.294419
0.014041 -0.108838 0.294660
0.015434 -0.108808 0.294575
0.016814 -0.108698 0.294274
0.018217 -0.108744 0.294395
0.019611 -0.108733 0.294363
0.020967 -0.108528 0.293809
0.022374 -0.108594 0.293985
0.023764 -0.108576 0.293935
0.025126 -0.108437 0.293560
0.026565 -0.108628 0.294077
0.027981 -0.108712 0.294306
0.029378 -0.108715 0.294315
0.030785 -0.108754 0.294421
0.032204 -0.108831 0.294631
0.033623 -0.108902 0.294824
0.035003 -0.108841 0.294662
0.036427 -0.108920 0.294877
0.037836 -0.108948 0.294955
0.039268 -0.109040 0.295205
0.040688 -0.109092 0.295347
0.042095 -0.109106 0.295385
0.043533 -0.109198 0.295633
0.044935 -0.109196 0.295628
0.046322 -0.109160 0.295531
0.047718 -0.109144 0.295485
0.049057 -0.109004 0.295104
0.050567 -0.109241 0.295742
0.051963 -0.109225 0.295695
0.053267 -0.109022 0.295139
0.054868 -0.109420 0.296211
0.056167 -0.109212 0.295640
0.057622 -0.109310 0.295896
0.058927 -0.109127 0.295388
0.060370 -0.109198 0.295571
0.061840 -0.109318 0.295880
0.063112 -0.109088 0.295242
0.064525 -0.109106 0.295272
0.065922 -0.109097 0.295229
0.067305 -0.109065 0.295119
0.068701 -0.109056 0.295071
0.070135 -0.109106 0.295180
0.071635 -0.109254 0.295550
0.073234 -0.109545 0.296305
0.074516 -0.109360 0.295771
0.076015 -0.109493 0.296092
0.077533 -0.109649 0.296472
0.078875 -0.109555 0.296172
0.080321 -0.109607 0.296264
0.081779 -0.109671 0.296386
0.083232 -0.109727 0.296482
0.084729 -0.109839 0.296724
0.086150 -0.109849 0.296687
0.087685 -0.110003 0.297033
0.089068 -0.109964 0.296855
0.090515 -0.110003 0.296882
0.092004 -0.110091 0.297038
0.093460 -0.110139 0.297078
0.094822 -0.110075 0.296812
0.096229 -0.110064 0.296685
0.097701 -0.110127 0.296750
0.099104 -0.110112 0.296600
0.100532 -0.110125 0.296517
0.102010 -0.110190 0.296569
0.103502 -0.110270 0.296654
0.105101 -0.110459 0.297025
0.106560 -0.110498 0.296987
0.108190 -0.110710 0.297406
0.109758 -0.110854 0.297633
0.111186 -0.110855 0.297469
0.112784 -0.111024 0.297745
0.114186 -0.110997 0.297489
0.115621 -0.111003 0.297313
0.117176 -0.111123 0.297430
0.118768 -0.111274 0.297623
0.120181 -0.111256 0.297351
0.121743 -0.111375 0.297437
0.123315 -0.111499 0.297525
0.124783 -0.111528 0.297349
0.126510 -0.111784 0.297767
0.128023 -0.111849 0.297661
0.129575 -0.111945 0.297626
0.131222 -0.112120 0.297788
0.132715 -0.112161 0.297582
0.134376 -0.112341 0.297730
0.135958 -0.112453 0.297681
0.137640 -0.112643 0.297826
0.139451 -0.112935 0.298220
0.141037 -0.113040 0.298106
0.142735 -0.113230 0.298200
0.144548 -0.113508 0.298506
0.146220 -0.113670 0.298486
0.147768 -0.113734 0.298190
0.149271 -0.113762 0.297780
0.150935 -0.113910 0.297666
0.152442 -0.113939 0.297217
0.153900 -0.113931 0.296649
0.155643 -0.114131 0.296602
0.156781 -0.113888 0.295380
0.158223 -0.113868 0.294713
0.160332 -0.114324 0.295249
-0.155497 -0.112181 0.299256
-0.152880 -0.111329 0.297459
-0.151002 -0.111006 0.297049
-0.149725 -0.111121 0.297794
-0.148280 -0.111113 0.298193
-0.146583 -0.110915 0.298064
-0.145080 -0.110861 0.298304
-0.143201 -0.110516 0.297744
-0.141298 -0.110146 0.297099
-0.139681 -0.109993 0.297026
-0.137491 -0.109382 0.295697
-0.135832 -0.109185 0.295471
-0.134299 -0.109086 0.295498
-0.132569 -0.108823 0.295068
-0.131105 -0.108775 0.295208
-0.129628 -0.108717 0.295306
-0.128168 -0.108670 0.295427
-0.126776 -0.108681 0.295691
-0.125309 -0.108629 0.295773
-0.123898 -0.108623 0.295972
-0.122495 -0.108625 0.296180
-0.120956 -0.108505 0.296048
-0.119426 -0.108390 0.295920
-0.118029 -0.108395 0.296108
-0.116526 -0.108302 0.296022
-0.115016 -0.108200 0.295901
-0.113636 -0.108219 0.296104
-0.112285 -0.108267 0.296377
-0.110713 -0.108100 0.296053
-0.109048 -0.107838 0.295462
-0.107861 -0.108047 0.296154
-0.106324 -0.107907 0.295884
-0.104798 -0.107774 0.295625
-0.103493 -0.107868 0.295983
-0.102034 -0.107802 0.295895
-0.100598 -0.107760 0.295866
-0.099165 -0.107719 0.295836
-0.097717 -0.107661 0.295751
-0.096232 -0.107560 0.295545
-0.094733 -0.107439 0.295278
-0.093271 -0.107359 0.295117
-0.091867 -0.107344 0.295129
-0.090416 -0.107272 0.294981
-0.088996 -0.107236 0.294928
-0.087631 -0.107266 0.295052
-0.086235 -0.107258 0.295067
-0.084797 -0.107198 0.294933
-0.083418 -0.107211 0.294998
-0.082058 -0.107249 0.295130
-0.080496 -0.107020 0.294521
-0.079168 -0.107100 0.294758
-0.077810 -0.107142 0.294890
-0.076348 -0.107040 0.294620
-0.074997 -0.107092 0.294772
-0.073674 -0.107186 0.295038
-0.072332 -0.107258 0.295237
-0.070945 -0.107264 0.295255
-0.069600 -0.107334 0.295445
-0.068051 -0.107086 0.294758
-0.066652 -0.107070 0.294709
-0.065173 -0.106921 0.294291
-0.063759 -0.106875 0.294152
-0.062381 -0.106889 0.294179
-0.060989 -0.106879 0.294139
-0.059582 -0.106843 0.294023
-0.058239 -0.106922 0.294223
-0.056939 -0.107086 0.294656
-0.055491 -0.106972 0.294324
-0.054162 -0.107089 0.294624
-0.052823 -0.107190 0.294880
-0.051389 -0.107101 0.294612
-0.050048 -0.107204 0.294871
-0.048648 -0.107185 0.294795
-0.047064 -0.106747 0.293563
-0.045594 -0.106549 0.292994
-0.044406 -0.107017 0.294253
-0.042933 -0.106809 0.293655
-0.041509 -0.106712 0.293362
-0.040205 -0.106928 0.293928
-0.038825 -0.106950 0.293960
-0.037452 -0.106994 0.294052
-0.036076 -0.107030 0.294124
-0.034660 -0.106950 0.293876
-0.033287 -0.106998 0.293979
-0.031894 -0.106987 0.293920
-0.030484 -0.106912 0.293688
-0.029088 -0.106885 0.293586
-0.027717 -0.106949 0.293734
-0.026329 -0.106951 0.293714
-0.024933 -0.106920 0.293601
-0.023550 -0.106946 0.293646
-0.022177 -0.107024 0.293837
-0.020773 -0.106954 0.293618
-0.019395 -0.107011 0.293751
-0.018015 -0.107075 0.293903
-0.016625 -0.107077 0.293887
-0.015242 -0.107132 0.294015
-0.013854 -0.107161 0.294073
-0.012450 -0.107058 0.293768
-0.011075 -0.107214 0.294178
-0.009691 -0.107314 0.294432
-0.008289 -0.107220 0.294157
-0.006905 -0.107354 0.294505
-0.005515 -0.107461 0.294784
-0.004117 -0.107411 0.294631
-0.002720 -0.107361 0.294480
-0.001324 -0.107309 0.294324
