ply
format ascii 1.0
element vertex 1679
property float x
property float y
property float z
end_header
0.109075 -0.082302 0.293821
0.110269 -0.082148 0.293195
0.111808 -0.082252 0.293483
0.113306 -0.082323 0.293647
0.114620 -0.082261 0.293329
0.115961 -0.082218 0.293074
0.117574 -0.082368 0.293496
0.118887 -0.082307 0.293158
0.120363 -0.082358 0.293212
0.121852 -0.082417 0.293285
0.123279 -0.082433 0.293198
0.124707 -0.082449 0.293101
0.126088 -0.082435 0.292886
0.127495 -0.082437 0.292722
0.129000 -0.082502 0.292768
0.130426 -0.082516 0.292624
0.131782 -0.082485 0.292310
0.133328 -0.082572 0.292404
0.135088 -0.082789 0.292946
0.136729 -0.082929 0.293203
0.138404 -0.083087 0.293509
0.140106 -0.083257 0.293844
0.141800 -0.083419 0.294137
0.143545 -0.083608 0.294510
0.144690 -0.083447 0.293635
0.146397 -0.083610 0.293888
0.148230 -0.083841 0.294362
0.150081 -0.084078 0.294836
0.151632 -0.084143 0.294695
0.152753 -0.083971 0.293705
0.154432 -0.084107 0.293771
0.156006 -0.084182 0.293611
-0.144380 -0.074904 0.268186
-0.143226 -0.074972 0.268785
-0.143396 -0.075741 0.271884
-0.143390 -0.076429 0.274687
-0.153114 -0.082365 0.296361
-0.150508 -0.081717 0.294352
-0.148979 -0.081647 0.294409
-0.147234 -0.081456 0.294014
-0.146021 -0.081559 0.294665
-0.144683 -0.081594 0.295056
-0.143009 -0.081437 0.294744
-0.141610 -0.081437 0.294982
-0.139992 -0.081308 0.294746
-0.138642 -0.081335 0.295060
-0.137202 -0.081309 0.295171
-0.135383 -0.081055 0.294443
-0.128885 -0.077966 0.283397
-0.130127 -0.079544 0.289301
-0.141768 -0.087579 0.318702
-0.139987 -0.087406 0.318236
-0.138658 -0.087515 0.318787
-0.126631 -0.080800 0.294460
-0.124012 -0.080005 0.291689
-0.122875 -0.080161 0.292371
-0.121647 -0.080258 0.292836
-0.120144 -0.080176 0.292635
-0.118941 -0.080293 0.293156
-0.117404 -0.080186 0.292849
-0.116026 -0.080186 0.292925
-0.114581 -0.080139 0.292826
-0.113138 -0.080093 0.292720
-0.111851 -0.080157 0.293011
-0.110515 -0.080188 0.293172
-0.109093 -0.080155 0.293099
-0.107683 -0.080132 0.293051
-0.106359 -0.080172 0.293232
-0.105018 -0.080201 0.293365
-0.103624 -0.080189 0.293343
-0.102079 -0.080059 0.292884
-0.100711 -0.080066 0.292922
-0.099247 -0.079996 0.292670
-0.097385 -0.079599 0.291220
-0.095720 -0.079354 0.290322
-0.102887 -0.086529 0.316566
-0.101532 -0.086643 0.316972
-0.100649 -0.087169 0.318880
-0.098521 -0.086616 0.316839
-0.096922 -0.086519 0.316460
-0.094296 -0.085489 0.312663
-0.090751 -0.083579 0.305647
-0.088625 -0.082935 0.303259
-0.089479 -0.085105 0.311157
-0.088127 -0.085213 0.311513
-0.086312 -0.084871 0.310219
-0.084824 -0.084843 0.310071
-0.083731 -0.085217 0.311392
-0.082047 -0.084992 0.310517
-0.080322 -0.084717 0.309458
-0.079270 -0.085152 0.310995
-0.077755 -0.085099 0.310741
-0.076131 -0.084922 0.310038
-0.074758 -0.085023 0.310345
-0.068701 -0.079695 0.290839
-0.067493 -0.079890 0.291488
-0.066149 -0.079928 0.291567
-0.064836 -0.080007 0.291792
-0.063508 -0.080070 0.291958
-0.062153 -0.080101 0.292008
-0.060789 -0.080121 0.292017
-0.059428 -0.080147 0.292044
-0.058045 -0.080144 0.291968
-0.056695 -0.080187 0.292057
-0.055251 -0.080097 0.291661
-0.053885 -0.080117 0.291666
-0.052529 -0.080155 0.291738
-0.051160 -0.080174 0.291740
-0.049799 -0.080206 0.291788
-0.048503 -0.080348 0.292238
-0.047152 -0.080405 0.292380
-0.045807 -0.080477 0.292574
-0.044539 -0.080694 0.293296
-0.043130 -0.080658 0.293100
-0.040756 -0.078758 0.286135
-0.040339 -0.080637 0.292897
-0.039416 -0.081605 0.296349
-0.038039 -0.081667 0.296512
-0.035427 -0.078984 0.286709
-0.033307 -0.077225 0.280268
-0.031998 -0.077279 0.280406
-0.029021 -0.073135 0.265318
-0.027942 -0.073615 0.267008
-0.026538 -0.073241 0.265604
-0.025134 -0.072833 0.264074
-0.023823 -0.072667 0.263426
-0.022593 -0.072739 0.263642
-0.021414 -0.072998 0.264539
-0.020262 -0.073386 0.265903
-0.019089 -0.073742 0.267152
-0.017923 -0.074181 0.268701
-0.016633 -0.074137 0.268505
-0.015370 -0.074209 0.268730
-0.014176 -0.074667 0.270354
-0.012853 -0.074461 0.269575
-0.011482 -0.073906 0.267536
-0.010137 -0.073402 0.265684
-0.008851 -0.073243 0.265080
-0.007556 -0.072934 0.263938
-0.006292 -0.072868 0.263678
-0.005039 -0.072933 0.263892
-0.003764 -0.072622 0.262751
-0.002526 -0.073058 0.264309
-0.001264 -0.073016 0.264144
-0.000004 -0.073514 0.265934
0.001282 -0.074508 0.269519
0.002584 -0.074973 0.271194
0.003881 -0.075026 0.271377
0.005185 -0.075165 0.271877
0.006463 -0.074940 0.271060
0.007751 -0.074883 0.270855
0.009040 -0.074849 0.270732
0.010302 -0.074635 0.269962
0.011529 -0.074232 0.268512
0.012760 -0.073941 0.267466
0.014118 -0.074370 0.269028
0.015425 -0.074481 0.269440
0.016654 -0.074226 0.268532
0.018036 -0.074641 0.270049
0.019361 -0.074780 0.270569
0.020466 -0.074103 0.268137
0.021712 -0.073988 0.267740
0.023215 -0.074712 0.270385
0.024300 -0.074087 0.268147
0.025095 -0.072683 0.263087
0.025928 -0.071518 0.258898
0.027178 -0.071556 0.259062
0.028477 -0.071715 0.259664
0.029685 -0.071639 0.259420
0.030964 -0.071736 0.259802
0.032237 -0.071812 0.260107
0.033506 -0.071872 0.260357
0.034781 -0.071941 0.260642
0.035977 -0.071847 0.260335
0.037169 -0.071750 0.260020
0.038570 -0.072052 0.261150
0.040784 -0.073806 0.267545
0.042026 -0.073747 0.267369
0.043248 -0.073657 0.267082
0.044375 -0.073416 0.266248
0.045574 -0.073304 0.265878
0.046747 -0.073157 0.265386
0.047748 -0.072756 0.263970
0.048769 -0.072405 0.262734
0.049875 -0.072194 0.262008
0.051350 -0.072514 0.263210
0.052691 -0.072634 0.263685
0.054071 -0.072802 0.264330
0.055684 -0.073269 0.266063
0.057022 -0.073360 0.266433
0.058632 -0.073790 0.268031
0.060423 -0.074425 0.270372
0.062028 -0.074809 0.271803
0.063452 -0.074963 0.272397
0.064810 -0.075035 0.272691
0.066016 -0.074931 0.272345
0.067249 -0.074861 0.272122
0.068195 -0.074480 0.270764
0.068932 -0.073889 0.268642
0.069713 -0.073366 0.266767
0.070287 -0.072649 0.264179
0.070986 -0.072082 0.262138
0.071757 -0.071608 0.260431
0.072122 -0.070751 0.257329
0.073245 -0.070653 0.256987
0.074252 -0.070449 0.256254
0.075286 -0.070277 0.255635
0.076866 -0.070611 0.256855
0.078522 -0.071005 0.258288
0.080547 -0.071713 0.260865
0.082364 -0.072219 0.262699
0.083786 -0.072368 0.263231
0.086269 -0.073415 0.267028
0.096258 -0.080727 0.293605
0.097531 -0.080625 0.293212
0.098873 -0.080581 0.293026
0.099887 -0.080276 0.291883
0.101992 -0.080843 0.293908
0.103019 -0.080552 0.292808
0.104726 -0.080794 0.293637
0.106007 -0.080705 0.293260
0.107461 -0.080747 0.293356
0.108797 -0.080701 0.293123
0.110134 -0.080657 0.292892
0.111671 -0.080759 0.293184
0.113115 -0.080792 0.293218
0.114554 -0.080821 0.293229
0.115988 -0.080845 0.293217
0.117617 -0.081003 0.293684
0.119092 -0.081052 0.293746
0.120461 -0.081029 0.293539
0.121963 -0.081095 0.293645
0.123315 -0.081061 0.293382
0.124748 -0.081080 0.293302
0.126207 -0.081115 0.293270
0.127522 -0.081058 0.292895
0.128956 -0.081077 0.292787
0.130330 -0.081058 0.292531
0.131931 -0.081179 0.292768
0.133303 -0.081159 0.292485
0.134894 -0.081270 0.292664
0.136690 -0.081501 0.293264
0.138397 -0.081675 0.293644
0.140103 -0.081845 0.293996
0.141458 -0.081809 0.293594
0.143052 -0.081910 0.293669
0.144576 -0.081969 0.293581
0.146044 -0.081996 0.293362
0.147679 -0.082115 0.293457
0.149465 -0.082315 0.293826
0.151304 -0.082539 0.294264
0.152418 -0.082368 0.293274
0.154001 -0.082451 0.293172
0.155797 -0.082646 0.293447
-0.141317 -0.072048 0.262678
-0.143014 -0.073567 0.268566
-0.142588 -0.074012 0.270525
-0.143194 -0.075006 0.274481
-0.153940 -0.081378 0.298136
-0.150110 -0.080093 0.293742
-0.148827 -0.080154 0.294269
-0.147454 -0.080168 0.294610
-0.145686 -0.079966 0.294138
-0.144796 -0.080246 0.295431
-0.142820 -0.079924 0.294493
-0.141284 -0.079845 0.294435
-0.139959 -0.079885 0.294804
-0.138373 -0.079775 0.294609
-0.136640 -0.079576 0.294076
-0.135283 -0.079596 0.294337
-0.128309 -0.076277 0.282233
-0.143237 -0.086045 0.318557
-0.141909 -0.086151 0.319122
-0.140352 -0.086120 0.319165
-0.139022 -0.086228 0.319717
-0.125584 -0.078747 0.292107
-0.123971 -0.078597 0.291670
-0.122749 -0.078694 0.292142
-0.121560 -0.078815 0.292694
-0.120194 -0.078823 0.292818
-0.118910 -0.078885 0.293137
-0.117542 -0.078893 0.293248
-0.116019 -0.078795 0.292957
-0.114594 -0.078763 0.292905
-0.113232 -0.078774 0.293003
-0.111825 -0.078753 0.292978
-0.110463 -0.078764 0.293068
-0.109154 -0.078814 0.293293
-0.107706 -0.078763 0.293138
-0.106465 -0.078864 0.293545
-0.105137 -0.078903 0.293713
-0.103719 -0.078875 0.293627
-0.102228 -0.078790 0.293321
-0.100683 -0.078660 0.292845
-0.099433 -0.078760 0.293222
-0.097652 -0.078436 0.292017
-0.095712 -0.077974 0.290292
-0.100990 -0.083465 0.310721
-0.100937 -0.084645 0.315099
-0.100057 -0.085157 0.316987
-0.098230 -0.084867 0.315882
-0.096817 -0.084930 0.316092
-0.091641 -0.081644 0.303830
-0.090277 -0.081703 0.304018
-0.088804 -0.081665 0.303838
-0.089478 -0.083631 0.311113
-0.088126 -0.083738 0.311470
-0.086521 -0.083604 0.310925
-0.085388 -0.083930 0.312085
-0.083803 -0.083815 0.311609
-0.082435 -0.083917 0.311932
-0.080902 -0.083851 0.311631
-0.079413 -0.083831 0.311497
-0.077781 -0.083654 0.310781
-0.076315 -0.083654 0.310718
-0.074939 -0.083754 0.311026
-0.068464 -0.078046 0.289769
-0.067814 -0.078880 0.292801
-0.066378 -0.078817 0.292504
-0.064987 -0.078804 0.292392
-0.063643 -0.078850 0.292496
-0.062295 -0.078894 0.292591
-0.060879 -0.078850 0.292361
-0.059511 -0.078869 0.292360
-0.058126 -0.078865 0.292278
-0.056683 -0.078781 0.291898
-0.055283 -0.078755 0.291733
-0.053896 -0.078745 0.291627
-0.052487 -0.078703 0.291399
-0.051101 -0.078693 0.291295
-0.049777 -0.078781 0.291550
-0.048404 -0.078794 0.291530
-0.047047 -0.078837 0.291618
-0.045712 -0.078918 0.291849
-0.044320 -0.078903 0.291729
-0.043073 -0.079156 0.292595
-0.040734 -0.077350 0.285854
-0.039673 -0.077932 0.287940
-0.039627 -0.080618 0.297800
-0.038242 -0.080680 0.297964
-0.035371 -0.077489 0.286119
-0.033695 -0.076769 0.283398
-0.031045 -0.073676 0.271926
-0.029081 -0.072014 0.265739
-0.027949 -0.072353 0.266936
-0.026525 -0.071933 0.265337
-0.025164 -0.071653 0.264253
-0.023850 -0.071483 0.263581
-0.022617 -0.071551 0.263784
-0.021415 -0.071730 0.264399
-0.020244 -0.072043 0.265509
-0.019072 -0.072395 0.266765
-0.017863 -0.072646 0.267651
-0.016628 -0.072819 0.268250
-0.015359 -0.072863 0.268373
-0.014123 -0.073084 0.269154
-0.012835 -0.073057 0.269021
-0.011519 -0.072845 0.268208
-0.010226 -0.072744 0.267808
-0.008895 -0.072310 0.266185
-0.007604 -0.072102 0.265393
-0.006343 -0.072159 0.265583
-0.005068 -0.072042 0.265131
-0.003814 -0.072258 0.265908
-0.002553 -0.072492 0.266751
-0.001282 -0.072591 0.267101
-0.000007 -0.072828 0.267960
0.001272 -0.072857 0.268058
0.002563 -0.073168 0.269195
0.003879 -0.073769 0.271399
0.005134 -0.073183 0.269238
0.006419 -0.073174 0.269202
0.007774 -0.073840 0.271656
0.009050 -0.073665 0.271011
0.010255 -0.073034 0.268695
0.011544 -0.073069 0.268831
0.012866 -0.073289 0.269646
0.014150 -0.073270 0.269587
0.015380 -0.072996 0.268594
0.016741 -0.073338 0.269866
0.018112 -0.073673 0.271112
0.019282 -0.073202 0.269398
0.020600 -0.073312 0.269824
0.021784 -0.072964 0.268564
0.023145 -0.073212 0.269499
0.024432 -0.073213 0.269526
0.025088 -0.071417 0.262942
0.025902 -0.070221 0.258562
0.027194 -0.070369 0.259138
0.028438 -0.070388 0.259235
0.029627 -0.070274 0.258846
0.030963 -0.070502 0.259719
0.032204 -0.070506 0.259766
0.033481 -0.070585 0.260093
0.034747 -0.070636 0.260313
0.036028 -0.070712 0.260629
0.037201 -0.070580 0.260180
0.038743 -0.071131 0.262252
0.040551 -0.072124 0.265949
0.041808 -0.072103 0.265915
0.043100 -0.072143 0.266102
0.044188 -0.071850 0.265060
0.045380 -0.071737 0.264685
0.046458 -0.071455 0.263685
0.047734 -0.071482 0.263827
0.048801 -0.071206 0.262847
0.049939 -0.071042 0.262285
0.051515 -0.071495 0.263997
0.052902 -0.071671 0.264687
0.054227 -0.071756 0.265041
0.055843 -0.072213 0.266770
0.057204 -0.072328 0.267235
0.058764 -0.072683 0.268587
0.060440 -0.073164 0.270403
0.062055 -0.073552 0.271875
0.063511 -0.073741 0.272608
0.064725 -0.073646 0.272293
0.065985 -0.073606 0.272180
0.067123 -0.073434 0.271576
0.068143 -0.073142 0.270526
0.069053 -0.072744 0.269085
0.069758 -0.072149 0.266911
0.070387 -0.071499 0.264529
0.071265 -0.071120 0.263150
0.072134 -0.070744 0.261782
0.072712 -0.070101 0.259420
0.073929 -0.070084 0.259373
0.075268 -0.070184 0.259753
0.076569 -0.070243 0.259983
0.078166 -0.070568 0.261195
0.080212 -0.071283 0.263846
0.082238 -0.071958 0.266343
0.084062 -0.072438 0.268119
0.085897 -0.072913 0.269870
0.087635 -0.073293 0.271269
0.095741 -0.078911 0.292045
0.097007 -0.078810 0.291654
0.098503 -0.078897 0.291951
0.100178 -0.079123 0.292758
0.101588 -0.079136 0.292773
0.103138 -0.079256 0.293180
0.104423 -0.079172 0.292826
0.106022 -0.079325 0.293341
0.107305 -0.079241 0.292975
0.108650 -0.079204 0.292777
0.110133 -0.079268 0.292944
0.111469 -0.079225 0.292712
0.112951 -0.079285 0.292854
0.114478 -0.079376 0.293100
0.116053 -0.079497 0.293451
0.117554 -0.079565 0.293600
0.119154 -0.079697 0.293978
0.120455 -0.079629 0.293609
0.121963 -0.079698 0.293733
0.123336 -0.079678 0.293525
0.124839 -0.079741 0.293612
0.126156 -0.079686 0.293255
0.127387 -0.079577 0.292694
0.128933 -0.079666 0.292847
0.130463 -0.079743 0.292946
0.131749 -0.079671 0.292489
0.133326 -0.079774 0.292662
0.134996 -0.079930 0.293021
0.136870 -0.080203 0.293791
0.138499 -0.080327 0.294006
0.139986 -0.080368 0.293902
0.141509 -0.080428 0.293857
0.142983 -0.080460 0.293693
0.144482 -0.080504 0.293561
0.146085 -0.080606 0.293622
0.147602 -0.080658 0.293489
0.149439 -0.080882 0.293966
0.150916 -0.080909 0.293709
0.152220 -0.080844 0.293098
0.153815 -0.080933 0.293032
0.155365 -0.080997 0.292855
-0.143774 -0.072012 0.267423
-0.142796 -0.072163 0.268327
-0.142171 -0.072498 0.269900
-0.142417 -0.073287 0.273154
-0.152953 -0.079435 0.296395
-0.150061 -0.078658 0.293807
-0.148450 -0.078545 0.293679
-0.146591 -0.078297 0.293033
-0.145626 -0.078527 0.294160
-0.144021 -0.078413 0.293987
-0.142419 -0.078298 0.293798
-0.141075 -0.078325 0.294126
-0.139555 -0.078253 0.294072
-0.138280 -0.078319 0.294527
-0.136452 -0.078069 0.293781
-0.135408 -0.078268 0.294713
-0.134180 -0.078364 0.295248
-0.130036 -0.076740 0.289290
-0.142274 -0.084853 0.320039
-0.140825 -0.084890 0.320332
-0.139492 -0.084998 0.320886
-0.125236 -0.077147 0.291371
-0.123696 -0.077043 0.291093
-0.122489 -0.077146 0.291589
-0.121209 -0.077205 0.291912
-0.119950 -0.077279 0.292281
-0.118575 -0.077279 0.292366
-0.117150 -0.077246 0.292318
-0.115814 -0.077272 0.292485
-0.114480 -0.077300 0.292653
-0.113046 -0.077261 0.292560
-0.111796 -0.077348 0.292938
-0.110376 -0.077317 0.292865
-0.109095 -0.077385 0.293160
-0.107824 -0.077462 0.293483
-0.106518 -0.077515 0.293709
-0.105095 -0.077484 0.293610
-0.103712 -0.077482 0.293617
-0.101904 -0.077158 0.292397
-0.100625 -0.077231 0.292679
-0.099386 -0.077337 0.293083
-0.097649 -0.077054 0.292003
-0.095991 -0.076826 0.291130
-0.101239 -0.082197 0.311472
-0.100740 -0.082994 0.314471
-0.099228 -0.082965 0.314340
-0.097615 -0.082852 0.313883
-0.092701 -0.079889 0.302628
-0.091816 -0.080360 0.304381
-0.089467 -0.079545 0.301258
-0.091100 -0.082301 0.311655
-0.089478 -0.082159 0.311073
-0.088156 -0.082292 0.311532
-0.086491 -0.082104 0.310768
-0.084911 -0.081992 0.310293
-0.083553 -0.082094 0.310623
-0.082258 -0.082263 0.311206
-0.080752 -0.082223 0.310996
-0.079605 -0.082554 0.312186
-0.077816 -0.082218 0.310854
-0.076180 -0.082036 0.310099
-0.074807 -0.082135 0.310406
-0.069276 -0.077581 0.293132
-0.067462 -0.077089 0.291207
-0.066118 -0.077125 0.291279
-0.064818 -0.077216 0.291553
-0.063541 -0.077338 0.291945
-0.062179 -0.077360 0.291959
-0.060807 -0.077370 0.291928
-0.059449 -0.077398 0.291964
-0.058063 -0.077392 0.291868
-0.056651 -0.077350 0.291638
-0.055252 -0.077323 0.291465
-0.053869 -0.077318 0.291376
-0.052500 -0.077335 0.291368
-0.051131 -0.077352 0.291360
-0.049792 -0.077417 0.291532
-0.048408 -0.077413 0.291446
-0.047055 -0.077459 0.291549
-0.045731 -0.077560 0.291858
-0.044426 -0.077698 0.292308
-0.042275 -0.076319 0.287053
-0.041102 -0.076672 0.288313
-0.040009 -0.077204 0.290246
-0.039489 -0.078919 0.296627
-0.038109 -0.078980 0.296791
-0.035338 -0.076050 0.285718
-0.033525 -0.075032 0.281831
-0.030884 -0.071999 0.270382
-0.029091 -0.070764 0.265691
-0.027928 -0.071021 0.266601
-0.026497 -0.070588 0.264924
-0.025154 -0.070358 0.264009
-0.023854 -0.070231 0.263484
-0.022562 -0.070115 0.263003
-0.021374 -0.070326 0.263750
-0.020223 -0.070693 0.265082
-0.019053 -0.071039 0.266334
-0.017888 -0.071457 0.267862
-0.016623 -0.071505 0.268001
-0.015439 -0.071941 0.269601
-0.014148 -0.071915 0.269466
-0.012843 -0.071801 0.269007
-0.011535 -0.071649 0.268405
-0.010223 -0.071426 0.267541
-0.008920 -0.071213 0.266714
-0.007607 -0.070837 0.265283
-0.006343 -0.070858 0.265338
-0.005088 -0.071020 0.265925
-0.003812 -0.070894 0.265433
-0.002550 -0.071029 0.265922
-0.001285 -0.071331 0.267039
-0.000010 -0.071594 0.268009
0.001273 -0.071817 0.268833
0.002561 -0.071918 0.269204
0.003862 -0.072202 0.270260
0.005147 -0.072119 0.269948
0.006408 -0.071805 0.268768
0.007545 -0.070434 0.263637
0.008755 -0.070036 0.262153
0.009963 -0.069726 0.260997
0.011200 -0.069667 0.260781
0.012408 -0.069453 0.259991
0.013667 -0.069541 0.260327
0.014901 -0.069495 0.260167
0.016219 -0.069816 0.261386
0.017465 -0.069807 0.261368
0.018669 -0.069639 0.260758
0.020259 -0.070842 0.265283
0.021567 -0.070979 0.265815
0.022894 -0.071155 0.266498
0.024301 -0.071551 0.268007
0.025124 -0.070271 0.263239
0.026095 -0.069508 0.260411
0.027316 -0.069451 0.260227
0.028552 -0.069435 0.260196
0.029735 -0.069297 0.259713
0.031001 -0.069355 0.259963
0.032286 -0.069451 0.260355
0.033500 -0.069391 0.260165
0.034866 -0.069639 0.261134
0.036060 -0.069539 0.260795
0.037259 -0.069453 0.260512
0.039025 -0.070396 0.264090
0.040551 -0.070861 0.265873
0.041772 -0.070780 0.265612
0.042922 -0.070589 0.264937
0.044048 -0.070368 0.264150
0.045405 -0.070521 0.264765
0.046649 -0.070493 0.264705
0.047898 -0.070473 0.264672
0.049153 -0.070464 0.264681
0.050479 -0.070553 0.265060
0.051805 -0.070639 0.265425
0.053156 -0.070755 0.265904
0.054498 -0.070852 0.266313
0.055854 -0.070962 0.266770
0.057323 -0.071209 0.267739
0.058861 -0.071529 0.268982
0.060444 -0.071888 0.270374
0.061923 -0.072111 0.271253
0.063349 -0.072264 0.271870
0.064632 -0.072252 0.271860
0.065785 -0.072097 0.271315
0.066937 -0.071947 0.270787
0.067836 -0.071537 0.269274
0.068911 -0.071323 0.268501
0.069845 -0.070974 0.267218
0.070157 -0.070016 0.263639
0.071509 -0.070112 0.264027
0.072540 -0.069895 0.263232
0.072993 -0.069138 0.260402
0.074589 -0.069471 0.261675
0.075924 -0.069554 0.262003
0.077369 -0.069734 0.262692
0.078913 -0.069995 0.263686
0.080839 -0.070581 0.265904
0.082486 -0.070910 0.267145
0.084268 -0.071343 0.268779
0.086179 -0.071870 0.270762
0.087813 -0.072155 0.271827
0.096931 -0.078491 0.295687
0.098211 -0.078390 0.295291
0.099196 -0.078059 0.294025
0.099825 -0.077462 0.291750
0.101665 -0.077808 0.293023
0.103322 -0.078005 0.293731
0.104406 -0.077771 0.292810
0.105827 -0.077791 0.292838
0.107301 -0.077849 0.293005
0.108723 -0.077868 0.293019
0.110113 -0.077864 0.292940
0.111402 -0.077789 0.292587
0.112897 -0.077858 0.292771
0.114428 -0.077950 0.293033
0.115666 -0.077843 0.292539
0.117456 -0.078105 0.293426
0.118812 -0.078076 0.293210
0.120233 -0.078089 0.293146
0.121857 -0.078233 0.293563
0.123331 -0.078277 0.293600
0.124795 -0.078315 0.293603
0.126171 -0.078298 0.293388
0.127696 -0.078371 0.293506
0.128838 -0.078211 0.292738
0.130425 -0.078322 0.292974
0.132177 -0.078528 0.293555
0.133384 -0.078409 0.292913
0.134960 -0.078508 0.293070
0.136707 -0.078702 0.293574
0.138430 -0.078880 0.294001
0.139859 -0.078887 0.293781
0.141165 -0.078826 0.293294
0.142781 -0.078937 0.293434
0.144329 -0.079009 0.293414
0.145877 -0.079080 0.293375
0.147371 -0.079120 0.293208
0.149042 -0.079253 0.293368
0.150722 -0.079388 0.293522
0.152147 -0.079388 0.293156
0.153528 -0.079365 0.292690
0.155190 -0.079487 0.292739
-0.142998 -0.070341 0.266149
-0.142468 -0.070709 0.267877
-0.142411 -0.071321 0.270516
-0.153518 -0.077586 0.294614
-0.152273 -0.077666 0.295239
-0.149338 -0.076878 0.292545
-0.147790 -0.076796 0.292523
-0.146500 -0.076848 0.292994
-0.145194 -0.076893 0.293425
-0.143854 -0.076920 0.293777
-0.142453 -0.076915 0.293995
-0.141043 -0.076905 0.294179
-0.139550 -0.076849 0.294178
-0.138319 -0.076939 0.294720
-0.136986 -0.076972 0.295038
-0.135559 -0.076953 0.295143
-0.128763 -0.073854 0.283420
-0.130157 -0.075437 0.289650
-0.142273 -0.083334 0.320131
-0.141164 -0.083571 0.321193
-0.139830 -0.083679 0.321748
-0.124920 -0.075575 0.290707
-0.123696 -0.075663 0.291159
-0.122668 -0.075876 0.292079
-0.121304 -0.075882 0.292199
-0.119954 -0.075898 0.292347
-0.118656 -0.075947 0.292616
-0.117077 -0.075816 0.292182
-0.115691 -0.075809 0.292218
-0.114327 -0.075815 0.292301
-0.112965 -0.075823 0.292383
-0.111635 -0.075854 0.292546
-0.110415 -0.075960 0.292996
-0.109122 -0.076019 0.293256
-0.107749 -0.076023 0.293298
-0.106579 -0.076172 0.293894
-0.105071 -0.076079 0.293554
-0.103303 -0.075794 0.292466
-0.101950 -0.075810 0.292534
-0.100736 -0.075932 0.293003
-0.099213 -0.075820 0.292570
-0.097800 -0.075791 0.292448
-0.095620 -0.075158 0.289996
-0.099338 -0.079210 0.305612
-0.099258 -0.080308 0.309826
-0.098063 -0.080523 0.310628
-0.094667 -0.078910 0.304377
-0.093033 -0.078739 0.303686
-0.090764 -0.078017 0.300864
-0.092553 -0.080815 0.311616
-0.091207 -0.080922 0.311985
-0.090094 -0.081243 0.313173
-0.088381 -0.081024 0.312279
-0.087094 -0.081195 0.312887
-0.085244 -0.080838 0.311455
-0.083514 -0.080585 0.310421
-0.082360 -0.080888 0.311531
-0.080667 -0.080664 0.310605
-0.078978 -0.080436 0.309661
-0.077348 -0.080260 0.308918
-0.075894 -0.080263 0.308862
-0.074527 -0.080361 0.309170
-0.068613 -0.075461 0.290253
-0.067463 -0.075708 0.291136
-0.066270 -0.075917 0.291870
-0.064910 -0.075939 0.291883
-0.063525 -0.075931 0.291784
-0.062260 -0.076072 0.292251
-0.060868 -0.076058 0.292128
-0.059447 -0.076008 0.291862
-0.058062 -0.076003 0.291770
-0.056651 -0.075962 0.291539
-0.055238 -0.075918 0.291294
-0.053848 -0.075902 0.291159
-0.052486 -0.075927 0.291183
-0.051073 -0.075877 0.290918
-0.049753 -0.075968 0.291192
-0.048341 -0.075918 0.290928
-0.046994 -0.075971 0.291060
-0.045604 -0.075955 0.290925
-0.044189 -0.075897 0.290630
-0.042908 -0.076071 0.291229
-0.041100 -0.075292 0.288176
-0.039963 -0.075730 0.289785
-0.039338 -0.077205 0.295359
-0.037964 -0.077266 0.295523
-0.035476 -0.074976 0.286701
-0.033736 -0.074148 0.283474
-0.030852 -0.070633 0.269975
-0.028995 -0.069265 0.264690
-0.027972 -0.069854 0.266885
-0.026498 -0.069322 0.264801
-0.025129 -0.069023 0.263607
-0.023837 -0.068919 0.263160
-0.022564 -0.068858 0.262879
-0.021326 -0.068904 0.263010
-0.020189 -0.069305 0.264493
-0.019006 -0.069588 0.265533
-0.017887 -0.070163 0.267685
-0.016618 -0.070195 0.267765
-0.015414 -0.070529 0.269003
-0.014136 -0.070555 0.269064
-0.012856 -0.070574 0.269103
-0.011572 -0.070575 0.269073
-0.010288 -0.070572 0.269032
-0.008995 -0.070504 0.268747
-0.007684 -0.070250 0.267752
-0.006407 -0.070257 0.267755
-0.005120 -0.070152 0.267332
-0.003835 -0.069988 0.266689
-0.002557 -0.069883 0.266272
-0.001287 -0.069958 0.266544
-0.000013 -0.070405 0.268234
0.001273 -0.070664 0.269211
0.002558 -0.070644 0.269126
0.003874 -0.071188 0.271194
0.005229 -0.072002 0.274291
0.006379 -0.070226 0.267526
0.007395 -0.067820 0.258358
0.008623 -0.067770 0.258172
0.009852 -0.067739 0.258058
0.011104 -0.067847 0.258478
0.012329 -0.067794 0.258284
0.013579 -0.067869 0.258581
0.014835 -0.067961 0.258944
0.016067 -0.067939 0.258876
0.017344 -0.068096 0.259490
0.018647 -0.068325 0.260380
0.020134 -0.069159 0.263581
0.021465 -0.069390 0.264484
0.022725 -0.069377 0.264460
0.024039 -0.069523 0.265043
0.025047 -0.068812 0.262359
0.026158 -0.068438 0.260963
0.027473 -0.068610 0.261648
0.028589 -0.068290 0.260461
0.029846 -0.068318 0.260601
0.031082 -0.068300 0.260567
0.032370 -0.068392 0.260953
0.033598 -0.068356 0.260852
0.034842 -0.068352 0.260875
0.035936 -0.068066 0.259823
0.037230 -0.068163 0.260235
0.039227 -0.069500 0.265380
0.040508 -0.069526 0.265523
0.041668 -0.069347 0.264880
0.043054 -0.069544 0.265679
0.044397 -0.069663 0.266178
0.045624 -0.069598 0.265973
0.046874 -0.069570 0.265913
0.048380 -0.069914 0.267273
0.049607 -0.069847 0.267062
0.050510 -0.069338 0.265163
0.052321 -0.070071 0.268010
0.053839 -0.070386 0.269261
0.054859 -0.070049 0.268018
0.056416 -0.070399 0.269402
0.057774 -0.070490 0.269792
0.058851 -0.070242 0.268887
0.060292 -0.070428 0.269644
0.061747 -0.070623 0.270433
0.063134 -0.070735 0.270903
0.064561 -0.070886 0.271520
0.065798 -0.070826 0.271331
0.067025 -0.070757 0.271105
0.068191 -0.070629 0.270649
0.069341 -0.070489 0.270146
0.070383 -0.070245 0.269244
0.071037 -0.069630 0.266919
0.072161 -0.069489 0.266408
0.073410 -0.069472 0.266368
0.074410 -0.069224 0.265439
0.075575 -0.069134 0.265118
0.077149 -0.069415 0.266214
0.078072 -0.069112 0.265066
0.079339 -0.069117 0.265099
0.081239 -0.069665 0.267211
0.082350 -0.069530 0.266702
0.083940 -0.069797 0.267731
0.085605 -0.070118 0.268961
0.086196 -0.069562 0.266825
0.096614 -0.076838 0.294729
0.097889 -0.076739 0.294334
0.099013 -0.076525 0.293500
0.099853 -0.076101 0.291850
0.101340 -0.076175 0.292108
0.102908 -0.076306 0.292582
0.104189 -0.076225 0.292232
0.105918 -0.076469 0.293126
0.107319 -0.076473 0.293094
0.108775 -0.076515 0.293201
0.110210 -0.076542 0.293244
0.111519 -0.076481 0.292945
0.112908 -0.076476 0.292852
0.114343 -0.076502 0.292874
0.115912 -0.076616 0.293222
0.117369 -0.076654 0.293273
0.118973 -0.076786 0.293676
0.120483 -0.076854 0.293829
0.121746 -0.076766 0.293374
0.123053 -0.076707 0.293023
0.124574 -0.076781 0.293170
0.125931 -0.076754 0.292921
0.127364 -0.076773 0.292840
0.128732 -0.076752 0.292598
0.130459 -0.076944 0.293157
0.131970 -0.077006 0.293209
0.133255 -0.076935 0.292747
0.134850 -0.077044 0.292955
0.136461 -0.077159 0.293176
0.138096 -0.077285 0.293425
0.139677 -0.077378 0.293539
0.141095 -0.077381 0.293295
0.142638 -0.077451 0.293292
0.144190 -0.077524 0.293289
0.145588 -0.077514 0.292957
0.147073 -0.077550 0.292784
0.148701 -0.077660 0.292875
0.150214 -0.077709 0.292716
0.151727 -0.077756 0.292538
0.153340 -0.077854 0.292530
0.155048 -0.077996 0.292675
-0.142590 -0.068862 0.265554
-0.142447 -0.069410 0.267996
-0.142817 -0.070221 0.271443
-0.151243 -0.075043 0.290407
-0.153489 -0.076860 0.297755
-0.149232 -0.075424 0.292488
-0.147414 -0.075205 0.291921
-0.146138 -0.075262 0.292409
-0.144931 -0.075355 0.293025
-0.143257 -0.075205 0.292685
-0.142309 -0.075437 0.293819
-0.140677 -0.075308 0.293533
-0.139236 -0.075279 0.293627
-0.138138 -0.075437 0.294439
-0.136429 -0.075262 0.293939
-0.135151 -0.075323 0.294352
-0.133930 -0.075418 0.294885
-0.143282 -0.081531 0.318951
-0.141960 -0.081635 0.319515
-0.140890 -0.081888 0.320653
-0.139561 -0.081995 0.321206
-0.124933 -0.074205 0.290807
-0.123680 -0.074275 0.291184
-0.122390 -0.074324 0.291474
-0.121212 -0.074443 0.292031
-0.119783 -0.074408 0.291980
-0.118418 -0.074413 0.292075
-0.117072 -0.074431 0.292213
-0.115620 -0.074381 0.292075
-0.114245 -0.074380 0.292127
-0.112874 -0.074381 0.292178
-0.111679 -0.074500 0.292688
-0.110262 -0.074472 0.292613
-0.109043 -0.074578 0.293061
-0.107763 -0.074646 0.293352
-0.106306 -0.074591 0.293152
-0.104953 -0.074609 0.293234
-0.103304 -0.074413 0.292474
-0.101958 -0.074434 0.292558
-0.100671 -0.074499 0.292811
-0.099162 -0.074400 0.292415
-0.097713 -0.074343 0.292179
-0.096058 -0.074126 0.291310
-0.099206 -0.077662 0.305187
-0.097869 -0.077740 0.305469
-0.096613 -0.077885 0.306012
-0.095110 -0.077833 0.305775
-0.093100 -0.077358 0.303873
-0.093546 -0.078942 0.310052
-0.091912 -0.078792 0.309420
-0.090223 -0.078589 0.308575
-0.088944 -0.078742 0.309129
-0.087508 -0.078761 0.309149
-0.086020 -0.078731 0.308977
-0.084677 -0.078836 0.309331
-0.083100 -0.078723 0.308826
-0.081485 -0.078569 0.308161
-0.080450 -0.078979 0.309705
-0.079277 -0.079267 0.310765
-0.077481 -0.078931 0.309379
-0.076165 -0.079080 0.309892
-0.074794 -0.079177 0.310201
-0.069549 -0.075094 0.294136
-0.067501 -0.074369 0.291224
-0.066340 -0.074610 0.292098
-0.065138 -0.074815 0.292825
-0.063635 -0.074675 0.292205
-0.062325 -0.074761 0.292467
-0.060923 -0.074738 0.292303
-0.059471 -0.074651 0.291887
-0.058125 -0.074697 0.291989
-0.056681 -0.074615 0.291596
-0.055206 -0.074488 0.291022
-0.053897 -0.074584 0.291320
-0.052469 -0.074516 0.290979
-0.051069 -0.074486 0.290788
-0.049794 -0.074642 0.291319
-0.048330 -0.074514 0.290748
-0.046937 -0.074492 0.290584
-0.045595 -0.074553 0.290749
-0.044213 -0.074550 0.290665
-0.042805 -0.074501 0.290403
-0.041278 -0.074235 0.289295
-0.039732 -0.073917 0.287985
-0.039286 -0.075694 0.294838
-0.037915 -0.075754 0.295002
-0.035527 -0.073710 0.286975
-0.034013 -0.073389 0.285663
-0.030778 -0.069174 0.269194
-0.028955 -0.067903 0.264190
-0.027892 -0.068380 0.265992
-0.026431 -0.067880 0.263993
-0.025042 -0.067525 0.262558
-0.023787 -0.067512 0.262457
-0.022524 -0.067477 0.262274
-0.021256 -0.067418 0.261998
-0.020142 -0.067875 0.263726
-0.018988 -0.068245 0.265120
-0.017799 -0.068537 0.266214
-0.016556 -0.068645 0.266591
-0.015308 -0.068753 0.266971
-0.014063 -0.068898 0.267497
-0.012757 -0.068739 0.266848
-0.011476 -0.068693 0.266638
-0.010206 -0.068714 0.266688
-0.008929 -0.068692 0.266573
-0.007627 -0.068434 0.265548
-0.006346 -0.068299 0.264999
-0.005082 -0.068319 0.265057
-0.003821 -0.068417 0.265415
-0.002555 -0.068483 0.265657
-0.001287 -0.068537 0.265848
-0.000016 -0.068976 0.267539
0.001266 -0.069159 0.268241
0.002542 -0.068994 0.267591
0.003859 -0.069676 0.270232
0.005165 -0.069865 0.270963
0.006289 -0.068014 0.263780
0.007419 -0.066833 0.259200
0.008659 -0.066837 0.259222
0.009917 -0.066963 0.259714
0.011159 -0.066964 0.259725
0.012387 -0.066887 0.259437
0.013625 -0.066877 0.259408
0.014894 -0.067005 0.259919
0.016122 -0.066943 0.259697
0.017366 -0.066951 0.259743
0.018648 -0.067095 0.260321
0.019968 -0.067348 0.261325
0.021437 -0.068046 0.264056
0.022637 -0.067859 0.263357
0.024030 -0.068239 0.264861
0.025125 -0.067778 0.263098
0.026197 -0.067300 0.261273
0.027555 -0.067569 0.262349
0.028725 -0.067373 0.261624
0.029861 -0.067115 0.260653
0.031147 -0.067204 0.261035
0.032436 -0.067290 0.261410
0.033694 -0.067308 0.261517
0.034991 -0.067400 0.261914
0.036213 -0.067346 0.261744
0.037521 -0.067450 0.262192
0.038827 -0.067544 0.262599
0.040212 -0.067766 0.263508
0.041511 -0.067834 0.263814
0.042900 -0.068039 0.264657
0.044243 -0.068163 0.265185
0.045585 -0.068277 0.265675
0.046938 -0.068401 0.266205
0.048445 -0.068738 0.267566
0.049673 -0.068671 0.267354
0.050577 -0.068171 0.265452
0.052390 -0.068890 0.268302
0.053910 -0.069199 0.269554
0.054930 -0.068868 0.268309
0.056489 -0.069211 0.269694
0.057848 -0.069299 0.270084
0.058944 -0.069075 0.269258
0.059993 -0.068807 0.268256
0.061842 -0.069448 0.270803
0.063258 -0.069587 0.271390
0.064379 -0.069402 0.270710
0.065852 -0.069597 0.271510
0.067095 -0.069545 0.271349
0.068126 -0.069280 0.270353
0.069323 -0.069190 0.270038
0.070410 -0.068995 0.269315
0.071396 -0.068711 0.268237
0.072255 -0.068316 0.266727
0.073396 -0.068197 0.266292
0.074737 -0.068265 0.266584
0.075589 -0.067891 0.265146
0.077317 -0.068303 0.266778
0.078175 -0.067945 0.265400
0.079725 -0.068192 0.266379
0.081656 -0.068751 0.268576
0.082718 -0.068572 0.267887
0.084948 -0.069352 0.270943
0.085720 -0.068936 0.269321
0.086990 -0.068927 0.269286
0.088155 -0.068837 0.268930
0.097988 -0.075421 0.294642
0.099168 -0.075252 0.293970
0.100116 -0.074915 0.292637
0.101177 -0.074671 0.291659
0.103055 -0.075027 0.293024
0.104394 -0.074987 0.292835
0.105723 -0.074941 0.292617
0.107197 -0.074998 0.292795
0.108596 -0.075001 0.292757
0.110021 -0.075022 0.292783
0.111505 -0.075082 0.292955
0.112826 -0.075031 0.292689
0.114358 -0.075122 0.292967
0.115936 -0.075239 0.293341
0.117413 -0.075289 0.293445
0.118863 -0.075321 0.293471
0.120295 -0.075340 0.293442
0.121772 -0.075388 0.293513
0.123181 -0.075392 0.293407
0.124539 -0.075365 0.293173
0.126146 -0.075487 0.293509
0.127347 -0.075367 0.292893
0.128720 -0.075351 0.292671
0.130684 -0.075676 0.293767
0.132125 -0.075695 0.293661
0.133434 -0.075639 0.293253
0.135001 -0.075729 0.293402
0.136445 -0.075748 0.293264
0.138119 -0.075893 0.293604
0.139413 -0.075829 0.293119
0.140995 -0.075921 0.293226
0.142585 -0.076015 0.293329
0.144074 -0.076054 0.293207
0.145792 -0.076213 0.293527
0.147175 -0.076194 0.293153
0.148911 -0.076357 0.293460
0.150527 -0.076456 0.293505
0.151891 -0.076426 0.293038
0.153518 -0.076527 0.293060
0.154972 -0.076542 0.292731
-0.142421 -0.067504 0.265398
-0.142191 -0.068000 0.267669
-0.142126 -0.068584 0.270278
-0.143586 -0.069921 0.275852
-0.154004 -0.075686 0.298905
-0.149059 -0.073938 0.292292
-0.147256 -0.073730 0.291744
-0.145901 -0.073745 0.292065
-0.144692 -0.073834 0.292669
-0.143287 -0.073824 0.292866
-0.142035 -0.073895 0.293370
-0.140529 -0.073832 0.293335
-0.139073 -0.073795 0.293389
-0.137969 -0.073946 0.294180
-0.136473 -0.073889 0.294130
-0.134857 -0.073764 0.293803
-0.128525 -0.071031 0.283068
-0.142930 -0.079821 0.318258
-0.141613 -0.079924 0.318820
-0.141059 -0.080465 0.321118
-0.139730 -0.080571 0.321672
-0.124867 -0.072789 0.290716
-0.123407 -0.072735 0.290603
-0.122000 -0.072712 0.290602
-0.120876 -0.072858 0.291274
-0.119565 -0.072894 0.291495
-0.118111 -0.072843 0.291363
-0.116750 -0.072848 0.291448
-0.115575 -0.072972 0.291999
-0.114249 -0.073001 0.292168
-0.112913 -0.073025 0.292308
-0.111687 -0.073122 0.292734
-0.110558 -0.073285 0.293418
-0.109211 -0.073307 0.293531
-0.107975 -0.073404 0.293941
-0.106771 -0.073526 0.294443
-0.105051 -0.073292 0.293515
-0.103070 -0.072866 0.291815
-0.101815 -0.072949 0.292146
-0.100530 -0.073013 0.292396
-0.099263 -0.073092 0.292703
-0.097816 -0.073039 0.292477
-0.096213 -0.072867 0.291767
-0.098741 -0.075863 0.303739
-0.097441 -0.075963 0.304112
-0.096241 -0.076145 0.304810
-0.094024 -0.075516 0.302256
-0.094251 -0.076860 0.307598
-0.093652 -0.077563 0.310367
-0.092167 -0.077542 0.310236
-0.090660 -0.077503 0.310028
-0.088915 -0.077255 0.308985
-0.087470 -0.077264 0.308964
-0.085908 -0.077168 0.308523
-0.084156 -0.076895 0.307371
-0.082461 -0.076667 0.306395
-0.080985 -0.076636 0.306207
-0.079730 -0.076819 0.306870
-0.079117 -0.077637 0.310070
-0.077337 -0.077320 0.308730
-0.076308 -0.077756 0.310399
-0.074936 -0.077852 0.310709
-0.068774 -0.072877 0.290782
-0.067435 -0.072915 0.290860
-0.066227 -0.073098 0.291517
-0.064942 -0.073204 0.291862
-0.063480 -0.073109 0.291408
-0.062233 -0.073263 0.291946
-0.060924 -0.073350 0.292216
-0.059394 -0.073169 0.291415
-0.058088 -0.073261 0.291707
-0.056698 -0.073250 0.291581
-0.055305 -0.073234 0.291442
-0.053960 -0.073282 0.291553
-0.052530 -0.073216 0.291212
-0.051145 -0.073209 0.291108
-0.049875 -0.073371 0.291675
-0.048375 -0.073197 0.290904
-0.047002 -0.073207 0.290870
-0.045615 -0.073198 0.290756
-0.044168 -0.073088 0.290247
-0.042745 -0.073011 0.289867
-0.041318 -0.072925 0.289450
-0.039927 -0.072895 0.289262
-0.039164 -0.074055 0.293790
-0.037797 -0.074114 0.293954
-0.035708 -0.072706 0.288304
-0.034009 -0.072013 0.285488
-0.030615 -0.067525 0.267637
-0.028912 -0.066538 0.263665
-0.027732 -0.066719 0.264326
-0.026291 -0.066261 0.262458
-0.024999 -0.066152 0.261971
-0.023716 -0.066054 0.261532
-0.022444 -0.065982 0.261195
-0.021205 -0.066001 0.261225
-0.020076 -0.066387 0.262706
-0.018911 -0.066698 0.263889
-0.017861 -0.067487 0.266969
-0.016559 -0.067375 0.266484
-0.015385 -0.067806 0.268149
-0.014234 -0.068427 0.270568
-0.012966 -0.068553 0.271030
-0.011644 -0.068391 0.270357
-0.010350 -0.068376 0.270266
-0.009047 -0.068282 0.269866
-0.007730 -0.068044 0.268898
-0.006420 -0.067774 0.267809
-0.005150 -0.067912 0.268329
-0.003859 -0.067762 0.267719
-0.002572 -0.067584 0.266997
-0.001299 -0.067770 0.267718
-0.000019 -0.067984 0.268550
0.001273 -0.068407 0.270212
0.002544 -0.067835 0.267944
0.003858 -0.068424 0.270266
0.005203 -0.069120 0.273010
0.006318 -0.067086 0.264977
0.007489 -0.066237 0.261624
0.008724 -0.066111 0.261130
0.009989 -0.066217 0.261556
0.011221 -0.066102 0.261109
0.012448 -0.065984 0.260653
0.013699 -0.066002 0.260737
0.014947 -0.066006 0.260767
0.016201 -0.066034 0.260891
0.017442 -0.066006 0.260801
0.018721 -0.066119 0.261267
0.020104 -0.066558 0.263026
0.021402 -0.066685 0.263550
0.022511 -0.066239 0.261816
0.023876 -0.066551 0.263078
0.025101 -0.066466 0.262769
0.026205 -0.066080 0.261276
0.027517 -0.066232 0.261909
0.028745 -0.066176 0.261724
0.029902 -0.065967 0.260932
0.031134 -0.065936 0.260848
0.032468 -0.066112 0.261582
0.033711 -0.066099 0.261571
0.034933 -0.066045 0.261399
0.036321 -0.066301 0.262452
0.037627 -0.066392 0.262857
0.038968 -0.066539 0.263483
0.040307 -0.066672 0.264056
0.041641 -0.066788 0.264561
0.043026 -0.066978 0.265363
0.044332 -0.067037 0.265645
0.045646 -0.067105 0.265963
0.044793 -0.064069 0.253977
0.045964 -0.064011 0.253794
0.047340 -0.064235 0.254730
0.048383 -0.064009 0.253878
0.049632 -0.064057 0.254116
0.050989 -0.064240 0.254890
0.052387 -0.064465 0.255830
0.054009 -0.064949 0.257797
0.055711 -0.065504 0.260049
0.057640 -0.066297 0.263245
0.059425 -0.066895 0.265664
0.061531 -0.067821 0.269390
0.063095 -0.068124 0.270641
0.064253 -0.067986 0.270135
0.065886 -0.068345 0.271606
0.067186 -0.068351 0.271675
0.068269 -0.068141 0.270881
0.069474 -0.068058 0.270592
0.070673 -0.067972 0.270288
0.071582 -0.067616 0.268906
0.072122 -0.066929 0.266207
0.073053 -0.066622 0.265020
0.074189 -0.066510 0.264604
0.074561 -0.065728 0.261519
0.075029 -0.065055 0.258865
0.075610 -0.064500 0.256676
0.076938 -0.064590 0.257052
0.077602 -0.064128 0.255230
0.078717 -0.064047 0.254920
0.080087 -0.064174 0.255433
0.081439 -0.064281 0.255868
0.082846 -0.064429 0.256458
0.085626 -0.065625 0.261218
0.098478 -0.074395 0.296123
0.099755 -0.074296 0.295721
0.100116 -0.073529 0.292650
0.101155 -0.073273 0.291613
0.102615 -0.073324 0.291794
0.103806 -0.073185 0.291210
0.105675 -0.073520 0.292510
0.106792 -0.073332 0.291720
0.108299 -0.073411 0.291992
0.109939 -0.073578 0.292603
0.111344 -0.073585 0.292573
0.112653 -0.073530 0.292287
0.114230 -0.073648 0.292687
0.115404 -0.073508 0.292049
0.116761 -0.073485 0.291876
0.118379 -0.073626 0.292339
0.119565 -0.073497 0.291728
0.121108 -0.073588 0.291982
0.122681 -0.073695 0.292289
0.124835 -0.074146 0.293949
0.126321 -0.074193 0.294001
0.127602 -0.074120 0.293568
0.128970 -0.074099 0.293331
0.130482 -0.074160 0.293411
0.131892 -0.074163 0.293246
0.133421 -0.074232 0.293334
0.134684 -0.074152 0.292824
0.136157 -0.074189 0.292764
0.137765 -0.074297 0.292975
0.139155 -0.074287 0.292705
0.140777 -0.074400 0.292908
0.142519 -0.074574 0.293335
0.143987 -0.074601 0.293174
0.145573 -0.074689 0.293236
0.147154 -0.074773 0.293268
0.148705 -0.074840 0.293218
0.150145 -0.074850 0.292930
0.151523 -0.074829 0.292505
0.153248 -0.074979 0.292729
0.154947 -0.075113 0.292874
-0.142546 -0.066286 0.265784
-0.142686 -0.066946 0.268749
-0.142807 -0.067609 0.271718
-0.142404 -0.068034 0.273720
-0.143537 -0.069208 0.278727
-0.149141 -0.072580 0.292590
-0.146462 -0.071945 0.290302
-0.145726 -0.072263 0.291842
-0.143983 -0.072083 0.291355
-0.142810 -0.072187 0.292009
-0.141987 -0.072472 0.293381
-0.139386 -0.071847 0.291055
-0.138542 -0.072123 0.292370
-0.137351 -0.072223 0.292959
-0.135747 -0.072106 0.292658
-0.134897 -0.072391 0.293976
-0.133682 -0.072484 0.294508
-0.141035 -0.078093 0.317598
-0.141222 -0.079034 0.321565
-0.139893 -0.079139 0.322119
-0.124757 -0.071350 0.290520
-0.123267 -0.071279 0.290329
-0.121867 -0.071259 0.290336
-0.120690 -0.071370 0.290873
-0.119312 -0.071364 0.290924
-0.117956 -0.071371 0.291019
-0.116595 -0.071375 0.291097
-0.115313 -0.071429 0.291368
-0.114145 -0.071555 0.291930
-0.112816 -0.071582 0.292082
-0.111487 -0.071610 0.292230
-0.110390 -0.071790 0.292991
-0.109163 -0.071888 0.293414
-0.107956 -0.072003 0.293900
-0.106402 -0.071886 0.293432
-0.104863 -0.071776 0.292991
-0.103190 -0.071571 0.292155
-0.101946 -0.071662 0.292521
-0.100518 -0.071623 0.292354
-0.099341 -0.071766 0.292923
-0.097992 -0.071786 0.292990
-0.095866 -0.071230 0.290698
-0.098552 -0.074285 0.303136
-0.097550 -0.074608 0.304426
-0.095653 -0.074247 0.302918
-0.096035 -0.075672 0.308689
-0.094640 -0.075717 0.308833
-0.093633 -0.076080 0.310264
-0.091895 -0.075850 0.309279
-0.090505 -0.075906 0.309453
-0.089215 -0.076048 0.309977
-0.087575 -0.075892 0.309283
-0.086017 -0.075804 0.308861
-0.084304 -0.075573 0.307855
-0.082659 -0.075395 0.307067
-0.081078 -0.075272 0.306496
-0.079668 -0.075306 0.306564
-0.078842 -0.075903 0.308923
-0.077173 -0.075696 0.308005
-0.075831 -0.075807 0.308383
-0.074468 -0.075902 0.308692
-0.069606 -0.072363 0.294225
-0.067500 -0.071604 0.291062
-0.066271 -0.071763 0.291631
-0.065020 -0.071904 0.292127
-0.063584 -0.071841 0.291794
-0.062308 -0.071962 0.292204
-0.060957 -0.072000 0.292279
-0.059521 -0.071935 0.291939
-0.058109 -0.071900 0.291713
-0.056716 -0.071885 0.291572
-0.055340 -0.071892 0.291521
-0.053973 -0.071911 0.291519
-0.052587 -0.071907 0.291420
-0.051143 -0.071819 0.290986
-0.049836 -0.071925 0.291337
-0.048359 -0.071785 0.290689
-0.046933 -0.071714 0.290325
-0.045605 -0.071795 0.290572
-0.044224 -0.071793 0.290489
-0.042770 -0.071670 0.289914
-0.041321 -0.071546 0.289338
-0.039493 -0.070737 0.285995
-0.039226 -0.072764 0.294118
-0.037857 -0.072823 0.294283
-0.035919 -0.071749 0.289871
-0.034340 -0.071335 0.288133
-0.030655 -0.066330 0.267854
-0.028846 -0.065125 0.262928
-0.027628 -0.065208 0.263205
-0.026357 -0.065167 0.262983
-0.024955 -0.064781 0.261372
-0.023677 -0.064692 0.260961
-0.022449 -0.064741 0.261109
-0.021170 -0.064637 0.260641
-0.020041 -0.065012 0.262104
-0.018925 -0.065476 0.263929
-0.017836 -0.066109 0.266438
-0.016579 -0.066171 0.266642
-0.015413 -0.066632 0.268462
-0.014246 -0.067178 0.270621
-0.013005 -0.067448 0.271673
-0.011706 -0.067440 0.271607
-0.010380 -0.067257 0.270837
-0.009090 -0.067294 0.270960
-0.007791 -0.067262 0.270804
-0.006481 -0.067101 0.270131
-0.005184 -0.067028 0.269811
-0.003893 -0.067019 0.269758
-0.002598 -0.066905 0.269282
-0.001308 -0.066794 0.268820
-0.000022 -0.066958 0.269465
0.001272 -0.067211 0.270474
0.002541 -0.066560 0.267846
0.003851 -0.067063 0.269863
0.005164 -0.067343 0.270991
0.006313 -0.065803 0.264792
0.007500 -0.065102 0.261971
0.008710 -0.064778 0.260674
0.009969 -0.064855 0.260990
0.011187 -0.064670 0.260253
0.012406 -0.064536 0.259722
0.013672 -0.064645 0.260175
0.014927 -0.064686 0.260357
0.016184 -0.064729 0.260547
0.017461 -0.064840 0.261012
0.018761 -0.065016 0.261742
0.020250 -0.065786 0.264863
0.021528 -0.065817 0.265013
0.022552 -0.065113 0.262207
0.023889 -0.065339 0.263148
0.025111 -0.065242 0.262786
0.026169 -0.064749 0.260832
0.027477 -0.064891 0.261441
0.028644 -0.064703 0.260716
0.029834 -0.064580 0.260257
0.031169 -0.064768 0.261056
0.032374 -0.064681 0.260745
0.033793 -0.065013 0.262123
0.035060 -0.065039 0.262272
0.036433 -0.065252 0.263176
0.037747 -0.065350 0.263616
0.039098 -0.065503 0.264280
0.040370 -0.065519 0.264392
0.041738 -0.065683 0.265102
0.043176 -0.065945 0.266210
0.044285 -0.065705 0.265289
0.044463 -0.064134 0.258996
0.045024 -0.063186 0.255216
0.046297 -0.063261 0.255568
0.047622 -0.063402 0.256185
0.048638 -0.063133 0.255150
0.049863 -0.063143 0.255238
0.051096 -0.063162 0.255364
0.052392 -0.063256 0.255795
0.053750 -0.063419 0.256503
0.054835 -0.063260 0.255909
0.056310 -0.063547 0.257118
0.058174 -0.064253 0.260022
0.061714 -0.066741 0.270141
0.063162 -0.066911 0.270876
0.064246 -0.066696 0.270055
0.065854 -0.067023 0.271426
0.067285 -0.067162 0.272032
0.068637 -0.067217 0.272300
0.069668 -0.066961 0.271306
0.070965 -0.066966 0.271367
0.071880 -0.066617 0.269990
0.072391 -0.065912 0.267171
0.073636 -0.065888 0.267106
0.074456 -0.065491 0.265530
0.074652 -0.064568 0.261814
0.075221 -0.063992 0.259506
0.075961 -0.063578 0.257853
0.077076 -0.063486 0.257499
0.078111 -0.063331 0.256891
0.079201 -0.063226 0.256479
0.080240 -0.063084 0.255914
0.081490 -0.063109 0.256025
0.082681 -0.063088 0.255946
0.085154 -0.064032 0.259778
0.097314 -0.072129 0.292625
0.098574 -0.072032 0.292227
0.099771 -0.071893 0.291653
0.101170 -0.071901 0.291669
0.102723 -0.072017 0.292119
0.103999 -0.071938 0.291772
0.105241 -0.071837 0.291333
0.106608 -0.071824 0.291244
0.107920 -0.071775 0.291001
0.109369 -0.071816 0.291119
0.111404 -0.072237 0.292770
0.111948 -0.071692 0.290501
0.114276 -0.072289 0.292854
0.115574 -0.072228 0.292531
0.116778 -0.072109 0.291971
0.118410 -0.072256 0.292475
0.119737 -0.072214 0.292210
0.121313 -0.072323 0.292544
0.122558 -0.072233 0.292068
0.124328 -0.072451 0.292829
0.125827 -0.072509 0.292930
0.127162 -0.072472 0.292641
0.128572 -0.072477 0.292516
0.130087 -0.072541 0.292614
0.131788 -0.072706 0.293112
0.133103 -0.072658 0.292737
0.134563 -0.072688 0.292670
0.136133 -0.072776 0.292824
0.137544 -0.072779 0.292622
0.139315 -0.072970 0.293166
0.140768 -0.072992 0.293018
0.142364 -0.073087 0.293150
0.143946 -0.073173 0.293232
0.145360 -0.073173 0.292953
0.146849 -0.073211 0.292812
0.148480 -0.073317 0.292931
0.149944 -0.073340 0.292701
0.151312 -0.073316 0.292269
0.153186 -0.073535 0.292787
0.154639 -0.073550 0.292476
-0.142427 -0.064954 0.265708
-0.142044 -0.065361 0.267682
-0.142182 -0.066016 0.270667
-0.141506 -0.066302 0.272127
-0.141348 -0.066839 0.274606
-0.140989 -0.067290 0.276723
-0.146544 -0.070599 0.290591
-0.145810 -0.070912 0.292131
-0.143524 -0.072554 0.299799
-0.142284 -0.072644 0.300367
-0.139326 -0.071850 0.297265
-0.137422 -0.071588 0.296356
-0.133763 -0.070398 0.291587
-0.141469 -0.076823 0.318650
-0.140709 -0.077229 0.320469
-0.139388 -0.077333 0.321021
-0.124567 -0.069868 0.290133
-0.123098 -0.069809 0.289984
-0.121519 -0.069685 0.289556
-0.120360 -0.069803 0.290122
-0.119332 -0.070000 0.291012
-0.117725 -0.069858 0.290487
-0.116485 -0.069933 0.290855
-0.114992 -0.069857 0.290586
-0.113952 -0.070057 0.291463
-0.112694 -0.070126 0.291788
-0.111330 -0.070131 0.291836
-0.110071 -0.070202 0.292160
-0.108916 -0.070343 0.292763
-0.107664 -0.070423 0.293112
-0.106225 -0.070383 0.292951
-0.104917 -0.070429 0.293144
-0.103462 -0.070376 0.292922
-0.101992 -0.070311 0.292646
-0.100803 -0.070442 0.293176
-0.099339 -0.070381 0.292906
-0.097694 -0.070188 0.292084
-0.096077 -0.070010 0.291316
-0.097774 -0.072277 0.300721
-0.097288 -0.072973 0.303582
-0.097644 -0.074331 0.309192
-0.096119 -0.074277 0.308926
-0.094823 -0.074401 0.309394
-0.093042 -0.074141 0.308266
-0.091688 -0.074220 0.308539
-0.090200 -0.074191 0.308364
-0.088652 -0.074111 0.307971
-0.087284 -0.074181 0.308204
-0.085568 -0.073953 0.307193
-0.084179 -0.074004 0.307338
-0.082809 -0.074075 0.307564
-0.081080 -0.073821 0.306438
-0.079777 -0.073953 0.306913
-0.079065 -0.074649 0.309724
-0.077081 -0.074146 0.307563
-0.076104 -0.074612 0.309418
-0.074737 -0.074707 0.309728
-0.068870 -0.070217 0.291036
-0.067332 -0.070047 0.290255
-0.066231 -0.070335 0.291368
-0.065037 -0.070534 0.292115
-0.063295 -0.070135 0.290382
-0.062231 -0.070486 0.291753
-0.060991 -0.070649 0.292345
-0.059364 -0.070361 0.291074
-0.058042 -0.070430 0.291275
-0.056782 -0.070579 0.291809
-0.055311 -0.070467 0.291266
-0.053928 -0.070465 0.291172
-0.052592 -0.070524 0.291335
-0.051185 -0.070490 0.291113
-0.049819 -0.070512 0.291122
-0.048410 -0.070472 0.290875
-0.047026 -0.070469 0.290784
-0.045668 -0.070505 0.290852
-0.044294 -0.070517 0.290824
-0.042920 -0.070531 0.290803
-0.041416 -0.070325 0.289876
-0.039687 -0.069709 0.287266
-0.039383 -0.071642 0.295155
-0.038009 -0.071701 0.295321
-0.036066 -0.070649 0.290920
-0.034634 -0.070555 0.290459
-0.030274 -0.064238 0.264394
-0.028774 -0.063706 0.262142
-0.027478 -0.063598 0.261640
-0.026294 -0.063751 0.262213
-0.024920 -0.063437 0.260863
-0.023625 -0.063302 0.260255
-0.022433 -0.063440 0.260772
-0.021195 -0.063462 0.260810
-0.020063 -0.063819 0.262232
-0.018951 -0.064295 0.264138
-0.017927 -0.065158 0.267639
