ply
format ascii 1.0
element vertex 1679
property float x
property float y
property float z
end_header
-0.120334 -0.042374 0.290475
-0.119124 -0.042428 0.290859
-0.117885 -0.042474 0.291175
-0.116470 -0.042456 0.291050
-0.114992 -0.042415 0.290761
-0.113666 -0.042429 0.290844
-0.112341 -0.042444 0.290931
-0.111011 -0.042458 0.291000
-0.109658 -0.042463 0.291005
-0.108320 -0.042474 0.291045
-0.107010 -0.042497 0.291160
-0.105650 -0.042500 0.291134
-0.104245 -0.042485 0.290981
-0.102854 -0.042476 0.290862
-0.101417 -0.042446 0.290602
-0.100204 -0.042512 0.290985
-0.098905 -0.042541 0.291122
-0.097545 -0.042546 0.291081
-0.094284 -0.041710 0.285285
-0.097434 -0.043726 0.298994
-0.096180 -0.043796 0.299390
-0.094884 -0.043849 0.299665
-0.093340 -0.043787 0.299151
-0.092181 -0.043908 0.299877
-0.090625 -0.043839 0.299311
-0.088991 -0.043730 0.298466
-0.087600 -0.043739 0.298427
-0.086059 -0.043672 0.297868
-0.084657 -0.043675 0.297779
-0.083290 -0.043696 0.297814
-0.081989 -0.043753 0.298094
-0.080877 -0.043915 0.299082
-0.079726 -0.044061 0.299964
-0.078328 -0.044074 0.299931
-0.077201 -0.044242 0.300958
-0.075850 -0.044286 0.301137
-0.075009 -0.044635 0.303389
-0.073677 -0.044700 0.303706
-0.068991 -0.042692 0.289948
-0.067617 -0.042694 0.289838
-0.066410 -0.042803 0.290460
-0.065156 -0.042887 0.290907
-0.063816 -0.042915 0.290979
-0.062503 -0.042964 0.291192
-0.061222 -0.043037 0.291568
-0.059871 -0.043065 0.291631
-0.058442 -0.043035 0.291313
-0.056904 -0.042922 0.290426
-0.055460 -0.042876 0.289997
-0.054171 -0.042951 0.290385
-0.052772 -0.042940 0.290193
-0.051304 -0.042871 0.289612
-0.049994 -0.042934 0.289923
-0.048677 -0.042995 0.290219
-0.047265 -0.042972 0.289953
-0.045924 -0.043016 0.290133
-0.044603 -0.043080 0.290456
-0.043236 -0.043104 0.290509
-0.041861 -0.043120 0.290511
-0.040004 -0.042624 0.287070
-0.038709 -0.042714 0.287569
-0.037365 -0.042754 0.287741
-0.035879 -0.042628 0.286795
-0.034775 -0.042964 0.288959
-0.030510 -0.039261 0.263973
-0.028821 -0.038695 0.260086
-0.027508 -0.038606 0.259408
-0.026298 -0.038660 0.259694
-0.025105 -0.038746 0.260194
-0.023857 -0.038750 0.260151
-0.022618 -0.038773 0.260232
-0.021390 -0.038816 0.260457
-0.020168 -0.038878 0.260806
-0.019278 -0.039629 0.265783
-0.018228 -0.040136 0.269125
-0.016927 -0.040125 0.268995
-0.015586 -0.040011 0.268177
-0.014664 -0.041047 0.275068
-0.012998 -0.040003 0.268021
-0.011286 -0.038567 0.258362
-0.010049 -0.038605 0.258571
-0.008820 -0.038685 0.259076
-0.007577 -0.038723 0.259293
-0.006327 -0.038728 0.259297
-0.005084 -0.038796 0.259728
-0.003836 -0.038849 0.260059
-0.002585 -0.038925 0.260546
-0.001327 -0.038931 0.260569
-0.000069 -0.038964 0.260777
0.001203 -0.039377 0.263533
0.002505 -0.039842 0.266640
0.003849 -0.040430 0.270573
0.005156 -0.040427 0.270552
0.006399 -0.040029 0.267893
0.007718 -0.040155 0.268743
0.009010 -0.040129 0.268578
0.010265 -0.039963 0.267481
0.011530 -0.039868 0.266862
0.012831 -0.039906 0.267136
0.014132 -0.039934 0.267350
0.015447 -0.039995 0.267781
0.016761 -0.040045 0.268149
0.018037 -0.040003 0.267897
0.019340 -0.040022 0.268063
0.020687 -0.040124 0.268784
0.021983 -0.040120 0.268805
0.023273 -0.040107 0.268764
0.024633 -0.040209 0.269492
0.026018 -0.040339 0.270418
0.027416 -0.040476 0.271391
0.028705 -0.040448 0.271262
0.029713 -0.040042 0.268598
0.030849 -0.039836 0.267278
0.032234 -0.039956 0.268145
0.033485 -0.039906 0.267874
0.034853 -0.039994 0.268533
0.035995 -0.039826 0.267479
0.037244 -0.039784 0.267264
0.038830 -0.040092 0.269407
0.040089 -0.040054 0.269228
0.040850 -0.039536 0.265826
0.041461 -0.038908 0.261684
0.042281 -0.038508 0.259068
0.043538 -0.038517 0.259211
0.044313 -0.038112 0.256564
0.045451 -0.038032 0.256105
0.046591 -0.037958 0.255690
0.047744 -0.037898 0.255368
0.049078 -0.037981 0.256009
0.050587 -0.038192 0.257518
0.052041 -0.038352 0.258685
0.053438 -0.038464 0.259524
0.055025 -0.038705 0.261236
0.056712 -0.039003 0.263338
0.058535 -0.039380 0.265971
0.060250 -0.039670 0.268019
0.061975 -0.039953 0.270026
0.063362 -0.040013 0.270516
0.064674 -0.040023 0.270676
0.065999 -0.040040 0.270881
0.067280 -0.040031 0.270908
0.068492 -0.039982 0.270663
0.069860 -0.040024 0.271034
0.071199 -0.040048 0.271281
0.072560 -0.040084 0.271606
0.073663 -0.039978 0.270972
0.074680 -0.039830 0.270048
0.075832 -0.039757 0.269635
0.076810 -0.039598 0.268631
0.077902 -0.039501 0.268049
0.078457 -0.039140 0.265671
0.079516 -0.039037 0.265042
0.080689 -0.038993 0.264809
0.081644 -0.038847 0.263878
0.082948 -0.038868 0.264084
0.084146 -0.038840 0.263952
0.085329 -0.038806 0.263776
0.087647 -0.039281 0.267061
0.098427 -0.043481 0.295671
0.099680 -0.043414 0.295261
0.101031 -0.043390 0.295147
0.101486 -0.042987 0.292449
0.102396 -0.042785 0.291114
0.104669 -0.043151 0.293636
0.105901 -0.043084 0.293205
0.107220 -0.043053 0.293020
0.108544 -0.043025 0.292846
0.110017 -0.043056 0.293071
0.111125 -0.042945 0.292324
0.112609 -0.042980 0.292565
0.113854 -0.042925 0.292183
0.115160 -0.042893 0.291958
0.116639 -0.042926 0.292165
0.118019 -0.042922 0.292114
0.119600 -0.042990 0.292550
0.121208 -0.043066 0.293033
0.122072 -0.042880 0.291717
0.123680 -0.042956 0.292184
0.125281 -0.043027 0.292610
0.126771 -0.043060 0.292765
0.127939 -0.042983 0.292170
0.129421 -0.043013 0.292287
0.130789 -0.043005 0.292136
0.132076 -0.042969 0.291796
0.133597 -0.043011 0.291966
0.135125 -0.043053 0.292134
0.136486 -0.043043 0.291930
0.137989 -0.043076 0.292017
0.139554 -0.043128 0.292218
0.141231 -0.043214 0.292633
0.142794 -0.043263 0.292791
0.144223 -0.043271 0.292657
0.145702 -0.043293 0.292610
0.147309 -0.043353 0.292804
0.148936 -0.043418 0.293014
0.150202 -0.043377 0.292500
0.151894 -0.043459 0.292800
0.153311 -0.043461 0.292547
-0.158735 -0.042540 0.298446
-0.154426 -0.041756 0.293194
-0.152870 -0.041710 0.293100
-0.151433 -0.041695 0.293215
-0.150132 -0.041718 0.293582
-0.148597 -0.041675 0.293478
-0.147141 -0.041654 0.293512
-0.145927 -0.041702 0.294022
-0.143959 -0.041534 0.292991
-0.143155 -0.041701 0.294320
-0.141810 -0.041713 0.294538
-0.140013 -0.041590 0.293802
-0.138062 -0.041419 0.292708
-0.137021 -0.041520 0.293530
-0.135245 -0.041399 0.292768
-0.132831 -0.041077 0.290582
-0.128468 -0.040140 0.284030
-0.141472 -0.044667 0.316137
-0.140204 -0.044736 0.316692
-0.140119 -0.045187 0.319947
-0.138215 -0.045056 0.319069
-0.124238 -0.040944 0.289981
-0.122926 -0.040960 0.290125
-0.121773 -0.041030 0.290645
-0.120480 -0.041054 0.290831
-0.119271 -0.041108 0.291221
-0.118040 -0.041155 0.291557
-0.116706 -0.041166 0.291638
-0.114797 -0.040974 0.290262
-0.113579 -0.041026 0.290618
-0.112376 -0.041085 0.291012
-0.110977 -0.041073 0.290899
-0.109663 -0.041092 0.291003
-0.108359 -0.041116 0.291133
-0.107104 -0.041159 0.291399
-0.105749 -0.041165 0.291390
-0.104305 -0.041135 0.291127
-0.102956 -0.041143 0.291127
-0.101606 -0.041151 0.291120
-0.100317 -0.041184 0.291286
-0.098953 -0.041186 0.291236
-0.097742 -0.041253 0.291637
-0.094553 -0.040476 0.286065
-0.096824 -0.042047 0.297088
-0.095712 -0.042174 0.297894
-0.094460 -0.042242 0.298284
-0.092826 -0.042138 0.297460
-0.091895 -0.042356 0.298901
-0.090397 -0.042315 0.298512
-0.088818 -0.042233 0.297838
-0.087392 -0.042224 0.297668
-0.085992 -0.042227 0.297583
-0.084627 -0.042247 0.297617
-0.083247 -0.042261 0.297602
-0.082095 -0.042393 0.298417
-0.080787 -0.042447 0.298687
-0.079641 -0.042591 0.299578
-0.078348 -0.042659 0.299944
-0.076884 -0.042635 0.299654
-0.075744 -0.042794 0.300646
-0.074729 -0.043030 0.302184
-0.073402 -0.043093 0.302500
-0.069434 -0.041576 0.291734
-0.067738 -0.041387 0.290282
-0.066481 -0.041463 0.290694
-0.065162 -0.041503 0.290854
-0.063842 -0.041544 0.291019
-0.062490 -0.041565 0.291047
-0.061157 -0.041602 0.291179
-0.059934 -0.041715 0.291850
-0.058279 -0.041527 0.290412
-0.056716 -0.041396 0.289380
-0.055378 -0.041428 0.289478
-0.054179 -0.041567 0.290334
-0.052732 -0.041519 0.289879
-0.051278 -0.041463 0.289370
-0.049929 -0.041491 0.289449
-0.048611 -0.041547 0.289723
-0.047242 -0.041561 0.289710
-0.045856 -0.041561 0.289596
-0.044553 -0.041639 0.290028
-0.043224 -0.041697 0.290322
-0.041815 -0.041679 0.290090
-0.039829 -0.041065 0.285709
-0.038690 -0.041311 0.287321
-0.037348 -0.041350 0.287493
-0.035868 -0.041236 0.286597
-0.034856 -0.041670 0.289519
-0.030778 -0.038323 0.266180
-0.028818 -0.037438 0.259951
-0.027577 -0.037450 0.259949
-0.026319 -0.037438 0.259787
-0.025092 -0.037471 0.259943
-0.023867 -0.037511 0.260146
-0.022640 -0.037553 0.260368
-0.021368 -0.037521 0.260079
-0.020130 -0.037546 0.260191
-0.019194 -0.038179 0.264510
-0.018235 -0.038849 0.269097
-0.016960 -0.038900 0.269389
-0.015532 -0.038578 0.267103
-0.014670 -0.039732 0.275043
-0.013057 -0.038880 0.269094
-0.011318 -0.037422 0.258966
-0.010059 -0.037385 0.258667
-0.008844 -0.037528 0.259621
-0.007591 -0.037531 0.259610
-0.006333 -0.037505 0.259396
-0.005084 -0.037525 0.259509
-0.003839 -0.037607 0.260053
-0.002585 -0.037635 0.260224
-0.001325 -0.037559 0.259680
-0.000071 -0.037717 0.260762
0.001198 -0.037999 0.262699
0.002478 -0.038153 0.263759
0.003878 -0.039428 0.272569
0.005194 -0.039424 0.272547
0.006468 -0.039161 0.270731
0.007758 -0.039068 0.270097
0.009034 -0.038940 0.269218
0.010291 -0.038773 0.268082
0.011564 -0.038700 0.267592
0.012832 -0.038624 0.267085
0.014094 -0.038543 0.266555
0.015408 -0.038610 0.267046
0.016666 -0.038536 0.266560
0.018027 -0.038691 0.267671
0.019332 -0.038716 0.267874
0.020553 -0.038579 0.266966
0.021905 -0.038689 0.267774
0.023108 -0.038538 0.266772
0.024515 -0.038726 0.268125
0.026043 -0.039076 0.270601
0.025798 -0.036859 0.255299
0.026898 -0.036679 0.254107
0.027992 -0.036507 0.252970
0.029263 -0.036569 0.253464
0.030451 -0.036528 0.253240
0.031640 -0.036490 0.253041
0.032917 -0.036553 0.253544
0.034210 -0.036629 0.254137
0.035514 -0.036711 0.254772
0.036845 -0.036814 0.255560
0.039045 -0.037751 0.262144
0.040480 -0.037912 0.263340
0.041142 -0.037362 0.259598
0.042048 -0.037060 0.257574
0.043510 -0.037250 0.258979
0.044219 -0.036803 0.255950
0.045243 -0.036636 0.254868
0.046352 -0.036543 0.254308
0.047608 -0.036569 0.254572
0.048896 -0.036618 0.254994
0.050302 -0.036750 0.256005
0.051996 -0.037081 0.258396
0.053449 -0.037229 0.259515
0.055075 -0.037489 0.261411
0.056425 -0.037552 0.261943
0.058172 -0.037872 0.264263
0.060396 -0.038482 0.268611
0.062025 -0.038694 0.270187
0.063316 -0.038692 0.270262
0.064651 -0.038716 0.270521
0.065911 -0.038695 0.270466
0.067211 -0.038699 0.270579
0.068431 -0.038656 0.270373
0.069653 -0.038617 0.270183
0.070937 -0.038612 0.270236
0.072031 -0.038506 0.269581
0.073100 -0.038391 0.268855
0.074278 -0.038336 0.268552
0.075244 -0.038175 0.267507
0.075483 -0.037657 0.263951
0.075004 -0.036803 0.258041
0.077004 -0.037174 0.260714
0.077813 -0.036967 0.259334
0.078577 -0.036746 0.257849
0.080128 -0.036894 0.258949
0.081433 -0.036926 0.259235
0.082852 -0.037007 0.259868
0.083805 -0.036882 0.259041
0.086086 -0.037335 0.262281
0.097089 -0.041505 0.291628
0.098324 -0.041440 0.291223
0.100761 -0.041876 0.294339
0.101584 -0.041639 0.292714
0.102814 -0.041573 0.292288
0.104119 -0.041538 0.292082
0.105385 -0.041489 0.291766
0.106703 -0.041461 0.291599
0.108063 -0.041451 0.291543
0.109678 -0.041537 0.292164
0.110973 -0.041501 0.291921
0.112249 -0.041459 0.291631
0.113655 -0.041465 0.291674
0.115126 -0.041495 0.291875
0.116496 -0.041488 0.291813
0.118130 -0.041574 0.292399
0.119420 -0.041539 0.292120
0.120916 -0.041575 0.292341
0.122169 -0.041528 0.291967
0.123662 -0.041562 0.292158
0.125177 -0.041603 0.292389
0.126500 -0.041580 0.292162
0.127707 -0.041520 0.291665
0.129140 -0.041534 0.291681
0.130779 -0.041612 0.292145
0.131966 -0.041547 0.291587
0.133057 -0.041453 0.290822
0.134845 -0.041577 0.291568
0.136377 -0.041619 0.291739
0.137941 -0.041671 0.291960
0.139486 -0.041715 0.292123
0.141070 -0.041771 0.292350
0.142662 -0.041827 0.292573
0.144170 -0.041858 0.292606
0.146037 -0.041992 0.293344
0.147484 -0.042003 0.293214
0.148548 -0.041906 0.292318
0.150185 -0.041972 0.292537
0.151820 -0.042035 0.292728
0.153485 -0.042105 0.292954
-0.159143 -0.041225 0.299282
-0.154176 -0.040297 0.292783
-0.152658 -0.040261 0.292752
-0.151036 -0.040197 0.292503
-0.150065 -0.040306 0.293505
-0.148658 -0.040300 0.293649
-0.147241 -0.040290 0.293760
-0.145935 -0.040312 0.294084
-0.144498 -0.040297 0.294131
-0.143334 -0.040359 0.294728
-0.141803 -0.040317 0.294563
-0.139884 -0.040164 0.293566
-0.138221 -0.040082 0.293077
-0.136986 -0.040123 0.293486
-0.135264 -0.040021 0.292836
-0.132171 -0.039508 0.289164
-0.131014 -0.039568 0.289682
-0.140144 -0.043223 0.316575
-0.141243 -0.044029 0.322532
-0.136876 -0.043129 0.315991
-0.124179 -0.039557 0.289854
-0.122758 -0.039537 0.289738
-0.121777 -0.039660 0.290660
-0.120503 -0.039690 0.290890
-0.119111 -0.039681 0.290831
-0.117967 -0.039755 0.291376
-0.116512 -0.039725 0.291151
-0.115028 -0.039684 0.290841
-0.113681 -0.039691 0.290870
-0.112401 -0.039721 0.291069
-0.110940 -0.039687 0.290791
-0.109612 -0.039701 0.290856
-0.108361 -0.039743 0.291125
-0.106924 -0.039717 0.290891
-0.105676 -0.039762 0.291167
-0.104084 -0.039676 0.290489
-0.102774 -0.039698 0.290587
-0.101494 -0.039732 0.290773
-0.100148 -0.039740 0.290768
-0.098903 -0.039790 0.291058
-0.097656 -0.039840 0.291350
-0.096295 -0.039844 0.291301
-0.096428 -0.040476 0.295834
-0.096120 -0.040938 0.299127
-0.094864 -0.041005 0.299519
-0.093111 -0.040855 0.298331
-0.092071 -0.041019 0.299428
-0.090541 -0.040966 0.298940
-0.088957 -0.040886 0.298256
-0.087624 -0.040921 0.298408
-0.086098 -0.040866 0.297896
-0.084579 -0.040812 0.297395
-0.083234 -0.040842 0.297501
-0.081836 -0.040847 0.297418
-0.080616 -0.040942 0.297997
-0.079439 -0.041063 0.298757
-0.078192 -0.041151 0.299279
-0.076759 -0.041143 0.299101
-0.075349 -0.041148 0.299010
-0.074577 -0.041507 0.301498
-0.073253 -0.041568 0.301814
-0.069288 -0.040102 0.291051
-0.067815 -0.040048 0.290538
-0.066523 -0.040102 0.290805
-0.065271 -0.040182 0.291262
-0.063919 -0.040203 0.291290
-0.062573 -0.040229 0.291353
-0.061307 -0.040309 0.291808
-0.059905 -0.040301 0.291628
-0.058511 -0.040298 0.291483
-0.056969 -0.040190 0.290580
-0.055568 -0.040180 0.290383
-0.054194 -0.040189 0.290325
-0.052807 -0.040188 0.290201
-0.051405 -0.040176 0.289993
-0.049991 -0.040153 0.289714
-0.048648 -0.040188 0.289850
-0.047298 -0.040219 0.289953
-0.045923 -0.040230 0.289919
-0.044585 -0.040275 0.290135
-0.043255 -0.040331 0.290427
-0.041868 -0.040336 0.290349
-0.040223 -0.040084 0.288428
-0.038878 -0.040123 0.288607
-0.037326 -0.039944 0.287216
-0.035857 -0.039844 0.286399
-0.034795 -0.040205 0.288897
-0.030110 -0.036237 0.260301
-0.028870 -0.036251 0.260318
-0.027586 -0.036209 0.259929
-0.026380 -0.036269 0.260284
-0.025147 -0.036296 0.260405
-0.023891 -0.036291 0.260296
-0.022661 -0.036329 0.260497
-0.021410 -0.036334 0.260464
-0.020183 -0.036386 0.260766
-0.019168 -0.036849 0.264025
-0.018180 -0.037435 0.268159
-0.016949 -0.037573 0.269090
-0.015464 -0.037124 0.265820
-0.014494 -0.037940 0.271612
-0.013085 -0.037655 0.269527
-0.011461 -0.036623 0.262095
-0.010118 -0.036345 0.260060
-0.008891 -0.036461 0.260853
-0.007601 -0.036318 0.259798
-0.006350 -0.036338 0.259910
-0.005105 -0.036410 0.260401
-0.003854 -0.036484 0.260901
-0.002588 -0.036403 0.260307
-0.001328 -0.036353 0.259928
-0.000072 -0.036566 0.261438
0.001208 -0.037080 0.265102
0.002493 -0.037131 0.265464
0.003938 -0.038718 0.276806
0.005275 -0.038715 0.276784
0.006613 -0.038710 0.276756
0.014400 -0.038070 0.272275
0.015710 -0.038056 0.272205
0.017017 -0.038036 0.272093
0.018293 -0.037955 0.271548
0.019483 -0.037718 0.269889
0.020718 -0.037592 0.269033
0.021881 -0.037358 0.267398
0.023109 -0.037254 0.266703
0.024539 -0.037470 0.268301
0.024898 -0.036112 0.258623
0.025949 -0.035838 0.256719
0.027225 -0.035887 0.257123
0.028421 -0.035829 0.256768
0.029636 -0.035800 0.256617
0.030859 -0.035783 0.256556
0.032066 -0.035748 0.256371
0.033291 -0.035736 0.256352
0.034490 -0.035697 0.256143
0.035729 -0.035701 0.256244
0.036995 -0.035731 0.256531
0.038559 -0.036037 0.258803
0.040517 -0.036681 0.263509
0.041376 -0.036321 0.261003
0.042486 -0.036196 0.260182
0.043783 -0.036232 0.260529
0.044550 -0.035841 0.257798
0.045509 -0.035621 0.256297
0.046610 -0.035520 0.255659
0.047735 -0.035443 0.255190
0.049155 -0.035583 0.256283
0.050566 -0.035710 0.257285
0.052248 -0.036018 0.259588
0.053925 -0.036308 0.261768
0.055373 -0.036433 0.262764
0.056786 -0.036531 0.263560
0.058528 -0.036832 0.265820
0.060497 -0.037259 0.269001
0.062226 -0.037524 0.271004
0.063391 -0.037445 0.270527
0.064646 -0.037421 0.270449
0.065990 -0.037449 0.270739
0.067224 -0.037414 0.270578
0.068426 -0.037363 0.270301
0.069572 -0.037284 0.269818
0.070806 -0.037254 0.269693
0.071728 -0.037064 0.268403
0.072789 -0.036951 0.267669
0.074032 -0.036933 0.267622
0.074678 -0.036623 0.265454
0.074893 -0.036115 0.261852
0.074372 -0.035275 0.255835
0.076237 -0.035575 0.258084
0.077557 -0.035616 0.258450
0.078531 -0.035499 0.257666
0.079639 -0.035445 0.257340
0.081245 -0.035611 0.258608
0.082763 -0.035733 0.259562
0.083652 -0.035585 0.258544
0.086028 -0.036065 0.262084
0.096220 -0.039760 0.288996
0.097443 -0.039698 0.288594
0.101259 -0.040678 0.295774
0.101684 -0.040288 0.292985
0.102998 -0.040257 0.292797
0.104300 -0.040221 0.292576
0.105476 -0.040138 0.292006
0.106790 -0.040110 0.291825
0.107992 -0.040041 0.291345
0.109366 -0.040036 0.291327
0.111026 -0.040135 0.292058
0.112639 -0.040214 0.292643
0.113413 -0.039996 0.291055
0.115162 -0.040123 0.291970
0.116537 -0.040118 0.291922
0.117984 -0.040137 0.292045
0.119527 -0.040189 0.292394
0.120983 -0.040210 0.292516
0.122233 -0.040163 0.292133
0.123654 -0.040172 0.292156
0.125003 -0.040158 0.292002
0.126428 -0.040169 0.292017
0.127682 -0.040126 0.291633
0.129099 -0.040134 0.291615
0.130663 -0.040188 0.291913
0.132039 -0.040183 0.291782
0.133249 -0.040128 0.291277
0.134746 -0.040160 0.291391
0.136261 -0.040196 0.291530
0.137646 -0.040194 0.291378
0.139242 -0.040252 0.291656
0.140433 -0.040194 0.291077
0.142237 -0.040311 0.291752
0.143640 -0.040312 0.291583
0.144960 -0.040291 0.291236
0.146547 -0.040344 0.291412
0.147986 -0.040355 0.291273
0.149652 -0.040427 0.291565
0.151628 -0.040581 0.292427
0.153188 -0.040621 0.292461
-0.157921 -0.039495 0.297048
-0.154297 -0.038935 0.293073
-0.152917 -0.038936 0.293307
-0.151593 -0.038951 0.293636
-0.149934 -0.038880 0.293300
-0.148597 -0.038892 0.293578
-0.147144 -0.038873 0.293614
-0.145728 -0.038864 0.293710
-0.144390 -0.038875 0.293952
-0.142960 -0.038863 0.293998
-0.141567 -0.038860 0.294108
-0.140198 -0.038863 0.294257
-0.138622 -0.038809 0.293959
-0.137075 -0.038762 0.293705
-0.135694 -0.038761 0.293793
-0.132174 -0.038144 0.289193
-0.129916 -0.037881 0.287275
-0.140336 -0.041348 0.313641
-0.139081 -0.041413 0.314191
-0.139706 -0.042044 0.319036
-0.138427 -0.042111 0.319584
-0.123878 -0.038097 0.289161
-0.122714 -0.038157 0.289640
-0.121497 -0.038202 0.289997
-0.120283 -0.038248 0.290362
-0.119055 -0.038291 0.290696
-0.117752 -0.038311 0.290845
-0.116457 -0.038334 0.291012
-0.115026 -0.038312 0.290831
-0.113729 -0.038335 0.290986
-0.112421 -0.038355 0.291110
-0.111011 -0.038340 0.290966
-0.109711 -0.038363 0.291104
-0.108241 -0.038327 0.290786
-0.107039 -0.038386 0.291186
-0.105696 -0.038394 0.291202
-0.104305 -0.038387 0.291086
-0.102961 -0.038396 0.291094
-0.101541 -0.038376 0.290882
-0.100130 -0.038360 0.290688
-0.098857 -0.038397 0.290894
-0.097533 -0.038414 0.290949
-0.094413 -0.037715 0.285576
-0.094678 -0.038367 0.290430
-0.095962 -0.039458 0.298598
-0.094709 -0.039522 0.298989
-0.092821 -0.039320 0.297361
-0.091797 -0.039483 0.298494
-0.090446 -0.039508 0.298579
-0.088814 -0.039409 0.297730
-0.087565 -0.039480 0.298156
-0.086141 -0.039473 0.297994
-0.084688 -0.039452 0.297724
-0.083363 -0.039491 0.297906
-0.081827 -0.039430 0.297329
-0.080593 -0.039515 0.297852
-0.079348 -0.039598 0.298356
-0.077802 -0.039530 0.297725
-0.076433 -0.039552 0.297765
-0.075025 -0.039554 0.297658
-0.073786 -0.039647 0.298234
-0.072477 -0.039705 0.298547
-0.068554 -0.038305 0.287896
-0.067689 -0.038592 0.289927
-0.066356 -0.038618 0.289999
-0.064976 -0.038618 0.289874
-0.063873 -0.038785 0.291003
-0.062249 -0.038637 0.289769
-0.060869 -0.038637 0.289643
-0.060018 -0.038980 0.292092
-0.058401 -0.038831 0.290850
-0.056978 -0.038807 0.290542
-0.055595 -0.038809 0.290437
-0.054359 -0.038916 0.291118
-0.052887 -0.038857 0.290552
-0.051437 -0.038811 0.290084
-0.050038 -0.038801 0.289892
-0.048689 -0.038830 0.289996
-0.047332 -0.038856 0.290066
-0.045948 -0.038859 0.289978
-0.044610 -0.038904 0.290199
-0.043272 -0.038951 0.290436
-0.041906 -0.038975 0.290508
-0.039677 -0.038171 0.284409
-0.038537 -0.038395 0.285971
-0.037200 -0.038432 0.286143
-0.035829 -0.038435 0.286065
-0.034545 -0.038536 0.286718
-0.030116 -0.034990 0.260254
-0.028806 -0.034919 0.259636
-0.027524 -0.034876 0.259238
-0.026352 -0.034977 0.259906
-0.025114 -0.034994 0.259959
-0.023836 -0.034955 0.259591
-0.022625 -0.035015 0.259967
-0.021388 -0.035041 0.260090
-0.020146 -0.035061 0.260174
-0.019275 -0.035772 0.265384
-0.018188 -0.036154 0.268158
-0.016887 -0.036137 0.267974
-0.015495 -0.035907 0.266214
-0.014553 -0.036773 0.272583
-0.013015 -0.036156 0.267961
-0.011511 -0.035507 0.263104
-0.010136 -0.035143 0.260370
-0.008900 -0.035231 0.260984
-0.007621 -0.035147 0.260325
-0.006363 -0.035143 0.260267
-0.005104 -0.035137 0.260193
-0.003864 -0.035297 0.261355
-0.002585 -0.035080 0.259730
-0.001338 -0.035322 0.261501
-0.000074 -0.035347 0.261674
0.001200 -0.035605 0.263574
0.002478 -0.035650 0.263897
0.003744 -0.035553 0.263181
0.005279 -0.037415 0.276963
0.006359 -0.035946 0.266094
0.017033 -0.036759 0.272268
0.017853 -0.035764 0.264939
0.019224 -0.035932 0.266220
0.020693 -0.036252 0.268628
0.021755 -0.035861 0.265779
0.022904 -0.035651 0.264267
0.024167 -0.035629 0.264157
0.024833 -0.034775 0.257876
0.026039 -0.034722 0.257533
0.027301 -0.034745 0.257759
0.028496 -0.034685 0.257374
0.029722 -0.034665 0.257290
0.030984 -0.034687 0.257520
0.032224 -0.034684 0.257565
0.033458 -0.034675 0.257566
0.034693 -0.034668 0.257582
0.035854 -0.034590 0.257071
0.037219 -0.034706 0.258013
0.038690 -0.034911 0.259612
0.040534 -0.035429 0.263546
0.041761 -0.035393 0.263359
0.042636 -0.035070 0.261036
0.044074 -0.035215 0.262196
0.045079 -0.035014 0.260790
0.046140 -0.034868 0.259784
0.047192 -0.034723 0.258789
0.048503 -0.034770 0.259232
0.049785 -0.034795 0.259503
0.051342 -0.035006 0.261171
0.052778 -0.035127 0.262161
0.054219 -0.035245 0.263133
0.055612 -0.035327 0.263842
0.056827 -0.035295 0.263694
0.058740 -0.035689 0.266728
0.060788 -0.036146 0.270238
0.062168 -0.036195 0.270699
0.063320 -0.036112 0.270172
0.064693 -0.036155 0.270592
0.065988 -0.036154 0.270679
0.067249 -0.036136 0.270632
0.068430 -0.036075 0.270271
0.069623 -0.036023 0.269970
0.070905 -0.036018 0.270022
0.071690 -0.035765 0.268214
0.072551 -0.035559 0.266752
0.073959 -0.035623 0.267318
0.074500 -0.035274 0.264784
0.074693 -0.034775 0.261116
0.074738 -0.034224 0.257057
0.076220 -0.034339 0.257993
0.077460 -0.034343 0.258095
0.078337 -0.034188 0.257000
0.079577 -0.034194 0.257113
0.080903 -0.034236 0.257494
0.082281 -0.034299 0.258026
0.083701 -0.034377 0.258672
0.085083 -0.034437 0.259182
0.085843 -0.034247 0.257808
0.098597 -0.038781 0.291989
0.100138 -0.038839 0.292481
0.101965 -0.039005 0.293777
0.103115 -0.038911 0.293113
0.104379 -0.038861 0.292782
0.105737 -0.038848 0.292718
0.106731 -0.038704 0.291656
0.108251 -0.038751 0.292035
0.109677 -0.038763 0.292150
0.110671 -0.038625 0.291119
0.112367 -0.038732 0.291936
0.113734 -0.038724 0.291880
0.114955 -0.038668 0.291449
0.116366 -0.038675 0.291497
0.117865 -0.038712 0.291757
0.119491 -0.038789 0.292313
0.121045 -0.038841 0.292677
0.122359 -0.038816 0.292450
0.123637 -0.038780 0.292132
0.125046 -0.038785 0.292122
0.126372 -0.038765 0.291909
0.127627 -0.038724 0.291529
0.129004 -0.038720 0.291425
0.130577 -0.038774 0.291749
0.131959 -0.038772 0.291634
0.133273 -0.038749 0.291361
0.134838 -0.038799 0.291625
0.136604 -0.038906 0.292301
0.138503 -0.039048 0.293233
0.139396 -0.038906 0.292023
0.141139 -0.039002 0.292587
0.142586 -0.039014 0.292517
0.143947 -0.039004 0.292259
0.145347 -0.039004 0.292068
0.146756 -0.039006 0.291884
0.148220 -0.039023 0.291794
0.149486 -0.038988 0.291303
0.151113 -0.039047 0.291500
0.152712 -0.039097 0.291621
-0.156964 -0.037851 0.295309
-0.154136 -0.037502 0.292824
-0.152622 -0.037470 0.292796
-0.151191 -0.037458 0.292909
-0.149848 -0.037467 0.293182
-0.148434 -0.037459 0.293303
-0.147176 -0.037490 0.293722
-0.145773 -0.037484 0.293842
-0.143990 -0.037380 0.293177
-0.142599 -0.037377 0.293293
-0.141438 -0.037435 0.293875
-0.140093 -0.037444 0.294068
-0.138258 -0.037322 0.293215
-0.136599 -0.037245 0.292711
-0.135336 -0.037275 0.293041
-0.132320 -0.036819 0.289535
-0.129903 -0.036521 0.287265
-0.139306 -0.039576 0.311357
-0.138061 -0.039638 0.311903
-0.138656 -0.040235 0.316653
-0.137388 -0.040299 0.317198
-0.123919 -0.036746 0.289265
-0.122627 -0.036765 0.289441
-0.121402 -0.036806 0.289775
-0.120269 -0.036875 0.290330
-0.118962 -0.036892 0.290468
-0.117665 -0.036913 0.290628
-0.116353 -0.036929 0.290746
-0.114923 -0.036908 0.290566
-0.113559 -0.036908 0.290542
-0.112328 -0.036951 0.290860
-0.110886 -0.036926 0.290627
-0.109473 -0.036909 0.290459
-0.107884 -0.036833 0.289813
-0.106768 -0.036918 0.290432
-0.105705 -0.037023 0.291210
-0.104103 -0.036940 0.290500
-0.102803 -0.036964 0.290622
-0.101537 -0.037001 0.290843
-0.100147 -0.036993 0.290710
-0.098798 -0.037000 0.290690
-0.097676 -0.037093 0.291347
-0.093644 -0.036069 0.283219
-0.096634 -0.037758 0.296396
-0.096127 -0.038111 0.299072
-0.094872 -0.038173 0.299464
-0.093113 -0.038031 0.298255
-0.091943 -0.038129 0.298924
-0.090552 -0.038138 0.298886
-0.089066 -0.038106 0.298527
-0.087498 -0.038037 0.297879
-0.086156 -0.038066 0.297996
-0.084777 -0.038079 0.297984
-0.083371 -0.038081 0.297879
-0.082017 -0.038107 0.297965
-0.080572 -0.038090 0.297716
-0.079211 -0.038114 0.297780
-0.077863 -0.038144 0.297897
-0.076401 -0.038119 0.297578
-0.074668 -0.037956 0.296180
-0.073584 -0.038122 0.297349
-0.072279 -0.038179 0.297662
-0.069397 -0.037388 0.291369
-0.067914 -0.037333 0.290822
-0.066531 -0.037333 0.290695
-0.065366 -0.037458 0.291536
-0.063860 -0.037389 0.290873
-0.062605 -0.037466 0.291351
-0.061345 -0.037544 0.291831
-0.059693 -0.037381 0.290433
-0.058491 -0.037498 0.291219
-0.057018 -0.037443 0.290664
-0.055598 -0.037421 0.290369
-0.054272 -0.037462 0.290567
-0.052898 -0.037473 0.290523
-0.051457 -0.037434 0.290104
-0.050054 -0.037423 0.289894
-0.048675 -0.037429 0.289823
-0.047349 -0.037477 0.290077
-0.045962 -0.037479 0.289975
-0.044598 -0.037500 0.290021
-0.043279 -0.037562 0.290389
-0.041902 -0.037575 0.290381
-0.039901 -0.037011 0.285914
-0.038567 -0.037048 0.286092
-0.037137 -0.036992 0.285554
-0.035783 -0.037009 0.285591
-0.034629 -0.037244 0.287305
-0.030566 -0.034240 0.264039
-0.028876 -0.033749 0.260170
-0.027591 -0.033707 0.259765
-0.026440 -0.033835 0.260668
-0.025142 -0.033777 0.260147
-0.023900 -0.033792 0.260183
-0.022667 -0.033823 0.260349
-0.021406 -0.033813 0.260205
-0.020182 -0.033864 0.260530
-0.019246 -0.034436 0.264868
-0.018205 -0.034889 0.268287
-0.016951 -0.034973 0.268873
-0.015503 -0.034636 0.266230
-0.014447 -0.035194 0.270466
-0.013006 -0.034832 0.267637
-0.011472 -0.034116 0.262091
-0.010139 -0.033891 0.260318
-0.008877 -0.033874 0.260149
-0.007614 -0.033848 0.259918
-0.006352 -0.033817 0.259649
-0.005106 -0.033882 0.260116
-0.003872 -0.034092 0.261707
-0.002617 -0.034227 0.262724
-0.001348 -0.034275 0.263075
-0.000077 -0.034628 0.265771
0.001217 -0.034872 0.267634
0.002491 -0.034582 0.265402
0.003880 -0.035548 0.272809
0.005200 -0.035545 0.272787
0.006522 -0.035556 0.272876
0.007841 -0.035550 0.272842
0.018301 -0.035353 0.271519
0.019605 -0.035336 0.271430
0.020704 -0.034974 0.268690
0.021812 -0.034672 0.266409
0.023046 -0.034590 0.265832
0.024317 -0.034569 0.265721
0.024900 -0.033623 0.258499
0.026073 -0.033525 0.257799
0.027318 -0.033524 0.257849
0.028498 -0.033447 0.257318
0.029755 -0.033463 0.257507
0.030977 -0.033439 0.257388
0.032243 -0.033464 0.257646
0.033463 -0.033440 0.257532
0.034724 -0.033458 0.257735
0.035931 -0.033424 0.257548
0.037226 -0.033471 0.257989
0.038764 -0.033727 0.260041
0.041052 -0.034599 0.266845
0.041913 -0.034252 0.264252
0.042835 -0.033973 0.262182
0.044028 -0.033920 0.261857
0.045200 -0.033853 0.261427
0.046500 -0.033883 0.261746
0.047446 -0.033661 0.260117
0.048673 -0.033644 0.260078
0.050081 -0.033750 0.260985
0.051330 -0.033746 0.261047
0.052793 -0.033880 0.262175
0.054343 -0.034062 0.263676
0.055659 -0.034092 0.264006
0.057003 -0.034138 0.264455
0.058623 -0.034343 0.266138
0.060786 -0.034851 0.270171
0.062038 -0.034827 0.270077
0.063318 -0.034818 0.270107
0.064676 -0.034853 0.270469
0.066002 -0.034869 0.270687
0.067267 -0.034852 0.270655
0.068429 -0.034784 0.270218
0.069624 -0.034735 0.269926
0.070759 -0.034658 0.269421
0.071502 -0.034395 0.267468
0.072308 -0.034172 0.265819
0.073309 -0.034047 0.264929
0.074171 -0.033862 0.263575
0.074861 -0.033606 0.261664
0.075202 -0.033205 0.258620
0.076255 -0.033126 0.258078
0.077449 -0.033109 0.258024
0.078307 -0.032952 0.256872
0.079591 -0.032977 0.257128
0.080931 -0.033023 0.257555
0.082338 -0.033095 0.258178
0.083660 -0.033131 0.258523
0.085266 -0.033277 0.259719
0.086367 -0.033224 0.259361
0.099968 -0.037913 0.296027
0.101217 -0.037853 0.295610
0.101063 -0.037277 0.291162
0.102448 -0.037276 0.291201
0.103885 -0.037294 0.291384
0.104897 -0.037161 0.290379
0.106157 -0.037118 0.290078
0.107578 -0.037132 0.290210
0.109338 -0.037261 0.291241
0.110862 -0.037307 0.291619
0.112506 -0.037393 0.292294
0.113665 -0.037316 0.291701
0.114998 -0.037298 0.291561
0.116468 -0.037325 0.291758
0.117850 -0.037323 0.291727
0.119278 -0.037335 0.291802
0.120686 -0.037341 0.291819
0.122145 -0.037362 0.291949
0.123444 -0.037334 0.291692
0.124802 -0.037325 0.291568
0.126350 -0.037372 0.291877
0.127524 -0.037309 0.291316
0.128768 -0.037267 0.290914
0.130533 -0.037375 0.291676
0.131522 -0.037261 0.290698
0.132965 -0.037277 0.290718
0.134682 -0.037369 0.291322
0.136326 -0.037438 0.291742
0.137939 -0.037498 0.292077
0.139443 -0.037527 0.292162
0.140816 -0.037521 0.291960
0.142318 -0.037548 0.292011
0.143718 -0.037549 0.291842
0.145160 -0.037561 0.291744
0.146822 -0.037628 0.292069
0.148017 -0.037576 0.291452
0.149372 -0.037565 0.291142
0.151039 -0.037632 0.291421
0.152701 -0.037696 0.291666
-0.156708 -0.036387 0.294886
-0.154220 -0.036130 0.293039
-0.152768 -0.036114 0.293129
-0.151578 -0.036160 0.293708
-0.149837 -0.036074 0.293206
-0.148303 -0.036037 0.293088
-0.146956 -0.036045 0.293324
-0.145262 -0.035967 0.292851
-0.144044 -0.036007 0.293324
-0.142703 -0.036016 0.293540
-0.141167 -0.035976 0.293343
-0.139717 -0.035958 0.293309
-0.138034 -0.035878 0.292768
-0.136809 -0.035918 0.293187
-0.134394 -0.035642 0.291026
-0.132715 -0.035558 0.290418
-0.131556 -0.035613 0.290938
-0.138505 -0.038289 0.312920
-0.139446 -0.038962 0.318471
-0.138172 -0.039024 0.319019
-0.124035 -0.035415 0.289544
-0.122606 -0.035395 0.289399
-0.121406 -0.035441 0.289789
-0.120280 -0.035509 0.290360
-0.119016 -0.035539 0.290601
-0.117634 -0.035533 0.290549
-0.116432 -0.035582 0.290940
-0.114977 -0.035554 0.290695
-0.113467 -0.035509 0.290299
-0.111990 -0.035472 0.289973
-0.110723 -0.035503 0.290188
-0.109319 -0.035489 0.290036
-0.107913 -0.035475 0.289874
-0.106764 -0.035546 0.290404
-0.105484 -0.035574 0.290580
-0.104083 -0.035562 0.290423
-0.102851 -0.035608 0.290736
-0.101440 -0.035593 0.290543
-0.100314 -0.035678 0.291166
-0.098942 -0.035678 0.291086
-0.097160 -0.035527 0.289776
-0.094200 -0.034936 0.284868
-0.096449 -0.036287 0.295795
-0.096429 -0.036811 0.299974
-0.095170 -0.036871 0.300368
-0.093529 -0.036783 0.299547
-0.092501 -0.036936 0.300695
-0.090885 -0.036857 0.299939
-0.089297 -0.036786 0.299255
-0.087868 -0.036779 0.299090
-0.086180 -0.036663 0.298028
-0.084768 -0.036661 0.297901
-0.083319 -0.036644 0.297642
-0.081817 -0.036602 0.297183
-0.080474 -0.036631 0.297300
-0.078869 -0.036540 0.296437
-0.077448 -0.036532 0.296249
-0.076154 -0.036585 0.296556
-0.074416 -0.036423 0.295116
-0.072910 -0.036371 0.294564
-0.071618 -0.036425 0.294875
-0.068818 -0.035699 0.288872
-0.067915 -0.035948 0.290759
-0.066437 -0.035896 0.290212
-0.065210 -0.035981 0.290772
-0.063995 -0.036076 0.291415
-0.062473 -0.035998 0.290660
-0.061220 -0.036076 0.291159
-0.059887 -0.036109 0.291296
-0.058498 -0.036109 0.291174
-0.057123 -0.036118 0.291118
-0.055667 -0.036075 0.290644
-0.054302 -0.036091 0.290647
-0.052942 -0.036111 0.290682
-0.051520 -0.036087 0.290372
-0.050084 -0.036054 0.289980
-0.048737 -0.036084 0.290103
-0.047403 -0.036126 0.290319
-0.046014 -0.036127 0.290208
-0.044663 -0.036159 0.290351
-0.043313 -0.036194 0.290521
-0.041949 -0.036220 0.290610
-0.040248 -0.035945 0.288300
-0.038902 -0.035981 0.288480
-0.037192 -0.035669 0.285873
-0.035768 -0.035619 0.285369
-0.034467 -0.035692 0.285855
-0.030322 -0.032704 0.261836
-0.028904 -0.032526 0.260327
-0.027565 -0.032424 0.259424
-0.026404 -0.032532 0.260209
-0.025153 -0.032536 0.260160
-0.023894 -0.032528 0.260020
-0.022649 -0.032538 0.260032
-0.021393 -0.032535 0.259936
-0.020174 -0.032590 0.260312
-0.019321 -0.033285 0.265795
-0.018208 -0.033596 0.268215
-0.016966 -0.033700 0.268988
-0.015509 -0.033360 0.266213
-0.014369 -0.033703 0.268897
-0.013018 -0.033569 0.267777
-0.011511 -0.032956 0.262847
-0.010216 -0.032875 0.262158
-0.008920 -0.032770 0.261284
-0.007628 -0.032648 0.260276
-0.006362 -0.032606 0.259905
-0.005112 -0.032649 0.260227
-0.003868 -0.032777 0.261223
-0.002616 -0.032919 0.262334
-0.001349 -0.032970 0.262724
-0.000078 -0.033269 0.265092
0.001211 -0.033456 0.266572
0.002505 -0.033511 0.266998
0.003830 -0.033798 0.269284
0.005203 -0.034257 0.272942
0.006413 -0.033675 0.268309
0.007562 -0.033020 0.263101
0.008697 -0.032502 0.258979
0.009913 -0.032381 0.258033
0.011183 -0.032440 0.258521
0.012469 -0.032532 0.259276
0.013752 -0.032598 0.259830
0.015013 -0.032606 0.259919
0.016384 -0.032833 0.261762
0.017677 -0.032882 0.262184
0.019052 -0.033067 0.263702
0.020410 -0.033200 0.264802
0.021651 -0.033139 0.264365
0.022888 -0.033080 0.263939
0.024165 -0.033081 0.263997
0.025144 -0.032693 0.260954
0.026181 -0.032415 0.258792
0.027483 -0.032476 0.259336
0.028660 -0.032390 0.258708
0.029873 -0.032350 0.258453
0.031162 -0.032392 0.258853
0.032359 -0.032339 0.258502
0.033668 -0.032397 0.259037
0.034891 -0.032372 0.258907
0.035972 -0.032222 0.257779
0.037445 -0.032420 0.259443
0.039205 -0.032846 0.262934
0.041086 -0.033344 0.267000
0.042396 -0.033361 0.267225
0.043501 -0.033222 0.266194
0.044851 -0.033272 0.266685
0.046126 -0.033265 0.266718
0.047260 -0.033159 0.265961
0.048586 -0.033191 0.266306
0.049704 -0.033082 0.265524
0.050903 -0.033032 0.265210
0.052142 -0.033008 0.265119
0.053487 -0.033052 0.265565
0.054872 -0.033117 0.266183
0.056137 -0.033109 0.266214
0.057581 -0.033205 0.267077
0.059257 -0.033427 0.268961
0.060806 -0.033569 0.270205
0.062115 -0.033577 0.270361
0.063358 -0.033548 0.270228
0.064636 -0.033539 0.270252
0.065939 -0.033543 0.270378
0.067222 -0.033537 0.270424
0.068401 -0.033480 0.270061
0.069534 -0.033403 0.269533
0.070551 -0.033274 0.268587
0.071127 -0.032946 0.266026
0.071907 -0.032722 0.264304
0.073009 -0.032649 0.263804
0.073935 -0.032502 0.262700
0.074519 -0.032212 0.260435
0.075327 -0.032026 0.259015
0.076267 -0.031902 0.258087
0.077427 -0.031872 0.257923
0.078586 -0.031843 0.257758
0.079771 -0.031825 0.257682
0.081348 -0.031961 0.258855
0.082810 -0.032049 0.259633
0.083943 -0.032009 0.259371
0.085724 -0.032214 0.261090
0.099947 -0.036499 0.295945
0.101195 -0.036441 0.295528
0.101852 -0.036174 0.293417
0.102742 -0.035996 0.292021
0.104400 -0.036088 0.292813
0.105784 -0.036085 0.292823
0.106429 -0.035833 0.290809
0.108334 -0.036006 0.292243
0.109633 -0.035976 0.292020
0.111012 -0.035972 0.292009
0.112409 -0.035974 0.292039
0.113644 -0.035925 0.291648
0.115303 -0.036010 0.292335
0.116387 -0.035915 0.291557
0.117872 -0.035944 0.291785
0.119277 -0.035949 0.291806
0.120496 -0.035899 0.291369
0.122100 -0.035963 0.291854
0.123437 -0.035947 0.291687
0.124810 -0.035943 0.291602
0.126111 -0.035918 0.291343
0.127584 -0.035941 0.291472
0.128697 -0.035865 0.290777
0.129993 -0.035840 0.290494
0.131927 -0.035989 0.291617
0.133315 -0.035989 0.291512
0.134683 -0.035983 0.291354
0.136151 -0.036003 0.291402
0.137585 -0.036014 0.291362
0.139080 -0.036041 0.291440
0.140597 -0.036073 0.291547
0.142234 -0.036134 0.291884
0.143712 -0.036155 0.291877
0.145078 -0.036147 0.291628
0.146620 -0.036183 0.291720
0.148096 -0.036202 0.291661
0.149610 -0.036229 0.291661
0.151424 -0.036328 0.292223
0.153015 -0.036373 0.292329
-0.156718 -0.034987 0.294960
-0.154389 -0.034776 0.293414
-0.152735 -0.034715 0.293115
-0.151526 -0.034754 0.293656
-0.149761 -0.034666 0.293102
-0.147857 -0.034544 0.292249
-0.146394 -0.034523 0.292241
-0.144937 -0.034503 0.292233
-0.143562 -0.034503 0.292377
-0.142269 -0.034523 0.292680
-0.140680 -0.034470 0.292361
-0.139291 -0.034466 0.292442
-0.138264 -0.034553 0.293281
-0.135896 -0.034303 0.291253
-0.134807 -0.034374 0.291942
-0.133035 -0.034270 0.291139
-0.126610 -0.032953 0.280018
-0.138403 -0.036400 0.309372
-0.137168 -0.036458 0.309915
-0.139079 -0.037362 0.317645
-0.137809 -0.037421 0.318191
-0.124037 -0.034050 0.289555
-0.122679 -0.034050 0.289575
-0.121436 -0.034083 0.289862
-0.120255 -0.034133 0.290300
-0.118979 -0.034158 0.290510
-0.117722 -0.034189 0.290764
-0.116445 -0.034214 0.290969
-0.115111 -0.034223 0.291028
-0.113728 -0.034218 0.290959
-0.112506 -0.034262 0.291300
-0.111031 -0.034229 0.290982
-0.109632 -0.034219 0.290853
-0.108012 -0.034138 0.290124
-0.106745 -0.034169 0.290333
-0.105440 -0.034188 0.290440
-0.104035 -0.034175 0.290268
-0.102696 -0.034184 0.290274
-0.101392 -0.034204 0.290379
-0.100061 -0.034216 0.290406
-0.098591 -0.034181 0.290026
-0.096588 -0.033956 0.288042
-0.094364 -0.033647 0.285333
-0.096040 -0.034739 0.294505
-0.096067 -0.035259 0.298813
-0.094814 -0.035317 0.299206
-0.093238 -0.035254 0.298577
-0.091929 -0.035292 0.298794
-0.090667 -0.035350 0.299179
-0.089154 -0.035311 0.298732
-0.087748 -0.035313 0.298637
-0.086238 -0.035272 0.298180
-0.084707 -0.035222 0.297638
-0.083233 -0.035194 0.297285
-0.081759 -0.035165 0.296918
-0.080361 -0.035169 0.296827
-0.078757 -0.035081 0.295959
-0.077599 -0.035192 0.296771
-0.076121 -0.035159 0.296370
-0.074556 -0.035084 0.295608
-0.073374 -0.035190 0.296375
-0.072074 -0.035243 0.296688
-0.070342 -0.035082 0.295205
-0.067931 -0.034569 0.290760
-0.066667 -0.034631 0.291152
-0.065433 -0.034711 0.291698
-0.063730 -0.034540 0.290134
-0.062671 -0.034719 0.291507
-0.061010 -0.034565 0.290084
-0.059690 -0.034602 0.290263
-0.058538 -0.034740 0.291292
-0.057018 -0.034661 0.290504
-0.055621 -0.034655 0.290327
-0.054306 -0.034701 0.290587
-0.052917 -0.034701 0.290459
-0.051446 -0.034645 0.289871
-0.050110 -0.034681 0.290044
-0.048729 -0.034685 0.289962
-0.047365 -0.034704 0.289993
-0.046005 -0.034726 0.290059
-0.044644 -0.034749 0.290138
-0.043256 -0.034751 0.290040
-0.041895 -0.034777 0.290139
-0.039580 -0.033985 0.283426
-0.038328 -0.034082 0.284127
-0.036999 -0.034115 0.284299
-0.035768 -0.034245 0.285276
-0.034565 -0.034412 0.286573
-0.030243 -0.031360 0.261065
-0.028858 -0.031221 0.259817
-0.027528 -0.031131 0.258988
-0.026309 -0.031164 0.259181
-0.025128 -0.031248 0.259802
-0.023870 -0.031240 0.259654
-0.022662 -0.031300 0.260081
-0.021412 -0.031306 0.260062
-0.020175 -0.031334 0.260225
-0.019258 -0.031895 0.264820
-0.018214 -0.032310 0.268200
-0.016926 -0.032323 0.268253
-0.015592 -0.032242 0.267526
-0.014427 -0.032530 0.269854
-0.013039 -0.032322 0.268078
-0.011602 -0.031931 0.264792
-0.010313 -0.031904 0.264526
-0.009051 -0.031963 0.264975
-0.007735 -0.031822 0.263770
-0.006471 -0.031880 0.264220
-0.005202 -0.031938 0.264671
-0.003933 -0.032034 0.265441
-0.002658 -0.032148 0.266367
-0.001369 -0.032132 0.266221
-0.000080 -0.032319 0.267750
0.001219 -0.032418 0.268561
0.002496 -0.032122 0.266101
0.003832 -0.032523 0.269421
0.005176 -0.032775 0.271512
0.006254 -0.031578 0.261600
0.007351 -0.030867 0.255720
0.008602 -0.030913 0.256111
0.009872 -0.031005 0.256892
0.011094 -0.030945 0.256407
0.012368 -0.031028 0.257119
0.013634 -0.031075 0.257532
0.014911 -0.031139 0.258089
0.016229 -0.031271 0.259222
0.017523 -0.031341 0.259838
0.018831 -0.031426 0.260574
0.020258 -0.031686 0.262772
0.021624 -0.031824 0.263967
0.022938 -0.031875 0.264435
0.024202 -0.031855 0.264324
0.025240 -0.031555 0.261886
0.026208 -0.031199 0.258992
0.027517 -0.031264 0.259587
0.028713 -0.031200 0.259120
0.029903 -0.031135 0.258646
0.031156 -0.031138 0.258734
0.032381 -0.031115 0.258609
0.033704 -0.031183 0.259245
0.034938 -0.031167 0.259187
0.036114 -0.031102 0.258723
0.037663 -0.031352 0.260882
0.039302 -0.031659 0.263517
0.040682 -0.031743 0.264304
0.042219 -0.031942 0.266043
0.043346 -0.031828 0.265179
0.044662 -0.031856 0.265497
0.045985 -0.031886 0.265839
0.047065 -0.031751 0.264803
0.048172 -0.031641 0.263976
0.049440 -0.031639 0.264053
0.050581 -0.031558 0.263473
0.051731 -0.031486 0.262969
0.053017 -0.031499 0.263169
0.054241 -0.031475 0.263067
0.055534 -0.031492 0.263302
0.057119 -0.031670 0.264883
0.059017 -0.032009 0.267821
0.060552 -0.032141 0.269025
0.061951 -0.032197 0.269592
0.063257 -0.032204 0.269746
0.064609 -0.032233 0.270088
0.065953 -0.032257 0.270386
0.067205 -0.032236 0.270308
0.068426 -0.032202 0.270114
0.069509 -0.032104 0.269391
0.070410 -0.031928 0.268008
0.070877 -0.031565 0.265049
0.071775 -0.031403 0.263778
0.072612 -0.031221 0.262334
0.073520 -0.031074 0.261187
0.074368 -0.030908 0.259871
0.074927 -0.030629 0.257606
0.075951 -0.030546 0.256986
0.077217 -0.030561 0.257194
0.078367 -0.030530 0.257010
0.079515 -0.030501 0.256830
0.080989 -0.030595 0.257690
0.082426 -0.030672 0.258407
0.083961 -0.030783 0.259404
0.085620 -0.030935 0.260753
0.096796 -0.034473 0.290635
0.098024 -0.034417 0.290229
0.101149 -0.035021 0.295372
0.101097 -0.034522 0.291224
0.102340 -0.034474 0.290864
0.104114 -0.034603 0.291999
0.105392 -0.034566 0.291726
0.106714 -0.034544 0.291578
0.108163 -0.034564 0.291774
0.109580 -0.034573 0.291872
0.110754 -0.034506 0.291326
0.112133 -0.034503 0.291319
0.113622 -0.034535 0.291590
0.115051 -0.034547 0.291696
0.116313 -0.034509 0.291376
0.117834 -0.034549 0.291696
0.119209 -0.034545 0.291646
0.120517 -0.034522 0.291427
0.121976 -0.034542 0.291567
0.123505 -0.034581 0.291861
0.124850 -0.034569 0.291710
0.126314 -0.034589 0.291828
0.127678 -0.034582 0.291706
0.128998 -0.034563 0.291477
0.130371 -0.034559 0.291363
0.131871 -0.034588 0.291520
0.133513 -0.034654 0.291973
0.134801 -0.034627 0.291639
0.136388 -0.034676 0.291941
0.137764 -0.034672 0.291776
0.139193 -0.034681 0.291712
0.140563 -0.034675 0.291515
0.142255 -0.034747 0.291968
0.143533 -0.034719 0.291557
0.144951 -0.034724 0.291418
0.146422 -0.034742 0.291374
0.147865 -0.034753 0.291257
0.149145 -0.034725 0.290809
0.150596 -0.034738 0.290682
0.152447 -0.034842 0.291303
-0.158046 -0.033870 0.297512
-0.153997 -0.033298 0.292719
-0.152311 -0.033231 0.292347
-0.151013 -0.033248 0.292706
-0.149876 -0.033302 0.293371
-0.147977 -0.033186 0.292525
-0.146425 -0.033146 0.292341
-0.144783 -0.033085 0.291958
-0.143407 -0.033084 0.292096
-0.142015 -0.033080 0.292188
-0.140640 -0.033079 0.292307
-0.139248 -0.033074 0.292378
-0.138031 -0.033112 0.292813
-0.136233 -0.033009 0.291997
-0.134804 -0.032995 0.291954
-0.128260 -0.031715 0.280706
-0.127053 -0.031743 0.281012
-0.138942 -0.035077 0.310591
-0.137703 -0.035133 0.311136
-0.138020 -0.035591 0.315237
-0.136921 -0.035690 0.316149
-0.123973 -0.032668 0.289411
-0.122761 -0.032707 0.289772
-0.121411 -0.032709 0.289805
-0.120265 -0.032767 0.290325
-0.119074 -0.032815 0.290741
-0.117660 -0.032801 0.290609
-0.116186 -0.032769 0.290317
-0.114828 -0.032770 0.290307
-0.113395 -0.032750 0.290099
-0.111860 -0.032699 0.289617
-0.110396 -0.032669 0.289307
-0.109198 -0.032716 0.289688
-0.107866 -0.032725 0.289716
-0.106593 -0.032752 0.289902
-0.105424 -0.032812 0.290377
-0.104042 -0.032807 0.290266
-0.102696 -0.032813 0.290251
-0.101443 -0.032849 0.290501
-0.100193 -0.032887 0.290765
-0.098850 -0.032896 0.290758
-0.097630 -0.032946 0.291118
-0.094325 -0.032284 0.285186
-0.096980 -0.033672 0.297354
-0.096613 -0.034037 0.300476
-0.095354 -0.034093 0.300872
-0.093915 -0.034086 0.300704
-0.092447 -0.034068 0.300438
-0.090888 -0.034015 0.299864
-0.089410 -0.033992 0.299545
-0.088094 -0.034030 0.299769
-0.086524 -0.033970 0.299121
-0.084977 -0.033917 0.298540
-0.083489 -0.033886 0.298149
-0.081861 -0.033797 0.297238
-0.080699 -0.033900 0.298023
-0.078813 -0.033697 0.296116
-0.077100 -0.033563 0.294805
-0.076340 -0.033846 0.297164
-0.074457 -0.033632 0.295157
-0.073090 -0.033647 0.295166
-0.071795 -0.033698 0.295478
-0.069705 -0.033369 0.292468
-0.067918 -0.033176 0.290641
-0.066125 -0.032971 0.288718
-0.065281 -0.033241 0.290951
-0.063926 -0.033257 0.290959
-0.062353 -0.033158 0.289961
-0.061184 -0.033273 0.290841
-0.059796 -0.033273 0.290708
-0.058435 -0.033287 0.290704
-0.057096 -0.033316 0.290824
-0.055692 -0.033307 0.290617
-0.054311 -0.033312 0.290535
-0.052937 -0.033321 0.290487
-0.051502 -0.033291 0.290104
-0.050112 -0.033290 0.289970
-0.048761 -0.033315 0.290068
-0.047397 -0.033334 0.290106
-0.046032 -0.033352 0.290141
-0.044699 -0.033396 0.290406
-0.043328 -0.033412 0.290435
-0.041929 -0.033408 0.290286
-0.039810 -0.032810 0.284977
-0.038480 -0.032843 0.285156
-0.037102 -0.032837 0.284997
-0.035790 -0.032890 0.285357
-0.034585 -0.033050 0.286641
-0.030180 -0.030038 0.260430
-0.028904 -0.030015 0.260138
-0.027544 -0.029898 0.259046
-0.026304 -0.029907 0.259041
-0.025091 -0.029949 0.259327
-0.023838 -0.029945 0.259207
-0.022602 -0.029964 0.259303
-0.021371 -0.029991 0.259468
-0.020150 -0.030037 0.259796
-0.019315 -0.030704 0.265496
-0.018190 -0.030970 0.267732
-0.017101 -0.031345 0.270911
-0.015592 -0.030947 0.267416
-0.014437 -0.031243 0.269922
-0.013128 -0.031235 0.269796
-0.011641 -0.030752 0.265579
-0.010344 -0.030712 0.265196
-0.009059 -0.030704 0.265083
-0.007711 -0.030446 0.262820
-0.006437 -0.030436 0.262704
-0.005163 -0.030420 0.262539
-0.003906 -0.030527 0.263434
-0.002650 -0.030747 0.265318
-0.001365 -0.030723 0.265091
-0.000082 -0.031054 0.267929
0.001222 -0.031219 0.269347
0.002482 -0.030677 0.264663
0.003836 -0.031264 0.269724
0.005173 -0.031450 0.271325
0.006226 -0.030186 0.260428
0.007385 -0.029770 0.256849
0.008628 -0.029768 0.256842
0.009875 -0.029777 0.256933
0.011121 -0.029782 0.256993
0.012378 -0.029810 0.257260
0.013638 -0.029841 0.257553
0.014919 -0.029909 0.258166
0.016214 -0.029992 0.258916
0.017487 -0.030025 0.259237
0.018798 -0.030114 0.260048
0.020173 -0.030289 0.261596
0.021673 -0.030619 0.264500
0.022999 -0.030681 0.265078
0.024267 -0.030662 0.264967
0.025238 -0.030288 0.261793
0.026345 -0.030106 0.260276
0.027553 -0.030051 0.259858
0.028755 -0.029994 0.259430
0.029963 -0.029948 0.259099
0.031186 -0.029919 0.258916
0.032443 -0.029925 0.259035
0.033717 -0.029945 0.259278
0.035022 -0.029990 0.259747
0.036411 -0.030102 0.260788
0.037873 -0.030264 0.262273
0.039326 -0.030408 0.263609
0.040954 -0.030676 0.266010
0.042386 -0.030784 0.267033
0.043674 -0.030784 0.267121
0.044942 -0.030770 0.267094
0.046234 -0.030774 0.267215
0.047602 -0.030826 0.267760
0.048683 -0.030695 0.266715
0.049900 -0.030653 0.266450
0.051381 -0.030772 0.267580
0.052662 -0.030769 0.267647
0.054053 -0.030828 0.268256
0.055407 -0.030863 0.268667
0.056546 -0.030781 0.268046
0.057893 -0.030812 0.268417
0.059197 -0.030820 0.268582
0.060365 -0.030758 0.268145
0.062005 -0.030934 0.269780
0.063412 -0.030989 0.270357
0.064556 -0.030916 0.269818
0.065938 -0.030957 0.270279
0.067256 -0.030968 0.270467
0.068477 -0.030934 0.270270
0.069507 -0.030817 0.269341
0.070175 -0.030546 0.267073
0.070631 -0.030194 0.264088
0.071635 -0.030085 0.263225
0.072630 -0.029976 0.262359
