ply
format ascii 1.0
element vertex 1680
property float x
property float y
property float z
end_header
-0.084866 -0.018008 0.292987
-0.083399 -0.017990 0.292579
-0.082097 -0.018009 0.292748
-0.080660 -0.017998 0.292436
-0.079394 -0.018025 0.292745
-0.078267 -0.018085 0.293591
-0.077151 -0.018150 0.294513
-0.075912 -0.018189 0.294995
-0.074611 -0.018213 0.295253
-0.073697 -0.018335 0.297087
-0.074131 -0.018803 0.304530
-0.069813 -0.018061 0.292371
-0.067683 -0.017866 0.289077
-0.066278 -0.017859 0.288819
-0.064838 -0.017841 0.288397
-0.063581 -0.017875 0.288795
-0.062165 -0.017863 0.288476
-0.060900 -0.017896 0.288870
-0.059604 -0.017922 0.289142
-0.058199 -0.017915 0.288889
-0.056886 -0.017936 0.289100
-0.055562 -0.017956 0.289273
-0.054226 -0.017972 0.289394
-0.052892 -0.017990 0.289547
-0.051517 -0.017994 0.289483
-0.050213 -0.018024 0.289834
-0.048898 -0.018052 0.290153
-0.041763 -0.017979 0.288349
-0.039974 -0.017800 0.285360
-0.039274 -0.018111 0.290227
-0.037915 -0.018129 0.290407
-0.036260 -0.018003 0.288268
-0.034965 -0.018051 0.288939
-0.030647 -0.016479 0.263669
-0.029105 -0.016328 0.261159
-0.027676 -0.016229 0.259487
-0.026393 -0.016211 0.259110
-0.025185 -0.016239 0.259473
-0.023942 -0.016246 0.259512
-0.022663 -0.016229 0.259156
-0.021436 -0.016249 0.259404
-0.020198 -0.016263 0.259552
-0.019018 -0.016328 0.260524
-0.018154 -0.016694 0.266290
-0.017176 -0.017002 0.271146
-0.015685 -0.016812 0.268055
-0.014643 -0.017112 0.272780
-0.013327 -0.017120 0.272847
-0.011517 -0.016426 0.261735
-0.010125 -0.016228 0.258539
-0.008887 -0.016257 0.258962
-0.007644 -0.016287 0.259406
-0.006378 -0.016267 0.259050
-0.005119 -0.016264 0.258977
-0.003864 -0.016270 0.259045
-0.002591 -0.016173 0.257475
-0.001351 -0.016298 0.259446
-0.000091 -0.016317 0.259736
0.001195 -0.016659 0.265169
0.002483 -0.016658 0.265160
0.003771 -0.016658 0.265145
0.021057 -0.017096 0.272450
0.022129 -0.016904 0.269450
0.024920 -0.016170 0.257907
0.026123 -0.016140 0.257499
0.027424 -0.016171 0.258055
0.028620 -0.016140 0.257630
0.029895 -0.016154 0.257921
0.031150 -0.016157 0.258036
0.032386 -0.016150 0.258000
0.033620 -0.016142 0.257961
0.034912 -0.016162 0.258361
0.036077 -0.016124 0.257830
0.037308 -0.016117 0.257801
0.039071 -0.016333 0.261340
0.040981 -0.016594 0.265618
0.042395 -0.016645 0.266528
0.043319 -0.016507 0.264404
0.044501 -0.016471 0.263933
0.045751 -0.016462 0.263888
0.046924 -0.016427 0.263422
0.048132 -0.016405 0.263177
0.049344 -0.016386 0.262969
0.050624 -0.016390 0.263133
0.051946 -0.016407 0.263510
0.053135 -0.016382 0.263217
0.054477 -0.016405 0.263681
0.055884 -0.016445 0.264434
0.057259 -0.016474 0.265015
0.058687 -0.016517 0.265814
0.061152 -0.016844 0.271187
0.062498 -0.016856 0.271480
0.063622 -0.016808 0.270821
0.064978 -0.016822 0.271159
0.066325 -0.016834 0.271454
0.067443 -0.016788 0.270820
0.068637 -0.016762 0.270511
0.069873 -0.016747 0.270380
0.070717 -0.016641 0.268766
0.071118 -0.016436 0.265560
0.071842 -0.016312 0.263650
0.073326 -0.016361 0.264549
0.073818 -0.016191 0.261897
0.074521 -0.016072 0.260072
0.075326 -0.015979 0.258659
0.076317 -0.015928 0.257919
0.077432 -0.015904 0.257614
0.078657 -0.015903 0.257681
0.079841 -0.015893 0.257613
0.081255 -0.015930 0.258281
0.082635 -0.015958 0.258820
0.083962 -0.015975 0.259177
0.085428 -0.016019 0.259951
0.096842 -0.017899 0.290546
0.098064 -0.017869 0.290138
0.100841 -0.018120 0.294277
0.101254 -0.017945 0.291495
0.102586 -0.017935 0.291397
0.103849 -0.017913 0.291104
0.105018 -0.017876 0.290558
0.106687 -0.017924 0.291386
0.107645 -0.017853 0.290274
0.109238 -0.017888 0.290877
0.111125 -0.017969 0.292233
0.111836 -0.017861 0.290496
0.113662 -0.017931 0.291658
0.115202 -0.017954 0.292060
0.116509 -0.017942 0.291866
0.117775 -0.017923 0.291567
0.119147 -0.017921 0.291530
0.120655 -0.017939 0.291813
0.121863 -0.017913 0.291366
0.123267 -0.017915 0.291386
0.124603 -0.017908 0.291240
0.125768 -0.017877 0.290692
0.127156 -0.017878 0.290656
0.129251 -0.017977 0.292211
0.130503 -0.017958 0.291839
0.131750 -0.017938 0.291452
0.133146 -0.017940 0.291391
0.134730 -0.017966 0.291725
0.135908 -0.017938 0.291173
0.137938 -0.018022 0.292427
0.139752 -0.018076 0.293188
0.140495 -0.017992 0.291698
0.141975 -0.018004 0.291738
0.143602 -0.018033 0.292064
0.144793 -0.018008 0.291489
0.146178 -0.018007 0.291300
0.147415 -0.017988 0.290806
0.149135 -0.018028 0.291249
0.150568 -0.018032 0.291110
0.152197 -0.018060 0.291333
-0.153905 -0.016459 0.290151
-0.152667 -0.016473 0.290603
-0.151196 -0.016462 0.290599
-0.149903 -0.016470 0.290925
-0.148469 -0.016462 0.290966
-0.147305 -0.016485 0.291526
-0.145633 -0.016450 0.291070
-0.144113 -0.016433 0.290896
-0.142869 -0.016446 0.291269
-0.141638 -0.016462 0.291664
-0.140018 -0.016432 0.291246
-0.138625 -0.016429 0.291284
-0.137177 -0.016419 0.291194
-0.135934 -0.016433 0.291532
-0.134385 -0.016411 0.291205
-0.132858 -0.016391 0.290909
-0.131708 -0.016417 0.291430
-0.134687 -0.017144 0.304412
-0.137704 -0.017715 0.314591
-0.135938 -0.017677 0.313937
-0.123974 -0.016298 0.289451
-0.122488 -0.016280 0.289147
-0.120708 -0.016223 0.288132
-0.119713 -0.016271 0.288979
-0.118510 -0.016292 0.289333
-0.117159 -0.016293 0.289324
-0.115895 -0.016306 0.289527
-0.114562 -0.016309 0.289556
-0.113264 -0.016318 0.289669
-0.111936 -0.016322 0.289706
-0.110610 -0.016327 0.289743
-0.109419 -0.016352 0.290134
-0.108065 -0.016354 0.290095
-0.106826 -0.016372 0.290365
-0.105560 -0.016388 0.290565
-0.103981 -0.016354 0.289893
-0.102456 -0.016328 0.289357
-0.101227 -0.016349 0.289652
-0.099882 -0.016352 0.289615
-0.098566 -0.016360 0.289660
-0.097374 -0.016389 0.290077
-0.094575 -0.016144 0.285652
-0.095655 -0.016565 0.292982
-0.093867 -0.016493 0.291612
-0.092877 -0.016562 0.292716
-0.091202 -0.016509 0.291666
-0.090028 -0.016546 0.292209
-0.088885 -0.016590 0.292871
-0.087160 -0.016525 0.291610
-0.086011 -0.016570 0.292269
-0.084284 -0.016502 0.290954
-0.082957 -0.016512 0.291000
-0.081583 -0.016513 0.290885
-0.080228 -0.016518 0.290840
-0.078975 -0.016544 0.291171
-0.077743 -0.016576 0.291596
-0.076793 -0.016670 0.293116
-0.075481 -0.016688 0.293289
-0.074237 -0.016721 0.293742
-0.073302 -0.016827 0.295461
-0.074159 -0.017356 0.304609
-0.069182 -0.016514 0.289692
-0.067822 -0.016519 0.289635
-0.066323 -0.016489 0.288976
-0.064927 -0.016485 0.288753
-0.063575 -0.016491 0.288728
-0.062293 -0.016517 0.289036
-0.060888 -0.016510 0.288777
-0.059564 -0.016525 0.288906
-0.058253 -0.016545 0.289115
-0.056926 -0.016562 0.289262
-0.055609 -0.016582 0.289473
-0.054248 -0.016589 0.289467
-0.052948 -0.016616 0.289810
-0.050273 -0.016650 0.290134
-0.048967 -0.016680 0.290515
-0.047554 -0.016674 0.290275
-0.046369 -0.016749 0.291463
-0.043274 -0.016636 0.289248
-0.041896 -0.016642 0.289218
-0.039899 -0.016393 0.284773
-0.039326 -0.016732 0.290558
-0.037965 -0.016749 0.290738
-0.036198 -0.016582 0.287716
-0.035083 -0.016712 0.289862
-0.030421 -0.015093 0.261680
-0.029041 -0.015032 0.260533
-0.027667 -0.014969 0.259352
-0.026442 -0.014985 0.259540
-0.025205 -0.014995 0.259629
-0.023950 -0.014995 0.259552
-0.022692 -0.014993 0.259437
-0.021468 -0.015014 0.259731
-0.020238 -0.015035 0.260011
-0.019064 -0.015102 0.261101
-0.018059 -0.015322 0.264836
-0.017207 -0.015715 0.271570
-0.015613 -0.015440 0.266761
-0.014587 -0.015728 0.271671
-0.013276 -0.015735 0.271737
-0.011531 -0.015172 0.261972
-0.010167 -0.015035 0.259551
-0.008931 -0.015074 0.260182
-0.007664 -0.015066 0.260007
-0.006386 -0.015026 0.259298
-0.005126 -0.015025 0.259240
-0.003875 -0.015051 0.259668
-0.002620 -0.015091 0.260328
-0.001353 -0.015057 0.259733
-0.000092 -0.015178 0.261811
0.001179 -0.015179 0.261809
0.002444 -0.015133 0.261005
0.019432 -0.015533 0.268183
0.020723 -0.015524 0.268087
0.022035 -0.015532 0.268266
0.024956 -0.014942 0.258248
0.026131 -0.014898 0.257544
0.027489 -0.014957 0.258629
0.028693 -0.014931 0.258250
0.029932 -0.014924 0.258206
0.031159 -0.014913 0.258075
0.032389 -0.014903 0.257989
0.033623 -0.014896 0.257947
0.034877 -0.014898 0.258066
0.036066 -0.014873 0.257717
0.037304 -0.014870 0.257738
0.039197 -0.015119 0.262144
0.041340 -0.015446 0.267908
0.042589 -0.015429 0.267713
0.043484 -0.015289 0.265375
0.044966 -0.015357 0.266652
0.045937 -0.015252 0.264925
0.047218 -0.015252 0.265038
0.048522 -0.015260 0.265273
0.049733 -0.015239 0.265009
0.050975 -0.015228 0.264926
0.052418 -0.015277 0.265874
0.053373 -0.015184 0.264361
0.054971 -0.015274 0.266041
0.056332 -0.015296 0.266527
0.057434 -0.015248 0.265797
0.059071 -0.015341 0.267524
0.061171 -0.015548 0.271242
0.062421 -0.015534 0.271115
0.063602 -0.015504 0.270705
0.064845 -0.015491 0.270579
0.066189 -0.015501 0.270869
0.067394 -0.015479 0.270597
0.068526 -0.015442 0.270049
0.069718 -0.015419 0.269755
0.070682 -0.015347 0.268609
0.071012 -0.015143 0.265142
0.071931 -0.015070 0.263955
0.073272 -0.015086 0.264332
0.073823 -0.014941 0.261895
0.074252 -0.014777 0.259115
0.074977 -0.014676 0.257440
0.076234 -0.014682 0.257622
0.077416 -0.014672 0.257546
0.078576 -0.014659 0.257400
0.079908 -0.014678 0.257814
0.081285 -0.014704 0.258359
0.082419 -0.014687 0.258129
0.083743 -0.014703 0.258489
0.085294 -0.014758 0.259531
0.087174 -0.014868 0.261527
0.100347 -0.016873 0.296880
0.101593 -0.016845 0.296457
0.101267 -0.016561 0.291523
0.102460 -0.016529 0.291029
0.103626 -0.016494 0.290470
0.105000 -0.016493 0.290501
0.106211 -0.016466 0.290079
0.107380 -0.016434 0.289553
0.109715 -0.016578 0.292140
0.110242 -0.016450 0.289906
0.112515 -0.016581 0.292254
0.113818 -0.016569 0.292054
0.115303 -0.016582 0.292315
0.116590 -0.016568 0.292068
0.117827 -0.016546 0.291697
0.119100 -0.016531 0.291413
0.120399 -0.016519 0.291196
0.121777 -0.016518 0.291164
0.122831 -0.016473 0.290359
0.124341 -0.016491 0.290630
0.126135 -0.016545 0.291546
0.127320 -0.016518 0.291037
0.128771 -0.016527 0.291135
0.130332 -0.016549 0.291466
0.131754 -0.016554 0.291471
0.133026 -0.016539 0.291138
0.134253 -0.016520 0.290706
0.135970 -0.016561 0.291320
0.137596 -0.016589 0.291716
0.139782 -0.016684 0.293266
0.140850 -0.016645 0.292451
0.142015 -0.016618 0.291839
0.143612 -0.016642 0.292102
0.144913 -0.016631 0.291752
0.146195 -0.016619 0.291356
0.147421 -0.016600 0.290841
0.148933 -0.016614 0.290878
0.150355 -0.016617 0.290725
0.152087 -0.016654 0.291150
-0.154102 -0.015102 0.290546
-0.152752 -0.015104 0.290785
-0.151206 -0.015086 0.290638
-0.150122 -0.015114 0.291369
-0.148511 -0.015089 0.291066
-0.147080 -0.015082 0.291097
-0.145848 -0.015096 0.291516
-0.144200 -0.015067 0.291086
-0.142841 -0.015067 0.291225
-0.141516 -0.015072 0.291426
-0.139991 -0.015054 0.291200
-0.138503 -0.015041 0.291038
-0.137430 -0.015073 0.291741
-0.135983 -0.015064 0.291647
-0.134490 -0.015050 0.291441
-0.131073 -0.014817 0.287006
-0.126260 -0.014421 0.279382
-0.136390 -0.015741 0.305001
-0.135183 -0.015767 0.305537
-0.137105 -0.016162 0.313227
-0.136505 -0.016265 0.315247
-0.123724 -0.014904 0.288868
-0.122457 -0.014914 0.289076
-0.121260 -0.014933 0.289449
-0.119758 -0.014915 0.289087
-0.118700 -0.014952 0.289795
-0.117433 -0.014964 0.289997
-0.116026 -0.014958 0.289851
-0.114792 -0.014974 0.290132
-0.113319 -0.014959 0.289806
-0.112122 -0.014981 0.290180
-0.110790 -0.014985 0.290207
-0.109406 -0.014982 0.290090
-0.108178 -0.015000 0.290388
-0.106768 -0.014994 0.290196
-0.105420 -0.014996 0.290167
-0.104068 -0.014997 0.290125
-0.102579 -0.014979 0.289691
-0.101195 -0.014976 0.289545
-0.099796 -0.014970 0.289351
-0.098515 -0.014982 0.289496
-0.097290 -0.015004 0.289811
-0.094933 -0.014849 0.286718
-0.094943 -0.015065 0.290784
-0.094476 -0.015210 0.293485
-0.093061 -0.015205 0.293278
-0.091780 -0.015222 0.293493
-0.090633 -0.015262 0.294152
-0.089213 -0.015257 0.293930
-0.087647 -0.015226 0.293216
-0.086257 -0.015226 0.293082
-0.084688 -0.015193 0.292324
-0.082895 -0.015118 0.290761
-0.081596 -0.015132 0.290907
-0.080099 -0.015110 0.290348
-0.078679 -0.015102 0.290052
-0.077523 -0.015145 0.290744
-0.076387 -0.015193 0.291539
-0.075214 -0.015236 0.292223
-0.074015 -0.015275 0.292831
-0.072985 -0.015351 0.294152
-0.073529 -0.015768 0.301991
-0.068874 -0.015064 0.288371
-0.067773 -0.015124 0.289393
-0.066367 -0.015118 0.289134
-0.064953 -0.015110 0.288835
-0.063720 -0.015144 0.289352
-0.062339 -0.015144 0.289212
-0.061022 -0.015160 0.289375
-0.059641 -0.015161 0.289245
-0.058328 -0.015179 0.289450
-0.056948 -0.015180 0.289335
-0.055668 -0.015208 0.289738
-0.054354 -0.015229 0.289997
-0.052947 -0.015224 0.289764
-0.043296 -0.015250 0.289347
-0.039954 -0.015040 0.285125
-0.039232 -0.015294 0.289820
-0.037875 -0.015310 0.290000
-0.036210 -0.015198 0.287767
-0.035015 -0.015282 0.289250
-0.030407 -0.013821 0.261513
-0.028928 -0.013719 0.259478
-0.027695 -0.013729 0.259575
-0.026443 -0.013730 0.259504
-0.025205 -0.013738 0.259580
-0.023948 -0.013737 0.259479
-0.022683 -0.013731 0.259282
-0.021501 -0.013778 0.260087
-0.020267 -0.013795 0.260334
-0.019109 -0.013868 0.261658
-0.018257 -0.014191 0.267678
-0.017182 -0.014377 0.271121
-0.015643 -0.014173 0.267207
-0.014620 -0.014442 0.272218
-0.013306 -0.014448 0.272285
-0.011636 -0.014028 0.264317
-0.010328 -0.013992 0.263594
-0.009079 -0.014040 0.264450
-0.007781 -0.014012 0.263893
-0.006493 -0.013998 0.263594
-0.005230 -0.014042 0.264394
-0.003951 -0.014060 0.264708
-0.002681 -0.014140 0.266194
-0.001389 -0.014157 0.266496
-0.000095 -0.014240 0.268047
0.001207 -0.014241 0.268044
0.002469 -0.014011 0.263718
0.006209 -0.013781 0.259383
0.007474 -0.013788 0.259532
0.008667 -0.013682 0.257543
0.009922 -0.013686 0.257633
0.011155 -0.013662 0.257216
0.012420 -0.013679 0.257555
0.013669 -0.013677 0.257549
0.014955 -0.013708 0.258170
0.016244 -0.013738 0.258760
0.017543 -0.013771 0.259424
0.018883 -0.013830 0.260581
0.020249 -0.013899 0.261923
0.021774 -0.014063 0.265059
0.025083 -0.013760 0.259528
0.026183 -0.013677 0.258017
0.027479 -0.013699 0.258503
0.028646 -0.013658 0.257791
0.029890 -0.013655 0.257805
0.031174 -0.013670 0.258167
0.032396 -0.013658 0.258014
0.033636 -0.013654 0.258016
0.034902 -0.013660 0.258213
0.036147 -0.013658 0.258263
0.037672 -0.013759 0.260245
0.039245 -0.013870 0.262435
0.040907 -0.014004 0.265068
0.042323 -0.014048 0.266004
0.043554 -0.014031 0.265765
0.044942 -0.014063 0.266480
0.046259 -0.014072 0.266753
0.047511 -0.014062 0.266650
0.048646 -0.014018 0.265923
0.049924 -0.014016 0.265996
0.051093 -0.013985 0.265511
0.052316 -0.013970 0.265326
0.053651 -0.013985 0.265711
0.054828 -0.013958 0.265317
0.056086 -0.013953 0.265332
0.057554 -0.014000 0.266324
0.059247 -0.014098 0.268294
0.060939 -0.014191 0.270183
0.062233 -0.014190 0.270271
0.063338 -0.014147 0.269558
0.064662 -0.014153 0.269790
0.066007 -0.014164 0.270099
0.067218 -0.014146 0.269864
0.068385 -0.014120 0.269469
0.069522 -0.014088 0.268976
0.070516 -0.014029 0.267959
0.071118 -0.013896 0.265516
0.071991 -0.013820 0.264155
0.073118 -0.013793 0.263755
0.074002 -0.013723 0.262511
0.074655 -0.013613 0.260503
0.075512 -0.013544 0.259261
0.076439 -0.013488 0.258298
0.077587 -0.013473 0.258098
0.078746 -0.013461 0.257942
0.080040 -0.013471 0.258226
0.081525 -0.013513 0.259110
0.082794 -0.013518 0.259291
0.084005 -0.013514 0.259284
0.085629 -0.013575 0.260537
0.087198 -0.013627 0.261587
0.099640 -0.015351 0.294776
0.100876 -0.015326 0.294356
0.101307 -0.015180 0.291628
0.102526 -0.015155 0.291206
0.103791 -0.015137 0.290925
0.105117 -0.015129 0.290815
0.106276 -0.015097 0.290251
0.107538 -0.015080 0.289972
0.109067 -0.015101 0.290411
0.110829 -0.015153 0.291446
0.112228 -0.015155 0.291505
0.113754 -0.015173 0.291887
0.115144 -0.015174 0.291911
0.116498 -0.015169 0.291835
0.117782 -0.015156 0.291584
0.119049 -0.015141 0.291290
0.120486 -0.015147 0.291407
0.121998 -0.015163 0.291695
0.123236 -0.015145 0.291320
0.124520 -0.015132 0.291055
0.126183 -0.015166 0.291660
0.127244 -0.015127 0.290870
0.128897 -0.015159 0.291425
0.130215 -0.015151 0.291212
0.131538 -0.015144 0.291002
0.132804 -0.015130 0.290662
0.134500 -0.015166 0.291252
0.136202 -0.015201 0.291828
0.138015 -0.015248 0.292616
0.139454 -0.015253 0.292593
0.140855 -0.015253 0.292477
0.142148 -0.015243 0.292129
0.143583 -0.015247 0.292062
0.144982 -0.015247 0.291909
0.146291 -0.015239 0.291567
0.147559 -0.015226 0.291133
0.149576 -0.015290 0.292156
0.150870 -0.015279 0.291742
0.152363 -0.015289 0.291703
-0.153977 -0.013713 0.290330
-0.152755 -0.013725 0.290811
-0.151277 -0.013715 0.290794
-0.150089 -0.013731 0.291322
-0.148417 -0.013703 0.290897
-0.146851 -0.013684 0.290660
-0.145596 -0.013694 0.291025
-0.144097 -0.013682 0.290891
-0.142853 -0.013693 0.291263
-0.141609 -0.013705 0.291629
-0.140050 -0.013686 0.291334
-0.138513 -0.013669 0.291068
-0.137302 -0.013684 0.291479
-0.136084 -0.013698 0.291871
-0.134479 -0.013674 0.291424
-0.128649 -0.013215 0.281705
-0.126152 -0.013093 0.279148
-0.136863 -0.014353 0.306062
-0.135651 -0.014377 0.306600
-0.137133 -0.014689 0.313292
-0.135287 -0.014648 0.312437
-0.123617 -0.013531 0.288620
-0.122087 -0.013511 0.288201
-0.120818 -0.013520 0.288392
-0.119596 -0.013534 0.288695
-0.118315 -0.013543 0.288853
-0.117192 -0.013569 0.289400
-0.115791 -0.013564 0.289261
-0.114561 -0.013579 0.289544
-0.113357 -0.013597 0.289897
-0.112088 -0.013608 0.290087
-0.110824 -0.013620 0.290289
-0.109542 -0.013630 0.290444
-0.107933 -0.013599 0.289724
-0.106921 -0.013643 0.290605
-0.105538 -0.013641 0.290483
-0.103962 -0.013613 0.289819
-0.102495 -0.013599 0.289444
-0.101125 -0.013598 0.289332
-0.099749 -0.013596 0.289203
-0.098526 -0.013615 0.289514
-0.097240 -0.013626 0.289648
-0.097129 -0.013804 0.293334
-0.095911 -0.013827 0.293733
-0.094152 -0.013773 0.292463
-0.091228 -0.013543 0.287484
-0.090775 -0.013679 0.290263
-0.090531 -0.013852 0.293800
-0.089402 -0.013892 0.294535
-0.087724 -0.013847 0.293453
-0.086337 -0.013847 0.293333
-0.084694 -0.013805 0.292322
-0.082986 -0.013751 0.291058
-0.081634 -0.013756 0.291020
-0.080264 -0.013757 0.290920
-0.078750 -0.013734 0.290290
-0.077479 -0.013752 0.290554
-0.076353 -0.013798 0.291384
-0.075043 -0.013812 0.291532
-0.073734 -0.013826 0.291695
-0.072681 -0.013890 0.292899
-0.073552 -0.014331 0.302057
-0.069461 -0.013803 0.290801
-0.067682 -0.013723 0.288978
-0.066311 -0.013724 0.288860
-0.065000 -0.013738 0.289015
-0.063712 -0.013758 0.289286
-0.062340 -0.013760 0.289186
-0.061063 -0.013783 0.289535
-0.059771 -0.013805 0.289842
-0.058420 -0.013813 0.289872
-0.057108 -0.013831 0.290110
-0.055792 -0.013849 0.290348
-0.052964 -0.013836 0.289819
-0.041945 -0.013869 0.289462
-0.039908 -0.013649 0.284755
-0.039273 -0.013910 0.290077
-0.037914 -0.013924 0.290257
-0.036139 -0.013781 0.287160
-0.034922 -0.013847 0.288436
-0.030464 -0.012581 0.261964
-0.029043 -0.012513 0.260460
-0.027688 -0.012470 0.259461
-0.026437 -0.012471 0.259405
-0.025212 -0.012485 0.259615
-0.023973 -0.012494 0.259701
-0.022712 -0.012491 0.259571
-0.021487 -0.012509 0.259870
-0.020237 -0.012514 0.259896
-0.019070 -0.012575 0.261086
-0.018036 -0.012737 0.264393
-0.017192 -0.013069 0.271227
-0.015752 -0.012966 0.269026
-0.014640 -0.013139 0.272543
-0.013324 -0.013145 0.272610
-0.011570 -0.012671 0.262747
-0.010186 -0.012537 0.259913
-0.008935 -0.012552 0.260185
-0.007633 -0.012488 0.258826
-0.006362 -0.012460 0.258216
-0.005126 -0.012504 0.259090
-0.003893 -0.012585 0.260747
-0.002640 -0.012652 0.262105
-0.001373 -0.012707 0.263224
-0.000096 -0.012949 0.268231
0.006211 -0.012526 0.259447
0.007351 -0.012322 0.255238
0.008609 -0.012347 0.255770
0.009889 -0.012394 0.256754
0.011109 -0.012363 0.256132
0.012384 -0.012393 0.256787
0.013674 -0.012432 0.257617
0.014955 -0.012456 0.258143
0.016247 -0.012485 0.258789
0.017596 -0.012550 0.260185
0.018900 -0.012577 0.260774
0.020469 -0.012765 0.264730
0.021872 -0.012834 0.266211
0.024388 -0.012798 0.265575
0.025231 -0.012576 0.261021
0.026238 -0.012453 0.258525
0.027467 -0.012441 0.258355
0.028698 -0.012432 0.258229
0.029950 -0.012431 0.258293
0.031207 -0.012433 0.258408
0.032440 -0.012426 0.258332
0.033748 -0.012447 0.258843
0.034947 -0.012427 0.258516
0.036211 -0.012432 0.258688
0.037814 -0.012548 0.261199
0.039329 -0.012629 0.262964
0.040569 -0.012619 0.262849
0.041965 -0.012656 0.263724
0.043293 -0.012672 0.264147
0.044573 -0.012673 0.264261
0.045871 -0.012679 0.264485
0.046913 -0.012615 0.263268
0.048265 -0.012637 0.263812
0.049523 -0.012633 0.263834
0.050721 -0.012614 0.263548
0.052226 -0.012671 0.264840
0.053504 -0.012671 0.264955
0.054688 -0.012650 0.264617
0.056085 -0.012678 0.265302
0.057373 -0.012680 0.265459
0.059017 -0.012760 0.267231
0.060798 -0.012864 0.269537
0.062139 -0.012874 0.269841
0.063267 -0.012839 0.269232
0.064660 -0.012859 0.269759
0.065963 -0.012861 0.269897
0.067194 -0.012848 0.269746
0.068394 -0.012831 0.269482
0.069620 -0.012818 0.269333
0.070599 -0.012762 0.268254
0.071330 -0.012664 0.266289
0.072177 -0.012589 0.264818
0.073220 -0.012550 0.264108
0.074216 -0.012505 0.263255
0.075028 -0.012431 0.261787
0.075783 -0.012350 0.260175
0.076684 -0.012295 0.259108
0.077797 -0.012275 0.258781
0.078911 -0.012256 0.258467
0.080109 -0.012251 0.258437
0.081578 -0.012286 0.259263
0.082827 -0.012288 0.259381
0.084072 -0.012289 0.259479
0.085446 -0.012309 0.259969
0.086186 -0.012238 0.258541
0.098531 -0.013793 0.291482
0.100283 -0.013844 0.292614
0.101258 -0.013787 0.291477
0.102591 -0.013779 0.291382
0.103803 -0.013756 0.290952
0.104973 -0.013728 0.290411
0.106368 -0.013730 0.290496
0.107660 -0.013718 0.290297
0.109272 -0.013747 0.290951
0.110991 -0.013789 0.291867
0.112158 -0.013762 0.291321
0.113382 -0.013742 0.290931
0.114977 -0.013768 0.291485
0.116355 -0.013767 0.291477
0.117653 -0.013756 0.291264
0.119025 -0.013755 0.291233
0.120376 -0.013751 0.291143
0.121798 -0.013756 0.291219
0.123174 -0.013755 0.291176
0.124703 -0.013771 0.291486
0.126103 -0.013772 0.291480
0.127269 -0.013749 0.290934
0.128693 -0.013753 0.290972
0.130210 -0.013767 0.291207
0.132444 -0.013856 0.293015
0.133717 -0.013843 0.292671
0.134574 -0.013788 0.291421
0.136453 -0.013838 0.292378
0.137867 -0.013841 0.292314
0.139384 -0.013853 0.292459
0.140768 -0.013852 0.292311
0.142123 -0.013848 0.292091
0.143577 -0.013854 0.292065
0.144963 -0.013854 0.291888
0.146302 -0.013849 0.291606
0.147796 -0.013858 0.291619
0.149194 -0.013859 0.291429
0.150496 -0.013850 0.291041
0.151649 -0.013829 0.290357
-0.154099 -0.012345 0.290579
-0.152737 -0.012345 0.290794
-0.151174 -0.012329 0.290612
-0.149948 -0.012340 0.291064
-0.148524 -0.012335 0.291122
-0.146983 -0.012321 0.290935
-0.145715 -0.012329 0.291275
-0.144344 -0.012328 0.291402
-0.142965 -0.012327 0.291503
-0.141698 -0.012335 0.291823
-0.140270 -0.012330 0.291802
-0.138927 -0.012332 0.291947
-0.137297 -0.012308 0.291475
-0.135915 -0.012307 0.291515
-0.134582 -0.012309 0.291652
-0.132882 -0.012278 0.290979
-0.126600 -0.011819 0.280144
-0.137072 -0.012931 0.306534
-0.135859 -0.012952 0.307073
-0.136797 -0.013180 0.312527
-0.135807 -0.013226 0.313641
-0.123376 -0.012147 0.288057
-0.122027 -0.012147 0.288060
-0.120743 -0.012153 0.288213
-0.119729 -0.012187 0.289014
-0.118476 -0.012198 0.289244
-0.117315 -0.012218 0.289701
-0.115977 -0.012220 0.289721
-0.114557 -0.012213 0.289531
-0.113615 -0.012258 0.290551
-0.111938 -0.012224 0.289692
-0.110555 -0.012221 0.289578
-0.109273 -0.012229 0.289726
-0.107871 -0.012224 0.289549
-0.106597 -0.012234 0.289715
-0.105440 -0.012258 0.290206
-0.103794 -0.012225 0.289342
-0.102411 -0.012222 0.289195
-0.101017 -0.012218 0.289015
-0.099774 -0.012232 0.289263
-0.098424 -0.012233 0.289203
-0.097041 -0.012230 0.289042
-0.095708 -0.012234 0.289030
-0.095142 -0.012337 0.291362
-0.094402 -0.012420 0.293224
-0.092959 -0.012412 0.292923
-0.091677 -0.012426 0.293128
-0.090340 -0.012432 0.293165
-0.089005 -0.012439 0.293207
-0.087582 -0.012434 0.292960
-0.086085 -0.012417 0.292456
-0.084393 -0.012372 0.291266
-0.082805 -0.012341 0.290402
-0.081293 -0.012320 0.289784
-0.079959 -0.012326 0.289793
-0.078589 -0.012327 0.289676
-0.077237 -0.012330 0.289624
-0.076089 -0.012367 0.290352
-0.074935 -0.012404 0.291086
-0.073720 -0.012432 0.291613
-0.072675 -0.012491 0.292848
-0.071393 -0.012510 0.293162
-0.068985 -0.012329 0.288781
-0.067651 -0.012337 0.288818
-0.066367 -0.012354 0.289077
-0.065035 -0.012363 0.289142
-0.063687 -0.012369 0.289145
-0.062412 -0.012390 0.289487
-0.061038 -0.012391 0.289387
-0.059698 -0.012400 0.289457
-0.058412 -0.012421 0.289803
-0.056973 -0.012410 0.289395
-0.054344 -0.012442 0.289869
-0.052945 -0.012439 0.289679
-0.039897 -0.012272 0.284640
-0.039375 -0.012542 0.290788
-0.038012 -0.012555 0.290968
-0.036001 -0.012346 0.286024
-0.034964 -0.012469 0.288746
-0.030274 -0.011244 0.260293
-0.028911 -0.011203 0.259238
-0.027616 -0.011185 0.258746
-0.026404 -0.011201 0.259034
-0.025140 -0.011196 0.258831
-0.023895 -0.011200 0.258825
-0.022642 -0.011199 0.258736
-0.021447 -0.011229 0.259339
-0.020202 -0.011235 0.259412
-0.019134 -0.011346 0.261909
-0.018022 -0.011446 0.264153
-0.017177 -0.011743 0.270943
-0.015699 -0.011621 0.268068
-0.014782 -0.011931 0.275141
-0.013454 -0.011936 0.275209
-0.012115 -0.011932 0.275072
-0.010817 -0.011973 0.275968
-0.009411 -0.011889 0.273977
-0.008068 -0.011870 0.273502
-0.006755 -0.011898 0.274108
-0.005389 -0.011821 0.272319
-0.004096 -0.011907 0.274276
-0.002756 -0.011873 0.273451
-0.001429 -0.011884 0.273697
-0.000099 -0.011917 0.274448
0.006158 -0.011169 0.257197
0.007360 -0.011096 0.255538
0.008622 -0.011123 0.256157
0.009887 -0.011144 0.256669
0.011146 -0.011155 0.256954
0.012384 -0.011146 0.256766
0.013692 -0.011195 0.257921
0.014976 -0.011218 0.258478
0.016256 -0.011235 0.258900
0.017552 -0.011259 0.259496
0.018823 -0.011266 0.259694
0.020181 -0.011319 0.260980
0.021836 -0.011524 0.265749
0.023122 -0.011522 0.265747
0.024396 -0.011514 0.265633
0.025364 -0.011370 0.262370
0.026365 -0.011254 0.259747
0.027601 -0.011244 0.259583
0.028808 -0.011223 0.259184
0.030109 -0.011240 0.259634
0.031387 -0.011247 0.259868
0.032633 -0.011242 0.259841
0.033988 -0.011274 0.260654
0.035287 -0.011286 0.261005
0.036639 -0.011313 0.261719
0.038022 -0.011347 0.262608
0.039554 -0.011423 0.264442
0.041354 -0.011568 0.267904
0.042950 -0.011650 0.269885
0.044326 -0.011669 0.270419
0.045581 -0.011655 0.270211
0.045885 -0.011406 0.264540
0.046928 -0.011350 0.263323
0.048280 -0.011369 0.263867
0.049538 -0.011365 0.263889
0.050736 -0.011348 0.263603
0.052241 -0.011400 0.264895
0.054582 -0.011626 0.270270
0.055810 -0.011611 0.270019
0.057083 -0.011605 0.269999
0.057672 -0.011464 0.266822
0.059112 -0.011494 0.267635
0.060758 -0.011563 0.269336
0.062181 -0.011586 0.270001
0.063510 -0.011592 0.270246
0.064863 -0.011602 0.270582
0.066070 -0.011586 0.270315
0.067357 -0.011584 0.270382
0.068596 -0.011574 0.270262
0.069688 -0.011540 0.269579
0.070640 -0.011485 0.268390
0.071362 -0.011395 0.266389
0.072193 -0.011325 0.264859
0.073264 -0.011295 0.264249
0.074162 -0.011239 0.263045
0.074979 -0.011173 0.261604
0.075679 -0.011093 0.259806
0.076574 -0.011043 0.258724
0.077714 -0.011029 0.258492
0.078718 -0.010997 0.257822
0.079970 -0.011000 0.257976
0.081332 -0.011017 0.258471
0.082709 -0.011036 0.259000
0.084071 -0.011053 0.259468
0.085674 -0.011100 0.260654
0.086772 -0.011082 0.260291
0.099668 -0.012550 0.294838
0.100904 -0.012529 0.294418
0.101233 -0.012397 0.291396
0.102465 -0.012378 0.291017
0.103674 -0.012357 0.290581
0.105088 -0.012361 0.290722
0.106303 -0.012342 0.290313
0.107573 -0.012329 0.290056
0.109221 -0.012359 0.290810
0.110807 -0.012382 0.291379
0.112172 -0.012380 0.291355
0.113528 -0.012377 0.291303
0.114947 -0.012380 0.291407
0.116369 -0.012384 0.291510
0.117896 -0.012399 0.291865
0.118955 -0.012365 0.291061
0.120247 -0.012356 0.290833
0.122121 -0.012406 0.291993
0.122872 -0.012342 0.290466
0.124223 -0.012339 0.290368
0.126105 -0.012388 0.291489
0.127325 -0.012372 0.291066
0.128521 -0.012354 0.290588
0.130042 -0.012367 0.290838
0.131728 -0.012396 0.291438
0.133124 -0.012397 0.291380
0.134405 -0.012387 0.291066
0.136055 -0.012412 0.291534
0.137707 -0.012436 0.291987
0.139147 -0.012440 0.291972
0.140745 -0.012458 0.292276
0.142105 -0.012456 0.292068
0.143422 -0.012449 0.291764
0.144906 -0.012457 0.291789
0.146286 -0.012456 0.291590
0.147644 -0.012453 0.291337
0.148936 -0.012445 0.290945
0.150442 -0.012455 0.290955
0.151790 -0.012451 0.290648
-0.154238 -0.010977 0.290858
-0.152882 -0.010977 0.291086
-0.151305 -0.010962 0.290879
-0.150267 -0.010986 0.291696
-0.148522 -0.010958 0.291132
-0.147085 -0.010952 0.291149
-0.145371 -0.010926 0.290601
-0.144216 -0.010942 0.291155
-0.142908 -0.010946 0.291396
-0.141418 -0.010936 0.291254
-0.140183 -0.010946 0.291629
-0.139001 -0.010960 0.292110
-0.137186 -0.010925 0.291247
-0.136118 -0.010948 0.291958
-0.132173 -0.010739 0.286439
-0.131790 -0.010817 0.288593
-0.126375 -0.010480 0.279649
-0.137406 -0.011514 0.307285
-0.136191 -0.011533 0.307825
-0.136894 -0.011716 0.312751
-0.136974 -0.011849 0.316337
-0.123201 -0.010774 0.287650
-0.121866 -0.010775 0.287681
-0.120763 -0.010797 0.288259
-0.119600 -0.010814 0.288702
-0.118399 -0.010827 0.289055
-0.117199 -0.010842 0.289411
-0.115816 -0.010839 0.289315
-0.114659 -0.010858 0.289784
-0.113358 -0.010863 0.289891
-0.112064 -0.010869 0.290013
-0.110783 -0.010877 0.290168
-0.109450 -0.010880 0.290187
-0.108199 -0.010891 0.290423
-0.106811 -0.010888 0.290290
-0.105485 -0.010892 0.290320
-0.104065 -0.010886 0.290087
-0.102601 -0.010875 0.289722
-0.101266 -0.010878 0.289716
-0.099666 -0.010852 0.288938
-0.098479 -0.010871 0.289355
-0.097291 -0.010891 0.289775
-0.095644 -0.010859 0.288824
-0.093191 -0.010733 0.285377
-0.095172 -0.011121 0.295600
-0.093569 -0.011097 0.294832
-0.091971 -0.011072 0.294055
-0.090963 -0.011118 0.295171
-0.089241 -0.011077 0.293970
-0.087902 -0.011083 0.294015
-0.086393 -0.011068 0.293485
-0.084547 -0.011008 0.291777
-0.083177 -0.011010 0.291689
-0.081568 -0.010979 0.290745
-0.080019 -0.010956 0.289993
-0.078440 -0.010927 0.289106
-0.077026 -0.010921 0.288813
-0.075806 -0.010943 0.289253
-0.074598 -0.010967 0.289757
-0.073308 -0.010980 0.289961
-0.072218 -0.011024 0.290985
-0.070944 -0.011041 0.291298
-0.068914 -0.010939 0.288459
-0.067484 -0.010930 0.288082
-0.066236 -0.010950 0.288485
-0.064980 -0.010970 0.288873
-0.063665 -0.010981 0.289017
-0.062371 -0.010996 0.289274
-0.061038 -0.011005 0.289362
-0.059716 -0.011016 0.289515
-0.058395 -0.011028 0.289686
-0.057036 -0.011033 0.289685
-0.055728 -0.011049 0.289955
-0.054432 -0.011068 0.290312
-0.053065 -0.011073 0.290309
-0.039977 -0.010920 0.285170
-0.039396 -0.011144 0.290908
-0.038033 -0.011156 0.291088
-0.036095 -0.010993 0.286731
-0.034888 -0.011049 0.288076
-0.030297 -0.009993 0.260458
-0.028857 -0.009930 0.258725
-0.027634 -0.009940 0.258888
-0.026451 -0.009966 0.259467
-0.025131 -0.009940 0.258705
-0.023921 -0.009957 0.259063
-0.022646 -0.009947 0.258742
-0.021368 -0.009935 0.258349
-0.020177 -0.009965 0.259051
-0.018999 -0.010005 0.260024
-0.018129 -0.010225 0.265674
-0.017183 -0.010432 0.270997
-0.015776 -0.010371 0.269343
-0.014778 -0.010592 0.275023
-0.013450 -0.010597 0.275091
-0.012148 -0.010626 0.275782
-0.010808 -0.010624 0.275699
-0.009459 -0.010612 0.275348
-0.008128 -0.010619 0.275490
-0.006758 -0.010570 0.274164
-0.005446 -0.010608 0.275143
-0.004148 -0.010708 0.277700
-0.002773 -0.010607 0.275048
-0.001447 -0.010686 0.277078
-0.000101 -0.010757 0.278912
0.001255 -0.010757 0.278909
0.002477 -0.010206 0.264606
0.003886 -0.010541 0.273298
0.006225 -0.010027 0.259982
0.007391 -0.009897 0.256621
0.008664 -0.009926 0.257372
0.009933 -0.009944 0.257859
0.011174 -0.009933 0.257600
0.012439 -0.009943 0.257873
0.013703 -0.009950 0.258098
0.014987 -0.009970 0.258652
0.016266 -0.009984 0.259036
0.017541 -0.009993 0.259308
0.018855 -0.010022 0.260102
0.020171 -0.010048 0.260827
0.021616 -0.010131 0.263041
0.023050 -0.010201 0.264900
0.024321 -0.010194 0.264786
0.025261 -0.010057 0.261281
0.026434 -0.010021 0.260405
0.027759 -0.010043 0.261044
0.028971 -0.010024 0.260626
0.030176 -0.010005 0.260192
0.031479 -0.010018 0.260604
0.032693 -0.010003 0.260287
0.034000 -0.010016 0.260721
0.035359 -0.010043 0.261508
0.036632 -0.010045 0.261640
0.038007 -0.010074 0.262481
0.039296 -0.010078 0.262689
0.040779 -0.010131 0.264155
0.042245 -0.010177 0.265435
0.043534 -0.010178 0.265566
0.044516 -0.010109 0.263874
0.045460 -0.010037 0.262069
0.046181 -0.009919 0.259109
0.047366 -0.009906 0.258848
0.048702 -0.009923 0.259412
0.049826 -0.009898 0.258855
0.051333 -0.009948 0.260268
0.052545 -0.009940 0.260162
0.053982 -0.009974 0.261157
0.055690 -0.010055 0.263389
0.056829 -0.010033 0.262899
0.058188 -0.010049 0.263434
0.060636 -0.010249 0.268777
0.062201 -0.010294 0.270070
0.063317 -0.010264 0.269407
0.064786 -0.010292 0.270242
0.066124 -0.010298 0.270518
0.067325 -0.010283 0.270238
0.068596 -0.010280 0.270243
0.069775 -0.010262 0.269899
0.070677 -0.010206 0.268517
0.071343 -0.010118 0.266302
0.072326 -0.010077 0.265333
0.073295 -0.010036 0.264348
0.074443 -0.010020 0.264030
0.075403 -0.009980 0.263070
0.076293 -0.009932 0.261901
0.077445 -0.009919 0.261656
0.078598 -0.009907 0.261422
0.079941 -0.009919 0.261817
0.081531 -0.009960 0.263001
0.083210 -0.010011 0.264428
0.085110 -0.010087 0.266508
0.086436 -0.010093 0.266755
0.088486 -0.010183 0.269200
0.100363 -0.011224 0.296883
0.101607 -0.011206 0.296460
0.100643 -0.010947 0.289690
0.102631 -0.011012 0.291483
0.103595 -0.010968 0.290353
0.104985 -0.010969 0.290431
0.106472 -0.010979 0.290768
0.107827 -0.010977 0.290737
0.109313 -0.010987 0.291052
0.110659 -0.010983 0.290987
0.112015 -0.010981 0.290945
0.113416 -0.010982 0.291014
0.114882 -0.010990 0.291241
0.116540 -0.011016 0.291938
0.117927 -0.011016 0.291943
0.119080 -0.010995 0.291368
0.120465 -0.010995 0.291361
0.121805 -0.010991 0.291239
0.123443 -0.011014 0.291818
0.124679 -0.011000 0.291437
0.125923 -0.010988 0.291073
0.127300 -0.010988 0.291013
0.128768 -0.010995 0.291152
0.131071 -0.011073 0.293146
0.132389 -0.011066 0.292907
0.133582 -0.011050 0.292390
0.134869 -0.011042 0.292078
0.136268 -0.011042 0.291999
0.137582 -0.011036 0.291732
0.139063 -0.011044 0.291808
0.140545 -0.011051 0.291872
0.142231 -0.011074 0.292338
0.143561 -0.011069 0.292060
0.144900 -0.011066 0.291791
0.146332 -0.011069 0.291696
0.147533 -0.011054 0.291133
0.148945 -0.011056 0.290978
0.150451 -0.011065 0.290991
0.151385 -0.011032 0.289891
-0.154421 -0.009608 0.291217
-0.152903 -0.009599 0.291140
-0.151325 -0.009585 0.290931
-0.150251 -0.009604 0.291679
-0.148919 -0.009606 0.291921
-0.147270 -0.009588 0.291527
-0.145693 -0.009574 0.291254
-0.144325 -0.009573 0.291385
-0.142954 -0.009573 0.291498
-0.141580 -0.009572 0.291596
-0.140095 -0.009564 0.291454
-0.138797 -0.009568 0.291688
-0.137438 -0.009568 0.291789
-0.135995 -0.009563 0.291699
-0.134112 -0.009526 0.290645
-0.130292 -0.009349 0.285317
-0.126719 -0.009187 0.280414
-0.137507 -0.010073 0.307516
-0.136291 -0.010089 0.308056
-0.137747 -0.010306 0.314702
-0.137619 -0.010408 0.317828
-0.123339 -0.009429 0.287973
-0.122099 -0.009438 0.288230
-0.120888 -0.009448 0.288559
-0.119798 -0.009469 0.289179
-0.118555 -0.009478 0.289433
-0.117285 -0.009484 0.289623
-0.115977 -0.009488 0.289715
-0.114339 -0.009465 0.288972
-0.112917 -0.009459 0.288760
-0.111536 -0.009457 0.288642
-0.110400 -0.009475 0.289162
-0.109350 -0.009502 0.289918
-0.107879 -0.009492 0.289559
-0.106471 -0.009488 0.289360
-0.105471 -0.009520 0.290276
-0.103928 -0.009503 0.289700
-0.102513 -0.009498 0.289466
-0.100668 -0.009453 0.287996
-0.099828 -0.009502 0.289400
-0.098572 -0.009512 0.289617
-0.097106 -0.009502 0.289216
-0.094125 -0.009341 0.284228
-0.095876 -0.009652 0.293587
-0.094654 -0.009668 0.293982
-0.093664 -0.009709 0.295117
-0.092179 -0.009699 0.294707
-0.090761 -0.009697 0.294501
-0.089460 -0.009706 0.294676
-0.088121 -0.009712 0.294733
-0.086491 -0.009685 0.293803
-0.084904 -0.009663 0.292994
-0.083164 -0.009622 0.291625
-0.081786 -0.009622 0.291506
-0.080308 -0.009611 0.291025
-0.078641 -0.009576 0.289830
-0.077179 -0.009565 0.289367
-0.075783 -0.009562 0.289147
-0.074988 -0.009636 0.291254
-0.073518 -0.009625 0.290772
-0.072354 -0.009654 0.291515
-0.072363 -0.009843 0.297102
-0.069149 -0.009594 0.289424
-0.067640 -0.009575 0.288726
-0.066328 -0.009584 0.288862
-0.065046 -0.009598 0.289144
-0.063743 -0.009610 0.289350
-0.062404 -0.009616 0.289404
-0.061052 -0.009621 0.289406
-0.059711 -0.009628 0.289465
-0.058353 -0.009632 0.289455
-0.057019 -0.009640 0.289573
-0.055714 -0.009654 0.289857
-0.054356 -0.009660 0.289882
-0.052953 -0.009657 0.289667
-0.039842 -0.009512 0.284177
-0.039340 -0.009726 0.290469
-0.037042 -0.009496 0.283478
-0.035983 -0.009578 0.285813
-0.034852 -0.009647 0.287751
-0.030212 -0.008709 0.259698
-0.028884 -0.008687 0.258934
-0.027568 -0.008667 0.258235
-0.026322 -0.008667 0.258170
-0.025129 -0.008686 0.258646
-0.023884 -0.008688 0.258631
-0.022674 -0.008704 0.259029
-0.021376 -0.008687 0.258420
-0.020121 -0.008685 0.258293
-0.018976 -0.008734 0.259677
-0.017941 -0.008844 0.262888
-0.017074 -0.009060 0.269241
-0.015750 -0.009049 0.268866
-0.014230 -0.008914 0.264786
-0.013128 -0.009040 0.268472
-0.011789 -0.009012 0.267589
-0.010409 -0.008942 0.265485
-0.009094 -0.008917 0.264677
-0.007791 -0.008896 0.264016
-0.006502 -0.008887 0.263731
-0.005220 -0.008886 0.263664
-0.003954 -0.008919 0.264635
-0.002671 -0.008930 0.264929
-0.001376 -0.008878 0.263365
-0.000096 -0.008928 0.264829
0.001195 -0.008960 0.265779
0.002492 -0.008977 0.266284
0.003887 -0.009216 0.273346
0.005228 -0.009237 0.273995
0.006144 -0.008652 0.256624
0.007405 -0.008666 0.257064
0.008644 -0.008656 0.256769
0.009903 -0.008665 0.257064
0.011163 -0.008673 0.257311
0.012414 -0.008673 0.257340
0.013699 -0.008695 0.258016
0.014963 -0.008700 0.258219
0.016278 -0.008732 0.259202
0.017560 -0.008744 0.259574
0.018860 -0.008762 0.260153
0.020226 -0.008806 0.261514
0.021851 -0.008951 0.265887
0.023383 -0.009044 0.268698
0.024672 -0.009038 0.268583
0.025525 -0.008881 0.263983
0.026797 -0.008879 0.263961
0.028059 -0.008872 0.263842
0.029157 -0.008817 0.262277
0.030461 -0.008827 0.262624
0.031709 -0.008819 0.262484
0.033003 -0.008825 0.262740
0.034461 -0.008873 0.264231
0.035840 -0.008897 0.265047
0.037247 -0.008927 0.266012
0.038549 -0.008930 0.266199
0.039831 -0.008929 0.266245
0.041048 -0.008913 0.265879
0.042531 -0.008955 0.267207
0.043642 -0.008918 0.266201
0.044261 -0.008785 0.262341
0.044468 -0.008581 0.256327
0.045558 -0.008553 0.255596
0.046908 -0.008574 0.256328
0.048059 -0.008559 0.255968
0.049251 -0.008551 0.255846
0.050549 -0.008562 0.256277
0.051944 -0.008589 0.257170
0.053357 -0.008617 0.258113
0.054971 -0.008675 0.259971
0.056385 -0.008700 0.260827
0.058680 -0.008857 0.265641
0.060895 -0.008996 0.269908
0.062493 -0.009039 0.271321
0.063530 -0.009002 0.270294
0.064885 -0.009009 0.270640
0.066244 -0.009018 0.270995
0.067478 -0.009009 0.270833
0.068749 -0.009005 0.270830
0.069909 -0.008987 0.270400
0.071058 -0.008969 0.269948
0.071898 -0.008913 0.268363
0.072600 -0.008841 0.266326
0.073820 -0.008835 0.266228
0.074997 -0.008823 0.265981
0.075952 -0.008787 0.264972
0.077006 -0.008763 0.264336
0.078053 -0.008738 0.263699
0.079242 -0.008731 0.263551
0.080560 -0.008737 0.263834
0.082060 -0.008763 0.264695
0.083692 -0.008802 0.265950
0.085209 -0.008827 0.266811
0.086754 -0.008855 0.267728
0.089226 -0.008976 0.271444
0.097851 -0.009702 0.293505
0.099084 -0.009686 0.293092
0.100878 -0.009725 0.294326
0.101217 -0.009624 0.291337
0.102164 -0.009583 0.290151
0.103731 -0.009600 0.290730
0.105269 -0.009614 0.291213
0.106576 -0.009607 0.291049
0.107871 -0.009599 0.290852
0.109326 -0.009606 0.291084
0.110773 -0.009611 0.291283
0.112262 -0.009620 0.291583
0.113367 -0.009596 0.290887
0.114737 -0.009595 0.290873
0.116135 -0.009597 0.290923
0.117678 -0.009610 0.291326
0.118993 -0.009604 0.291155
0.120216 -0.009592 0.290759
0.121727 -0.009602 0.291056
0.123152 -0.009605 0.291133
0.124476 -0.009601 0.290965
0.125843 -0.009600 0.290893
0.127062 -0.009588 0.290474
0.128470 -0.009590 0.290484
0.130076 -0.009607 0.290926
0.131850 -0.009635 0.291721
0.133861 -0.009681 0.293009
0.134791 -0.009647 0.291916
0.136196 -0.009649 0.291854
0.137696 -0.009657 0.291981
0.138954 -0.009648 0.291588
0.140319 -0.009646 0.291411
0.141713 -0.009647 0.291286
0.143208 -0.009654 0.291353
0.144776 -0.009666 0.291553
0.146039 -0.009658 0.291126
0.147584 -0.009668 0.291249
0.149167 -0.009681 0.291427
0.150603 -0.009684 0.291301
0.151972 -0.009682 0.291031
-0.154606 -0.008237 0.291579
-0.152949 -0.008221 0.291239
-0.151464 -0.008215 0.291208
-0.150230 -0.008222 0.291650
-0.148785 -0.008217 0.291670
-0.147088 -0.008199 0.291175
-0.145453 -0.008183 0.290784
-0.144434 -0.008203 0.291613
-0.142939 -0.008195 0.291477
-0.141008 -0.008162 0.290426
-0.140264 -0.008198 0.291812
-0.138820 -0.008193 0.291743
-0.137041 -0.008168 0.290952
-0.135829 -0.008177 0.291349
-0.134395 -0.008173 0.291264
-0.132039 -0.008111 0.289146
-0.126459 -0.007849 0.279843
-0.137248 -0.008607 0.306938
-0.136034 -0.008621 0.307477
-0.137038 -0.008778 0.313085
-0.137635 -0.008911 0.317867
-0.123332 -0.008072 0.287957
-0.122203 -0.008086 0.288477
-0.120880 -0.008088 0.288540
-0.119738 -0.008102 0.289032
-0.118601 -0.008117 0.289546
-0.117114 -0.008107 0.289198
-0.115745 -0.008106 0.289133
-0.114600 -0.008121 0.289631
-0.113216 -0.008119 0.289521
-0.111921 -0.008123 0.289636
-0.110656 -0.008130 0.289828
-0.109302 -0.008130 0.289786
-0.108073 -0.008140 0.290075
-0.106616 -0.008133 0.289747
-0.105220 -0.008130 0.289580
-0.103800 -0.008125 0.289337
-0.102386 -0.008121 0.289101
-0.101064 -0.008123 0.289124
-0.099901 -0.008139 0.289603
-0.098554 -0.008141 0.289558
-0.097235 -0.008144 0.289591
-0.094422 -0.008021 0.285114
-0.095691 -0.008246 0.293012
-0.095069 -0.008312 0.295261
-0.093702 -0.008314 0.295227
-0.091822 -0.008270 0.293555
-0.089999 -0.008230 0.292019
-0.089201 -0.008284 0.293811
-0.088499 -0.008349 0.295985
-0.086851 -0.008325 0.295012
-0.084814 -0.008262 0.292670
-0.082751 -0.008195 0.290165
-0.081282 -0.008185 0.289696
-0.079806 -0.008175 0.289189
-0.078601 -0.008192 0.289668
-0.077284 -0.008198 0.289747
-0.076008 -0.008208 0.289987
-0.074813 -0.008228 0.290559
-0.073527 -0.008239 0.290792
-0.072379 -0.008265 0.291598
-0.072377 -0.008427 0.297143
-0.068777 -0.008167 0.287850
-0.067584 -0.008189 0.288469
-0.066301 -0.008200 0.288724
-0.064970 -0.008205 0.288787
-0.063719 -0.008222 0.289218
-0.062369 -0.008226 0.289220
-0.061034 -0.008232 0.289296
-0.059738 -0.008244 0.289575
-0.058434 -0.008255 0.289834
-0.057103 -0.008263 0.289979
-0.055758 -0.008269 0.290062
-0.053091 -0.008287 0.290397
-0.051793 -0.008302 0.290794
-0.039866 -0.008145 0.284322
-0.039350 -0.008326 0.290511
-0.037306 -0.008185 0.285470
-0.036004 -0.008202 0.285951
-0.034760 -0.008234 0.286964
-0.030620 -0.007554 0.263174
-0.028809 -0.007415 0.258237
-0.027540 -0.007410 0.257948
-0.026301 -0.007412 0.257935
-0.025098 -0.007425 0.258301
-0.023858 -0.007428 0.258324
-0.022595 -0.007423 0.258094
-0.021344 -0.007423 0.258003
-0.020116 -0.007431 0.258202
-0.018935 -0.007458 0.259089
-0.018191 -0.007674 0.266520
-0.016920 -0.007683 0.266777
-0.015695 -0.007717 0.267897
-0.014355 -0.007695 0.267074
-0.013076 -0.007705 0.267370
-0.011779 -0.007706 0.267339
-0.010445 -0.007679 0.266354
-0.009163 -0.007688 0.266642
-0.007834 -0.007655 0.265440
-0.006534 -0.007642 0.264965
-0.005253 -0.007652 0.265281
-0.003975 -0.007673 0.265984
-0.002685 -0.007679 0.266178
-0.001387 -0.007659 0.265445
-0.000098 -0.007735 0.268091
0.001208 -0.007750 0.268600
0.002467 -0.007608 0.263654
0.003897 -0.007908 0.274059
0.005229 -0.007907 0.274036
0.006155 -0.007417 0.257056
0.007393 -0.007405 0.256654
0.008647 -0.007411 0.256850
0.009901 -0.007414 0.256984
0.011162 -0.007422 0.257266
0.012433 -0.007434 0.257718
0.013688 -0.007435 0.257787
0.014978 -0.007453 0.258445
0.016229 -0.007451 0.258402
0.017456 -0.007439 0.258017
0.018914 -0.007520 0.260874
0.020450 -0.007620 0.264397
0.022032 -0.007724 0.268066
0.024677 -0.007737 0.268623
0.025795 -0.007681 0.266753
0.026898 -0.007627 0.264929
0.028093 -0.007603 0.264148
0.029434 -0.007618 0.264751
0.030738 -0.007623 0.264990
0.032205 -0.007666 0.266577
0.033361 -0.007635 0.265570
0.034689 -0.007644 0.265960
0.036066 -0.007663 0.266698
0.037462 -0.007684 0.267530
0.038676 -0.007668 0.267056
0.040040 -0.007682 0.267625
0.041211 -0.007659 0.266913
0.042385 -0.007638 0.266273
0.043805 -0.007661 0.267176
0.045045 -0.007652 0.266970
0.044205 -0.007300 0.254795
0.045404 -0.007295 0.254715
0.046633 -0.007295 0.254810
0.047836 -0.007291 0.254767
0.049017 -0.007284 0.254617
0.050235 -0.007283 0.254670
0.051519 -0.007291 0.255048
0.052794 -0.007297 0.255374
0.053975 -0.007291 0.255245
0.055250 -0.007297 0.255564
0.057419 -0.007418 0.259920
0.060980 -0.007710 0.270267
0.062501 -0.007738 0.271339
0.063544 -0.007706 0.270340
0.064955 -0.007720 0.270918
0.066320 -0.007727 0.271290
0.067546 -0.007718 0.271094
0.068846 -0.007718 0.271201
0.070085 -0.007712 0.271070
0.071220 -0.007694 0.270554
0.072178 -0.007658 0.269394
0.072983 -0.007608 0.267720
0.074198 -0.007601 0.267578
0.075373 -0.007590 0.267304
0.076355 -0.007561 0.266368
0.077474 -0.007546 0.265931
0.078502 -0.007523 0.265207
0.079695 -0.007516 0.265051
0.081067 -0.007526 0.265488
0.082350 -0.007527 0.265623
0.083701 -0.007535 0.265971
0.085039 -0.007541 0.266271
0.086631 -0.007569 0.267343
0.088443 -0.007615 0.269055
0.094982 -0.008062 0.284894
0.098409 -0.008235 0.291091
0.099643 -0.008222 0.290717
0.101296 -0.008244 0.291559
0.102558 -0.008234 0.291264
0.103822 -0.008225 0.290980
0.105069 -0.008214 0.290654
0.106358 -0.008207 0.290448
0.108027 -0.008229 0.291269
0.109746 -0.008254 0.292199
0.111094 -0.008251 0.292125
0.112264 -0.008235 0.291588
0.113556 -0.008229 0.291369
0.114886 -0.008225 0.291249
0.116263 -0.008224 0.291242
0.117631 -0.008224 0.291209
0.118934 -0.008218 0.291011
0.120179 -0.008209 0.290670
0.121668 -0.008216 0.290915
0.123061 -0.008217 0.290920
0.124307 -0.008208 0.290573
0.125842 -0.008218 0.290892
0.127273 -0.008222 0.290961
0.128475 -0.008210 0.290499
0.130143 -0.008229 0.291080
0.131931 -0.008254 0.291906
0.133183 -0.008246 0.291530
0.134418 -0.008237 0.291114
0.135858 -0.008240 0.291137
0.137203 -0.008238 0.290944
0.138736 -0.008247 0.291139
0.140292 -0.008257 0.291365
0.141798 -0.008264 0.291469
0.143247 -0.008268 0.291443
0.144596 -0.008266 0.291201
0.146008 -0.008267 0.291076
0.147543 -0.008276 0.291178
0.149300 -0.008296 0.291699
0.150376 -0.008279 0.290874
0.151785 -0.008280 0.290685
-0.154294 -0.006840 0.291001
-0.153049 -0.006846 0.291440
-0.151397 -0.006833 0.291091
-0.150380 -0.006848 0.291950
-0.149069 -0.006851 0.292234
-0.147366 -0.006835 0.291736
-0.145438 -0.006808 0.290762
-0.143698 -0.006790 0.290135
-0.142752 -0.006810 0.291101
-0.141517 -0.006816 0.291481
-0.140057 -0.006811 0.291386
-0.138745 -0.006813 0.291591
-0.137310 -0.006809 0.291526
-0.136046 -0.006814 0.291818
-0.134007 -0.006780 0.290426
-0.127760 -0.006530 0.279779
-0.127355 -0.006576 0.281828
-0.136745 -0.007135 0.305816
-0.135536 -0.007146 0.306353
-0.136422 -0.007270 0.311680
-0.137648 -0.007414 0.317899
-0.123252 -0.006711 0.287770
-0.122079 -0.006720 0.288185
-0.120808 -0.006724 0.288368
-0.119695 -0.006738 0.288930
-0.118557 -0.006750 0.289436
-0.117137 -0.006746 0.289254
-0.115713 -0.006742 0.289054
-0.114591 -0.006755 0.289605
-0.113329 -0.006760 0.289806
-0.111978 -0.006761 0.289780
-0.110725 -0.006767 0.290005
-0.109382 -0.006768 0.289994
-0.108075 -0.006771 0.290077
-0.106740 -0.006773 0.290081
-0.105204 -0.006761 0.289528
-0.103850 -0.006762 0.289471
-0.102550 -0.006765 0.289560
-0.101214 -0.006767 0.289545
-0.099920 -0.006771 0.289652
-0.098519 -0.006769 0.289448
-0.097365 -0.006783 0.289970
-0.094957 -0.006709 0.286723
-0.096619 -0.006925 0.295844
-0.096440 -0.007013 0.299509
-0.095457 -0.007045 0.300748
-0.093867 -0.007032 0.300083
-0.092491 -0.007035 0.300093
-0.090554 -0.006994 0.298260
-0.089571 -0.007028 0.299560
-0.088240 -0.007034 0.299721
-0.085967 -0.006965 0.296639
-0.083037 -0.006839 0.291155
-0.082400 -0.006901 0.293668
