ply
format ascii 1.0
element vertex 1746
property float x
property float y
property float z
end_header
0.024703 0.022378 0.255927
0.026021 0.022445 0.256758
0.027261 0.022442 0.256789
0.028489 0.022429 0.256711
0.029711 0.022414 0.256605
0.030946 0.022408 0.256617
0.032190 0.022410 0.256707
0.033428 0.022407 0.256749
0.034626 0.022378 0.256507
0.035821 0.022350 0.256261
0.037050 0.022344 0.256275
0.038673 0.022568 0.258932
0.040752 0.023035 0.264390
0.049585 0.023591 0.271367
0.050505 0.023411 0.269401
0.052173 0.023578 0.271428
0.053401 0.023542 0.271130
0.054618 0.023504 0.270795
0.055746 0.023430 0.270053
0.056918 0.023377 0.269556
0.058488 0.023487 0.270928
0.059401 0.023333 0.269269
0.060735 0.023348 0.269549
0.062089 0.023370 0.269911
0.063415 0.023380 0.270144
0.064626 0.023349 0.269892
0.065834 0.023318 0.269643
0.067053 0.023292 0.269448
0.068335 0.023288 0.269512
0.069550 0.023262 0.269317
0.070561 0.023169 0.268353
0.071198 0.022960 0.266034
0.072105 0.022843 0.264784
0.073380 0.022845 0.264905
0.074169 0.022698 0.263303
0.074303 0.022359 0.259465
0.074788 0.022135 0.256960
0.075787 0.022068 0.256269
0.076772 0.021999 0.255558
0.077852 0.021958 0.255176
0.079173 0.021986 0.255586
0.080157 0.021921 0.254912
0.081559 0.021971 0.255569
0.083129 0.022063 0.256722
0.084466 0.022092 0.257134
0.085799 0.022119 0.257519
0.096228 0.024457 0.284817
0.100200 0.025112 0.292516
0.100987 0.024961 0.290830
0.102279 0.024938 0.290623
0.103654 0.024935 0.290650
0.104913 0.024904 0.290355
0.106392 0.024926 0.290664
0.107676 0.024902 0.290433
0.109204 0.024935 0.290855
0.110472 0.024908 0.290580
0.111796 0.024894 0.290449
0.113250 0.024909 0.290654
0.114589 0.024899 0.290553
0.115649 0.024829 0.289752
0.117335 0.024893 0.290511
0.119200 0.024994 0.291688
0.120685 0.025013 0.291908
0.121190 0.024831 0.289774
0.123199 0.024958 0.291237
0.124554 0.024951 0.291129
0.125956 0.024953 0.291123
0.127379 0.024960 0.291159
0.129016 0.025008 0.291666
0.130416 0.025009 0.291623
0.131675 0.024983 0.291258
0.133792 0.025119 0.292770
0.135009 0.025085 0.292288
0.136101 0.025029 0.291539
0.137649 0.025056 0.291759
0.139064 0.025060 0.291682
0.140411 0.025050 0.291453
0.141602 0.025014 0.290896
0.143205 0.025050 0.291173
0.144684 0.025064 0.291179
0.146176 0.025080 0.291197
0.147670 0.025096 0.291202
0.149103 0.025102 0.291071
0.150871 0.025163 0.291573
0.152215 0.025153 0.291237
-0.041391 0.008970 0.099931
-0.042359 0.009286 0.103437
-0.042519 0.009429 0.105023
-0.042767 0.009595 0.106867
-0.043048 0.009773 0.108834
-0.043236 0.009934 0.110608
-0.042832 0.009961 0.110892
-0.042664 0.010044 0.111797
-0.042399 0.010106 0.112469
-0.042264 0.010202 0.113503
-0.042270 0.010334 0.114945
-0.042252 0.010463 0.116357
-0.042299 0.010612 0.117986
-0.042169 0.010721 0.119156
-0.041929 0.010803 0.120040
-0.041809 0.010920 0.121297
-0.041428 0.010971 0.121821
-0.042488 0.011409 0.126653
-0.042666 0.011621 0.128953
-0.043275 0.011957 0.132638
-0.043033 0.012065 0.133783
-0.042867 0.012197 0.135203
-0.042761 0.012351 0.136853
-0.042713 0.012527 0.138746
-0.042577 0.012682 0.140404
-0.042507 0.012862 0.142336
-0.042597 0.013096 0.144870
-0.042615 0.013316 0.147242
-0.042901 0.013629 0.150629
-0.043167 0.013945 0.154058
-0.043161 0.014183 0.156618
-0.043064 0.014399 0.158931
-0.043089 0.014664 0.161782
-0.043181 0.014963 0.164995
-0.042968 0.015164 0.167134
-0.042808 0.015392 0.169570
-0.042624 0.015620 0.171997
-0.042391 0.015839 0.174323
-0.042240 0.016097 0.177085
-0.042057 0.016354 0.179822
-0.042038 0.016686 0.183391
-0.042136 0.017080 0.187628
-0.042290 0.017514 0.192305
-0.042194 0.017862 0.196028
-0.041930 0.018153 0.199124
-0.041629 0.018441 0.202185
-0.041389 0.018771 0.205700
-0.041187 0.019133 0.209575
-0.040770 0.019412 0.212530
-0.040761 0.019904 0.217815
-0.041036 0.020565 0.224937
-0.041091 0.021148 0.231206
-0.040713 0.021533 0.235316
-0.040520 0.022042 0.240769
-0.041404 0.023184 0.253126
-0.040236 0.023211 0.253311
-0.039901 0.023735 0.258915
-0.039375 0.024176 0.263613
-0.038748 0.024582 0.267926
-0.038213 0.025076 0.273201
-0.037131 0.025234 0.274806
-0.035108 0.024740 0.269326
-0.016867 0.024612 0.266753
-0.015469 0.024443 0.264854
-0.014522 0.025020 0.271055
-0.013216 0.025031 0.271121
-0.011796 0.024804 0.268608
-0.010514 0.024849 0.269053
-0.009116 0.024591 0.266217
-0.007850 0.024667 0.267000
-0.006519 0.024525 0.265429
-0.005217 0.024454 0.264633
-0.003952 0.024559 0.265744
-0.002658 0.024505 0.265132
-0.001368 0.024432 0.264326
-0.000088 0.024731 0.267549
0.001205 0.024634 0.266495
0.002491 0.024573 0.265828
0.003938 0.025600 0.276936
0.005280 0.025598 0.276914
0.006245 0.024137 0.261110
0.007425 0.023857 0.258097
0.008675 0.023853 0.258062
0.009963 0.023939 0.259013
0.011183 0.023863 0.258208
0.012448 0.023887 0.258494
0.013714 0.023909 0.258763
0.014994 0.023949 0.259222
0.016275 0.023985 0.259644
0.017611 0.024090 0.260822
0.018886 0.024104 0.261016
0.020234 0.024202 0.262125
0.021545 0.024247 0.262667
0.024934 0.023837 0.258382
0.025985 0.023654 0.256465
0.027211 0.023640 0.256370
0.028488 0.023669 0.256759
0.029694 0.023640 0.256508
0.030950 0.023651 0.256699
0.032205 0.023660 0.256876
0.033498 0.023696 0.257344
0.034752 0.023702 0.257493
0.035941 0.023665 0.257174
0.037459 0.023840 0.259158
0.039012 0.024025 0.261256
0.040727 0.024295 0.264281
0.042161 0.024386 0.265369
0.043201 0.024251 0.263986
0.044326 0.024169 0.263198
0.045544 0.024142 0.262993
0.049555 0.024881 0.271258
0.050475 0.024692 0.269292
0.052142 0.024868 0.271319
0.053370 0.024831 0.271022
0.054586 0.024790 0.270686
0.054233 0.024055 0.262765
0.055520 0.024065 0.262979
0.056999 0.024156 0.264074
0.058318 0.024176 0.264401
0.059958 0.024325 0.266146
0.061932 0.024601 0.269273
0.063269 0.024618 0.269567
0.064449 0.024574 0.269194
0.065666 0.024546 0.268991
0.066967 0.024549 0.269140
0.068220 0.024535 0.269094
0.069534 0.024544 0.269290
0.070627 0.024475 0.268641
0.071301 0.024266 0.266453
0.072583 0.024268 0.266572
0.073491 0.024146 0.265339
0.074303 0.023998 0.263811
0.074635 0.023702 0.260654
0.074784 0.023359 0.256974
0.076036 0.023366 0.257140
0.077071 0.023307 0.256578
0.077865 0.023178 0.255245
0.079297 0.023240 0.256012
0.080638 0.023274 0.256465
0.081758 0.023244 0.256214
0.083113 0.023281 0.256695
0.084867 0.023426 0.258373
0.086547 0.023548 0.259785
0.097940 0.026271 0.289904
0.099159 0.026227 0.289494
0.100731 0.026276 0.290109
0.102239 0.026308 0.290526
0.103532 0.026284 0.290323
0.104711 0.026233 0.289810
0.106217 0.026263 0.290196
0.107912 0.026339 0.291081
0.109201 0.026315 0.290856
0.110590 0.026316 0.290899
0.111903 0.026298 0.290734
0.113490 0.026344 0.291274
0.114927 0.026356 0.291415
0.116385 0.026371 0.291597
0.117765 0.026368 0.291579
0.118864 0.026304 0.290865
0.120285 0.026311 0.290941
0.121790 0.026336 0.291205
0.123241 0.026349 0.291330
0.124546 0.026331 0.291104
0.125992 0.026343 0.291198
0.126917 0.026247 0.290092
0.128845 0.026358 0.291269
0.130066 0.026323 0.290827
0.131341 0.026300 0.290506
0.132901 0.026334 0.290805
0.134247 0.026325 0.290621
0.135595 0.026317 0.290436
0.137198 0.026358 0.290782
0.138949 0.026426 0.291419
0.140319 0.026421 0.291238
0.141735 0.026425 0.291144
0.143008 0.026402 0.290745
0.144622 0.026442 0.291027
0.146165 0.026468 0.291145
0.147641 0.026482 0.291113
0.149114 0.026495 0.291059
0.150646 0.026517 0.291102
0.151865 0.026485 0.290529
-0.040853 0.009319 0.098635
-0.043097 0.009943 0.105241
-0.042863 0.010004 0.105875
-0.042606 0.010061 0.106468
-0.042220 0.010088 0.106745
-0.042142 0.010191 0.107814
-0.041772 0.010224 0.108152
-0.041313 0.010237 0.108263
-0.041273 0.010354 0.109486
-0.041449 0.010530 0.111321
-0.042721 0.010992 0.116178
-0.043394 0.011310 0.119510
-0.043189 0.011404 0.120477
-0.042778 0.011446 0.120887
-0.042589 0.011549 0.121940
-0.042402 0.011656 0.123029
-0.042216 0.011766 0.124149
-0.042131 0.011907 0.125598
-0.042066 0.012058 0.127150
-0.042159 0.012260 0.129232
-0.042540 0.012552 0.132264
-0.042511 0.012731 0.134095
-0.042487 0.012916 0.135993
-0.042622 0.013156 0.138467
-0.042497 0.013322 0.140158
-0.042430 0.013512 0.142096
-0.042524 0.013760 0.144644
-0.042860 0.014096 0.148107
-0.042993 0.014375 0.150974
-0.042906 0.014588 0.153150
-0.043032 0.014883 0.156173
-0.043047 0.015149 0.158891
-0.043082 0.015432 0.161784
-0.042966 0.015669 0.164199
-0.042829 0.015908 0.166622
-0.042641 0.016136 0.168936
-0.042549 0.016411 0.171729
-0.042345 0.016652 0.174165
-0.042261 0.016950 0.177204
-0.042072 0.017218 0.179919
-0.041869 0.017491 0.182687
-0.041586 0.017742 0.185216
-0.041942 0.018282 0.190764
-0.042161 0.018785 0.195919
-0.041892 0.019088 0.198986
-0.041567 0.019380 0.201930
-0.041140 0.019637 0.204505
-0.040876 0.019986 0.208042
-0.040566 0.020328 0.211512
-0.040581 0.020856 0.216903
-0.041956 0.022129 0.230037
-0.040907 0.022158 0.230223
-0.040688 0.022650 0.235233
-0.040296 0.023071 0.239500
-0.040200 0.023691 0.245830
-0.041146 0.024982 0.259105
-0.039948 0.025010 0.259290
-0.039101 0.025268 0.261848
-0.038529 0.025726 0.266484
-0.038227 0.026402 0.273377
-0.036929 0.026413 0.273384
-0.034973 0.025938 0.268364
-0.034738 0.026752 0.276674
-0.023729 0.024979 0.257721
-0.022042 0.024487 0.252568
-0.020987 0.024681 0.254497
-0.019846 0.024792 0.255568
-0.018701 0.024911 0.256732
-0.017669 0.025208 0.259729
-0.016853 0.025885 0.266633
-0.015387 0.025591 0.263553
-0.014060 0.025496 0.262513
-0.012959 0.025834 0.265942
-0.011602 0.025678 0.264288
-0.010323 0.025680 0.264265
-0.009035 0.025654 0.263963
-0.007772 0.025708 0.264472
-0.006444 0.025519 0.262495
-0.005198 0.025646 0.263772
-0.003947 0.025823 0.265573
-0.002638 0.025612 0.263378
-0.001364 0.025660 0.263852
-0.000087 0.026047 0.267821
0.001223 0.026308 0.270491
0.002459 0.025517 0.262355
0.003916 0.026787 0.275408
0.005251 0.026785 0.275386
0.006193 0.025184 0.258941
0.007370 0.024920 0.256231
0.008635 0.024986 0.256925
0.009912 0.025063 0.257733
0.011129 0.024990 0.257000
0.012411 0.025064 0.257785
0.013681 0.025101 0.258188
0.014959 0.025145 0.258674
0.016232 0.025175 0.259018
0.017542 0.025252 0.259850
0.018819 0.025276 0.260143
0.020233 0.025469 0.262168
0.021676 0.025674 0.264332
0.024917 0.025069 0.258267
0.025995 0.024903 0.256617
0.027266 0.024929 0.256951
0.028545 0.024960 0.257332
0.029715 0.024897 0.256751
0.030945 0.024887 0.256721
0.032235 0.024924 0.257177
0.033493 0.024934 0.257358
0.034768 0.024956 0.257665
0.036042 0.024976 0.257948
0.037253 0.024952 0.257790
0.039021 0.025290 0.261369
0.041143 0.025830 0.267037
0.042150 0.025658 0.265353
0.042816 0.025295 0.261688
0.043938 0.025214 0.260944
0.044812 0.024999 0.258820
0.045486 0.024687 0.255687
0.046769 0.024714 0.256058
0.047893 0.024657 0.255566
0.048858 0.024523 0.254278
0.050191 0.024576 0.254925
0.051987 0.024848 0.257845
0.053335 0.024897 0.258462
0.054475 0.024850 0.258073
0.056238 0.025083 0.260592
0.058023 0.025315 0.263111
0.059760 0.025516 0.265311
0.061734 0.025809 0.268457
0.063122 0.025849 0.268981
0.064379 0.025835 0.268942
0.065613 0.025812 0.268815
0.066984 0.025844 0.269250
0.068243 0.025831 0.269225
0.069542 0.025834 0.269358
0.070687 0.025780 0.268907
0.071422 0.025582 0.266939
0.072817 0.025623 0.267466
0.073951 0.025572 0.267034
0.074857 0.025445 0.265809
0.075553 0.025252 0.263892
0.075542 0.024834 0.259608
0.076712 0.024810 0.259453
0.077539 0.024678 0.258162
0.078622 0.024631 0.257751
0.080204 0.024739 0.258966
0.081066 0.024625 0.257850
0.082745 0.024759 0.259331
0.084361 0.024869 0.260569
0.086718 0.025193 0.264029
0.087833 0.025151 0.263664
0.099475 0.028082 0.294468
0.100713 0.028036 0.294051
0.100660 0.027636 0.289925
0.101944 0.027609 0.289702
0.103478 0.027649 0.290186
0.104660 0.027596 0.289680
0.105923 0.027565 0.289407
0.107290 0.027561 0.289414
0.109069 0.027662 0.290514
0.110463 0.027664 0.290571
0.111553 0.027591 0.289832
0.113076 0.027626 0.290217
0.114793 0.027706 0.291078
0.115883 0.027635 0.290343
0.117509 0.027692 0.290946
0.118863 0.027684 0.290862
0.120444 0.027728 0.291321
0.121966 0.027758 0.291622
0.122953 0.027667 0.290645
0.124522 0.027708 0.291041
0.125949 0.027716 0.291091
0.127529 0.027757 0.291481
0.128838 0.027740 0.291242
0.130127 0.027718 0.290951
0.131458 0.027705 0.290751
0.132898 0.027716 0.290781
0.134231 0.027704 0.290568
0.135844 0.027749 0.290949
0.136810 0.027663 0.289937
0.138488 0.027721 0.290429
0.140416 0.027827 0.291415
0.141526 0.027771 0.290687
0.142936 0.027774 0.290570
0.144866 0.027877 0.291485
0.146308 0.027885 0.291395
0.147803 0.027902 0.291397
0.149268 0.027914 0.291321
0.150808 0.027940 0.291377
0.152116 0.027922 0.290968
-0.043105 0.010323 0.104072
-0.042688 0.010340 0.104243
-0.042547 0.010426 0.105098
-0.042400 0.010512 0.105956
-0.042264 0.010602 0.106858
-0.042129 0.010696 0.107785
-0.041922 0.010773 0.108543
-0.041977 0.010920 0.110007
-0.042223 0.011121 0.112012
-0.042554 0.011350 0.114296
-0.042627 0.011515 0.115932
-0.042587 0.011653 0.117296
-0.042401 0.011755 0.118289
-0.042323 0.011889 0.119608
-0.042598 0.012128 0.121977
-0.042632 0.012304 0.123707
-0.042295 0.012376 0.124391
-0.042257 0.012539 0.125989
-0.042204 0.012702 0.127582
-0.042536 0.012986 0.130399
-0.042693 0.013226 0.132756
-0.042423 0.013338 0.133833
-0.042319 0.013507 0.135473
-0.042342 0.013722 0.137575
-0.042434 0.013966 0.139967
-0.042489 0.014206 0.142312
-0.042669 0.014496 0.145157
-0.042635 0.014721 0.147354
-0.042742 0.015003 0.150114
-0.042960 0.015335 0.153368
-0.043019 0.015620 0.156152
-0.042975 0.015878 0.158652
-0.042940 0.016148 0.161275
-0.042878 0.016417 0.163891
-0.042695 0.016649 0.166130
-0.042759 0.016988 0.169435
-0.042661 0.017274 0.172212
-0.042335 0.017478 0.174158
-0.042170 0.017757 0.176859
-0.042022 0.018055 0.179740
-0.041837 0.018350 0.182585
-0.041867 0.018753 0.186507
-0.042122 0.019276 0.191625
-0.042147 0.019715 0.195896
-0.041928 0.020058 0.199203
-0.041476 0.020302 0.201534
-0.041141 0.020616 0.204556
-0.040883 0.020985 0.208123
-0.040604 0.021362 0.211760
-0.040553 0.021881 0.216808
-0.040884 0.023250 0.230155
-0.040547 0.023697 0.234474
-0.040401 0.024285 0.240185
-0.040172 0.024855 0.245720
-0.041356 0.026361 0.260499
-0.040152 0.026392 0.260684
-0.039212 0.026603 0.262660
-0.038565 0.027034 0.266808
-0.038157 0.027668 0.272952
-0.036700 0.027559 0.271770
-0.034933 0.027200 0.268131
-0.034712 0.028065 0.276547
-0.033412 0.028091 0.276705
-0.029824 0.026116 0.257154
-0.028678 0.026201 0.257901
-0.027424 0.026190 0.257710
-0.026133 0.026141 0.257138
-0.024929 0.026179 0.257433
-0.023710 0.026205 0.257601
-0.022476 0.026215 0.257630
-0.021277 0.026271 0.258104
-0.020015 0.026251 0.257834
-0.018857 0.026372 0.258963
-0.017639 0.026422 0.259388
-0.016991 0.027399 0.268917
-0.015323 0.026756 0.262548
-0.014060 0.026769 0.262617
0.001224 0.027597 0.270362
0.002481 0.027015 0.264656
0.003948 0.028344 0.277671
0.005294 0.028342 0.277649
0.006269 0.026758 0.262142
0.007337 0.026042 0.255132
0.008590 0.026090 0.255618
0.009875 0.026213 0.256839
0.011091 0.026145 0.256187
0.012371 0.026224 0.256992
0.013637 0.026264 0.257410
0.014902 0.026295 0.257740
0.016201 0.026376 0.258571
0.017467 0.026397 0.258811
0.018714 0.026386 0.258752
0.020014 0.026447 0.259391
0.021371 0.026572 0.260663
0.026112 0.026261 0.257836
0.027441 0.026339 0.258661
0.028833 0.026467 0.259988
0.029947 0.026340 0.258811
0.031265 0.026396 0.259434
0.032614 0.026473 0.260262
0.033981 0.026558 0.261173
0.035289 0.026591 0.261583
0.036615 0.026636 0.262108
0.038075 0.026773 0.263535
0.039326 0.026758 0.263473
0.040685 0.026815 0.264124
0.042091 0.026899 0.265041
0.043269 0.026836 0.264514
0.043895 0.026444 0.260748
0.044922 0.026309 0.259510
0.045949 0.026181 0.258339
0.046915 0.026026 0.256910
0.047879 0.025878 0.255543
0.049067 0.025855 0.255416
0.050387 0.025902 0.255972
0.051875 0.026030 0.257340
0.053244 0.026093 0.258070
0.054675 0.026184 0.259068
0.056282 0.026353 0.260845
0.057644 0.026403 0.261439
0.059497 0.026670 0.264189
0.061479 0.026983 0.267394
0.062973 0.027073 0.268392
0.064290 0.027085 0.268618
0.065645 0.027112 0.268992
0.067019 0.027146 0.269432
0.068297 0.027140 0.269477
0.069590 0.027140 0.269587
0.070937 0.027161 0.269895
0.071811 0.027003 0.268430
0.072793 0.026891 0.267413
0.074201 0.026937 0.267973
0.075164 0.026823 0.266933
0.075911 0.026637 0.265174
0.076609 0.026439 0.263304
0.077869 0.026440 0.263398
0.078665 0.026285 0.261941
0.079734 0.026224 0.261425
0.081141 0.026275 0.262016
0.082593 0.026339 0.262731
0.084057 0.026404 0.263464
0.085538 0.026473 0.264227
0.087775 0.026771 0.267269
0.096253 0.028936 0.288962
0.097472 0.028888 0.288558
0.099423 0.029056 0.290304
0.100815 0.029058 0.290388
0.102079 0.029023 0.290105
0.103299 0.028977 0.289699
0.104581 0.028950 0.289476
0.105896 0.028932 0.289344
0.107379 0.028959 0.289665
0.108599 0.028916 0.289271
0.110293 0.028999 0.290134
0.111420 0.028932 0.289494
0.113676 0.029157 0.291762
0.115006 0.029141 0.291621
0.116149 0.029079 0.291012
0.117675 0.029113 0.291357
0.118984 0.029094 0.291156
0.120618 0.029153 0.291740
0.122030 0.029158 0.291771
0.122796 0.029010 0.290267
0.124480 0.029079 0.290934
0.125784 0.029060 0.290701
0.127350 0.029101 0.291061
0.128919 0.029141 0.291411
0.130026 0.029077 0.290712
0.131514 0.029099 0.290859
0.132745 0.029064 0.290429
0.133949 0.029024 0.289938
0.135672 0.029096 0.290560
0.137313 0.029149 0.290980
0.139045 0.029220 0.291572
0.140180 0.029166 0.290899
0.141547 0.029160 0.290700
0.143408 0.029255 0.291498
0.144702 0.029234 0.291122
0.146563 0.029326 0.291869
0.147778 0.029289 0.291311
0.149284 0.029310 0.291314
0.151187 0.029407 0.292066
0.152774 0.029441 0.292182
-0.040993 0.010283 0.098975
-0.042651 0.010822 0.104153
-0.042432 0.010892 0.104817
-0.042519 0.011042 0.106255
-0.042335 0.011125 0.107042
-0.042147 0.011209 0.107836
-0.041994 0.011304 0.108735
-0.041725 0.011370 0.109352
-0.041768 0.011524 0.110812
-0.042019 0.011740 0.112864
-0.042346 0.011982 0.115173
-0.042071 0.012059 0.115883
-0.041827 0.012147 0.116696
-0.041968 0.012350 0.118617
-0.042440 0.012657 0.121534
-0.042616 0.012883 0.123670
-0.042472 0.013018 0.124926
-0.042549 0.013225 0.126872
-0.042523 0.013406 0.128560
-0.042540 0.013605 0.130427
-0.042534 0.013803 0.132275
-0.042282 0.013925 0.133402
-0.042383 0.014170 0.135693
-0.042344 0.014374 0.137598
-0.042480 0.014645 0.140138
-0.042365 0.014837 0.141918
-0.042474 0.015115 0.144515
-0.042483 0.015365 0.146849
-0.042478 0.015619 0.149212
-0.042637 0.015943 0.152238
-0.043200 0.016431 0.156832
-0.043151 0.016700 0.159330
-0.042932 0.016911 0.161272
-0.042853 0.017187 0.163825
-0.042762 0.017467 0.166424
-0.042658 0.017753 0.169067
-0.042694 0.018109 0.172377
-0.042339 0.018310 0.174208
-0.042126 0.018581 0.176710
-0.042030 0.018916 0.179813
-0.042019 0.019305 0.183419
-0.042039 0.019724 0.187313
-0.042366 0.020309 0.192775
-0.041952 0.020556 0.195034
-0.041786 0.020939 0.198573
-0.041328 0.021191 0.200864
-0.041082 0.021565 0.204314
-0.040770 0.021922 0.207603
-0.040560 0.022353 0.211584
-0.040525 0.022905 0.216711
-0.041929 0.024321 0.230002
-0.040879 0.024351 0.230188
-0.040503 0.024796 0.234287
-0.040210 0.025318 0.239113
-0.040048 0.025956 0.245029
-0.040311 0.026916 0.253987
-0.040077 0.027594 0.260275
-0.039342 0.027959 0.263612
-0.038583 0.028331 0.267010
-0.038015 0.028874 0.272013
-0.037109 0.029190 0.274882
-0.034637 0.028252 0.265945
-0.034700 0.029388 0.276538
-0.033400 0.029416 0.276695
-0.029834 0.027366 0.257324
-0.028668 0.027436 0.257893
-0.027498 0.027509 0.258487
-0.026266 0.027523 0.258534
-0.025109 0.027621 0.259377
-0.023850 0.027612 0.259212
-0.022682 0.027712 0.260077
-0.021490 0.027794 0.260770
-0.020217 0.027775 0.260525
-0.019004 0.027842 0.261082
-0.017729 0.027820 0.260811
-0.016977 0.028677 0.268785
-0.015365 0.028106 0.263368
0.001209 0.028538 0.266987
0.002503 0.028537 0.266978
0.003905 0.029354 0.274620
0.005235 0.029352 0.274598
0.006255 0.027962 0.261604
0.007358 0.027352 0.255900
0.008621 0.027425 0.256596
0.009874 0.027452 0.256863
0.011094 0.027389 0.256293
0.012356 0.027435 0.256751
0.013619 0.027473 0.257133
0.014883 0.027506 0.257470
0.016180 0.027590 0.258296
0.017465 0.027644 0.258834
0.018719 0.027644 0.258877
0.020042 0.027741 0.259825
0.021730 0.028300 0.265114
0.023000 0.028283 0.265008
0.038840 0.028606 0.268889
0.040098 0.028577 0.268708
0.041166 0.028419 0.267310
0.042073 0.028163 0.264987
0.042892 0.027864 0.262266
0.043510 0.027456 0.258515
0.044630 0.027378 0.257878
0.045474 0.027140 0.255727
0.046635 0.027098 0.255428
0.047650 0.026976 0.254374
0.048841 0.026958 0.254294
0.050187 0.027023 0.255006
0.051451 0.027042 0.255284
0.052849 0.027129 0.256208
0.054342 0.027260 0.257540
0.055643 0.027290 0.257931
0.057415 0.027546 0.260447
0.059407 0.027893 0.263835
0.061331 0.028195 0.266797
0.062844 0.028300 0.267890
0.064188 0.028325 0.268234
0.065686 0.028416 0.269204
0.067006 0.028428 0.269422
0.068253 0.028409 0.269345
0.069622 0.028441 0.269751
0.070856 0.028418 0.269627
0.073160 0.028816 0.273513
0.074356 0.028772 0.273194
0.075586 0.028742 0.273012
0.076525 0.028605 0.271803
0.077873 0.028622 0.272063
0.079185 0.028626 0.272192
0.080695 0.028700 0.272988
0.082119 0.028742 0.273474
0.083505 0.028768 0.273817
0.084697 0.028729 0.273529
0.086274 0.028819 0.274470
0.087149 0.028676 0.273183
0.088405 0.028660 0.273107
0.090109 0.028787 0.274399
0.095902 0.030199 0.287930
0.097116 0.030149 0.287528
0.097615 0.029882 0.285043
0.099631 0.030080 0.286997
0.101145 0.030123 0.287467
0.103269 0.030344 0.289632
0.104610 0.030333 0.289571
0.105287 0.030131 0.287691
0.106856 0.030187 0.288264
0.108724 0.030324 0.289614
0.110336 0.030388 0.290254
0.111524 0.030334 0.289769
0.112706 0.030281 0.289277
0.114470 0.030383 0.290267
0.116381 0.030521 0.291595
0.117918 0.030559 0.291958
0.118777 0.030422 0.290649
0.120665 0.030549 0.291851
0.121963 0.030526 0.291606
0.122367 0.030281 0.289248
0.124357 0.030431 0.290639
0.125721 0.030425 0.290546
0.126892 0.030373 0.290002
0.128771 0.030490 0.291062
0.130265 0.030514 0.291230
0.131558 0.030491 0.290938
0.132874 0.030474 0.290691
0.134176 0.030454 0.290409
0.135500 0.030439 0.290167
0.137009 0.030466 0.290312
0.138401 0.030466 0.290194
0.139988 0.030509 0.290471
0.141128 0.030455 0.289809
0.142679 0.030489 0.289982
0.145157 0.030719 0.292002
0.147533 0.030923 0.293763
0.148862 0.030906 0.293408
0.150109 0.030872 0.292882
0.151504 0.030868 0.292634
0.153021 0.030890 0.292608
-0.040595 0.010645 0.098013
-0.042693 0.011324 0.104259
-0.042674 0.011450 0.105416
-0.042733 0.011601 0.106793
-0.042529 0.011683 0.107536
-0.042289 0.011757 0.108203
-0.041900 0.011790 0.108497
-0.041605 0.011852 0.109043
-0.041869 0.012076 0.111085
-0.042344 0.012367 0.113744
-0.042250 0.012497 0.114919
-0.042103 0.012615 0.115977
-0.041854 0.012706 0.116778
-0.041482 0.012760 0.117251
-0.042412 0.013222 0.121465
-0.042856 0.013543 0.124378
-0.042872 0.013736 0.126112
-0.042547 0.013824 0.126879
-0.042350 0.013956 0.128049
-0.042408 0.014178 0.130037
-0.042562 0.014438 0.132380
-0.042444 0.014613 0.133931
-0.042337 0.014796 0.135566
-0.042295 0.015009 0.137458
-0.042443 0.015296 0.140037
-0.042370 0.015512 0.141954
-0.042347 0.015753 0.144102
-0.042696 0.016143 0.147607
-0.042889 0.016485 0.150678
-0.042963 0.016793 0.153427
-0.043312 0.017221 0.157269
-0.043287 0.017513 0.159861
-0.043039 0.017722 0.161704
-0.042946 0.018005 0.164210
-0.042835 0.018290 0.166738
-0.042712 0.018582 0.169315
-0.042691 0.018929 0.172401
-0.042435 0.019183 0.174639
-0.042388 0.019545 0.177844
-0.042230 0.019869 0.180708
-0.042321 0.020325 0.184777
-0.042175 0.020685 0.187963
-0.042265 0.021179 0.192362
-0.041921 0.021472 0.194933
-0.041759 0.021875 0.198495
-0.041397 0.022188 0.201247
-0.040970 0.022481 0.203806
-0.040532 0.022782 0.206441
-0.040273 0.023201 0.210145
-0.040495 0.023926 0.216607
-0.040956 0.024833 0.224723
-0.040903 0.025470 0.230382
-0.040492 0.025913 0.234286
-0.040197 0.026457 0.239103
-0.040007 0.027105 0.244848
-0.041255 0.028795 0.260007
-0.040053 0.028828 0.260191
-0.039330 0.029219 0.263611
-0.038474 0.029533 0.266337
-0.038014 0.030183 0.272091
-0.036867 0.030315 0.273174
-0.034813 0.029683 0.267381
-0.034616 0.030647 0.275956
-0.033319 0.030675 0.276112
-0.029683 0.028463 0.256104
-0.028555 0.028568 0.256965
-0.027365 0.028617 0.257322
-0.026071 0.028558 0.256706
-0.024895 0.028629 0.257260
-0.023666 0.028642 0.257303
-0.022393 0.028601 0.256856
-0.021201 0.028666 0.257368
-0.019944 0.028644 0.257106
-0.018694 0.028631 0.256916
-0.017441 0.028611 0.256675
-0.013125 0.030084 0.269661
-0.011251 0.028634 0.256619
-0.010066 0.028796 0.258026
-0.008856 0.028920 0.259102
-0.007536 0.028665 0.256779
-0.006303 0.028709 0.257145
-0.005071 0.028781 0.257763
-0.003842 0.028919 0.258968
-0.002594 0.028990 0.259585
-0.001337 0.028972 0.259411
-0.000082 0.029468 0.263839
0.001207 0.029743 0.266288
0.002481 0.029558 0.264626
0.003849 0.030236 0.270693
0.005172 0.030301 0.271278
0.006485 0.030298 0.271250
0.007359 0.028588 0.255956
0.008596 0.028580 0.255891
0.009917 0.028817 0.258032
0.011116 0.028684 0.256861
0.012415 0.028812 0.258027
0.013671 0.028825 0.258176
0.014938 0.028857 0.258491
0.016239 0.028943 0.259297
0.017485 0.028928 0.259197
0.018762 0.028961 0.259535
0.020010 0.028949 0.259465
0.021635 0.029451 0.264011
0.022542 0.028974 0.259793
0.037848 0.030146 0.271065
0.038034 0.029282 0.263378
0.039294 0.029273 0.263383
0.040662 0.029342 0.264096
0.042430 0.029688 0.267300
0.043249 0.029369 0.264512
0.043617 0.028770 0.259212
0.044160 0.028317 0.255218
0.045084 0.028126 0.253588
0.046292 0.028118 0.253609
0.047445 0.028077 0.253332
0.048557 0.028015 0.252867
0.049794 0.028026 0.253062
0.051107 0.028078 0.253633
0.052466 0.028152 0.254400
0.053741 0.028180 0.254744
0.055116 0.028257 0.255541
0.056538 0.028354 0.256519
0.058842 0.028880 0.261376
0.061181 0.029400 0.266191
0.062916 0.029616 0.268246
0.064259 0.029641 0.268580
0.065677 0.029700 0.269212
0.067162 0.029785 0.270092
0.068457 0.029786 0.270196
0.069756 0.029787 0.270312
0.071188 0.029844 0.270933
0.072468 0.029837 0.270964
0.073551 0.029750 0.270276
0.074736 0.029707 0.269978
0.075896 0.029655 0.269605
0.076946 0.029563 0.268859
0.078531 0.029676 0.269979
0.079785 0.029662 0.269941
0.080875 0.029589 0.269360
0.082374 0.029665 0.270141
0.083612 0.029646 0.270051
0.085192 0.029747 0.271055
0.086797 0.029854 0.272103
0.087761 0.029740 0.271144
0.090005 0.030057 0.274106
0.096887 0.031892 0.290912
0.098115 0.031840 0.290506
0.098053 0.031377 0.286343
0.099563 0.031422 0.286817
0.100880 0.031406 0.286730
0.102506 0.031485 0.287508
0.103953 0.031508 0.287766
0.105241 0.031483 0.287579
0.107158 0.031644 0.289090
0.108886 0.031746 0.290056
0.110919 0.031933 0.291795
0.113682 0.031928 0.291787
0.114915 0.031884 0.291397
0.116321 0.031888 0.291446
0.117510 0.031834 0.290948
0.118842 0.031819 0.290804
0.120339 0.031848 0.291057
0.121693 0.031839 0.290956
0.123164 0.031860 0.291122
0.124450 0.031834 0.290847
0.125699 0.031799 0.290484
0.127286 0.031849 0.290889
0.128609 0.031832 0.290682
0.129974 0.031826 0.290562
0.131471 0.031853 0.290727
0.132752 0.031827 0.290405
0.134257 0.031854 0.290562
0.135685 0.031863 0.290540
0.137119 0.031873 0.290518
0.139506 0.032102 0.292482
0.139895 0.031871 0.290246
0.142269 0.032093 0.292119
0.143683 0.032096 0.291989
0.145212 0.032124 0.292077
0.146468 0.032092 0.291602
0.147834 0.032084 0.291340
0.150074 0.032264 0.292770
0.151384 0.032243 0.292357
0.152465 0.032174 0.291496
-0.041295 0.011299 0.099705
-0.043042 0.011912 0.105112
-0.042779 0.011977 0.105677
-0.042736 0.012105 0.106804
-0.042396 0.012152 0.107204
-0.042139 0.012223 0.107822
-0.041809 0.012275 0.108267
-0.041650 0.012379 0.109166
-0.041837 0.012590 0.111006
-0.041923 0.012775 0.112620
-0.041991 0.012960 0.114222
-0.041060 0.012837 0.113113
-0.041036 0.012998 0.114505
-0.042055 0.013498 0.118880
-0.042701 0.013890 0.122304
-0.042908 0.014148 0.124541
-0.042658 0.014261 0.125496
-0.042653 0.014460 0.127207
-0.042861 0.014738 0.129609
-0.042852 0.014948 0.131412
-0.042625 0.015087 0.132590
-0.042326 0.015204 0.133576
-0.042222 0.015396 0.135215
-0.042299 0.015661 0.137490
-0.042381 0.015936 0.139853
-0.042343 0.016174 0.141884
-0.042282 0.016411 0.143904
-0.042711 0.016849 0.147683
-0.042706 0.017127 0.150060
-0.043147 0.017597 0.154109
-0.043357 0.017987 0.157457
-0.043351 0.018299 0.160123
-0.043203 0.018562 0.162352
-0.043045 0.018829 0.164619
-0.042778 0.019058 0.166548
-0.042715 0.019389 0.169360
-0.042706 0.019757 0.172496
-0.042532 0.020061 0.175074
-0.042454 0.020424 0.178162
-0.042339 0.020784 0.181217
-0.042481 0.021287 0.185516
-0.042499 0.021748 0.189449
-0.042409 0.022173 0.193059
-0.042150 0.022527 0.196048
-0.041758 0.022823 0.198539
-0.041475 0.023195 0.201675
-0.040948 0.023444 0.203750
-0.040470 0.023734 0.206181
-0.040202 0.024165 0.209830
-0.041958 0.025866 0.224497
-0.040937 0.025899 0.224681
-0.040976 0.026623 0.230859
-0.040411 0.026983 0.233883
-0.040111 0.027546 0.238660
-0.039959 0.028247 0.244625
-0.041293 0.030073 0.260328
-0.040090 0.030107 0.260512
-0.039463 0.030589 0.264582
-0.038874 0.031134 0.269188
-0.038298 0.031728 0.274212
-0.036914 0.031670 0.273609
-0.035170 0.031289 0.270208
-0.034715 0.032068 0.276839
-0.033415 0.032098 0.276996
-0.029871 0.029886 0.257817
-0.028666 0.029923 0.258047
-0.027446 0.029948 0.258174
-0.026205 0.029950 0.258113
-0.024980 0.029973 0.258226
-0.023739 0.029978 0.258193
-0.022495 0.029979 0.258127
-0.021230 0.029951 0.257815
-0.020018 0.029998 0.258151
-0.018724 0.029922 0.257426
-0.017449 0.029866 0.256886
-0.013112 0.031361 0.269516
-0.011215 0.029783 0.255912
-0.010058 0.030021 0.257917
-0.008884 0.030272 0.260035
-0.007523 0.029860 0.256459
-0.006298 0.029939 0.257103
-0.005086 0.030124 0.258661
-0.003847 0.030221 0.259474
-0.002599 0.030322 0.260323
-0.001341 0.030357 0.260606
-0.000081 0.030951 0.265690
0.001219 0.031314 0.268789
0.002481 0.030827 0.264604
0.003799 0.031120 0.267121
0.005195 0.031748 0.272511
0.006362 0.031006 0.266147
0.007465 0.030255 0.259708
0.008668 0.030062 0.258067
0.009951 0.030165 0.258962
0.011144 0.030000 0.257571
0.012443 0.030126 0.258674
0.013705 0.030145 0.258865
0.014979 0.030188 0.259263
0.016318 0.030344 0.260635
0.017556 0.030303 0.260319
0.018919 0.030468 0.261774
0.020221 0.030520 0.262270
0.021761 0.030905 0.265625
0.023909 0.032062 0.275622
0.034125 0.031641 0.272522
0.035017 0.031262 0.269334
0.036424 0.031353 0.270197
0.037818 0.031427 0.270923
0.039004 0.031329 0.270159
0.040138 0.031197 0.269108
0.041144 0.030977 0.267294
0.042656 0.031139 0.268786
0.043492 0.030813 0.266060
0.044046 0.030312 0.261821
0.043990 0.029430 0.254294
0.045211 0.029427 0.254360
0.046565 0.029509 0.255158
0.047469 0.029308 0.253520
0.048717 0.029325 0.253755
0.049882 0.029292 0.253567
0.051172 0.029332 0.254009
0.052437 0.029356 0.254312
0.053523 0.029281 0.253760
0.054926 0.029380 0.254709
0.056522 0.029574 0.256494
0.059004 0.030215 0.262148
0.061234 0.030701 0.266474
0.062957 0.030919 0.268467
0.064140 0.030869 0.268128
0.065609 0.030955 0.268980
0.067128 0.031061 0.270005
0.068465 0.031080 0.270273
0.069704 0.031055 0.270153
0.071059 0.031082 0.270484
0.072236 0.031031 0.270139
0.073445 0.030995 0.269925
0.074589 0.030934 0.269488
0.075926 0.030953 0.269748
0.077239 0.030962 0.269919
0.078421 0.030919 0.269635
0.079664 0.030901 0.269567
0.080874 0.030871 0.269390
0.082070 0.030837 0.269173
0.083233 0.030791 0.268857
0.084772 0.030884 0.269747
0.086351 0.030988 0.270734
0.087256 0.030851 0.269607
0.089386 0.031145 0.272246
0.091804 0.031529 0.275673
0.098062 0.033203 0.290372
0.108967 0.036381 0.318239
0.110305 0.036322 0.317785
0.109826 0.035674 0.312176
0.111133 0.035615 0.311720
0.103185 0.032631 0.285652
0.104779 0.032704 0.286329
0.106533 0.032824 0.287416
0.108370 0.032966 0.288691
0.110757 0.033269 0.291376
0.111994 0.033224 0.291004
0.114743 0.033216 0.290963
0.116025 0.033186 0.290704
0.117534 0.033221 0.291005
0.118670 0.033151 0.290381
0.119968 0.033127 0.290156
0.121639 0.033205 0.290819
0.122403 0.033037 0.289316
0.123894 0.033066 0.289536
0.125536 0.033135 0.290094
0.127074 0.033175 0.290391
0.128631 0.033219 0.290715
0.129886 0.033184 0.290348
0.131359 0.033206 0.290458
0.132765 0.033210 0.290411
0.134035 0.033181 0.290058
0.135461 0.033190 0.290035
0.136970 0.033219 0.290174
0.138719 0.033306 0.290802
0.140367 0.033366 0.291194
0.141344 0.033268 0.290185
0.142889 0.033303 0.290338
0.145100 0.033492 0.291811
0.146867 0.033575 0.292355
0.147907 0.033492 0.291440
0.149445 0.033523 0.291494
0.150915 0.033537 0.291401
0.152393 0.033553 0.291306
-0.040889 0.011522 0.097617
-0.040778 0.011621 0.098456
-0.040189 0.011585 0.098145
-0.042786 0.012477 0.105695
-0.042761 0.012616 0.106867
-0.042420 0.012664 0.107266
-0.042015 0.012694 0.107509
-0.041730 0.012761 0.108065
-0.041623 0.012886 0.109102
-0.041989 0.013161 0.111416
-0.042226 0.013403 0.113439
-0.042283 0.013593 0.115025
-0.042059 0.013696 0.115873
-0.041638 0.013737 0.116195
-0.041590 0.013904 0.117577
-0.041695 0.014127 0.119431
-0.042410 0.014566 0.123109
-0.042377 0.014756 0.124682
-0.042560 0.015028 0.126943
-0.042895 0.015362 0.129725
-0.042896 0.015585 0.131563
-0.042526 0.015678 0.132299
-0.042093 0.015749 0.132857
-0.042055 0.015973 0.134698
-0.042242 0.016290 0.137324
-0.042304 0.016569 0.139617
-0.042486 0.016904 0.142385
-0.042477 0.017172 0.144592
-0.042552 0.017484 0.147158
-0.042665 0.017822 0.149942
-0.042765 0.018166 0.152774
-0.043389 0.018749 0.157604
-0.043213 0.018999 0.159643
-0.043154 0.019312 0.162199
-0.042905 0.019549 0.164117
-0.042814 0.019868 0.166723
-0.042570 0.020127 0.168821
-0.042601 0.020528 0.172110
-0.042549 0.020904 0.175182
-0.042502 0.021298 0.178401
-0.042623 0.021793 0.182471
-0.042622 0.022246 0.186177
-0.042775 0.022800 0.190725
-0.042517 0.023154 0.193601
-0.042209 0.023496 0.196372
-0.041765 0.023777 0.198623
-0.041495 0.024171 0.201823
-0.040935 0.024411 0.203739
-0.040507 0.024744 0.206423
-0.040116 0.025116 0.209437
-0.041908 0.026909 0.224290
-0.040887 0.026943 0.224475
-0.040807 0.027616 0.229975
-0.040475 0.028150 0.234325
-0.040126 0.028703 0.238821
-0.039925 0.029397 0.244495
-0.040127 0.031388 0.260834
-0.039606 0.031977 0.265627
-0.038913 0.032462 0.269549
-0.038122 0.032896 0.273044
-0.036799 0.032886 0.272852
-0.035216 0.032633 0.270655
-0.034760 0.033446 0.277293
-0.033458 0.033477 0.277449
-0.029828 0.031084 0.257534
-0.028667 0.031170 0.258152
-0.027451 0.031200 0.258317
-0.026172 0.031158 0.257888
-0.024966 0.031203 0.258179
-0.023734 0.031219 0.258234
-0.022483 0.031210 0.258085
-0.021240 0.031212 0.258038
-0.020029 0.031265 0.258401
-0.018737 0.031188 0.257704
-0.017454 0.031118 0.257061
-0.013207 0.032904 0.271588
-0.011289 0.031228 0.257710
-0.010004 0.031107 0.256671
-0.008821 0.031313 0.258330
-0.007535 0.031160 0.257032
-0.006300 0.031198 0.257320
-0.005075 0.031314 0.258246
-0.003844 0.031467 0.259486
-0.002594 0.031534 0.260010
-0.001342 0.031672 0.261133
-0.000080 0.032405 0.267161
0.001220 0.032597 0.268737
0.002485 0.032135 0.264922
0.003830 0.032668 0.269316
0.005145 0.032744 0.269940
0.006417 0.032567 0.268487
0.007722 0.032588 0.268668
0.009026 0.032599 0.268774
0.010298 0.032508 0.268039
0.011586 0.032483 0.267853
0.012910 0.032552 0.268441
0.014220 0.032575 0.268659
0.015480 0.032490 0.267993
0.016783 0.032502 0.268120
0.018097 0.032531 0.268400
0.019318 0.032401 0.267368
0.020514 0.032247 0.266143
0.021743 0.032161 0.265477
0.023890 0.033365 0.275469
0.025206 0.033345 0.275354
0.026352 0.033110 0.273478
0.027807 0.033270 0.274853
0.029111 0.033242 0.274687
0.030135 0.032909 0.272006
0.031549 0.033014 0.272941
0.032968 0.033115 0.273846
0.034098 0.032928 0.272373
0.035503 0.033011 0.273145
0.036778 0.032972 0.272898
0.038120 0.032994 0.273158
0.039192 0.032787 0.271535
0.040182 0.032528 0.269470
0.041112 0.032238 0.267156
0.042702 0.032467 0.269144
0.043506 0.032103 0.266211
0.043784 0.031383 0.260331
0.044019 0.030672 0.254524
0.045290 0.030703 0.254867
0.046531 0.030712 0.255030
0.047684 0.030664 0.254728
0.048902 0.030659 0.254776
0.050148 0.030671 0.254973
0.051375 0.030671 0.255070
0.052610 0.030677 0.255208
0.053955 0.030744 0.255862
0.055172 0.030737 0.255902
0.056528 0.030806 0.256576
0.058420 0.031158 0.259605
0.061424 0.032076 0.267354
0.062896 0.032173 0.268261
0.064201 0.032181 0.268434
0.065754 0.032312 0.269624
0.067337 0.032452 0.270893
0.068629 0.032449 0.270967
0.070002 0.032483 0.271354
0.071274 0.032471 0.271348
0.072509 0.032442 0.271203
0.073905 0.032485 0.271660
0.075130 0.032453 0.271481
0.076369 0.032427 0.271361
0.077766 0.032469 0.271799
0.078975 0.032431 0.271576
0.080141 0.032378 0.271214
0.081434 0.032376 0.271289
0.082643 0.032342 0.271084
0.084026 0.032376 0.271447
0.085310 0.032371 0.271486
0.086745 0.032423 0.271996
0.088420 0.032562 0.273232
0.090239 0.032749 0.274867
0.092427 0.033062 0.277566
0.095510 0.033682 0.282836
0.109552 0.038096 0.319968
0.110897 0.038034 0.319512
0.112238 0.037972 0.319050
0.106613 0.034214 0.287643
0.107809 0.034158 0.287204
0.109211 0.034168 0.287316
0.110690 0.034202 0.287620
0.113651 0.034687 0.291715
0.114583 0.034549 0.290560
0.116062 0.034577 0.290796
0.117442 0.034575 0.290777
0.118719 0.034543 0.290497
0.120350 0.034613 0.291073
0.121515 0.034550 0.290515
0.123177 0.034627 0.291137
0.124439 0.034592 0.290799
0.125768 0.034576 0.290616
0.127115 0.034565 0.290470
0.128499 0.034564 0.290401
0.129832 0.034549 0.290207
0.131327 0.034578 0.290367
0.132733 0.034583 0.290317
0.134478 0.034674 0.290990
0.135873 0.034675 0.290888
0.137641 0.034770 0.291565
0.138827 0.034717 0.290997
0.139942 0.034648 0.290276
0.141314 0.034643 0.290087
0.143380 0.034807 0.291297
0.144982 0.034856 0.291531
0.146565 0.034899 0.291709
0.148157 0.034944 0.291884
0.149524 0.034935 0.291600
0.150869 0.034921 0.291260
0.152242 0.034914 0.290963
-0.040432 0.011983 0.097622
-0.043105 0.012922 0.105268
-0.042856 0.012996 0.105870
-0.042746 0.013115 0.106833
-0.042387 0.013159 0.107185
-0.042074 0.013219 0.107664
-0.041819 0.013299 0.108300
-0.041754 0.013442 0.109451
-0.041879 0.013651 0.111131
-0.042258 0.013948 0.113534
-0.042301 0.014141 0.115081
-0.042093 0.014254 0.115975
-0.041767 0.014330 0.116563
-0.041336 0.014371 0.116868
-0.041266 0.014540 0.118213
-0.041465 0.014810 0.120378
-0.042017 0.015215 0.123636
-0.042690 0.015676 0.127345
-0.042840 0.015955 0.129574
-0.042762 0.016157 0.131170
-0.042439 0.016270 0.132046
-0.042317 0.016465 0.133581
-0.042098 0.016628 0.134855
-0.042164 0.016909 0.137090
-0.042277 0.017219 0.139551
-0.042525 0.017595 0.142539
-0.042613 0.017915 0.145078
-0.042455 0.018141 0.146847
-0.042661 0.018532 0.149953
-0.042630 0.018832 0.152317
-0.043119 0.019376 0.156651
-0.043154 0.019731 0.159456
-0.043057 0.020038 0.161866
-0.043057 0.020401 0.164731
-0.042842 0.020675 0.166868
-0.042588 0.020939 0.168926
-0.042666 0.021380 0.172411
-0.042574 0.021751 0.175326
-0.042566 0.022182 0.178715
-0.042621 0.022662 0.182507
-0.042661 0.023156 0.186394
-0.042777 0.023711 0.190780
-0.042755 0.024213 0.194732
-0.042226 0.024444 0.196499
-0.041971 0.024847 0.199653
-0.041495 0.025136 0.201879
-0.041087 0.025480 0.204551
-0.040588 0.025783 0.206894
-0.040314 0.026248 0.210528
-0.041821 0.027926 0.223888
-0.040802 0.027961 0.224072
-0.040777 0.028697 0.229872
-0.040613 0.029374 0.235194
-0.040202 0.029905 0.239346
-0.039869 0.030528 0.244229
-0.040004 0.032541 0.260118
-0.039554 0.033211 0.265365
-0.038976 0.033813 0.270075
-0.038080 0.034172 0.272830
-0.036720 0.034125 0.272354
-0.035292 0.034010 0.271335
-0.034811 0.034833 0.277801
-0.033507 0.034865 0.277957
-0.029645 0.032128 0.256052
-0.028624 0.032366 0.257862
-0.027407 0.032394 0.258001
-0.026101 0.032315 0.257285
-0.024946 0.032424 0.258077
-0.023691 0.032407 0.257868
-0.022457 0.032420 0.257894
-0.021240 0.032460 0.258139
-0.020007 0.032477 0.258213
-0.018728 0.032419 0.257688
-0.017445 0.032346 0.257043
-0.013193 0.034185 0.271431
-0.011289 0.032479 0.257839
-0.009908 0.032043 0.254338
-0.008699 0.032115 0.254876
-0.007478 0.032161 0.255208
-0.006243 0.032153 0.255111
-0.005018 0.032212 0.255550
-0.003794 0.032306 0.256269
-0.002558 0.032357 0.256655
-0.001327 0.032594 0.258520
-0.000077 0.033150 0.262916
0.001201 0.033339 0.264403
0.002469 0.033178 0.263123
0.003815 0.033831 0.268300
0.005124 0.033902 0.268858
0.006485 0.034218 0.271370
0.007818 0.034302 0.272046
0.009042 0.033955 0.269308
0.010380 0.034069 0.270225
0.011749 0.034248 0.271664
0.012967 0.033996 0.269687
0.014277 0.034007 0.269801
0.015611 0.034069 0.270325
0.016843 0.033917 0.269158
0.018152 0.033929 0.269289
0.019426 0.033880 0.268937
0.020656 0.033764 0.268057
0.021876 0.033646 0.267171
0.023316 0.033862 0.268934
0.024527 0.033738 0.268004
0.025590 0.033435 0.265651
0.026898 0.033464 0.265941
0.028113 0.033380 0.265335
0.029179 0.033136 0.263455
0.030329 0.033002 0.262456
0.031606 0.033012 0.262604
0.032946 0.033083 0.263245
0.034311 0.033175 0.264046
0.035726 0.033305 0.265160
0.037030 0.033327 0.265417
0.038522 0.033511 0.266962
0.039865 0.033558 0.267415
0.041021 0.033449 0.266632
0.042591 0.033674 0.268511
0.043774 0.033589 0.267922
0.045016 0.033552 0.267721
0.043897 0.031807 0.253883
0.045135 0.031818 0.254059
0.046504 0.031918 0.254944
0.047623 0.031846 0.254461
0.048828 0.031833 0.254450
0.050012 0.031808 0.254342
0.051255 0.031820 0.254534
0.052469 0.031814 0.254579
0.053751 0.031849 0.254950
0.055017 0.031873 0.255240
0.056279 0.031893 0.255499
0.058338 0.032355 0.259291
0.061206 0.033236 0.266455
0.063018 0.033521 0.268833
0.064392 0.033565 0.269285
0.065732 0.033589 0.269584
0.067202 0.033679 0.270400
0.068536 0.033697 0.270646
0.069917 0.033738 0.271071
0.071221 0.033741 0.271190
0.072556 0.033758 0.271423
0.073843 0.033752 0.271473
0.075121 0.033743 0.271491
0.076430 0.033747 0.271615
0.077685 0.033728 0.271553
0.078941 0.033710 0.271495
0.080364 0.033763 0.272005
0.081666 0.033764 0.272095
0.083020 0.033786 0.272353
0.084285 0.033771 0.272316
0.085636 0.033791 0.272551
0.087231 0.033905 0.273547
0.088720 0.033975 0.274182
0.090552 0.034173 0.275847
0.092815 0.034525 0.278754
0.095215 0.034918 0.281986
0.096721 0.034976 0.282514
0.098101 0.034987 0.282663
0.100654 0.035412 0.286141
0.109154 0.035513 0.287174
0.109852 0.035297 0.285447
0.110579 0.035096 0.283833
0.114805 0.035997 0.291123
0.116005 0.035939 0.290654
0.117313 0.035915 0.290453
0.118482 0.035849 0.289913
0.119947 0.035874 0.290092
0.121722 0.035990 0.291001
0.123200 0.036016 0.291180
0.124313 0.035936 0.290494
0.125837 0.035975 0.290762
0.127234 0.035978 0.290725
0.128724 0.036006 0.290889
0.130122 0.036008 0.290834
0.131485 0.036001 0.290693
0.132820 0.035986 0.290483
0.134377 0.036031 0.290744
0.135697 0.036012 0.290482
0.137060 0.036005 0.290303
0.138341 0.035977 0.289943
0.139942 0.036031 0.290241
0.140652 0.035857 0.288688
0.141664 0.035763 0.287767
0.145061 0.036267 0.291646
0.146489 0.036273 0.291512
0.147831 0.036259 0.291193
0.149048 0.036214 0.290620
0.150433 0.036210 0.290364
0.151859 0.036216 0.290174
-0.043515 0.013392 0.105066
-0.043092 0.013414 0.105237
-0.042842 0.013491 0.105837
-0.042656 0.013590 0.106609
-0.042298 0.013636 0.106964
-0.041893 0.013668 0.107204
-0.041719 0.013777 0.108046
-0.041610 0.013910 0.109078
-0.041810 0.014152 0.110954
-0.042228 0.014473 0.113458
-0.042439 0.014732 0.115464
-0.042976 0.015112 0.118418
-0.042497 0.015140 0.118610
-0.041933 0.015138 0.118567
-0.041960 0.015352 0.120212
-0.041368 0.015342 0.120108
-0.041697 0.015679 0.122707
-0.042220 0.016099 0.125958
-0.042765 0.016539 0.129363
-0.042753 0.016774 0.131159
-0.042452 0.016900 0.132103
-0.041953 0.016950 0.132450
-0.041809 0.017147 0.133947
-0.041953 0.017471 0.136424
-0.042198 0.017847 0.139309
-0.042264 0.018158 0.141685
-0.042384 0.018503 0.144320
-0.042393 0.018810 0.146658
-0.042467 0.019156 0.149298
-0.042531 0.019510 0.151993
-0.042913 0.020024 0.155933
-0.043000 0.020415 0.158920
-0.043131 0.020843 0.162178
-0.043067 0.021190 0.164806
-0.042983 0.021539 0.167452
-0.042721 0.021811 0.169491
-0.042552 0.022141 0.171986
-0.042387 0.022487 0.174596
-0.042443 0.022966 0.178236
-0.042824 0.023644 0.183418
-0.042814 0.024131 0.187106
-0.042735 0.024597 0.190642
-0.042648 0.025080 0.194295
-0.042251 0.025398 0.196668
-0.041974 0.025803 0.199722
-0.041683 0.026219 0.202851
-0.041251 0.026564 0.205426
-0.040778 0.026898 0.207920
-0.040425 0.027331 0.211174
-0.040537 0.028108 0.217081
-0.040701 0.028963 0.223585
-0.040577 0.029653 0.228817
-0.040381 0.030328 0.233925
-0.040078 0.030958 0.238683
-0.039833 0.031672 0.244089
-0.041217 0.033763 0.260094
-0.040015 0.033800 0.260276
-0.039573 0.034503 0.265583
-0.039299 0.035403 0.272406
-0.038503 0.035878 0.275959
-0.036809 0.035522 0.273115
-0.035301 0.035325 0.271497
-0.035052 0.036421 0.279827
-0.033739 0.036455 0.279984
-0.029718 0.033444 0.256777
-0.028468 0.033427 0.256554
-0.027401 0.033632 0.258046
-0.026085 0.033536 0.257230
-0.024920 0.033634 0.257902
-0.023768 0.033762 0.258813
-0.022383 0.033555 0.257147
-0.021310 0.033817 0.259091
-0.020078 0.033846 0.259240
-0.018712 0.033638 0.257588
-0.017482 0.033660 0.257697
-0.011265 0.033658 0.257425
-0.009963 0.033461 0.255875
-0.008739 0.033505 0.256174
-0.007495 0.033480 0.255951
-0.006263 0.033504 0.256103
-0.005036 0.033576 0.256622
-0.003797 0.033586 0.256679
-0.002560 0.033637 0.257048
-0.001325 0.033833 0.258526
-0.000075 0.034169 0.261084
0.001204 0.034659 0.264817
0.002467 0.034413 0.262927
0.003756 0.034572 0.264143
0.005069 0.034810 0.265960
0.006312 0.034576 0.264176
0.007568 0.034474 0.263403
0.009034 0.035224 0.269145
0.014264 0.035277 0.269638
0.015181 0.034400 0.262961
0.016829 0.035185 0.268996
0.017776 0.034499 0.263789
0.019112 0.034608 0.264663
0.020459 0.034722 0.265576
0.021634 0.034549 0.264295
0.022884 0.034506 0.264018
0.024142 0.034481 0.263878
0.025079 0.034021 0.260413
0.026333 0.034016 0.260428
0.027638 0.034074 0.260931
0.028759 0.033910 0.259738
0.029916 0.033799 0.258951
0.031266 0.033908 0.259853
0.032628 0.034020 0.260781
0.034039 0.034172 0.262020
0.035461 0.034325 0.263266
0.036847 0.034433 0.264176
0.038321 0.034614 0.265640
0.039647 0.034654 0.266026
0.040750 0.034502 0.264942
0.042505 0.034894 0.268039
0.043647 0.034775 0.267211
0.044120 0.034144 0.262457
0.044095 0.033175 0.255091
0.045431 0.033254 0.255785
0.046596 0.033207 0.255514
0.047693 0.033115 0.254894
0.048954 0.033139 0.255170
0.050080 0.033072 0.254746
0.051255 0.033040 0.254594
0.052537 0.033077 0.254966
0.053857 0.033136 0.255514
0.055104 0.033147 0.255698
0.056542 0.033271 0.256746
0.058625 0.033761 0.260624
0.061227 0.034523 0.266601
0.063082 0.034841 0.269160
0.064390 0.034850 0.269328
0.065780 0.034903 0.269832
0.067207 0.034973 0.270469
0.068546 0.034995 0.270736
0.069881 0.035014 0.270981
0.071168 0.035009 0.271036
0.072391 0.034973 0.270849
0.073624 0.034943 0.270712
0.074817 0.034895 0.270431
0.075957 0.034825 0.269977
0.077278 0.034838 0.270167
0.078645 0.034872 0.270515
0.079919 0.034864 0.270533
0.081230 0.034872 0.270676
0.082706 0.034949 0.271357
0.084040 0.034965 0.271554
0.085323 0.034959 0.271586
0.087071 0.035141 0.273072
0.088429 0.035163 0.273311
0.090242 0.035363 0.274928
0.092099 0.035573 0.276627
0.094344 0.035925 0.279427
0.096510 0.036238 0.281918
0.097578 0.036136 0.281176
0.100331 0.036652 0.285237
0.111098 0.036614 0.285168
0.112277 0.036555 0.284714
0.115621 0.037194 0.289689
0.117209 0.037260 0.290194
0.118616 0.037267 0.290235
0.120056 0.037284 0.290348
0.121416 0.037277 0.290260
0.123241 0.037410 0.291265
0.124576 0.037394 0.291094
0.125772 0.037336 0.290595
0.127106 0.037321 0.290415
0.128225 0.037243 0.289742
0.129729 0.037277 0.289934
0.131002 0.037245 0.289600
0.130107 0.036604 0.284521
0.134396 0.037419 0.290755
0.135701 0.037395 0.290458
0.137443 0.037491 0.291080
0.138620 0.037433 0.290491
0.140230 0.037491 0.290799
0.141681 0.037506 0.290759
0.143162 0.037528 0.290768
0.144558 0.037528 0.290589
