ply
format ascii 1.0
element vertex 1681
property float x
property float y
property float z
end_header
0.024775 -0.091373 0.260534
0.026016 -0.091390 0.260587
0.027267 -0.091434 0.260720
0.028481 -0.091361 0.260518
0.029848 -0.091758 0.261660
0.031217 -0.092134 0.262738
0.032602 -0.092524 0.263858
0.034058 -0.093080 0.265453
0.035342 -0.093144 0.265643
0.036517 -0.092924 0.265023
0.037810 -0.093010 0.265276
0.038925 -0.092666 0.264304
0.040206 -0.092726 0.264482
0.041498 -0.092808 0.264723
0.042441 -0.092127 0.262788
0.043626 -0.091995 0.262419
0.045061 -0.092383 0.263532
0.046029 -0.091819 0.261927
0.047138 -0.091557 0.261184
0.048326 -0.091457 0.260904
0.049404 -0.091162 0.260064
0.050360 -0.090659 0.258631
0.051715 -0.090883 0.259271
0.053044 -0.091051 0.259750
0.054521 -0.091459 0.260912
0.055893 -0.091677 0.261531
0.057480 -0.092230 0.263105
0.059282 -0.093098 0.265574
0.061026 -0.093841 0.267686
0.062730 -0.094491 0.269530
0.064367 -0.095018 0.271021
0.065990 -0.095504 0.272393
0.066998 -0.095098 0.271218
0.068472 -0.095355 0.271932
0.069713 -0.095285 0.271712
0.070926 -0.095179 0.271387
0.071467 -0.094193 0.268546
0.072637 -0.094054 0.268123
0.073677 -0.093756 0.267239
0.074477 -0.093166 0.265523
0.074926 -0.092165 0.262632
0.076263 -0.092272 0.262894
0.077757 -0.092561 0.263672
0.078733 -0.092234 0.262690
0.080510 -0.092841 0.264368
0.082395 -0.093552 0.266334
0.083917 -0.093835 0.267077
0.085157 -0.093800 0.266909
0.087157 -0.094591 0.269088
0.095083 -0.101696 0.289217
0.096363 -0.101591 0.288830
0.099462 -0.103380 0.293823
0.101005 -0.103524 0.294131
0.102716 -0.103835 0.294904
0.104491 -0.104200 0.295828
0.105709 -0.104009 0.295162
0.107086 -0.103975 0.294940
0.108641 -0.104114 0.295197
0.110106 -0.104163 0.295195
0.111424 -0.104075 0.294794
0.113103 -0.104321 0.295331
0.114494 -0.104298 0.295101
0.115752 -0.104157 0.294525
0.117486 -0.104442 0.295148
0.118918 -0.104455 0.294990
0.120251 -0.104381 0.294580
0.121791 -0.104487 0.294664
0.123368 -0.104622 0.294822
0.124972 -0.104776 0.295022
0.126523 -0.104882 0.295076
0.128055 -0.104971 0.295068
0.129674 -0.105129 0.295243
0.131144 -0.105162 0.295057
0.132722 -0.105282 0.295097
0.134303 -0.105401 0.295123
0.135999 -0.105606 0.295378
0.137624 -0.105752 0.295451
0.139403 -0.106013 0.295828
0.141045 -0.106165 0.295886
0.142692 -0.106318 0.295929
0.144216 -0.106376 0.295691
0.145963 -0.106597 0.295888
0.147676 -0.106788 0.295983
0.149184 -0.106829 0.295642
0.150892 -0.107011 0.295670
0.152679 -0.107244 0.295819
0.154105 -0.107222 0.295243
0.155468 -0.107157 0.294528
0.157209 -0.107351 0.294500
0.158999 -0.107574 0.294528
-0.129653 -0.084717 0.237497
-0.128697 -0.084847 0.238288
-0.128008 -0.085157 0.239571
-0.127086 -0.085316 0.240415
-0.126370 -0.085617 0.241647
-0.125621 -0.085902 0.242819
-0.125043 -0.086311 0.244330
-0.125862 -0.087700 0.248609
-0.126960 -0.089313 0.253520
-0.126364 -0.089754 0.255098
-0.142171 -0.101968 0.290168
-0.126233 -0.091430 0.260485
-0.140586 -0.102841 0.293324
-0.138900 -0.102631 0.293040
-0.137526 -0.102650 0.293394
-0.135427 -0.102122 0.292172
-0.129643 -0.098776 0.282864
-0.128784 -0.099152 0.284194
-0.127556 -0.099248 0.284713
-0.142400 -0.111986 0.321516
-0.131510 -0.105690 0.303899
-0.125143 -0.101688 0.292598
-0.124062 -0.101939 0.293518
-0.122854 -0.102092 0.294144
-0.121436 -0.102070 0.294259
-0.120206 -0.102209 0.294827
-0.118927 -0.102309 0.295275
-0.117540 -0.102317 0.295451
-0.116106 -0.102284 0.295499
-0.114561 -0.102151 0.295251
-0.113123 -0.102112 0.295266
-0.111674 -0.102062 0.295240
-0.110230 -0.102015 0.295218
-0.108814 -0.101994 0.295260
-0.107403 -0.101977 0.295311
-0.106131 -0.102092 0.295737
-0.104757 -0.102113 0.295882
-0.103344 -0.102095 0.295910
-0.101898 -0.102043 0.295834
-0.100668 -0.102209 0.296383
-0.099045 -0.101976 0.295770
-0.096971 -0.101265 0.293764
-0.097480 -0.103270 0.299633
-0.100955 -0.108522 0.314922
-0.099422 -0.108467 0.314808
-0.097277 -0.107733 0.312718
-0.095912 -0.107854 0.313103
-0.094248 -0.107638 0.312506
-0.092315 -0.107101 0.310974
-0.090008 -0.106108 0.308113
-0.086006 -0.103051 0.299253
-0.083790 -0.102068 0.296411
-0.086828 -0.107559 0.312370
-0.085449 -0.107674 0.312711
-0.084229 -0.107998 0.313654
-0.083178 -0.108554 0.315269
-0.082379 -0.109464 0.317911
-0.081077 -0.109728 0.318669
-0.079436 -0.109534 0.318101
-0.079473 -0.111692 0.324355
-0.069038 -0.100906 0.293004
-0.067588 -0.100801 0.292682
-0.066308 -0.100952 0.293102
-0.064908 -0.100922 0.292995
-0.063523 -0.100915 0.292952
-0.062162 -0.100948 0.293024
-0.060740 -0.100880 0.292802
-0.059422 -0.100986 0.293082
-0.057990 -0.100898 0.292797
-0.056620 -0.100917 0.292823
-0.055262 -0.100959 0.292917
-0.053867 -0.100934 0.292812
-0.052516 -0.100993 0.292951
-0.051140 -0.101005 0.292953
-0.049711 -0.100910 0.292645
-0.048344 -0.100940 0.292697
-0.046892 -0.100788 0.292221
-0.045366 -0.100465 0.291250
-0.044088 -0.100687 0.291859
-0.042523 -0.100247 0.290548
-0.041084 -0.100085 0.290044
-0.041027 -0.103394 0.299596
-0.039637 -0.103463 0.299759
-0.037498 -0.101507 0.294057
-0.036536 -0.102709 0.297502
-0.035151 -0.102771 0.297647
-0.031686 -0.096507 0.279471
-0.029823 -0.094785 0.274452
-0.028485 -0.094653 0.274038
-0.026933 -0.093763 0.271430
-0.025470 -0.093109 0.269507
-0.024157 -0.092967 0.269067
-0.022913 -0.093085 0.269380
-0.021585 -0.092859 0.268697
-0.020443 -0.093451 0.270382
-0.019220 -0.093733 0.271171
-0.018019 -0.094168 0.272405
-0.016810 -0.094622 0.273692
-0.015535 -0.094757 0.274057
-0.014215 -0.094613 0.273616
-0.012925 -0.094655 0.273716
-0.011542 -0.093961 0.271687
-0.010171 -0.093197 0.269459
-0.008855 -0.092788 0.268255
-0.007556 -0.092459 0.267287
-0.006252 -0.091919 0.265707
-0.005012 -0.092283 0.266746
-0.003741 -0.092125 0.266273
-0.002481 -0.092257 0.266640
-0.001218 -0.092323 0.266819
0.000048 -0.092638 0.267716
0.001322 -0.092899 0.268463
0.002601 -0.093092 0.269009
0.003882 -0.093199 0.269310
0.005140 -0.092847 0.268285
0.006368 -0.092198 0.266405
0.007583 -0.091598 0.264665
0.008767 -0.090854 0.262510
0.009997 -0.090708 0.262085
0.011203 -0.090403 0.261203
0.012407 -0.090141 0.260444
0.013616 -0.089957 0.259915
0.014914 -0.090349 0.261046
0.016173 -0.090459 0.261366
0.017478 -0.090793 0.262334
0.018793 -0.091131 0.263314
0.019989 -0.090884 0.262605
0.021174 -0.090621 0.261850
0.022336 -0.090290 0.260899
0.023433 -0.089750 0.259344
0.024691 -0.089847 0.259632
0.025812 -0.089458 0.258516
0.027058 -0.089518 0.258697
0.028304 -0.089575 0.258868
0.029570 -0.089689 0.259206
0.031013 -0.090305 0.260998
0.032428 -0.090797 0.262427
0.033747 -0.090994 0.263007
0.035136 -0.091359 0.264071
0.036467 -0.091552 0.264640
0.037731 -0.091570 0.264701
0.038955 -0.091493 0.264488
0.040059 -0.091146 0.263496
0.041166 -0.090829 0.262587
0.042380 -0.090759 0.262396
0.043515 -0.090529 0.261738
0.044290 -0.089581 0.259006
0.045286 -0.089122 0.257686
0.046341 -0.088799 0.256758
0.047361 -0.088427 0.255689
0.048560 -0.088398 0.255612
0.049787 -0.088422 0.255684
0.051121 -0.088631 0.256291
0.052482 -0.088873 0.256994
0.053988 -0.089346 0.258363
0.055579 -0.089935 0.260065
0.057175 -0.090506 0.261716
0.059107 -0.091574 0.264800
0.061015 -0.092560 0.267647
0.062774 -0.093285 0.269737
0.064112 -0.093367 0.269964
0.065602 -0.093664 0.270811
0.067181 -0.094073 0.271982
0.068361 -0.093918 0.271517
0.069562 -0.093798 0.271152
0.070740 -0.093651 0.270706
0.071580 -0.093071 0.269007
0.072141 -0.092154 0.266331
0.073222 -0.091922 0.265630
0.073885 -0.091181 0.263458
0.074335 -0.090206 0.260607
0.075517 -0.090137 0.260369
0.077023 -0.090452 0.261236
0.078332 -0.090528 0.261410
0.079695 -0.090664 0.261754
0.081597 -0.091398 0.263820
0.083559 -0.092176 0.266009
0.084885 -0.092241 0.266131
0.086412 -0.092518 0.266864
0.089043 -0.093952 0.270928
0.099000 -0.102964 0.296830
0.100310 -0.102856 0.296427
0.100934 -0.102057 0.294029
0.102465 -0.102185 0.294292
0.104263 -0.102571 0.295296
0.105271 -0.102181 0.294058
0.106711 -0.102215 0.294032
0.108298 -0.102386 0.294395
0.109731 -0.102410 0.294326
0.111114 -0.102385 0.294112
0.112607 -0.102463 0.294183
0.114151 -0.102584 0.294370
0.115568 -0.102589 0.294215
0.117069 -0.102668 0.294264
0.118706 -0.102863 0.294635
0.120272 -0.102992 0.294806
0.121640 -0.102951 0.294483
0.123274 -0.103133 0.294787
0.125103 -0.103472 0.295528
0.126323 -0.103305 0.294813
0.127909 -0.103438 0.294944
0.129511 -0.103581 0.295090
0.130999 -0.103630 0.294957
0.132545 -0.103723 0.294936
0.134097 -0.103819 0.294911
0.135748 -0.103989 0.295081
0.137242 -0.104037 0.294890
0.138816 -0.104143 0.294850
0.140543 -0.104361 0.295109
0.142212 -0.104531 0.295218
0.143875 -0.104694 0.295286
0.145568 -0.104875 0.295391
0.147150 -0.104973 0.295242
0.148921 -0.105202 0.295445
0.150686 -0.105423 0.295603
0.152266 -0.105512 0.295368
0.153893 -0.105630 0.295196
0.155152 -0.105497 0.294299
0.156560 -0.105465 0.293665
0.158528 -0.105809 0.294050
-0.130127 -0.083858 0.238645
-0.129481 -0.084190 0.240012
-0.128932 -0.084592 0.241566
-0.127620 -0.084496 0.241682
-0.127081 -0.084915 0.243257
-0.125977 -0.084962 0.243752
-0.125518 -0.085448 0.245495
-0.128016 -0.087975 0.253101
-0.128994 -0.089497 0.257814
-0.126103 -0.088337 0.254792
-0.142259 -0.100629 0.290592
-0.141643 -0.101182 0.292523
-0.140678 -0.101494 0.293748
-0.138994 -0.101289 0.293462
-0.137622 -0.101310 0.293815
-0.135524 -0.100791 0.292589
-0.134622 -0.101160 0.293928
-0.128792 -0.097795 0.284400
-0.143896 -0.110423 0.321390
-0.142513 -0.110534 0.321968
-0.141128 -0.110647 0.322539
-0.131619 -0.104323 0.304324
-0.125474 -0.100555 0.293530
-0.124234 -0.100678 0.294080
-0.122889 -0.100717 0.294376
-0.121657 -0.100850 0.294938
-0.120323 -0.100902 0.295251
-0.118988 -0.100954 0.295559
-0.117605 -0.100966 0.295740
-0.116150 -0.100916 0.295731
-0.114632 -0.100809 0.295548
-0.113179 -0.100758 0.295521
-0.111778 -0.100753 0.295619
-0.110397 -0.100765 0.295763
-0.109032 -0.100793 0.295946
-0.107758 -0.100906 0.296372
-0.106432 -0.100974 0.296659
-0.105150 -0.101086 0.297069
-0.103741 -0.101077 0.297120
-0.102486 -0.101220 0.297610
-0.101193 -0.101329 0.297993
-0.099480 -0.101015 0.297128
-0.096260 -0.099140 0.291664
-0.096536 -0.100863 0.296783
-0.100940 -0.107013 0.314923
-0.099468 -0.107024 0.314998
-0.097458 -0.106450 0.313341
-0.096329 -0.106833 0.314500
-0.094256 -0.106166 0.312562
-0.092056 -0.105332 0.310129
-0.089917 -0.104542 0.307822
-0.088036 -0.104031 0.306332
-0.086405 -0.103804 0.305672
-0.087151 -0.106474 0.313541
-0.085768 -0.106589 0.313883
-0.084257 -0.106546 0.313757
-0.082881 -0.106677 0.314140
-0.081802 -0.107200 0.315674
-0.080839 -0.107900 0.317725
-0.078589 -0.106875 0.314694
-0.078514 -0.108824 0.320419
-0.077083 -0.108935 0.320729
-0.069118 -0.099630 0.293315
-0.067529 -0.099326 0.292399
-0.066202 -0.099402 0.292602
-0.064876 -0.099483 0.292816
-0.063528 -0.099533 0.292936
-0.062226 -0.099658 0.293280
-0.060835 -0.099646 0.293213
-0.059465 -0.099666 0.293244
-0.058109 -0.099711 0.293346
-0.056731 -0.099721 0.293342
-0.055321 -0.099674 0.293170
-0.053924 -0.099647 0.293059
-0.052571 -0.099704 0.293192
-0.051149 -0.099629 0.292934
-0.049753 -0.099602 0.292820
-0.048310 -0.099477 0.292417
-0.046900 -0.099415 0.292196
-0.045436 -0.099231 0.291620
-0.043977 -0.099047 0.291041
-0.042557 -0.098942 0.290696
-0.041097 -0.098735 0.290048
-0.040622 -0.100959 0.296546
-0.039247 -0.101027 0.296707
-0.037281 -0.099525 0.292257
-0.036334 -0.100730 0.295760
-0.034957 -0.100792 0.295904
-0.031756 -0.095382 0.279985
-0.029851 -0.093562 0.274611
-0.028391 -0.093033 0.273025
-0.026903 -0.092362 0.271025
-0.025502 -0.091933 0.269734
-0.024024 -0.091171 0.267466
-0.022767 -0.091210 0.267550
-0.021512 -0.091259 0.267665
-0.020275 -0.091395 0.268036
-0.019093 -0.091818 0.269248
-0.017939 -0.092441 0.271048
-0.016691 -0.092644 0.271619
-0.015445 -0.092892 0.272319
-0.014133 -0.092749 0.271877
-0.012836 -0.092688 0.271674
-0.011503 -0.092323 0.270583
-0.010153 -0.091717 0.268785
-0.008834 -0.091263 0.267435
-0.007570 -0.091314 0.267565
-0.006277 -0.090967 0.266531
-0.005008 -0.090882 0.266265
-0.003760 -0.091245 0.267314
-0.002481 -0.090830 0.266083
-0.001221 -0.090998 0.266562
0.000044 -0.091437 0.267837
0.001311 -0.091129 0.266924
0.002586 -0.091426 0.267786
0.003862 -0.091538 0.268105
0.005115 -0.091202 0.267115
0.006364 -0.090926 0.266299
0.007564 -0.090161 0.264054
0.008805 -0.090037 0.263688
0.010023 -0.089727 0.262777
0.011250 -0.089567 0.262307
0.012472 -0.089398 0.261812
0.013686 -0.089208 0.261255
0.014948 -0.089336 0.261634
0.016193 -0.089349 0.261672
0.017514 -0.089751 0.262855
0.018797 -0.089917 0.263344
0.020122 -0.090253 0.264335
0.021330 -0.090052 0.263752
0.022482 -0.089650 0.262580
0.023622 -0.089248 0.261411
0.024642 -0.088450 0.259081
0.025711 -0.087900 0.257479
0.026928 -0.087882 0.257434
0.028002 -0.087415 0.256076
0.029312 -0.087696 0.256911
0.030688 -0.088144 0.258233
0.032091 -0.088633 0.259676
0.033437 -0.088931 0.260561
0.034900 -0.089510 0.262269
0.036322 -0.089946 0.263559
0.037554 -0.089901 0.263437
0.038688 -0.089627 0.262647
0.039922 -0.089598 0.262573
0.040872 -0.088953 0.260693
0.042131 -0.088996 0.260829
0.043328 -0.088911 0.260594
0.044117 -0.088016 0.257978
0.045155 -0.087653 0.256924
0.046295 -0.087501 0.256490
0.047461 -0.087406 0.256217
0.048524 -0.087128 0.255411
0.049889 -0.087395 0.256201
0.051215 -0.087581 0.256751
0.052498 -0.087688 0.257071
0.054052 -0.088232 0.258669
0.055512 -0.088601 0.259752
0.057302 -0.089470 0.262301
0.059314 -0.090640 0.265730
0.061192 -0.091561 0.268429
0.062544 -0.091674 0.268754
0.064367 -0.092460 0.271052
0.066043 -0.093005 0.272645
0.067501 -0.093230 0.273292
0.068899 -0.093366 0.273678
0.070149 -0.093298 0.273466
0.071220 -0.092999 0.272571
0.072291 -0.092711 0.271707
0.072592 -0.091464 0.268029
0.073653 -0.091200 0.267229
0.074591 -0.090795 0.266015
0.074445 -0.089106 0.261036
0.075461 -0.088840 0.260222
0.076868 -0.089036 0.260758
0.077977 -0.088886 0.260276
0.079218 -0.088889 0.260241
0.081014 -0.089504 0.261992
0.083349 -0.090689 0.265406
0.084880 -0.090975 0.266185
0.085835 -0.090644 0.265153
0.088420 -0.092019 0.269108
0.097935 -0.100465 0.293727
0.099230 -0.100358 0.293328
0.100819 -0.100548 0.293792
0.102403 -0.100727 0.294216
0.103715 -0.100638 0.293853
0.105121 -0.100641 0.293751
0.106525 -0.100642 0.293637
0.107709 -0.100438 0.292917
0.109419 -0.100722 0.293615
0.110824 -0.100723 0.293479
0.113470 -0.101837 0.296577
0.114430 -0.101429 0.295233
0.115478 -0.101108 0.294136
0.117363 -0.101519 0.295159
0.118697 -0.101448 0.294773
0.120088 -0.101429 0.294525
0.121620 -0.101527 0.294610
0.122968 -0.101470 0.294236
0.124449 -0.101524 0.294171
0.126034 -0.101660 0.294334
0.127587 -0.101767 0.294403
0.129099 -0.101839 0.294358
0.130551 -0.101864 0.294165
0.132200 -0.102039 0.294393
0.133700 -0.102097 0.294269
0.135561 -0.102427 0.294916
0.137133 -0.102533 0.294903
0.138797 -0.102706 0.295066
0.140419 -0.102843 0.295113
0.142056 -0.102989 0.295168
0.143787 -0.103199 0.295390
0.145252 -0.103216 0.295043
0.146972 -0.103412 0.295189
0.148400 -0.103401 0.294725
0.150054 -0.103546 0.294686
0.152100 -0.103955 0.295380
0.153419 -0.103866 0.294633
0.154504 -0.103620 0.293425
0.156292 -0.103846 0.293531
0.157756 -0.103854 0.292999
-0.131371 -0.083480 0.241202
-0.130165 -0.083455 0.241547
-0.129505 -0.083784 0.242898
-0.128419 -0.083840 0.243445
-0.128187 -0.084461 0.245619
-0.126708 -0.084263 0.245401
-0.125623 -0.084327 0.245928
-0.147820 -0.100169 0.292519
-0.144244 -0.098682 0.288543
-0.144111 -0.099546 0.291423
-0.143670 -0.100210 0.293712
-0.142731 -0.100538 0.295001
-0.141399 -0.100593 0.295477
-0.139535 -0.100266 0.294818
-0.138201 -0.100318 0.295258
-0.137075 -0.100523 0.296138
-0.133293 -0.098765 0.291217
-0.132815 -0.099444 0.293469
-0.145295 -0.109943 0.324711
-0.143900 -0.110055 0.325294
-0.142504 -0.110169 0.325869
-0.131729 -0.102955 0.304742
-0.125520 -0.099190 0.293793
-0.124291 -0.099319 0.294361
-0.122958 -0.099368 0.294680
-0.121695 -0.099476 0.295166
-0.120291 -0.099469 0.295302
-0.118886 -0.099461 0.295428
-0.117517 -0.099484 0.295638
-0.116047 -0.099421 0.295583
-0.114517 -0.099304 0.295359
-0.112999 -0.099196 0.295153
-0.111687 -0.099266 0.295474
-0.110322 -0.099292 0.295653
-0.108946 -0.099309 0.295800
-0.107663 -0.099412 0.296194
-0.106386 -0.099523 0.296608
-0.105031 -0.099564 0.296806
-0.103704 -0.099632 0.297079
-0.102486 -0.099809 0.297673
-0.101150 -0.099874 0.297926
-0.098980 -0.099105 0.295687
-0.095845 -0.097336 0.290455
-0.096858 -0.099788 0.297818
-0.101222 -0.105816 0.315849
-0.099734 -0.105815 0.315881
-0.097626 -0.105146 0.313915
-0.096092 -0.105084 0.313758
-0.094136 -0.104551 0.312189
-0.092155 -0.103974 0.310484
-0.089765 -0.102910 0.307318
-0.088015 -0.102556 0.306271
-0.086526 -0.102499 0.306108
-0.087708 -0.105659 0.315549
-0.086318 -0.105775 0.315893
-0.084631 -0.105526 0.315146
-0.083037 -0.105386 0.314720
-0.082442 -0.106532 0.318132
-0.081263 -0.106951 0.319371
-0.079350 -0.106403 0.317720
-0.079021 -0.107998 0.322464
-0.077582 -0.108110 0.322776
-0.068940 -0.097986 0.292531
-0.067576 -0.098007 0.292570
-0.066256 -0.098094 0.292803
-0.064842 -0.098042 0.292621
-0.063603 -0.098259 0.293243
-0.062210 -0.098241 0.293158
-0.060786 -0.098173 0.292925
-0.059471 -0.098283 0.293219
-0.058044 -0.098209 0.292965
-0.056681 -0.098241 0.293027
-0.055312 -0.098264 0.293059
-0.053900 -0.098212 0.292867
-0.052536 -0.098244 0.292926
-0.051129 -0.098197 0.292749
-0.049710 -0.098124 0.292490
-0.048307 -0.098079 0.292320
-0.046737 -0.097683 0.291101
-0.045319 -0.097590 0.290784
-0.044006 -0.097726 0.291150
-0.042558 -0.097559 0.290614
-0.041066 -0.097278 0.289736
-0.040763 -0.099892 0.297481
-0.039384 -0.099960 0.297644
-0.037079 -0.097597 0.290570
-0.036061 -0.098572 0.293432
-0.034695 -0.098633 0.293576
-0.031692 -0.093852 0.279310
-0.029553 -0.091326 0.271757
-0.028350 -0.091597 0.272530
-0.026854 -0.090899 0.270420
-0.025302 -0.089931 0.267505
-0.023994 -0.089777 0.267016
-0.022678 -0.089574 0.266383
-0.021463 -0.089769 0.266930
-0.020282 -0.090140 0.268006
-0.019120 -0.090653 0.269500
-0.017897 -0.090927 0.270289
-0.016696 -0.091360 0.271549
-0.015431 -0.091494 0.271919
-0.014129 -0.091408 0.271638
-0.012854 -0.091504 0.271902
-0.011505 -0.091032 0.270475
-0.010119 -0.090108 0.267708
-0.008853 -0.090147 0.267805
-0.007546 -0.089711 0.266490
-0.006269 -0.089531 0.265938
-0.005023 -0.089808 0.266745
-0.003756 -0.089786 0.266662
-0.002482 -0.089481 0.265743
-0.001225 -0.089796 0.266665
0.000040 -0.089715 0.266413
0.001306 -0.089793 0.266636
0.002577 -0.089980 0.267182
0.003835 -0.089725 0.266415
0.005111 -0.089927 0.267009
0.006354 -0.089579 0.265970
0.007561 -0.088914 0.263992
0.008802 -0.088791 0.263622
0.010039 -0.088654 0.263213
0.011276 -0.088557 0.262925
0.012475 -0.088199 0.261862
0.013727 -0.088257 0.262036
0.014970 -0.088244 0.261998
0.016217 -0.088257 0.262040
0.017507 -0.088488 0.262731
0.018796 -0.088679 0.263304
0.020111 -0.088967 0.264164
0.021289 -0.088645 0.263215
0.022495 -0.088470 0.262704
0.023609 -0.087970 0.261229
0.024578 -0.087010 0.258385
0.025759 -0.086851 0.257924
0.026913 -0.086622 0.257253
0.028027 -0.086290 0.256278
0.029254 -0.086318 0.256373
0.030711 -0.086993 0.258391
0.032070 -0.087352 0.259469
0.033371 -0.087531 0.260013
0.034908 -0.088296 0.262299
0.036263 -0.088561 0.263100
0.037655 -0.088897 0.264110
0.038702 -0.088422 0.262714
0.039928 -0.088373 0.262583
0.041033 -0.088069 0.261691
0.042115 -0.087733 0.260706
0.043301 -0.087627 0.260404
0.044085 -0.086736 0.257770
0.045199 -0.086525 0.257154
0.046524 -0.086719 0.257740
0.047619 -0.086483 0.257050
0.048758 -0.086338 0.256628
0.050074 -0.086505 0.257136
0.051504 -0.086858 0.258192
0.052806 -0.086983 0.258571
0.054316 -0.087436 0.259924
0.056038 -0.088202 0.262207
0.057614 -0.088712 0.263726
0.059484 -0.089641 0.266491
0.061234 -0.090357 0.268618
0.062851 -0.090850 0.270082
0.064404 -0.091232 0.271216
0.066135 -0.091846 0.273036
0.067439 -0.091855 0.273057
0.068804 -0.091946 0.273316
0.069950 -0.091746 0.272710
0.071017 -0.091450 0.271817
0.072249 -0.091374 0.271575
0.072680 -0.090306 0.268381
0.073307 -0.089514 0.266005
0.074179 -0.089043 0.264579
0.074754 -0.088237 0.262155
0.075295 -0.087417 0.259689
0.076692 -0.087602 0.260204
0.077921 -0.087592 0.260137
0.079118 -0.087547 0.259963
0.081057 -0.088312 0.262187
0.082639 -0.088670 0.263201
0.084335 -0.089138 0.264536
0.085710 -0.089259 0.264835
0.087683 -0.089989 0.266937
0.098082 -0.099221 0.294248
0.099377 -0.099114 0.293850
0.100323 -0.098667 0.292437
0.102220 -0.099154 0.293789
0.103701 -0.099230 0.293914
0.104392 -0.098558 0.291819
0.106575 -0.099294 0.293885
0.108059 -0.099367 0.293983
0.109362 -0.099274 0.293583
0.110904 -0.099398 0.293816
0.112419 -0.099495 0.293962
0.113819 -0.099489 0.293794
0.115311 -0.099562 0.293853
0.116865 -0.099687 0.294055
0.118413 -0.099803 0.294223
0.119910 -0.099874 0.294249
0.121474 -0.099999 0.294422
0.122943 -0.100043 0.294348
0.124458 -0.100123 0.294371
0.125952 -0.100185 0.294328
0.127444 -0.100244 0.294267
0.128967 -0.100325 0.294258
0.130477 -0.100395 0.294206
0.132086 -0.100538 0.294353
0.133608 -0.100612 0.294289
0.135082 -0.100650 0.294102
0.136661 -0.100763 0.294125
0.138233 -0.100870 0.294112
0.139700 -0.100898 0.293855
0.141648 -0.101270 0.294584
0.143331 -0.101446 0.294728
0.144958 -0.101580 0.294728
0.146723 -0.101806 0.294981
0.148304 -0.101902 0.294836
0.149799 -0.101937 0.294496
0.151339 -0.102001 0.294224
0.152723 -0.101961 0.293628
0.154001 -0.101851 0.292813
0.155431 -0.101842 0.292268
0.156951 -0.101892 0.291870
-0.131923 -0.082646 0.242481
-0.131524 -0.083135 0.244327
-0.129934 -0.082874 0.243952
-0.129617 -0.083427 0.245961
-0.128641 -0.083562 0.246726
-0.127554 -0.083627 0.247268
-0.149191 -0.098732 0.292328
-0.147904 -0.098810 0.292939
-0.147049 -0.099180 0.294401
-0.145776 -0.099272 0.295028
-0.144301 -0.099228 0.295232
-0.143106 -0.099378 0.295999
-0.141303 -0.099104 0.295491
-0.139747 -0.099000 0.295475
-0.138461 -0.099086 0.296014
-0.134524 -0.097259 0.290818
-0.131796 -0.096276 0.288128
-0.130864 -0.096598 0.289331
-0.143921 -0.107364 0.321828
-0.142542 -0.107475 0.322404
-0.139131 -0.106041 0.318328
-0.137769 -0.106154 0.318882
-0.125528 -0.097794 0.293956
-0.124206 -0.097849 0.294300
-0.122936 -0.097947 0.294764
-0.121620 -0.098009 0.295113
-0.120169 -0.097963 0.295126
-0.118900 -0.098067 0.295582
-0.117488 -0.098053 0.295676
-0.116015 -0.097988 0.295606
-0.114548 -0.097927 0.295542
-0.113037 -0.097826 0.295348
-0.111732 -0.097903 0.295685
-0.110201 -0.097782 0.295416
-0.108908 -0.097871 0.295778
-0.107485 -0.097844 0.295781
-0.106160 -0.097908 0.296051
-0.104760 -0.097903 0.296107
-0.103259 -0.097802 0.295869
-0.102082 -0.098010 0.296558
-0.100412 -0.097743 0.295805
-0.098862 -0.097588 0.295384
-0.096173 -0.096287 0.291491
-0.103087 -0.104703 0.317011
-0.101712 -0.104824 0.317415
-0.100049 -0.104648 0.316911
-0.097672 -0.103707 0.314090
-0.096646 -0.104194 0.315588
-0.093474 -0.102348 0.310013
-0.091333 -0.101589 0.307729
-0.089609 -0.101278 0.306795
-0.087824 -0.100885 0.305612
-0.085618 -0.099988 0.302898
-0.087119 -0.103465 0.313428
-0.085739 -0.103579 0.313771
-0.084394 -0.103741 0.314254
-0.082602 -0.103351 0.313061
-0.081960 -0.104411 0.316257
-0.081009 -0.105108 0.318352
-0.078929 -0.104341 0.316010
-0.078543 -0.105826 0.320485
-0.077114 -0.105936 0.320795
-0.068989 -0.096668 0.292707
-0.067457 -0.096450 0.292018
-0.066239 -0.096680 0.292687
-0.064831 -0.096638 0.292530
-0.063481 -0.096681 0.292629
-0.062171 -0.096789 0.292925
-0.060810 -0.096822 0.292990
-0.059381 -0.096745 0.292721
-0.058027 -0.096788 0.292817
-0.056672 -0.096833 0.292916
-0.055277 -0.096811 0.292811
-0.053943 -0.096895 0.293026
-0.052532 -0.096845 0.292835
-0.051155 -0.096854 0.292822
-0.049768 -0.096845 0.292753
-0.048123 -0.096320 0.291126
-0.046690 -0.096202 0.290727
-0.045289 -0.096142 0.290507
-0.043901 -0.096108 0.290361
-0.042499 -0.096042 0.290121
-0.041138 -0.096065 0.290148
-0.040494 -0.097823 0.295418
-0.039124 -0.097891 0.295580
-0.037058 -0.096157 0.290304
-0.036245 -0.097666 0.294819
-0.033540 -0.093995 0.283698
-0.031448 -0.091806 0.277053
-0.029370 -0.089471 0.269971
-0.028192 -0.089790 0.270897
-0.026690 -0.089057 0.268652
-0.025209 -0.088327 0.266415
-0.023888 -0.088106 0.265716
-0.022675 -0.088286 0.266226
-0.021396 -0.088211 0.265969
-0.020226 -0.088608 0.267137
-0.019038 -0.088974 0.268209
-0.017836 -0.089320 0.269224
-0.016649 -0.089802 0.270649
-0.015405 -0.090029 0.271308
-0.014206 -0.090585 0.272958
-0.012867 -0.090273 0.271992
-0.011601 -0.090465 0.272548
-0.010263 -0.090068 0.271330
-0.008862 -0.088932 0.267884
-0.007610 -0.089147 0.268514
-0.006342 -0.089240 0.268777
-0.005032 -0.088639 0.266950
-0.003797 -0.089400 0.269224
-0.002504 -0.088875 0.267629
-0.001228 -0.088476 0.266416
0.000037 -0.089015 0.268027
0.001308 -0.088934 0.267770
0.002590 -0.089272 0.268780
0.003860 -0.089117 0.268305
0.005137 -0.089173 0.268466
0.006397 -0.088955 0.267805
0.007630 -0.088509 0.266459
0.008846 -0.088012 0.264960
0.010082 -0.087810 0.264348
0.011299 -0.087512 0.263453
0.012475 -0.086985 0.261867
0.013695 -0.086828 0.261396
0.014989 -0.087133 0.262318
0.016265 -0.087290 0.262793
0.017531 -0.087376 0.263057
0.018843 -0.087665 0.263933
0.020123 -0.087777 0.264279
0.021284 -0.087388 0.263116
0.022484 -0.087195 0.262543
0.023511 -0.086385 0.260113
0.024706 -0.086242 0.259693
0.025756 -0.085630 0.257862
0.026837 -0.085169 0.256487
0.028059 -0.085182 0.256536
0.029257 -0.085119 0.256359
0.030673 -0.085672 0.258038
0.032111 -0.086240 0.259763
0.033487 -0.086608 0.260888
0.034845 -0.086902 0.261786
0.036283 -0.087369 0.263209
0.037469 -0.087219 0.262772
0.038630 -0.087021 0.262192
0.039709 -0.086659 0.261115
0.040793 -0.086328 0.260132
0.041981 -0.086228 0.259848
0.043134 -0.086067 0.259376
0.044054 -0.085461 0.257565
0.045103 -0.085131 0.256582
0.046461 -0.085387 0.257368
0.047572 -0.085186 0.256775
0.048660 -0.084955 0.256093
0.049872 -0.084949 0.256084
0.051156 -0.085061 0.256432
0.052546 -0.085340 0.257285
0.053940 -0.085612 0.258114
0.055471 -0.086086 0.259549
0.057685 -0.087575 0.264046
0.059641 -0.088617 0.267191
0.061279 -0.089153 0.268811
0.063179 -0.090041 0.271489
0.064601 -0.090226 0.272047
0.066070 -0.090468 0.272776
0.067461 -0.090595 0.273153
0.068788 -0.090634 0.273264
0.069799 -0.090262 0.272134
0.070847 -0.089950 0.271185
0.071708 -0.089417 0.269563
0.071934 -0.088124 0.265650
0.072685 -0.087508 0.263774
0.073338 -0.086797 0.261610
0.074081 -0.086214 0.259828
0.074883 -0.085718 0.258306
0.075986 -0.085576 0.257848
0.077292 -0.085664 0.258078
0.078933 -0.086115 0.259400
0.080315 -0.086274 0.259837
0.081704 -0.086435 0.260277
0.083826 -0.087356 0.262998
0.085370 -0.087655 0.263844
0.087251 -0.088287 0.265687
0.098410 -0.098154 0.295309
0.099708 -0.098047 0.294909
0.100565 -0.097515 0.293228
0.102044 -0.097592 0.293371
0.103319 -0.097475 0.292926
0.104765 -0.097520 0.292960
0.106407 -0.097743 0.293524
0.107442 -0.097411 0.292413
0.109424 -0.097935 0.293865
0.110907 -0.098004 0.293944
0.112209 -0.097914 0.293538
0.113898 -0.098159 0.294129
0.115307 -0.098159 0.293979
0.116842 -0.098266 0.294140
0.118401 -0.098390 0.294341
0.120001 -0.098545 0.294625
0.121569 -0.098670 0.294813
0.122886 -0.098591 0.294379
0.124376 -0.098651 0.294351
0.125939 -0.098766 0.294477
0.127314 -0.098733 0.294151
0.128763 -0.098758 0.293984
0.130279 -0.098833 0.293957
0.131746 -0.098869 0.293801
0.133264 -0.098943 0.293746
0.134971 -0.099153 0.294083
0.136520 -0.099244 0.294050
0.138067 -0.099332 0.293995
0.139649 -0.099444 0.293995
0.141337 -0.099627 0.294191
0.143016 -0.099800 0.294341
0.144482 -0.099822 0.294030
0.146228 -0.100036 0.294266
0.147848 -0.100160 0.294218
0.149223 -0.100117 0.293664
0.150910 -0.100283 0.293701
0.152253 -0.100218 0.293045
0.153629 -0.100176 0.292435
0.155223 -0.100276 0.292218
0.156572 -0.100217 0.291516
-0.132538 -0.081841 0.243870
-0.131535 -0.081950 0.244598
-0.130047 -0.081757 0.244406
-0.128930 -0.081795 0.244891
-0.131536 -0.084218 0.252512
-0.150890 -0.097509 0.292769
-0.149273 -0.097371 0.292743
-0.148788 -0.097976 0.294935
-0.147380 -0.097979 0.295303
-0.146123 -0.098083 0.295961
-0.144885 -0.098202 0.296651
-0.143613 -0.098301 0.297265
-0.142138 -0.098260 0.297445
-0.139571 -0.097458 0.295301
-0.138631 -0.097786 0.296571
-0.136628 -0.097364 0.295551
-0.132311 -0.095267 0.289430
-0.133165 -0.096888 0.294591
-0.145389 -0.106904 0.325293
-0.143998 -0.107018 0.325873
-0.142607 -0.107132 0.326447
-0.125520 -0.096386 0.294078
-0.123979 -0.096270 0.293896
-0.122671 -0.096334 0.294255
-0.121391 -0.096422 0.294680
-0.120041 -0.096456 0.294929
-0.118658 -0.096465 0.295092
-0.117221 -0.096429 0.295112
-0.115868 -0.096461 0.295333
-0.114408 -0.096405 0.295276
-0.112983 -0.096377 0.295297
-0.111499 -0.096298 0.295154
-0.110113 -0.096303 0.295262
-0.108716 -0.096298 0.295331
-0.107247 -0.096228 0.295198
-0.105818 -0.096193 0.295164
-0.104374 -0.096143 0.295077
-0.102670 -0.095850 0.294238
-0.101164 -0.095735 0.293942
-0.099437 -0.095406 0.292980
-0.097888 -0.095241 0.292518
-0.096167 -0.094901 0.291514
-0.103094 -0.103209 0.317073
-0.101721 -0.103330 0.317477
-0.100127 -0.103227 0.317187
-0.097529 -0.102070 0.313655
-0.095573 -0.101560 0.312106
-0.093587 -0.101001 0.310403
-0.091414 -0.100221 0.308014
-0.089986 -0.100244 0.308092
-0.088295 -0.099971 0.307254
-0.086281 -0.099318 0.305245
-0.086892 -0.101714 0.312604
-0.085516 -0.101828 0.312946
-0.084675 -0.102593 0.315287
-0.083087 -0.102465 0.314880
-0.081680 -0.102560 0.315154
-0.080808 -0.103343 0.317540
-0.078985 -0.102916 0.316203
-0.077566 -0.103009 0.316467
-0.076156 -0.103118 0.316774
-0.068709 -0.094893 0.291481
-0.067489 -0.095110 0.292116
-0.066207 -0.095247 0.292506
-0.064813 -0.095224 0.292404
-0.063444 -0.095237 0.292411
-0.062120 -0.095321 0.292631
-0.060751 -0.095338 0.292648
-0.059376 -0.095347 0.292637
-0.057982 -0.095323 0.292526
-0.056650 -0.095405 0.292736
-0.055243 -0.095361 0.292560
-0.053855 -0.095348 0.292480
-0.052512 -0.095416 0.292645
-0.051060 -0.095285 0.292201
-0.049659 -0.095244 0.292033
-0.048269 -0.095223 0.291926
-0.046758 -0.094954 0.291059
-0.045316 -0.094816 0.290592
-0.043954 -0.094840 0.290622
-0.042548 -0.094768 0.290358
-0.041066 -0.094516 0.289541
-0.040394 -0.096176 0.294582
-0.039027 -0.096243 0.294745
-0.036998 -0.094620 0.289731
-0.035687 -0.094778 0.290173
-0.033389 -0.092222 0.282309
-0.031522 -0.090697 0.277600
-0.029453 -0.088430 0.270626
-0.028217 -0.088573 0.271026
-0.026735 -0.087918 0.268984
-0.025314 -0.087413 0.267404
-0.023953 -0.087070 0.266323
-0.022709 -0.087139 0.266500
-0.021448 -0.087148 0.266495
-0.020189 -0.087167 0.266520
-0.018951 -0.087281 0.266839
-0.017749 -0.087595 0.267769
-0.016522 -0.087821 0.268432
-0.015279 -0.087992 0.268928
-0.014072 -0.088429 0.270238
-0.012697 -0.087784 0.268239
-0.011383 -0.087467 0.267248
-0.010134 -0.087634 0.267735
-0.008744 -0.086454 0.264110
-0.007513 -0.086716 0.264889
-0.006357 -0.088116 0.269147
-0.005038 -0.087411 0.266977
-0.003808 -0.088273 0.269595
-0.002512 -0.087755 0.267998
-0.001231 -0.087135 0.266091
0.000033 -0.087072 0.265888
0.001304 -0.087634 0.267594
0.002589 -0.088108 0.269032
0.003857 -0.087863 0.268274
0.005123 -0.087715 0.267817
0.006406 -0.087860 0.268256
0.007624 -0.087209 0.266264
0.008830 -0.086637 0.264513
0.010083 -0.086596 0.264387
0.011236 -0.085808 0.261981
0.012470 -0.085728 0.261740
0.013698 -0.085633 0.261452
0.014975 -0.085825 0.262043
0.016269 -0.086084 0.262838
0.017537 -0.086173 0.263116
0.018831 -0.086376 0.263742
0.020170 -0.086741 0.264863
0.021446 -0.086809 0.265081
0.022668 -0.086664 0.264650
0.023896 -0.086556 0.264329
0.025135 -0.086496 0.264157
0.026179 -0.085801 0.262048
0.027481 -0.085979 0.262604
0.028621 -0.085654 0.261626
0.029792 -0.085446 0.261005
0.031216 -0.085951 0.262562
0.032559 -0.086204 0.263351
0.033870 -0.086353 0.263824
0.035146 -0.086409 0.264010
0.036451 -0.086529 0.264394
0.037581 -0.086238 0.263524
0.038681 -0.085898 0.262501
0.039702 -0.085413 0.261036
0.040747 -0.085004 0.259803
0.041989 -0.085018 0.259864
0.043062 -0.084701 0.258912
0.044141 -0.084411 0.258040
0.045328 -0.084338 0.257833
0.046453 -0.084158 0.257299
0.047726 -0.084246 0.257583
0.048931 -0.084213 0.257498
0.050139 -0.084188 0.257435
0.051557 -0.084507 0.258423
0.053019 -0.084882 0.259582
0.054363 -0.085055 0.260121
0.056195 -0.085967 0.262920
0.058126 -0.086988 0.266053
0.059840 -0.087647 0.268075
0.061509 -0.088215 0.269818
0.063168 -0.088744 0.271440
0.064774 -0.089179 0.272776
0.066201 -0.089357 0.273319
0.067493 -0.089347 0.273290
0.068883 -0.089466 0.273649
0.070207 -0.089496 0.273736
0.070918 -0.088758 0.271470
0.071836 -0.088301 0.270062
0.072831 -0.087951 0.268981
0.073122 -0.086780 0.265382
0.073804 -0.086103 0.263296
0.075031 -0.086075 0.263188
0.075506 -0.085199 0.260485
0.076347 -0.084758 0.259108
0.077693 -0.084881 0.259455
0.079105 -0.085073 0.260008
0.080267 -0.084993 0.259725
0.081656 -0.085153 0.260170
0.083469 -0.085743 0.261927
0.084872 -0.085901 0.262360
0.086955 -0.086733 0.264845
0.097873 -0.096227 0.293768
0.099162 -0.096120 0.293370
0.100726 -0.096278 0.293777
0.102217 -0.096364 0.293953
0.103573 -0.096321 0.293734
0.104843 -0.096200 0.293270
0.106373 -0.096319 0.293530
0.107825 -0.096364 0.293559
0.109348 -0.096471 0.293768
0.110842 -0.096549 0.293884
0.112307 -0.096602 0.293912
0.113887 -0.096750 0.294225
0.115358 -0.096802 0.294238
0.116969 -0.096971 0.294595
0.118499 -0.097068 0.294727
0.120040 -0.097171 0.294868
0.121584 -0.097275 0.295002
0.122968 -0.097250 0.294734
0.124380 -0.097247 0.294523
0.125883 -0.097315 0.294517
0.127274 -0.097295 0.294236
0.128683 -0.097289 0.293986
0.129993 -0.097209 0.293501
0.131552 -0.097316 0.293567
0.133153 -0.097450 0.293704
0.134652 -0.097508 0.293599
0.136296 -0.097669 0.293789
0.137799 -0.097725 0.293651
0.139577 -0.097975 0.294078
0.141527 -0.098338 0.294830
0.143177 -0.098488 0.294926
0.144670 -0.098527 0.294676
0.146276 -0.098642 0.294633
0.147980 -0.098820 0.294762
0.149230 -0.098694 0.293967
0.150711 -0.098722 0.293612
0.152338 -0.098844 0.293516
0.153505 -0.098668 0.292517
0.155012 -0.098712 0.292149
0.156724 -0.098884 0.292140
-0.134175 -0.081648 0.247135
-0.132872 -0.081580 0.247328
-0.129894 -0.080474 0.244353
-0.135392 -0.084646 0.257403
-0.152252 -0.096065 0.292541
-0.150971 -0.096143 0.293179
-0.149798 -0.096293 0.294017
-0.148744 -0.096523 0.295086
-0.147187 -0.096427 0.295144
-0.145870 -0.096489 0.295669
-0.144690 -0.096644 0.296465
-0.143175 -0.096576 0.296565
-0.141638 -0.096491 0.296599
-0.140357 -0.096581 0.297156
-0.138906 -0.096556 0.297345
-0.137281 -0.096407 0.297143
-0.132385 -0.093934 0.289759
-0.133094 -0.095429 0.294598
-0.145668 -0.105552 0.326092
-0.144278 -0.105666 0.326673
-0.125065 -0.094640 0.293144
-0.123771 -0.094711 0.293530
-0.122459 -0.094770 0.293869
-0.121208 -0.094877 0.294351
-0.119912 -0.094951 0.294722
-0.118523 -0.094953 0.294861
-0.117036 -0.094876 0.294746
-0.115744 -0.094957 0.295113
-0.114271 -0.094889 0.295013
-0.112772 -0.094799 0.294832
-0.111291 -0.094721 0.294684
-0.109941 -0.094754 0.294875
-0.108533 -0.094737 0.294904
-0.107115 -0.094712 0.294901
-0.105670 -0.094662 0.294813
-0.104322 -0.094698 0.294988
-0.102864 -0.094634 0.294845
-0.100816 -0.094018 0.292978
-0.099506 -0.094084 0.293228
-0.097963 -0.093927 0.292779
-0.096112 -0.093467 0.291381
-0.103572 -0.102179 0.318575
-0.102194 -0.102300 0.318981
-0.100828 -0.102437 0.319430
-0.098271 -0.101350 0.316059
-0.096911 -0.101483 0.316489
-0.093305 -0.099232 0.309478
-0.091594 -0.098956 0.308624
-0.089739 -0.098514 0.307247
-0.088275 -0.098494 0.307183
-0.086473 -0.098089 0.305916
-0.087125 -0.100502 0.313433
-0.085747 -0.100616 0.313776
-0.084544 -0.100944 0.314783
-0.083173 -0.101078 0.315183
-0.081800 -0.101215 0.315591
-0.080587 -0.101559 0.316639
-0.078810 -0.101192 0.315469
-0.077800 -0.101815 0.317382
-0.076386 -0.101924 0.317690
-0.068494 -0.093219 0.290530
-0.067422 -0.093631 0.291782
-0.066172 -0.093809 0.292303
-0.064733 -0.093720 0.291990
-0.063404 -0.093791 0.292173
-0.062112 -0.093920 0.292536
-0.060707 -0.093881 0.292377
-0.059362 -0.093935 0.292503
-0.057987 -0.093942 0.292485
-0.056603 -0.093937 0.292425
-0.055237 -0.093960 0.292454
-0.053820 -0.093896 0.292213
-0.052427 -0.093872 0.292094
-0.051042 -0.093862 0.292018
-0.049606 -0.093754 0.291635
-0.048167 -0.093636 0.291222
-0.046736 -0.093527 0.290838
-0.045277 -0.093353 0.290251
-0.043942 -0.093430 0.290446
-0.042500 -0.093279 0.289933
-0.041086 -0.093183 0.289588
-0.040408 -0.094806 0.294585
-0.039042 -0.094873 0.294748
-0.037322 -0.094052 0.292152
-0.035776 -0.093625 0.290784
-0.033483 -0.091129 0.282990
-0.031465 -0.089208 0.276982
-0.029375 -0.086906 0.269796
-0.028259 -0.087406 0.271311
-0.026773 -0.086754 0.269249
-0.025240 -0.085881 0.266503
-0.023926 -0.085695 0.265892
-0.022681 -0.085754 0.266038
-0.021473 -0.085967 0.266667
-0.020221 -0.086019 0.266795
-0.019037 -0.086389 0.267910
-0.017856 -0.086825 0.269234
-0.016504 -0.086431 0.267983
-0.015432 -0.087565 0.271469
-0.014161 -0.087671 0.271772
-0.012525 -0.085312 0.264433
-0.011125 -0.084216 0.261014
-0.009909 -0.084417 0.261614
-0.008645 -0.084202 0.260926
-0.007413 -0.084277 0.261139
-0.006176 -0.084323 0.261263
-0.004953 -0.084623 0.262174
-0.003721 -0.084932 0.263117
-0.002467 -0.084792 0.262668
-0.001224 -0.085158 0.263787
0.000029 -0.085749 0.265607
0.001301 -0.086360 0.267490
0.002596 -0.087161 0.269961
0.003869 -0.086950 0.269301
0.005110 -0.086292 0.267256
0.006379 -0.086274 0.267196
0.007629 -0.086048 0.266493
0.008789 -0.085012 0.263281
0.009986 -0.084554 0.261862
0.011230 -0.084545 0.261837
0.012439 -0.084303 0.261087
0.013658 -0.084163 0.260659
0.014960 -0.084516 0.261755
0.016248 -0.084744 0.262467
0.017520 -0.084861 0.262835
0.018851 -0.085226 0.263974
0.020096 -0.085186 0.263861
0.021435 -0.085520 0.264903
0.022744 -0.085707 0.265496
0.023954 -0.085520 0.264929
0.025353 -0.085993 0.266406
0.026636 -0.086045 0.266580
0.027583 -0.085058 0.263538
0.029161 -0.086014 0.266516
0.030423 -0.085999 0.266487
0.031580 -0.085703 0.265586
0.032871 -0.085775 0.265826
0.034065 -0.085600 0.265301
0.035216 -0.085335 0.264497
0.036502 -0.085400 0.264718
0.037667 -0.085188 0.264081
0.038663 -0.084622 0.262343
0.039772 -0.084329 0.261456
0.041066 -0.084433 0.261798
0.042167 -0.084149 0.260934
0.043317 -0.083973 0.260408
0.044498 -0.083866 0.260095
0.045491 -0.083420 0.258730
0.046710 -0.083401 0.258690
0.047888 -0.083311 0.258428
0.049019 -0.083147 0.257934
0.050280 -0.083205 0.258132
0.051600 -0.083357 0.258617
0.052940 -0.083532 0.259175
0.054210 -0.083592 0.259374
0.056045 -0.084500 0.262204
0.058026 -0.085584 0.265581
0.059431 -0.085791 0.266233
0.061408 -0.086796 0.269362
0.063074 -0.087332 0.271030
0.064399 -0.087382 0.271193
0.066008 -0.087808 0.272520
0.067124 -0.087575 0.271796
0.068252 -0.087366 0.271147
0.069568 -0.087400 0.271251
0.070363 -0.086790 0.269354
0.071338 -0.086421 0.268201
0.072575 -0.086376 0.268052
0.073106 -0.085506 0.265342
0.073766 -0.084815 0.263182
0.074967 -0.084758 0.262987
0.075996 -0.084512 0.262202
0.076742 -0.083964 0.260478
0.078067 -0.084057 0.260740
0.079342 -0.084093 0.260821
0.080541 -0.084051 0.260654
0.081791 -0.084060 0.260645
0.083237 -0.084268 0.261248
0.084908 -0.084694 0.262522
0.086602 -0.085132 0.263826
0.098617 -0.095556 0.296067
0.099915 -0.095448 0.295667
0.100776 -0.094933 0.293997
0.102149 -0.094907 0.293836
0.103788 -0.095125 0.294427
0.104800 -0.094770 0.293238
0.106197 -0.094769 0.293137
0.107924 -0.095058 0.293927
0.109317 -0.095048 0.293788
0.110714 -0.095043 0.293652
0.112291 -0.095190 0.293981
0.113742 -0.095229 0.293968
0.115301 -0.095355 0.294217
0.116719 -0.095363 0.294094
0.118307 -0.095508 0.294382
0.119754 -0.095538 0.294307
0.121414 -0.095734 0.294735
0.122893 -0.095785 0.294707
0.124267 -0.095753 0.294414
0.125782 -0.095829 0.294444
0.127277 -0.095889 0.294413
0.128700 -0.095894 0.294202
0.130029 -0.095830 0.293767
0.131609 -0.095949 0.293883
0.132967 -0.095906 0.293492
0.134609 -0.096067 0.293709
0.136217 -0.096200 0.293830
0.137600 -0.096173 0.293447
0.139242 -0.096325 0.293598
0.140753 -0.096385 0.293451
0.142696 -0.096736 0.294177
0.144251 -0.096820 0.294074
0.145823 -0.096913 0.293981
0.147629 -0.097159 0.294331
0.149219 -0.097259 0.294224
0.150968 -0.097460 0.294400
0.152294 -0.097386 0.293730
0.153756 -0.097399 0.293303
0.155278 -0.097450 0.292968
0.156576 -0.097361 0.292193
-0.135667 -0.081338 0.250130
-0.135781 -0.082136 0.252985
-0.135335 -0.082608 0.254822
-0.133059 -0.081960 0.253192
-0.150689 -0.093676 0.289787
-0.151074 -0.094790 0.293623
-0.149996 -0.094998 0.294642
-0.148788 -0.095127 0.295401
-0.147365 -0.095120 0.295723
-0.146080 -0.095203 0.296309
-0.144691 -0.095219 0.296674
-0.143313 -0.095243 0.297050
-0.141861 -0.095218 0.297259
-0.140436 -0.095210 0.297509
-0.138859 -0.095099 0.297423
-0.137519 -0.095149 0.297830
-0.136249 -0.095250 0.298381
-0.133730 -0.094470 0.296163
-0.145508 -0.103881 0.325901
-0.144121 -0.103994 0.326480
-0.127279 -0.093854 0.295019
-0.125006 -0.093200 0.293132
-0.123827 -0.093356 0.293783
-0.122421 -0.093342 0.293893
-0.121175 -0.093452 0.294382
-0.119882 -0.093527 0.294755
-0.118466 -0.093507 0.294819
-0.117123 -0.093545 0.295058
-0.115351 -0.093238 0.294201
-0.114319 -0.093529 0.295222
-0.112792 -0.093416 0.294962
-0.111183 -0.093233 0.294474
-0.110073 -0.093468 0.295299
-0.108612 -0.093407 0.295185
-0.107122 -0.093320 0.294979
-0.105584 -0.093188 0.294627
-0.104344 -0.093320 0.295101
-0.102791 -0.093171 0.294685
-0.101084 -0.092877 0.293800
-0.099211 -0.092420 0.292395
-0.097921 -0.092501 0.292690
-0.096269 -0.092237 0.291886
-0.103624 -0.100721 0.318763
-0.102247 -0.100842 0.319169
-0.100733 -0.100829 0.319148
-0.096869 -0.098429 0.311566
-0.095978 -0.099022 0.313453
-0.093668 -0.098147 0.310687
-0.091793 -0.097707 0.309298
-0.089902 -0.097236 0.307803
-0.088226 -0.096985 0.307006
-0.086840 -0.097051 0.307206
-0.087122 -0.099015 0.313408
-0.085745 -0.099128 0.313752
-0.084076 -0.098902 0.313019
-0.082651 -0.098961 0.313183
-0.081206 -0.098997 0.313273
-0.079872 -0.099171 0.313797
-0.078037 -0.098720 0.312340
-0.076655 -0.098835 0.312674
-0.075264 -0.098942 0.312978
-0.068434 -0.091761 0.290231
-0.067288 -0.092065 0.291157
-0.066051 -0.092253 0.291716
-0.064686 -0.092268 0.291724
-0.063342 -0.092313 0.291828
-0.062079 -0.092483 0.292324
-0.060752 -0.092561 0.292527
-0.059333 -0.092500 0.292293
-0.058009 -0.092589 0.292529
-0.056624 -0.092580 0.292457
-0.055177 -0.092470 0.292064
-0.053807 -0.092486 0.292066
-0.052377 -0.092396 0.291735
-0.050983 -0.092366 0.291595
-0.049581 -0.092320 0.291402
-0.048140 -0.092199 0.290971
-0.046762 -0.092193 0.290905
-0.045353 -0.092125 0.290642
-0.043956 -0.092076 0.290441
-0.042537 -0.091977 0.290083
-0.041103 -0.091840 0.289601
-0.040467 -0.093537 0.294906
-0.039100 -0.093604 0.295070
-0.037148 -0.092226 0.290681
-0.035756 -0.092185 0.290504
-0.033534 -0.089916 0.283309
-0.031479 -0.087924 0.276993
-0.029495 -0.085965 0.270779
-0.028233 -0.086029 0.270941
-0.026726 -0.085317 0.268661
-0.025261 -0.084675 0.266600
-0.023900 -0.084332 0.265485
-0.022622 -0.084259 0.265221
-0.021454 -0.084614 0.266304
-0.020272 -0.084954 0.267340
-0.019023 -0.085038 0.267573
-0.017874 -0.085614 0.269352
-0.016529 -0.085270 0.268241
-0.015390 -0.086022 0.270576
-0.014207 -0.086642 0.272497
-0.012481 -0.083736 0.263334
-0.011220 -0.083658 0.263062
-0.009985 -0.083777 0.263413
-0.008703 -0.083483 0.262470
-0.007456 -0.083485 0.262452
-0.006217 -0.083582 0.262740
-0.004975 -0.083694 0.263074
-0.003736 -0.083948 0.263857
-0.002473 -0.083616 0.262798
-0.001226 -0.083751 0.263210
0.000026 -0.084159 0.264481
0.001294 -0.084912 0.266837
0.002591 -0.085835 0.269727
0.003874 -0.085855 0.269783
0.005140 -0.085572 0.268889
0.006392 -0.085229 0.267806
0.007634 -0.084873 0.266685
0.008840 -0.084284 0.264833
0.010016 -0.083582 0.262625
0.011210 -0.083178 0.261357
0.012441 -0.083096 0.261103
0.013660 -0.082955 0.260664
0.014912 -0.083028 0.260898
0.016235 -0.083446 0.262218
0.017534 -0.083695 0.263006
0.018818 -0.083843 0.263483
0.020186 -0.084323 0.264998
0.021623 -0.085017 0.267193
0.022967 -0.085286 0.268050
0.024330 -0.085596 0.269037
0.025662 -0.085770 0.269600
0.026913 -0.085671 0.269302
0.028158 -0.085562 0.268978
0.029403 -0.085462 0.268681
0.030555 -0.085114 0.267602
0.031740 -0.084878 0.266880
0.032853 -0.084477 0.265636
0.034135 -0.084524 0.265804
0.035267 -0.084208 0.264831
0.036526 -0.084207 0.264848
0.037856 -0.084365 0.265366
0.038985 -0.084077 0.264482
0.040023 -0.083620 0.263064
0.041257 -0.083586 0.262978
0.042421 -0.083416 0.262466
0.043541 -0.083171 0.261715
0.044689 -0.082993 0.261176
0.045706 -0.082588 0.259921
0.046670 -0.082109 0.258434
0.047930 -0.082164 0.258626
0.048980 -0.081864 0.257701
0.050066 -0.081638 0.257007
0.051245 -0.081569 0.256809
0.052697 -0.081929 0.257959
0.053936 -0.081950 0.258041
0.055250 -0.082080 0.258465
0.057409 -0.083433 0.262740
0.059436 -0.084540 0.266239
0.061100 -0.085096 0.268000
0.062645 -0.085466 0.269177
0.064395 -0.086094 0.271164
0.065882 -0.086355 0.271991
0.067043 -0.086186 0.271464
0.068089 -0.085878 0.270498
0.069377 -0.085881 0.270507
0.070291 -0.085430 0.269085
0.071385 -0.085209 0.268387
0.072431 -0.084939 0.267530
0.073071 -0.084211 0.265227
0.073845 -0.083660 0.263480
0.074224 -0.082687 0.260402
0.075456 -0.082681 0.260363
0.076547 -0.082521 0.259842
0.077206 -0.081910 0.257893
0.078719 -0.082209 0.258807
0.080216 -0.082482 0.259636
0.081301 -0.082330 0.259122
0.082851 -0.082647 0.260080
0.084579 -0.083129 0.261553
0.086487 -0.083771 0.263526
0.098778 -0.094307 0.296611
0.100076 -0.094199 0.296210
0.100719 -0.093487 0.293900
0.102251 -0.093607 0.294203
0.103544 -0.093508 0.293813
0.104757 -0.093341 0.293202
0.106308 -0.093474 0.293528
0.107598 -0.093379 0.293129
0.109072 -0.093443 0.293224
0.110758 -0.093685 0.293871
0.112378 -0.093866 0.294317
0.113726 -0.093817 0.294038
0.115294 -0.093949 0.294315
0.116756 -0.093993 0.294308
0.118225 -0.094040 0.294306
0.119709 -0.094099 0.294329
0.121332 -0.094264 0.294674
0.122839 -0.094336 0.294720
0.124047 -0.094180 0.294043
0.125552 -0.094250 0.294063
0.127009 -0.094283 0.293956
0.128326 -0.094212 0.293516
0.129781 -0.094242 0.293380
0.131300 -0.094318 0.293374
0.132636 -0.094262 0.292948
0.134149 -0.094333 0.292901
0.135839 -0.094524 0.293217
0.137264 -0.094529 0.292941
0.138854 -0.094646 0.292996
0.140548 -0.094832 0.293251
0.142337 -0.095076 0.293671
0.143999 -0.095232 0.293801
0.145555 -0.095315 0.293690
0.147477 -0.095634 0.294289
0.149132 -0.095775 0.294321
0.150635 -0.095817 0.294028
0.152335 -0.095982 0.294096
0.153664 -0.095912 0.293424
0.155035 -0.095869 0.292817
0.156602 -0.095948 0.292558
-0.136044 -0.080343 0.251063
-0.135168 -0.080542 0.252075
-0.135912 -0.081718 0.256136
-0.156609 -0.095022 0.298261
-0.155307 -0.095102 0.298916
-0.150797 -0.093200 0.293319
-0.149521 -0.093280 0.293936
-0.148363 -0.093435 0.294777
-0.147038 -0.093488 0.295279
-0.145670 -0.093514 0.295682
-0.144318 -0.093552 0.296108
-0.142942 -0.093574 0.296472
-0.141373 -0.093470 0.296420
-0.140083 -0.093549 0.296938
-0.137692 -0.092888 0.295093
-0.136201 -0.092827 0.295138
-0.130751 -0.090038 0.286493
-0.133088 -0.092609 0.294892
-0.144777 -0.101811 0.324422
-0.144131 -0.102444 0.326654
-0.142745 -0.102559 0.327226
-0.127385 -0.092526 0.295392
-0.125029 -0.091822 0.293308
-0.123657 -0.091832 0.293497
-0.122395 -0.091925 0.293940
-0.121083 -0.091982 0.294262
-0.119697 -0.091984 0.294399
-0.118376 -0.092038 0.294691
-0.116645 -0.091769 0.293946
-0.115150 -0.091682 0.293772
-0.113975 -0.091851 0.294413
-0.112434 -0.091725 0.294103
-0.110923 -0.091621 0.293853
-0.109557 -0.091636 0.293981
-0.108196 -0.091655 0.294114
-0.106746 -0.091600 0.294002
-0.105168 -0.091431 0.293518
-0.104100 -0.091707 0.294457
-0.102553 -0.091563 0.294045
-0.101014 -0.091422 0.293635
-0.099676 -0.091462 0.293801
-0.097668 -0.090880 0.291962
-0.096388 -0.090968 0.292273
