ply
format ascii 1.0
element vertex 1745
property float x
property float y
property float z
end_header
0.069685 0.086395 0.271833
0.071132 0.086585 0.272429
0.072278 0.086407 0.271867
0.073217 0.085993 0.270559
0.074169 0.085607 0.269337
0.075029 0.085131 0.267828
0.075530 0.084269 0.265103
0.076232 0.083656 0.263159
0.076881 0.083006 0.261095
0.077553 0.082401 0.259171
0.078468 0.082068 0.258098
0.079612 0.081982 0.257798
0.080566 0.081706 0.256897
0.081807 0.081725 0.256921
0.083141 0.081834 0.257223
0.083959 0.081440 0.255939
0.086667 0.082864 0.260366
0.099874 0.092834 0.291566
0.099186 0.090930 0.285516
0.101101 0.091431 0.287013
0.102879 0.091796 0.288076
0.104258 0.091801 0.288002
0.105311 0.091521 0.287031
0.106806 0.091629 0.287266
0.108198 0.091645 0.287211
0.109881 0.091905 0.287910
0.111425 0.092043 0.288221
0.112878 0.092105 0.288283
0.114176 0.092039 0.287938
0.115726 0.092175 0.288218
0.117190 0.092241 0.288270
0.118500 0.092184 0.287931
0.119938 0.092228 0.287895
0.121560 0.092410 0.288282
0.123067 0.092503 0.288380
0.124832 0.092784 0.289055
0.126447 0.092949 0.289355
0.127904 0.092995 0.289275
0.129376 0.093051 0.289215
0.130988 0.093205 0.289448
0.132354 0.093183 0.289120
0.133976 0.093340 0.289335
0.135297 0.093285 0.288883
0.136739 0.093315 0.288678
0.138499 0.093558 0.289120
0.139887 0.093548 0.288762
0.141909 0.093957 0.289684
0.143491 0.094070 0.289674
0.145175 0.094246 0.289844
0.147165 0.094616 0.290590
0.149112 0.094951 0.291209
0.150946 0.095209 0.291569
0.152533 0.095307 0.291422
0.155019 0.095960 0.292946
0.156594 0.096042 0.292703
-0.045184 0.027522 0.083268
-0.044894 0.027592 0.083611
-0.044779 0.027770 0.084281
-0.042146 0.031933 0.098834
-0.042119 0.032271 0.099934
-0.041806 0.032395 0.100371
-0.041593 0.032600 0.101055
-0.041243 0.032701 0.101416
-0.040703 0.032652 0.101309
-0.042319 0.034351 0.106626
-0.040432 0.033214 0.103136
-0.040646 0.033797 0.104983
-0.041131 0.034622 0.107583
-0.040843 0.034809 0.108196
-0.040565 0.035008 0.108849
-0.040010 0.034972 0.108764
-0.039937 0.035361 0.110001
-0.040569 0.036393 0.113236
-0.041534 0.037754 0.117497
-0.041377 0.038119 0.118654
-0.041674 0.038919 0.121164
-0.041153 0.038965 0.121327
-0.040631 0.039012 0.121488
-0.057509 0.065332 0.203546
-0.057077 0.065939 0.205430
-0.056196 0.066040 0.205734
-0.055265 0.066085 0.205863
-0.054499 0.066332 0.206620
-0.053710 0.066560 0.207316
-0.052932 0.066810 0.208078
-0.052117 0.067021 0.208716
-0.051336 0.067285 0.209520
-0.050534 0.067532 0.210268
-0.050213 0.068445 0.213088
-0.049349 0.068639 0.213668
-0.048578 0.068975 0.214687
-0.047704 0.069173 0.215279
-0.046908 0.069498 0.216260
-0.045976 0.069631 0.216645
-0.045178 0.069976 0.217690
-0.044375 0.070331 0.218762
-0.044003 0.071401 0.222058
-0.043196 0.071801 0.223269
-0.053116 0.090497 0.281362
-0.051836 0.090579 0.281575
-0.051065 0.091580 0.284642
-0.049825 0.091772 0.285195
-0.048574 0.091953 0.285711
-0.047322 0.092141 0.286250
-0.046012 0.092226 0.286469
-0.044694 0.092298 0.286649
-0.043467 0.092570 0.287448
-0.042120 0.092596 0.287482
-0.040652 0.092347 0.286665
-0.038434 0.090321 0.280331
-0.038914 0.094717 0.293928
-0.037550 0.094782 0.294084
-0.034950 0.091614 0.284210
-0.033312 0.090814 0.281688
-0.029003 0.082364 0.255439
-0.027752 0.082238 0.255013
-0.026316 0.081532 0.252785
-0.025373 0.082354 0.255297
-0.024053 0.081977 0.254096
-0.022807 0.081826 0.253594
-0.021646 0.081978 0.254032
-0.020514 0.082265 0.254888
-0.019263 0.082080 0.254285
-0.017989 0.081768 0.253288
-0.016934 0.082481 0.255467
-0.016819 0.088230 0.273242
-0.015250 0.086676 0.268402
-0.013888 0.086123 0.266663
-0.012628 0.086160 0.266750
-0.011103 0.084194 0.260640
-0.009767 0.083342 0.257981
-0.008568 0.083593 0.258736
-0.007302 0.083159 0.257373
-0.006068 0.082984 0.256813
-0.004868 0.083321 0.257840
-0.003652 0.083512 0.258414
-0.002431 0.083700 0.258982
-0.001207 0.084137 0.260323
0.000029 0.084548 0.261581
0.001279 0.085042 0.263099
0.002541 0.085455 0.264370
0.003811 0.085774 0.265348
0.005100 0.086261 0.266848
0.006354 0.086079 0.266281
0.007531 0.085084 0.263199
0.008750 0.084775 0.262242
0.009955 0.084423 0.261152
0.011134 0.083959 0.259719
0.012350 0.083837 0.259344
0.013587 0.083865 0.259432
0.014830 0.083921 0.259612
0.016104 0.084129 0.260259
0.017391 0.084372 0.261018
0.018691 0.084643 0.261864
0.019993 0.084888 0.262632
0.021325 0.085223 0.263679
0.022710 0.085720 0.265230
0.023859 0.085320 0.264002
0.025158 0.085470 0.264482
0.026544 0.085890 0.265795
0.027673 0.085475 0.264527
0.028966 0.085579 0.264864
0.030144 0.085350 0.264170
0.031382 0.085302 0.264041
0.034685 0.087300 0.270261
0.035947 0.087246 0.270114
0.037155 0.087069 0.269584
0.038532 0.087285 0.270275
0.039753 0.087148 0.269870
0.040915 0.086892 0.269097
0.041747 0.085973 0.266271
0.042734 0.085416 0.264566
0.043361 0.084194 0.260800
0.043778 0.082641 0.256009
0.044616 0.081947 0.253878
0.045552 0.081464 0.252400
0.046390 0.080834 0.250464
0.047561 0.080801 0.250381
0.048736 0.080778 0.250325
0.050039 0.080962 0.250912
0.051358 0.081163 0.251549
0.052652 0.081316 0.252039
0.054139 0.081753 0.253406
0.055530 0.082030 0.254275
0.057609 0.083289 0.258191
0.059655 0.084450 0.261799
0.061925 0.085873 0.266219
0.063529 0.086333 0.267653
0.065077 0.086702 0.268799
0.066659 0.087100 0.270039
0.068005 0.087182 0.270291
0.069256 0.087140 0.270160
0.070514 0.087108 0.270058
0.071796 0.087106 0.270047
0.072475 0.086386 0.267805
0.073251 0.085804 0.265993
0.074066 0.085287 0.264374
0.074937 0.084850 0.263004
0.075428 0.084005 0.260365
0.076048 0.083327 0.258244
0.077241 0.083289 0.258100
0.078027 0.082820 0.256618
0.079436 0.083017 0.257195
0.081039 0.083408 0.258369
0.082470 0.083612 0.258960
0.083680 0.083590 0.258848
0.084663 0.083344 0.258038
0.086573 0.084005 0.260031
0.097047 0.092840 0.287315
0.098305 0.092735 0.286920
0.099187 0.092283 0.285449
0.101668 0.093311 0.288548
0.102777 0.093069 0.287713
0.104133 0.093054 0.287574
0.105472 0.093024 0.287382
0.106775 0.092964 0.287091
0.108183 0.092996 0.287075
0.109577 0.093014 0.287013
0.111078 0.093122 0.287217
0.112239 0.092945 0.286537
0.114401 0.093592 0.288388
0.115845 0.093642 0.288392
0.117417 0.093794 0.288700
0.118714 0.093725 0.288318
0.120191 0.093798 0.288365
0.122013 0.094135 0.289212
0.123255 0.094022 0.288667
0.124726 0.094084 0.288652
0.126298 0.094220 0.288849
0.127706 0.094232 0.288658
0.129324 0.094397 0.288922
0.130893 0.094524 0.289056
0.132708 0.094822 0.289703
0.134047 0.094779 0.289293
0.135492 0.094810 0.289097
0.137078 0.094937 0.289181
0.138548 0.094983 0.289002
0.140017 0.095027 0.288802
0.141725 0.095231 0.289073
0.143758 0.095647 0.289969
0.145159 0.095637 0.289559
0.146913 0.095859 0.289830
0.148877 0.096212 0.290479
0.150801 0.096532 0.291007
0.151940 0.096349 0.289999
0.153814 0.096630 0.290367
0.156582 0.097463 0.292367
-0.045175 0.027922 0.083168
-0.044726 0.027893 0.083217
-0.044440 0.027966 0.083564
-0.042110 0.032376 0.098705
-0.041679 0.032404 0.098847
-0.041742 0.032821 0.100175
-0.041740 0.033196 0.101373
-0.041379 0.033292 0.101713
-0.041022 0.033392 0.102067
-0.041353 0.034061 0.104156
-0.041197 0.034341 0.105054
-0.040208 0.033926 0.103823
-0.040975 0.034998 0.107144
-0.040862 0.035338 0.108219
-0.040973 0.035882 0.109918
-0.040548 0.035965 0.110202
-0.039926 0.035872 0.109947
-0.040690 0.037039 0.113552
-0.040356 0.037225 0.114146
-0.058649 0.065429 0.200894
-0.058019 0.065787 0.201992
-0.057184 0.065921 0.202400
-0.056379 0.066093 0.202926
-0.055602 0.066306 0.203572
-0.055148 0.066917 0.205441
-0.054409 0.067198 0.206294
-0.053645 0.067459 0.207081
-0.052790 0.067612 0.207538
-0.052039 0.067907 0.208427
-0.051228 0.068135 0.209108
-0.050562 0.068566 0.210414
-0.049800 0.068884 0.211367
-0.049208 0.069453 0.213092
-0.048362 0.069680 0.213766
-0.047493 0.069884 0.214365
-0.046764 0.070307 0.215638
-0.045917 0.070567 0.216407
-0.045066 0.070833 0.217196
-0.044286 0.071225 0.218369
-0.043663 0.071896 0.220395
-0.054264 0.091530 0.280545
-0.052989 0.091614 0.280762
-0.052289 0.092720 0.284112
-0.051041 0.092889 0.284588
-0.049794 0.093069 0.285097
-0.048535 0.093236 0.285566
-0.047245 0.093350 0.285871
-0.045956 0.093476 0.286213
-0.044700 0.093676 0.286784
-0.043358 0.093704 0.286826
-0.041991 0.093677 0.286700
-0.039852 0.091869 0.281123
-0.038378 0.091523 0.280023
-0.038331 0.094676 0.289627
-0.036986 0.094741 0.289781
-0.034790 0.092543 0.283017
-0.033395 0.092389 0.282507
-0.028895 0.083272 0.254592
-0.027797 0.083594 0.255540
-0.026581 0.083572 0.255437
-0.025402 0.083671 0.255704
-0.024317 0.084107 0.257003
-0.023051 0.083929 0.256427
-0.022085 0.084882 0.259304
-0.022071 0.089827 0.274377
-0.020678 0.089422 0.273109
-0.019377 0.089390 0.272980
-0.018099 0.089465 0.273179
-0.016787 0.089374 0.272871
-0.015324 0.088398 0.269864
-0.013956 0.087841 0.268136
-0.012598 0.087243 0.266288
-0.011125 0.085625 0.261324
-0.009778 0.084698 0.258475
-0.008551 0.084687 0.258419
-0.007303 0.084437 0.257639
-0.006069 0.084268 0.257105
-0.004856 0.084400 0.257489
-0.003649 0.084741 0.258514
-0.002422 0.084757 0.258551
-0.001193 0.084638 0.258173
0.000033 0.085555 0.260959
0.001287 0.086567 0.264037
0.002542 0.086640 0.264251
0.003814 0.087015 0.265386
0.005102 0.087502 0.266866
0.006350 0.087230 0.266029
0.007549 0.086499 0.263797
0.008774 0.086223 0.262954
0.009985 0.085896 0.261955
0.011128 0.085118 0.259583
0.012346 0.085016 0.259273
0.013589 0.085084 0.259484
0.014842 0.085201 0.259845
0.016091 0.085282 0.260095
0.017364 0.085465 0.260659
0.018663 0.085741 0.261510
0.019962 0.085985 0.262261
0.021266 0.086220 0.262987
0.022577 0.086457 0.263720
0.023682 0.085918 0.262088
0.024953 0.086007 0.262371
0.026137 0.085801 0.261757
0.027287 0.085507 0.260875
0.028391 0.085102 0.259653
0.029386 0.084418 0.257578
0.030654 0.084540 0.257969
0.031849 0.084459 0.257736
0.033218 0.084827 0.258876
0.034646 0.085314 0.260378
0.036032 0.085669 0.261478
0.037443 0.086058 0.262683
0.038946 0.086625 0.264432
0.040255 0.086739 0.264800
0.041428 0.086561 0.264275
0.042632 0.086457 0.263974
0.043197 0.085100 0.259849
0.043919 0.084119 0.256870
0.044601 0.083116 0.253823
0.045324 0.082239 0.251163
0.046390 0.082016 0.250494
0.047382 0.081674 0.249465
0.048693 0.081887 0.250130
0.050069 0.082195 0.251085
0.051479 0.082543 0.252161
0.052730 0.082627 0.252429
0.054185 0.083019 0.253639
0.055683 0.083459 0.254991
0.057494 0.084339 0.257688
0.059584 0.085584 0.261498
0.061589 0.086656 0.264780
0.063174 0.087107 0.266163
0.064769 0.087555 0.267533
0.066414 0.088051 0.269050
0.067835 0.088237 0.269615
0.069141 0.088268 0.269707
0.070450 0.088303 0.269807
0.071662 0.088216 0.269532
0.072154 0.087262 0.266606
0.073024 0.086790 0.265151
0.073746 0.086161 0.263213
0.074422 0.085500 0.261173
0.075056 0.084814 0.259055
0.075868 0.084348 0.257604
0.076841 0.084071 0.256732
0.077876 0.083871 0.256088
0.079040 0.083813 0.255875
0.080385 0.083946 0.256242
0.081678 0.084022 0.256430
0.083349 0.084478 0.257774
0.084445 0.084347 0.257321
0.085983 0.084654 0.258201
0.097636 0.094771 0.288990
0.098903 0.094665 0.288594
0.099339 0.093778 0.285811
0.101381 0.094411 0.287654
0.103102 0.094731 0.288538
0.104279 0.094550 0.287888
0.105597 0.094499 0.287631
0.107040 0.094560 0.287705
0.108354 0.094507 0.287426
0.109785 0.094556 0.287448
0.111175 0.094569 0.287355
0.112612 0.094620 0.287372
0.114185 0.094784 0.287721
0.115617 0.094827 0.287695
0.116982 0.094816 0.287496
0.118548 0.094965 0.287774
0.120084 0.095088 0.287962
0.121371 0.095012 0.287540
0.122987 0.095192 0.287883
0.124469 0.095266 0.287892
0.125996 0.095372 0.287989
0.127400 0.095385 0.287791
0.128917 0.095480 0.287831
0.130819 0.095855 0.288701
0.132022 0.095715 0.288009
0.134172 0.096258 0.289357
0.135389 0.096126 0.288664
0.136847 0.096167 0.288474
0.138491 0.096336 0.288655
0.140047 0.096441 0.288629
0.142527 0.097174 0.290463
0.144342 0.097443 0.290893
0.145960 0.097575 0.290895
0.147561 0.097693 0.290836
0.149416 0.097976 0.291247
0.151175 0.098190 0.291436
0.152654 0.098220 0.291058
0.154480 0.098471 0.291313
0.156652 0.098935 0.292173
-0.045644 0.028622 0.083944
-0.044952 0.028441 0.083554
-0.044827 0.028619 0.084210
-0.044104 0.028678 0.084635
-0.041714 0.032902 0.098887
-0.041364 0.032996 0.099226
-0.041414 0.033415 0.100539
-0.041667 0.034010 0.102380
-0.041208 0.034030 0.102491
-0.040805 0.034098 0.102741
-0.040637 0.034366 0.103592
-0.040140 0.034360 0.103614
-0.040492 0.035088 0.105850
-0.040361 0.035411 0.106860
-0.040747 0.036202 0.109281
-0.040792 0.036706 0.110837
-0.040425 0.036848 0.111297
-0.040649 0.037539 0.113413
-0.040313 0.037725 0.114000
-0.061148 0.066017 0.199770
-0.059657 0.066450 0.201098
-0.058736 0.066479 0.201189
-0.058037 0.066764 0.202056
-0.057206 0.066903 0.202478
-0.056357 0.067028 0.202852
-0.055593 0.067258 0.203547
-0.055002 0.067710 0.204908
-0.054255 0.067982 0.205723
-0.053461 0.068204 0.206385
-0.052658 0.068424 0.207038
-0.051875 0.068678 0.207794
-0.051113 0.068970 0.208662
-0.050365 0.069292 0.209620
-0.049526 0.069500 0.210230
-0.048912 0.070038 0.211839
-0.048183 0.070432 0.213008
-0.047361 0.070703 0.213805
-0.046532 0.070975 0.214606
-0.045797 0.071406 0.215884
-0.044951 0.071679 0.216682
-0.044232 0.072173 0.218149
-0.043486 0.072646 0.219550
-0.054790 0.093761 0.283329
-0.053502 0.093846 0.283547
-0.052243 0.093987 0.283933
-0.050800 0.093797 0.283321
-0.049736 0.094313 0.284841
-0.048501 0.094526 0.285444
-0.047399 0.095019 0.286890
-0.046057 0.095045 0.286929
-0.044639 0.094911 0.286483
-0.043406 0.095173 0.287231
-0.042055 0.095188 0.287234
-0.040393 0.094473 0.285037
-0.038240 0.092525 0.279118
-0.038099 0.095477 0.287982
-0.036763 0.095541 0.288135
-0.034882 0.094143 0.283878
-0.033882 0.095104 0.286736
-0.032546 0.095162 0.286871
-0.029928 0.091315 0.275237
-0.028393 0.090573 0.272966
-0.026975 0.090152 0.271660
-0.025668 0.090077 0.271400
-0.024393 0.090114 0.271477
-0.023318 0.090932 0.273909
-0.022031 0.090974 0.274002
-0.020639 0.090564 0.272736
-0.019340 0.090531 0.272607
-0.018064 0.090607 0.272805
-0.016615 0.089763 0.270238
-0.015213 0.089051 0.268065
-0.013817 0.088250 0.265631
-0.012482 0.087717 0.264001
-0.011089 0.086616 0.260667
-0.009774 0.085922 0.258556
-0.008535 0.085783 0.258116
-0.007285 0.085481 0.257189
-0.006061 0.085426 0.257008
-0.004846 0.085496 0.257201
-0.003641 0.085862 0.258286
-0.002414 0.085819 0.258143
-0.001192 0.085994 0.258657
0.000036 0.086926 0.261450
0.001285 0.087501 0.263168
0.002539 0.087658 0.263630
0.003804 0.087964 0.264544
0.005103 0.088723 0.266820
0.006369 0.088709 0.266774
0.007530 0.087479 0.263070
0.008753 0.087222 0.262296
0.009989 0.087141 0.262048
0.011137 0.086393 0.259801
0.012330 0.086107 0.258940
0.013570 0.086173 0.259142
0.014821 0.086292 0.259503
0.016034 0.086188 0.259193
0.017283 0.086277 0.259466
0.018591 0.086630 0.260535
0.019918 0.087024 0.261727
0.021262 0.087438 0.262981
0.022517 0.087459 0.263054
0.023774 0.087487 0.263149
0.025059 0.087612 0.263533
0.026141 0.087045 0.261841
0.027387 0.087052 0.261875
0.028403 0.086360 0.259805
0.029511 0.085992 0.258710
0.030540 0.085434 0.257045
0.031807 0.085559 0.257437
0.033186 0.085963 0.258666
0.034537 0.086269 0.259603
0.035958 0.086722 0.260980
0.037315 0.086997 0.261825
0.038781 0.087497 0.263347
0.040240 0.087953 0.264736
0.041323 0.087584 0.263639
0.042581 0.087597 0.263695
0.043706 0.087341 0.262941
0.044175 0.085828 0.258399
0.044821 0.084728 0.255102
0.045579 0.083893 0.252603
0.046439 0.083284 0.250784
0.047455 0.082978 0.249875
0.048806 0.083260 0.250733
0.050139 0.083495 0.251455
0.051429 0.083652 0.251937
0.052846 0.084003 0.253003
0.054308 0.084408 0.254230
0.055720 0.084719 0.255174
0.057701 0.085863 0.258627
0.059691 0.086973 0.261974
0.061440 0.087692 0.264144
0.062996 0.088114 0.265415
0.064618 0.088610 0.266909
0.066217 0.089055 0.268245
0.067684 0.089310 0.269009
0.068979 0.089331 0.269065
0.070228 0.089294 0.268943
0.071536 0.089331 0.269044
0.072151 0.088518 0.266579
0.072809 0.087783 0.264349
0.073967 0.087667 0.263979
0.074416 0.086728 0.261129
0.074962 0.085930 0.258699
0.076026 0.085742 0.258106
0.076784 0.085221 0.256506
0.077800 0.084998 0.255799
0.078885 0.084856 0.255332
0.080046 0.084799 0.255117
0.081260 0.084799 0.255069
0.082187 0.084503 0.254129
0.083387 0.084492 0.254042
0.084367 0.084262 0.253289
0.097352 0.095860 0.288079
0.098616 0.095754 0.287683
0.099238 0.095036 0.285442
0.101206 0.095609 0.287072
0.102981 0.095986 0.288109
0.104261 0.095899 0.287745
0.105421 0.095704 0.287051
0.106978 0.095869 0.287433
0.108252 0.095781 0.287045
0.109783 0.095920 0.287331
0.111223 0.095976 0.287360
0.112848 0.096188 0.287851
0.114378 0.096315 0.288077
0.115862 0.096401 0.288171
0.117346 0.096485 0.288250
0.118683 0.096446 0.287955
0.120334 0.096662 0.288408
0.121825 0.096745 0.288457
0.123195 0.096730 0.288204
0.124646 0.096780 0.288131
0.126127 0.096851 0.288112
0.127538 0.096867 0.287918
0.129046 0.096955 0.287927
0.130766 0.097199 0.288385
0.132494 0.097444 0.288833
0.134153 0.097634 0.289102
0.135551 0.097631 0.288788
0.136924 0.097610 0.288408
0.138653 0.097842 0.288758
0.140153 0.097908 0.288603
0.142043 0.098242 0.289223
0.144128 0.098704 0.290198
0.146054 0.099048 0.290808
0.147488 0.099055 0.290410
0.149351 0.099347 0.290828
0.151124 0.099575 0.291035
0.152724 0.099685 0.290878
0.154644 0.100000 0.291297
0.156696 0.100393 0.291919
-0.045334 0.028834 0.083284
-0.045015 0.028889 0.083583
-0.044737 0.028970 0.083956
-0.044544 0.029110 0.084491
-0.044502 0.029351 0.085319
-0.041065 0.032854 0.097302
-0.041359 0.033465 0.099170
-0.042562 0.034833 0.103282
-0.042106 0.034860 0.103416
-0.041616 0.034859 0.103464
-0.041425 0.035112 0.104263
-0.040982 0.035154 0.104436
-0.040813 0.035435 0.105314
-0.040469 0.035570 0.105756
-0.040883 0.036382 0.108210
-0.041203 0.037131 0.110473
-0.040731 0.037176 0.110643
-0.040328 0.037286 0.111002
-0.043497 0.040744 0.121331
-0.042815 0.040639 0.121048
-0.062386 0.066280 0.197687
-0.061435 0.066258 0.197637
-0.060711 0.066484 0.198328
-0.060254 0.067013 0.199918
-0.059567 0.067300 0.200785
-0.058734 0.067429 0.201178
-0.057951 0.067619 0.201752
-0.057191 0.067844 0.202424
-0.056414 0.068057 0.203060
-0.055777 0.068448 0.204225
-0.055032 0.068717 0.205026
-0.054237 0.068933 0.205665
-0.053454 0.069173 0.206372
-0.052661 0.069407 0.207062
-0.051860 0.069642 0.207751
-0.051084 0.069918 0.208562
-0.050200 0.070055 0.208955
-0.049364 0.070265 0.209566
-0.048720 0.070764 0.211038
-0.047966 0.071119 0.212077
-0.047113 0.071341 0.212719
-0.046417 0.071815 0.214110
-0.045649 0.072196 0.215223
-0.044950 0.072706 0.216719
-0.044419 0.073517 0.219113
-0.043426 0.073585 0.219289
-0.054910 0.095315 0.284012
-0.053619 0.095400 0.284231
-0.052389 0.095602 0.284797
-0.051097 0.095699 0.285047
-0.049837 0.095862 0.285497
-0.048480 0.095842 0.285399
-0.047247 0.096074 0.286052
-0.045985 0.096259 0.286562
-0.044537 0.096053 0.285911
-0.043232 0.096154 0.286171
-0.041944 0.096299 0.286563
-0.040466 0.096006 0.285651
-0.038170 0.093682 0.278700
-0.036699 0.096747 0.287740
-0.034579 0.094666 0.281514
-0.033211 0.094561 0.281162
-0.031603 0.093736 0.278673
-0.029874 0.092465 0.274859
-0.028342 0.091714 0.272590
-0.026926 0.091286 0.271286
-0.025621 0.091210 0.271026
-0.024348 0.091247 0.271102
-0.023071 0.091269 0.271136
-0.021802 0.091329 0.271283
-0.020563 0.091534 0.271862
-0.019226 0.091295 0.271124
-0.017955 0.091363 0.271296
-0.016613 0.091050 0.270341
-0.015182 0.090159 0.267670
-0.013766 0.089204 0.264809
-0.012469 0.088905 0.263898
-0.011064 0.087680 0.260239
-0.009743 0.086895 0.257890
-0.008519 0.086884 0.257837
-0.007273 0.086605 0.256990
-0.006052 0.086570 0.256869
-0.004844 0.086750 0.257389
-0.003635 0.087035 0.258218
-0.002410 0.087016 0.258148
-0.001189 0.087288 0.258943
0.000040 0.087985 0.261000
0.001288 0.088653 0.262970
0.002539 0.088769 0.263305
0.003790 0.088801 0.263393
0.005083 0.089572 0.265673
0.006370 0.089936 0.266746
0.007525 0.088633 0.262878
0.008758 0.088478 0.262414
0.009995 0.088407 0.262202
0.011141 0.087633 0.259906
0.012343 0.087405 0.259230
0.013580 0.087444 0.259348
0.014833 0.087572 0.259728
0.016050 0.087488 0.259484
0.017295 0.087550 0.259673
0.018589 0.087841 0.260542
0.019877 0.088066 0.261216
0.021195 0.088391 0.262185
0.022452 0.088438 0.262334
0.023760 0.088671 0.263032
0.024906 0.088307 0.261963
0.025981 0.087734 0.260275
0.027088 0.087319 0.259053
0.028191 0.086928 0.257904
0.029228 0.086372 0.256268
0.030232 0.085769 0.254491
0.031404 0.085671 0.254212
0.032702 0.085909 0.254931
0.034017 0.086173 0.255728
0.035431 0.086663 0.257195
0.036848 0.087125 0.258580
0.038282 0.087597 0.259996
0.039719 0.088045 0.261340
0.040923 0.087967 0.261121
0.042312 0.088276 0.262054
0.043589 0.088343 0.262266
0.044252 0.087197 0.258876
0.044735 0.085766 0.254641
0.045659 0.085234 0.253073
0.046556 0.084680 0.251439
0.047478 0.084198 0.250018
0.048690 0.084241 0.250156
0.050138 0.084680 0.251468
0.051398 0.084789 0.251798
0.052720 0.084993 0.252412
0.054239 0.085498 0.253918
0.055596 0.085731 0.254614
0.057401 0.086630 0.257286
0.059414 0.087799 0.260759
0.061465 0.088976 0.264255
0.063067 0.089468 0.265715
0.064626 0.089880 0.266936
0.066194 0.090290 0.268147
0.067552 0.090403 0.268474
0.068598 0.090101 0.267568
0.069844 0.090068 0.267457
0.070867 0.089755 0.266511
0.071302 0.088720 0.263420
0.072279 0.088384 0.262403
0.073134 0.087912 0.260979
0.073802 0.087234 0.258941
0.074158 0.086217 0.255892
0.074999 0.085787 0.254584
0.076001 0.085552 0.253850
0.076876 0.085183 0.252717
0.078396 0.085529 0.253701
0.079955 0.085907 0.254777
0.081573 0.086336 0.255998
0.083179 0.086740 0.257139
0.084165 0.086494 0.256350
0.086002 0.087118 0.258135
0.095956 0.095829 0.283872
0.097204 0.095725 0.283482
0.099117 0.096270 0.285008
0.101591 0.097338 0.288073
0.102933 0.097306 0.287878
0.104250 0.097253 0.287613
0.105580 0.097212 0.287378
0.107127 0.097370 0.287725
0.108280 0.097170 0.287006
0.109873 0.097365 0.287446
0.111495 0.097580 0.287938
0.112675 0.097408 0.287279
0.114559 0.097841 0.288396
0.115969 0.097863 0.288295
0.117393 0.097896 0.288216
0.118986 0.098069 0.288536
0.120327 0.098031 0.288231
0.121843 0.098136 0.288332
0.123356 0.098236 0.288409
0.124738 0.098229 0.288164
0.126196 0.098283 0.288084
0.127736 0.098399 0.288173
0.129303 0.098532 0.288302
0.131182 0.098897 0.289096
0.132625 0.098930 0.288905
0.134170 0.099036 0.288918
0.135668 0.099106 0.288808
0.136918 0.098996 0.288159
0.138566 0.099172 0.288330
0.140852 0.099797 0.289788
0.142378 0.099876 0.289641
0.144299 0.100228 0.290269
0.145901 0.100353 0.290220
0.147552 0.100509 0.290243
0.149345 0.100758 0.290515
0.151441 0.101204 0.291332
0.152851 0.101188 0.290795
0.154303 0.101200 0.290319
0.156327 0.101582 0.290883
-0.045231 0.029175 0.083001
-0.044904 0.029224 0.083285
-0.044639 0.029315 0.083684
-0.044716 0.029634 0.084730
-0.045189 0.030224 0.086549
-0.041327 0.033530 0.097875
-0.040760 0.033445 0.097687
-0.041441 0.034394 0.100516
-0.042097 0.035345 0.103350
-0.041342 0.035118 0.102742
-0.041141 0.035363 0.103507
-0.040942 0.035616 0.104294
-0.040159 0.035360 0.103589
-0.040595 0.036185 0.106050
-0.040569 0.036613 0.107345
-0.041510 0.037936 0.111263
-0.040881 0.037839 0.111017
-0.043414 0.040705 0.119462
-0.043351 0.041180 0.120892
-0.042830 0.041227 0.121062
-0.063014 0.066894 0.196693
-0.062235 0.067052 0.197182
-0.061505 0.067270 0.197843
-0.060738 0.067452 0.198398
-0.060141 0.067832 0.199529
-0.059401 0.068060 0.200213
-0.058612 0.068239 0.200750
-0.057840 0.068443 0.201360
-0.057080 0.068669 0.202029
-0.056362 0.068954 0.202872
-0.055548 0.069129 0.203387
-0.054887 0.069504 0.204490
-0.054072 0.069695 0.205048
-0.053240 0.069869 0.205556
-0.052397 0.070036 0.206040
-0.051551 0.070204 0.206525
-0.050722 0.070403 0.207099
-0.050103 0.070908 0.208574
-0.049359 0.071252 0.209570
-0.048525 0.071476 0.210216
-0.047831 0.071923 0.211512
-0.046977 0.072141 0.212136
-0.046224 0.072526 0.213250
-0.045493 0.072966 0.214523
-0.044860 0.073586 0.216323
-0.043994 0.073843 0.217056
-0.055907 0.096075 0.282373
-0.054625 0.096161 0.282595
-0.053734 0.096958 0.284904
-0.052324 0.096835 0.284510
-0.051182 0.097215 0.285591
-0.049829 0.097202 0.285518
-0.048386 0.097009 0.284917
-0.047194 0.097325 0.285808
-0.045867 0.097372 0.285909
-0.044447 0.097216 0.285414
-0.043178 0.097394 0.285899
-0.041859 0.097467 0.286077
-0.040423 0.097262 0.285437
-0.038563 0.095987 0.281660
-0.034170 0.094876 0.278291
-0.032648 0.094279 0.276505
-0.031124 0.093625 0.274550
-0.029169 0.091562 0.268470
-0.027856 0.091423 0.268028
-0.026418 0.090835 0.266271
-0.025099 0.090621 0.265613
-0.023820 0.090536 0.265334
-0.022588 0.090631 0.265582
-0.021326 0.090610 0.265490
-0.020220 0.091288 0.267450
-0.018950 0.091273 0.267378
-0.017707 0.091388 0.267688
-0.016444 0.091415 0.267740
-0.015118 0.091067 0.266695
-0.013755 0.090408 0.264742
-0.012375 0.089503 0.262070
-0.011015 0.088547 0.259249
-0.009724 0.087980 0.257570
-0.008456 0.087497 0.256135
-0.007222 0.087254 0.255407
-0.006015 0.087303 0.255534
-0.004812 0.087461 0.255979
-0.003605 0.087628 0.256454
-0.002394 0.087786 0.256904
-0.001180 0.088146 0.257945
0.000043 0.088580 0.259204
0.001284 0.089376 0.261523
0.002543 0.090033 0.263434
0.003783 0.089795 0.262732
0.005083 0.090769 0.265572
0.006379 0.091275 0.267049
0.007534 0.089936 0.263127
0.008737 0.089469 0.261756
0.009986 0.089534 0.261943
0.011142 0.088842 0.259919
0.012305 0.088337 0.258440
0.013558 0.088508 0.258943
0.014795 0.088556 0.259084
0.016003 0.088435 0.258733
0.017230 0.088430 0.258722
0.018502 0.088641 0.259342
0.019811 0.088990 0.260369
0.021220 0.089725 0.262526
0.022463 0.089713 0.262498
0.023803 0.090065 0.263536
0.024954 0.089707 0.262497
0.026031 0.089128 0.260812
0.026946 0.088071 0.257728
0.028165 0.088060 0.257705
0.029179 0.087431 0.255876
0.030228 0.086954 0.254491
0.031358 0.086739 0.253873
0.032580 0.086783 0.254013
0.033863 0.086980 0.254600
0.035178 0.087245 0.255388
0.036518 0.087551 0.256295
0.037993 0.088150 0.258062
0.039356 0.088461 0.258983
0.040588 0.088466 0.259011
0.042188 0.089250 0.261318
0.043462 0.089318 0.261527
0.044319 0.088549 0.259288
0.045031 0.087542 0.256348
0.045577 0.086270 0.252635
0.046550 0.085852 0.251420
0.047632 0.085652 0.250841
0.048576 0.085219 0.249580
0.049972 0.085582 0.250649
0.051464 0.086086 0.252131
0.052846 0.086389 0.253023
0.054214 0.086655 0.253805
0.055844 0.087319 0.255753
0.057512 0.088013 0.257784
0.059466 0.089107 0.260990
0.061392 0.090115 0.263938
0.062910 0.090495 0.265046
0.064613 0.091122 0.266876
0.066064 0.091374 0.267606
0.067574 0.091699 0.268546
0.068704 0.091504 0.267962
0.069838 0.091323 0.267415
0.070970 0.091145 0.266874
0.071111 0.089723 0.262690
0.072043 0.089330 0.261517
0.073298 0.089344 0.261530
0.073263 0.087812 0.257017
0.074086 0.087341 0.255606
0.074761 0.086714 0.253736
0.075933 0.086674 0.253581
0.076991 0.086507 0.253048
0.078136 0.086441 0.252811
0.079765 0.086905 0.254118
0.081143 0.087085 0.254590
0.082685 0.087433 0.255548
0.083809 0.087336 0.255201
0.085189 0.087504 0.255623
0.087705 0.088817 0.259387
0.098994 0.098856 0.288615
0.099139 0.097642 0.284980
0.101056 0.098183 0.286459
0.102731 0.098478 0.287214
0.104128 0.098501 0.287170
0.105455 0.098459 0.286928
0.106755 0.098392 0.286608
0.108336 0.098583 0.287032
0.109935 0.098786 0.287481
0.110975 0.098487 0.286462
0.112939 0.099005 0.287812
0.114359 0.099040 0.287748
0.115931 0.099203 0.288050
0.117385 0.099263 0.288041
0.118767 0.099262 0.287845
0.120353 0.099428 0.288125
0.121668 0.099371 0.287746
0.123241 0.099522 0.287960
0.124603 0.099500 0.287665
0.126055 0.099551 0.287567
0.127546 0.099631 0.287543
0.128896 0.099600 0.287188
0.130858 0.100037 0.288168
0.131883 0.099757 0.287068
0.134402 0.100600 0.289185
0.135737 0.100548 0.288716
0.137385 0.100728 0.288894
0.139074 0.100933 0.289131
0.140772 0.101140 0.289358
0.142396 0.101291 0.289404
0.144212 0.101573 0.289809
0.145949 0.101795 0.290023
0.147689 0.102014 0.290209
0.149694 0.102411 0.290877
0.151613 0.102741 0.291337
0.152905 0.102645 0.290563
0.154646 0.102848 0.290616
0.156513 0.103130 0.290869
-0.045209 0.029566 0.082864
-0.045002 0.029695 0.083373
-0.044947 0.029928 0.084169
-0.044906 0.030174 0.085000
-0.044863 0.030423 0.085837
-0.044549 0.030493 0.086161
-0.041291 0.033967 0.097740
-0.040419 0.033627 0.096822
-0.040672 0.034226 0.098606
-0.041788 0.035573 0.102544
-0.041024 0.035333 0.101907
-0.040983 0.035717 0.103067
-0.040554 0.035769 0.103264
-0.040952 0.036560 0.105597
-0.042302 0.038231 0.110470
-0.041827 0.038274 0.110636
-0.041389 0.038352 0.110904
-0.040774 0.038266 0.110692
-0.044348 0.042159 0.121996
-0.043821 0.042207 0.122170
-0.063187 0.068013 0.197207
-0.062428 0.068198 0.197771
-0.061656 0.068374 0.198305
-0.060700 0.068348 0.198252
-0.060018 0.068636 0.199104
-0.059369 0.068970 0.200091
-0.058614 0.069192 0.200746
-0.057793 0.069340 0.201187
-0.057065 0.069608 0.201971
-0.056305 0.069844 0.202661
-0.055542 0.070084 0.203363
-0.054701 0.070234 0.203799
-0.053842 0.070365 0.204177
-0.053114 0.070675 0.205076
-0.052259 0.070825 0.205506
-0.051403 0.070978 0.205944
-0.050671 0.071312 0.206905
-0.049993 0.071738 0.208129
-0.049249 0.072083 0.209120
-0.048458 0.072373 0.209948
-0.047711 0.072741 0.211003
-0.046887 0.073006 0.211755
-0.046134 0.073395 0.212867
-0.045502 0.073998 0.214596
-0.044728 0.074394 0.215724
-0.044552 0.075824 0.219852
-0.056048 0.097660 0.283137
-0.054762 0.097747 0.283359
-0.053563 0.097996 0.284052
-0.052279 0.098102 0.284327
-0.050980 0.098182 0.284526
-0.049739 0.098382 0.285073
-0.048426 0.098445 0.285224
-0.047105 0.098497 0.285340
-0.045859 0.098713 0.285930
-0.044475 0.098637 0.285674
-0.043145 0.098680 0.285765
-0.041875 0.098866 0.286267
-0.039965 0.097504 0.282289
-0.038115 0.096199 0.278476
-0.034661 0.097584 0.282384
-0.033095 0.096907 0.280390
-0.031789 0.096964 0.280521
-0.029039 0.092433 0.267381
-0.028032 0.093287 0.269820
-0.026382 0.091984 0.266021
-0.024938 0.091302 0.264016
-0.023600 0.090960 0.262999
-0.022357 0.090964 0.262983
-0.021116 0.090977 0.262993
-0.019928 0.091238 0.263720
-0.018690 0.091288 0.263838
-0.017460 0.091383 0.264086
-0.016216 0.091421 0.264172
-0.014951 0.091333 0.263893
-0.013645 0.090955 0.262777
-0.012334 0.090467 0.261345
-0.010991 0.089612 0.258855
-0.009697 0.088990 0.257040
-0.008456 0.088745 0.256312
-0.007220 0.088481 0.255533
-0.006004 0.088403 0.255292
-0.004806 0.088634 0.255943
-0.003604 0.088896 0.256684
-0.002387 0.088889 0.256651
-0.001174 0.089154 0.257403
0.000047 0.089877 0.259480
0.001284 0.090369 0.260890
0.002543 0.091149 0.263132
0.003782 0.090931 0.262496
0.005071 0.091742 0.264828
0.006351 0.092079 0.265795
0.007518 0.090943 0.262512
0.008727 0.090572 0.261437
0.009966 0.090557 0.261391
0.011123 0.089887 0.259456
0.012289 0.089419 0.258103
0.013509 0.089390 0.258019
0.014761 0.089558 0.258506
0.015975 0.089487 0.258303
0.017163 0.089289 0.257733
0.018478 0.089736 0.259026
0.019794 0.090134 0.260180
0.021204 0.090886 0.262356
0.022538 0.091244 0.263397
0.023880 0.091598 0.264426
0.025001 0.091110 0.263023
0.026197 0.090928 0.262506
0.027245 0.090273 0.260622
0.028286 0.089652 0.258838
0.029366 0.089201 0.257545
0.030411 0.088683 0.256060
0.031497 0.088321 0.255023
0.032680 0.088246 0.254817
0.033881 0.088225 0.254766
0.035172 0.088431 0.255372
0.036506 0.088727 0.256238
0.037761 0.088818 0.256509
0.039040 0.088959 0.256928
0.040467 0.089416 0.258258
0.041827 0.089705 0.259100
0.043414 0.090449 0.261258
0.044298 0.089727 0.259183
0.045135 0.088953 0.256954
0.046093 0.088451 0.255511
0.046769 0.087448 0.252620
0.047707 0.086970 0.251247
0.048898 0.086967 0.251244
0.050151 0.087073 0.251554
0.051546 0.087414 0.252540
0.052978 0.087799 0.253657
0.054406 0.088162 0.254704
0.055842 0.088522 0.255745
0.057651 0.089444 0.258405
0.059574 0.090502 0.261459
0.061170 0.091029 0.262974
0.062882 0.091704 0.264917
0.064343 0.091994 0.265747
0.065832 0.092312 0.266653
0.067374 0.092691 0.267733
0.068667 0.092719 0.267798
0.070093 0.092922 0.268365
0.071321 0.092861 0.268167
0.072221 0.092382 0.266757
0.073027 0.091802 0.265054
0.074067 0.091529 0.264237
0.074641 0.090700 0.261810
0.074433 0.088963 0.256761
0.075203 0.088432 0.255190
0.076522 0.088554 0.255498
0.077563 0.088355 0.254878
0.078987 0.088591 0.255509
0.080530 0.088951 0.256492
0.082537 0.089806 0.258899
0.084042 0.090097 0.259673
0.085370 0.090193 0.259881
0.086988 0.090587 0.260945
0.096014 0.098577 0.283873
0.097265 0.098473 0.283483
0.099371 0.099224 0.285548
0.100971 0.099458 0.286117
0.102509 0.099624 0.286485
0.103889 0.099635 0.286399
0.105231 0.099609 0.286200
0.107572 0.100517 0.288680
0.108052 0.099685 0.286153
0.109622 0.099868 0.286531
0.111514 0.100334 0.287715
0.112912 0.100351 0.287601
0.114576 0.100601 0.288144
0.115989 0.100626 0.288038
0.117334 0.100593 0.287754
0.118848 0.100704 0.287873
0.120208 0.100683 0.287604
0.121943 0.100973 0.288215
0.123173 0.100843 0.287613
0.124757 0.101001 0.287826
0.126361 0.101173 0.288064
0.127623 0.101071 0.287510
0.129240 0.101248 0.287738
0.130922 0.101471 0.288084
0.132666 0.101737 0.288539
0.134410 0.101998 0.288962
0.135933 0.102087 0.288884
0.137532 0.102231 0.288947
0.139146 0.102382 0.289015
0.140805 0.102564 0.289151
0.142359 0.102666 0.289045
0.144020 0.102841 0.289129
0.145989 0.103232 0.289798
0.147792 0.103498 0.290096
0.149718 0.103844 0.290598
0.151636 0.104179 0.291043
0.153370 0.104381 0.291096
0.155050 0.104544 0.291015
0.156488 0.104541 0.290450
-0.045346 0.030063 0.083015
-0.045004 0.030104 0.083280
-0.044963 0.030350 0.084105
-0.044782 0.030504 0.084673
-0.044751 0.030764 0.085532
-0.044715 0.031026 0.086394
-0.040524 0.033793 0.095872
-0.040349 0.034029 0.096604
-0.042245 0.036037 0.102367
-0.042112 0.036341 0.103291
-0.041626 0.036343 0.103354
-0.041287 0.036477 0.103787
-0.040961 0.036624 0.104258
-0.040471 0.036626 0.104313
-0.040451 0.037060 0.105594
-0.041784 0.038759 0.110483
-0.064554 0.068427 0.195619
-0.063812 0.068620 0.196208
-0.063019 0.068763 0.196648
-0.062303 0.068995 0.197342
-0.061633 0.069287 0.198205
-0.060746 0.069340 0.198379
-0.060044 0.069609 0.199169
-0.059376 0.069927 0.200098
-0.058564 0.070082 0.200556
-0.057850 0.070362 0.201373
-0.057036 0.070527 0.201855
-0.056267 0.070756 0.202518
-0.055388 0.070850 0.202795
-0.054547 0.070998 0.203221
-0.053754 0.071215 0.203843
-0.052905 0.071364 0.204269
-0.052066 0.071533 0.204752
-0.051229 0.071710 0.205256
-0.050404 0.071912 0.205827
-0.049933 0.072636 0.207893
-0.049058 0.072791 0.208327
-0.048314 0.073150 0.209343
-0.047534 0.073468 0.210240
-0.046717 0.073741 0.211010
-0.045932 0.074078 0.211959
-0.045330 0.074733 0.213818
-0.045163 0.076149 0.217850
-0.044483 0.076748 0.219545
-0.056104 0.099103 0.283467
-0.054768 0.099103 0.283443
-0.053486 0.099203 0.283700
-0.052209 0.099319 0.284002
-0.050896 0.099370 0.284118
-0.049630 0.099517 0.284510
-0.048322 0.099587 0.284679
-0.046952 0.099529 0.284482
-0.045711 0.099752 0.285085
-0.044387 0.099798 0.285184
-0.043010 0.099727 0.284949
-0.041717 0.099851 0.285272
-0.040122 0.099237 0.283483
-0.038239 0.097843 0.279469
-0.034759 0.099213 0.283282
-0.033248 0.098700 0.281785
-0.031935 0.098758 0.281917
-0.028799 0.092936 0.265268
-0.027976 0.094390 0.269388
-0.026106 0.092282 0.263343
-0.024742 0.091840 0.262055
-0.023593 0.092193 0.263033
-0.022334 0.092128 0.262820
-0.021079 0.092079 0.262652
-0.019980 0.092747 0.264531
-0.018692 0.092566 0.263990
-0.017431 0.092503 0.263787
-0.016200 0.092602 0.264044
-0.014952 0.092615 0.264059
-0.013643 0.092212 0.262886
-0.012275 0.091300 0.260265
-0.010978 0.090765 0.258722
-0.009681 0.090095 0.256791
-0.008425 0.089670 0.255562
-0.007195 0.089423 0.254842
-0.005981 0.089332 0.254567
-0.004780 0.089428 0.254825
-0.003591 0.089891 0.256130
-0.002378 0.089902 0.256149
-0.001167 0.090112 0.256735
0.000051 0.090834 0.258781
0.001288 0.091593 0.260931
0.002545 0.092325 0.263009
0.003791 0.092308 0.262950
0.005067 0.092847 0.264480
0.006348 0.093238 0.265585
0.007545 0.092474 0.263405
0.008724 0.091737 0.261301
0.009951 0.091629 0.260990
0.011126 0.091117 0.259530
0.012283 0.090567 0.257962
0.013492 0.090472 0.257691
0.014731 0.090573 0.257978
0.015977 0.090699 0.258339
0.017204 0.090710 0.258372
0.018497 0.091040 0.259313
0.019850 0.091605 0.260926
0.021277 0.092427 0.263273
0.022637 0.092884 0.264580
0.024023 0.093392 0.266032
0.025167 0.092956 0.264795
0.026240 0.092310 0.262963
0.027383 0.091959 0.261969
0.028388 0.091193 0.259796
0.029303 0.090215 0.257017
0.030365 0.089749 0.255696
0.031567 0.089719 0.255620
0.032787 0.089738 0.255682
0.033964 0.089641 0.255414
0.035216 0.089745 0.255718
0.036500 0.089916 0.256215
0.037799 0.090115 0.256788
0.039056 0.090204 0.257050
0.040366 0.090406 0.257633
0.041737 0.090729 0.258563
0.043212 0.091252 0.260059
0.044499 0.091360 0.260376
0.045367 0.090626 0.258288
0.046136 0.089738 0.255762
0.047164 0.089385 0.254761
0.047979 0.088657 0.252689
0.048971 0.088283 0.251627
0.050198 0.088340 0.251790
0.051558 0.088624 0.252602
0.052855 0.088787 0.253066
0.054353 0.089276 0.254457
0.055893 0.089809 0.255973
0.057383 0.090241 0.257200
0.059484 0.091595 0.261052
0.061454 0.092697 0.264182
0.062872 0.092939 0.264863
0.064350 0.093258 0.265759
0.065832 0.093569 0.266631
0.067251 0.093782 0.267220
0.068659 0.093971 0.267739
0.069888 0.093914 0.267553
0.071269 0.094058 0.267938
0.072351 0.093810 0.267204
0.073166 0.093229 0.265518
0.074399 0.093192 0.265378
0.075248 0.092684 0.263895
0.075376 0.091318 0.259966
0.075706 0.090237 0.256845
0.077132 0.090476 0.257479
0.078351 0.090470 0.257409
0.079442 0.090316 0.256917
0.081483 0.091232 0.259464
0.083498 0.092091 0.261843
0.085602 0.093021 0.264420
0.086749 0.092900 0.264001
0.088292 0.093200 0.264775
0.096995 0.100943 0.286681
0.098261 0.100838 0.286287
0.099535 0.100744 0.285917
0.101233 0.101076 0.286751
0.102674 0.101146 0.286834
0.103962 0.101065 0.286483
0.105844 0.101556 0.287745
0.106804 0.101162 0.286491
0.108908 0.101846 0.288285
0.110128 0.101697 0.287712
0.111375 0.101577 0.287210
0.113066 0.101859 0.287841
0.114494 0.101900 0.287780
0.116255 0.102234 0.288535
0.117373 0.101999 0.287679
0.118796 0.102034 0.287571
0.120343 0.102171 0.287744
0.121640 0.102096 0.287308
0.123532 0.102517 0.288256
0.124810 0.102423 0.287746
0.126319 0.102520 0.287759
0.128142 0.102866 0.288460
0.129454 0.102799 0.287989
0.131250 0.103113 0.288572
0.132798 0.103228 0.288584
0.134389 0.103374 0.288667
0.136111 0.103615 0.289004
0.137680 0.103737 0.288990
0.139757 0.104235 0.290006
0.141386 0.104392 0.290057
0.142875 0.104444 0.289797
0.144460 0.104563 0.289707
0.146290 0.104856 0.290078
0.148136 0.105155 0.290445
0.149897 0.105387 0.290607
0.151829 0.105735 0.291063
0.153416 0.105837 0.290821
0.155177 0.106057 0.290878
0.156724 0.106127 0.290502
-0.044932 0.030192 0.082155
-0.044859 0.030414 0.082912
-0.044593 0.030507 0.083314
-0.044446 0.030685 0.083943
-0.044462 0.030979 0.084887
-0.044079 0.030999 0.085074
-0.043646 0.031278 0.086093
-0.045758 0.033106 0.091251
-0.040697 0.034397 0.096227
-0.040281 0.034432 0.096389
-0.040199 0.034756 0.097358
-0.041686 0.036461 0.102195
-0.041263 0.036514 0.102403
-0.040237 0.036030 0.101101
-0.040364 0.036579 0.102694
-0.040056 0.036742 0.103202
-0.039074 0.036283 0.101959
-0.064719 0.069531 0.196077
-0.063824 0.069563 0.196204
-0.063079 0.069761 0.196801
-0.062287 0.069912 0.197260
-0.061456 0.070024 0.197605
-0.060651 0.070170 0.198043
-0.059887 0.070367 0.198623
-0.059263 0.070740 0.199696
-0.058592 0.071066 0.200634
-0.057825 0.071285 0.201269
-0.057011 0.071452 0.201755
-0.056184 0.071608 0.202206
-0.055481 0.071931 0.203126
-0.054527 0.071935 0.203143
-0.053630 0.072014 0.203371
-0.052888 0.072309 0.204207
-0.051982 0.072386 0.204423
-0.051155 0.072577 0.204963
-0.050415 0.072903 0.205880
-0.049832 0.073473 0.207484
-0.049029 0.073736 0.208218
-0.048246 0.074039 0.209066
-0.047495 0.074404 0.210089
-0.046626 0.074597 0.210622
-0.045932 0.075085 0.211986
-0.045656 0.076292 0.215380
-0.045316 0.077445 0.218621
-0.057300 0.100203 0.282841
-0.056016 0.100291 0.283067
-0.054802 0.100511 0.283664
-0.053452 0.100487 0.283571
-0.052183 0.100616 0.283911
-0.050895 0.100717 0.284167
-0.049616 0.100841 0.284490
-0.048300 0.100896 0.284615
-0.046962 0.100904 0.284609
-0.045675 0.101028 0.284928
-0.044310 0.100981 0.284765
-0.043025 0.101117 0.285120
-0.041667 0.101089 0.285008
-0.039950 0.100155 0.282345
-0.038274 0.099267 0.279810
-0.038039 0.105973 0.298647
-0.034700 0.100394 0.282893
-0.033384 0.100453 0.283030
-0.028721 0.093947 0.264640
-0.027632 0.094500 0.266169
-0.026124 0.093605 0.263622
-0.024638 0.092703 0.261053
-0.023282 0.092221 0.259672
-0.022120 0.092493 0.260411
-0.020957 0.092800 0.261250
-0.019710 0.092745 0.261070
-0.018532 0.093032 0.261853
-0.017362 0.093402 0.262870
-0.016051 0.093012 0.261751
-0.014830 0.093119 0.262029
-0.013587 0.093100 0.261954
-0.012277 0.092574 0.260454
-0.010935 0.091655 0.257849
-0.009687 0.091401 0.257116
-0.008433 0.091009 0.255994
-0.007182 0.090523 0.254611
-0.005969 0.090416 0.254294
-0.004776 0.090626 0.254871
-0.003573 0.090739 0.255174
-0.002366 0.090786 0.255295
-0.001164 0.091384 0.256964
0.000054 0.091902 0.258409
0.001288 0.092570 0.260277
0.002534 0.093028 0.261556
0.003774 0.093040 0.261581
0.005057 0.093843 0.263831
0.006317 0.093983 0.264217
0.007523 0.093408 0.262594
0.008699 0.092673 0.260524
0.009905 0.092397 0.259745
0.011095 0.092053 0.258774
0.012213 0.091243 0.256497
0.013452 0.091396 0.256923
0.014660 0.091329 0.256735
0.015905 0.091488 0.257184
0.017136 0.091548 0.257352
0.018395 0.091739 0.257890
0.019748 0.092349 0.259609
0.021174 0.093205 0.262019
0.022554 0.093776 0.263627
0.023943 0.094320 0.265161
0.025071 0.093837 0.263808
0.026293 0.093731 0.263514
0.027371 0.093144 0.261871
0.028339 0.092252 0.259368
0.029382 0.091667 0.257730
0.030400 0.091056 0.256018
0.031510 0.090754 0.255176
0.032774 0.090902 0.255599
0.033976 0.090875 0.255529
0.035127 0.090715 0.255085
0.036446 0.090987 0.255857
0.037627 0.090907 0.255640
0.038869 0.090974 0.255834
0.040048 0.090897 0.255624
0.041337 0.091064 0.256098
0.042956 0.091929 0.258535
0.044093 0.091741 0.258012
0.045218 0.091541 0.257451
0.046226 0.091120 0.256270
0.047055 0.090375 0.254179
0.048179 0.090222 0.253748
0.049069 0.089647 0.252133
0.050258 0.089633 0.252092
0.051511 0.089732 0.252370
0.053088 0.090378 0.254182
0.054471 0.090671 0.255002
0.056228 0.091561 0.257498
0.057678 0.091924 0.258511
0.059288 0.092520 0.260177
0.061172 0.093511 0.262954
0.062825 0.094117 0.264644
0.064401 0.094585 0.265944
0.065964 0.095017 0.267140
0.067642 0.095596 0.268746
0.069082 0.095822 0.269358
0.070340 0.095792 0.269247
0.071951 0.096235 0.270464
0.073606 0.096719 0.271794
0.074033 0.095603 0.268621
0.075654 0.096039 0.269809
0.076755 0.095812 0.269130
0.076908 0.094427 0.265195
0.077974 0.094191 0.264485
0.079261 0.094225 0.264527
0.080270 0.093932 0.263649
0.081640 0.094063 0.263958
0.083511 0.094760 0.265849
0.085545 0.095617 0.268185
0.087444 0.096301 0.270027
0.089140 0.096744 0.271189
0.090039 0.096322 0.269922
0.097012 0.102319 0.286630
0.098280 0.102214 0.286235
0.100005 0.102582 0.287157
0.101335 0.102539 0.286925
0.102766 0.102598 0.286968
0.104066 0.102527 0.286643
0.105412 0.102502 0.286438
0.107023 0.102733 0.286941
0.108589 0.102914 0.287299
0.109976 0.102924 0.287168
0.111449 0.103013 0.287250
0.112895 0.103074 0.287247
0.114466 0.103246 0.287544
0.115842 0.103241 0.287338
0.117488 0.103474 0.287785
0.118754 0.103370 0.287284
0.120205 0.103428 0.287224
0.122124 0.103882 0.288254
0.123185 0.103605 0.287242
0.125233 0.104154 0.288509
0.126727 0.104235 0.288468
0.128179 0.104281 0.288316
0.129642 0.104334 0.288171
0.131023 0.104321 0.287832
0.132625 0.104482 0.287958
0.134197 0.104615 0.287995
0.135979 0.104908 0.288456
0.137688 0.105140 0.288731
0.139452 0.105408 0.289087
0.141399 0.105807 0.289786
0.143037 0.105970 0.289819
0.144773 0.106201 0.290017
0.146883 0.106699 0.290926
0.148513 0.106842 0.290844
0.150400 0.107165 0.291231
0.152106 0.107353 0.291229
0.153926 0.107619 0.291412
0.155501 0.107709 0.291097
0.156956 0.107715 0.290530
-0.044891 0.030567 0.081972
-0.044574 0.030624 0.082282
-0.044552 0.030887 0.083137
-0.044466 0.031109 0.083882
-0.044504 0.031423 0.084872
-0.044191 0.031493 0.085196
-0.043392 0.031512 0.085504
-0.042952 0.031491 0.085569
-0.039556 0.033880 0.093475
-0.039910 0.034571 0.095448
-0.039914 0.034971 0.096614
-0.042080 0.037297 0.103107
-0.041629 0.037331 0.103262
-0.041484 0.037643 0.104183
-0.040899 0.037559 0.104005
-0.040876 0.037996 0.105267
-0.040421 0.038036 0.105429
-0.065595 0.070409 0.195841
-0.064694 0.070434 0.195955
-0.064034 0.070725 0.196809
-0.063153 0.070777 0.196992
-0.062329 0.070895 0.197355
-0.061591 0.071116 0.198004
-0.060678 0.071140 0.198099
-0.060163 0.071638 0.199513
-0.059282 0.071708 0.199732
-0.058452 0.071844 0.200132
-0.057735 0.072126 0.200936
-0.056864 0.072221 0.201217
-0.056035 0.072374 0.201655
-0.055201 0.072526 0.202091
-0.054331 0.072635 0.202404
-0.053449 0.072731 0.202679
-0.052719 0.073042 0.203550
-0.051914 0.073259 0.204156
-0.051130 0.073514 0.204868
-0.050330 0.073755 0.205538
-0.049644 0.074176 0.206710
-0.048844 0.074439 0.207439
-0.048133 0.074854 0.208589
-0.047323 0.075126 0.209340
-0.046500 0.075391 0.210069
-0.045696 0.075698 0.210914
-0.045310 0.076728 0.213771
-0.045639 0.079042 0.220205
-0.057163 0.101303 0.282204
-0.055990 0.101586 0.282973
-0.054771 0.101800 0.283547
-0.053413 0.101758 0.283408
-0.052160 0.101920 0.283836
-0.050876 0.102028 0.284112
-0.049609 0.102179 0.284505
-0.048341 0.102334 0.284911
-0.046973 0.102280 0.284735
-0.045652 0.102331 0.284848
-0.044352 0.102431 0.285098
-0.042964 0.102329 0.284787
-0.041624 0.102338 0.284783
-0.040188 0.102104 0.284103
-0.038246 0.100526 0.279681
-0.039356 0.107142 0.298058
-0.037973 0.107209 0.298214
-0.034462 0.101043 0.281034
-0.033083 0.100887 0.280570
-0.031776 0.100944 0.280701
-0.028305 0.093833 0.260899
-0.027070 0.093826 0.260854
-0.026154 0.094976 0.264023
-0.024195 0.092262 0.256454
-0.022892 0.091897 0.255414
-0.021685 0.091901 0.255403
-0.020643 0.092644 0.257443
-0.019554 0.093254 0.259114
-0.018367 0.093449 0.259632
-0.017192 0.093737 0.260410
-0.016036 0.094186 0.261636
-0.014758 0.093930 0.260902
-0.013448 0.093401 0.259414
-0.012188 0.093155 0.258710
-0.010926 0.092840 0.257817
-0.009662 0.092414 0.256617
-0.008426 0.092182 0.255954
-0.007200 0.092010 0.255461
-0.005976 0.091788 0.254828
-0.004770 0.091788 0.254813
-0.003578 0.092171 0.255862
-0.002378 0.092619 0.257094
-0.001160 0.092641 0.257143
0.000058 0.093524 0.259583
0.001294 0.093976 0.260828
0.002534 0.094110 0.261190
0.003782 0.094383 0.261939
0.005048 0.094846 0.263217
0.006312 0.095100 0.263913
0.007501 0.094316 0.261732
0.008706 0.093940 0.260683
0.009893 0.093484 0.259414
0.011054 0.092906 0.257806
0.012251 0.092713 0.257269
0.013451 0.092578 0.256891
0.014689 0.092706 0.257246
0.015957 0.092988 0.258027
0.017136 0.092749 0.257364
0.018429 0.093116 0.258384
0.019831 0.093953 0.260709
0.021218 0.094624 0.262572
0.022501 0.094787 0.263026
0.023917 0.095457 0.264890
0.025125 0.095277 0.264393
0.026166 0.094505 0.262256
0.027272 0.094031 0.260944
0.028431 0.093773 0.260232
0.029403 0.092944 0.257937
0.030460 0.092437 0.256535
0.031610 0.092242 0.255999
0.032828 0.092254 0.256036
0.034035 0.092233 0.255983
0.035109 0.091867 0.254972
0.036367 0.091990 0.255317
0.037572 0.091975 0.255281
0.038740 0.091871 0.254998
0.040092 0.092200 0.255912
0.041199 0.091960 0.255251
0.042725 0.092644 0.257152
0.044111 0.092993 0.258122
0.044991 0.092287 0.256165
0.046287 0.092446 0.256608
0.047183 0.091821 0.254871
0.047957 0.090995 0.252577
0.049039 0.090778 0.251974
0.050199 0.090715 0.251795
0.051268 0.090491 0.251170
0.052784 0.091050 0.252717
0.054297 0.091578 0.254174
0.055875 0.092191 0.255867
0.057460 0.092788 0.257514
0.059308 0.093778 0.260246
