ply
format ascii 1.0
element vertex 1679
property float x
property float y
property float z
end_header
-0.124473 -0.098059 0.294933
-0.123279 -0.098219 0.295585
-0.121766 -0.098127 0.295466
-0.120517 -0.098247 0.295982
-0.119153 -0.098275 0.296210
-0.117605 -0.098151 0.295971
-0.116214 -0.098157 0.296115
-0.114697 -0.098054 0.295925
-0.113059 -0.097845 0.295406
-0.111833 -0.097992 0.295954
-0.110145 -0.097731 0.295264
-0.108807 -0.097781 0.295504
-0.107387 -0.097755 0.295511
-0.105997 -0.097757 0.295595
-0.104621 -0.097773 0.295715
-0.103139 -0.097688 0.295525
-0.101851 -0.097788 0.295886
-0.100320 -0.097653 0.295533
-0.098793 -0.097520 0.295179
-0.097133 -0.097249 0.294403
-0.102907 -0.104521 0.316459
-0.101535 -0.104642 0.316862
-0.100435 -0.105051 0.318134
-0.098611 -0.104704 0.317109
-0.096698 -0.104251 0.315759
-0.092812 -0.101622 0.307816
-0.090727 -0.100915 0.305687
-0.089358 -0.100994 0.305936
-0.088136 -0.101243 0.306698
-0.086544 -0.101070 0.306176
-0.088391 -0.104975 0.318003
-0.086990 -0.105091 0.318350
-0.085823 -0.105498 0.319576
-0.084798 -0.106098 0.321382
-0.083286 -0.106099 0.321371
-0.081632 -0.105916 0.320801
-0.080519 -0.106442 0.322373
-0.079178 -0.106681 0.323074
-0.077737 -0.106792 0.323387
-0.069111 -0.096839 0.293223
-0.067610 -0.096668 0.292680
-0.066292 -0.096757 0.292922
-0.064931 -0.096786 0.292979
-0.063544 -0.096777 0.292921
-0.062216 -0.096859 0.293137
-0.060866 -0.096911 0.293260
-0.059377 -0.096738 0.292702
-0.058038 -0.096807 0.292874
-0.056674 -0.096836 0.292924
-0.055216 -0.096704 0.292488
-0.053886 -0.096795 0.292721
-0.052485 -0.096758 0.292572
-0.051091 -0.096733 0.292455
-0.049654 -0.096625 0.292088
-0.048257 -0.096589 0.291940
-0.046868 -0.096567 0.291830
-0.045390 -0.096357 0.291156
-0.044073 -0.096484 0.291499
-0.042381 -0.095774 0.289311
-0.040898 -0.095504 0.288455
-0.040973 -0.098980 0.298912
-0.039587 -0.099049 0.299076
-0.037466 -0.097217 0.293503
-0.036673 -0.098820 0.298303
-0.032978 -0.092420 0.278945
-0.030980 -0.090441 0.272933
-0.029177 -0.088883 0.268196
-0.027896 -0.088847 0.268053
-0.026441 -0.088227 0.266149
-0.025103 -0.087955 0.265295
-0.023771 -0.087673 0.264412
-0.022541 -0.087761 0.264645
-0.021420 -0.088312 0.266275
-0.020298 -0.088923 0.268085
-0.019074 -0.089141 0.268715
-0.017918 -0.089729 0.270458
-0.016567 -0.089357 0.269309
-0.015409 -0.090050 0.271371
-0.014139 -0.090162 0.271683
-0.012470 -0.087492 0.263612
-0.011056 -0.086215 0.259744
-0.009793 -0.085948 0.258917
-0.008595 -0.086253 0.259816
-0.007366 -0.086290 0.259907
-0.006126 -0.086200 0.259618
-0.004914 -0.086552 0.260663
-0.003687 -0.086796 0.261383
-0.002449 -0.086917 0.261732
-0.001211 -0.087214 0.262615
0.000036 -0.087420 0.263224
0.001301 -0.088436 0.266271
0.002558 -0.088169 0.265458
0.003822 -0.088247 0.265685
0.005063 -0.087893 0.264615
0.006302 -0.087637 0.263836
0.007560 -0.087689 0.263990
0.008714 -0.086695 0.260996
0.009966 -0.086802 0.261314
0.011229 -0.086966 0.261810
0.012484 -0.087044 0.262045
0.013763 -0.087262 0.262702
0.015053 -0.087505 0.263438
0.016382 -0.087921 0.264694
0.017678 -0.088109 0.265265
0.018993 -0.088362 0.266033
0.020206 -0.088143 0.265379
0.021590 -0.088647 0.266906
0.022904 -0.088825 0.267449
0.024206 -0.088938 0.267801
0.025752 -0.089891 0.270683
0.026803 -0.089111 0.268344
0.027833 -0.088332 0.266010
0.029353 -0.089108 0.268360
0.030378 -0.088380 0.266182
0.031544 -0.088104 0.265364
0.032874 -0.088291 0.265941
0.034178 -0.088395 0.266270
0.035297 -0.088030 0.265184
0.036544 -0.087998 0.265104
0.037713 -0.087786 0.264481
0.038898 -0.087626 0.264014
0.040133 -0.087584 0.263903
0.041265 -0.087327 0.263142
0.042332 -0.086950 0.262024
0.043474 -0.086745 0.261420
0.044564 -0.086449 0.260542
0.045579 -0.086029 0.259289
0.046643 -0.085721 0.258374
0.047669 -0.085359 0.257298
0.048862 -0.085308 0.257157
0.049901 -0.084997 0.256231
0.051205 -0.085142 0.256678
0.052639 -0.085490 0.257736
0.054112 -0.085885 0.258936
0.055626 -0.086326 0.260274
0.057253 -0.086918 0.262064
0.058897 -0.087511 0.263857
0.060450 -0.087947 0.265174
0.062101 -0.088505 0.266859
0.063600 -0.088828 0.267834
0.065272 -0.089375 0.269480
0.066805 -0.089714 0.270498
0.067979 -0.089568 0.270051
0.068900 -0.089099 0.268631
0.070038 -0.088923 0.268087
0.070576 -0.088005 0.265307
0.071319 -0.087370 0.263378
0.072721 -0.087551 0.263904
0.073201 -0.086635 0.261120
0.074178 -0.086326 0.260166
0.075133 -0.086003 0.259165
0.075984 -0.085574 0.257841
0.077639 -0.086048 0.259237
0.079142 -0.086344 0.260088
0.080796 -0.086790 0.261392
0.082283 -0.087047 0.262120
0.083872 -0.087403 0.263140
0.085299 -0.087581 0.263623
0.087263 -0.088299 0.265722
0.097461 -0.097208 0.292463
0.098747 -0.097102 0.292067
0.100657 -0.097603 0.293494
0.102077 -0.097623 0.293465
0.103519 -0.097663 0.293491
0.104780 -0.097534 0.293002
0.106334 -0.097676 0.293322
0.107778 -0.097716 0.293329
0.109146 -0.097686 0.293118
0.110726 -0.097844 0.293464
0.112188 -0.097895 0.293482
0.113735 -0.098018 0.293708
0.115296 -0.098150 0.293951
0.116967 -0.098371 0.294454
0.118527 -0.098495 0.294656
0.120140 -0.098659 0.294967
0.121598 -0.098694 0.294883
0.123197 -0.098840 0.295124
0.124634 -0.098855 0.294961
0.126133 -0.098918 0.294931
0.127631 -0.098980 0.294884
0.129112 -0.099026 0.294783
0.130593 -0.099071 0.294666
0.132091 -0.099128 0.294571
0.133589 -0.099184 0.294462
0.135271 -0.099374 0.294737
0.136733 -0.099399 0.294509
0.138225 -0.099446 0.294333
0.139843 -0.099582 0.294403
0.141450 -0.099706 0.294426
0.143167 -0.099905 0.294652
0.144688 -0.099965 0.294450
0.146326 -0.100103 0.294462
0.147970 -0.100243 0.294462
0.149506 -0.100307 0.294221
0.151562 -0.100716 0.294968
0.153058 -0.100748 0.294594
0.154198 -0.100548 0.293519
0.156019 -0.100790 0.293716
0.157608 -0.100880 0.293445
-0.134743 -0.083203 0.247927
-0.133464 -0.083152 0.248186
-0.133410 -0.083871 0.250727
-0.134332 -0.085222 0.255152
-0.154209 -0.098735 0.296038
-0.151769 -0.098077 0.294474
-0.150493 -0.098167 0.295134
-0.149046 -0.098145 0.295446
-0.147683 -0.098180 0.295909
-0.146437 -0.098294 0.296597
-0.144821 -0.098158 0.296519
-0.143351 -0.098121 0.296721
-0.142017 -0.098177 0.297192
-0.139836 -0.097642 0.295861
-0.138906 -0.097980 0.297160
-0.136888 -0.097549 0.296113
-0.134823 -0.097075 0.294923
-0.133273 -0.096967 0.294829
-0.143037 -0.105175 0.320031
-0.143793 -0.106865 0.325410
-0.130127 -0.098829 0.301343
-0.125407 -0.096299 0.293812
-0.124247 -0.096479 0.294532
-0.122944 -0.096548 0.294910
-0.121743 -0.096702 0.295533
-0.120360 -0.096713 0.295713
-0.118978 -0.096725 0.295888
-0.117373 -0.096553 0.295493
-0.115902 -0.096489 0.295419
-0.114555 -0.096529 0.295656
-0.113007 -0.096398 0.295360
-0.111441 -0.096248 0.295001
-0.110161 -0.096345 0.295390
-0.108728 -0.096308 0.295363
-0.107273 -0.096252 0.295270
-0.105896 -0.096264 0.295380
-0.104544 -0.096300 0.295559
-0.103048 -0.096203 0.295321
-0.101673 -0.096217 0.295420
-0.100218 -0.096155 0.295282
-0.098783 -0.096111 0.295191
-0.096738 -0.095465 0.293246
-0.103330 -0.103446 0.317799
-0.101954 -0.103567 0.318204
-0.100644 -0.103760 0.318823
-0.098583 -0.103172 0.317042
-0.096650 -0.102705 0.315623
-0.093371 -0.100768 0.309686
-0.091049 -0.099821 0.306784
-0.089508 -0.099712 0.306455
-0.088355 -0.100039 0.307464
-0.086808 -0.099924 0.307109
-0.088844 -0.103999 0.319628
-0.087438 -0.104116 0.319978
-0.086025 -0.104229 0.320314
-0.084913 -0.104717 0.321799
-0.083075 -0.104311 0.320535
-0.081855 -0.104682 0.321652
-0.080349 -0.104693 0.321664
-0.078830 -0.104688 0.321623
-0.077397 -0.104798 0.321935
-0.068411 -0.094482 0.290217
-0.067721 -0.095436 0.293119
-0.066311 -0.095395 0.292961
-0.064800 -0.095204 0.292341
-0.063553 -0.095400 0.292911
-0.062214 -0.095466 0.293076
-0.060782 -0.095386 0.292795
-0.059232 -0.095116 0.291927
-0.057907 -0.095201 0.292151
-0.056548 -0.095233 0.292209
-0.055154 -0.095208 0.292090
-0.053816 -0.095279 0.292268
-0.052539 -0.095465 0.292797
-0.051078 -0.095318 0.292303
-0.049700 -0.095322 0.292274
-0.048272 -0.095230 0.291947
-0.046873 -0.095189 0.291777
-0.045462 -0.095122 0.291530
-0.044102 -0.095159 0.291598
-0.042696 -0.095098 0.291367
-0.041130 -0.094664 0.289995
-0.041404 -0.098581 0.301950
-0.040004 -0.098650 0.302116
-0.037175 -0.095070 0.291110
-0.036179 -0.096083 0.294171
-0.034809 -0.096145 0.294316
-0.031114 -0.089521 0.274002
-0.029266 -0.087869 0.268908
-0.028000 -0.087892 0.268941
-0.026555 -0.087326 0.267174
-0.025143 -0.086822 0.265596
-0.023828 -0.086616 0.264931
-0.022608 -0.086751 0.265313
-0.021460 -0.087197 0.266645
-0.020345 -0.087836 0.268567
-0.019120 -0.088062 0.269226
-0.017874 -0.088208 0.269645
-0.016570 -0.088074 0.269206
-0.015383 -0.088593 0.270763
-0.014092 -0.088553 0.270617
-0.012578 -0.086958 0.265717
-0.011204 -0.086094 0.263053
-0.009980 -0.086300 0.263661
-0.008715 -0.086171 0.263245
-0.007457 -0.086069 0.262913
-0.006208 -0.086060 0.262868
-0.004966 -0.086164 0.263169
-0.003721 -0.086261 0.263451
-0.002469 -0.086249 0.263400
-0.001217 -0.086166 0.263134
0.000033 -0.086179 0.263161
0.001296 -0.087058 0.265835
0.002557 -0.087003 0.265657
0.003810 -0.086794 0.265011
0.005045 -0.086384 0.263752
0.006305 -0.086476 0.264028
0.007542 -0.086276 0.263414
0.008722 -0.085576 0.261274
0.009975 -0.085669 0.261559
0.011207 -0.085585 0.261301
0.012442 -0.085535 0.261151
0.013738 -0.085881 0.262208
0.015029 -0.086137 0.262996
0.016366 -0.086596 0.264401
0.017732 -0.087136 0.266056
0.019001 -0.087153 0.266116
0.020341 -0.087476 0.267108
0.021779 -0.088158 0.269201
0.023164 -0.088561 0.270442
0.024453 -0.088574 0.270494
0.025754 -0.088627 0.270667
0.027067 -0.088713 0.270942
0.028209 -0.088257 0.269562
0.029398 -0.087980 0.268731
0.030674 -0.087978 0.268739
0.031672 -0.087207 0.266400
0.032897 -0.087097 0.266081
0.034085 -0.086902 0.265500
0.035283 -0.086746 0.265040
0.036378 -0.086354 0.263860
0.037826 -0.086799 0.265238
0.038886 -0.086355 0.263897
0.040007 -0.086067 0.263035
0.041133 -0.085810 0.262266
0.042188 -0.085422 0.261099
0.043283 -0.085135 0.260236
0.044657 -0.085398 0.261057
0.045592 -0.084831 0.259340
0.046566 -0.084362 0.257922
0.047805 -0.084386 0.258012
0.048860 -0.084092 0.257127
0.050066 -0.084066 0.257060
0.051471 -0.084366 0.257990
0.052863 -0.084632 0.258817
0.054329 -0.085003 0.259962
0.055896 -0.085510 0.261522
0.057312 -0.085770 0.262328
0.058791 -0.086110 0.263376
0.060625 -0.086947 0.265940
0.062319 -0.087551 0.267791
0.063883 -0.087952 0.269023
0.065488 -0.088394 0.270374
0.066761 -0.088378 0.270326
0.068201 -0.088580 0.270939
0.068921 -0.087857 0.268722
0.070015 -0.087627 0.268012
0.070817 -0.087047 0.266229
0.071508 -0.086354 0.264096
0.072362 -0.085878 0.262624
0.073232 -0.085436 0.261253
0.074101 -0.085008 0.259925
0.075264 -0.084926 0.259650
0.076410 -0.084827 0.259321
0.078000 -0.085217 0.260482
0.079835 -0.085858 0.262407
0.081430 -0.086224 0.263488
0.083344 -0.086913 0.265548
0.085194 -0.087515 0.267341
0.086346 -0.087393 0.266916
0.087897 -0.087672 0.267714
0.097728 -0.096084 0.293333
0.099015 -0.095978 0.292936
0.100442 -0.096007 0.292947
0.102133 -0.096285 0.293712
0.103610 -0.096356 0.293839
0.104817 -0.096176 0.293197
0.106293 -0.096246 0.293308
0.107802 -0.096343 0.293496
0.109248 -0.096383 0.293501
0.110702 -0.096428 0.293514
0.112229 -0.096534 0.293707
0.113769 -0.096650 0.293921
0.115229 -0.096694 0.293911
0.116888 -0.096903 0.294391
0.118350 -0.096945 0.294354
0.119729 -0.096919 0.294104
0.121194 -0.096963 0.294056
0.122684 -0.097025 0.294052
0.124133 -0.097054 0.293938
0.125709 -0.097180 0.294110
0.127275 -0.097295 0.294237
0.128833 -0.097403 0.294329
0.130314 -0.097450 0.294227
0.131923 -0.097590 0.294396
0.133408 -0.097637 0.294267
0.135092 -0.097827 0.294559
0.136588 -0.097878 0.294418
0.138048 -0.097902 0.294183
0.139881 -0.098188 0.294720
0.141508 -0.098325 0.294791
0.143100 -0.098434 0.294767
0.144839 -0.098642 0.295018
0.146505 -0.098796 0.295094
0.147999 -0.098832 0.294799
0.149508 -0.098878 0.294515
0.151060 -0.098951 0.294291
0.152820 -0.099157 0.294446
0.153987 -0.098978 0.293435
0.155437 -0.098982 0.292951
0.157345 -0.099275 0.293297
-0.135518 -0.082465 0.249609
-0.135160 -0.082984 0.251587
-0.135491 -0.083941 0.254881
-0.143229 -0.089546 0.272302
-0.154752 -0.097642 0.297345
-0.151710 -0.096614 0.294613
-0.150577 -0.096794 0.295546
-0.149269 -0.096863 0.296126
-0.147812 -0.096837 0.296398
-0.146365 -0.096817 0.296674
-0.144939 -0.096811 0.296976
-0.143496 -0.096792 0.297228
-0.141786 -0.096592 0.296908
-0.140049 -0.096370 0.296505
-0.138716 -0.096423 0.296937
-0.137157 -0.096320 0.296873
-0.135887 -0.096419 0.297424
-0.143357 -0.102787 0.317313
-0.142002 -0.102896 0.317886
-0.142763 -0.104557 0.323244
-0.127852 -0.095689 0.296213
-0.125480 -0.094955 0.294118
-0.124308 -0.095122 0.294804
-0.122881 -0.095096 0.294881
-0.121668 -0.095237 0.295468
-0.120409 -0.095345 0.295944
-0.118802 -0.095177 0.295556
-0.117382 -0.095156 0.295616
-0.115887 -0.095074 0.295479
-0.114240 -0.094864 0.294933
-0.112764 -0.094792 0.294810
-0.111259 -0.094693 0.294599
-0.109952 -0.094763 0.294904
-0.108605 -0.094800 0.295099
-0.107202 -0.094788 0.295139
-0.105784 -0.094763 0.295129
-0.104516 -0.094874 0.295536
-0.103083 -0.094835 0.295472
-0.101502 -0.094658 0.294971
-0.100246 -0.094783 0.295409
-0.098554 -0.094494 0.294547
-0.096941 -0.094273 0.293893
-0.103371 -0.101980 0.317955
-0.101995 -0.102101 0.318360
-0.100774 -0.102383 0.319261
-0.098722 -0.101815 0.317511
-0.096637 -0.101197 0.315596
-0.093636 -0.099584 0.310577
-0.091226 -0.098559 0.307385
-0.089722 -0.098495 0.307190
-0.088690 -0.098956 0.308625
-0.087211 -0.098927 0.308529
-0.088941 -0.102597 0.319965
-0.087534 -0.102713 0.320315
-0.085812 -0.102457 0.319502
-0.084469 -0.102654 0.320096
-0.083198 -0.102946 0.320987
-0.081334 -0.102501 0.319575
-0.079601 -0.102208 0.318637
-0.078360 -0.102547 0.319666
-0.076936 -0.102657 0.319976
-0.068350 -0.093024 0.289921
-0.067389 -0.093586 0.291639
-0.066271 -0.093950 0.292740
-0.064749 -0.093743 0.292061
-0.063389 -0.093769 0.292104
-0.062201 -0.094054 0.292955
-0.060777 -0.093989 0.292712
-0.059321 -0.093870 0.292301
-0.057994 -0.093953 0.292519
-0.056633 -0.093986 0.292580
-0.055237 -0.093960 0.292456
-0.053926 -0.094081 0.292788
-0.052474 -0.093957 0.292359
-0.051125 -0.094015 0.292492
-0.049688 -0.093909 0.292118
-0.048244 -0.093785 0.291687
-0.046851 -0.093755 0.291548
-0.045452 -0.093713 0.291372
-0.044028 -0.093614 0.291019
-0.042652 -0.093613 0.290970
-0.041044 -0.093087 0.289288
-0.040899 -0.095958 0.298164
-0.039517 -0.096025 0.298329
-0.037391 -0.094226 0.292695
-0.036323 -0.095056 0.295226
-0.034948 -0.095117 0.295373
-0.031115 -0.088216 0.273902
-0.029298 -0.086676 0.269084
-0.028018 -0.086661 0.268999
-0.026579 -0.086125 0.267298
-0.025193 -0.085719 0.265999
-0.023925 -0.085694 0.265886
-0.022635 -0.085581 0.265501
-0.021480 -0.085998 0.266762
-0.020265 -0.086210 0.267387
-0.019045 -0.086424 0.268019
-0.017809 -0.086596 0.268523
-0.016535 -0.086595 0.268490
-0.015328 -0.086973 0.269633
-0.014057 -0.087027 0.269775
-0.012621 -0.085965 0.266457
-0.011247 -0.085141 0.263880
-0.009976 -0.084988 0.263383
-0.008730 -0.085028 0.263487
-0.007442 -0.084611 0.262173
-0.006209 -0.084773 0.262656
-0.004961 -0.084767 0.262621
-0.003716 -0.084826 0.262789
-0.002470 -0.084885 0.262955
-0.001224 -0.085107 0.263632
0.000029 -0.085521 0.264901
0.001294 -0.085947 0.266209
0.002577 -0.086533 0.268018
0.003864 -0.086843 0.268968
0.005077 -0.085731 0.265518
0.006350 -0.085877 0.265966
0.007625 -0.085999 0.266341
0.008790 -0.085023 0.263316
0.010004 -0.084699 0.262313
0.011186 -0.084213 0.260806
0.012421 -0.084180 0.260706
0.013691 -0.084365 0.261283
0.014982 -0.084643 0.262148
0.016291 -0.084969 0.263164
0.017610 -0.085296 0.264182
0.018900 -0.085450 0.264667
0.020299 -0.086044 0.266518
0.021927 -0.087486 0.270994
0.023161 -0.087280 0.270368
0.024551 -0.087650 0.271527
0.025841 -0.087646 0.271528
0.026866 -0.086787 0.268880
0.028086 -0.086609 0.268345
0.029022 -0.085607 0.265253
0.030130 -0.085172 0.263922
0.031192 -0.084648 0.262316
0.032412 -0.084578 0.262117
0.033503 -0.084190 0.260930
0.034771 -0.084255 0.261152
0.035831 -0.083830 0.259851
0.037224 -0.084188 0.260980
0.038485 -0.084232 0.261134
0.039769 -0.084322 0.261434
0.040905 -0.084104 0.260776
0.041966 -0.083747 0.259689
0.043151 -0.083651 0.259410
0.044585 -0.084030 0.260604
0.045522 -0.083477 0.258906
0.046518 -0.083059 0.257629
0.047856 -0.083257 0.258260
0.048970 -0.083064 0.257677
0.050188 -0.083054 0.257661
0.051304 -0.082878 0.257132
0.052531 -0.082887 0.257174
0.054099 -0.083420 0.258840
0.055549 -0.083751 0.259882
0.057293 -0.084502 0.262224
0.059026 -0.085205 0.264415
0.060796 -0.085932 0.266680
0.062579 -0.086646 0.268903
0.063991 -0.086828 0.269472
0.065445 -0.087059 0.270195
0.066908 -0.087292 0.270920
0.067996 -0.087037 0.270127
0.069198 -0.086935 0.269808
0.070004 -0.086348 0.267982
0.070715 -0.085666 0.265858
0.071830 -0.085489 0.265299
0.072356 -0.084629 0.262618
0.073258 -0.084231 0.261370
0.074157 -0.083843 0.260147
0.075283 -0.083720 0.259744
0.076786 -0.084012 0.260628
0.077885 -0.083861 0.260132
0.079949 -0.084737 0.262817
0.081704 -0.085264 0.264415
0.083772 -0.086096 0.266958
0.085896 -0.086960 0.269593
0.086862 -0.086644 0.268565
0.088634 -0.087128 0.270014
0.097778 -0.094744 0.293551
0.099065 -0.094637 0.293154
0.100721 -0.094881 0.293836
0.102300 -0.095047 0.294271
0.103574 -0.094929 0.293821
0.104875 -0.094838 0.293448
0.106385 -0.094936 0.293655
0.107763 -0.094916 0.293488
0.109252 -0.094992 0.293613
0.110654 -0.094991 0.293493
0.112046 -0.094983 0.293342
0.113759 -0.095242 0.294011
0.115123 -0.095208 0.293763
0.116917 -0.095525 0.294592
0.118359 -0.095550 0.294511
0.119911 -0.095662 0.294691
0.121384 -0.095710 0.294661
0.122838 -0.095741 0.294573
0.124254 -0.095743 0.294384
0.125659 -0.095736 0.294157
0.127129 -0.095778 0.294071
0.128618 -0.095833 0.294015
0.130064 -0.095855 0.293845
0.131600 -0.095943 0.293864
0.132956 -0.095898 0.293467
0.134621 -0.096075 0.293736
0.136226 -0.096206 0.293847
0.137756 -0.096281 0.293779
0.139170 -0.096276 0.293447
0.140982 -0.096542 0.293930
0.142764 -0.096782 0.294318
0.144557 -0.097025 0.294697
0.146040 -0.097057 0.294417
0.147766 -0.097249 0.294604
0.149252 -0.097280 0.294288
0.151142 -0.097572 0.294739
0.152747 -0.097676 0.294604
0.153859 -0.097464 0.293499
0.155396 -0.097525 0.293192
0.156911 -0.097569 0.292817
-0.136260 -0.081693 0.251223
-0.144985 -0.087704 0.270133
-0.143793 -0.087770 0.270748
-0.143301 -0.088269 0.272681
-0.154833 -0.096252 0.297756
-0.151778 -0.095231 0.294990
-0.150490 -0.095311 0.295612
-0.149198 -0.095389 0.296214
-0.147766 -0.095379 0.296526
-0.146416 -0.095422 0.296990
-0.144934 -0.095379 0.297172
-0.143340 -0.095261 0.297105
-0.141621 -0.095057 0.296755
-0.140211 -0.095058 0.297032
-0.138698 -0.094989 0.297078
-0.137014 -0.094800 0.296735
-0.142279 -0.101576 0.318669
-0.142202 -0.102610 0.322132
-0.140832 -0.102723 0.322697
-0.127958 -0.094356 0.296594
-0.125359 -0.093463 0.293959
-0.124089 -0.093553 0.294405
-0.122996 -0.093781 0.295273
-0.121522 -0.093719 0.295224
-0.120213 -0.093786 0.295570
-0.118844 -0.093806 0.295760
-0.117291 -0.093680 0.295483
-0.115369 -0.093253 0.294247
-0.114205 -0.093435 0.294927
-0.112506 -0.093179 0.294214
-0.111071 -0.093139 0.294177
-0.109692 -0.093144 0.294277
-0.108449 -0.093267 0.294742
-0.107122 -0.093320 0.294980
-0.105740 -0.093326 0.295063
-0.104435 -0.093401 0.295359
-0.103037 -0.093394 0.295388
-0.101601 -0.093352 0.295303
-0.099730 -0.092904 0.293927
-0.098189 -0.092754 0.293490
-0.096815 -0.092760 0.293541
-0.103694 -0.100789 0.318977
-0.102316 -0.100910 0.319384
-0.101069 -0.101166 0.320213
-0.099193 -0.100791 0.319041
-0.097038 -0.100116 0.316915
-0.094318 -0.098828 0.312845
-0.091890 -0.097810 0.309625
-0.089868 -0.097199 0.307687
-0.088717 -0.097526 0.308716
-0.090127 -0.100725 0.318833
-0.088729 -0.100841 0.319189
-0.087286 -0.100909 0.319389
-0.085378 -0.100434 0.317866
-0.084172 -0.100782 0.318946
-0.083012 -0.101198 0.320239
-0.081218 -0.100843 0.319086
-0.079367 -0.100402 0.317663
-0.078389 -0.101071 0.319746
-0.076966 -0.101180 0.320057
-0.068523 -0.091880 0.290607
-0.067370 -0.092177 0.291510
-0.066099 -0.092321 0.291929
-0.064639 -0.092201 0.291512
-0.063381 -0.092370 0.292008
-0.061996 -0.092358 0.291930
-0.060704 -0.092488 0.292298
-0.059354 -0.092533 0.292397
-0.057967 -0.092522 0.292317
-0.056597 -0.092537 0.292321
-0.055234 -0.092565 0.292364
-0.053847 -0.092554 0.292283
-0.052442 -0.092511 0.292098
-0.051049 -0.092485 0.291971
-0.049667 -0.092481 0.291910
-0.048244 -0.092396 0.291595
-0.046853 -0.092372 0.291471
-0.045483 -0.092388 0.291474
-0.044108 -0.092394 0.291444
-0.042699 -0.092328 0.291188
-0.041139 -0.091921 0.289858
-0.040806 -0.094320 0.297373
-0.039427 -0.094387 0.297538
-0.037279 -0.092552 0.291707
-0.036307 -0.093606 0.294983
-0.033099 -0.088749 0.279635
-0.031100 -0.086864 0.273654
-0.029212 -0.085140 0.268180
-0.028007 -0.085340 0.268771
-0.026587 -0.084873 0.267262
-0.025230 -0.084572 0.266276
-0.023944 -0.084485 0.265967
-0.022635 -0.084306 0.265369
-0.021419 -0.084475 0.265865
-0.020187 -0.084596 0.266213
-0.018975 -0.084825 0.266902
-0.017774 -0.085139 0.267858
-0.016457 -0.084900 0.267077
-0.015251 -0.085244 0.268128
-0.014026 -0.085538 0.269027
-0.012681 -0.085080 0.267559
-0.011362 -0.084717 0.266392
-0.010098 -0.084732 0.266417
-0.008796 -0.084371 0.265259
-0.007519 -0.084181 0.264642
-0.006277 -0.084393 0.265291
-0.005006 -0.084216 0.264716
-0.003728 -0.083750 0.263233
-0.002462 -0.083248 0.261642
-0.001225 -0.083723 0.263120
0.000026 -0.084131 0.264392
0.001295 -0.084960 0.266988
0.002565 -0.084978 0.267033
0.003842 -0.085151 0.267570
0.005098 -0.084881 0.266715
0.006373 -0.084975 0.267008
0.007674 -0.085324 0.268100
0.008871 -0.084579 0.265759
0.010101 -0.084296 0.264868
0.011313 -0.083940 0.263750
0.012541 -0.083764 0.263200
0.013806 -0.083843 0.263452
0.015083 -0.083979 0.263885
0.016380 -0.084192 0.264563
0.017735 -0.084656 0.266027
0.018973 -0.084535 0.265655
0.020378 -0.085123 0.267514
0.021781 -0.085636 0.269137
0.023017 -0.085474 0.268640
0.024389 -0.085805 0.269696
0.025476 -0.085151 0.267653
0.025816 -0.082180 0.258328
0.026969 -0.081950 0.257623
0.028297 -0.082249 0.258578
0.029470 -0.082090 0.258095
0.030621 -0.081886 0.257471
0.031838 -0.081866 0.257429
0.033033 -0.081794 0.257221
0.034319 -0.081944 0.257710
0.035510 -0.081864 0.257480
0.036707 -0.081804 0.257311
0.038154 -0.082285 0.258844
0.039830 -0.083215 0.261790
0.041155 -0.083379 0.262329
0.042100 -0.082785 0.260481
0.043419 -0.082938 0.260981
0.044708 -0.083029 0.261289
0.045745 -0.082658 0.260142
0.046738 -0.082228 0.258810
0.048130 -0.082507 0.259705
0.049135 -0.082123 0.258518
0.049964 -0.081472 0.256484
0.051010 -0.081195 0.255632
0.052129 -0.081046 0.255179
0.053786 -0.081722 0.257322
0.055301 -0.082155 0.258702
0.057020 -0.082867 0.260957
0.059097 -0.084058 0.264720
0.061073 -0.085058 0.267882
0.062748 -0.085606 0.269618
0.064243 -0.085892 0.270526
0.065547 -0.085916 0.270609
0.067007 -0.086139 0.271318
0.068237 -0.086064 0.271085
0.069209 -0.085673 0.269854
0.069915 -0.084973 0.267646
0.070781 -0.084487 0.266113
0.071489 -0.083834 0.264049
0.072340 -0.083369 0.262573
0.073027 -0.082734 0.260563
0.073847 -0.082267 0.259078
0.075044 -0.082229 0.258941
0.076269 -0.082222 0.258898
0.077813 -0.082553 0.259918
0.079530 -0.083056 0.261473
0.081392 -0.083692 0.263443
0.083479 -0.084536 0.266065
0.085683 -0.085471 0.268969
0.087053 -0.085560 0.269204
0.088731 -0.085944 0.270362
0.098547 -0.094087 0.295920
0.099843 -0.093980 0.295520
0.100182 -0.092988 0.292332
0.102210 -0.093570 0.294086
0.103597 -0.093556 0.293962
0.104922 -0.093487 0.293661
0.106292 -0.093461 0.293485
0.107692 -0.093461 0.293386
0.109135 -0.093497 0.293394
0.110475 -0.093446 0.293121
0.112021 -0.093567 0.293381
0.113316 -0.093479 0.292978
0.114807 -0.093552 0.293072
0.116395 -0.093702 0.293398
0.117838 -0.093732 0.293341
0.119209 -0.093706 0.293099
0.120745 -0.093808 0.293250
0.122450 -0.094038 0.293789
0.124050 -0.094182 0.294050
0.125587 -0.094276 0.294144
0.127028 -0.094296 0.293999
0.128505 -0.094343 0.293924
0.130134 -0.094499 0.294179
0.131540 -0.094491 0.293912
0.132807 -0.094384 0.293326
0.134320 -0.094453 0.293274
0.136040 -0.094664 0.293651
0.137323 -0.094570 0.293066
0.138850 -0.094643 0.292988
0.140552 -0.094834 0.293259
0.142291 -0.095045 0.293576
0.144064 -0.095275 0.293933
0.145642 -0.095372 0.293866
0.147524 -0.095664 0.294382
0.149063 -0.095731 0.294185
0.150855 -0.095957 0.294459
0.152598 -0.096147 0.294604
0.153775 -0.095981 0.293637
0.155260 -0.096008 0.293242
0.157027 -0.096208 0.293352
-0.144915 -0.085582 0.267435
-0.143735 -0.085646 0.268051
-0.143901 -0.086522 0.271193
-0.144436 -0.087636 0.275077
-0.154914 -0.094861 0.298160
-0.151400 -0.093572 0.294491
-0.150259 -0.093740 0.295386
-0.149020 -0.093849 0.296081
-0.147453 -0.093752 0.296112
-0.146163 -0.093831 0.296682
-0.144296 -0.093537 0.296061
-0.143043 -0.093640 0.296681
-0.141621 -0.093634 0.296939
-0.140065 -0.093537 0.296901
-0.138380 -0.093352 0.296566
-0.136741 -0.093195 0.296309
-0.135481 -0.093295 0.296857
-0.142334 -0.100094 0.318949
-0.142224 -0.101089 0.322334
-0.140857 -0.101202 0.322898
-0.126897 -0.092172 0.294261
-0.125292 -0.092015 0.293925
-0.124007 -0.092092 0.294327
-0.122686 -0.092144 0.294640
-0.121304 -0.092151 0.294801
-0.120109 -0.092301 0.295413
-0.118518 -0.092148 0.295045
-0.116948 -0.092007 0.294708
-0.115103 -0.091644 0.293653
-0.114107 -0.091957 0.294753
-0.112607 -0.091866 0.294554
-0.110905 -0.091606 0.293806
-0.109675 -0.091735 0.294297
-0.108373 -0.091806 0.294596
-0.107077 -0.091884 0.294912
-0.105644 -0.091845 0.294846
-0.104284 -0.091869 0.294979
-0.102598 -0.091603 0.294174
-0.101266 -0.091650 0.294367
-0.099638 -0.091427 0.293689
-0.098071 -0.091255 0.293168
-0.096777 -0.091335 0.293452
-0.103844 -0.099423 0.319462
-0.102465 -0.099543 0.319869
-0.101306 -0.099885 0.320981
-0.099443 -0.099531 0.319854
-0.097290 -0.098872 0.317743
-0.094413 -0.097445 0.313161
-0.092060 -0.096523 0.310195
-0.089871 -0.095745 0.307691
-0.088831 -0.096188 0.309103
-0.089535 -0.098564 0.316727
-0.088148 -0.098679 0.317080
-0.086640 -0.098661 0.317005
-0.084823 -0.098285 0.315774
-0.083512 -0.098492 0.316413
-0.081952 -0.098409 0.316117
-0.080460 -0.098404 0.316072
-0.078951 -0.098379 0.315959
-0.077202 -0.098048 0.314861
-0.075802 -0.098155 0.315167
-0.068575 -0.090572 0.290783
-0.067413 -0.090853 0.291647
-0.066190 -0.091062 0.292278
-0.064720 -0.090932 0.291821
-0.063433 -0.091060 0.292189
-0.062083 -0.091101 0.292278
-0.060751 -0.091172 0.292459
-0.059389 -0.091199 0.292502
-0.057993 -0.091174 0.292373
-0.056598 -0.091150 0.292249
-0.055241 -0.091187 0.292321
-0.053848 -0.091166 0.292203
-0.052444 -0.091124 0.292021
-0.051074 -0.091142 0.292030
-0.049665 -0.091088 0.291807
-0.048295 -0.091106 0.291815
-0.046914 -0.091104 0.291756
-0.045503 -0.091040 0.291501
-0.044139 -0.091071 0.291551
-0.042741 -0.091030 0.291371
-0.040924 -0.090064 0.288231
-0.040743 -0.092759 0.296806
-0.039367 -0.092826 0.296971
-0.037244 -0.091073 0.291315
-0.035977 -0.091360 0.292185
-0.034616 -0.091421 0.292331
-0.031245 -0.085955 0.274811
-0.029296 -0.084098 0.268831
-0.028196 -0.084621 0.270462
-0.026654 -0.083806 0.267817
-0.025252 -0.083369 0.266383
-0.023933 -0.083172 0.265716
-0.022674 -0.083180 0.265705
-0.021414 -0.083181 0.265672
-0.020185 -0.083309 0.266046
-0.019065 -0.083939 0.268024
-0.017869 -0.084295 0.269130
-0.016549 -0.084079 0.268409
-0.015305 -0.084246 0.268912
-0.014074 -0.084526 0.269778
-0.012730 -0.084109 0.268419
-0.011423 -0.083874 0.267646
-0.010157 -0.083923 0.267776
-0.008837 -0.083470 0.266310
-0.007566 -0.083403 0.266072
-0.006304 -0.083442 0.266178
-0.005037 -0.083416 0.266079
-0.003754 -0.083002 0.264741
-0.002509 -0.083455 0.266172
-0.001238 -0.083068 0.264923
0.000022 -0.083544 0.266428
0.001296 -0.083984 0.267821
0.002573 -0.084108 0.268207
0.003851 -0.084143 0.268312
0.005124 -0.084098 0.268164
0.006434 -0.084549 0.269596
0.007721 -0.084593 0.269736
0.008937 -0.083971 0.267750
0.010217 -0.084020 0.267907
0.011449 -0.083706 0.266906
0.012686 -0.083493 0.266233
0.013959 -0.083526 0.266343
0.015192 -0.083338 0.265748
0.016505 -0.083585 0.266542
0.017886 -0.084119 0.268253
0.019214 -0.084345 0.268985
0.020636 -0.084928 0.270855
0.021825 -0.084541 0.269633
0.023336 -0.085376 0.272310
0.024782 -0.085897 0.273986
0.025340 -0.083442 0.266172
0.026011 -0.081576 0.260234
0.027247 -0.081568 0.260225
0.028595 -0.081882 0.261248
0.029604 -0.081241 0.259220
0.030784 -0.081100 0.258789
0.031943 -0.080919 0.258230
0.033091 -0.080722 0.257623
0.034300 -0.080683 0.257521
0.035454 -0.080521 0.257024
0.036675 -0.080519 0.257039
0.037938 -0.080605 0.257336
0.039788 -0.081894 0.261475
0.041200 -0.082229 0.262567
0.042404 -0.082143 0.262314
0.043480 -0.081820 0.261308
0.044704 -0.081787 0.261223
0.045801 -0.081528 0.260420
0.046712 -0.080961 0.258632
0.048019 -0.081092 0.259071
0.049098 -0.080841 0.258288
0.050088 -0.080458 0.257088
0.051055 -0.080058 0.255828
0.052555 -0.080494 0.257241
0.054077 -0.080941 0.258689
0.055362 -0.081023 0.258966
0.057237 -0.081944 0.261928
0.059261 -0.083037 0.265437
0.061080 -0.083802 0.267896
0.062555 -0.084072 0.268773
0.064172 -0.084519 0.270213
0.065793 -0.084955 0.271616
0.067040 -0.084900 0.271447
0.068446 -0.085043 0.271912
0.069461 -0.084705 0.270835
0.070280 -0.084144 0.269043
0.071399 -0.083956 0.268440
0.071739 -0.082876 0.264983
0.072819 -0.082672 0.264325
0.073795 -0.082358 0.263313
0.074196 -0.081424 0.260317
0.075423 -0.081414 0.260268
0.076672 -0.081426 0.260290
0.077906 -0.081421 0.260254
0.079352 -0.081636 0.260918
0.081170 -0.082220 0.262757
0.083284 -0.083082 0.265480
0.085282 -0.083804 0.267749
0.087136 -0.084365 0.269503
0.096233 -0.091821 0.293271
0.097516 -0.091716 0.292880
0.098811 -0.091622 0.292524
0.100554 -0.091943 0.293482
0.102310 -0.092265 0.294441
0.103522 -0.092096 0.293824
0.104844 -0.092026 0.293521
0.106254 -0.092035 0.293461
0.107638 -0.092021 0.293324
0.109014 -0.092001 0.293159
0.110411 -0.091999 0.293045
0.111682 -0.091894 0.292595
0.113138 -0.091941 0.292622
0.114823 -0.092171 0.293224
0.116410 -0.092318 0.293552
0.117970 -0.092439 0.293792
0.119352 -0.092421 0.293578
0.120633 -0.092325 0.293110
0.122172 -0.092426 0.293258
0.123579 -0.092426 0.293077
0.124923 -0.092380 0.292737
0.126534 -0.092530 0.293011
0.128137 -0.092671 0.293245
0.129627 -0.092728 0.293201
0.131116 -0.092782 0.293138
0.132597 -0.092831 0.293044
0.134016 -0.092834 0.292797
0.135596 -0.092948 0.292885
0.137316 -0.093155 0.293251
0.138654 -0.093101 0.292784
0.140353 -0.093288 0.293060
0.142372 -0.093682 0.293968
0.144137 -0.093902 0.294316
0.145729 -0.094007 0.294284
0.147305 -0.094099 0.294196
0.149016 -0.094274 0.294351
0.150926 -0.094571 0.294865
0.152346 -0.094558 0.294394
0.153806 -0.094570 0.293983
0.155283 -0.094592 0.293583
0.156768 -0.094618 0.293175
-0.143943 -0.083716 0.265884
-0.142773 -0.083780 0.266494
-0.143235 -0.084812 0.270168
-0.142231 -0.084987 0.271102
-0.150680 -0.090866 0.290243
-0.151301 -0.092090 0.294525
-0.150239 -0.092303 0.295567
-0.149015 -0.092420 0.296286
-0.147445 -0.092322 0.296301
-0.146135 -0.092387 0.296825
-0.144755 -0.092409 0.297195
-0.142937 -0.092149 0.296644
-0.141628 -0.092216 0.297132
-0.139808 -0.091947 0.296527
-0.138115 -0.091757 0.296162
-0.136267 -0.091460 0.295437
-0.130768 -0.088681 0.286677
-0.144186 -0.098807 0.319639
-0.142831 -0.098917 0.320212
-0.141964 -0.099370 0.321888
-0.140601 -0.099484 0.322451
-0.126596 -0.090556 0.293684
-0.125256 -0.090590 0.293955
-0.123958 -0.090656 0.294319
-0.122676 -0.090736 0.294721
-0.121318 -0.090760 0.294934
-0.120057 -0.090859 0.295380
-0.118527 -0.090754 0.295157
-0.116471 -0.090239 0.293589
-0.115315 -0.090417 0.294272
-0.113381 -0.089983 0.292951
-0.112318 -0.090238 0.293869
-0.111059 -0.090339 0.294279
-0.109478 -0.090179 0.293830
-0.108390 -0.090425 0.294699
-0.107198 -0.090589 0.295298
-0.105733 -0.090525 0.295142
-0.104355 -0.090534 0.295222
-0.102811 -0.090397 0.294821
-0.101277 -0.090267 0.294434
-0.100276 -0.090614 0.295600
-0.098150 -0.089940 0.293428
-0.096521 -0.089708 0.292696
-0.104076 -0.098130 0.320196
-0.102696 -0.098250 0.320604
-0.101736 -0.098783 0.322354
-0.099926 -0.098493 0.321415
-0.097696 -0.097774 0.319072
-0.094756 -0.096311 0.314296
-0.092113 -0.095110 0.310370
-0.089091 -0.093471 0.305013
-0.088033 -0.093873 0.306311
-0.088475 -0.095915 0.312960
-0.087690 -0.096673 0.315413
-0.086371 -0.096859 0.315995
-0.084538 -0.096465 0.314685
-0.083282 -0.096727 0.315510
-0.081963 -0.096924 0.316122
-0.080698 -0.097194 0.316968
-0.078909 -0.096830 0.315747
-0.077343 -0.096732 0.315388
-0.075941 -0.096839 0.315696
-0.068744 -0.089413 0.291448
-0.067515 -0.089605 0.292034
-0.066251 -0.089758 0.292489
-0.064892 -0.089786 0.292538
-0.063557 -0.089848 0.292695
-0.062212 -0.089900 0.292819
-0.060856 -0.089938 0.292895
-0.059435 -0.089880 0.292656
-0.058023 -0.089832 0.292451
-0.056605 -0.089772 0.292207
-0.055272 -0.089849 0.292406
-0.053797 -0.089692 0.291844
-0.052442 -0.089732 0.291923
-0.051052 -0.089714 0.291812
-0.049689 -0.089744 0.291856
-0.048305 -0.089735 0.291776
-0.046863 -0.089617 0.291340
-0.045497 -0.089640 0.291364
-0.044142 -0.089688 0.291468
-0.042672 -0.089496 0.290792
-0.041038 -0.088937 0.288926
-0.040806 -0.091483 0.297145
-0.039427 -0.091550 0.297310
-0.037280 -0.089769 0.291477
-0.036092 -0.090252 0.292996
-0.033140 -0.086185 0.279747
-0.031284 -0.084748 0.275036
-0.029440 -0.083219 0.270032
-0.028178 -0.083275 0.270170
-0.026705 -0.082680 0.268200
-0.025265 -0.082134 0.266389
-0.023906 -0.081806 0.265286
-0.022639 -0.081778 0.265158
-0.021415 -0.081910 0.265548
-0.020190 -0.082055 0.265982
-0.018975 -0.082258 0.266607
-0.017785 -0.082610 0.267714
-0.016494 -0.082515 0.267375
-0.015212 -0.082447 0.267125
-0.013962 -0.082561 0.267465
-0.012699 -0.082609 0.267592
-0.011380 -0.082269 0.266464
-0.010114 -0.082273 0.266454
-0.008854 -0.082327 0.266607
-0.007544 -0.081872 0.265110
-0.006306 -0.082154 0.266006
-0.005060 -0.082460 0.266978
-0.003774 -0.082105 0.265811
-0.002517 -0.082328 0.266517
-0.001250 -0.082388 0.266700
0.000019 -0.082551 0.267213
0.001293 -0.082775 0.267928
0.002586 -0.083336 0.269735
0.003873 -0.083419 0.269998
0.005179 -0.083764 0.271107
0.006449 -0.083507 0.270273
0.007746 -0.083619 0.270631
0.009035 -0.083631 0.270670
0.010207 -0.082691 0.267627
0.011478 -0.082673 0.267573
0.012709 -0.082395 0.266675
0.013966 -0.082321 0.266443
0.015182 -0.082039 0.265536
0.016473 -0.082174 0.265982
0.017782 -0.082373 0.266635
0.019061 -0.082416 0.266783
0.020395 -0.082676 0.267639
0.021737 -0.082939 0.268502
0.023107 -0.083267 0.269579
0.024413 -0.083348 0.269857
0.025156 -0.081592 0.264188
0.026173 -0.080848 0.261798
0.027461 -0.080970 0.262211
0.028594 -0.080648 0.261186
0.029703 -0.080284 0.260029
0.030927 -0.080250 0.259939
0.032173 -0.080273 0.260033
0.033321 -0.080058 0.259361
0.034504 -0.079940 0.259002
0.035770 -0.080016 0.259270
0.036913 -0.079819 0.258656
0.038283 -0.080111 0.259626
0.039926 -0.080937 0.262328
0.041298 -0.081182 0.263148
0.042445 -0.080982 0.262523
0.043468 -0.080565 0.261195
0.044656 -0.080466 0.260901
0.045705 -0.080130 0.259834
0.046784 -0.079862 0.258990
0.048006 -0.079846 0.258961
0.049150 -0.079705 0.258527
0.050523 -0.079932 0.259287
0.051718 -0.079873 0.259120
0.052953 -0.079878 0.259158
0.054466 -0.080292 0.260519
0.055721 -0.080316 0.260617
0.057479 -0.081048 0.263014
0.059376 -0.081940 0.265926
0.061038 -0.082478 0.267690
0.062679 -0.082966 0.269289
0.064056 -0.083092 0.269713
0.065595 -0.083419 0.270786
0.067023 -0.083594 0.271365
0.068168 -0.083418 0.270801
0.069314 -0.083248 0.270256
0.070463 -0.083088 0.269742
0.071118 -0.082362 0.267387
0.071671 -0.081545 0.264735
0.072538 -0.081107 0.263310
0.073716 -0.081026 0.263041
0.074546 -0.080572 0.261558
0.075509 -0.080273 0.260579
0.076792 -0.080320 0.260716
0.078056 -0.080344 0.260777
0.079769 -0.080824 0.262313
0.081652 -0.081458 0.264346
0.083500 -0.082038 0.266200
0.085934 -0.083168 0.269832
0.087825 -0.083746 0.271674
0.097137 -0.091282 0.296075
0.098432 -0.091176 0.295680
0.098595 -0.090040 0.291940
0.100355 -0.090372 0.292959
0.101979 -0.090575 0.293551
0.103431 -0.090623 0.293633
0.104788 -0.090585 0.293435
0.106124 -0.090532 0.293180
0.107548 -0.090554 0.293160
0.108990 -0.090590 0.293182
0.110402 -0.090600 0.293112
0.111677 -0.090500 0.292677
0.113028 -0.090462 0.292436
0.114948 -0.090875 0.293647
0.116398 -0.090911 0.293631
0.118031 -0.091088 0.294059
0.119312 -0.090992 0.293600
0.120704 -0.090981 0.293408
0.122191 -0.091041 0.293435
0.123473 -0.090950 0.292963
0.124962 -0.091010 0.292971
0.126531 -0.091128 0.293153
0.128026 -0.091190 0.293145
0.129628 -0.091325 0.293363
0.131202 -0.091438 0.293497
0.132651 -0.091463 0.293336
0.134040 -0.091446 0.293028
0.135501 -0.091478 0.292867
0.136991 -0.091528 0.292751
0.138489 -0.091583 0.292636
0.140062 -0.091686 0.292660
0.141800 -0.091894 0.293002
0.143604 -0.092139 0.293451
0.145314 -0.092320 0.293677
0.146837 -0.092380 0.293501
0.148527 -0.092543 0.293634
0.150179 -0.092679 0.293663
0.152031 -0.092935 0.294054
0.153522 -0.092967 0.293717
0.154904 -0.092933 0.293152
0.156551 -0.093057 0.293064
-0.143610 -0.082233 0.265504
-0.142465 -0.082310 0.266147
-0.142323 -0.082972 0.268670
-0.142088 -0.083592 0.271046
-0.152346 -0.090453 0.293677
-0.150990 -0.090483 0.294140
-0.150025 -0.090750 0.295358
-0.148541 -0.090705 0.295547
-0.147213 -0.090755 0.296033
-0.146007 -0.090883 0.296756
-0.144423 -0.090775 0.296697
-0.143082 -0.090820 0.297124
-0.141641 -0.090801 0.297329
-0.140082 -0.090706 0.297271
-0.137646 -0.090035 0.295312
-0.134113 -0.088626 0.290917
-0.130822 -0.087349 0.286935
-0.143340 -0.096711 0.317911
-0.141995 -0.096821 0.318481
-0.142078 -0.097916 0.322284
-0.140716 -0.098029 0.322847
-0.126543 -0.089121 0.293676
-0.125041 -0.089040 0.293561
-0.123717 -0.089084 0.293853
-0.122642 -0.089311 0.294737
-0.121258 -0.089316 0.294883
-0.119811 -0.089274 0.294864
-0.118531 -0.089357 0.295250
-0.117061 -0.089296 0.295156
-0.114635 -0.088497 0.292610
-0.113463 -0.088658 0.293233
-0.112353 -0.088872 0.294023
-0.110902 -0.088819 0.293924
-0.109574 -0.088864 0.294142
-0.108291 -0.088947 0.294481
-0.107059 -0.089075 0.294962
-0.105710 -0.089108 0.295121
-0.104334 -0.089119 0.295202
-0.102475 -0.088712 0.293893
-0.101447 -0.089022 0.294957
-0.098630 -0.087750 0.290772
-0.097544 -0.088005 0.291639
-0.096182 -0.088013 0.291687
-0.104196 -0.096726 0.320581
-0.102700 -0.096738 0.320630
-0.101630 -0.097156 0.322023
-0.099818 -0.096868 0.321071
-0.097638 -0.096208 0.318882
-0.094561 -0.094629 0.313644
-0.092668 -0.094205 0.312227
-0.090289 -0.093265 0.309101
-0.089638 -0.094109 0.311880
-0.088276 -0.094222 0.312234
-0.087420 -0.094887 0.314417
-0.085821 -0.094755 0.313953
-0.084452 -0.094879 0.314333
-0.083224 -0.095166 0.315254
-0.081905 -0.095358 0.315856
-0.080615 -0.095593 0.316596
-0.078844 -0.095255 0.315439
-0.077098 -0.094935 0.314336
-0.075701 -0.095041 0.314643
-0.068640 -0.087898 0.290956
-0.067669 -0.088421 0.292641
-0.066307 -0.088446 0.292678
-0.064839 -0.088326 0.292236
-0.063603 -0.088523 0.292840
-0.062231 -0.088538 0.292841
-0.060857 -0.088549 0.292828
-0.059424 -0.088472 0.292522
-0.058021 -0.088440 0.292364
-0.056625 -0.088415 0.292228
-0.055299 -0.088502 0.292464
-0.053811 -0.088327 0.291831
-0.052568 -0.088557 0.292538
-0.051079 -0.088373 0.291877
-0.049656 -0.088296 0.291567
-0.048336 -0.088403 0.291865
-0.046888 -0.088277 0.291395
-0.045515 -0.088288 0.291376
-0.044180 -0.088375 0.291610
-0.042680 -0.088126 0.290737
-0.041040 -0.087565 0.288833
-0.040471 -0.089328 0.294595
-0.039105 -0.089394 0.294760
-0.037294 -0.088411 0.291465
-0.036065 -0.088786 0.292653
-0.034702 -0.088846 0.292800
-0.031024 -0.082739 0.272626
-0.029303 -0.081548 0.268658
-0.028096 -0.081744 0.269260
-0.026588 -0.081041 0.266901
-0.025169 -0.080552 0.265252
-0.023854 -0.080360 0.264578
-0.022624 -0.080452 0.264843
-0.021404 -0.080592 0.265267
-0.020135 -0.080557 0.265116
-0.018924 -0.080762 0.265754
-0.017706 -0.080961 0.266375
-0.016399 -0.080759 0.265678
-0.015147 -0.080813 0.265824
-0.013922 -0.081033 0.266518
-0.012668 -0.081115 0.266762
-0.011381 -0.080983 0.266299
-0.010127 -0.081076 0.266581
-0.008872 -0.081197 0.266955
-0.007602 -0.081186 0.266896
-0.006347 -0.081369 0.267479
-0.005083 -0.081514 0.267938
-0.003805 -0.081425 0.267627
-0.002534 -0.081507 0.267881
-0.001258 -0.081458 0.267708
0.000015 -0.081654 0.268337
0.001292 -0.081643 0.268293
0.002601 -0.082645 0.271575
0.003920 -0.083202 0.273398
0.005209 -0.083004 0.272741
0.006560 -0.083677 0.274949
0.007868 -0.083668 0.274917
0.009047 -0.082482 0.271022
0.010221 -0.081555 0.267975
0.011494 -0.081537 0.267920
0.012727 -0.081262 0.267022
0.013986 -0.081190 0.266789
0.015234 -0.081071 0.266406
0.016497 -0.081048 0.266338
0.017782 -0.081123 0.266597
0.019059 -0.081154 0.266710
0.020439 -0.081593 0.268167
0.021786 -0.081855 0.269042
0.022999 -0.081616 0.268271
0.024273 -0.081603 0.268245
0.025317 -0.080860 0.265820
0.026120 -0.079452 0.261209
0.027322 -0.079330 0.260829
0.028504 -0.079165 0.260306
0.029581 -0.078734 0.258912
0.030798 -0.078693 0.258799
0.031983 -0.078577 0.258439
0.033191 -0.078526 0.258294
0.034335 -0.078331 0.257680
0.035563 -0.078334 0.257714
0.036859 -0.078481 0.258223
0.038497 -0.079325 0.261026
0.040236 -0.080318 0.264318
0.041414 -0.080163 0.263837
0.042473 -0.079793 0.262645
0.043683 -0.079721 0.262435
0.044841 -0.079561 0.261935
0.046003 -0.079416 0.261485
0.046987 -0.078979 0.260072
0.048190 -0.078923 0.259913
0.049401 -0.078884 0.259810
0.050667 -0.078930 0.259987
0.051901 -0.078926 0.260000
0.052931 -0.078621 0.259017
0.054388 -0.078947 0.260115
0.055646 -0.078977 0.260237
0.057159 -0.079360 0.261519
0.059522 -0.080882 0.266557
0.061211 -0.081443 0.268425
0.062609 -0.081601 0.268964
0.064295 -0.082122 0.270697
0.065649 -0.082206 0.270991
0.067048 -0.082342 0.271454
0.068210 -0.082188 0.270957
0.069141 -0.081765 0.269572
0.070211 -0.081520 0.268773
0.070782 -0.080714 0.266119
0.071466 -0.080063 0.263976
0.072035 -0.079309 0.261489
0.072995 -0.079001 0.260473
0.074017 -0.078771 0.259710
0.074578 -0.078066 0.257378
0.075989 -0.078259 0.258002
0.077647 -0.078696 0.259429
0.079263 -0.079078 0.260670
0.081189 -0.079751 0.262869
0.083067 -0.080358 0.264845
0.085184 -0.081176 0.267510
0.087850 -0.082484 0.271787
0.096327 -0.089131 0.293649
0.097610 -0.089026 0.293257
0.099018 -0.089036 0.293241
0.100019 -0.088687 0.292034
0.101699 -0.088939 0.292803
0.103577 -0.089357 0.294111
0.104624 -0.089055 0.293045
0.106130 -0.089146 0.293267
0.107715 -0.089301 0.293692
0.109037 -0.089237 0.293387
0.110420 -0.089223 0.293245
0.111866 -0.089260 0.293261
0.113194 -0.089203 0.292962
0.114726 -0.089306 0.293179
0.116305 -0.089443 0.293501
0.117682 -0.089423 0.293300
0.119102 -0.089436 0.293197
0.120518 -0.089445 0.293073
0.121891 -0.089423 0.292840
0.123278 -0.089411 0.292630
0.124872 -0.089548 0.292898
0.126495 -0.089702 0.293210
0.128235 -0.089935 0.293770
0.129589 -0.089895 0.293428
0.131146 -0.089995 0.293531
0.132710 -0.090097 0.293632
0.134008 -0.090019 0.293132
0.135399 -0.090004 0.292825
0.136835 -0.090019 0.292603
0.138185 -0.089978 0.292186
0.139930 -0.090192 0.292584
0.141460 -0.090265 0.292508
0.143359 -0.090569 0.293167
0.145057 -0.090741 0.293382
0.146696 -0.090873 0.293449
0.148571 -0.091148 0.293960
0.150490 -0.091444 0.294521
0.152204 -0.091611 0.294646
0.153598 -0.091584 0.294129
0.155201 -0.091681 0.293990
0.156761 -0.091750 0.293743
-0.144537 -0.081467 0.267447
-0.143012 -0.081331 0.267390
-0.142484 -0.081764 0.269189
-0.142895 -0.082749 0.272795
-0.153018 -0.089429 0.295192
-0.151106 -0.089134 0.294576
-0.149843 -0.089219 0.295203
-0.148422 -0.089212 0.295507
-0.146984 -0.089194 0.295761
-0.145603 -0.089211 0.296118
-0.144266 -0.089255 0.296550
-0.142545 -0.089060 0.296176
-0.141222 -0.089114 0.296614
-0.139778 -0.089091 0.296783
-0.138108 -0.088921 0.296454
-0.136722 -0.088934 0.296720
-0.130300 -0.085637 0.285922
-0.143481 -0.095289 0.318367
-0.142137 -0.095399 0.318936
-0.141605 -0.096061 0.321344
-0.140250 -0.096173 0.321904
-0.126607 -0.087769 0.293933
-0.125293 -0.087821 0.294256
-0.123754 -0.087714 0.294039
-0.122604 -0.087884 0.294742
-0.121338 -0.087974 0.295167
-0.119683 -0.087780 0.294632
-0.118274 -0.087765 0.294689
-0.116220 -0.087265 0.293109
-0.114845 -0.087270 0.293217
-0.113473 -0.087276 0.293323
-0.112116 -0.087295 0.293464
-0.110731 -0.087292 0.293526
-0.109502 -0.087413 0.293999
-0.108294 -0.087555 0.294535
-0.106952 -0.087592 0.294710
-0.105582 -0.087605 0.294802
-0.104212 -0.087619 0.294891
-0.102314 -0.087183 0.293461
-0.100698 -0.086980 0.292806
-0.099003 -0.086701 0.291894
-0.097349 -0.086452 0.291074
-0.095379 -0.085910 0.289266
-0.103985 -0.095017 0.319941
-0.102507 -0.095041 0.320032
-0.101466 -0.095479 0.321508
-0.099714 -0.095249 0.320734
-0.097744 -0.094802 0.319223
-0.094318 -0.092906 0.312828
-0.093008 -0.093068 0.313360
-0.091646 -0.093182 0.313727
-0.089639 -0.092633 0.311861
-0.088525 -0.093005 0.313088
-0.087462 -0.093444 0.314541
-0.085647 -0.093080 0.313284
-0.084472 -0.093412 0.314369
-0.083246 -0.093698 0.315298
-0.081944 -0.093908 0.315966
-0.080578 -0.094050 0.316405
-0.078998 -0.093944 0.316006
-0.077236 -0.093613 0.314848
-0.075838 -0.093719 0.315156
-0.068899 -0.086845 0.291997
-0.067641 -0.086998 0.292463
-0.066315 -0.087067 0.292649
-0.064939 -0.087073 0.292617
-0.063485 -0.086972 0.292229
-0.062143 -0.087024 0.292352
-0.060818 -0.087102 0.292561
-0.059451 -0.087124 0.292581
-0.058047 -0.087089 0.292411
-0.056673 -0.087101 0.292396
-0.055328 -0.087158 0.292532
-0.053907 -0.087096 0.292266
-0.052540 -0.087119 0.292289
-0.051161 -0.087125 0.292251
-0.049705 -0.086994 0.291755
-0.048326 -0.086996 0.291708
-0.046981 -0.087061 0.291868
-0.045605 -0.087071 0.291845
-0.044245 -0.087112 0.291927
-0.042812 -0.087009 0.291527
-0.040899 -0.085892 0.287729
-0.040891 -0.088835 0.297533
-0.039511 -0.088902 0.297700
-0.037220 -0.086847 0.290765
-0.036080 -0.087423 0.292643
-0.031077 -0.081575 0.272971
-0.029029 -0.079512 0.266023
-0.028055 -0.080338 0.268740
-0.026504 -0.079511 0.265929
-0.025121 -0.079131 0.264616
-0.023814 -0.078961 0.264009
-0.022569 -0.078991 0.264068
-0.021322 -0.079015 0.264111
-0.020099 -0.079142 0.264497
-0.018845 -0.079150 0.264490
-0.017621 -0.079298 0.264948
-0.016362 -0.079298 0.264917
-0.015161 -0.079603 0.265902
-0.013932 -0.079808 0.266558
-0.012640 -0.079648 0.265995
-0.011397 -0.079806 0.266493
-0.010143 -0.079910 0.266815
-0.008884 -0.079998 0.267086
-0.007605 -0.079918 0.266796
-0.006337 -0.079927 0.266807
-0.005076 -0.080070 0.267266
-0.003805 -0.080086 0.267301
-0.002537 -0.080231 0.267770
-0.001264 -0.080308 0.268011
0.000012 -0.080269 0.267869
0.001291 -0.080522 0.268704
0.002566 -0.080361 0.268158
0.003879 -0.081121 0.270688
0.005185 -0.081390 0.271580
0.006567 -0.082507 0.275302
0.007426 -0.077766 0.259481
0.008628 -0.077464 0.258476
0.009902 -0.077798 0.259589
0.011116 -0.077641 0.259069
0.012339 -0.077575 0.258856
0.013592 -0.077691 0.259246
0.014890 -0.078018 0.260348
0.016141 -0.078074 0.260543
0.017413 -0.078213 0.261017
0.018790 -0.078769 0.262886
0.020406 -0.080201 0.267679
0.021722 -0.080351 0.268194
0.023044 -0.080506 0.268729
0.024387 -0.080717 0.269451
0.025294 -0.079531 0.265512
0.026282 -0.078705 0.262772
0.027355 -0.078194 0.261089
0.028548 -0.078055 0.260647
0.029675 -0.077755 0.259668
0.030768 -0.077394 0.258486
0.032001 -0.077400 0.258528
0.033256 -0.077455 0.258739
0.034531 -0.077552 0.259087
0.035733 -0.077485 0.258891
0.037033 -0.077626 0.259390
0.038584 -0.078268 0.261562
0.039810 -0.078230 0.261462
0.041056 -0.078232 0.261497
0.042333 -0.078294 0.261732
0.044089 -0.079209 0.264821
0.045193 -0.078937 0.263940
0.045974 -0.078130 0.261270
0.047686 -0.078905 0.263893
0.048570 -0.078307 0.261922
0.049310 -0.077511 0.259285
0.050775 -0.077867 0.260505
