ply
format ascii 1.0
element vertex 1745
property float x
property float y
property float z
end_header
-0.028049 0.078196 0.257281
-0.026972 0.078612 0.258607
-0.025624 0.078243 0.257350
-0.024371 0.078136 0.256960
-0.023148 0.078123 0.256879
-0.021965 0.078251 0.257261
-0.020829 0.078569 0.258268
-0.019718 0.079028 0.259742
-0.018605 0.079541 0.261393
-0.017490 0.080120 0.263261
-0.016281 0.080319 0.263885
-0.015156 0.081006 0.266108
-0.014042 0.081882 0.268958
-0.012866 0.082532 0.271065
-0.011654 0.083077 0.272827
-0.007601 0.081326 0.267004
-0.006333 0.081341 0.267032
-0.005143 0.082627 0.271237
-0.003851 0.082563 0.271009
-0.002569 0.082791 0.271741
-0.001276 0.082765 0.271644
0.000016 0.082566 0.270977
0.001299 0.082174 0.269679
0.002557 0.081389 0.267095
0.003837 0.081582 0.267721
0.005066 0.080873 0.265390
0.006258 0.079962 0.262398
0.007466 0.079535 0.260995
0.008742 0.079844 0.262009
0.009912 0.079235 0.260011
0.011103 0.078900 0.258914
0.012394 0.079280 0.260164
0.013702 0.079683 0.261495
0.014925 0.079568 0.261123
0.016274 0.080090 0.262845
0.017630 0.080572 0.264438
0.018849 0.080403 0.263894
0.020211 0.080824 0.265291
0.021291 0.080140 0.263060
0.022896 0.081393 0.267188
0.024155 0.081351 0.267066
0.024757 0.079209 0.260055
0.025765 0.078511 0.257781
0.027059 0.078706 0.258441
0.028064 0.078081 0.256411
0.029261 0.078019 0.256228
0.030531 0.078148 0.256672
0.031738 0.078114 0.256584
0.032926 0.078034 0.256346
0.034157 0.078061 0.256459
0.035339 0.077978 0.256210
0.036484 0.077819 0.255714
0.038522 0.079515 0.261314
0.039897 0.079779 0.262210
0.041862 0.081170 0.266810
0.042857 0.080654 0.265140
0.043413 0.079365 0.260931
0.045181 0.080302 0.264038
0.046323 0.080106 0.263423
0.047193 0.079462 0.261331
0.048669 0.079845 0.262619
0.050014 0.079998 0.263151
0.051195 0.079890 0.262820
0.053133 0.080937 0.266293
0.054765 0.081483 0.268112
0.056305 0.081868 0.269407
0.057678 0.082000 0.269864
0.059047 0.082120 0.270281
0.060224 0.081973 0.269821
0.061410 0.081844 0.269417
0.062848 0.082050 0.270114
0.064090 0.081996 0.269954
0.065238 0.081826 0.269413
0.066619 0.081951 0.269837
0.067972 0.082035 0.270129
0.069078 0.081825 0.269448
0.070054 0.081471 0.268290
0.070839 0.080911 0.266453
0.071929 0.080712 0.265803
0.072908 0.080399 0.264774
0.073410 0.079579 0.262072
0.074145 0.079035 0.260276
0.074874 0.078501 0.258512
0.075471 0.077849 0.256355
0.076423 0.077579 0.255453
0.077994 0.077935 0.256610
0.079413 0.078130 0.257232
0.081103 0.078582 0.258698
0.083586 0.079777 0.262606
0.084735 0.079683 0.262266
0.095312 0.085835 0.282391
0.098808 0.087746 0.288624
0.100304 0.087852 0.288915
0.101751 0.087913 0.289052
0.102924 0.087739 0.288409
0.104267 0.087711 0.288245
0.105670 0.087735 0.288242
0.106997 0.087696 0.288025
0.108334 0.087666 0.287832
0.109753 0.087701 0.287848
0.111005 0.087604 0.287421
0.112467 0.087673 0.287533
0.114185 0.087938 0.288278
0.115699 0.088041 0.288485
0.117005 0.087984 0.288162
0.118614 0.088155 0.288573
0.120156 0.088272 0.288800
0.121704 0.088390 0.289023
0.123438 0.088640 0.289663
0.125049 0.088796 0.289989
0.126488 0.088828 0.289899
0.127961 0.088883 0.289873
0.129419 0.088927 0.289799
0.130832 0.088939 0.289611
0.133076 0.089509 0.291227
0.134330 0.089409 0.290649
0.135406 0.089193 0.289684
0.137341 0.089541 0.290537
0.138749 0.089542 0.290250
0.140185 0.089562 0.290008
0.141832 0.089714 0.290182
0.143573 0.089921 0.290519
0.145757 0.090400 0.291714
0.147583 0.090649 0.292149
0.149125 0.090720 0.291993
0.150628 0.090767 0.291741
0.152247 0.090881 0.291688
0.153876 0.091000 0.291629
0.155406 0.091058 0.291355
-0.045412 0.026439 0.083925
-0.045245 0.026579 0.084495
-0.045246 0.026820 0.085385
-0.045203 0.027040 0.086203
-0.045269 0.027330 0.087240
-0.045091 0.027476 0.087818
-0.045255 0.028100 0.090022
-0.042776 0.031326 0.101611
-0.042995 0.031844 0.103338
-0.042856 0.032105 0.104232
-0.042558 0.032252 0.104752
-0.042114 0.032291 0.104919
-0.043666 0.033879 0.110118
-0.043199 0.033920 0.110289
-0.042982 0.034160 0.111105
-0.042493 0.034188 0.111227
-0.041614 0.033899 0.110316
-0.041536 0.034263 0.111528
-0.041371 0.034564 0.112532
-0.041349 0.034993 0.113953
-0.041831 0.035866 0.116817
-0.041514 0.036069 0.117496
-0.041621 0.036650 0.119405
-0.041483 0.037028 0.120652
-0.040768 0.036895 0.120231
-0.042700 0.039187 0.127712
-0.042956 0.039984 0.130320
-0.041820 0.039491 0.128718
-0.041432 0.039699 0.129403
-0.059692 0.059832 0.195038
-0.058632 0.059687 0.194561
-0.060192 0.062247 0.202903
-0.058771 0.061757 0.201296
-0.057629 0.061549 0.200610
-0.057335 0.062255 0.202898
-0.056411 0.062289 0.202997
-0.055694 0.062556 0.203851
-0.054963 0.062817 0.204684
-0.054153 0.062996 0.205246
-0.053459 0.063318 0.206276
-0.052648 0.063512 0.206883
-0.051964 0.063869 0.208023
-0.051185 0.064121 0.208816
-0.050500 0.064502 0.210029
-0.049760 0.064827 0.211060
-0.049149 0.065337 0.212688
-0.048385 0.065661 0.213710
-0.047611 0.065985 0.214731
-0.046731 0.066172 0.215308
-0.045925 0.066475 0.216258
-0.045147 0.066833 0.217386
-0.044369 0.067208 0.218569
-0.043547 0.067534 0.219591
-0.042974 0.068269 0.221943
-0.042528 0.069250 0.225091
-0.051921 0.086711 0.281799
-0.051280 0.087893 0.285587
-0.049976 0.087972 0.285794
-0.048659 0.088034 0.285942
-0.047336 0.088085 0.286058
-0.045963 0.088045 0.285877
-0.044642 0.088106 0.286021
-0.043482 0.088498 0.287243
-0.041303 0.086775 0.281599
-0.040050 0.086946 0.282105
-0.040177 0.090230 0.292706
-0.038820 0.090296 0.292869
-0.035813 0.086386 0.280141
-0.034824 0.087233 0.282839
-0.031567 0.082236 0.266592
-0.029817 0.080915 0.262265
-0.028174 0.079782 0.258553
-0.027058 0.080106 0.259560
-0.025620 0.079459 0.257424
-0.024350 0.079299 0.256868
-0.023134 0.079306 0.256851
-0.021930 0.079357 0.256980
-0.020762 0.079552 0.257577
-0.019679 0.080116 0.259367
-0.018622 0.080872 0.261780
-0.017559 0.081708 0.264454
-0.016358 0.081978 0.265297
-0.015278 0.082955 0.268427
-0.014212 0.084190 0.272395
-0.012841 0.083679 0.270714
-0.011631 0.084232 0.272474
-0.010339 0.084254 0.272519
-0.007721 0.083941 0.271464
-0.006432 0.083957 0.271493
-0.005131 0.083774 0.270885
-0.003841 0.083709 0.270657
-0.002561 0.083940 0.271388
-0.001270 0.083914 0.271291
0.000019 0.083712 0.270625
0.001304 0.083598 0.270245
0.002570 0.082964 0.268189
0.003839 0.082821 0.267717
0.005081 0.082320 0.266094
0.006252 0.081091 0.262118
0.007464 0.080723 0.260926
0.008717 0.080826 0.261258
0.009859 0.080013 0.258632
0.011092 0.080032 0.258694
0.012339 0.080135 0.259031
0.013584 0.080208 0.259273
0.014901 0.080664 0.260753
0.016178 0.080845 0.261347
0.017490 0.081162 0.262382
0.018788 0.081380 0.263097
0.020145 0.081805 0.264483
0.021349 0.081599 0.263830
0.023103 0.083399 0.269663
0.024417 0.083506 0.270028
0.024886 0.080855 0.261470
0.025497 0.078896 0.255153
0.026753 0.079019 0.255570
0.028041 0.079225 0.256257
0.029125 0.078860 0.255094
0.030391 0.078994 0.255550
0.031620 0.079029 0.255685
0.032827 0.079007 0.255637
0.034058 0.079042 0.255772
0.035316 0.079135 0.256097
0.036506 0.079074 0.255922
0.037770 0.079172 0.256264
0.040373 0.081983 0.265389
0.041604 0.081922 0.265217
0.042637 0.081487 0.263833
0.043675 0.081085 0.262559
0.044797 0.080856 0.261844
0.046007 0.080795 0.261672
0.046980 0.080333 0.260198
0.048193 0.080292 0.260090
0.049552 0.080492 0.260762
0.050934 0.080716 0.261515
0.052504 0.081223 0.263179
0.053868 0.081394 0.263757
0.055402 0.081808 0.265122
0.056973 0.082257 0.266597
0.058391 0.082470 0.267307
0.059839 0.082715 0.268122
0.061244 0.082892 0.268713
0.062703 0.083134 0.269514
0.064032 0.083197 0.269733
0.065436 0.083352 0.270251
0.066498 0.083075 0.269363
0.067955 0.083291 0.270075
0.069064 0.083081 0.269403
0.070039 0.082720 0.268237
0.070703 0.082012 0.265943
0.071861 0.081891 0.265555
0.072735 0.081456 0.264143
0.073250 0.080642 0.261497
0.074068 0.080181 0.259998
0.075085 0.079948 0.259232
0.076249 0.079876 0.258986
0.077086 0.079469 0.257651
0.078572 0.079734 0.258490
0.080117 0.080050 0.259492
0.081768 0.080459 0.260793
0.083634 0.081066 0.262729
0.084786 0.080971 0.262389
0.096415 0.088180 0.285611
0.098430 0.088771 0.287469
0.099681 0.088666 0.287066
0.101657 0.089199 0.288723
0.102871 0.089058 0.288195
0.104105 0.088939 0.287730
0.105582 0.089027 0.287929
0.106864 0.088951 0.287591
0.108358 0.089050 0.287814
0.109719 0.089039 0.287674
0.110996 0.088962 0.287309
0.113015 0.089472 0.288838
0.114263 0.089368 0.288375
0.115488 0.089248 0.287852
0.117201 0.089504 0.288534
0.118533 0.089466 0.288259
0.119988 0.089521 0.288276
0.121468 0.089593 0.288335
0.122734 0.089507 0.287879
0.125170 0.090267 0.290132
0.126673 0.090344 0.290181
0.128037 0.090322 0.289897
0.129717 0.090520 0.290311
0.131749 0.090957 0.291477
0.132477 0.090495 0.289749
0.134804 0.091122 0.291497
0.136209 0.091120 0.291219
0.137442 0.091003 0.290563
0.139106 0.091172 0.290802
0.140454 0.091132 0.290363
0.141864 0.091132 0.290037
0.143507 0.091280 0.290167
0.145260 0.091495 0.290493
0.147294 0.091881 0.291342
0.148917 0.092005 0.291343
0.150644 0.092191 0.291520
0.152180 0.092257 0.291298
0.153890 0.092426 0.291384
0.155522 0.092545 0.291291
-0.045168 0.026702 0.083398
-0.045038 0.026865 0.084035
-0.044927 0.027041 0.084711
-0.045049 0.027363 0.085840
-0.045073 0.027630 0.086794
-0.045422 0.028369 0.089337
-0.045288 0.028554 0.090025
-0.041982 0.031218 0.099687
-0.042619 0.032052 0.102399
-0.042429 0.032275 0.103161
-0.042188 0.032464 0.103810
-0.041465 0.032283 0.103270
-0.040865 0.032194 0.103026
-0.043490 0.034675 0.111003
-0.043019 0.034716 0.111173
-0.042645 0.034839 0.111600
-0.042182 0.034891 0.111797
-0.041916 0.035110 0.112527
-0.041545 0.035244 0.112985
-0.041108 0.035326 0.113271
-0.041170 0.035844 0.114954
-0.041304 0.036440 0.116886
-0.041201 0.036840 0.118187
-0.041319 0.037450 0.120163
-0.040906 0.037590 0.120625
-0.040623 0.037856 0.121491
-0.042906 0.040554 0.130160
-0.059498 0.061503 0.197440
-0.059124 0.062085 0.199307
-0.058576 0.062501 0.200636
-0.057745 0.062624 0.201024
-0.057017 0.062864 0.201786
-0.056370 0.063203 0.202862
-0.055561 0.063369 0.203383
-0.054911 0.063726 0.204512
-0.054091 0.063895 0.205036
-0.053343 0.064156 0.205857
-0.052565 0.064390 0.206587
-0.051778 0.064622 0.207307
-0.051119 0.065025 0.208578
-0.050425 0.065399 0.209752
-0.049773 0.065844 0.211152
-0.049027 0.066181 0.212202
-0.048199 0.066417 0.212931
-0.047425 0.066740 0.213936
-0.046529 0.066903 0.214424
-0.045730 0.067214 0.215391
-0.044918 0.067521 0.216338
-0.044133 0.067883 0.217463
-0.043470 0.068454 0.219257
-0.042856 0.069134 0.221398
-0.053120 0.087831 0.281228
-0.051840 0.087912 0.281441
-0.051176 0.089070 0.285098
-0.049913 0.089218 0.285524
-0.048565 0.089219 0.285478
-0.047317 0.089410 0.286038
-0.045986 0.089450 0.286117
-0.044674 0.089533 0.286331
-0.043368 0.089629 0.286591
-0.041258 0.088020 0.281395
-0.039491 0.087059 0.278275
-0.039626 0.090369 0.288808
-0.038287 0.090435 0.288968
-0.035877 0.087880 0.280759
-0.034683 0.088222 0.281805
-0.031664 0.083766 0.267526
-0.029527 0.081370 0.259833
-0.028065 0.080704 0.257667
-0.027012 0.081207 0.259233
-0.025584 0.080579 0.257190
-0.024308 0.080389 0.256546
-0.023184 0.080710 0.257533
-0.021937 0.080615 0.257196
-0.020766 0.080803 0.257759
-0.019691 0.081414 0.259673
-0.018602 0.082040 0.261639
-0.017637 0.083345 0.265766
-0.016417 0.083557 0.266414
-0.015394 0.084887 0.270623
-0.014161 0.085193 0.271569
-0.012893 0.085335 0.271995
-0.011608 0.085381 0.272116
-0.010291 0.085180 0.271449
-0.008984 0.085008 0.270880
-0.007632 0.084282 0.268546
-0.006374 0.084514 0.269263
-0.005079 0.084261 0.268441
-0.003806 0.084315 0.268596
-0.002537 0.084541 0.269299
-0.001262 0.084892 0.270405
0.000023 0.084806 0.270117
0.001308 0.084919 0.270467
0.002570 0.084124 0.267926
0.003864 0.084580 0.269372
0.005111 0.084026 0.267603
0.006256 0.082347 0.262252
0.007480 0.082095 0.261445
0.008694 0.081821 0.260573
0.009885 0.081429 0.259325
0.011073 0.081098 0.258272
0.012303 0.081108 0.258305
0.013602 0.081530 0.259654
0.014829 0.081486 0.259521
0.015883 0.080576 0.256629
0.017281 0.081409 0.259293
0.018661 0.082055 0.261359
0.020061 0.082701 0.263429
0.021276 0.082555 0.262976
0.022954 0.084122 0.267980
0.024111 0.083712 0.266689
0.025367 0.083674 0.266585
0.025501 0.080110 0.255247
0.026652 0.079923 0.254667
0.027919 0.080083 0.255196
0.029109 0.080018 0.255005
0.030288 0.079928 0.254738
0.031531 0.080009 0.255016
0.032772 0.080079 0.255262
0.033961 0.080021 0.255098
0.035188 0.080053 0.255221
0.036455 0.080170 0.255617
0.037637 0.080098 0.255410
0.039393 0.081217 0.259000
0.041398 0.082763 0.263956
0.042174 0.081834 0.261017
0.043052 0.081150 0.258857
0.044449 0.081455 0.259855
0.045325 0.080814 0.257833
0.046309 0.080395 0.256518
0.047515 0.080373 0.256470
0.048556 0.080080 0.255556
0.049982 0.080421 0.256666
0.051506 0.080898 0.258211
0.053168 0.081565 0.260358
0.054712 0.082025 0.261848
0.056211 0.082399 0.263058
0.057930 0.083071 0.265222
0.059640 0.083702 0.267253
0.061018 0.083851 0.267745
0.062658 0.084346 0.269341
0.064087 0.084542 0.269979
0.065317 0.084474 0.269772
0.066671 0.084566 0.270074
0.067853 0.084439 0.269677
0.069016 0.084295 0.269221
0.069988 0.083927 0.268048
0.070651 0.083207 0.265751
0.071636 0.082885 0.264720
0.072594 0.082544 0.263627
0.073453 0.082103 0.262212
0.074472 0.081854 0.261405
0.075679 0.081815 0.261270
0.076760 0.081643 0.260703
0.077312 0.080924 0.258388
0.078626 0.081012 0.258646
0.080420 0.081583 0.260444
0.081953 0.081877 0.261355
0.083433 0.082110 0.262064
0.084904 0.082327 0.262717
0.086723 0.082870 0.264408
0.097271 0.090327 0.288097
0.098529 0.090223 0.287702
0.100055 0.090362 0.288081
0.101672 0.090580 0.288704
0.102918 0.090465 0.288258
0.104123 0.090318 0.287706
0.105581 0.090391 0.287849
0.106831 0.090286 0.287419
0.108260 0.090334 0.287467
0.109661 0.090357 0.287431
0.110883 0.090233 0.286920
0.112700 0.090591 0.287934
0.114386 0.090836 0.288578
0.115737 0.090812 0.288362
0.117012 0.090730 0.287952
0.118555 0.090856 0.288193
0.119964 0.090876 0.288091
0.121187 0.090757 0.287537
0.122785 0.090918 0.287863
0.124778 0.091364 0.289080
0.126749 0.091785 0.290203
0.128203 0.091826 0.290116
0.129569 0.091803 0.289815
0.130964 0.091802 0.289571
0.132441 0.091857 0.289494
0.133801 0.091831 0.289147
0.135301 0.091900 0.289089
0.136748 0.091932 0.288900
0.138580 0.092220 0.289500
0.140122 0.092311 0.289466
0.141648 0.092388 0.289377
0.143227 0.092499 0.289375
0.144839 0.092629 0.289417
0.146843 0.093005 0.290207
0.148625 0.093233 0.290518
0.150382 0.093442 0.290750
0.152250 0.093715 0.291162
0.153920 0.093862 0.291159
0.155488 0.093945 0.290938
-0.045127 0.027083 0.083245
-0.044995 0.027246 0.083879
-0.045012 0.027504 0.084798
-0.045435 0.028016 0.086501
-0.045443 0.028280 0.087435
-0.044951 0.028234 0.087408
-0.045107 0.028599 0.088649
-0.045199 0.028930 0.089782
-0.042743 0.032267 0.101456
-0.042296 0.032291 0.101585
-0.042438 0.032772 0.103146
-0.042149 0.032927 0.103680
-0.041108 0.032491 0.102350
-0.040502 0.032392 0.102080
-0.043418 0.035142 0.110787
-0.042815 0.035076 0.110618
-0.042431 0.035190 0.111013
-0.042314 0.035531 0.112122
-0.041873 0.035606 0.112387
-0.041357 0.035617 0.112449
-0.041246 0.035982 0.113629
-0.042543 0.037601 0.118767
-0.041311 0.036999 0.116886
-0.042103 0.038217 0.120755
-0.041584 0.038263 0.120920
-0.040839 0.038099 0.120417
-0.040996 0.038782 0.122592
-0.062096 0.061333 0.193925
-0.060623 0.060771 0.192157
-0.061063 0.062138 0.196488
-0.060320 0.062326 0.197089
-0.059633 0.062578 0.197887
-0.058836 0.062721 0.198339
-0.058048 0.062879 0.198835
-0.057528 0.063336 0.200277
-0.056921 0.063711 0.201455
-0.056083 0.063836 0.201843
-0.055725 0.064521 0.203998
-0.054906 0.064687 0.204510
-0.054043 0.064808 0.204875
-0.053314 0.065095 0.205765
-0.052459 0.065236 0.206194
-0.051648 0.065438 0.206814
-0.050833 0.065644 0.207440
-0.050124 0.065997 0.208533
-0.049369 0.066302 0.209472
-0.048809 0.066887 0.211295
-0.048039 0.067202 0.212264
-0.047243 0.067495 0.213160
-0.046394 0.067723 0.213849
-0.045537 0.067948 0.214531
-0.044731 0.068262 0.215489
-0.043980 0.068675 0.216760
-0.043533 0.069596 0.219634
-0.043113 0.070604 0.222779
-0.053496 0.089799 0.283300
-0.052207 0.089881 0.283514
-0.051060 0.090220 0.284537
-0.049878 0.090512 0.285411
-0.048580 0.090606 0.285660
-0.047310 0.090757 0.286089
-0.046018 0.090875 0.286413
-0.044708 0.090964 0.286645
-0.043391 0.091042 0.286845
-0.042055 0.091086 0.286934
-0.040729 0.091154 0.287103
-0.038107 0.091380 0.287720
-0.036091 0.089752 0.282550
-0.034868 0.090045 0.283427
-0.033548 0.090104 0.283568
-0.029481 0.082480 0.259534
-0.028086 0.081996 0.257971
-0.027015 0.082455 0.259378
-0.025581 0.081800 0.257280
-0.024350 0.081759 0.257113
-0.023194 0.081979 0.257771
-0.021992 0.082052 0.257964
-0.020824 0.082268 0.258610
-0.019712 0.082748 0.260086
-0.018679 0.083643 0.262866
-0.017563 0.084269 0.264804
-0.016308 0.084273 0.264787
-0.015266 0.085473 0.268525
-0.013922 0.085048 0.267165
-0.012696 0.085325 0.268007
-0.011490 0.085822 0.269543
-0.010123 0.085082 0.267196
-0.008849 0.085034 0.267023
-0.007545 0.084620 0.265703
-0.006271 0.084452 0.265154
-0.005035 0.084852 0.266394
-0.003763 0.084694 0.265882
-0.002509 0.085016 0.266878
-0.001250 0.085609 0.268725
0.000026 0.085473 0.268286
0.001304 0.085690 0.268958
0.002553 0.084714 0.265884
0.003865 0.085799 0.269281
0.005124 0.085451 0.268186
0.006223 0.083111 0.260836
0.007412 0.082549 0.259069
0.008628 0.082396 0.258587
0.009823 0.082109 0.257686
0.011033 0.081999 0.257344
0.012274 0.082118 0.257720
0.013558 0.082478 0.258852
0.014820 0.082652 0.259404
0.016043 0.082601 0.259253
0.017317 0.082799 0.259882
0.018616 0.083081 0.260774
0.020046 0.083876 0.263280
0.021140 0.083257 0.261349
0.022916 0.085240 0.267587
0.024419 0.086052 0.270149
0.025691 0.086013 0.270043
0.025253 0.080521 0.252815
0.026492 0.080634 0.253185
0.027899 0.081226 0.255061
0.028992 0.080892 0.254029
0.030283 0.081115 0.254746
0.031565 0.081300 0.255346
0.032850 0.081474 0.255913
0.034133 0.081634 0.256436
0.035406 0.081760 0.256850
0.036578 0.081650 0.256527
0.037907 0.081887 0.257292
0.039885 0.083468 0.262281
0.041102 0.083407 0.262112
0.042043 0.082807 0.260248
0.042773 0.081837 0.257221
0.043836 0.081541 0.256311
0.045023 0.081485 0.256156
0.045645 0.080437 0.252880
0.046636 0.080074 0.251760
0.047984 0.080328 0.252578
0.049058 0.080123 0.251952
0.050578 0.080637 0.253586
0.052290 0.081427 0.256089
0.053908 0.082038 0.258026
0.055407 0.082444 0.259320
0.057171 0.083218 0.261769
0.059203 0.084342 0.265319
0.061005 0.085097 0.267706
0.062438 0.085317 0.268409
0.064280 0.086075 0.270806
0.065539 0.086040 0.270701
0.066674 0.085845 0.270095
0.067765 0.085602 0.269334
0.068915 0.085441 0.268831
0.069829 0.084999 0.267439
0.070634 0.084441 0.265682
0.071314 0.083758 0.263527
0.072687 0.083897 0.263957
0.073580 0.083486 0.262653
0.074774 0.083426 0.262451
0.075319 0.082654 0.260008
0.075987 0.082041 0.258060
0.077151 0.081973 0.257825
0.077955 0.081532 0.256412
0.079285 0.081646 0.256740
0.081253 0.082403 0.259089
0.082852 0.082768 0.260201
0.083287 0.081978 0.257676
0.086627 0.084028 0.264073
0.098579 0.091631 0.287787
0.099956 0.091636 0.287731
0.101412 0.091712 0.287896
0.102710 0.091645 0.287603
0.104019 0.091590 0.287340
0.105323 0.091531 0.287063
0.106781 0.091607 0.287199
0.108217 0.091661 0.287261
0.109386 0.091491 0.286613
0.111159 0.091824 0.287534
0.112807 0.092047 0.288101
0.114280 0.092122 0.288199
0.115834 0.092261 0.288488
0.117204 0.092252 0.288305
0.118525 0.092204 0.287993
0.120223 0.092448 0.288581
0.121833 0.092618 0.288931
0.123338 0.092706 0.289014
0.125149 0.093020 0.289788
0.126534 0.093012 0.289553
0.128158 0.093180 0.289850
0.129672 0.093264 0.289878
0.130971 0.093193 0.289411
0.132616 0.093367 0.289693
0.134239 0.093523 0.289904
0.135645 0.093525 0.289627
0.137120 0.093574 0.289482
0.138707 0.093698 0.289552
0.140231 0.093777 0.289471
0.141724 0.093834 0.289306
0.143406 0.094014 0.289502
0.145090 0.094191 0.289675
0.147264 0.094679 0.290785
0.149192 0.095002 0.291365
0.150916 0.095190 0.291511
0.152211 0.095106 0.290806
0.154008 0.095334 0.291036
0.155726 0.095509 0.291082
-0.045104 0.027474 0.083121
-0.044944 0.027622 0.083703
-0.044955 0.027879 0.084612
-0.045739 0.028625 0.087003
-0.045268 0.028592 0.087024
-0.044953 0.028658 0.087342
-0.044677 0.028750 0.087736
-0.045468 0.029537 0.090248
-0.041706 0.031954 0.098954
-0.042390 0.032847 0.101773
-0.041818 0.032776 0.101603
-0.041520 0.032920 0.102098
-0.041679 0.033435 0.103738
-0.041803 0.033932 0.105325
-0.041338 0.033959 0.105448
-0.041444 0.034461 0.107046
-0.041670 0.035075 0.108991
-0.041557 0.035417 0.110087
-0.041453 0.035775 0.111233
-0.040662 0.035542 0.110538
-0.040893 0.036208 0.112636
-0.040658 0.036473 0.113486
-0.041279 0.037523 0.116777
-0.041144 0.037905 0.117988
-0.041538 0.038791 0.120767
-0.044569 0.042200 0.131397
-0.044003 0.042250 0.131571
-0.062022 0.062176 0.193680
-0.061292 0.062360 0.194268
-0.060825 0.062823 0.195717
-0.059989 0.062911 0.196001
-0.059347 0.063209 0.196934
-0.059076 0.063919 0.199147
-0.058307 0.064103 0.199722
-0.057511 0.064264 0.200220
-0.056830 0.064561 0.201142
-0.056268 0.065005 0.202518
-0.055607 0.065348 0.203579
-0.054840 0.065577 0.204281
-0.054028 0.065758 0.204834
-0.053236 0.065971 0.205483
-0.052375 0.066106 0.205885
-0.051505 0.066234 0.206266
-0.050677 0.066422 0.206834
-0.049865 0.066639 0.207486
-0.049499 0.067471 0.210057
-0.048759 0.067819 0.211114
-0.047928 0.068051 0.211813
-0.047091 0.068285 0.212513
-0.046228 0.068490 0.213125
-0.045463 0.068854 0.214227
-0.044564 0.069025 0.214731
-0.043937 0.069637 0.216603
-0.043323 0.070298 0.218627
-0.054148 0.090005 0.279876
-0.052877 0.090088 0.280092
-0.052398 0.091562 0.284632
-0.051142 0.091719 0.285074
-0.049867 0.091849 0.285433
-0.048599 0.091999 0.285854
-0.047272 0.092044 0.285950
-0.045990 0.092183 0.286335
-0.044621 0.092148 0.286180
-0.043337 0.092294 0.286589
-0.041977 0.092282 0.286508
-0.040430 0.091843 0.285099
-0.039327 0.092420 0.286844
-0.037997 0.092485 0.287002
-0.035885 0.090580 0.281048
-0.034763 0.091124 0.282692
-0.033447 0.091183 0.282831
-0.029468 0.083684 0.259534
-0.028209 0.083594 0.259217
-0.027257 0.084445 0.261818
-0.025588 0.083052 0.257462
-0.024372 0.083063 0.257460
-0.023227 0.083331 0.258258
-0.022043 0.083480 0.258685
-0.020810 0.083451 0.258561
-0.019699 0.083938 0.260040
-0.018580 0.084458 0.261620
-0.017571 0.085580 0.265066
-0.016336 0.085697 0.265397
-0.015165 0.086193 0.266904
-0.013930 0.086389 0.267487
-0.012689 0.086576 0.268040
-0.011392 0.086382 0.267413
-0.010066 0.085897 0.265889
-0.008750 0.085367 0.264228
-0.007480 0.085184 0.263642
-0.006208 0.084911 0.262777
-0.004988 0.085369 0.264176
-0.003734 0.085368 0.264158
-0.002489 0.085698 0.265164
-0.001237 0.086230 0.266798
0.000030 0.086675 0.268163
0.001305 0.086788 0.268501
0.002571 0.086474 0.267521
0.003882 0.087373 0.270294
0.005202 0.087988 0.272190
0.006180 0.083722 0.258991
0.007376 0.083326 0.257760
0.008587 0.083191 0.257342
0.009769 0.082846 0.256276
0.011015 0.083061 0.256941
0.012250 0.083157 0.257239
0.013483 0.083219 0.257435
0.014750 0.083467 0.258205
0.016016 0.083669 0.258838
0.017253 0.083707 0.258960
0.018565 0.084071 0.260095
0.020025 0.085024 0.263053
0.021423 0.085615 0.264894
0.023131 0.087308 0.270142
0.024320 0.086968 0.269103
0.025552 0.086808 0.268622
0.025503 0.082521 0.255369
0.026512 0.081888 0.253424
0.027834 0.082234 0.254511
0.029075 0.082323 0.254802
0.030239 0.082197 0.254430
0.031502 0.082337 0.254881
0.032872 0.082736 0.256133
0.033994 0.082506 0.255438
0.035312 0.082750 0.256211
0.036601 0.082911 0.256731
0.037761 0.082781 0.256348
0.040223 0.085422 0.264545
0.041450 0.085361 0.264375
0.041847 0.083643 0.259075
0.042864 0.083227 0.257806
0.043871 0.082816 0.256553
0.044713 0.082125 0.254430
0.045548 0.081456 0.252374
0.046550 0.081112 0.251328
0.047803 0.081212 0.251655
0.049170 0.081497 0.252553
0.050443 0.081615 0.252936
0.052061 0.082274 0.254994
0.053742 0.082999 0.257255
0.055092 0.083193 0.257869
0.056860 0.083995 0.260368
0.059064 0.085393 0.264712
0.060648 0.085856 0.266157
0.062250 0.086323 0.267615
0.063990 0.086960 0.269596
0.065270 0.086960 0.269599
0.066504 0.086898 0.269411
0.067718 0.086813 0.269149
0.068886 0.086674 0.268717
0.070037 0.086518 0.268231
0.071156 0.086330 0.267643
0.072251 0.086119 0.266980
0.073380 0.085955 0.266459
0.074469 0.085751 0.265814
0.075385 0.085358 0.264578
0.075948 0.084584 0.262160
0.076722 0.084066 0.260532
0.077673 0.083756 0.259545
0.078655 0.083487 0.258684
0.079968 0.083573 0.258918
0.081175 0.083547 0.258801
0.082990 0.084139 0.260595
0.083491 0.083401 0.258263
0.085326 0.083997 0.260059
0.097804 0.092262 0.285457
0.099980 0.093020 0.287730
0.101565 0.093216 0.288254
0.102881 0.093163 0.288004
0.104126 0.093047 0.287553
0.105553 0.093096 0.287603
0.106880 0.093055 0.287373
0.108400 0.093181 0.287649
0.109838 0.093235 0.287695
0.111279 0.093290 0.287738
0.112870 0.093468 0.288150
0.114737 0.093867 0.289236
0.116034 0.093795 0.288863
0.117102 0.093542 0.287924
0.118993 0.093945 0.288995
0.120502 0.094040 0.289109
0.122189 0.094270 0.289629
0.123520 0.094224 0.289289
0.124962 0.094262 0.289197
0.126487 0.094361 0.289283
0.128009 0.094456 0.289342
0.129482 0.094513 0.289276
0.131190 0.094738 0.289712
0.132556 0.094714 0.289373
0.134088 0.094808 0.289381
0.135828 0.095045 0.289813
0.137298 0.095090 0.289646
0.138631 0.095040 0.289175
0.140244 0.095181 0.289270
0.141889 0.095341 0.289406
0.143411 0.095416 0.289269
0.145674 0.095977 0.290587
0.147613 0.096316 0.291211
0.149358 0.096523 0.291417
0.151039 0.096685 0.291468
0.152538 0.096728 0.291140
0.154124 0.096825 0.290954
0.155899 0.097038 0.291092
-0.045285 0.027990 0.083371
-0.044930 0.028020 0.083596
-0.044747 0.028159 0.084141
-0.044943 0.028542 0.085412
-0.045637 0.029250 0.087657
-0.044676 0.028901 0.086729
-0.045404 0.029648 0.089090
-0.045042 0.029691 0.089331
-0.044600 0.029682 0.089410
-0.041976 0.032273 0.098392
-0.041557 0.032309 0.098558
-0.041905 0.032950 0.100567
-0.041886 0.033313 0.101728
-0.041554 0.033432 0.102142
-0.041014 0.033385 0.102046
-0.041763 0.034399 0.105190
-0.041830 0.034869 0.106668
-0.040271 0.033978 0.103984
-0.041752 0.035663 0.109177
-0.041671 0.036038 0.110361
-0.041754 0.036566 0.112014
-0.041283 0.036616 0.112199
-0.041002 0.036838 0.112909
-0.041147 0.037455 0.114828
-0.040904 0.037730 0.115695
-0.040589 0.037944 0.116376
-0.042279 0.040066 0.122904
-0.062405 0.063482 0.194859
-0.061606 0.063603 0.195248
-0.060931 0.063859 0.196046
-0.060061 0.063915 0.196229
-0.059435 0.064236 0.197223
-0.058832 0.064593 0.198324
-0.058133 0.064854 0.199128
-0.057532 0.065235 0.200298
-0.056728 0.065395 0.200787
-0.056004 0.065653 0.201575
-0.055244 0.065879 0.202261
-0.054622 0.066279 0.203481
-0.053875 0.066540 0.204272
-0.053076 0.066744 0.204886
-0.052209 0.066868 0.205253
-0.051369 0.067033 0.205745
-0.050508 0.067177 0.206169
-0.049764 0.067485 0.207095
-0.049113 0.067933 0.208450
-0.048525 0.068489 0.210134
-0.047704 0.068732 0.210856
-0.046876 0.068976 0.211582
-0.046138 0.069365 0.212748
-0.045303 0.069623 0.213512
-0.044620 0.070131 0.215044
-0.043683 0.070256 0.215397
-0.043747 0.072033 0.220816
-0.054754 0.092355 0.283075
-0.053467 0.092440 0.283294
-0.052252 0.092656 0.283914
-0.051151 0.093090 0.285202
-0.049881 0.093231 0.285594
-0.048590 0.093342 0.285891
-0.047217 0.093295 0.285703
-0.045906 0.093373 0.285898
-0.044550 0.093361 0.285818
-0.043263 0.093498 0.286195
-0.041887 0.093445 0.285988
-0.040390 0.093109 0.284919
-0.039686 0.094642 0.289565
-0.038344 0.094708 0.289724
-0.036185 0.092688 0.283502
-0.034886 0.092799 0.283799
-0.033565 0.092858 0.283939
-0.029603 0.085312 0.260827
-0.028185 0.084760 0.259104
-0.027251 0.085679 0.261878
-0.025725 0.084736 0.258958
-0.024427 0.084485 0.258160
-0.023254 0.084667 0.258681
-0.022038 0.084701 0.258752
-0.020806 0.084678 0.258650
-0.019653 0.084988 0.259566
-0.018525 0.085460 0.260979
-0.017478 0.086399 0.263816
-0.016247 0.086499 0.264094
-0.015145 0.087366 0.266712
-0.013885 0.087393 0.266768
-0.012606 0.087300 0.266460
-0.011347 0.087337 0.266549
-0.009997 0.086591 0.264250
-0.008712 0.086285 0.263295
-0.007403 0.085586 0.261143
-0.006155 0.085467 0.260761
-0.004912 0.085373 0.260458
-0.003689 0.085672 0.261354
-0.002449 0.085691 0.261398
-0.001220 0.086507 0.263875
0.000033 0.087158 0.265850
0.001297 0.087289 0.266238
0.002542 0.086638 0.264244
0.003856 0.087986 0.268347
0.005197 0.089127 0.271820
0.006156 0.084571 0.257922
0.007325 0.083925 0.255946
0.008554 0.084061 0.256361
0.009766 0.084008 0.256196
0.010971 0.083915 0.255913
0.012183 0.083893 0.255848
0.013397 0.083882 0.255818
0.014654 0.084125 0.256564
0.015897 0.084253 0.256958
0.017050 0.083919 0.255944
0.018389 0.084483 0.257673
0.019835 0.085440 0.260599
0.021381 0.086685 0.264407
0.022813 0.087361 0.266480
0.023947 0.086882 0.265028
0.025564 0.088114 0.268800
0.027382 0.089890 0.274231
0.028590 0.089592 0.273337
0.029743 0.089155 0.272018
0.031040 0.089167 0.272070
0.032407 0.089374 0.272719
0.033591 0.089077 0.271829
0.034629 0.088430 0.269872
0.035534 0.087502 0.267057
0.036187 0.086038 0.262607
0.037941 0.087201 0.266174
0.038824 0.086353 0.263601
0.039905 0.085984 0.262493
0.041149 0.085979 0.262496
0.042101 0.085380 0.260686
0.042731 0.084182 0.257045
0.043644 0.083592 0.255261
0.044771 0.083432 0.254788
0.045575 0.082696 0.252557
0.046536 0.082274 0.251284
0.047809 0.082411 0.251716
0.049069 0.082519 0.252062
0.050248 0.082489 0.251983
0.051863 0.083160 0.254045
0.053556 0.083922 0.256385
0.055046 0.084338 0.257667
0.056838 0.085190 0.260280
0.058685 0.086086 0.263028
0.060455 0.086834 0.265320
0.061923 0.087126 0.266216
0.063704 0.087838 0.268398
0.065110 0.088016 0.268942
0.066337 0.087948 0.268735
0.067801 0.088192 0.269477
0.068734 0.087748 0.268118
0.070181 0.087965 0.268774
0.070987 0.087385 0.266993
0.072273 0.087406 0.267046
0.073057 0.086830 0.265272
0.073926 0.086372 0.263857
0.075084 0.086261 0.263497
0.075639 0.085473 0.261067
0.076568 0.085125 0.259979
0.077596 0.084897 0.259253
0.078108 0.084120 0.256849
0.079604 0.084411 0.257701
0.081209 0.084807 0.258869
0.082732 0.085106 0.259738
0.083510 0.084641 0.258271
0.085802 0.085702 0.261455
0.098703 0.095807 0.292149
0.098157 0.093951 0.286418
0.099987 0.094390 0.287676
0.101672 0.094682 0.288478
0.102906 0.094551 0.287988
0.104182 0.094462 0.287620
0.105690 0.094582 0.287883
0.107029 0.094551 0.287675
0.108556 0.094683 0.287960
0.109921 0.094673 0.287804
0.111278 0.094656 0.287621
0.112833 0.094806 0.287937
0.114336 0.094909 0.288101
0.115893 0.095054 0.288383
0.117172 0.094970 0.287962
0.118661 0.095055 0.288048
0.120215 0.095191 0.288276
0.121667 0.095244 0.288241
0.123095 0.095276 0.288135
0.124668 0.095419 0.288353
0.126132 0.095476 0.288301
0.127774 0.095664 0.288635
0.129309 0.095770 0.288705
0.130741 0.095798 0.288530
0.132363 0.095962 0.288753
0.133848 0.096025 0.288657
0.135388 0.096125 0.288662
0.136948 0.096238 0.288688
0.138546 0.096374 0.288770
0.140346 0.096647 0.289245
0.142118 0.096894 0.289629
0.144098 0.097278 0.290400
0.146011 0.097609 0.290996
0.147778 0.097837 0.291264
0.149558 0.098069 0.291524
0.151163 0.098183 0.291414
0.152633 0.098207 0.291018
0.154412 0.098428 0.291185
0.156018 0.098535 0.290991
-0.045560 0.028569 0.083789
-0.045083 0.028524 0.083797
-0.044938 0.028690 0.084418
-0.044971 0.028974 0.085385
-0.045120 0.029338 0.086584
-0.044715 0.029346 0.086728
-0.044216 0.029570 0.087621
-0.044573 0.030095 0.089286
-0.041198 0.032135 0.096523
-0.041382 0.032640 0.098100
-0.041596 0.033181 0.099783
-0.041638 0.033596 0.101085
-0.041593 0.033949 0.102197
-0.040861 0.033744 0.101627
-0.041291 0.034504 0.103964
-0.040792 0.034498 0.103988
-0.040356 0.034544 0.104170
-0.040640 0.035216 0.106236
-0.040985 0.035959 0.108512
-0.040976 0.036405 0.109896
-0.041076 0.036962 0.111608
-0.041560 0.037882 0.114420
-0.041611 0.038427 0.116095
-0.041073 0.038436 0.116150
-0.042801 0.040593 0.122695
-0.042232 0.040602 0.122744
-0.062462 0.064463 0.195019
-0.061640 0.064563 0.195340
-0.060820 0.064669 0.195676
-0.060211 0.065005 0.196708
-0.059647 0.065402 0.197917
-0.058908 0.065616 0.198572
-0.058100 0.065758 0.199010
-0.057390 0.066019 0.199802
-0.056669 0.066276 0.200580
-0.055885 0.066465 0.201151
-0.055086 0.066644 0.201688
-0.054486 0.067074 0.202983
-0.053720 0.067312 0.203694
-0.052934 0.067533 0.204354
-0.052079 0.067671 0.204759
-0.051232 0.067826 0.205215
-0.050356 0.067949 0.205572
-0.049602 0.068242 0.206442
-0.048774 0.068444 0.207037
-0.048140 0.068934 0.208499
-0.047283 0.069116 0.209029
-0.046579 0.069536 0.210277
-0.045786 0.069837 0.211165
-0.045182 0.070447 0.212983
-0.044380 0.070769 0.213932
-0.044024 0.071833 0.217122
-0.043794 0.073159 0.221102
-0.055151 0.094378 0.285194
-0.053556 0.093940 0.283831
-0.052535 0.094513 0.285523
-0.050885 0.093954 0.283794
-0.049856 0.094541 0.285528
-0.048605 0.094729 0.286056
-0.047556 0.095333 0.287838
-0.046008 0.094944 0.286624
-0.044576 0.094777 0.286078
-0.043291 0.094922 0.286473
-0.041911 0.094861 0.286248
-0.040588 0.094930 0.286416
-0.038295 0.095968 0.289463
-0.036323 0.094398 0.284688
-0.035057 0.094614 0.285297
-0.033729 0.094673 0.285438
-0.029443 0.086089 0.259520
-0.028146 0.085878 0.258851
-0.027159 0.086637 0.261103
-0.025673 0.085802 0.258552
-0.024402 0.085634 0.258013
-0.023199 0.085703 0.258188
-0.022050 0.085990 0.259023
-0.020845 0.086079 0.259260
-0.019651 0.086225 0.259671
-0.018539 0.086781 0.261314
-0.017438 0.087466 0.263348
-0.016216 0.087607 0.263747
-0.015071 0.088223 0.265573
-0.013800 0.088141 0.265301
-0.012484 0.087732 0.264046
-0.011178 0.087305 0.262740
-0.009900 0.087025 0.261876
-0.008616 0.086600 0.260577
-0.007267 0.085279 0.256581
-0.006071 0.085572 0.257445
-0.004852 0.085605 0.257529
-0.003641 0.085853 0.258261
-0.002432 0.086440 0.260011
-0.001209 0.087219 0.262342
0.000037 0.087962 0.264565
0.001301 0.088536 0.266280
0.002543 0.087780 0.264000
0.003846 0.088942 0.267484
0.005179 0.090037 0.270771
0.006111 0.085116 0.255967
0.007302 0.084838 0.255126
0.008514 0.084845 0.255146
0.009733 0.084910 0.255341
0.010935 0.084828 0.255093
0.012159 0.084917 0.255361
0.013378 0.084956 0.255480
0.014628 0.085169 0.256124
0.015852 0.085207 0.256245
0.017139 0.085561 0.257313
0.018394 0.085712 0.257774
0.020018 0.087457 0.263030
0.021567 0.088692 0.266753
0.023381 0.090816 0.273150
0.024668 0.090779 0.273049
0.025656 0.089699 0.269812
0.027340 0.091039 0.273855
0.028546 0.090738 0.272963
0.029698 0.090296 0.271646
0.030992 0.090309 0.271699
0.032358 0.090519 0.272347
0.033540 0.090219 0.271458
0.034576 0.089565 0.269505
0.035480 0.088625 0.266694
0.036704 0.088521 0.266395
0.037884 0.088322 0.265812
0.039120 0.088263 0.265652
0.040086 0.087616 0.263720
0.041382 0.087709 0.264015
0.042316 0.087051 0.262051
0.042942 0.085814 0.258344
0.043787 0.085074 0.256129
0.044810 0.084707 0.255039
0.045782 0.084268 0.253732
0.046434 0.083276 0.250757
0.047738 0.083473 0.251363
0.049050 0.083675 0.251985
0.050176 0.083558 0.251644
0.051570 0.083881 0.252627
0.053063 0.084347 0.254039
0.054512 0.084724 0.255183
0.056041 0.085207 0.256645
0.058715 0.087372 0.263172
0.060679 0.088412 0.266307
0.061977 0.088460 0.266455
0.063796 0.089233 0.268787
0.065439 0.089736 0.270299
0.066676 0.089673 0.270107
0.068047 0.089788 0.270448
0.069089 0.089473 0.269494
0.070052 0.089070 0.268269
0.071007 0.088671 0.267054
0.071845 0.088142 0.265447
0.072425 0.087321 0.262957
0.073440 0.087042 0.262098
0.074332 0.086629 0.260831
0.075307 0.086325 0.259890
0.076004 0.085718 0.258033
0.076669 0.085094 0.256123
0.077802 0.085000 0.255804
0.078760 0.084721 0.254927
0.079731 0.084465 0.254113
0.081092 0.084623 0.254540
0.082520 0.084845 0.255159
0.083187 0.084289 0.253432
0.097313 0.097192 0.292158
0.098597 0.097086 0.291763
0.097768 0.094931 0.285209
0.100263 0.096017 0.288390
0.101710 0.096084 0.288501
0.103044 0.096044 0.288284
0.104511 0.096128 0.288433
0.105937 0.096172 0.288456
0.107093 0.095973 0.287743
0.108740 0.096213 0.288340
0.110145 0.096236 0.288277
0.111490 0.096206 0.288049
0.113036 0.096348 0.288329
0.114500 0.096418 0.288384
0.116083 0.096584 0.288720
0.117511 0.096620 0.288655
0.118634 0.096406 0.287836
0.120332 0.096660 0.288404
0.121791 0.096717 0.288375
0.123108 0.096662 0.288001
0.124760 0.096868 0.288394
0.126342 0.097016 0.288603
0.128078 0.097277 0.289136
0.129799 0.097521 0.289608
0.131279 0.097581 0.289518
0.132662 0.097568 0.289200
0.134117 0.097608 0.289025
0.135676 0.097721 0.289056
0.137108 0.097742 0.288797
0.138474 0.097715 0.288383
0.140670 0.098269 0.289667
0.142441 0.098518 0.290033
0.143984 0.098605 0.289908
0.146175 0.099130 0.291048
0.147883 0.099320 0.291187
0.149623 0.099529 0.291359
0.151713 0.099963 0.292169
0.152961 0.099840 0.291331
0.154737 0.100060 0.291472
0.156396 0.100201 0.291361
-0.045438 0.028900 0.083474
-0.045109 0.028949 0.083756
-0.044891 0.029070 0.084245
-0.044927 0.029359 0.085216
-0.045173 0.029793 0.086604
-0.045008 0.029961 0.087217
-0.044481 0.029889 0.087127
-0.044780 0.030376 0.088663
-0.044407 0.030412 0.088879
-0.040874 0.032701 0.096851
-0.041588 0.033649 0.099717
-0.043138 0.035305 0.104681
-0.042690 0.035344 0.104851
-0.042407 0.035522 0.105433
-0.042117 0.035698 0.106004
-0.041791 0.035848 0.106497
-0.041385 0.035932 0.106790
-0.041250 0.036257 0.107797
-0.041343 0.036792 0.109428
-0.041806 0.037675 0.112092
-0.041712 0.038071 0.113305
-0.041697 0.038551 0.114769
-0.043584 0.040825 0.121572
-0.043060 0.040872 0.121742
-0.043002 0.041368 0.123246
-0.042470 0.041415 0.123414
-0.063445 0.065452 0.195172
-0.062621 0.065552 0.195492
-0.061804 0.065661 0.195839
-0.061106 0.065903 0.196578
-0.060245 0.065974 0.196806
-0.059786 0.066493 0.198368
-0.058957 0.066611 0.198731
-0.058150 0.066758 0.199175
-0.057444 0.067028 0.199987
-0.056630 0.067179 0.200440
-0.055870 0.067400 0.201100
-0.055086 0.067600 0.201695
-0.054310 0.067815 0.202335
-0.053528 0.068033 0.202978
-0.052748 0.068259 0.203646
-0.051900 0.068404 0.204070
-0.051040 0.068541 0.204466
-0.050225 0.068743 0.205057
-0.049415 0.068960 0.205689
-0.048692 0.069309 0.206715
-0.048001 0.069719 0.207922
-0.047201 0.069985 0.208695
-0.046322 0.070143 0.209148
-0.045669 0.070657 0.210659
-0.045001 0.071171 0.212167
-0.044682 0.072272 0.215428
-0.044066 0.072934 0.217376
-0.056356 0.095496 0.284585
-0.055064 0.095582 0.284809
-0.053767 0.095663 0.285014
-0.052521 0.095843 0.285516
-0.051181 0.095855 0.285514
-0.049894 0.095972 0.285822
-0.048548 0.095977 0.285800
-0.047242 0.096063 0.286019
-0.045947 0.096179 0.286323
-0.044503 0.095981 0.285696
-0.043216 0.096119 0.286067
-0.041798 0.095963 0.285565
-0.040391 0.095826 0.285116
-0.039654 0.097325 0.289538
-0.038312 0.097392 0.289696
-0.036436 0.096055 0.285681
-0.034832 0.095360 0.283576
-0.033512 0.095420 0.283715
-0.029726 0.088168 0.262118
-0.028196 0.087269 0.259413
-0.027285 0.088294 0.262426
-0.025787 0.087424 0.259807
-0.024377 0.086780 0.257863
-0.023246 0.087115 0.258827
-0.022045 0.087212 0.259086
-0.020836 0.087284 0.259270
-0.019634 0.087400 0.259584
-0.018496 0.087830 0.260832
-0.017407 0.088573 0.263014
-0.016167 0.088610 0.263095
-0.014972 0.088913 0.263969
-0.013728 0.088960 0.264085
-0.012375 0.088233 0.261903
-0.011082 0.087821 0.260660
-0.009797 0.087379 0.259325
-0.008480 0.086489 0.256666
-0.007224 0.086022 0.255263
-0.005990 0.085689 0.254256
-0.004819 0.086310 0.256082
-0.003605 0.086306 0.256056
-0.002401 0.086711 0.257245
-0.001192 0.087519 0.259627
0.000040 0.088386 0.262190
0.001290 0.088838 0.263518
0.002523 0.088210 0.261646
0.003817 0.089454 0.265329
0.005140 0.090576 0.268651
0.006415 0.090570 0.268626
0.007245 0.085331 0.253085
0.008442 0.085286 0.252949
0.009624 0.085122 0.252460
0.010796 0.084917 0.251852
0.012012 0.085062 0.252280
0.013161 0.084748 0.251351
0.014398 0.085003 0.252110
0.015615 0.085114 0.252442
0.016724 0.084660 0.251101
0.018093 0.085496 0.253584
0.019923 0.088269 0.261817
0.021728 0.090611 0.268772
0.023030 0.090713 0.269080
0.024349 0.090867 0.269548
0.025415 0.090112 0.267317
0.026686 0.090115 0.267338
0.028159 0.090773 0.269300
0.029294 0.090328 0.267993
0.030485 0.090089 0.267296
0.031651 0.089794 0.266435
0.032908 0.089772 0.266381
0.033966 0.089228 0.264782
0.035124 0.088978 0.264052
0.036272 0.088718 0.263295
0.037527 0.088731 0.263347
0.039000 0.089240 0.264873
0.040132 0.088961 0.264058
0.041516 0.089240 0.264901
0.042738 0.089166 0.264694
0.043356 0.087872 0.260866
0.044164 0.087024 0.258361
0.044823 0.085934 0.255138
0.045796 0.085489 0.253829
0.046776 0.085080 0.252627
0.047925 0.084990 0.252368
0.049275 0.085253 0.253159
0.050557 0.085387 0.253566
0.051860 0.085550 0.254060
0.053366 0.086034 0.255502
0.054810 0.086398 0.256589
0.056336 0.086871 0.258000
0.058575 0.088401 0.262547
0.060617 0.089576 0.266039
0.061908 0.089617 0.266159
0.063650 0.090295 0.268170
0.065143 0.090599 0.269070
0.066546 0.090770 0.269572
0.067699 0.090599 0.269056
0.068984 0.090607 0.269071
0.069922 0.090169 0.267758
0.070869 0.089756 0.266516
0.071978 0.089561 0.265918
0.072625 0.088807 0.263658
0.073664 0.088549 0.262869
0.074530 0.088095 0.261496
0.075219 0.087451 0.259554
0.076314 0.087291 0.259047
0.076746 0.086391 0.256340
0.077973 0.086398 0.256323
0.079348 0.086569 0.256785
0.080830 0.086847 0.257563
0.082079 0.086872 0.257586
0.082882 0.086430 0.256221
0.084873 0.087222 0.258508
0.094838 0.096068 0.284656
0.096091 0.095964 0.284271
0.097404 0.095922 0.284065
0.099741 0.096876 0.286802
0.101778 0.097517 0.288603
0.103003 0.097373 0.288077
0.104648 0.097624 0.288712
0.105878 0.097487 0.288191
0.107399 0.097616 0.288453
0.108728 0.097572 0.288193
0.110076 0.097544 0.287976
0.111601 0.097672 0.288210
0.112875 0.097580 0.287787
0.114471 0.097765 0.288175
0.115883 0.097790 0.288079
0.117220 0.097753 0.287792
0.118624 0.097770 0.287658
0.120250 0.097969 0.288047
0.121831 0.098127 0.288305
0.123338 0.098221 0.288366
0.124762 0.098249 0.288220
0.126260 0.098333 0.288231
0.127705 0.098374 0.288103
0.129232 0.098478 0.288143
0.130993 0.098754 0.288680
0.132657 0.098953 0.288975
0.134101 0.098985 0.288769
0.135638 0.099085 0.288745
0.137238 0.099227 0.288832
0.138923 0.099428 0.289074
0.140969 0.099880 0.290028
0.142547 0.099994 0.289984
0.144453 0.100334 0.290577
0.146202 0.100560 0.290819
0.147986 0.100805 0.291097
0.149760 0.101038 0.291321
0.151608 0.101316 0.291654
0.153290 0.101478 0.291631
0.154789 0.101518 0.291233
0.156341 0.101591 0.290909
-0.045329 0.029237 0.083180
-0.045056 0.029322 0.083567
-0.044809 0.029426 0.084002
-0.044952 0.029791 0.085178
-0.044958 0.030069 0.086107
-0.044574 0.030091 0.086294
-0.044225 0.030136 0.086546
-0.043961 0.030241 0.086963
-0.044638 0.031001 0.089263
-0.041327 0.033530 0.097875
-0.041088 0.033714 0.098473
-0.041646 0.034564 0.101014
-0.042662 0.035818 0.104736
-0.042114 0.035774 0.104661
-0.041734 0.035873 0.105000
-0.041509 0.036109 0.105739
-0.041017 0.036116 0.105805
-0.041030 0.036573 0.107186
-0.041171 0.037156 0.108939
-0.042307 0.038664 0.113399
-0.042205 0.039065 0.114612
-0.042350 0.039707 0.116534
-0.042143 0.040033 0.117524
-0.043013 0.041404 0.121579
-0.064163 0.066170 0.194507
-0.063435 0.066366 0.195114
-0.062707 0.066569 0.195736
-0.061895 0.066687 0.196107
-0.061104 0.066831 0.196553
-0.060354 0.067025 0.197142
-0.059668 0.067299 0.197961
-0.058885 0.067469 0.198475
-0.058056 0.067592 0.198846
-0.057335 0.067845 0.199601
-0.056548 0.068029 0.200148
-0.055776 0.068237 0.200763
-0.054963 0.068401 0.201244
-0.054168 0.068593 0.201810
-0.053369 0.068788 0.202379
-0.052550 0.068964 0.202892
-0.051702 0.069107 0.203307
-0.050898 0.069316 0.203912
-0.050084 0.069518 0.204497
-0.049372 0.069873 0.205529
-0.048659 0.070240 0.206596
-0.047881 0.070528 0.207428
-0.047208 0.070984 0.208753
-0.046340 0.071162 0.209258
-0.045609 0.071562 0.210415
-0.044830 0.071903 0.211398
-0.044293 0.072657 0.213592
-0.044264 0.074296 0.218389
-0.056281 0.096716 0.284260
-0.054990 0.096803 0.284483
-0.053696 0.096889 0.284702
-0.052368 0.096916 0.284747
-0.051121 0.097097 0.285246
-0.049786 0.097118 0.285273
-0.048439 0.097117 0.285234
-0.047163 0.097261 0.285621
-0.045806 0.097241 0.285523
-0.044415 0.097148 0.285214
-0.043108 0.097236 0.285434
-0.041760 0.097236 0.285399
-0.040253 0.096852 0.284235
-0.040021 0.099617 0.292310
-0.038666 0.099684 0.292469
-0.036130 0.096598 0.283377
-0.034761 0.096517 0.283103
-0.031609 0.091278 0.267704
-0.029804 0.089656 0.262913
-0.028309 0.088865 0.260561
-0.027253 0.089443 0.262224
-0.025819 0.088777 0.260239
-0.024459 0.088312 0.258846
-0.023279 0.088482 0.259314
-0.022087 0.088621 0.259691
-0.020863 0.088641 0.259723
-0.019619 0.088577 0.259505
-0.018485 0.089032 0.260811
-0.017365 0.089623 0.262518
-0.016111 0.089567 0.262327
-0.014913 0.089830 0.263072
-0.013637 0.089636 0.262483
-0.012287 0.088863 0.260197
-0.011001 0.088434 0.258919
-0.009696 0.087728 0.256832
-0.008392 0.086828 0.254178
-0.007188 0.086847 0.254214
-0.005976 0.086732 0.253861
-0.004772 0.086731 0.253844
-0.003587 0.087170 0.255114
-0.002384 0.087432 0.255868
-0.001172 0.087547 0.256191
0.000043 0.089167 0.260921
0.001292 0.089938 0.263166
0.002535 0.089764 0.262648
0.003810 0.090449 0.264645
0.005124 0.091491 0.267685
0.006339 0.090706 0.265382
0.007659 0.091436 0.267515
0.009078 0.092963 0.271979
0.010411 0.093347 0.273099
0.011673 0.093074 0.272300
0.013006 0.093368 0.273158
0.014357 0.093727 0.274209
0.015612 0.093445 0.273386
0.016793 0.092803 0.271511
0.017956 0.092155 0.269620
0.019313 0.092525 0.270706
0.020517 0.092161 0.269648
0.021641 0.091504 0.267732
0.022974 0.091752 0.268464
0.024252 0.091767 0.268516
0.025425 0.091401 0.267453
0.026728 0.091516 0.267799
0.028017 0.091572 0.267973
0.029203 0.091305 0.267202
0.030373 0.091007 0.266342
0.031381 0.090272 0.264201
0.032722 0.090511 0.264912
0.033847 0.090158 0.263891
0.034845 0.089502 0.261984
0.036118 0.089575 0.262209
0.037280 0.089378 0.261645
0.038471 0.089259 0.261308
0.039714 0.089264 0.261335
0.041228 0.089861 0.263094
0.042503 0.089916 0.263267
0.043315 0.089015 0.260642
0.043979 0.087871 0.257303
0.044745 0.086985 0.254718
0.045789 0.086671 0.253809
0.046757 0.086236 0.252542
0.047969 0.086258 0.252616
0.049147 0.086222 0.252518
0.050403 0.086319 0.252809
0.051575 0.086272 0.252677
0.053174 0.086925 0.254594
0.054482 0.087083 0.255060
0.055777 0.087215 0.255447
0.058328 0.089262 0.261443
0.060398 0.090503 0.265076
0.061906 0.090869 0.266145
0.063291 0.091043 0.266652
0.064843 0.091445 0.267822
0.066165 0.091515 0.268017
0.067457 0.091540 0.268079
0.068491 0.091220 0.267131
0.069676 0.091111 0.266795
0.070942 0.091108 0.266768
0.071479 0.090187 0.264049
0.072668 0.090104 0.263783
0.073309 0.089357 0.261570
0.073646 0.088271 0.258360
0.074829 0.088217 0.258171
0.075525 0.087600 0.256329
0.075852 0.086581 0.253308
0.077038 0.086560 0.253203
0.078398 0.086731 0.253659
0.079695 0.086828 0.253893
0.081341 0.087297 0.255210
0.082343 0.087072 0.254493
0.084111 0.087650 0.256119
0.085240 0.087557 0.255778
0.096252 0.097473 0.284665
0.097505 0.097369 0.284274
0.099937 0.098428 0.287273
0.101594 0.098706 0.287985
0.102799 0.098543 0.287405
0.104105 0.098479 0.287106
0.105627 0.098620 0.287397
0.106815 0.098448 0.286771
0.108366 0.098611 0.287113
0.109778 0.098645 0.287070
0.111192 0.098680 0.287024
0.112810 0.098892 0.287484
0.114047 0.098769 0.286963
0.115459 0.098800 0.286879
0.117053 0.098983 0.287227
0.118333 0.098899 0.286793
0.120170 0.099278 0.287689
0.121820 0.099494 0.288104
0.123229 0.099512 0.287932
0.124748 0.099617 0.288002
0.126311 0.099753 0.288153
0.127931 0.099931 0.288412
0.129239 0.099864 0.287950
0.130660 0.099885 0.287731
0.132311 0.100080 0.287998
0.133856 0.100191 0.288010
0.135540 0.100402 0.288297
0.137336 0.100691 0.288790
0.138733 0.100685 0.288422
0.140736 0.101114 0.289282
0.142722 0.101522 0.290066
0.144291 0.101629 0.289968
0.146456 0.102149 0.291031
