ply
format ascii 1.0
element vertex 1680
property float x
property float y
property float z
end_header
0.044785 -0.088134 0.254831
0.045855 -0.087867 0.254065
0.047046 -0.087838 0.253986
0.048375 -0.088062 0.254640
0.049611 -0.088110 0.254783
0.050945 -0.088325 0.255407
0.052357 -0.088662 0.256386
0.053877 -0.089162 0.257830
0.055422 -0.089681 0.259331
0.056901 -0.090073 0.260463
0.058812 -0.091117 0.263479
0.060675 -0.092044 0.266154
0.062137 -0.092338 0.266999
0.063828 -0.092953 0.268768
0.065605 -0.093668 0.270822
0.066974 -0.093783 0.271141
0.068451 -0.094043 0.271878
0.069352 -0.093515 0.270334
0.070323 -0.093099 0.269111
0.071421 -0.092864 0.268407
0.072315 -0.092376 0.266973
0.073027 -0.091677 0.264923
0.073782 -0.091054 0.263091
0.074109 -0.089933 0.259817
0.074332 -0.088723 0.256284
0.075426 -0.088576 0.255820
0.076662 -0.088597 0.255836
0.077722 -0.088419 0.255273
0.079371 -0.088904 0.256623
0.081025 -0.089381 0.257941
0.082253 -0.089380 0.257878
0.084260 -0.090214 0.260218
0.086576 -0.091349 0.263421
0.098058 -0.101985 0.294006
0.099356 -0.101878 0.293607
0.101168 -0.102294 0.294710
0.102542 -0.102261 0.294513
0.103858 -0.102173 0.294151
0.105252 -0.102163 0.294005
0.106691 -0.102195 0.293975
0.108152 -0.102248 0.293998
0.109578 -0.102266 0.293913
0.111074 -0.102349 0.294008
0.112565 -0.102424 0.294072
0.114078 -0.102518 0.294181
0.115636 -0.102650 0.294389
0.117206 -0.102789 0.294609
0.118809 -0.102952 0.294890
0.120651 -0.103316 0.295735
0.122076 -0.103319 0.295538
0.123520 -0.103338 0.295374
0.125046 -0.103425 0.295394
0.126686 -0.103601 0.295660
0.128139 -0.103624 0.295475
0.129535 -0.103600 0.295145
0.131158 -0.103756 0.295316
0.132720 -0.103861 0.295327
0.134320 -0.103992 0.295401
0.135979 -0.104166 0.295583
0.137512 -0.104241 0.295469
0.139162 -0.104403 0.295584
0.140793 -0.104547 0.295634
0.142456 -0.104711 0.295724
0.144074 -0.104838 0.295695
0.145646 -0.104931 0.295549
0.147187 -0.104999 0.295317
0.148694 -0.105042 0.294995
0.150272 -0.105134 0.294791
0.152056 -0.105366 0.294960
0.153552 -0.105396 0.294542
0.154978 -0.105378 0.293968
0.156465 -0.105402 0.293488
0.158137 -0.105548 0.293325
-0.133542 -0.086059 0.244910
-0.132434 -0.086110 0.245487
-0.131920 -0.086553 0.247164
-0.130652 -0.086504 0.247424
-0.129320 -0.086412 0.247544
-0.151480 -0.102161 0.293097
-0.149452 -0.101741 0.292306
-0.148764 -0.102234 0.294122
-0.147600 -0.102406 0.295001
-0.146272 -0.102466 0.295544
-0.144843 -0.102456 0.295870
-0.143466 -0.102484 0.296289
-0.142052 -0.102485 0.296617
-0.140466 -0.102362 0.296569
-0.139255 -0.102512 0.297301
-0.137585 -0.102324 0.297039
-0.134424 -0.101011 0.293495
-0.129767 -0.098535 0.286552
-0.128048 -0.101492 0.296066
-0.126102 -0.101058 0.295000
-0.124770 -0.101112 0.295349
-0.123497 -0.101215 0.295831
-0.122030 -0.101159 0.295841
-0.120530 -0.101075 0.295758
-0.119022 -0.100982 0.295642
-0.117531 -0.100902 0.295554
-0.116115 -0.100885 0.295642
-0.114707 -0.100875 0.295742
-0.113131 -0.100715 0.295395
-0.111725 -0.100704 0.295477
-0.110465 -0.100827 0.295944
-0.108991 -0.100755 0.295834
-0.107639 -0.100795 0.296046
-0.106348 -0.100895 0.296426
-0.104869 -0.100816 0.296276
-0.103548 -0.100889 0.296567
-0.102236 -0.100973 0.296883
-0.100732 -0.100868 0.296636
-0.099121 -0.100650 0.296054
-0.095980 -0.098851 0.290816
-0.103143 -0.107766 0.317093
-0.101764 -0.107887 0.317497
-0.100324 -0.107946 0.317711
-0.098718 -0.107825 0.317391
-0.096281 -0.106780 0.314344
-0.093644 -0.105476 0.310534
-0.091529 -0.104729 0.308355
-0.089777 -0.104380 0.307344
-0.088254 -0.104289 0.307092
-0.086510 -0.103931 0.306046
-0.090203 -0.110202 0.324521
-0.088772 -0.110322 0.324875
-0.087220 -0.110293 0.324791
-0.085184 -0.109641 0.322866
-0.083794 -0.109811 0.323362
-0.082233 -0.109760 0.323203
-0.080517 -0.109496 0.322413
-0.079154 -0.109712 0.323034
-0.077712 -0.109824 0.323346
-0.068967 -0.099414 0.292677
-0.067678 -0.099546 0.293046
-0.066307 -0.099559 0.293063
-0.064953 -0.099601 0.293164
-0.063585 -0.099623 0.293202
-0.062228 -0.099663 0.293292
-0.060813 -0.099609 0.293105
-0.059421 -0.099592 0.293026
-0.058029 -0.099574 0.292942
-0.056610 -0.099508 0.292717
-0.055266 -0.099574 0.292878
-0.053894 -0.099593 0.292898
-0.052519 -0.099605 0.292899
-0.051117 -0.099566 0.292751
-0.049749 -0.099594 0.292797
-0.048348 -0.099555 0.292645
-0.046954 -0.099528 0.292530
-0.045498 -0.099367 0.292018
-0.044136 -0.099406 0.292095
-0.042776 -0.099452 0.292193
-0.040975 -0.098440 0.289184
-0.041830 -0.103963 0.305370
-0.040414 -0.104033 0.305536
-0.037456 -0.099991 0.293626
-0.036359 -0.100800 0.295964
-0.032950 -0.095004 0.278910
-0.031005 -0.093126 0.273365
-0.029350 -0.091991 0.269999
-0.027939 -0.091553 0.268680
-0.026510 -0.091013 0.267066
-0.025112 -0.090529 0.265614
-0.023906 -0.090722 0.266150
-0.022730 -0.091059 0.267109
-0.021556 -0.091447 0.268217
-0.020334 -0.091661 0.268817
-0.019110 -0.091901 0.269492
-0.017941 -0.092451 0.271078
-0.016659 -0.092469 0.271104
-0.015426 -0.092779 0.271989
-0.014137 -0.092777 0.271959
-0.013088 -0.094511 0.277017
-0.011047 -0.088663 0.259856
-0.009817 -0.088684 0.259898
-0.008573 -0.088566 0.259533
-0.007354 -0.088705 0.259919
-0.006132 -0.088867 0.260378
-0.004912 -0.089128 0.261127
-0.003702 -0.089818 0.263135
-0.002456 -0.089936 0.263465
-0.001212 -0.090361 0.264697
0.000044 -0.090696 0.265666
0.001314 -0.091379 0.267659
0.002586 -0.091443 0.267835
0.003860 -0.091502 0.268001
0.005127 -0.091410 0.267725
0.006396 -0.091389 0.267656
0.007641 -0.091085 0.266761
0.008887 -0.090873 0.266137
0.010110 -0.090509 0.265068
0.011331 -0.090210 0.264190
0.012591 -0.090251 0.264310
0.013848 -0.090265 0.264351
0.015148 -0.090531 0.265134
0.016409 -0.090540 0.265161
0.017871 -0.091582 0.268217
0.019239 -0.092031 0.269537
0.020417 -0.091575 0.268205
0.021758 -0.091859 0.269045
0.023018 -0.091787 0.268839
0.024229 -0.091540 0.268123
0.025487 -0.091484 0.267968
0.026607 -0.090961 0.266446
0.027700 -0.090399 0.264807
0.028748 -0.089744 0.262898
0.029952 -0.089611 0.262519
0.031448 -0.090328 0.264633
0.032781 -0.090539 0.265260
0.034167 -0.090872 0.266248
0.035685 -0.091523 0.268167
0.036756 -0.091023 0.266713
0.037812 -0.090518 0.265244
0.038695 -0.089644 0.262696
0.039509 -0.088671 0.259855
0.040764 -0.088718 0.260005
0.041751 -0.088194 0.258479
0.042527 -0.087267 0.255774
0.043809 -0.087401 0.256178
0.044819 -0.087001 0.255013
0.045962 -0.086871 0.254643
0.047257 -0.087029 0.255113
0.048439 -0.086976 0.254966
0.049759 -0.087168 0.255535
0.051172 -0.087508 0.256536
0.052656 -0.087952 0.257843
0.054223 -0.088510 0.259483
0.055822 -0.089095 0.261202
0.057426 -0.089663 0.262868
0.059163 -0.090409 0.265054
0.061082 -0.091396 0.267946
0.062592 -0.091744 0.268962
0.064017 -0.091956 0.269576
0.065510 -0.092256 0.270447
0.066921 -0.092430 0.270947
0.067896 -0.092006 0.269692
0.068780 -0.091477 0.268126
0.069407 -0.090632 0.265632
0.070809 -0.090811 0.266138
0.071918 -0.090615 0.265540
0.072906 -0.090274 0.264517
0.073796 -0.089828 0.263180
0.074311 -0.088946 0.260565
0.075261 -0.088605 0.259534
0.075953 -0.087977 0.257656
0.077192 -0.087991 0.257657
0.078504 -0.088088 0.257896
0.079485 -0.087816 0.257051
0.081174 -0.088322 0.258478
0.082520 -0.088445 0.258783
0.084172 -0.088888 0.260015
0.086671 -0.090199 0.263785
0.097195 -0.099706 0.291506
0.098480 -0.099600 0.291111
0.101027 -0.100755 0.294397
0.102439 -0.100762 0.294320
0.103769 -0.100691 0.294006
0.105167 -0.100685 0.293879
0.106627 -0.100738 0.293918
0.108110 -0.100811 0.294007
0.109492 -0.100789 0.293811
0.111010 -0.100891 0.293970
0.112843 -0.101274 0.294937
0.114337 -0.101347 0.294994
0.115697 -0.101300 0.294695
0.117454 -0.101597 0.295386
0.118990 -0.101699 0.295502
0.120606 -0.101866 0.295796
0.122053 -0.101888 0.295657
0.123507 -0.101915 0.295526
0.124988 -0.101963 0.295444
0.126469 -0.102010 0.295349
0.128012 -0.102106 0.295385
0.129439 -0.102107 0.295134
0.130885 -0.102124 0.294916
0.132661 -0.102395 0.295420
0.134417 -0.102645 0.295848
0.136004 -0.102761 0.295879
0.137561 -0.102853 0.295823
0.139104 -0.102933 0.295718
0.140616 -0.102988 0.295528
0.142138 -0.103049 0.295339
0.143769 -0.103186 0.295354
0.145387 -0.103312 0.295316
0.146878 -0.103347 0.295001
0.148449 -0.103435 0.294821
0.150190 -0.103640 0.294953
0.151999 -0.103886 0.295183
0.153382 -0.103840 0.294561
0.154773 -0.103801 0.293937
0.156229 -0.103804 0.293413
0.157623 -0.103767 0.292752
-0.133665 -0.084937 0.245413
-0.133243 -0.085429 0.247259
-0.132602 -0.085787 0.248706
-0.130381 -0.085122 0.247166
-0.155260 -0.102299 0.297494
-0.151559 -0.100790 0.293531
-0.150215 -0.100835 0.294072
-0.149058 -0.101008 0.294969
-0.147894 -0.101179 0.295845
-0.146214 -0.100998 0.295676
-0.145073 -0.101189 0.296580
-0.143637 -0.101176 0.296874
-0.141949 -0.100984 0.296626
-0.140549 -0.100995 0.296961
-0.138962 -0.100870 0.296884
-0.136158 -0.099851 0.294157
-0.132478 -0.098161 0.289437
-0.131232 -0.098259 0.289971
-0.128062 -0.100089 0.296260
-0.126162 -0.099697 0.295294
-0.124892 -0.099800 0.295784
-0.123724 -0.099988 0.296518
-0.121936 -0.099673 0.295750
-0.120349 -0.099517 0.295446
-0.118987 -0.099545 0.295679
-0.117605 -0.099559 0.295859
-0.116043 -0.099417 0.295570
-0.114647 -0.099417 0.295694
-0.113151 -0.099329 0.295549
-0.111701 -0.099279 0.295511
-0.110353 -0.099321 0.295738
-0.109027 -0.099383 0.296020
-0.107578 -0.099334 0.295962
-0.106145 -0.099298 0.295937
-0.104826 -0.099369 0.296226
-0.103390 -0.099331 0.296182
-0.102122 -0.099454 0.296615
-0.100481 -0.099213 0.295955
-0.098753 -0.098878 0.295010
-0.095840 -0.097331 0.290440
-0.103455 -0.106585 0.318102
-0.102074 -0.106707 0.318507
-0.100669 -0.106806 0.318840
-0.099014 -0.106641 0.318378
-0.096501 -0.105531 0.315093
-0.093393 -0.103726 0.309723
-0.091517 -0.103254 0.308332
-0.089578 -0.102695 0.306677
-0.088208 -0.102780 0.306942
-0.086465 -0.102427 0.305891
-0.088581 -0.106711 0.318689
-0.087177 -0.106828 0.319037
-0.085897 -0.107105 0.319862
-0.084215 -0.106881 0.319186
-0.083019 -0.107278 0.320361
-0.081473 -0.107228 0.320199
-0.079860 -0.107086 0.319759
-0.078480 -0.107259 0.320256
-0.077051 -0.107369 0.320566
-0.068888 -0.097913 0.292312
-0.067698 -0.098184 0.293099
-0.066372 -0.098267 0.293319
-0.064960 -0.098221 0.293155
-0.063680 -0.098377 0.293595
-0.062238 -0.098286 0.293291
-0.060857 -0.098288 0.293268
-0.059495 -0.098322 0.293337
-0.057943 -0.098037 0.292452
-0.056604 -0.098108 0.292628
-0.055275 -0.098199 0.292866
-0.053839 -0.098100 0.292534
-0.052483 -0.098146 0.292634
-0.051098 -0.098139 0.292574
-0.049713 -0.098129 0.292508
-0.048294 -0.098054 0.292243
-0.046863 -0.097947 0.291886
-0.045470 -0.097917 0.291757
-0.044110 -0.097956 0.291835
-0.042695 -0.097874 0.291552
-0.041140 -0.097454 0.290261
-0.041664 -0.102100 0.304058
-0.040254 -0.102170 0.304224
-0.037392 -0.098422 0.293025
-0.036268 -0.099138 0.295119
-0.034894 -0.099200 0.295263
-0.031027 -0.091884 0.273452
-0.029301 -0.090547 0.269440
-0.027912 -0.090181 0.268315
-0.026511 -0.089738 0.266964
-0.025096 -0.089201 0.265335
-0.023813 -0.089099 0.265001
-0.022686 -0.089604 0.266472
-0.021491 -0.089885 0.267276
-0.020294 -0.090191 0.268158
-0.019182 -0.090943 0.270364
-0.017956 -0.091225 0.271174
-0.016750 -0.091656 0.272428
-0.015543 -0.092158 0.273894
-0.014205 -0.091899 0.273100
-0.012914 -0.091926 0.273155
-0.010989 -0.086947 0.258339
-0.009771 -0.087008 0.258500
-0.008580 -0.087362 0.259532
-0.007323 -0.087058 0.258610
-0.006118 -0.087374 0.259531
-0.004890 -0.087431 0.259683
-0.003677 -0.087881 0.261007
-0.002451 -0.088356 0.262402
-0.001212 -0.088820 0.263767
0.000040 -0.089312 0.265218
0.001314 -0.090351 0.268292
0.002607 -0.091003 0.270218
0.003878 -0.090732 0.269404
0.005160 -0.090777 0.269534
0.006410 -0.090369 0.268316
0.007626 -0.089681 0.266268
0.008837 -0.089142 0.264664
0.010057 -0.088813 0.263686
0.011257 -0.088406 0.262477
0.012452 -0.088040 0.261388
0.013734 -0.088297 0.262154
0.015032 -0.088611 0.263087
0.016302 -0.088723 0.263425
0.017675 -0.089336 0.265248
0.019056 -0.089910 0.266958
0.020368 -0.090102 0.267534
0.021593 -0.089912 0.266976
0.022844 -0.089843 0.266781
0.024181 -0.090104 0.267564
0.025434 -0.090039 0.267381
0.026610 -0.089720 0.266445
0.027808 -0.089503 0.265811
0.029035 -0.089393 0.265494
0.030185 -0.089065 0.264532
0.031442 -0.089065 0.264545
0.032842 -0.089455 0.265714
0.034156 -0.089591 0.266133
0.035428 -0.089610 0.266202
0.036743 -0.089734 0.266585
0.037618 -0.088810 0.263853
0.038591 -0.088169 0.261961
0.039675 -0.087815 0.260924
0.040574 -0.087084 0.258766
0.041650 -0.086764 0.257828
0.042696 -0.086404 0.256769
0.043618 -0.085817 0.255038
0.044845 -0.085847 0.255138
0.046087 -0.085904 0.255319
0.047123 -0.085582 0.254372
0.048306 -0.085539 0.254253
0.049618 -0.085718 0.254797
0.051123 -0.086216 0.256283
0.052546 -0.086555 0.257298
0.054093 -0.087077 0.258856
0.055731 -0.087720 0.260774
0.057436 -0.088438 0.262910
0.059345 -0.089432 0.265869
0.061132 -0.090206 0.268171
0.062661 -0.090575 0.269266
0.064079 -0.090771 0.269845
0.065802 -0.091383 0.271660
0.067068 -0.091350 0.271554
0.068102 -0.091007 0.270526
0.068837 -0.090285 0.268369
0.069700 -0.089754 0.266775
0.070610 -0.089301 0.265414
0.071675 -0.089057 0.264669
0.072636 -0.088695 0.263570
0.073324 -0.088017 0.261530
0.074322 -0.087727 0.260641
0.075162 -0.087263 0.259232
0.075961 -0.086767 0.257724
0.076897 -0.086441 0.256719
0.078012 -0.086323 0.256329
0.079482 -0.086596 0.257094
0.080965 -0.086874 0.257869
0.082627 -0.087333 0.259178
0.084027 -0.087505 0.259633
0.086170 -0.088435 0.262329
0.096158 -0.097275 0.288476
0.099113 -0.098851 0.293070
0.100278 -0.098622 0.292305
0.102356 -0.099286 0.294179
0.103826 -0.099349 0.294268
0.104902 -0.099039 0.293243
0.106465 -0.099191 0.293580
0.108007 -0.099319 0.293842
0.109359 -0.099272 0.293575
0.110778 -0.099285 0.293481
0.112240 -0.099337 0.293493
0.113810 -0.099481 0.293771
0.115405 -0.099643 0.294092
0.116959 -0.099767 0.294291
0.118523 -0.099896 0.294496
0.120348 -0.100239 0.295324
0.121627 -0.100125 0.294794
0.123069 -0.100146 0.294651
0.124683 -0.100305 0.294905
0.126172 -0.100360 0.294842
0.127781 -0.100509 0.295045
0.129281 -0.100569 0.294975
0.130736 -0.100594 0.294789
0.132356 -0.100744 0.294956
0.134089 -0.100975 0.295350
0.135955 -0.101300 0.296003
0.137390 -0.101301 0.295695
0.138824 -0.101301 0.295370
0.140407 -0.101409 0.295344
0.141950 -0.101485 0.295212
0.143458 -0.101536 0.294987
0.145015 -0.101619 0.294843
0.146538 -0.101677 0.294608
0.148102 -0.101763 0.294433
0.149636 -0.101826 0.294177
0.151460 -0.102083 0.294459
0.152974 -0.102129 0.294111
0.154290 -0.102042 0.293362
0.155726 -0.102035 0.292822
0.157547 -0.102279 0.292979
-0.133768 -0.083802 0.245872
-0.133777 -0.084559 0.248513
-0.132768 -0.084681 0.249274
-0.132694 -0.085407 0.251800
-0.155338 -0.100904 0.297930
-0.152259 -0.099825 0.295161
-0.150724 -0.099747 0.295332
-0.149152 -0.099644 0.295410
-0.147993 -0.099816 0.296291
-0.146430 -0.099718 0.296352
-0.144985 -0.099698 0.296632
-0.143555 -0.099690 0.296928
-0.141953 -0.099560 0.296851
-0.140424 -0.099479 0.296906
-0.139306 -0.099691 0.297822
-0.135446 -0.097925 0.292810
-0.133400 -0.097447 0.291634
-0.127591 -0.098312 0.295324
-0.125758 -0.097973 0.294495
-0.124387 -0.097991 0.294728
-0.123001 -0.097999 0.294920
-0.121619 -0.098009 0.295111
-0.120163 -0.097959 0.295112
-0.118808 -0.097991 0.295353
-0.117309 -0.097904 0.295225
-0.115807 -0.097812 0.295076
-0.114484 -0.097873 0.295377
-0.112914 -0.097719 0.295027
-0.111546 -0.097740 0.295192
-0.110189 -0.097771 0.295385
-0.108838 -0.097808 0.295587
-0.107428 -0.097793 0.295625
-0.106026 -0.097784 0.295676
-0.104621 -0.097773 0.295715
-0.103257 -0.097800 0.295862
-0.101734 -0.097675 0.295544
-0.100281 -0.097616 0.295420
-0.098830 -0.097556 0.295289
-0.096584 -0.096699 0.292737
-0.103666 -0.105291 0.318792
-0.102283 -0.105413 0.319198
-0.100741 -0.105372 0.319104
-0.098925 -0.105037 0.318118
-0.096478 -0.104013 0.315040
-0.093875 -0.102787 0.311343
-0.092079 -0.102419 0.310243
-0.089770 -0.101459 0.307344
-0.088549 -0.101719 0.308137
-0.087068 -0.101683 0.308030
-0.088370 -0.104951 0.317929
-0.086970 -0.105067 0.318277
-0.085187 -0.104716 0.317208
-0.083887 -0.104958 0.317929
-0.082626 -0.105258 0.318825
-0.080855 -0.104908 0.317748
-0.079285 -0.104811 0.317434
-0.078187 -0.105346 0.319032
-0.076764 -0.105456 0.319341
-0.068862 -0.096491 0.292168
-0.067581 -0.096628 0.292557
-0.066305 -0.096776 0.292979
-0.064879 -0.096709 0.292746
-0.063566 -0.096812 0.293025
-0.062172 -0.096791 0.292930
-0.060699 -0.096645 0.292456
-0.059314 -0.096636 0.292391
-0.057959 -0.096675 0.292474
-0.056563 -0.096647 0.292351
-0.055207 -0.096688 0.292439
-0.053882 -0.096786 0.292696
-0.052513 -0.096809 0.292727
-0.051159 -0.096863 0.292848
-0.049722 -0.096756 0.292484
-0.048291 -0.096657 0.292145
-0.046913 -0.096661 0.292114
-0.045464 -0.096514 0.291629
-0.044070 -0.096479 0.291483
-0.042645 -0.096372 0.291118
-0.041236 -0.096293 0.290838
-0.041517 -0.100294 0.302879
-0.040112 -0.100363 0.303045
-0.037248 -0.096649 0.291790
-0.036455 -0.098232 0.296526
-0.035074 -0.098293 0.296672
-0.030854 -0.090071 0.271819
-0.029314 -0.089300 0.269455
-0.027913 -0.088901 0.268216
-0.026490 -0.088391 0.266644
-0.025162 -0.088162 0.265919
-0.023844 -0.087946 0.265233
-0.022712 -0.088429 0.266660
-0.021532 -0.088771 0.267658
-0.020390 -0.089325 0.269299
-0.019259 -0.090004 0.271314
-0.018050 -0.090392 0.272455
-0.016754 -0.090369 0.272358
-0.015555 -0.090907 0.273954
-0.014250 -0.090867 0.273807
-0.012955 -0.090894 0.273862
-0.011160 -0.087025 0.262183
-0.009885 -0.086753 0.261342
-0.008667 -0.086974 0.261988
-0.007400 -0.086691 0.261115
-0.006157 -0.086643 0.260953
-0.004932 -0.086870 0.261622
-0.003689 -0.086859 0.261573
-0.002457 -0.087185 0.262539
-0.001217 -0.087680 0.264017
0.000036 -0.087938 0.264784
0.001314 -0.089330 0.268963
0.002600 -0.089622 0.269832
0.003871 -0.089374 0.269080
0.005138 -0.089182 0.268494
0.006389 -0.088850 0.267489
0.007630 -0.088505 0.266447
0.008856 -0.088116 0.265272
0.010112 -0.088071 0.265134
0.011353 -0.087927 0.264703
0.012555 -0.087539 0.263534
0.013842 -0.087761 0.264204
0.015172 -0.088199 0.265527
0.016423 -0.088142 0.265359
0.017775 -0.088592 0.266720
0.019143 -0.089062 0.268139
0.020370 -0.088857 0.267530
0.021677 -0.089003 0.267979
0.022974 -0.089093 0.268259
0.024232 -0.089032 0.268084
0.025423 -0.088744 0.267228
0.026759 -0.088962 0.267897
0.028081 -0.089118 0.268378
0.029077 -0.088271 0.265840
0.030386 -0.088404 0.266255
0.031831 -0.088905 0.267776
0.032869 -0.088278 0.265902
0.034145 -0.088309 0.266011
0.035417 -0.088328 0.266084
0.036309 -0.087431 0.263397
0.037717 -0.087797 0.264513
0.038584 -0.086918 0.261882
0.039569 -0.086352 0.260191
0.040633 -0.085988 0.259110
0.041592 -0.085429 0.257440
0.042790 -0.085380 0.257306
0.043924 -0.085208 0.256801
0.045030 -0.084993 0.256167
0.046230 -0.084962 0.256089
0.047338 -0.084767 0.255513
0.048752 -0.085117 0.256580
0.050128 -0.085384 0.257397
0.051506 -0.085643 0.258186
0.052884 -0.085889 0.258939
0.054287 -0.086163 0.259772
0.055941 -0.086816 0.261749
0.057605 -0.087454 0.263679
0.059135 -0.087865 0.264924
0.060900 -0.088603 0.267151
0.062620 -0.089245 0.269091
0.063997 -0.089383 0.269506
0.065605 -0.089830 0.270853
0.066747 -0.089636 0.270263
0.068089 -0.089712 0.270487
0.069053 -0.089298 0.269228
0.069952 -0.088814 0.267759
0.070952 -0.088474 0.266721
0.071854 -0.088026 0.265355
0.073029 -0.087922 0.265021
0.074249 -0.087874 0.264856
0.075451 -0.087808 0.264633
0.076252 -0.087285 0.263027
0.076840 -0.086537 0.260745
0.077597 -0.086003 0.259099
0.078645 -0.085801 0.258453
0.080007 -0.085943 0.258840
0.081894 -0.086636 0.260880
0.083566 -0.087085 0.262182
0.084500 -0.086761 0.261154
0.086264 -0.087288 0.262682
0.097759 -0.097504 0.293355
0.099048 -0.097398 0.292958
0.100486 -0.097438 0.292998
0.102204 -0.097745 0.293832
0.103655 -0.097791 0.293876
0.104896 -0.097642 0.293327
0.106471 -0.097802 0.293702
0.108015 -0.097931 0.293974
0.109393 -0.097907 0.293781
0.110972 -0.098061 0.294117
0.112361 -0.098046 0.293935
0.113819 -0.098091 0.293925
0.115511 -0.098333 0.294498
0.117185 -0.098555 0.295003
0.118658 -0.098603 0.294979
0.120130 -0.098651 0.294942
0.121672 -0.098753 0.295061
0.123110 -0.098770 0.294914
0.124475 -0.098730 0.294585
0.126080 -0.098877 0.294806
0.127619 -0.098970 0.294855
0.129072 -0.098995 0.294690
0.130564 -0.099049 0.294601
0.132156 -0.099177 0.294717
0.133748 -0.099302 0.294811
0.135448 -0.099504 0.295122
0.137051 -0.099631 0.295195
0.138505 -0.099647 0.294928
0.140107 -0.099770 0.294959
0.141659 -0.099854 0.294861
0.143166 -0.099905 0.294651
0.144750 -0.100008 0.294576
0.146350 -0.100120 0.294512
0.147827 -0.100146 0.294178
0.149204 -0.100105 0.293626
0.150938 -0.100301 0.293755
0.152515 -0.100391 0.293549
0.153769 -0.100268 0.292702
0.155423 -0.100405 0.292594
0.157405 -0.100750 0.293067
-0.135292 -0.083542 0.248938
-0.135092 -0.084167 0.251213
-0.134689 -0.084675 0.253131
-0.157752 -0.100081 0.299637
-0.156431 -0.100158 0.300303
-0.152381 -0.098473 0.295661
-0.150859 -0.098406 0.295852
-0.149157 -0.098219 0.295667
-0.147979 -0.098376 0.296502
-0.146497 -0.098334 0.296719
-0.144802 -0.098146 0.296480
-0.143359 -0.098126 0.296738
-0.142082 -0.098222 0.297329
-0.139824 -0.097635 0.295837
-0.138706 -0.097839 0.296731
-0.136460 -0.097244 0.295188
-0.134170 -0.096605 0.293495
-0.128105 -0.097293 0.296661
-0.125724 -0.096543 0.294554
-0.124237 -0.096470 0.294508
-0.122882 -0.096500 0.294762
-0.121666 -0.096641 0.295346
-0.120122 -0.096521 0.295127
-0.118700 -0.096499 0.295196
-0.117343 -0.096529 0.295419
-0.115842 -0.096440 0.295268
-0.114274 -0.096292 0.294930
-0.113021 -0.096410 0.295397
-0.111526 -0.096321 0.295225
-0.110004 -0.096207 0.294968
-0.108829 -0.096398 0.295639
-0.107340 -0.096311 0.295452
-0.105867 -0.096237 0.295299
-0.104626 -0.096376 0.295791
-0.103184 -0.096329 0.295710
-0.101692 -0.096235 0.295477
-0.100101 -0.096043 0.294937
-0.098667 -0.095999 0.294847
-0.096654 -0.095381 0.292989
-0.103884 -0.104000 0.319500
-0.102500 -0.104121 0.319907
-0.100951 -0.104077 0.319797
-0.099055 -0.103667 0.318563
-0.096735 -0.102795 0.315900
-0.094063 -0.101515 0.311980
-0.092011 -0.100875 0.310025
-0.089588 -0.099801 0.306728
-0.088597 -0.100313 0.308304
-0.086773 -0.099883 0.306982
-0.088630 -0.103749 0.318858
-0.087227 -0.103865 0.319207
-0.085557 -0.103662 0.318571
-0.084116 -0.103734 0.318778
-0.082561 -0.103666 0.318553
-0.081000 -0.103588 0.318292
-0.079059 -0.103012 0.316499
-0.077722 -0.103216 0.317100
-0.076309 -0.103325 0.317408
-0.068938 -0.095210 0.292452
-0.067747 -0.095474 0.293235
-0.066372 -0.095483 0.293231
-0.064961 -0.095441 0.293071
-0.063647 -0.095542 0.293346
-0.062090 -0.095275 0.292491
-0.060747 -0.095331 0.292626
-0.059313 -0.095246 0.292326
-0.057953 -0.095276 0.292379
-0.056611 -0.095339 0.292535
-0.055244 -0.095363 0.292567
-0.053928 -0.095478 0.292878
-0.052540 -0.095467 0.292802
-0.051171 -0.095492 0.292836
-0.049788 -0.095492 0.292794
-0.048331 -0.095346 0.292302
-0.046947 -0.095338 0.292236
-0.045518 -0.095237 0.291883
-0.044123 -0.095205 0.291739
-0.042711 -0.095131 0.291471
-0.041251 -0.094944 0.290852
-0.041192 -0.098077 0.300407
-0.039799 -0.098146 0.300572
-0.037144 -0.094992 0.290872
-0.036273 -0.096333 0.294936
-0.034899 -0.096395 0.295082
-0.031023 -0.089260 0.273204
-0.029249 -0.087818 0.268751
-0.027977 -0.087819 0.268719
-0.026607 -0.087499 0.267704
-0.025181 -0.086952 0.265995
-0.023862 -0.086738 0.265305
-0.022712 -0.087150 0.266533
-0.021503 -0.087369 0.267170
-0.020356 -0.087884 0.268712
-0.019174 -0.088308 0.269978
-0.017977 -0.088721 0.271212
-0.016749 -0.089030 0.272128
-0.015436 -0.088901 0.271706
-0.014160 -0.088978 0.271914
-0.012626 -0.087292 0.266735
-0.011210 -0.086141 0.263195
-0.009940 -0.085953 0.262600
-0.008667 -0.085689 0.261772
-0.007403 -0.085450 0.261025
-0.006166 -0.085478 0.261091
-0.004928 -0.085507 0.261163
-0.003708 -0.085966 0.262550
-0.002465 -0.086090 0.262914
-0.001222 -0.086480 0.264093
0.000033 -0.086815 0.265104
0.001306 -0.087787 0.268059
0.002588 -0.088061 0.268889
0.003841 -0.087499 0.267164
0.005118 -0.087639 0.267584
0.006391 -0.087656 0.267633
0.007620 -0.087172 0.266150
0.008870 -0.087023 0.265692
0.010113 -0.086855 0.265178
0.011373 -0.086857 0.265185
0.012649 -0.086964 0.265512
0.013945 -0.087173 0.266153
0.015247 -0.087387 0.266812
0.016517 -0.087396 0.266843
0.017764 -0.087290 0.266526
0.019118 -0.087690 0.267755
0.020404 -0.087749 0.267943
0.021690 -0.087799 0.268104
0.022764 -0.087031 0.265770
0.024052 -0.087122 0.266059
0.025418 -0.087470 0.267132
0.026380 -0.086463 0.264069
0.027554 -0.086207 0.263301
0.028666 -0.085790 0.262042
0.029696 -0.085171 0.260167
0.030882 -0.085032 0.259757
0.032099 -0.084987 0.259633
0.033215 -0.084685 0.258727
0.034445 -0.084686 0.258748
0.035679 -0.084696 0.258793
0.036819 -0.084490 0.258180
0.038023 -0.084438 0.258040
0.039301 -0.084550 0.258398
0.040141 -0.083740 0.255941
0.041334 -0.083693 0.255812
0.042728 -0.084043 0.256901
0.043770 -0.083703 0.255876
0.045064 -0.083848 0.256335
0.046273 -0.083830 0.256297
0.047919 -0.084587 0.258626
0.049248 -0.084760 0.259168
0.050628 -0.085009 0.259945
0.051926 -0.085112 0.260273
0.053255 -0.085259 0.260735
0.054489 -0.085253 0.260726
0.055955 -0.085600 0.261797
0.057620 -0.086231 0.263737
0.059443 -0.087066 0.266298
0.061104 -0.087633 0.268040
0.062710 -0.088101 0.269474
0.064032 -0.088158 0.269651
0.065448 -0.088340 0.270210
0.066695 -0.088290 0.270056
0.067669 -0.087889 0.268826
0.068765 -0.087658 0.268114
0.069730 -0.087270 0.266921
0.070489 -0.086645 0.264998
0.071763 -0.086662 0.265039
0.072998 -0.086632 0.264932
0.074287 -0.086667 0.265018
0.075484 -0.086595 0.264778
0.076446 -0.086259 0.263726
0.077333 -0.085852 0.262454
0.078044 -0.085265 0.260628
0.079026 -0.084988 0.259748
0.080481 -0.085219 0.260417
0.082324 -0.085850 0.262301
0.083937 -0.086224 0.263397
0.085188 -0.086221 0.263339
0.097493 -0.094502 0.288432
0.100691 -0.096245 0.293675
0.102426 -0.096561 0.294555
0.103944 -0.096666 0.294785
0.105100 -0.096437 0.293991
0.106546 -0.096476 0.294007
0.108078 -0.096590 0.294248
0.109517 -0.096620 0.294222
0.110885 -0.096587 0.293999
0.112318 -0.096611 0.293941
0.113919 -0.096776 0.294306
0.115436 -0.096868 0.294437
0.116987 -0.096985 0.294638
0.118458 -0.097034 0.294624
0.119777 -0.096958 0.294222
0.121293 -0.097042 0.294296
0.122794 -0.097112 0.294316
0.124087 -0.097018 0.293830
0.125529 -0.097041 0.293689
0.127028 -0.097107 0.293668
0.128614 -0.097237 0.293830
0.130105 -0.097294 0.293756
0.131705 -0.097429 0.293908
0.133402 -0.097633 0.294255
0.135551 -0.098159 0.295560
0.136706 -0.097962 0.294672
0.138179 -0.097995 0.294461
0.139895 -0.098198 0.294747
0.141260 -0.098152 0.294274
0.142875 -0.098280 0.294304
0.144533 -0.098434 0.294397
0.146068 -0.098502 0.294215
0.147696 -0.098630 0.294196
0.149127 -0.098626 0.293763
0.150656 -0.098686 0.293504
0.152351 -0.098853 0.293542
0.153593 -0.098725 0.292685
0.155062 -0.098743 0.292243
0.156875 -0.098979 0.292422
-0.140588 -0.085550 0.258946
-0.139437 -0.085610 0.259548
-0.147866 -0.091608 0.278161
-0.146639 -0.091678 0.278786
-0.155627 -0.098194 0.299025
-0.152253 -0.096960 0.295668
-0.150602 -0.096810 0.295594
-0.148970 -0.096669 0.295533
-0.147720 -0.096777 0.296213
-0.146265 -0.096751 0.296471
-0.144632 -0.096605 0.296346
-0.143361 -0.096701 0.296949
-0.141776 -0.096586 0.296889
-0.140342 -0.096571 0.297125
-0.139079 -0.096676 0.297716
-0.137364 -0.096465 0.297321
-0.136092 -0.096565 0.297873
-0.127546 -0.095460 0.295505
-0.125552 -0.095009 0.294287
-0.124027 -0.094907 0.294137
-0.122890 -0.095103 0.294902
-0.121452 -0.095068 0.294944
-0.119937 -0.094971 0.294785
-0.118530 -0.094959 0.294879
-0.116898 -0.094764 0.294398
-0.115562 -0.094807 0.294648
-0.114184 -0.094817 0.294788
-0.112669 -0.094712 0.294562
-0.111304 -0.094731 0.294717
-0.109887 -0.094707 0.294729
-0.108701 -0.094884 0.295361
-0.107334 -0.094906 0.295504
-0.105671 -0.094662 0.294813
-0.104659 -0.095003 0.295940
-0.103208 -0.094950 0.295831
-0.101389 -0.094552 0.294643
-0.100134 -0.094677 0.295077
-0.098671 -0.094606 0.294896
-0.095670 -0.093037 0.290042
-0.104052 -0.102653 0.320051
-0.102668 -0.102774 0.320459
-0.101137 -0.102751 0.320411
-0.099398 -0.102513 0.319685
-0.096578 -0.101135 0.315403
-0.094087 -0.100063 0.312070
-0.092180 -0.099590 0.310600
-0.090807 -0.099686 0.310904
-0.088959 -0.099257 0.309563
-0.089203 -0.101186 0.315574
-0.087818 -0.101301 0.315925
-0.086378 -0.101357 0.316087
-0.084815 -0.101267 0.315790
-0.083548 -0.101534 0.316605
-0.082314 -0.101852 0.317576
-0.080555 -0.101519 0.316516
-0.078925 -0.101341 0.315932
-0.077509 -0.101434 0.316195
-0.076100 -0.101542 0.316502
-0.068859 -0.093716 0.292078
-0.067698 -0.094016 0.292979
-0.066375 -0.094097 0.293200
-0.064939 -0.094018 0.292917
-0.063622 -0.094114 0.293179
-0.062217 -0.094078 0.293030
-0.060796 -0.094018 0.292803
-0.059342 -0.093902 0.292402
-0.058049 -0.094043 0.292798
-0.056662 -0.094034 0.292729
-0.055261 -0.094001 0.292583
-0.053910 -0.094053 0.292701
-0.052513 -0.094027 0.292575
-0.051135 -0.094033 0.292549
-0.049708 -0.093948 0.292241
-0.048286 -0.093867 0.291941
-0.046870 -0.093794 0.291668
-0.045457 -0.093722 0.291401
-0.043906 -0.093354 0.290209
-0.042575 -0.093444 0.290445
-0.041213 -0.093471 0.290481
-0.041630 -0.097671 0.303489
-0.040222 -0.097740 0.303657
-0.037399 -0.094245 0.292754
-0.035972 -0.094138 0.292376
-0.032905 -0.089558 0.278109
-0.031097 -0.088163 0.273740
-0.029482 -0.087222 0.270776
-0.028092 -0.086890 0.269708
-0.026686 -0.086474 0.268381
-0.025258 -0.085941 0.266690
-0.024010 -0.085997 0.266829
-0.022777 -0.086116 0.267162
-0.021516 -0.086139 0.267199
-0.020356 -0.086595 0.268582
-0.019151 -0.086905 0.269511
-0.017912 -0.087098 0.270081
-0.016677 -0.087342 0.270807
-0.015415 -0.087470 0.271174
-0.014055 -0.087014 0.269735
-0.012615 -0.085930 0.266347
-0.011251 -0.085168 0.263963
-0.009947 -0.084735 0.262598
-0.008648 -0.084225 0.260996
-0.007408 -0.084225 0.260978
-0.006171 -0.084248 0.261031
-0.004942 -0.084439 0.261606
-0.003701 -0.084484 0.261728
-0.002458 -0.084467 0.261662
-0.001222 -0.084967 0.263198
0.000029 -0.085739 0.265576
0.001295 -0.086002 0.266380
0.002572 -0.086363 0.267491
0.003845 -0.086413 0.267636
0.005109 -0.086269 0.267185
0.006396 -0.086508 0.267921
0.007649 -0.086272 0.267185
0.008869 -0.085786 0.265680
0.010136 -0.085819 0.265779
0.011404 -0.085857 0.265900
0.012658 -0.085785 0.265677
0.013933 -0.085859 0.265909
0.015225 -0.086016 0.266401
0.016545 -0.086291 0.267258
0.017843 -0.086424 0.267676
0.019107 -0.086385 0.267565
0.020403 -0.086485 0.267882
0.021562 -0.086029 0.266482
0.022863 -0.086155 0.266881
0.024223 -0.086482 0.267906
0.024860 -0.084321 0.261225
0.025979 -0.083923 0.260005
0.027144 -0.083704 0.259342
0.028277 -0.083407 0.258438
0.029542 -0.083510 0.258771
0.030746 -0.083440 0.258572
0.031980 -0.083450 0.258620
0.033194 -0.083411 0.258517
0.034456 -0.083492 0.258785
0.035600 -0.083289 0.258175
0.036823 -0.083281 0.258169
0.038164 -0.083529 0.258956
0.039374 -0.083485 0.258839
0.040292 -0.082844 0.256868
0.041487 -0.082791 0.256724
0.042802 -0.082975 0.257314
0.043942 -0.082818 0.256845
0.045046 -0.082605 0.256202
0.046369 -0.082793 0.256802
0.048101 -0.083682 0.259579
0.049372 -0.083746 0.259794
0.050578 -0.083698 0.259661
0.051791 -0.083666 0.259575
0.053098 -0.083781 0.259948
0.054267 -0.083678 0.259643
0.055823 -0.084165 0.261164
0.057505 -0.084816 0.263197
0.059212 -0.085474 0.265250
0.061427 -0.086823 0.269445
0.063027 -0.087267 0.270829
0.064536 -0.087568 0.271770
0.065579 -0.087237 0.270748
0.066975 -0.087380 0.271191
0.068325 -0.087458 0.271435
0.068927 -0.086594 0.268751
0.069825 -0.086126 0.267294
0.070856 -0.085836 0.266387
0.071681 -0.085311 0.264749
0.072777 -0.085122 0.264148
0.074132 -0.085235 0.264486
0.075039 -0.084840 0.263241
0.076273 -0.084820 0.263157
0.077125 -0.084383 0.261776
0.078514 -0.084538 0.262232
0.079202 -0.083945 0.260361
0.080498 -0.084005 0.260512
0.082718 -0.085012 0.263598
0.084088 -0.085130 0.263920
0.085918 -0.085702 0.265645
0.099176 -0.096098 0.297748
0.098881 -0.094461 0.292610
0.100454 -0.094629 0.293057
0.102199 -0.094953 0.293980
0.103578 -0.094933 0.293832
0.104965 -0.094920 0.293701
0.106427 -0.094974 0.293772
0.107901 -0.095037 0.293863
0.109410 -0.095129 0.294038
0.110735 -0.095061 0.293709
0.112178 -0.095095 0.293687
0.113558 -0.095075 0.293492
0.114919 -0.095039 0.293243
0.116509 -0.095192 0.293565
0.117931 -0.095205 0.293448
0.119258 -0.095141 0.293086
0.120796 -0.095247 0.293235
0.122308 -0.095328 0.293303
0.123719 -0.095331 0.293116
0.125186 -0.095375 0.293049
0.126768 -0.095506 0.293236
0.128393 -0.095665 0.293498
0.130027 -0.095828 0.293761
0.131699 -0.096015 0.294085
0.133337 -0.096173 0.294309
0.135076 -0.096400 0.294727
0.136702 -0.096542 0.294875
0.138273 -0.096643 0.294883
0.139907 -0.096785 0.295000
0.141342 -0.096788 0.294681
0.142892 -0.096869 0.294581
0.144350 -0.096887 0.294275
0.145801 -0.096899 0.293937
0.147371 -0.096989 0.293817
0.149245 -0.097276 0.294276
0.150760 -0.097325 0.293995
0.152337 -0.097413 0.293813
0.153946 -0.097520 0.293666
0.155429 -0.097545 0.293253
0.157188 -0.097742 0.293335
-0.138164 -0.082834 0.254732
-0.140621 -0.085064 0.262003
-0.144599 -0.088263 0.272266
-0.152556 -0.093970 0.290294
-0.151285 -0.094047 0.290934
-0.152259 -0.095533 0.295926
-0.150663 -0.095420 0.295952
-0.149125 -0.095342 0.296069
-0.147720 -0.095349 0.296434
-0.146309 -0.095352 0.296774
-0.144694 -0.095221 0.296681
-0.143378 -0.095286 0.297184
-0.141714 -0.095119 0.296949
-0.140284 -0.095108 0.297188
-0.139150 -0.095298 0.298046
-0.137043 -0.094820 0.296798
-0.127344 -0.093902 0.295170
-0.125768 -0.093768 0.294919
-0.124401 -0.093789 0.295145
-0.122925 -0.093727 0.295103
-0.121649 -0.093817 0.295534
-0.120014 -0.093630 0.295079
-0.118360 -0.093424 0.294556
-0.117156 -0.093572 0.295142
-0.115537 -0.093389 0.294676
-0.114124 -0.093369 0.294718
-0.112695 -0.093335 0.294709
-0.111101 -0.093163 0.294255
-0.109879 -0.093303 0.294778
-0.108517 -0.093325 0.294926
-0.107145 -0.093340 0.295044
-0.105746 -0.093331 0.295080
-0.104375 -0.093347 0.295188
-0.103107 -0.093457 0.295588
-0.101498 -0.093257 0.295002
-0.099733 -0.092906 0.293934
-0.097566 -0.092165 0.291627
-0.096374 -0.092338 0.292205
-0.104068 -0.101153 0.320129
-0.102685 -0.101274 0.320537
-0.101331 -0.101428 0.321043
-0.099591 -0.101195 0.320319
-0.097154 -0.100236 0.317294
-0.094768 -0.099299 0.314336
-0.092565 -0.098529 0.311900
-0.090456 -0.097835 0.309702
-0.089213 -0.098071 0.310442
-0.089332 -0.099836 0.316020
-0.087946 -0.099951 0.316372
-0.086152 -0.099598 0.315241
-0.084589 -0.099505 0.314928
-0.082954 -0.099323 0.314328
-0.081816 -0.099740 0.315625
-0.080195 -0.099573 0.315069
-0.078234 -0.098969 0.313129
-0.077180 -0.099512 0.314815
-0.075779 -0.099620 0.315122
-0.068804 -0.092258 0.291801
-0.067517 -0.092378 0.292145
-0.066211 -0.092477 0.292424
-0.064823 -0.092463 0.292342
-0.063492 -0.092532 0.292520
-0.062167 -0.092613 0.292734
-0.060801 -0.092637 0.292767
-0.059419 -0.092634 0.292716
-0.058104 -0.092741 0.293009
-0.056708 -0.092718 0.292891
-0.055347 -0.092755 0.292962
-0.053987 -0.092794 0.293039
-0.052564 -0.092725 0.292776
-0.051174 -0.092713 0.292688
-0.049715 -0.092571 0.292193
-0.048267 -0.092442 0.291740
-0.046870 -0.092406 0.291577
-0.045464 -0.092349 0.291349
-0.044010 -0.092188 0.290795
-0.042652 -0.092226 0.290867
-0.041213 -0.092086 0.290378
-0.041501 -0.095928 0.302443
-0.040099 -0.095996 0.302610
-0.037067 -0.092024 0.290044
-0.036066 -0.092984 0.293023
-0.033058 -0.088638 0.279283
-0.031195 -0.087129 0.274487
-0.029499 -0.085976 0.270816
-0.028115 -0.085670 0.269811
-0.026653 -0.085084 0.267928
-0.025294 -0.084784 0.266945
-0.023994 -0.084662 0.266525
-0.022699 -0.084545 0.266121
-0.021495 -0.084774 0.266807
-0.020219 -0.084732 0.266641
-0.019052 -0.085170 0.267987
-0.017886 -0.085673 0.269537
-0.016649 -0.085892 0.270196
-0.015367 -0.085894 0.270173
-0.014111 -0.086051 0.270640
-0.012750 -0.085545 0.269022
-0.011314 -0.084362 0.265275
-0.010006 -0.083955 0.263973
-0.008727 -0.083712 0.263187
-0.007444 -0.083341 0.262002
-0.006192 -0.083245 0.261679
-0.004953 -0.083319 0.261897
-0.003708 -0.083304 0.261831
-0.002469 -0.083479 0.262367
-0.001223 -0.083564 0.262623
0.000026 -0.084403 0.265246
0.001291 -0.084729 0.266260
0.002577 -0.085380 0.268297
0.003860 -0.085540 0.268794
0.005149 -0.085736 0.269403
0.006530 -0.087069 0.273586
0.007759 -0.086270 0.271073
0.008945 -0.085281 0.267963
0.010369 -0.086531 0.271892
0.011579 -0.085913 0.269951
0.012806 -0.085538 0.268775
0.014038 -0.085254 0.267888
0.015348 -0.085453 0.268516
0.016670 -0.085682 0.269244
0.017979 -0.085821 0.269687
0.019237 -0.085709 0.269344
0.020486 -0.085573 0.268927
0.021662 -0.085167 0.267664
0.023006 -0.085431 0.268504
0.024262 -0.085357 0.268286
0.025042 -0.083699 0.263090
0.025993 -0.082744 0.260103
0.027219 -0.082709 0.260008
0.028495 -0.082824 0.260387
0.029706 -0.082748 0.260165
0.030929 -0.082709 0.260059
0.032163 -0.082702 0.260056
0.033308 -0.082475 0.259362
0.034550 -0.082496 0.259447
0.035732 -0.082377 0.259094
0.036847 -0.082116 0.258293
0.038230 -0.082450 0.259364
0.039500 -0.082527 0.259626
0.040356 -0.081760 0.257233
0.041612 -0.081824 0.257456
0.042966 -0.082074 0.258263
0.044173 -0.082034 0.258157
0.045304 -0.081861 0.257633
0.046572 -0.081938 0.257895
0.047948 -0.082194 0.258721
0.049427 -0.082611 0.260053
0.050321 -0.082053 0.258313
0.051664 -0.082236 0.258909
0.053253 -0.082795 0.260684
0.054367 -0.082604 0.260099
0.055581 -0.082571 0.260012
0.057407 -0.083430 0.262731
0.059682 -0.084890 0.267341
0.061200 -0.085234 0.268435
0.062603 -0.085408 0.268993
0.064267 -0.085924 0.270626
0.065498 -0.085851 0.270405
0.066602 -0.085619 0.269678
0.067766 -0.085471 0.269214
0.068837 -0.085213 0.268403
0.069480 -0.084444 0.265981
0.070794 -0.084503 0.266161
0.071436 -0.083773 0.263857
0.072346 -0.083376 0.262597
0.073819 -0.083631 0.263387
0.074830 -0.083362 0.262527
0.076348 -0.083658 0.263441
0.077772 -0.083842 0.264000
0.079119 -0.083939 0.264281
0.079948 -0.083493 0.262848
0.081422 -0.083723 0.263541
0.083513 -0.084570 0.266173
0.085067 -0.084857 0.267035
0.087059 -0.085566 0.269222
0.097975 -0.094898 0.298529
0.099284 -0.094790 0.298131
0.098699 -0.092903 0.292134
0.100403 -0.093193 0.292977
0.102284 -0.093637 0.294298
0.103453 -0.093426 0.293555
0.104935 -0.093500 0.293700
0.106435 -0.093587 0.293881
0.107845 -0.093593 0.293802
0.109293 -0.093632 0.293819
0.110737 -0.093667 0.293816
0.112173 -0.093694 0.293780
0.113477 -0.093612 0.293394
0.114948 -0.093667 0.293432
0.116504 -0.093790 0.293673
0.118036 -0.093890 0.293835
0.119367 -0.093831 0.293488
0.120902 -0.093930 0.293630
0.122526 -0.094096 0.293970
0.123843 -0.094025 0.293560
0.125357 -0.094103 0.293606
0.126782 -0.094114 0.293431
0.128272 -0.094172 0.293391
0.129844 -0.094288 0.293524
0.131473 -0.094443 0.293762
0.132830 -0.094401 0.293378
0.134376 -0.094492 0.293395
0.136119 -0.094719 0.293820
0.137560 -0.094733 0.293571
0.139072 -0.094795 0.293458
0.140669 -0.094913 0.293502
0.142184 -0.094973 0.293354
0.143942 -0.095194 0.293685
0.145653 -0.095379 0.293889
0.147261 -0.095494 0.293858
0.148846 -0.095591 0.293756
0.150748 -0.095888 0.294249
0.152353 -0.095993 0.294131
0.153680 -0.095922 0.293456
0.155428 -0.096112 0.293559
0.156910 -0.096136 0.293133
-0.140657 -0.083067 0.259575
-0.141582 -0.084363 0.264036
-0.143280 -0.086148 0.270023
-0.142985 -0.086756 0.272315
-0.153311 -0.093879 0.295074
-0.151962 -0.093919 0.295584
-0.150561 -0.093928 0.295979
-0.148992 -0.093831 0.296026
-0.147637 -0.093869 0.296481
-0.146135 -0.093813 0.296627
-0.144628 -0.093753 0.296744
-0.143152 -0.093712 0.296906
-0.141582 -0.093608 0.296857
-0.140228 -0.093646 0.297246
-0.138173 -0.093213 0.296123
-0.136604 -0.093101 0.296011
-0.126970 -0.092225 0.294429
-0.125459 -0.092138 0.294316
-0.124094 -0.092157 0.294534
-0.122567 -0.092055 0.294355
-0.121281 -0.092133 0.294744
-0.120002 -0.092219 0.295149
-0.118371 -0.092034 0.294679
-0.116740 -0.091843 0.294183
-0.115154 -0.091685 0.293783
-0.113898 -0.091789 0.294214
-0.112361 -0.091665 0.293910
-0.110991 -0.091678 0.294035
-0.109493 -0.091583 0.293808
-0.108563 -0.091967 0.295114
-0.107215 -0.092002 0.295293
-0.105435 -0.091663 0.294264
-0.104287 -0.091872 0.294987
-0.102919 -0.091889 0.295092
-0.100825 -0.091251 0.293085
-0.099707 -0.091490 0.293891
-0.097898 -0.091094 0.292651
-0.096169 -0.090761 0.291608
-0.104371 -0.099928 0.321085
-0.102986 -0.100049 0.321494
-0.101858 -0.100429 0.322730
-0.100104 -0.100192 0.321980
-0.097291 -0.098873 0.317749
-0.093770 -0.096781 0.311027
-0.092017 -0.096478 0.310051
-0.089614 -0.095472 0.306812
-0.088212 -0.095517 0.306947
-0.087988 -0.096861 0.311253
-0.087706 -0.098184 0.315490
-0.086101 -0.098048 0.315035
-0.084311 -0.097692 0.313869
-0.083007 -0.097897 0.314501
-0.081602 -0.097988 0.314765
-0.079996 -0.097836 0.314248
-0.078366 -0.097650 0.313618
-0.076708 -0.097420 0.312843
-0.075316 -0.097526 0.313148
-0.068659 -0.090682 0.291137
-0.067427 -0.090872 0.291708
-0.066258 -0.091155 0.292578
-0.064840 -0.091101 0.292362
-0.063478 -0.091125 0.292397
-0.062205 -0.091280 0.292852
-0.060859 -0.091333 0.292977
-0.059467 -0.091319 0.292886
-0.058087 -0.091322 0.292848
-0.056745 -0.091386 0.293007
-0.055363 -0.091389 0.292967
-0.053985 -0.091397 0.292946
-0.052605 -0.091405 0.292920
-0.051193 -0.091355 0.292712
-0.049712 -0.091175 0.292086
-0.048358 -0.091226 0.292197
-0.046914 -0.091103 0.291755
-0.045466 -0.090967 0.291268
-0.044067 -0.090922 0.291074
-0.042670 -0.090878 0.290885
-0.041231 -0.090740 0.290394
-0.041281 -0.093983 0.300722
-0.039886 -0.094051 0.300889
-0.037315 -0.091248 0.291874
-0.035907 -0.091181 0.291613
-0.032776 -0.086560 0.276789
-0.031155 -0.085708 0.274022
-0.029452 -0.084546 0.270263
-0.027954 -0.083894 0.268139
-0.026569 -0.083535 0.266953
-0.025220 -0.083262 0.266042
-0.023935 -0.083182 0.265748
-0.022624 -0.082996 0.265118
-0.021375 -0.083029 0.265188
-0.020191 -0.083334 0.266127
-0.018969 -0.083514 0.266669
-0.017769 -0.083824 0.267627
-0.016585 -0.084263 0.268996
-0.015340 -0.084441 0.269534
-0.014067 -0.084481 0.269635
-0.012683 -0.083801 0.267437
-0.011381 -0.083565 0.266659
-0.010055 -0.083078 0.265081
-0.008730 -0.082457 0.263077
-0.007475 -0.082400 0.262875
-0.006224 -0.082386 0.262810
-0.004973 -0.082344 0.262657
-0.003729 -0.082459 0.263008
-0.002482 -0.082562 0.263322
-0.001230 -0.082559 0.263300
0.000022 -0.083082 0.264956
0.001287 -0.083405 0.265976
0.002577 -0.084213 0.268544
0.003852 -0.084177 0.268421
0.005149 -0.084507 0.269467
0.006449 -0.084748 0.270232
0.007741 -0.084820 0.270459
0.009044 -0.084968 0.270930
0.010317 -0.084842 0.270528
0.011613 -0.084909 0.270743
0.012884 -0.084793 0.270377
0.014202 -0.084980 0.270978
0.015439 -0.084698 0.270083
0.016765 -0.084904 0.270749
0.018015 -0.084725 0.270187
0.019318 -0.084800 0.270437
0.020426 -0.084063 0.268097
0.021715 -0.084115 0.268276
0.023050 -0.084329 0.268970
0.024184 -0.083825 0.267378
0.025137 -0.082773 0.264037
0.026250 -0.082323 0.262618
0.027449 -0.082172 0.262154
0.028602 -0.081904 0.261315
0.029818 -0.081828 0.261092
0.031021 -0.081725 0.260785
0.032190 -0.081543 0.260223
0.033332 -0.081311 0.259502
0.034529 -0.081222 0.259241
0.035693 -0.081064 0.258758
0.036819 -0.080835 0.258047
0.038185 -0.081129 0.259008
0.039232 -0.080749 0.257818
0.040362 -0.080557 0.257227
0.041632 -0.080648 0.257540
0.042927 -0.080779 0.257983
0.044252 -0.080959 0.258579
0.045393 -0.080803 0.258103
0.046537 -0.080657 0.257660
0.048016 -0.081086 0.259052
0.049511 -0.081520 0.260460
0.050744 -0.081512 0.260455
0.052246 -0.081925 0.261796
0.053858 -0.082489 0.263616
0.055053 -0.082403 0.263359
0.056311 -0.082411 0.263404
0.057873 -0.082855 0.264840
0.059906 -0.083940 0.268323
0.061328 -0.084141 0.268981
0.062801 -0.084403 0.269831
0.064324 -0.084719 0.270854
0.065476 -0.084545 0.270306
0.066587 -0.084325 0.269609
0.067814 -0.084258 0.269403
0.068590 -0.083643 0.267439
0.069443 -0.083142 0.265837
0.070442 -0.082831 0.264844
0.071331 -0.082404 0.263474
0.072250 -0.082026 0.262259
0.073303 -0.081810 0.261560
0.074800 -0.082088 0.262438
0.076361 -0.082426 0.263504
0.077596 -0.082407 0.263425
0.079211 -0.082786 0.264616
0.080595 -0.082914 0.265002
0.081867 -0.082926 0.265014
0.083725 -0.083522 0.266885
0.085789 -0.084303 0.269343
0.087827 -0.085035 0.271640
0.097302 -0.092842 0.296531
0.098600 -0.092735 0.296135
0.099028 -0.091824 0.293166
0.100545 -0.091935 0.293456
0.102262 -0.092222 0.294305
0.103466 -0.092045 0.293663
0.105062 -0.092218 0.294132
0.106448 -0.092203 0.293997
0.107838 -0.092192 0.293868
0.109253 -0.092203 0.293802
0.110569 -0.092131 0.293464
0.111937 -0.092104 0.293262
0.113389 -0.092145 0.293272
0.114794 -0.092148 0.293151
0.116362 -0.092280 0.293431
0.117929 -0.092407 0.293691
0.119393 -0.092452 0.293678
0.120737 -0.092404 0.293362
0.122297 -0.092520 0.293558
0.123851 -0.092630 0.293722
0.125269 -0.092636 0.293548
0.126754 -0.092691 0.293521
0.128195 -0.092712 0.293376
0.129781 -0.092837 0.293548
0.131312 -0.092921 0.293576
0.132904 -0.093045 0.293721
0.134516 -0.093181 0.293890
0.136087 -0.093285 0.293947
0.137593 -0.093343 0.293844
0.139022 -0.093348 0.293561
0.140556 -0.093423 0.293483
0.141971 -0.093418 0.293140
0.143640 -0.093579 0.293301
0.145454 -0.093829 0.293728
0.147178 -0.094017 0.293942
0.149477 -0.094566 0.295262
0.150826 -0.094508 0.294670
0.152359 -0.094566 0.294421
0.154083 -0.094740 0.294512
0.155474 -0.094708 0.293944
0.157001 -0.094758 0.293610
-0.143621 -0.083528 0.265289
-0.142311 -0.083509 0.265631
-0.142656 -0.084469 0.269075
-0.143337 -0.085648 0.273212
-0.153392 -0.092502 0.295466
-0.151874 -0.092439 0.295641
-0.150400 -0.092402 0.295883
-0.148800 -0.092286 0.295857
-0.147469 -0.092337 0.296349
-0.145818 -0.092187 0.296181
-0.144317 -0.092130 0.296296
-0.142832 -0.092081 0.296427
-0.141117 -0.091883 0.296060
-0.139505 -0.091748 0.295883
-0.137939 -0.091641 0.295785
-0.135782 -0.091135 0.294386
-0.126516 -0.090498 0.293497
-0.125175 -0.090532 0.293765
-0.123794 -0.090537 0.293931
-0.122408 -0.090538 0.294077
-0.121156 -0.090639 0.294539
-0.119731 -0.090612 0.294577
-0.118170 -0.090480 0.294266
-0.116521 -0.090277 0.293715
-0.115218 -0.090341 0.294024
-0.113647 -0.090194 0.293639
-0.112279 -0.090206 0.293766
-0.111058 -0.090339 0.294277
-0.109565 -0.090250 0.294063
-0.108340 -0.090383 0.294563
-0.107070 -0.090481 0.294943
-0.105407 -0.090246 0.294233
-0.103966 -0.090196 0.294121
-0.102315 -0.089961 0.293398
-0.100929 -0.089957 0.293423
-0.099272 -0.089706 0.292638
-0.097697 -0.089524 0.292073
-0.095976 -0.089202 0.291045
-0.104145 -0.098195 0.320408
-0.102586 -0.098145 0.320261
-0.101534 -0.098587 0.321714
-0.099744 -0.098314 0.320829
-0.097222 -0.097300 0.317523
-0.094583 -0.096136 0.313724
-0.092474 -0.095483 0.311586
-0.090954 -0.095426 0.311390
-0.089596 -0.095539 0.311749
-0.087604 -0.094971 0.309877
-0.086496 -0.095357 0.311117
-0.085262 -0.095615 0.311937
-0.083768 -0.095586 0.311817
-0.082418 -0.095723 0.312237
-0.081124 -0.095931 0.312885
-0.079677 -0.095963 0.312955
-0.078193 -0.095951 0.312879
-0.076966 -0.096261 0.313851
-0.075571 -0.096367 0.314158
-0.068774 -0.089452 0.291575
-0.067609 -0.089729 0.292439
-0.066301 -0.089826 0.292711
-0.064937 -0.089848 0.292739
-0.063610 -0.089923 0.292938
-0.062260 -0.089969 0.293044
-0.060914 -0.090023 0.293171
-0.059491 -0.089965 0.292932
-0.058111 -0.089968 0.292895
-0.056726 -0.089965 0.292834
-0.055345 -0.089968 0.292793
-0.053964 -0.089970 0.292749
-0.052559 -0.089933 0.292576
-0.051137 -0.089863 0.292296
-0.049703 -0.089768 0.291936
-0.048286 -0.089701 0.291665
-0.046877 -0.089644 0.291427
-0.045488 -0.089623 0.291307
-0.044111 -0.089624 0.291259
-0.042669 -0.089490 0.290772
-0.041171 -0.089227 0.289866
-0.041453 -0.092936 0.301863
-0.040053 -0.093004 0.302031
-0.037564 -0.090453 0.293699
-0.036110 -0.090296 0.293138
-0.032555 -0.084664 0.274808
-0.030833 -0.083527 0.271075
