ply
format ascii 1.0
element vertex 1743
property float x
property float y
property float z
end_header
0.118288 0.041284 0.289413
0.119575 0.041251 0.289159
0.120884 0.041227 0.288954
0.122167 0.041195 0.288686
0.121754 0.040598 0.284452
0.124997 0.041220 0.288750
0.131245 0.041451 0.290054
0.132434 0.041389 0.289521
0.134078 0.041469 0.289971
0.135554 0.041496 0.290038
0.136861 0.041471 0.289734
0.138342 0.041499 0.289787
0.140218 0.041644 0.290644
0.141459 0.041599 0.290167
0.142755 0.041571 0.289796
0.144514 0.041676 0.290344
0.146518 0.041850 0.291355
0.147837 0.041826 0.290980
0.149723 0.041962 0.291699
0.151807 0.042150 0.292765
0.153537 0.042238 0.293117
-0.043283 0.015291 0.104502
-0.042861 0.015315 0.104673
-0.042381 0.015319 0.104702
-0.041713 0.015255 0.104260
-0.041418 0.015327 0.104748
-0.041074 0.015383 0.105122
-0.040531 0.015364 0.104987
-0.041132 0.015784 0.107845
-0.041469 0.016112 0.110071
-0.041673 0.016396 0.111994
-0.041109 0.016381 0.111875
-0.040774 0.016459 0.112385
-0.040824 0.016695 0.113979
-0.040573 0.016813 0.114760
-0.040300 0.016925 0.115501
-0.040049 0.017050 0.116326
-0.039900 0.017222 0.117470
-0.040274 0.017628 0.120206
-0.042143 0.018709 0.127545
-0.041610 0.018740 0.127715
-0.041818 0.019110 0.130202
-0.041513 0.019253 0.131138
-0.041183 0.019389 0.132020
-0.042479 0.020306 0.138220
-0.042460 0.020614 0.140266
-0.042324 0.020873 0.141983
-0.042453 0.021274 0.144658
-0.042365 0.021578 0.146667
-0.042305 0.021906 0.148842
-0.042187 0.022214 0.150878
-0.042070 0.022534 0.152992
-0.041920 0.022846 0.155054
-0.042009 0.023303 0.158093
-0.042341 0.023914 0.162170
-0.042791 0.024615 0.166856
-0.042742 0.025049 0.169731
-0.042548 0.025414 0.172134
-0.042338 0.025784 0.174565
-0.042326 0.026291 0.177926
-0.042350 0.026842 0.181575
-0.042469 0.027477 0.185793
-0.042348 0.027980 0.189118
-0.042063 0.028395 0.191839
-0.041631 0.028727 0.194000
-0.041319 0.029159 0.196831
-0.040995 0.029601 0.199733
-0.040761 0.030132 0.203230
-0.040423 0.030609 0.206364
-0.040149 0.031160 0.209988
-0.040140 0.031950 0.215224
-0.040277 0.032901 0.221542
-0.040317 0.033822 0.227647
-0.039659 0.034193 0.230049
-0.039686 0.035191 0.236674
-0.039261 0.035836 0.240911
-0.042280 0.042318 0.284158
-0.040962 0.042361 0.284345
-0.039221 0.041956 0.281524
-0.037014 0.041006 0.275052
-0.035516 0.040800 0.273571
-0.035927 0.042856 0.287259
-0.034580 0.042894 0.287418
-0.032680 0.042223 0.282824
-0.031534 0.042508 0.284643
-0.030229 0.042595 0.285141
-0.028380 0.041888 0.280323
-0.027171 0.042103 0.281682
-0.025794 0.042067 0.281357
-0.024369 0.041943 0.280453
-0.023070 0.042034 0.280990
-0.021648 0.041898 0.280014
-0.020380 0.042064 0.281053
-0.011642 0.039947 0.266593
-0.010360 0.039961 0.266644
-0.009077 0.039973 0.266689
-0.007737 0.039702 0.264847
-0.006450 0.039645 0.264435
-0.005180 0.039687 0.264688
-0.003903 0.039691 0.264690
-0.002634 0.039824 0.265554
-0.001347 0.039671 0.264518
-0.000070 0.040072 0.267182
0.001229 0.040366 0.269130
0.002486 0.039699 0.264675
0.003829 0.040380 0.269213
0.005201 0.040941 0.272951
0.006308 0.039614 0.264109
0.007363 0.038463 0.256443
0.008610 0.038500 0.256699
0.009869 0.038576 0.257221
0.011074 0.038447 0.256377
0.012330 0.038503 0.256773
0.013572 0.038507 0.256823
0.014821 0.038530 0.257003
0.016068 0.038544 0.257123
0.017343 0.038618 0.257652
0.018591 0.038626 0.257742
0.019950 0.038850 0.259276
0.021310 0.039048 0.260640
0.023395 0.040479 0.270238
0.024685 0.040455 0.270127
0.025824 0.040200 0.268474
0.027180 0.040289 0.269126
0.028409 0.040191 0.268531
0.029690 0.040173 0.268466
0.030892 0.040051 0.267718
0.032176 0.040043 0.267727
0.033483 0.040063 0.267928
0.034722 0.040003 0.267596
0.035912 0.039892 0.266924
0.037118 0.039807 0.266428
0.038350 0.039753 0.266148
0.039506 0.039627 0.265376
0.040525 0.039376 0.263775
0.041293 0.038904 0.260690
0.042393 0.038762 0.259821
0.043395 0.038542 0.258427
0.044516 0.038436 0.257802
0.045707 0.038396 0.257613
0.046735 0.038224 0.256543
0.047835 0.038117 0.255914
0.048896 0.037987 0.255121
0.050110 0.037978 0.255151
0.051317 0.037965 0.255147
0.052506 0.037939 0.255060
0.053800 0.037988 0.255479
0.055035 0.037995 0.255612
0.056584 0.038213 0.257168
0.058942 0.038956 0.262260
0.061754 0.039963 0.269127
0.063013 0.039943 0.269091
0.064380 0.039992 0.269507
0.065837 0.040093 0.270279
0.067231 0.040153 0.270775
0.068459 0.040113 0.270596
0.069733 0.040101 0.270603
0.070931 0.040046 0.270323
0.072003 0.039924 0.269585
0.072387 0.039431 0.266338
0.073358 0.039269 0.265327
0.074616 0.039264 0.265373
0.075413 0.039020 0.263805
0.075924 0.038639 0.261302
0.076951 0.038528 0.260627
0.077708 0.038288 0.259076
0.078745 0.038191 0.258490
0.079871 0.038140 0.258207
0.081507 0.038330 0.259555
0.083175 0.038529 0.260965
0.083920 0.038300 0.259477
0.085516 0.038462 0.260625
0.086623 0.038401 0.260268
0.099489 0.042877 0.290707
0.100269 0.042619 0.289005
0.101715 0.042648 0.289242
0.103366 0.042761 0.290045
0.104730 0.042753 0.290026
0.105824 0.042637 0.289268
0.107335 0.042690 0.289646
0.108644 0.042662 0.289476
0.109958 0.042637 0.289316
0.111476 0.042690 0.289684
0.112737 0.042644 0.289378
0.114246 0.042693 0.289702
0.115405 0.042611 0.289135
0.116732 0.042592 0.288990
0.118202 0.042625 0.289192
0.119516 0.042602 0.289004
0.120855 0.042588 0.288870
0.122319 0.042618 0.289029
0.123686 0.042614 0.288948
0.124933 0.042569 0.288582
0.127211 0.042872 0.290569
0.135887 0.043881 0.297035
0.137107 0.043817 0.296484
0.135756 0.042941 0.290431
0.137449 0.043035 0.290937
0.138951 0.043069 0.291018
0.140386 0.043081 0.290945
0.142010 0.043150 0.291245
0.142892 0.042994 0.290018
0.145559 0.043374 0.292388
0.146952 0.043370 0.292158
0.148485 0.043407 0.292192
0.150204 0.043498 0.292569
0.151831 0.043560 0.292742
0.153460 0.043621 0.292896
-0.042544 0.015514 0.102717
-0.043123 0.015906 0.105314
-0.042597 0.015894 0.105237
-0.041883 0.015811 0.104686
-0.041954 0.016026 0.106106
-0.041681 0.016113 0.106676
-0.041154 0.016103 0.106602
-0.040941 0.016217 0.107349
-0.041196 0.016522 0.109353
-0.041252 0.016753 0.110871
-0.040507 0.016662 0.110246
-0.040120 0.016716 0.110590
-0.040178 0.016960 0.112183
-0.040890 0.017491 0.115669
-0.040682 0.017636 0.116608
-0.040200 0.017666 0.116776
-0.039557 0.017624 0.116472
-0.039565 0.017876 0.118105
-0.039726 0.018205 0.120245
-0.042226 0.019630 0.129624
-0.041992 0.019808 0.130761
-0.041746 0.019985 0.131892
-0.041147 0.019996 0.131923
-0.042028 0.020738 0.136775
-0.041945 0.021020 0.138587
-0.041730 0.021244 0.140016
-0.041912 0.021680 0.142840
-0.042117 0.022142 0.145835
-0.042206 0.022558 0.148521
-0.042155 0.022912 0.150794
-0.042091 0.023271 0.153100
-0.042132 0.023702 0.155874
-0.042194 0.024160 0.158825
-0.042458 0.024752 0.162653
-0.042423 0.025189 0.165459
-0.042330 0.025607 0.168138
-0.042149 0.025987 0.170563
-0.042180 0.026515 0.173956
-0.042273 0.027104 0.177749
-0.042359 0.027713 0.181664
-0.042362 0.028291 0.185377
-0.042087 0.028704 0.188007
-0.041844 0.029157 0.190895
-0.041594 0.029626 0.193883
-0.041195 0.030008 0.196298
-0.041028 0.030579 0.199955
-0.040833 0.031158 0.203651
-0.040486 0.031645 0.206749
-0.040366 0.032338 0.211192
-0.040375 0.033173 0.216555
-0.040435 0.034095 0.222484
-0.040299 0.034896 0.227623
-0.039699 0.035330 0.230357
-0.039810 0.036439 0.237497
-0.039220 0.036952 0.240749
-0.043777 0.042493 0.276742
-0.042124 0.042164 0.274489
-0.040820 0.042173 0.274450
-0.039608 0.042282 0.275053
-0.038513 0.042527 0.276550
-0.037094 0.042420 0.275753
-0.035575 0.042185 0.274134
-0.034517 0.042501 0.276092
-0.033917 0.043428 0.282023
-0.032644 0.043536 0.282629
-0.031499 0.043830 0.284447
-0.030195 0.043920 0.284944
-0.028348 0.043190 0.280129
-0.027140 0.043412 0.281486
-0.025765 0.043374 0.281161
-0.024341 0.043246 0.280257
-0.023043 0.043340 0.280794
-0.021622 0.043200 0.279818
-0.020356 0.043370 0.280856
-0.014258 0.041368 0.267667
-0.012832 0.040933 0.264805
-0.011413 0.040429 0.261499
-0.010159 0.040453 0.261618
-0.008902 0.040474 0.261713
-0.007614 0.040337 0.260799
-0.006349 0.040289 0.260453
-0.005088 0.040250 0.260178
-0.003828 0.040198 0.259821
-0.002583 0.040345 0.260749
-0.001325 0.040333 0.260657
-0.000067 0.040658 0.262743
0.001214 0.041111 0.265660
0.002485 0.040926 0.264457
0.003838 0.041761 0.269851
0.005176 0.042040 0.271655
0.006486 0.042036 0.271627
0.007366 0.039710 0.256607
0.008619 0.039773 0.257026
0.009885 0.039874 0.257691
0.011087 0.039726 0.256751
0.012334 0.039748 0.256909
0.013580 0.039764 0.257039
0.014829 0.039788 0.257221
0.016083 0.039818 0.257444
0.017353 0.039880 0.257878
0.018614 0.039916 0.258141
0.019985 0.040166 0.259803
0.021406 0.040485 0.261902
0.022914 0.040919 0.264759
0.024148 0.040846 0.264335
0.025498 0.040967 0.265170
0.026924 0.041192 0.266676
0.028176 0.041142 0.266411
0.029431 0.041100 0.266200
0.030754 0.041154 0.266605
0.032073 0.041198 0.266959
0.033377 0.041220 0.267163
0.034610 0.041155 0.266811
0.035855 0.041108 0.266581
0.037094 0.041060 0.266337
0.038282 0.040958 0.265752
0.039435 0.040827 0.264978
0.040556 0.040673 0.264055
0.041286 0.040147 0.260719
0.042269 0.039891 0.259138
0.043112 0.039522 0.256816
0.044347 0.039521 0.256893
0.045443 0.039401 0.256195
0.046463 0.039223 0.255117
0.047621 0.039167 0.254840
0.048760 0.039100 0.254482
0.050018 0.039128 0.254748
0.051181 0.039082 0.254534
0.052499 0.039154 0.255091
0.053979 0.039341 0.256393
0.055189 0.039326 0.256387
0.057099 0.039801 0.259568
0.058997 0.040247 0.262566
0.061690 0.041205 0.268909
0.063001 0.041220 0.269098
0.064259 0.041200 0.269057
0.065785 0.041350 0.270124
0.067085 0.041354 0.270240
0.068404 0.041370 0.270429
0.069574 0.041296 0.270036
0.070738 0.041222 0.269636
0.071550 0.040949 0.267935
0.072515 0.040771 0.266856
0.073279 0.040489 0.265087
0.074225 0.040314 0.264023
0.075007 0.040059 0.262425
0.075488 0.039653 0.259839
0.076308 0.039436 0.258487
0.077048 0.039184 0.256909
0.078212 0.039153 0.256772
0.079138 0.039006 0.255867
0.080344 0.038998 0.255881
0.081602 0.039016 0.256058
0.083071 0.039133 0.256877
0.084466 0.039212 0.257449
0.085477 0.039113 0.256847
0.098450 0.044413 0.291706
0.099684 0.044343 0.291297
0.100150 0.043939 0.288682
0.101648 0.043991 0.289067
0.102754 0.043875 0.288341
0.104745 0.044136 0.290081
0.106046 0.044101 0.289883
0.107319 0.044057 0.289613
0.108651 0.044037 0.289499
0.110157 0.044088 0.289844
0.111481 0.044066 0.289698
0.112825 0.044051 0.289603
0.114238 0.044064 0.289678
0.115587 0.044052 0.289586
0.116768 0.043977 0.289072
0.118209 0.044000 0.289199
0.119642 0.044020 0.289295
0.120842 0.043954 0.288824
0.122146 0.043928 0.288603
0.123545 0.043935 0.288597
0.124957 0.043948 0.288615
0.127146 0.044230 0.290394
0.128548 0.044235 0.290349
0.129920 0.044230 0.290226
0.135857 0.044356 0.290604
0.137052 0.044292 0.290052
0.139123 0.044510 0.291331
0.141320 0.044763 0.292829
0.142526 0.044701 0.292249
0.144046 0.044737 0.292303
0.145599 0.044783 0.292407
0.146920 0.044757 0.292032
0.148058 0.044676 0.291284
0.149550 0.044702 0.291224
0.151629 0.044902 0.292279
0.152909 0.044864 0.291768
-0.042728 0.016067 0.103159
-0.043310 0.016473 0.105768
-0.042684 0.016424 0.105453
-0.041961 0.016335 0.104883
-0.041333 0.016281 0.104536
-0.041635 0.016598 0.106564
-0.041214 0.016630 0.106762
-0.039926 0.016309 0.104692
-0.040337 0.016682 0.107077
-0.040298 0.016877 0.108312
-0.040590 0.017216 0.110477
-0.040057 0.017211 0.110423
-0.039309 0.017111 0.109764
-0.038961 0.018152 0.116316
-0.039714 0.018767 0.120224
-0.041811 0.020044 0.128368
-0.041661 0.020265 0.129748
-0.041494 0.020484 0.131113
-0.041541 0.020818 0.133208
-0.041946 0.021344 0.136531
-0.042204 0.021810 0.139466
-0.041976 0.022036 0.140865
-0.041900 0.022350 0.142825
-0.041970 0.022754 0.145354
-0.042127 0.023219 0.148273
-0.042145 0.023622 0.150789
-0.042129 0.024019 0.153270
-0.042153 0.024454 0.155984
-0.042237 0.024940 0.159022
-0.042430 0.025508 0.162583
-0.042354 0.025933 0.165229
-0.042172 0.026308 0.167552
-0.042043 0.026731 0.170178
-0.042009 0.027232 0.173296
-0.042175 0.027886 0.177384
-0.042205 0.028474 0.181051
-0.042050 0.028959 0.184064
-0.041886 0.029459 0.187164
-0.041481 0.029807 0.189297
-0.041314 0.030345 0.192637
-0.041124 0.030891 0.196020
-0.041105 0.031594 0.200397
-0.040924 0.032202 0.204172
-0.040697 0.032803 0.207894
-0.040461 0.033426 0.211759
-0.040505 0.034319 0.217330
-0.040396 0.035125 0.222345
-0.040380 0.036059 0.228162
-0.040120 0.036820 0.232887
-0.039766 0.037535 0.237319
-0.045004 0.043726 0.276353
-0.043731 0.043774 0.276550
-0.042136 0.043492 0.274669
-0.040846 0.043518 0.274727
-0.038921 0.042847 0.270392
-0.038882 0.044276 0.279316
-0.037287 0.043972 0.277300
-0.035685 0.043638 0.275100
-0.034196 0.043422 0.273645
-0.033310 0.043984 0.277097
-0.029788 0.040969 0.258015
-0.028636 0.041091 0.258709
-0.027161 0.040741 0.256427
-0.025817 0.040564 0.255233
-0.024514 0.040438 0.254369
-0.023255 0.040373 0.253894
-0.022010 0.040327 0.253536
-0.020759 0.040266 0.253088
-0.019556 0.040293 0.253198
-0.018501 0.040652 0.255395
-0.018233 0.042914 0.269544
-0.016945 0.042936 0.269624
-0.015096 0.041426 0.260090
-0.014240 0.042610 0.267473
-0.013009 0.042800 0.268621
-0.011378 0.041568 0.260848
-0.010071 0.041362 0.259512
-0.008863 0.041560 0.260717
-0.007605 0.041553 0.260642
-0.006307 0.041282 0.258914
-0.005077 0.041434 0.259838
-0.003849 0.041707 0.261531
-0.002588 0.041710 0.261528
-0.001325 0.041662 0.261209
-0.000066 0.042120 0.264070
0.001227 0.042790 0.268257
0.002493 0.042297 0.265162
0.003811 0.042731 0.267880
0.005224 0.043743 0.274225
0.006547 0.043738 0.274198
0.007336 0.040770 0.255597
0.008602 0.040925 0.256574
0.009851 0.040970 0.256870
0.011055 0.040839 0.256067
0.012303 0.040880 0.256341
0.013565 0.040955 0.256839
0.014807 0.040963 0.256913
0.016065 0.041009 0.257232
0.017346 0.041103 0.257854
0.018582 0.041086 0.257778
0.019982 0.041411 0.259855
0.021621 0.042161 0.264606
0.023540 0.043346 0.272088
0.024838 0.043321 0.271976
0.025966 0.043017 0.270122
0.027289 0.043049 0.270375
0.028451 0.042836 0.269094
0.029730 0.042811 0.268992
0.030969 0.042732 0.268557
0.032247 0.042710 0.268487
0.033537 0.042706 0.268524
0.034720 0.042571 0.267743
0.035975 0.042530 0.267556
0.037184 0.042440 0.267063
0.038407 0.042372 0.266703
0.039475 0.042142 0.265330
0.040635 0.042021 0.264645
0.041582 0.041694 0.262663
0.042456 0.041315 0.260357
0.043414 0.041038 0.258688
0.044248 0.040662 0.256394
0.045321 0.040520 0.255581
0.046472 0.040453 0.255239
0.047546 0.040324 0.254506
0.048667 0.040241 0.254065
0.049918 0.040266 0.254304
0.051152 0.040277 0.254459
0.052481 0.040360 0.255066
0.053996 0.040579 0.256538
0.055097 0.040485 0.256025
0.056630 0.040704 0.257497
0.059460 0.041827 0.264690
0.061671 0.042476 0.268886
0.062917 0.042448 0.268798
0.064322 0.042526 0.269381
0.065780 0.042635 0.270159
0.067175 0.042700 0.270660
0.068469 0.042700 0.270741
0.069689 0.042653 0.270535
0.070822 0.042557 0.270007
0.071621 0.042267 0.268247
0.072581 0.042080 0.267144
0.073366 0.041800 0.265445
0.074392 0.041665 0.264661
0.075181 0.041403 0.263073
0.075414 0.040849 0.259624
0.076270 0.040644 0.258393
0.077339 0.040558 0.257914
0.078181 0.040357 0.256701
0.079501 0.040406 0.257072
0.080695 0.040390 0.257029
0.081899 0.040379 0.257016
0.083025 0.040331 0.256763
0.084472 0.040437 0.257491
0.086051 0.040603 0.258595
0.098074 0.045622 0.290613
0.099304 0.045551 0.290206
0.100157 0.045312 0.288720
0.101270 0.045194 0.288010
0.103158 0.045421 0.289490
0.104758 0.045517 0.290128
0.105546 0.045262 0.288526
0.107367 0.045451 0.289750
0.108867 0.045501 0.290080
0.110186 0.045475 0.289921
0.111524 0.045457 0.289810
0.112818 0.045422 0.289582
0.114134 0.045396 0.289411
0.115359 0.045336 0.289008
0.116890 0.045395 0.289364
0.118023 0.045301 0.288733
0.119729 0.045425 0.289491
0.121014 0.045389 0.289220
0.122489 0.045425 0.289393
0.123880 0.045428 0.289359
0.125140 0.045384 0.289012
0.126381 0.045334 0.288619
0.127378 0.045199 0.287676
0.129854 0.045586 0.290045
0.131048 0.045519 0.289518
0.136989 0.045652 0.289871
0.138094 0.045559 0.289125
0.141249 0.046136 0.292628
0.142763 0.046172 0.292679
0.144020 0.046124 0.292191
0.145115 0.046026 0.291372
0.146564 0.046041 0.291257
0.148457 0.046194 0.292000
0.149754 0.046160 0.291549
0.151451 0.046248 0.291859
0.153138 0.046333 0.292123
-0.042173 0.016155 0.100668
-0.042717 0.016550 0.103132
-0.043243 0.016945 0.105604
-0.042745 0.016945 0.105603
-0.041715 0.016731 0.104268
-0.041306 0.016763 0.104470
-0.040471 0.016622 0.103586
-0.040410 0.016799 0.104683
-0.039504 0.016625 0.103588
-0.039300 0.016745 0.104330
-0.039805 0.017175 0.106992
-0.040351 0.017634 0.109835
-0.039842 0.017636 0.109837
-0.040075 0.019236 0.119654
-0.042269 0.020579 0.127973
-0.041732 0.020612 0.128143
-0.041405 0.020750 0.128969
-0.041051 0.020879 0.129734
-0.040784 0.021057 0.130802
-0.042021 0.022029 0.136796
-0.042259 0.022500 0.139674
-0.041982 0.022706 0.140909
-0.041571 0.022846 0.141731
-0.042068 0.023497 0.145720
-0.042134 0.023926 0.148328
-0.041953 0.024226 0.150133
-0.041843 0.024578 0.152263
-0.042229 0.025239 0.156300
-0.042320 0.025745 0.159370
-0.042423 0.026276 0.162598
-0.042315 0.026694 0.165116
-0.042200 0.027122 0.167703
-0.042074 0.027560 0.170346
-0.041983 0.028039 0.173235
-0.042100 0.028678 0.177115
-0.042003 0.029196 0.180237
-0.041933 0.029753 0.183602
-0.041670 0.030194 0.186251
-0.041521 0.030739 0.189534
-0.041263 0.031226 0.192457
-0.041308 0.031969 0.196960
-0.041030 0.032491 0.200093
-0.041020 0.033255 0.204716
-0.040670 0.033774 0.207827
-0.040523 0.034491 0.212155
-0.040426 0.035289 0.216977
-0.040967 0.036701 0.225570
-0.040290 0.037068 0.227736
-0.040093 0.037909 0.232810
-0.040918 0.039792 0.244283
-0.040367 0.040409 0.247974
-0.043930 0.045305 0.277915
-0.042647 0.045353 0.278107
-0.041442 0.045490 0.278849
-0.040121 0.045505 0.278837
-0.039410 0.046237 0.283220
-0.037412 0.045457 0.278347
-0.035610 0.044865 0.274631
-0.034153 0.044682 0.273417
-0.032617 0.044374 0.271449
-0.029804 0.042232 0.258263
-0.028688 0.042414 0.259293
-0.027519 0.042529 0.259921
-0.026065 0.042195 0.257804
-0.024860 0.042251 0.258074
-0.023643 0.042291 0.258249
-0.022420 0.042325 0.258389
-0.021264 0.042496 0.259369
-0.020000 0.042459 0.259082
-0.018762 0.042476 0.259122
-0.017603 0.042689 0.260366
-0.016722 0.043657 0.266214
-0.015146 0.042825 0.261093
-0.014034 0.043269 0.263747
-0.012890 0.043697 0.266311
-0.011405 0.042934 0.261620
-0.010160 0.042999 0.261974
-0.008878 0.042898 0.261321
-0.007581 0.042684 0.259990
-0.006315 0.042596 0.259420
-0.005080 0.042728 0.260197
-0.003831 0.042783 0.260511
-0.002591 0.043055 0.262147
-0.001319 0.042787 0.260502
-0.000064 0.043370 0.264036
0.001227 0.044020 0.267982
0.002479 0.043308 0.263644
0.003813 0.044030 0.268037
0.005253 0.045295 0.275736
0.006582 0.045290 0.275708
0.007442 0.042598 0.259326
0.008694 0.042603 0.259369
0.009958 0.042661 0.259731
0.011153 0.042439 0.258400
0.012389 0.042403 0.258194
0.013647 0.042443 0.258461
0.014893 0.042441 0.258474
0.016171 0.042524 0.259008
0.017451 0.042599 0.259498
0.018715 0.042626 0.259699
0.020004 0.042705 0.260216
0.021446 0.043082 0.262553
0.023160 0.043933 0.267783
0.024437 0.043907 0.267673
0.025541 0.043589 0.265783
0.027061 0.043978 0.268205
0.028123 0.043620 0.266080
0.029235 0.043368 0.264597
0.030374 0.043176 0.263486
0.031691 0.043241 0.263941
0.032919 0.043185 0.263664
0.034224 0.043230 0.264003
0.035621 0.043384 0.265011
0.036880 0.043364 0.264962
0.038067 0.043264 0.264420
0.039251 0.043168 0.263908
0.040411 0.043051 0.263269
0.041546 0.042916 0.262516
0.042483 0.042590 0.260601
0.043430 0.042293 0.258858
0.044135 0.041783 0.255814
0.045100 0.041540 0.254404
0.046314 0.041533 0.254440
0.047468 0.041474 0.254158
0.048688 0.041474 0.254240
0.049821 0.041401 0.253878
0.051095 0.041447 0.254241
0.052317 0.041450 0.254337
0.053765 0.041626 0.255505
0.055066 0.041684 0.255940
0.056483 0.041825 0.256893
0.058653 0.042505 0.261155
0.061332 0.043519 0.267470
0.062860 0.043691 0.268613
0.064132 0.043681 0.268641
0.065532 0.043758 0.269196
0.066958 0.043848 0.269838
0.068347 0.043912 0.270314
0.069630 0.043906 0.270361
0.070684 0.043758 0.269533
0.071635 0.043553 0.268351
0.072080 0.043053 0.265347
0.073369 0.043065 0.265499
0.074235 0.042833 0.264145
0.074686 0.042374 0.261383
0.074818 0.041750 0.257609
0.075969 0.041708 0.257412
0.077044 0.041625 0.256963
0.077883 0.041419 0.255754
0.079307 0.041526 0.256475
0.080808 0.041669 0.257417
0.081989 0.041645 0.257326
0.083407 0.041741 0.257969
0.084836 0.041839 0.258624
0.086579 0.042087 0.260204
0.097636 0.046792 0.289338
0.098862 0.046719 0.288933
0.100000 0.046608 0.288285
0.101492 0.046662 0.288656
0.102368 0.046436 0.287285
0.104171 0.046630 0.288512
0.106161 0.046902 0.290215
0.107547 0.046904 0.290241
0.108766 0.046833 0.289816
0.110280 0.046889 0.290169
0.111663 0.046890 0.290171
0.112854 0.046810 0.289671
0.114200 0.046796 0.289571
0.115414 0.046729 0.289137
0.116908 0.046775 0.289398
0.118565 0.046884 0.290043
0.119966 0.046891 0.290049
0.121000 0.046756 0.289168
0.122380 0.046757 0.289115
0.123888 0.046805 0.289354
0.125078 0.046734 0.288844
0.126315 0.046681 0.288442
0.127383 0.046568 0.287656
0.128982 0.046649 0.288064
0.129590 0.046374 0.286261
0.131277 0.046486 0.286843
0.138030 0.046915 0.288938
0.138469 0.046596 0.286813
0.142540 0.047494 0.292161
0.144269 0.047601 0.292634
0.145793 0.047640 0.292668
0.147170 0.047629 0.292391
0.148154 0.047493 0.291330
0.150029 0.047643 0.292006
0.151646 0.047709 0.292154
0.151496 0.047222 0.288907
-0.043461 0.017138 0.103740
-0.043041 0.017165 0.103911
-0.042880 0.017297 0.104717
-0.042563 0.017368 0.105151
-0.041713 0.017221 0.104263
-0.040050 0.016731 0.101294
-0.039346 0.016635 0.100708
-0.040338 0.017475 0.105778
-0.040848 0.017916 0.108443
-0.041037 0.018227 0.110311
-0.040584 0.018256 0.110474
-0.040040 0.018245 0.110393
-0.040043 0.019786 0.119575
-0.042069 0.021083 0.127384
-0.041535 0.021117 0.127553
-0.041269 0.021290 0.128563
-0.040513 0.021211 0.128054
-0.041246 0.021922 0.132305
-0.042003 0.022666 0.136759
-0.042169 0.023111 0.139398
-0.041748 0.023243 0.140149
-0.041922 0.023716 0.142955
-0.042216 0.024273 0.146263
-0.042366 0.024764 0.149173
-0.042135 0.025046 0.150816
-0.042195 0.025514 0.153579
-0.042438 0.026110 0.157110
-0.042132 0.026384 0.158700
-0.042371 0.027015 0.162437
-0.042123 0.027354 0.164409
-0.042112 0.027861 0.167398
-0.041998 0.028319 0.170081
-0.042063 0.028918 0.173614
-0.041995 0.029448 0.176725
-0.041952 0.030017 0.180067
-0.041810 0.030537 0.183117
-0.041700 0.031104 0.186439
-0.041481 0.031612 0.189411
-0.041330 0.032196 0.192831
-0.041238 0.032853 0.196686
-0.041152 0.033545 0.200753
-0.041103 0.034302 0.205197
-0.040789 0.034868 0.208503
-0.040608 0.035579 0.212673
-0.040666 0.036542 0.218344
-0.040135 0.037012 0.221065
-0.040477 0.038334 0.228873
-0.042410 0.041279 0.246360
-0.041281 0.041326 0.246544
-0.040322 0.041550 0.247792
-0.040142 0.042615 0.254048
-0.042598 0.046634 0.277903
-0.040694 0.047513 0.282939
-0.039379 0.047559 0.283117
-0.037758 0.047226 0.281038
-0.035681 0.046278 0.275303
-0.033870 0.045615 0.271268
-0.032319 0.045263 0.269089
-0.029721 0.043354 0.257660
-0.028603 0.043532 0.258643
-0.027467 0.043699 0.259556
-0.026048 0.043409 0.257762
-0.024877 0.043525 0.258375
-0.023656 0.043561 0.258521
-0.022460 0.043648 0.258972
-0.021275 0.043770 0.259632
-0.020092 0.043911 0.260409
-0.018795 0.043805 0.259719
-0.017587 0.043906 0.260258
-0.016690 0.044860 0.265862
-0.015139 0.044065 0.261100
-0.014069 0.044657 0.264556
-0.012872 0.044924 0.266093
-0.011347 0.043974 0.260428
-0.010084 0.043937 0.260169
-0.008799 0.043775 0.259172
-0.007521 0.043601 0.258109
-0.006264 0.043510 0.257541
-0.005036 0.043613 0.258125
-0.003801 0.043717 0.258719
-0.002555 0.043736 0.258816
-0.001312 0.043874 0.259616
-0.000062 0.044396 0.262686
0.001215 0.044792 0.265019
0.002484 0.044625 0.264028
0.003839 0.045605 0.269823
0.005248 0.046569 0.275524
0.020411 0.044850 0.265603
0.021680 0.044827 0.265506
0.022947 0.044802 0.265404
0.024186 0.044728 0.265006
0.025063 0.044027 0.260899
0.026449 0.044242 0.262228
0.027540 0.043967 0.260648
0.028692 0.043809 0.259769
0.029726 0.043492 0.257946
0.031067 0.043632 0.258830
0.032433 0.043793 0.259850
0.033809 0.043957 0.260886
0.035131 0.044041 0.261449
0.036497 0.044171 0.262290
0.037791 0.044210 0.262590
0.039110 0.044273 0.263036
0.040239 0.044125 0.262229
0.041522 0.044149 0.262447
0.042554 0.043912 0.261113
0.043471 0.043574 0.259179
0.043964 0.042841 0.254898
0.044875 0.042545 0.253210
0.046139 0.042589 0.253551
0.047446 0.042670 0.254111
0.048548 0.042567 0.253577
0.049741 0.042547 0.253538
0.051109 0.042674 0.254374
0.052425 0.042752 0.254924
0.053617 0.042729 0.254864
0.055065 0.042905 0.255998
0.056868 0.043345 0.258703
0.058946 0.043970 0.262522
0.061212 0.044708 0.267009
0.062817 0.044942 0.268491
0.064103 0.044943 0.268581
0.065536 0.045044 0.269270
0.066985 0.045152 0.270003
0.068206 0.045106 0.269809
0.069427 0.045061 0.269621
0.070526 0.044941 0.268981
0.071368 0.044663 0.267399
0.072185 0.044380 0.265778
0.073304 0.044289 0.265312
0.074215 0.044078 0.264117
0.074462 0.043485 0.260637
0.074437 0.042757 0.256336
0.075653 0.042752 0.256375
0.076614 0.042606 0.255563
0.077588 0.042473 0.254820
0.078733 0.042434 0.254648
0.080008 0.042467 0.254897
0.081340 0.042528 0.255315
0.082766 0.042635 0.256010
0.083903 0.042593 0.255803
0.085568 0.042816 0.257185
0.089690 0.044245 0.265809
0.096708 0.047043 0.282659
0.099527 0.047749 0.286938
0.101406 0.047991 0.288426
0.103001 0.048094 0.289074
0.104942 0.048354 0.290657
0.106127 0.048263 0.290131
0.107422 0.048224 0.289909
0.108716 0.048185 0.289685
0.110060 0.048169 0.289591
0.111396 0.048150 0.289475
0.112696 0.048117 0.289263
0.113999 0.048085 0.289057
0.115274 0.048042 0.288777
0.116601 0.048021 0.288626
0.117909 0.047993 0.288424
0.119034 0.047893 0.287779
0.121107 0.048171 0.289404
0.122347 0.048116 0.289015
0.123653 0.048087 0.288778
0.125337 0.048205 0.289414
0.126410 0.048087 0.288627
0.128173 0.048232 0.289406
0.129308 0.048139 0.288754
0.130782 0.048174 0.288854
0.131209 0.047826 0.286653
0.132540 0.047811 0.286439
0.144205 0.048977 0.292439
0.145315 0.048877 0.291639
0.146144 0.048686 0.290281
0.148640 0.049048 0.292210
0.149606 0.048903 0.291104
0.150800 0.048835 0.290440
0.152449 0.048914 0.290638
-0.040950 0.016609 0.097742
-0.042245 0.017328 0.101985
-0.042863 0.017784 0.104672
-0.042433 0.017810 0.104830
-0.040739 0.017299 0.101828
-0.040011 0.018512 0.108921
-0.040971 0.019202 0.112967
-0.040505 0.019233 0.113130
-0.042136 0.020548 0.120822
-0.041634 0.020580 0.120990
-0.040663 0.020379 0.119781
-0.040496 0.020581 0.120940
-0.041709 0.021499 0.126308
-0.041792 0.021854 0.128361
-0.041267 0.021896 0.128574
-0.040496 0.021808 0.128020
-0.040607 0.022198 0.130275
-0.041591 0.023085 0.135442
-0.042116 0.023741 0.139249
-0.042140 0.024131 0.141491
-0.042121 0.024509 0.143659
-0.042123 0.024911 0.145968
-0.041864 0.025170 0.147435
-0.041868 0.025598 0.149893
-0.042120 0.026195 0.153338
-0.042345 0.026796 0.156801
-0.042255 0.027216 0.159199
-0.042190 0.027668 0.161781
-0.042135 0.028142 0.164497
-0.042140 0.028676 0.167552
-0.041938 0.029086 0.169884
-0.042024 0.029716 0.173497
-0.042124 0.030381 0.177313
-0.042037 0.030936 0.180482
-0.041938 0.031505 0.183731
-0.041796 0.032065 0.186924
-0.041532 0.032555 0.189701
-0.041560 0.033299 0.193965
-0.041554 0.034050 0.198257
-0.041337 0.034658 0.201720
-0.041179 0.035347 0.205647
-0.040884 0.035947 0.209059
-0.040535 0.036530 0.212367
-0.039952 0.036926 0.214586
-0.044092 0.041823 0.242949
-0.043207 0.042089 0.244400
-0.042089 0.042137 0.244586
-0.041180 0.042402 0.246032
-0.040343 0.042759 0.248016
-0.040096 0.043782 0.253857
-0.039642 0.044637 0.258719
-0.041138 0.047813 0.277027
-0.039853 0.047860 0.277206
-0.038829 0.048235 0.279278
-0.037444 0.048172 0.278821
-0.035636 0.047539 0.275069
-0.034142 0.047295 0.273567
-0.032881 0.047365 0.273888
-0.029697 0.044557 0.257566
-0.028495 0.044607 0.257781
-0.027252 0.044595 0.257637
-0.025997 0.044562 0.257373
-0.024777 0.044588 0.257454
-0.023560 0.044623 0.257588
-0.022277 0.044531 0.256990
-0.021079 0.044608 0.257371
-0.019834 0.044588 0.257196
-0.018624 0.044648 0.257485
-0.017412 0.044714 0.257809
-0.016668 0.046084 0.265654
-0.015035 0.045018 0.259460
-0.014292 0.046664 0.268900
-0.013003 0.046683 0.268962
-0.011254 0.044866 0.258454
-0.009905 0.044396 0.255710
-0.008697 0.044512 0.256339
-0.007455 0.044463 0.256030
-0.006230 0.044517 0.256310
-0.005000 0.044556 0.256507
-0.003778 0.044715 0.257404
-0.002542 0.044785 0.257783
-0.001306 0.044976 0.258869
-0.000059 0.045164 0.259936
0.001199 0.045362 0.261066
0.002476 0.045720 0.263119
0.003739 0.045666 0.262808
0.020138 0.045507 0.262130
0.021653 0.046044 0.265263
0.023019 0.046220 0.266322
0.024288 0.046194 0.266214
0.025068 0.045287 0.261036
0.026533 0.045644 0.263141
0.027561 0.045253 0.260940
0.028682 0.045040 0.259765
0.029842 0.044905 0.259040
0.031052 0.044851 0.258788
0.032322 0.044886 0.259050
0.033662 0.045011 0.259832
0.035011 0.045139 0.260635
0.036364 0.045263 0.261418
0.037592 0.045229 0.261289
0.038925 0.045318 0.261875
0.040168 0.045301 0.261846
0.041389 0.045260 0.261687
0.042537 0.045144 0.261088
0.043690 0.045040 0.260562
0.044072 0.044169 0.255597
0.044767 0.043650 0.252671
0.046092 0.043757 0.253364
0.047498 0.043934 0.254465
0.048511 0.043746 0.253457
0.049793 0.043805 0.253875
0.051107 0.043888 0.254435
0.052357 0.043913 0.254660
0.053626 0.043953 0.254974
0.055025 0.044096 0.255879
0.056883 0.044592 0.258838
0.059006 0.045269 0.262853
0.060986 0.045812 0.266086
0.062528 0.046009 0.267315
0.064043 0.046179 0.268385
0.065552 0.046338 0.269394
0.066854 0.046348 0.269532
0.068282 0.046443 0.270165
0.069445 0.046357 0.269746
0.070492 0.046199 0.268900
0.071414 0.045965 0.267620
0.072274 0.045701 0.266154
0.073399 0.045610 0.265698
0.074311 0.045392 0.264501
0.074782 0.044917 0.261798
0.074817 0.044199 0.257682
0.075826 0.044071 0.256998
0.077006 0.044045 0.256905
0.077855 0.043833 0.255730
0.079118 0.043857 0.255925
0.080260 0.043815 0.255729
0.081489 0.043820 0.255810
0.083071 0.044012 0.256979
0.084201 0.043962 0.256733
0.085844 0.044178 0.258036
0.088947 0.045129 0.263627
0.098925 0.049492 0.289155
0.100784 0.049730 0.290580
0.101089 0.049205 0.287539
0.102389 0.049171 0.287366
0.104583 0.049562 0.289673
0.105756 0.049465 0.289123
0.107690 0.049722 0.290637
0.108767 0.049582 0.289823
0.109966 0.049500 0.289345
0.111388 0.049519 0.289452
0.112686 0.049483 0.289230
0.113820 0.049378 0.288593
0.115131 0.049350 0.288407
0.116865 0.049502 0.289265
0.118567 0.049637 0.290018
0.120043 0.049676 0.290198
0.121217 0.049589 0.289644
0.122697 0.049629 0.289817
0.124032 0.049610 0.289637
0.125465 0.049630 0.289679
0.126662 0.049557 0.289170
0.128099 0.049578 0.289203
0.129576 0.049614 0.289313
0.130685 0.049510 0.288598
0.132021 0.049494 0.288381
0.132472 0.049149 0.286244
0.135012 0.049578 0.288607
0.144315 0.049925 0.289560
0.145617 0.049893 0.289157
0.147790 0.050158 0.290459
0.149167 0.050150 0.290165
0.150910 0.050264 0.290563
0.152830 0.050435 0.291271
-0.041476 0.017289 0.098994
-0.041190 0.017364 0.099436
-0.042268 0.018023 0.103217
-0.041298 0.017814 0.102024
-0.040883 0.017842 0.102186
-0.039400 0.018735 0.107264
-0.040412 0.019466 0.111433
-0.040016 0.019529 0.111775
-0.039578 0.019572 0.112005
-0.038672 0.019382 0.110897
-0.038145 0.019379 0.110862
-0.041481 0.021366 0.122204
-0.040970 0.021400 0.122370
-0.041204 0.021829 0.124794
-0.040888 0.021975 0.125601
-0.040594 0.022137 0.126496
-0.040380 0.022348 0.127670
-0.040567 0.022791 0.130165
-0.041768 0.023827 0.136040
-0.042051 0.024363 0.139058
-0.042047 0.024746 0.141205
-0.041952 0.025088 0.143109
-0.042012 0.025535 0.145613
-0.042217 0.026086 0.148710
-0.042143 0.026481 0.150908
-0.042055 0.026881 0.153135
-0.042185 0.027436 0.156245
-0.042138 0.027894 0.158795
-0.042212 0.028450 0.161903
-0.042269 0.029016 0.165061
-0.042100 0.029444 0.167434
-0.042057 0.029979 0.170413
-0.042272 0.030722 0.174571
-0.042079 0.031192 0.177176
-0.042040 0.031798 0.180550
-0.041779 0.032258 0.183090
-0.041701 0.032881 0.186558
-0.041890 0.033747 0.191395
-0.041823 0.034440 0.195252
-0.041639 0.035067 0.198726
-0.041371 0.035650 0.201954
-0.041174 0.036323 0.205691
-0.040891 0.036952 0.209169
-0.040162 0.037199 0.210486
-0.040445 0.038419 0.217310
-0.044042 0.042936 0.242764
-0.041903 0.041952 0.237112
-0.042015 0.043230 0.244245
-0.041083 0.043477 0.245550
-0.040212 0.043804 0.247305
-0.039868 0.044743 0.252519
-0.039217 0.045385 0.256047
-0.039856 0.049193 0.277338
-0.038567 0.049240 0.277512
-0.037399 0.049450 0.278604
-0.035664 0.048899 0.275410
-0.034505 0.049125 0.276596
-0.032982 0.048831 0.274854
-0.029623 0.045681 0.257045
-0.028431 0.045745 0.257326
-0.027247 0.045827 0.257714
-0.026007 0.045819 0.257597
-0.024796 0.045864 0.257780
-0.023575 0.045895 0.257887
-0.022352 0.045923 0.257982
-0.021156 0.046015 0.258435
-0.019914 0.046013 0.258364
-0.018670 0.046005 0.258262
-0.017439 0.046030 0.258347
-0.016436 0.046708 0.262100
-0.015184 0.046730 0.262172
-0.014525 0.048750 0.273457
-0.012985 0.047918 0.268746
-0.011216 0.045964 0.257748
-0.009901 0.045616 0.255760
-0.008687 0.045702 0.256205
-0.007466 0.045776 0.256590
-0.006225 0.045733 0.256320
-0.005005 0.045856 0.256986
-0.003776 0.045948 0.257479
-0.002539 0.046002 0.257763
-0.001301 0.046105 0.258326
-0.000057 0.046241 0.259073
0.001206 0.046827 0.262344
0.002489 0.047195 0.264399
0.003840 0.048174 0.269880
0.020777 0.048247 0.270530
0.021819 0.047678 0.267381
0.023221 0.047914 0.268745
0.024331 0.047554 0.266771
0.025206 0.046795 0.262561
0.026629 0.047076 0.264183
0.027586 0.046546 0.261260
0.028742 0.046383 0.260399
0.029827 0.046123 0.258992
0.030989 0.045999 0.258351
0.032252 0.046028 0.258575
0.033505 0.046041 0.258711
0.034867 0.046197 0.259651
0.036121 0.046205 0.259759
0.037429 0.046278 0.260235
0.038850 0.046483 0.261455
0.039923 0.046270 0.260327
0.041276 0.046386 0.261050
0.042637 0.046503 0.261783
0.043794 0.046397 0.261263
0.044276 0.045602 0.256858
0.044788 0.044880 0.252862
0.046045 0.044922 0.253178
0.047322 0.044982 0.253589
0.048431 0.044883 0.253109
0.049682 0.044917 0.253377
0.050935 0.044951 0.253647
0.052308 0.045087 0.254491
0.053598 0.045147 0.254905
0.055390 0.045617 0.257640
0.057141 0.046034 0.260074
0.058884 0.046427 0.262375
0.060970 0.047068 0.266075
0.062593 0.047333 0.267655
0.063906 0.047357 0.267873
0.065352 0.047477 0.268630
0.066691 0.047516 0.268931
0.067935 0.047487 0.268847
0.069184 0.047463 0.268786
0.070310 0.047356 0.268259
0.071261 0.047137 0.267093
0.071782 0.046647 0.264387
0.072944 0.046583 0.264094
0.074057 0.046491 0.263640
0.074446 0.045954 0.260662
0.074995 0.045532 0.258332
0.075964 0.045375 0.257502
0.077129 0.045338 0.257351
0.078193 0.045243 0.256870
0.079563 0.045326 0.257393
0.081179 0.045544 0.258686
0.082379 0.045526 0.258631
0.084201 0.045847 0.260500
0.085585 0.045923 0.260977
0.087343 0.046195 0.262562
0.097649 0.050917 0.289439
0.098878 0.050840 0.289035
0.100955 0.051195 0.291087
0.101918 0.050983 0.289909
0.103173 0.050921 0.289579
0.104503 0.050897 0.289461
0.105710 0.050814 0.289005
0.106930 0.050739 0.288587
0.108377 0.050773 0.288784
0.109701 0.050749 0.288644
0.111163 0.050789 0.288863
0.112884 0.050944 0.289732
0.114574 0.051082 0.290496
0.115661 0.050951 0.289723
0.117107 0.050980 0.289851
0.118583 0.051020 0.290039
0.119895 0.050989 0.289820
0.121027 0.050884 0.289167
0.122512 0.050928 0.289353
0.124115 0.051019 0.289801
0.125779 0.051133 0.290371
0.126875 0.051016 0.289619
0.128475 0.051102 0.290013
0.129691 0.051035 0.289529
0.130923 0.050975 0.289079
0.132190 0.050931 0.288703
0.133412 0.050870 0.288226
0.134943 0.050926 0.288405
0.136600 0.051029 0.288835
0.137797 0.050960 0.288278
0.144836 0.051494 0.290529
0.146048 0.051428 0.289934
0.147824 0.051561 0.290442
0.149652 0.051708 0.291022
0.150778 0.051613 0.290218
0.152422 0.051695 0.290399
-0.042011 0.017985 0.100266
-0.043157 0.018685 0.104180
-0.042663 0.018683 0.104178
-0.042024 0.018617 0.103815
-0.041601 0.018646 0.103980
-0.038549 0.018826 0.104954
-0.040741 0.020154 0.112345
-0.040208 0.020152 0.112317
-0.039602 0.020113 0.112083
-0.039152 0.020152 0.112285
-0.038762 0.020224 0.112666
-0.041077 0.021729 0.121027
-0.040815 0.021895 0.121922
-0.040686 0.022136 0.123241
-0.040349 0.022271 0.123961
-0.040260 0.022548 0.125472
-0.039843 0.022647 0.125990
-0.039562 0.022827 0.126961
-0.042999 0.025191 0.140071
-0.042403 0.025230 0.140245
-0.042460 0.025664 0.142619
-0.042259 0.025954 0.144184
-0.041926 0.026171 0.145344
-0.041871 0.026571 0.147519
-0.041873 0.027022 0.149974
-0.041909 0.027511 0.152638
-0.042053 0.028089 0.155792
-0.041999 0.028553 0.158311
-0.042079 0.029126 0.161432
-0.042103 0.029682 0.164453
-0.041812 0.030032 0.166332
-0.041873 0.030653 0.169711
-0.042474 0.031702 0.175451
-0.042326 0.032222 0.178265
-0.041987 0.032615 0.180372
-0.041823 0.033163 0.183334
-0.041590 0.033679 0.186116
-0.041867 0.034640 0.191350
-0.041891 0.035428 0.195631
-0.042025 0.036348 0.200633
-0.041665 0.036873 0.203458
-0.041331 0.037447 0.206544
-0.040792 0.037859 0.208737
-0.045424 0.043209 0.238148
-0.044343 0.043261 0.238343
-0.042932 0.042985 0.236733
-0.042491 0.043690 0.240529
-0.041689 0.044054 0.242445
-0.040820 0.044366 0.244071
-0.040000 0.044751 0.246104
-0.039357 0.045363 0.249381
-0.039096 0.046468 0.255366
-0.038471 0.050446 0.276941
-0.037340 0.050707 0.278286
-0.036042 0.050753 0.278449
-0.034623 0.050626 0.277663
-0.033353 0.050716 0.278073
-0.029870 0.047307 0.259305
-0.028565 0.047203 0.258660
-0.027370 0.047280 0.259007
-0.026118 0.047260 0.258824
-0.024893 0.047289 0.258915
-0.023653 0.047292 0.258866
-0.022409 0.047287 0.258772
-0.021186 0.047329 0.258942
-0.019948 0.047339 0.258937
-0.018664 0.047237 0.258322
-0.017403 0.047180 0.257960
-0.016443 0.047993 0.262353
-0.015190 0.048015 0.262424
-0.014505 0.050002 0.273232
-0.013197 0.050021 0.273294
-0.011152 0.046944 0.256440
-0.009922 0.046954 0.256460
-0.008696 0.046997 0.256658
-0.007462 0.047000 0.256647
-0.006232 0.047035 0.256806
-0.004998 0.047041 0.256815
-0.003763 0.047055 0.256873
-0.002530 0.047118 0.257194
-0.001293 0.047156 0.257387
-0.000054 0.047102 0.257082
0.001184 0.047128 0.257214
0.002498 0.048600 0.265237
0.003838 0.049410 0.269657
0.005181 0.049845 0.272028
0.006490 0.049839 0.272001
0.007773 0.049668 0.271074
0.009077 0.049660 0.271035
0.015625 0.049729 0.271503
0.016926 0.049710 0.271429
0.018155 0.049498 0.270300
0.019438 0.049452 0.270084
0.020753 0.049487 0.270308
0.022094 0.049576 0.270836
0.023194 0.049146 0.268525
0.024460 0.049092 0.268275
0.025410 0.048442 0.264771
0.026582 0.048257 0.263805
0.027548 0.047732 0.260984
0.028756 0.047655 0.260614
0.029772 0.047276 0.258598
0.030899 0.047099 0.257683
0.032186 0.047170 0.258130
0.033368 0.047086 0.257733
0.034808 0.047361 0.259295
0.036007 0.047299 0.259020
0.037255 0.047303 0.259110
0.038765 0.047629 0.260963
0.039969 0.047571 0.260712
0.041170 0.047512 0.260460
0.042584 0.047696 0.261539
0.043810 0.047665 0.261438
0.044846 0.047433 0.260242
0.045068 0.046377 0.254520
0.046272 0.046361 0.254505
0.047743 0.046605 0.255922
0.048908 0.046547 0.255675
0.050088 0.046505 0.255519
0.051331 0.046521 0.255687
0.052646 0.046601 0.256201
0.053912 0.046635 0.256464
0.055348 0.046811 0.257512
0.057131 0.047266 0.260093
0.058953 0.047734 0.262745
0.061175 0.048499 0.267035
0.062645 0.048649 0.267938
0.063983 0.048692 0.268256
0.065404 0.048795 0.268901
0.066788 0.048867 0.269378
0.067991 0.048807 0.269123
0.069286 0.048814 0.269235
0.070320 0.048639 0.268347
0.071085 0.048289 0.266484
0.071873 0.047965 0.264769
0.072701 0.047680 0.263262
0.073777 0.047563 0.262686
0.074741 0.047380 0.261738
0.075364 0.046990 0.259645
0.076331 0.046823 0.258783
0.077441 0.046748 0.258424
0.078628 0.046722 0.258333
0.079911 0.046752 0.258551
0.081166 0.046764 0.258671
0.082574 0.046864 0.259269
0.083764 0.046839 0.259172
0.085280 0.046994 0.260069
0.086787 0.047139 0.260912
0.097080 0.051985 0.287770
0.097472 0.051468 0.284944
0.100282 0.052225 0.289160
0.101932 0.052365 0.289961
0.103269 0.052342 0.289857
0.104635 0.052335 0.289832
0.105924 0.052290 0.289593
0.107301 0.052289 0.289593
0.108545 0.052223 0.289231
0.109879 0.052202 0.289110
0.111287 0.052217 0.289178
0.112688 0.052227 0.289220
0.114011 0.052202 0.289056
0.115767 0.052373 0.289975
0.117182 0.052388 0.290019
0.118445 0.052335 0.289683
0.120259 0.052524 0.290678
0.121166 0.052317 0.289474
0.122775 0.052414 0.289945
0.124358 0.052498 0.290338
0.125971 0.052592 0.290779
0.127137 0.052500 0.290182
0.128644 0.052549 0.290353
0.129886 0.052490 0.289920
0.131147 0.052440 0.289528
0.132427 0.052398 0.289171
0.133796 0.052392 0.289001
0.135188 0.052395 0.288872
0.136428 0.052339 0.288410
0.136748 0.051936 0.286020
0.137936 0.051866 0.285461
0.145982 0.052792 0.289721
0.146730 0.052560 0.288207
0.149530 0.053060 0.290694
0.151058 0.053103 0.290662
0.151842 0.052887 0.289193
-0.043382 0.019060 0.103532
-0.042961 0.019089 0.103702
-0.042827 0.019248 0.104576
-0.042156 0.019167 0.104139
-0.041199 0.018951 0.102975
-0.041395 0.020747 0.112706
-0.040929 0.020780 0.112871
-0.040756 0.020964 0.113855
-0.039977 0.020837 0.113152
-0.039560 0.020898 0.113463
-0.039601 0.021205 0.115115
-0.041138 0.022334 0.121218
-0.040760 0.022440 0.121770
-0.040448 0.022586 0.122536
-0.040031 0.022677 0.123001
-0.039681 0.022808 0.123684
-0.039497 0.023040 0.124915
-0.039555 0.023424 0.126960
-0.041756 0.025106 0.136044
-0.041920 0.025598 0.138671
-0.041822 0.025943 0.140501
-0.041812 0.026355 0.142687
-0.041932 0.026863 0.145395
-0.042003 0.027356 0.148018
-0.041935 0.027774 0.150228
-0.041768 0.028139 0.152156
-0.041600 0.028518 0.154150
-0.041502 0.028957 0.156473
-0.041810 0.029702 0.160441
-0.042118 0.030473 0.164552
-0.042202 0.031110 0.167927
-0.042009 0.031562 0.170307
-0.042286 0.032392 0.174723
-0.042274 0.033029 0.178097
-0.041962 0.033454 0.180319
-0.041869 0.034074 0.183592
-0.041802 0.034742 0.187124
-0.042013 0.035675 0.192078
-0.042406 0.036808 0.198103
-0.041965 0.037251 0.200416
-0.041679 0.037856 0.203595
-0.040687 0.037834 0.203398
-0.046394 0.044190 0.237484
-0.045319 0.044243 0.237681
-0.043451 0.043506 0.233631
-0.042486 0.043657 0.234358
-0.042014 0.044337 0.237923
-0.041417 0.044919 0.240958
-0.040622 0.045313 0.242986
-0.040057 0.045994 0.246550
-0.039284 0.046471 0.249021
-0.038781 0.047307 0.253411
-0.038619 0.048626 0.260390
-0.038275 0.053345 0.285380
-0.035568 0.051405 0.274912
-0.034779 0.052193 0.279043
-0.033473 0.052238 0.279198
-0.029778 0.048405 0.258632
-0.028506 0.048347 0.258248
-0.027255 0.048321 0.258039
-0.026148 0.048561 0.259248
-0.024890 0.048530 0.259017
-0.023613 0.048456 0.258557
-0.022450 0.048622 0.259377
-0.021185 0.048573 0.259059
-0.019961 0.048620 0.259251
-0.018678 0.048518 0.258646
-0.017387 0.048381 0.257866
-0.016673 0.049950 0.266178
-0.015402 0.049973 0.266250
-0.014625 0.051746 0.275650
-0.013306 0.051767 0.275713
-0.011109 0.048001 0.255616
-0.009898 0.048085 0.256028
-0.008685 0.048183 0.256517
-0.007452 0.048180 0.256471
-0.006223 0.048217 0.256641
-0.004984 0.048170 0.256363
-0.003751 0.048164 0.256309
-0.002520 0.048202 0.256492
-0.001286 0.048211 0.256529
-0.000052 0.048158 0.256232
0.001182 0.048204 0.256469
0.002500 0.049877 0.265363
0.003835 0.050642 0.269428
0.005064 0.049973 0.265865
0.006339 0.049942 0.265703
0.007613 0.049908 0.265527
0.008924 0.050092 0.266516
0.010181 0.049968 0.265870
0.011399 0.049697 0.264439
0.012669 0.049688 0.264410
0.013949 0.049714 0.264569
0.015244 0.049785 0.264973
0.016576 0.049956 0.265909
0.017809 0.049824 0.265234
0.019139 0.049964 0.266009
0.020407 0.049935 0.265890
0.021745 0.050072 0.266655
0.022901 0.049795 0.265220
0.024254 0.049953 0.266105
0.025130 0.049164 0.261946
0.026223 0.048852 0.260333
0.027231 0.048419 0.258070
0.028402 0.048300 0.257487
0.029457 0.048003 0.255955
0.030683 0.047996 0.255971
0.031923 0.048010 0.256105
0.033233 0.048125 0.256773
0.034561 0.048257 0.257541
0.035838 0.048311 0.257888
0.037170 0.048433 0.258604
0.038623 0.048699 0.260093
0.040067 0.048939 0.261437
0.041563 0.049224 0.263029
0.042958 0.049376 0.263914
0.044278 0.049437 0.264311
0.045620 0.049517 0.264813
0.046946 0.049576 0.265203
0.048176 0.049533 0.265049
0.049297 0.049384 0.264323
0.050410 0.049235 0.263601
0.051631 0.049194 0.263463
0.052703 0.049018 0.262593
0.053923 0.048984 0.262487
0.055256 0.049051 0.262927
0.056481 0.049022 0.262847
0.057609 0.048912 0.262334
0.059451 0.049400 0.265026
0.061421 0.049972 0.268172
0.062862 0.050098 0.268929
0.064021 0.049999 0.268473
0.065460 0.050119 0.269192
0.066839 0.050188 0.269642
0.068095 0.050164 0.269589
0.069213 0.050042 0.269002
0.070363 0.049946 0.268560
0.071348 0.049739 0.267517
0.072640 0.049749 0.267642
0.074217 0.049951 0.268796
0.075364 0.049861 0.268378
0.076217 0.049583 0.266945
0.077195 0.049394 0.265988
0.078308 0.049297 0.265521
0.079193 0.049061 0.264305
0.080050 0.048815 0.263035
0.081389 0.048866 0.263361
0.082758 0.048933 0.263772
0.083660 0.048727 0.262705
0.085134 0.048854 0.263433
0.086864 0.049123 0.264919
0.095774 0.053386 0.287951
0.097001 0.053306 0.287555
0.099004 0.053649 0.289438
0.100529 0.053728 0.289888
0.101783 0.053661 0.289548
0.103292 0.053728 0.289931
0.104608 0.053695 0.289765
0.105725 0.053562 0.289052
0.106940 0.053481 0.288618
0.108641 0.053642 0.289484
0.109709 0.053490 0.288657
0.111480 0.053681 0.289672
0.113116 0.053802 0.290308
0.114632 0.053865 0.290619
0.116083 0.053895 0.290750
0.117253 0.053796 0.290176
0.118771 0.053857 0.290457
0.120131 0.053845 0.290343
0.121425 0.053805 0.290064
0.122919 0.053853 0.290256
0.124211 0.053813 0.289961
0.125981 0.053977 0.290765
0.127279 0.053939 0.290464
0.128653 0.053933 0.290330
0.129967 0.053902 0.290055
0.131298 0.053879 0.289811
0.132367 0.053750 0.288986
0.133741 0.053746 0.288827
0.135228 0.053787 0.288897
0.135987 0.053541 0.287416
0.136714 0.053286 0.285882
0.137519 0.053067 0.284529
0.141318 0.053997 0.289317
0.142525 0.053927 0.288738
0.150024 0.054633 0.291558
0.151252 0.054568 0.290935
0.154416 0.055196 0.293991
-0.043038 0.019614 0.103884
-0.042581 0.019628 0.103971
-0.041748 0.019467 0.103128
-0.041327 0.019497 0.103292
-0.039977 0.020290 0.107485
-0.040863 0.021006 0.111264
-0.041237 0.021473 0.113727
-0.040899 0.021577 0.114265
-0.040759 0.021789 0.115375
-0.040795 0.022103 0.117017
-0.040950 0.022489 0.119047
-0.040911 0.022780 0.120563
-0.040626 0.022939 0.121384
-0.040427 0.023153 0.122488
-0.040236 0.023377 0.123647
-0.040043 0.023606 0.124832
-0.039460 0.023609 0.124816
-0.039591 0.024046 0.127095
-0.039883 0.024595 0.129965
-0.041377 0.025914 0.136898
-0.041676 0.026515 0.140035
-0.041902 0.027089 0.143021
-0.042012 0.027604 0.145699
-0.042065 0.028099 0.148266
-0.042072 0.028579 0.150752
-0.041842 0.028912 0.152459
-0.041592 0.029243 0.154155
-0.041486 0.029688 0.156449
-0.041592 0.030304 0.159645
-0.041780 0.031004 0.163273
-0.042092 0.031824 0.167534
-0.041951 0.032326 0.170119
-0.042281 0.033218 0.174751
-0.042374 0.033956 0.178568
-0.042106 0.034429 0.180992
-0.041729 0.034831 0.183036
-0.041595 0.035456 0.186253
-0.041921 0.036509 0.191717
-0.042606 0.037929 0.199103
-0.041918 0.038163 0.200255
-0.045939 0.043812 0.229730
-0.044672 0.043641 0.228751
-0.043354 0.043411 0.227462
-0.043177 0.044340 0.232245
-0.042594 0.044891 0.235045
-0.042008 0.045467 0.237977
-0.041137 0.045760 0.239424
-0.040627 0.046481 0.243114
-0.039987 0.047091 0.246220
-0.039442 0.047855 0.250127
-0.038700 0.048419 0.252990
-0.038570 0.049811 0.260173
-0.039815 0.054957 0.286864
-0.038226 0.054644 0.285141
-0.035743 0.052983 0.276391
-0.035016 0.053898 0.281074
-0.034116 0.054608 0.284695
-0.029499 0.049183 0.256334
-0.028384 0.049376 0.257269
-0.027200 0.049462 0.257649
-0.026000 0.049526 0.257910
