ply
format ascii 1.0
element vertex 1679
property float x
property float y
property float z
end_header
-0.124283 -0.050538 0.289976
-0.123060 -0.050595 0.290350
-0.121852 -0.050659 0.290759
-0.120639 -0.050723 0.291158
-0.119344 -0.050753 0.291360
-0.117929 -0.050733 0.291263
-0.116527 -0.050717 0.291187
-0.115075 -0.050680 0.290979
-0.113608 -0.050635 0.290720
-0.112264 -0.050644 0.290769
-0.110912 -0.050650 0.290791
-0.109576 -0.050664 0.290854
-0.108319 -0.050715 0.291124
-0.107066 -0.050769 0.291407
-0.105677 -0.050760 0.291320
-0.104334 -0.050772 0.291354
-0.103036 -0.050807 0.291515
-0.101500 -0.050725 0.290993
-0.100005 -0.050660 0.290573
-0.098748 -0.050716 0.290839
-0.097007 -0.050522 0.289667
-0.094399 -0.049864 0.285836
-0.099356 -0.053241 0.305123
-0.098072 -0.053324 0.305524
-0.096825 -0.053430 0.306055
-0.095419 -0.053450 0.306088
-0.093957 -0.053439 0.305942
-0.092424 -0.053386 0.305554
-0.090781 -0.053268 0.304785
-0.089308 -0.053246 0.304572
-0.087455 -0.052994 0.303037
-0.085741 -0.052820 0.301941
-0.084376 -0.052857 0.302059
-0.082984 -0.052880 0.302087
-0.081761 -0.053012 0.302741
-0.080592 -0.053185 0.303624
-0.079445 -0.053380 0.304626
-0.078166 -0.053491 0.305152
-0.076942 -0.053644 0.305919
-0.075600 -0.053720 0.306240
-0.073890 -0.053532 0.305058
-0.068638 -0.050720 0.288923
-0.067544 -0.050928 0.290000
-0.066263 -0.051001 0.290306
-0.064877 -0.050994 0.290158
-0.063612 -0.051084 0.290560
-0.062303 -0.051142 0.290782
-0.060963 -0.051177 0.290870
-0.059621 -0.051212 0.290957
-0.058247 -0.051221 0.290898
-0.056895 -0.051250 0.290951
-0.055509 -0.051248 0.290832
-0.054005 -0.051135 0.290082
-0.052645 -0.051157 0.290099
-0.051341 -0.051235 0.290433
-0.049971 -0.051250 0.290411
-0.048624 -0.051290 0.290533
-0.047254 -0.051308 0.290530
-0.045900 -0.051345 0.290637
-0.044563 -0.051403 0.290866
-0.043155 -0.051381 0.290641
-0.041682 -0.051279 0.289961
-0.040768 -0.051880 0.293263
-0.038705 -0.051008 0.288243
-0.037444 -0.051170 0.289065
-0.035858 -0.050883 0.287350
-0.034218 -0.050494 0.285068
-0.030196 -0.046411 0.261937
-0.028850 -0.046265 0.261039
-0.027645 -0.046342 0.261395
-0.026344 -0.046259 0.260856
-0.025082 -0.046238 0.260672
-0.023858 -0.046289 0.260892
-0.022592 -0.046262 0.260675
-0.021325 -0.046229 0.260425
-0.020180 -0.046471 0.261729
-0.019139 -0.047002 0.264661
-0.018356 -0.048289 0.271849
-0.016780 -0.047525 0.267499
-0.015563 -0.047737 0.268640
-0.014588 -0.048794 0.274537
-0.012915 -0.047500 0.267212
-0.011557 -0.047201 0.265493
-0.010251 -0.047072 0.264726
-0.008962 -0.046992 0.264243
-0.007624 -0.046585 0.261925
-0.006391 -0.046787 0.263030
-0.005127 -0.046812 0.263146
-0.003871 -0.046945 0.263872
-0.002610 -0.047129 0.264885
-0.001338 -0.047270 0.265661
-0.000059 -0.047774 0.268481
0.001235 -0.047792 0.268572
0.002549 -0.048170 0.270687
0.003925 -0.049069 0.275732
0.005301 -0.049514 0.278233
0.006641 -0.049508 0.278205
0.007651 -0.047456 0.266678
0.009006 -0.047826 0.268768
0.010288 -0.047768 0.268453
0.011480 -0.047349 0.266112
0.012803 -0.047499 0.266973
0.014167 -0.047762 0.268471
0.015437 -0.047686 0.268069
0.016763 -0.047786 0.268657
0.018117 -0.047943 0.269573
0.019360 -0.047806 0.268836
0.020609 -0.047700 0.268272
0.022024 -0.047967 0.269813
0.023254 -0.047823 0.269049
0.024462 -0.047653 0.268133
0.024947 -0.046161 0.259783
0.026108 -0.046003 0.258944
0.027464 -0.046187 0.260025
0.028644 -0.046073 0.259435
0.029899 -0.046081 0.259537
0.031121 -0.046043 0.259378
0.032338 -0.045999 0.259186
0.033629 -0.046059 0.259585
0.034844 -0.046015 0.259400
0.035976 -0.045869 0.258641
0.037292 -0.045958 0.259208
0.038765 -0.046230 0.260805
0.040332 -0.046592 0.262917
0.041757 -0.046774 0.264016
0.043113 -0.046870 0.264630
0.044243 -0.046721 0.263863
0.045675 -0.046891 0.264898
0.047098 -0.047042 0.265828
0.048308 -0.046979 0.265546
0.049655 -0.047048 0.266015
0.050964 -0.047079 0.266268
0.052139 -0.046988 0.265833
0.053360 -0.046941 0.265647
0.054731 -0.047025 0.266202
0.056182 -0.047173 0.267120
0.057534 -0.047233 0.267536
0.059400 -0.047703 0.270280
0.060895 -0.047861 0.271258
0.062223 -0.047885 0.271470
0.063413 -0.047803 0.271086
0.064701 -0.047796 0.271129
0.066034 -0.047823 0.271359
0.067310 -0.047808 0.271352
0.068464 -0.047708 0.270863
0.069632 -0.047622 0.270449
0.070686 -0.047463 0.269618
0.071259 -0.046992 0.267015
0.072270 -0.046821 0.266113
0.073533 -0.046816 0.266155
0.074200 -0.046439 0.264079
0.074945 -0.046122 0.262338
0.075813 -0.045891 0.261083
0.076693 -0.045673 0.259905
0.077673 -0.045521 0.259097
0.078747 -0.045428 0.258622
0.079923 -0.045396 0.258491
0.081162 -0.045400 0.258564
0.082180 -0.045282 0.257936
0.083634 -0.045405 0.258676
0.085607 -0.045801 0.260976
0.097695 -0.051521 0.293606
0.098944 -0.051443 0.293201
0.099967 -0.051252 0.292144
0.101011 -0.051077 0.291174
0.102446 -0.051101 0.291335
0.104192 -0.051278 0.292364
0.105297 -0.051139 0.291584
0.106865 -0.051225 0.292087
0.108243 -0.051219 0.292057
0.109694 -0.051248 0.292219
0.111085 -0.051247 0.292211
0.112659 -0.051331 0.292676
0.113920 -0.051271 0.292315
0.115401 -0.051311 0.292519
0.116636 -0.051242 0.292090
0.117987 -0.051224 0.291953
0.119330 -0.051204 0.291793
0.120694 -0.051193 0.291677
0.121925 -0.051126 0.291238
0.123500 -0.051204 0.291612
0.124811 -0.051172 0.291352
0.126318 -0.051219 0.291541
0.127829 -0.051268 0.291723
0.129270 -0.051287 0.291733
0.130793 -0.051338 0.291915
0.132162 -0.051329 0.291741
0.133669 -0.051372 0.291858
0.134984 -0.051341 0.291546
0.136377 -0.051341 0.291396
0.138314 -0.051543 0.292383
0.140033 -0.051661 0.292880
0.141478 -0.051676 0.292783
0.142945 -0.051700 0.292720
0.144505 -0.051755 0.292827
0.145981 -0.051780 0.292749
0.147714 -0.051895 0.293165
0.149154 -0.051905 0.292977
0.150708 -0.051955 0.292997
0.152140 -0.051962 0.292763
0.153625 -0.051987 0.292612
-0.157235 -0.050583 0.295155
-0.155531 -0.050483 0.294843
-0.153918 -0.050412 0.294680
-0.152261 -0.050325 0.294411
-0.150931 -0.050345 0.294757
-0.149160 -0.050217 0.294222
-0.147492 -0.050122 0.293866
-0.145546 -0.049930 0.292926
-0.144103 -0.049908 0.292977
-0.142865 -0.049958 0.293433
-0.141322 -0.049901 0.293253
-0.139914 -0.049891 0.293338
-0.138670 -0.049940 0.293759
-0.137046 -0.049852 0.293364
-0.135743 -0.049880 0.293642
-0.131187 -0.048701 0.286804
-0.128483 -0.048192 0.283900
-0.142655 -0.054069 0.318613
-0.141369 -0.054149 0.319172
-0.124554 -0.049276 0.290628
-0.123126 -0.049251 0.290523
-0.121790 -0.049262 0.290626
-0.120834 -0.049429 0.291641
-0.119356 -0.049384 0.291398
-0.117708 -0.049266 0.290722
-0.116292 -0.049244 0.290604
-0.115184 -0.049354 0.291255
-0.113701 -0.049304 0.290957
-0.112450 -0.049354 0.291246
-0.111075 -0.049351 0.291213
-0.109788 -0.049387 0.291407
-0.108516 -0.049431 0.291641
-0.107114 -0.049416 0.291523
-0.105829 -0.049456 0.291723
-0.104427 -0.049441 0.291593
-0.102992 -0.049410 0.291369
-0.101893 -0.049542 0.292095
-0.100158 -0.049363 0.290991
-0.098720 -0.049328 0.290729
-0.097367 -0.049336 0.290710
-0.094265 -0.048444 0.285395
-0.099168 -0.051701 0.304508
-0.097887 -0.051782 0.304908
-0.096498 -0.051807 0.304978
-0.095426 -0.052006 0.306066
-0.093919 -0.051970 0.305767
-0.092354 -0.051900 0.305270
-0.090925 -0.051906 0.305213
-0.089351 -0.051829 0.304664
-0.087636 -0.051665 0.303605
-0.086040 -0.051568 0.302935
-0.084617 -0.051572 0.302860
-0.083127 -0.051536 0.302545
-0.081749 -0.051569 0.302632
-0.080463 -0.051662 0.303071
-0.079255 -0.051809 0.303829
-0.077842 -0.051826 0.303816
-0.076790 -0.052088 0.305240
-0.075452 -0.052162 0.305561
-0.074107 -0.052235 0.305872
-0.068822 -0.049477 0.289616
-0.067613 -0.049598 0.290214
-0.066319 -0.049660 0.290465
-0.064972 -0.049684 0.290496
-0.063657 -0.049735 0.290680
-0.062352 -0.049795 0.290919
-0.061000 -0.049820 0.290956
-0.059661 -0.049857 0.291058
-0.058293 -0.049871 0.291029
-0.056901 -0.049865 0.290881
-0.055514 -0.049863 0.290760
-0.054187 -0.049917 0.290962
-0.052770 -0.049887 0.290679
-0.051407 -0.049910 0.290700
-0.050070 -0.049959 0.290880
-0.048692 -0.049969 0.290830
-0.047314 -0.049980 0.290789
-0.045817 -0.049862 0.289997
-0.044507 -0.049946 0.290385
-0.043177 -0.050013 0.290669
-0.041630 -0.049825 0.289479
-0.040547 -0.050199 0.291550
-0.038834 -0.049791 0.289087
-0.037495 -0.049850 0.289336
-0.035961 -0.049645 0.288051
-0.034109 -0.048967 0.284033
-0.030253 -0.045236 0.262308
-0.028829 -0.044977 0.260728
-0.027612 -0.045031 0.260969
-0.026396 -0.045092 0.261250
-0.025079 -0.044978 0.260515
-0.023865 -0.045046 0.260842
-0.022610 -0.045040 0.260746
-0.021312 -0.044946 0.260136
-0.020187 -0.045225 0.261692
-0.019216 -0.045909 0.265589
-0.018266 -0.046745 0.270368
-0.016840 -0.046397 0.268301
-0.015532 -0.046345 0.267948
-0.014316 -0.046583 0.269275
-0.012867 -0.046033 0.266056
-0.011534 -0.045825 0.264809
-0.010217 -0.045633 0.263664
-0.008937 -0.045582 0.263332
-0.007629 -0.045340 0.261901
-0.006382 -0.045447 0.262491
-0.005131 -0.045567 0.263160
-0.003874 -0.045694 0.263872
-0.002614 -0.045878 0.264911
-0.001338 -0.045893 0.264980
-0.000061 -0.046370 0.267725
0.001231 -0.046456 0.268207
0.002517 -0.046322 0.267429
0.003913 -0.047621 0.274925
0.005305 -0.048233 0.278458
0.006114 -0.044358 0.256087
0.007329 -0.044244 0.255438
0.008561 -0.044244 0.255445
0.009823 -0.044383 0.256261
0.011061 -0.044391 0.256320
0.012268 -0.044289 0.255747
0.013588 -0.044573 0.257409
0.015017 -0.045141 0.260714
0.016408 -0.045512 0.262887
0.017634 -0.045405 0.262299
0.018959 -0.045552 0.263180
0.020399 -0.045938 0.265446
0.021761 -0.046114 0.266502
0.023121 -0.046267 0.267424
0.024184 -0.045839 0.264994
0.025156 -0.045292 0.261878
0.026082 -0.044716 0.258596
0.027460 -0.044934 0.259908
0.028643 -0.044825 0.259333
0.029804 -0.044695 0.258635
0.031091 -0.044755 0.259037
0.032314 -0.044723 0.258909
0.033643 -0.044834 0.259612
0.034719 -0.044612 0.258392
0.035945 -0.044591 0.258334
0.037478 -0.044939 0.260417
0.038841 -0.045068 0.261232
0.040390 -0.045398 0.263218
0.042028 -0.045805 0.265647
0.043241 -0.045738 0.265333
0.044450 -0.045671 0.265019
0.046032 -0.045980 0.266891
0.047387 -0.046052 0.267386
0.048562 -0.045950 0.266870
0.049949 -0.046047 0.267516
0.051238 -0.046053 0.267629
0.052409 -0.045954 0.267136
0.053673 -0.045940 0.267134
0.054770 -0.045786 0.266323
0.056141 -0.045864 0.266858
0.057547 -0.045966 0.267534
0.059098 -0.046177 0.268843
0.060552 -0.046305 0.269666
0.061925 -0.046367 0.270109
0.063302 -0.046429 0.270552
0.064725 -0.046521 0.271170
0.066084 -0.046565 0.271509
0.067416 -0.046588 0.271725
0.068657 -0.046549 0.271574
0.069849 -0.046479 0.271242
0.071034 -0.046406 0.270895
0.071757 -0.046040 0.268831
0.072610 -0.045769 0.267322
0.073851 -0.045747 0.267265
0.074699 -0.045487 0.265811
0.075347 -0.045115 0.263708
0.076177 -0.044863 0.262298
0.077086 -0.044665 0.261201
0.078034 -0.044495 0.260267
0.078991 -0.044336 0.259391
0.080032 -0.044228 0.258813
0.081103 -0.044140 0.258348
0.082383 -0.044166 0.258550
0.083717 -0.044221 0.258912
0.085477 -0.044495 0.260557
0.097764 -0.050163 0.293793
0.099013 -0.050087 0.293388
0.100351 -0.050057 0.293249
0.101045 -0.049712 0.291257
0.102651 -0.049818 0.291907
0.104230 -0.049909 0.292462
0.105388 -0.049798 0.291829
0.106895 -0.049853 0.292165
0.108238 -0.049831 0.292043
0.109775 -0.049898 0.292436
0.111215 -0.049920 0.292557
0.112472 -0.049860 0.292196
0.113992 -0.049916 0.292511
0.115341 -0.049897 0.292379
0.116820 -0.049935 0.292568
0.118126 -0.049898 0.292315
0.119427 -0.049859 0.292049
0.120676 -0.049801 0.291658
0.122045 -0.049793 0.291551
0.123570 -0.049847 0.291806
0.125192 -0.049939 0.292273
0.126586 -0.049940 0.292194
0.127867 -0.049896 0.291847
0.129234 -0.049886 0.291693
0.130656 -0.049897 0.291652
0.132114 -0.049922 0.291681
0.133551 -0.049938 0.291651
0.135031 -0.049970 0.291702
0.136742 -0.050086 0.292233
0.138838 -0.050339 0.293552
0.140201 -0.050324 0.293294
0.141456 -0.050271 0.292806
0.143002 -0.050321 0.292908
0.144553 -0.050372 0.293001
0.145991 -0.050383 0.292849
0.147745 -0.050502 0.293308
0.149283 -0.050545 0.293318
0.150619 -0.050520 0.292915
0.152173 -0.050568 0.292921
0.153589 -0.050569 0.292642
-0.156963 -0.049090 0.294733
-0.155498 -0.049068 0.294864
-0.153891 -0.049000 0.294708
-0.151979 -0.048833 0.293940
-0.150157 -0.048693 0.293317
-0.148898 -0.048734 0.293774
-0.147304 -0.048665 0.293556
-0.145769 -0.048615 0.293437
-0.144371 -0.048609 0.293580
-0.142823 -0.048553 0.293401
-0.141392 -0.048536 0.293449
-0.140003 -0.048533 0.293572
-0.138551 -0.048508 0.293553
-0.137182 -0.048512 0.293696
-0.135906 -0.048550 0.294033
-0.130392 -0.047058 0.285099
-0.126402 -0.046092 0.279332
-0.142261 -0.052419 0.317767
-0.140980 -0.052498 0.318324
-0.124245 -0.047785 0.289924
-0.122961 -0.047816 0.290150
-0.121660 -0.047839 0.290328
-0.120490 -0.047916 0.290821
-0.119166 -0.047932 0.290941
-0.117852 -0.047953 0.291083
-0.116353 -0.047899 0.290760
-0.115054 -0.047926 0.290927
-0.113675 -0.047920 0.290888
-0.112425 -0.047970 0.291176
-0.111091 -0.047984 0.291246
-0.109792 -0.048014 0.291408
-0.108550 -0.048070 0.291720
-0.107165 -0.048063 0.291648
-0.105735 -0.048036 0.291446
-0.103955 -0.047847 0.290257
-0.102856 -0.047971 0.290960
-0.101449 -0.047952 0.290797
-0.100040 -0.047932 0.290619
-0.098744 -0.047967 0.290770
-0.097285 -0.047922 0.290434
-0.094335 -0.047131 0.285573
-0.098283 -0.049813 0.301753
-0.097015 -0.049891 0.302151
-0.095682 -0.049938 0.302355
-0.094500 -0.050067 0.303050
-0.093016 -0.050037 0.302781
-0.091593 -0.050040 0.302706
-0.090435 -0.050189 0.303517
-0.088876 -0.050118 0.302989
-0.087595 -0.050203 0.303406
-0.086251 -0.050254 0.303616
-0.084688 -0.050178 0.303054
-0.083246 -0.050172 0.302913
-0.082058 -0.050322 0.303709
-0.080565 -0.050286 0.303385
-0.079236 -0.050354 0.303683
-0.077952 -0.050453 0.304170
-0.076711 -0.050585 0.304848
-0.076123 -0.051160 0.308198
-0.074768 -0.051232 0.308517
-0.068739 -0.048041 0.289189
-0.067587 -0.048198 0.290023
-0.066294 -0.048258 0.290272
-0.064936 -0.048273 0.290248
-0.063716 -0.048394 0.290861
-0.062396 -0.048442 0.291034
-0.061058 -0.048478 0.291141
-0.059715 -0.048512 0.291228
-0.058307 -0.048493 0.291003
-0.056923 -0.048494 0.290897
-0.055522 -0.048481 0.290700
-0.054166 -0.048507 0.290748
-0.052795 -0.048520 0.290714
-0.051451 -0.048560 0.290843
-0.050113 -0.048609 0.291024
-0.048758 -0.048642 0.291114
-0.047406 -0.048681 0.291241
-0.045994 -0.048660 0.291006
-0.044560 -0.048612 0.290619
-0.043260 -0.048713 0.291115
-0.041785 -0.048617 0.290439
-0.040690 -0.048971 0.292457
-0.038981 -0.048586 0.290058
-0.037573 -0.048561 0.289815
-0.035946 -0.048240 0.287807
-0.034597 -0.048282 0.287966
-0.030221 -0.043928 0.261916
-0.028860 -0.043768 0.260887
-0.027613 -0.043777 0.260859
-0.026394 -0.043830 0.261102
-0.025116 -0.043788 0.260781
-0.023835 -0.043735 0.260398
-0.022668 -0.043896 0.261287
-0.021369 -0.043807 0.260697
-0.020236 -0.044068 0.262188
-0.019137 -0.044444 0.264363
-0.018229 -0.045346 0.269674
-0.016785 -0.044954 0.267286
-0.015481 -0.044901 0.266921
-0.014272 -0.045139 0.268284
-0.012867 -0.044745 0.265898
-0.011517 -0.044476 0.264258
-0.010245 -0.044478 0.264232
-0.008949 -0.044361 0.263504
-0.007645 -0.044160 0.262275
-0.006392 -0.044237 0.262702
-0.005164 -0.044560 0.264597
-0.003907 -0.044774 0.265841
-0.002631 -0.044857 0.266319
-0.001346 -0.044823 0.266100
-0.000063 -0.045075 0.267578
0.001223 -0.044909 0.266586
0.002502 -0.044806 0.265966
0.003925 -0.046461 0.275784
0.005254 -0.046457 0.275763
0.006181 -0.043611 0.258873
0.007369 -0.043255 0.256766
0.008602 -0.043228 0.256611
0.009863 -0.043331 0.257238
0.011104 -0.043332 0.257257
0.012345 -0.043335 0.257293
0.013634 -0.043488 0.258224
0.014913 -0.043586 0.258830
0.016199 -0.043688 0.259462
0.017472 -0.043741 0.259807
0.018791 -0.043898 0.260772
0.020276 -0.044396 0.263771
0.021712 -0.044734 0.265815
0.023037 -0.044818 0.266361
0.024075 -0.044366 0.263718
0.025215 -0.044137 0.262400
0.026147 -0.043583 0.259159
0.027422 -0.043626 0.259463
0.028623 -0.043550 0.259068
0.029789 -0.043432 0.258422
0.031030 -0.043428 0.258452
0.032350 -0.043529 0.259117
0.033650 -0.043598 0.259585
0.034933 -0.043639 0.259898
0.036270 -0.043744 0.260588
0.037699 -0.043949 0.261878
0.039106 -0.044116 0.262939
0.040621 -0.044389 0.264640
0.042062 -0.044568 0.265781
0.043467 -0.044700 0.266645
0.044775 -0.044727 0.266880
0.046322 -0.044984 0.268496
0.047895 -0.045252 0.270176
0.048862 -0.044948 0.268442
0.050460 -0.045225 0.270178
0.051890 -0.045343 0.270962
0.053080 -0.045250 0.270488
0.054419 -0.045284 0.270778
0.055858 -0.045398 0.271544
0.056953 -0.045235 0.270650
0.058311 -0.045282 0.271019
0.059429 -0.045145 0.270285
0.060773 -0.045182 0.270590
0.062211 -0.045286 0.271294
0.063376 -0.045190 0.270806
0.064674 -0.045193 0.270902
0.066117 -0.045293 0.271588
0.067329 -0.045235 0.271319
0.068505 -0.045155 0.270922
0.069796 -0.045152 0.270985
0.070956 -0.045067 0.270548
0.071691 -0.044719 0.268537
0.072659 -0.044527 0.267457
0.073787 -0.044437 0.266990
0.074591 -0.044158 0.265385
0.075321 -0.043846 0.263578
0.076073 -0.043557 0.261903
0.077032 -0.043393 0.260984
0.078090 -0.043289 0.260420
0.078996 -0.043107 0.259378
0.080168 -0.043072 0.259224
0.081463 -0.043104 0.259469
0.082753 -0.043132 0.259687
0.084007 -0.043140 0.259784
0.085439 -0.043238 0.260420
0.097718 -0.048745 0.293633
0.098966 -0.048671 0.293227
0.100416 -0.048697 0.293422
0.101115 -0.048363 0.291446
0.102626 -0.048421 0.291823
0.104160 -0.048489 0.292255
0.105337 -0.048390 0.291682
0.106833 -0.048439 0.291990
0.108049 -0.048361 0.291531
0.109460 -0.048372 0.291596
0.111267 -0.048554 0.292696
0.112583 -0.048521 0.292488
0.114059 -0.048557 0.292689
0.115407 -0.048538 0.292556
0.116782 -0.048530 0.292485
0.117992 -0.048455 0.291998
0.119460 -0.048487 0.292150
0.120788 -0.048461 0.291949
0.121831 -0.048323 0.291064
0.123530 -0.048446 0.291740
0.125115 -0.048521 0.292123
0.126534 -0.048531 0.292106
0.127877 -0.048512 0.291905
0.129302 -0.048525 0.291886
0.130735 -0.048540 0.291871
0.132092 -0.048526 0.291676
0.133648 -0.048585 0.291910
0.135101 -0.048606 0.291905
0.136907 -0.048753 0.292639
0.138283 -0.048744 0.292436
0.139921 -0.048828 0.292771
0.141411 -0.048858 0.292777
0.142824 -0.048862 0.292611
0.144401 -0.048920 0.292763
0.145830 -0.048929 0.292600
0.147617 -0.049056 0.293134
0.149309 -0.049149 0.293452
0.150714 -0.049147 0.293187
0.152180 -0.049164 0.293025
0.153630 -0.049177 0.292816
-0.156963 -0.047685 0.294815
-0.155349 -0.047618 0.294660
-0.153844 -0.047583 0.294695
-0.152127 -0.047482 0.294300
-0.151158 -0.047614 0.295340
-0.149630 -0.047571 0.295282
-0.147174 -0.047230 0.293358
-0.145395 -0.047102 0.292743
-0.143909 -0.047067 0.292695
-0.142647 -0.047105 0.293091
-0.141401 -0.047150 0.293517
-0.139969 -0.047132 0.293547
-0.138318 -0.047041 0.293102
-0.136860 -0.047013 0.293047
-0.135354 -0.046968 0.292877
-0.130372 -0.045704 0.285090
-0.128380 -0.045473 0.283734
-0.141382 -0.050604 0.315833
-0.140111 -0.050680 0.316388
-0.134359 -0.049652 0.310097
-0.124385 -0.046470 0.290270
-0.123064 -0.046485 0.290405
-0.121673 -0.046475 0.290372
-0.120585 -0.046581 0.291060
-0.119338 -0.046627 0.291368
-0.117851 -0.046580 0.291085
-0.116518 -0.046593 0.291174
-0.115248 -0.046632 0.291417
-0.113815 -0.046605 0.291241
-0.112426 -0.046597 0.291173
-0.111078 -0.046604 0.291204
-0.109741 -0.046617 0.291259
-0.108391 -0.046625 0.291279
-0.106932 -0.046585 0.290996
-0.105644 -0.046620 0.291176
-0.103809 -0.046412 0.289828
-0.102619 -0.046490 0.290266
-0.101566 -0.046633 0.291107
-0.099866 -0.046478 0.290087
-0.098770 -0.046605 0.290817
-0.097225 -0.046521 0.290223
-0.094245 -0.045737 0.285266
-0.098075 -0.048284 0.301077
-0.096810 -0.048360 0.301474
-0.095617 -0.048475 0.302105
-0.094254 -0.048506 0.302215
-0.092844 -0.048514 0.302172
-0.091554 -0.048585 0.302526
-0.090227 -0.048639 0.302765
-0.088857 -0.048672 0.302870
-0.087363 -0.048636 0.302545
-0.085872 -0.048600 0.302224
-0.084470 -0.048615 0.302212
-0.082984 -0.048582 0.301897
-0.081506 -0.048552 0.301601
-0.080167 -0.048604 0.301819
-0.078780 -0.048630 0.301866
-0.077292 -0.048593 0.301522
-0.076123 -0.048759 0.302439
-0.075230 -0.049111 0.304506
-0.074032 -0.049275 0.305402
-0.068734 -0.046661 0.289092
-0.067560 -0.046798 0.289825
-0.066338 -0.046907 0.290384
-0.064988 -0.046928 0.290398
-0.063678 -0.046979 0.290600
-0.062384 -0.047045 0.290894
-0.061035 -0.047072 0.290941
-0.059657 -0.047076 0.290852
-0.058261 -0.047067 0.290680
-0.056952 -0.047129 0.290948
-0.055484 -0.047060 0.290408
-0.054118 -0.047075 0.290388
-0.052774 -0.047111 0.290499
-0.051424 -0.047144 0.290590
-0.050068 -0.047172 0.290654
-0.048726 -0.047217 0.290821
-0.047354 -0.047234 0.290813
-0.045777 -0.047041 0.289519
-0.044483 -0.047137 0.290003
-0.042971 -0.047000 0.289057
-0.041522 -0.046925 0.288493
-0.040489 -0.047332 0.290895
-0.038883 -0.047073 0.289204
-0.037582 -0.047179 0.289760
-0.035996 -0.046922 0.288087
-0.034413 -0.046648 0.286313
-0.030113 -0.042515 0.260862
-0.028848 -0.042496 0.260664
-0.027534 -0.042399 0.259995
-0.026291 -0.042407 0.259969
-0.025076 -0.042464 0.260245
-0.023843 -0.042494 0.260359
-0.022617 -0.042541 0.260583
-0.021341 -0.042494 0.260228
-0.020230 -0.042791 0.261984
-0.019060 -0.042993 0.263161
-0.018154 -0.043862 0.268424
-0.016775 -0.043635 0.266980
-0.015478 -0.043603 0.266735
-0.014272 -0.043841 0.268143
-0.012920 -0.043636 0.266837
-0.011658 -0.043723 0.267327
-0.010389 -0.043805 0.267790
-0.009055 -0.043594 0.266463
-0.007771 -0.043596 0.266441
-0.006492 -0.043629 0.266617
-0.005218 -0.043726 0.267179
-0.003939 -0.043828 0.267782
-0.002652 -0.043901 0.268205
-0.001355 -0.043787 0.267491
-0.000065 -0.043959 0.268529
0.001234 -0.044116 0.269478
0.002510 -0.043694 0.266892
0.003837 -0.044144 0.269641
0.005188 -0.044578 0.272288
0.006223 -0.042666 0.260618
0.007442 -0.042444 0.259266
0.008694 -0.042451 0.259316
0.009944 -0.042444 0.259290
0.011210 -0.042499 0.259640
0.012460 -0.042493 0.259619
0.013715 -0.042498 0.259676
0.014997 -0.042582 0.260211
0.016248 -0.042569 0.260163
0.017496 -0.042552 0.260088
0.018807 -0.042680 0.260902
0.020258 -0.043091 0.263452
0.021673 -0.043379 0.265254
0.022816 -0.043122 0.263723
0.023922 -0.042826 0.261957
0.025216 -0.042879 0.262331
0.026148 -0.042341 0.259087
0.027427 -0.042387 0.259426
0.028644 -0.042338 0.259180
0.029833 -0.042253 0.258714
0.031187 -0.042400 0.259673
0.032469 -0.042442 0.259990
0.033806 -0.042549 0.260708
0.035020 -0.042498 0.260465
0.036365 -0.042606 0.261193
0.037700 -0.042694 0.261805
0.039044 -0.042786 0.262440
0.040494 -0.042986 0.263735
0.041692 -0.042913 0.263366
0.043017 -0.042972 0.263802
0.044441 -0.043124 0.264812
0.045262 -0.042698 0.262276
0.046158 -0.042364 0.260301
0.047331 -0.042296 0.259960
0.048442 -0.042176 0.259304
0.049309 -0.041856 0.257417
0.050406 -0.041741 0.256792
0.051765 -0.041844 0.257506
0.052877 -0.041747 0.256988
0.053892 -0.041579 0.256038
0.055660 -0.041988 0.258636
0.058621 -0.043258 0.266548
0.060638 -0.043793 0.269927
0.061908 -0.043777 0.269913
0.063328 -0.043865 0.270542
0.064755 -0.043955 0.271181
0.066062 -0.043961 0.271306
0.067287 -0.043914 0.271097
0.068601 -0.043925 0.271249
0.069713 -0.043809 0.270611
0.070838 -0.043705 0.270051
0.071604 -0.043388 0.268165
0.072602 -0.043219 0.267200
0.073521 -0.043010 0.265983
0.074557 -0.042876 0.265226
0.075299 -0.042580 0.263462
0.076144 -0.042351 0.262111
0.077110 -0.042195 0.261212
0.078054 -0.042032 0.260267
0.079403 -0.042090 0.260685
0.080521 -0.042024 0.260336
0.081913 -0.042102 0.260874
0.083497 -0.042275 0.261995
0.084535 -0.042170 0.261394
0.086775 -0.042659 0.264472
0.097083 -0.047043 0.291700
0.098321 -0.046971 0.291297
0.100339 -0.047268 0.293181
0.100734 -0.046803 0.290331
0.102213 -0.046847 0.290638
0.103838 -0.046956 0.291340
0.105183 -0.046938 0.291246
0.106545 -0.046927 0.291196
0.108060 -0.046983 0.291556
0.109676 -0.047081 0.292170
0.111180 -0.047129 0.292470
0.112621 -0.047150 0.292592
0.113718 -0.047027 0.291822
0.115127 -0.047035 0.291853
0.116806 -0.047152 0.292556
0.117846 -0.047011 0.291652
0.119245 -0.047015 0.291639
0.120724 -0.047051 0.291814
0.121867 -0.046955 0.291172
0.123336 -0.046986 0.291306
0.125173 -0.047155 0.292287
0.126466 -0.047118 0.291981
0.127783 -0.047090 0.291726
0.129301 -0.047136 0.291918
0.130732 -0.047150 0.291904
0.132012 -0.047110 0.291542
0.133623 -0.047187 0.291900
0.135208 -0.047254 0.292183
0.136402 -0.047184 0.291611
0.138205 -0.047324 0.292325
0.139702 -0.047357 0.292370
0.141540 -0.047504 0.293106
0.142882 -0.047483 0.292793
0.144391 -0.047518 0.292812
0.146026 -0.047593 0.293065
0.147691 -0.047677 0.293356
0.149291 -0.047737 0.293495
0.150608 -0.047708 0.293064
0.151867 -0.047660 0.292509
0.153478 -0.047723 0.292616
-0.156881 -0.046256 0.294741
-0.155485 -0.046255 0.294996
-0.154225 -0.046296 0.295498
-0.151139 -0.045784 0.292457
-0.149642 -0.045748 0.292444
-0.148503 -0.045822 0.293121
-0.147054 -0.045801 0.293177
-0.145660 -0.045797 0.293331
-0.144001 -0.045709 0.292934
-0.142684 -0.045729 0.293218
-0.141596 -0.045823 0.293968
-0.139918 -0.045727 0.293484
-0.138463 -0.045702 0.293449
-0.137405 -0.045809 0.294253
-0.136000 -0.045802 0.294309
-0.130539 -0.044414 0.285485
-0.129391 -0.044480 0.285997
-0.140410 -0.049291 0.317089
-0.139134 -0.049367 0.317639
-0.134434 -0.048216 0.310291
-0.124401 -0.045106 0.290323
-0.123092 -0.045126 0.290485
-0.121591 -0.045075 0.290187
-0.120441 -0.045154 0.290719
-0.119319 -0.045246 0.291328
-0.117839 -0.045203 0.291059
-0.116531 -0.045225 0.291205
-0.115317 -0.045285 0.291589
-0.113914 -0.045271 0.291492
-0.112514 -0.045259 0.291395
-0.111132 -0.045253 0.291336
-0.109796 -0.045266 0.291395
-0.108509 -0.045300 0.291582
-0.107174 -0.045315 0.291640
-0.105820 -0.045321 0.291641
-0.104047 -0.045147 0.290471
-0.102853 -0.045222 0.290905
-0.101124 -0.045061 0.289814
-0.099778 -0.045068 0.289802
-0.098567 -0.045138 0.290188
-0.097201 -0.045138 0.290118
-0.094330 -0.044429 0.285491
-0.097517 -0.046594 0.299326
-0.096260 -0.046668 0.299721
-0.095216 -0.046849 0.300798
-0.093979 -0.046939 0.301288
-0.092579 -0.046949 0.301264
-0.091307 -0.047026 0.301661
-0.089987 -0.047080 0.301911
-0.088480 -0.047036 0.301531
-0.087155 -0.047090 0.301771
-0.085658 -0.047050 0.301414
-0.084160 -0.047009 0.301043
-0.082905 -0.047104 0.301544
-0.081433 -0.047078 0.301267
-0.079932 -0.047033 0.300867
-0.078694 -0.047144 0.301467
-0.077096 -0.047040 0.300685
-0.075831 -0.047139 0.301203
-0.076507 -0.048472 0.309601
-0.075147 -0.048542 0.309923
-0.068764 -0.045305 0.289141
-0.067663 -0.045488 0.290191
-0.066402 -0.045567 0.290582
-0.065055 -0.045591 0.290617
-0.063771 -0.045660 0.290943
-0.062456 -0.045710 0.291140
-0.061141 -0.045762 0.291357
-0.059768 -0.045772 0.291303
-0.058307 -0.045714 0.290818
-0.056944 -0.045732 0.290815
-0.055579 -0.045749 0.290807
-0.054211 -0.045764 0.290788
-0.052856 -0.045792 0.290850
-0.051478 -0.045801 0.290792
-0.050124 -0.045832 0.290880
-0.048769 -0.045864 0.290971
-0.047369 -0.045855 0.290799
-0.045831 -0.045707 0.289756
-0.044481 -0.045743 0.289876
-0.043097 -0.045746 0.289791
-0.041004 -0.044972 0.284783
-0.040634 -0.046099 0.291817
-0.038895 -0.045698 0.289179
-0.037608 -0.045818 0.289842
-0.036030 -0.045579 0.288234
-0.034400 -0.045254 0.286086
-0.030240 -0.041434 0.261853
-0.028871 -0.041274 0.260759
-0.027566 -0.041194 0.260180
-0.026380 -0.041293 0.260730
-0.025111 -0.041266 0.260482
-0.023850 -0.041250 0.260314
-0.022655 -0.041352 0.260892
-0.021349 -0.041253 0.260200
-0.020318 -0.041705 0.262988
-0.019133 -0.041882 0.264044
-0.018153 -0.042565 0.268286
-0.016778 -0.042351 0.266887
-0.015518 -0.042422 0.267279
-0.014272 -0.042545 0.268008
-0.013005 -0.042622 0.268442
-0.011726 -0.042678 0.268752
-0.010466 -0.042818 0.269594
-0.009205 -0.043000 0.270705
-0.007912 -0.043067 0.271090
-0.006590 -0.042970 0.270450
-0.005292 -0.043021 0.270745
-0.003992 -0.043091 0.271158
-0.002683 -0.043069 0.270999
-0.001373 -0.042993 0.270503
-0.000068 -0.042969 0.270341
0.001238 -0.043005 0.270555
0.002497 -0.042213 0.265564
0.003809 -0.042554 0.267710
0.005192 -0.043314 0.272492
0.006222 -0.041412 0.260528
0.007427 -0.041123 0.258715
0.008687 -0.041174 0.259045
0.009936 -0.041169 0.259029
0.011191 -0.041185 0.259143
0.012447 -0.041204 0.259281
0.013727 -0.041288 0.259837
0.014998 -0.041334 0.260148
0.016291 -0.041429 0.260775
0.017564 -0.041464 0.261029
0.018838 -0.041496 0.261260
0.020248 -0.041804 0.263239
0.021729 -0.042214 0.265861
0.022849 -0.041915 0.264020
0.023943 -0.041604 0.262107
0.025299 -0.041756 0.263113
0.026395 -0.041484 0.261450
0.027615 -0.041422 0.261118
0.028786 -0.041297 0.260383
0.029931 -0.041146 0.259489
0.031297 -0.041298 0.260508
0.032568 -0.041318 0.260696
0.033803 -0.041293 0.260604
0.035043 -0.041275 0.260556
0.036351 -0.041336 0.261010
0.037691 -0.041428 0.261659
0.038999 -0.041480 0.262061
0.040147 -0.041364 0.261400
0.041509 -0.041468 0.262133
0.043152 -0.041839 0.264557
0.044485 -0.041897 0.265001
0.044145 -0.040419 0.255734
0.045292 -0.040346 0.255346
0.046553 -0.040376 0.255619
0.047654 -0.040269 0.255022
0.048927 -0.040309 0.255352
0.050176 -0.040328 0.255556
0.051465 -0.040377 0.255946
0.052652 -0.040346 0.255835
0.053816 -0.040299 0.255618
0.055319 -0.040502 0.256987
0.058557 -0.041939 0.266191
0.060654 -0.042515 0.269936
0.061989 -0.042544 0.270208
0.063297 -0.042553 0.270351
0.064604 -0.042562 0.270494
0.066032 -0.042648 0.271127
0.067251 -0.042599 0.270899
0.068463 -0.042546 0.270649
0.069736 -0.042534 0.270652
0.070806 -0.042399 0.269879
0.071561 -0.042085 0.267956
0.072523 -0.041901 0.266865
0.073640 -0.041812 0.266370
0.074679 -0.041682 0.265616
0.075728 -0.041562 0.264923
0.076540 -0.041318 0.263437
0.077806 -0.041322 0.263536
0.079186 -0.041387 0.264011
0.080446 -0.041387 0.264075
0.081790 -0.041430 0.264409
0.082992 -0.041401 0.264281
0.084386 -0.041467 0.264760
0.085391 -0.041343 0.264018
0.087008 -0.041514 0.265160
0.097776 -0.045984 0.293762
0.099022 -0.045913 0.293355
0.099301 -0.045402 0.290129
0.100978 -0.045535 0.291019
0.102440 -0.045569 0.291269
0.103748 -0.045535 0.291078
0.105342 -0.045625 0.291679
0.106737 -0.045627 0.291715
0.108143 -0.045635 0.291777
0.109490 -0.045617 0.291673
0.111100 -0.045708 0.292258
0.112377 -0.045662 0.291960
0.113643 -0.045612 0.291634
0.114987 -0.045595 0.291507
0.116351 -0.045586 0.291427
0.117721 -0.045579 0.291355
0.119374 -0.045680 0.291970
0.120612 -0.045623 0.291559
0.121878 -0.045577 0.291218
0.123580 -0.045693 0.291905
0.124918 -0.045674 0.291717
0.126482 -0.045737 0.292046
0.127850 -0.045728 0.291909
0.129492 -0.045816 0.292385
0.130891 -0.045818 0.292295
0.132036 -0.045731 0.291635
0.133567 -0.045779 0.291821
0.135171 -0.045850 0.292151
0.137017 -0.046001 0.292975
0.138298 -0.045961 0.292574
0.140001 -0.046061 0.293050
0.141445 -0.046075 0.292967
0.142814 -0.046064 0.292715
0.144243 -0.046072 0.292576
0.145781 -0.046115 0.292642
0.147207 -0.046121 0.292467
0.149066 -0.046262 0.293128
0.150494 -0.046268 0.292921
0.152184 -0.046354 0.293202
0.153571 -0.046346 0.292881
-0.156585 -0.044767 0.294262
-0.155307 -0.044800 0.294730
-0.153360 -0.044638 0.293908
-0.151953 -0.044633 0.294097
-0.149851 -0.044421 0.292916
-0.148476 -0.044423 0.293128
-0.147059 -0.044412 0.293244
-0.145627 -0.044397 0.293318
-0.144045 -0.044335 0.293074
-0.142813 -0.044381 0.293530
-0.141592 -0.044431 0.294004
-0.139734 -0.044280 0.293139
-0.137752 -0.044087 0.291981
-0.136848 -0.044238 0.293094
-0.135714 -0.044317 0.293722
-0.130999 -0.043217 0.286520
-0.126971 -0.042323 0.280673
-0.141135 -0.047537 0.315335
-0.139867 -0.047610 0.315888
-0.138597 -0.047683 0.316436
-0.134730 -0.046855 0.310992
-0.124350 -0.043718 0.290217
-0.123067 -0.043747 0.290439
-0.121710 -0.043748 0.290478
-0.120384 -0.043762 0.290589
-0.119288 -0.043860 0.291255
-0.117896 -0.043851 0.291201
-0.116334 -0.043777 0.290713
-0.115074 -0.043817 0.290970
-0.113708 -0.043817 0.290959
-0.112370 -0.043828 0.291015
-0.111015 -0.043832 0.291020
-0.109690 -0.043849 0.291101
-0.108230 -0.043811 0.290818
-0.106964 -0.043852 0.291051
-0.105657 -0.043877 0.291175
-0.104182 -0.043832 0.290827
-0.102885 -0.043862 0.290974
-0.101626 -0.043909 0.291228
-0.100157 -0.043866 0.290876
-0.098932 -0.043929 0.291232
-0.097468 -0.043887 0.290882
-0.094743 -0.043268 0.286706
-0.096774 -0.044834 0.297006
-0.095527 -0.044906 0.297398
-0.094409 -0.045040 0.298205
-0.093385 -0.045225 0.299339
-0.091745 -0.045113 0.298505
-0.090456 -0.045172 0.298801
-0.089207 -0.045254 0.299244
-0.087874 -0.045295 0.299413
-0.086473 -0.045302 0.299354
-0.085264 -0.045411 0.299970
-0.083795 -0.045383 0.299678
-0.082281 -0.045329 0.299216
-0.081149 -0.045488 0.300152
-0.079767 -0.045510 0.300180
-0.078359 -0.045517 0.300115
-0.076889 -0.045489 0.299810
-0.075694 -0.045624 0.300586
-0.074780 -0.045939 0.302538
-0.074494 -0.046658 0.307150
-0.068649 -0.043855 0.288581
-0.067608 -0.044069 0.289876
-0.066405 -0.044185 0.290519
-0.065048 -0.044200 0.290502
-0.063720 -0.044237 0.290624
-0.062436 -0.044307 0.290963
-0.061114 -0.044352 0.291142
-0.059641 -0.044287 0.290597
-0.058158 -0.044211 0.289983
-0.056969 -0.044361 0.290848
-0.055528 -0.044318 0.290448
-0.054074 -0.044261 0.289959
-0.052791 -0.044346 0.290397
-0.051442 -0.044377 0.290486
-0.050065 -0.044387 0.290433
-0.048687 -0.044395 0.290378
-0.047352 -0.044444 0.290587
-0.045937 -0.044420 0.290315
-0.044428 -0.044300 0.289427
-0.043080 -0.044338 0.289564
-0.041508 -0.044141 0.288175
-0.040429 -0.044471 0.290229
-0.038747 -0.044140 0.287963
-0.037547 -0.044353 0.289254
-0.035961 -0.044109 0.287570
-0.034474 -0.043972 0.286582
-0.030048 -0.039918 0.260077
-0.028785 -0.039899 0.259871
-0.027548 -0.039915 0.259898
-0.026312 -0.039933 0.259938
-0.025091 -0.039979 0.260163
-0.023883 -0.040050 0.260553
-0.022654 -0.040093 0.260765
-0.021369 -0.040036 0.260327
-0.020335 -0.040470 0.263084
-0.019226 -0.040804 0.265199
-0.018256 -0.041501 0.269664
-0.016785 -0.041080 0.266874
-0.015607 -0.041365 0.268675
-0.014361 -0.041506 0.269538
-0.013038 -0.041429 0.268993
-0.011786 -0.041586 0.269968
-0.010497 -0.041634 0.270239
-0.009194 -0.041636 0.270213
-0.007899 -0.041682 0.270476
-0.006582 -0.041603 0.269932
-0.005277 -0.041583 0.269777
-0.003985 -0.041686 0.270421
-0.002683 -0.041726 0.270659
-0.001375 -0.041684 0.270370
-0.000070 -0.041740 0.270719
0.001236 -0.041681 0.270330
0.002510 -0.041185 0.267103
0.003807 -0.041256 0.267557
0.005097 -0.041245 0.267490
0.006266 -0.040451 0.262341
0.007469 -0.040107 0.260121
0.008759 -0.040262 0.261135
0.009986 -0.040127 0.260274
0.011222 -0.040050 0.259791
0.012504 -0.040140 0.260393
0.013763 -0.040145 0.260446
0.015031 -0.040171 0.260641
0.016302 -0.040203 0.260878
0.017593 -0.040276 0.261386
0.018895 -0.040360 0.261967
0.020166 -0.040374 0.262094
0.021687 -0.040857 0.265269
0.022964 -0.040851 0.265274
0.024218 -0.040806 0.265031
0.025547 -0.040887 0.265608
0.026740 -0.040753 0.264787
0.028047 -0.040796 0.265123
0.029198 -0.040619 0.264031
0.030402 -0.040527 0.263492
0.031648 -0.040496 0.263349
0.032827 -0.040385 0.262691
0.034009 -0.040285 0.262108
0.035263 -0.040276 0.262116
0.036488 -0.040234 0.261913
0.037730 -0.040213 0.261851
0.038908 -0.040128 0.261369
0.040073 -0.040035 0.260839
0.041379 -0.040085 0.261241
0.042560 -0.040014 0.260854
0.043485 -0.039713 0.258971
0.044074 -0.039130 0.255248
0.045339 -0.039163 0.255543
0.046664 -0.039245 0.256157
0.047647 -0.039042 0.254914
0.048971 -0.039122 0.255519
0.050179 -0.039107 0.255502
0.051467 -0.039154 0.255895
0.052664 -0.039131 0.255829
0.053899 -0.039137 0.255952
0.055169 -0.039167 0.256231
0.056455 -0.039207 0.256578
0.060689 -0.041249 0.270031
0.062101 -0.041328 0.270635
0.063191 -0.041193 0.269841
0.064636 -0.041291 0.270570
0.066084 -0.041387 0.271286
0.067294 -0.041333 0.271018
0.068519 -0.041290 0.270821
0.069774 -0.041266 0.270747
0.070811 -0.041116 0.269850
0.071682 -0.040878 0.268366
0.072519 -0.040628 0.266805
0.073726 -0.040591 0.266639
0.074766 -0.040465 0.265887
0.075964 -0.040426 0.265710
0.076877 -0.040240 0.264560
0.078216 -0.040280 0.264887
0.079674 -0.040378 0.265603
0.081035 -0.040425 0.265978
0.082330 -0.040438 0.266124
0.083926 -0.040597 0.267229
0.084859 -0.040434 0.266216
0.086576 -0.040645 0.267657
0.095583 -0.044222 0.291267
0.096820 -0.044153 0.290868
0.098336 -0.044212 0.291302
0.099523 -0.044123 0.290759
0.100754 -0.044056 0.290357
0.102231 -0.044096 0.290660
0.103841 -0.044193 0.291327
0.105005 -0.044099 0.290736
0.106577 -0.044177 0.291271
0.108053 -0.044214 0.291529
0.109554 -0.044259 0.291840
0.111040 -0.044298 0.292102
0.112509 -0.044329 0.292306
0.113711 -0.044255 0.291812
0.115032 -0.044229 0.291627
0.116499 -0.044259 0.291806
0.117817 -0.044232 0.291603
0.119542 -0.044357 0.292396
0.120755 -0.044291 0.291923
0.121840 -0.044181 0.291147
0.123336 -0.044219 0.291349
0.125073 -0.044343 0.292102
0.126688 -0.044421 0.292548
0.128044 -0.044408 0.292381
0.129882 -0.044560 0.293298
0.130719 -0.044369 0.291946
0.132342 -0.044447 0.292349
0.133706 -0.044436 0.292166
0.135292 -0.044499 0.292455
0.136549 -0.044453 0.292020
0.138125 -0.044511 0.292257
0.139625 -0.044544 0.292317
0.141233 -0.044610 0.292585
0.142664 -0.044619 0.292467
0.144426 -0.044731 0.293009
0.145938 -0.044764 0.293024
0.147314 -0.044755 0.292748
0.148798 -0.044778 0.292673
0.150442 -0.044849 0.292895
0.151543 -0.044758 0.292045
0.153152 -0.044818 0.292164
-0.156771 -0.043417 0.294684
-0.155041 -0.043323 0.294296
-0.153342 -0.043236 0.293940
-0.151229 -0.043029 0.292760
-0.149954 -0.043060 0.293175
-0.148641 -0.043080 0.293509
-0.147222 -0.043069 0.293622
-0.145603 -0.042999 0.293320
-0.144105 -0.042965 0.293244
-0.142814 -0.042991 0.293577
-0.141451 -0.042997 0.293754
-0.140341 -0.043080 0.294453
-0.138441 -0.042920 0.293476
-0.137329 -0.043004 0.294158
-0.132120 -0.041793 0.285975
-0.131125 -0.041904 0.286824
-0.127471 -0.041159 0.281804
-0.141581 -0.046195 0.316357
-0.140311 -0.046265 0.316911
-0.134802 -0.045412 0.311175
-0.124124 -0.042273 0.289703
-0.123016 -0.042359 0.290329
-0.121727 -0.042384 0.290527
-0.120383 -0.042391 0.290593
-0.119257 -0.042476 0.291184
-0.117880 -0.042472 0.291163
-0.116462 -0.042453 0.291031
-0.114957 -0.042402 0.290672
-0.113798 -0.042478 0.291184
-0.112419 -0.042474 0.291131
-0.111101 -0.042492 0.291235
-0.109697 -0.042478 0.291108
-0.108203 -0.042428 0.290730
-0.106959 -0.042477 0.291020
-0.105675 -0.042510 0.291204
-0.104309 -0.042511 0.291159
-0.102933 -0.042508 0.291085
-0.101592 -0.042520 0.291105
-0.100487 -0.042632 0.291806
-0.099004 -0.042584 0.291415
-0.097012 -0.042314 0.289492
-0.093972 -0.041572 0.284341
-0.096784 -0.043434 0.297000
-0.095538 -0.043504 0.297393
-0.093887 -0.043388 0.296515
-0.092796 -0.043532 0.297409
-0.091380 -0.043526 0.297272
-0.090029 -0.043550 0.297342
-0.088708 -0.043591 0.297519
-0.087335 -0.043607 0.297525
-0.086106 -0.043696 0.298029
-0.084726 -0.043711 0.298021
-0.083195 -0.043646 0.297472
-0.082195 -0.043863 0.298840
-0.080931 -0.043945 0.299283
-0.079516 -0.043945 0.299173
-0.078289 -0.044052 0.299781
-0.076840 -0.044035 0.299551
-0.075273 -0.043949 0.298845
-0.074348 -0.044242 0.300714
-0.074560 -0.045236 0.307347
-0.068858 -0.042610 0.289388
-0.067566 -0.042661 0.289619
-0.066364 -0.042774 0.290261
-0.065060 -0.042823 0.290479
-0.063734 -0.042860 0.290606
-0.062448 -0.042926 0.290935
-0.061121 -0.042967 0.291090
-0.059747 -0.042975 0.291025
-0.058376 -0.042987 0.290983
-0.056982 -0.042981 0.290827
-0.055569 -0.042961 0.290570
-0.054157 -0.042940 0.290310
-0.052776 -0.042944 0.290219
-0.051430 -0.042977 0.290324
-0.050064 -0.042995 0.290330
-0.048688 -0.043004 0.290281
-0.047306 -0.043009 0.290202
-0.045874 -0.042968 0.289812
-0.044493 -0.042974 0.289740
-0.043180 -0.043047 0.290130
-0.041561 -0.042811 0.288430
-0.040683 -0.043348 0.291943
-0.038715 -0.042720 0.287614
-0.037430 -0.042828 0.288237
-0.035987 -0.042757 0.287662
-0.033721 -0.041663 0.280208
-0.030099 -0.038733 0.260418
-0.028776 -0.038635 0.259683
-0.027485 -0.038574 0.259190
-0.026317 -0.038688 0.259878
-0.025050 -0.038660 0.259616
-0.023802 -0.038662 0.259559
-0.022611 -0.038761 0.260152
-0.021300 -0.038653 0.259365
-0.020291 -0.039114 0.262391
-0.019195 -0.039459 0.264644
-0.018133 -0.039928 0.267728
-0.016777 -0.039770 0.266613
-0.015517 -0.039833 0.266985
-0.014331 -0.040116 0.268830
-0.013026 -0.040088 0.268590
-0.011750 -0.040154 0.268991
-0.010461 -0.040185 0.269155
-0.009128 -0.040037 0.268125
-0.007828 -0.040003 0.267864
-0.006536 -0.040005 0.267852
-0.005232 -0.039926 0.267295
-0.003952 -0.040032 0.267976
-0.002643 -0.039799 0.266396
-0.001364 -0.040002 0.267737
-0.000071 -0.039901 0.267051
0.001216 -0.039807 0.266408
0.002511 -0.039928 0.267213
0.003793 -0.039834 0.266578
0.005081 -0.039841 0.266630
0.006277 -0.039266 0.262786
0.007497 -0.039008 0.261064
0.008764 -0.039031 0.261228
0.009989 -0.038888 0.260281
0.011251 -0.038905 0.260417
0.012532 -0.038974 0.260896
0.013785 -0.038955 0.260794
0.015054 -0.038979 0.260979
0.016336 -0.039029 0.261342
0.017618 -0.039073 0.261670
0.019005 -0.039328 0.263413
0.020327 -0.039426 0.264112
0.021657 -0.039526 0.264822
0.022869 -0.039410 0.264091
0.024189 -0.039485 0.264639
0.025566 -0.039639 0.265722
0.026785 -0.039545 0.265146
0.028160 -0.039681 0.266114
0.029298 -0.039484 0.264850
0.030533 -0.039429 0.264542
0.031878 -0.039515 0.265186
0.032904 -0.039214 0.263231
0.034130 -0.039165 0.262966
0.035307 -0.039065 0.262363
0.036440 -0.038924 0.261491
0.037654 -0.038877 0.261247
0.038940 -0.038906 0.261512
0.039947 -0.038661 0.259944
0.041255 -0.038715 0.260382
0.042627 -0.038823 0.261189
0.042883 -0.037938 0.255316
0.043934 -0.037786 0.254370
0.045387 -0.037978 0.255746
0.046552 -0.037926 0.255476
0.047644 -0.037818 0.254832
0.048972 -0.037899 0.255457
0.050162 -0.037871 0.255355
0.051399 -0.037879 0.255492
0.052738 -0.037960 0.256125
0.053847 -0.037876 0.255641
0.055151 -0.037929 0.256089
0.056546 -0.038041 0.256931
0.060580 -0.039887 0.269488
0.061950 -0.039938 0.269920
0.063241 -0.039936 0.269998
0.064663 -0.040016 0.270628
0.066083 -0.040091 0.271227
0.067261 -0.040020 0.270832
0.068523 -0.040000 0.270785
0.069619 -0.039886 0.270097
0.070670 -0.039751 0.269267
0.071486 -0.039490 0.267585
0.072651 -0.039428 0.267247
0.073910 -0.039419 0.267265
0.075169 -0.039410 0.267279
0.076274 -0.039321 0.266756
0.077493 -0.039294 0.266644
0.078867 -0.039345 0.267059
0.080067 -0.039308 0.266880
0.081522 -0.039396 0.267544
0.082738 -0.039367 0.267414
0.084140 -0.039427 0.267881
0.085742 -0.039576 0.268958
0.086734 -0.039445 0.268120
0.096331 -0.043173 0.293520
0.097577 -0.043106 0.293118
0.098773 -0.043019 0.292575
0.099493 -0.042730 0.290655
0.101554 -0.043016 0.292646
0.103155 -0.043103 0.293272
0.104469 -0.043069 0.293075
0.105640 -0.042977 0.292482
0.106946 -0.042943 0.292270
0.108322 -0.042937 0.292247
0.109508 -0.042857 0.291715
0.110843 -0.042836 0.291580
0.112129 -0.042797 0.291318
0.113638 -0.042843 0.291628
0.114983 -0.042827 0.291509
0.116488 -0.042870 0.291787
0.117812 -0.042846 0.291602
0.119733 -0.043038 0.292875
0.120826 -0.042931 0.292110
0.122063 -0.042876 0.291696
0.123626 -0.042937 0.292055
0.124799 -0.042862 0.291486
0.126276 -0.042892 0.291621
0.127510 -0.042839 0.291190
0.129262 -0.042960 0.291927
0.130667 -0.042964 0.291862
0.131848 -0.042895 0.291293
0.133407 -0.042950 0.291551
0.134619 -0.042892 0.291041
0.136300 -0.042984 0.291532
0.137820 -0.043024 0.291658
0.139350 -0.043065 0.291791
0.140906 -0.043114 0.291959
0.142580 -0.043198 0.292352
0.144291 -0.043291 0.292795
0.145880 -0.043346 0.292968
0.147176 -0.043314 0.292539
0.148860 -0.043396 0.292866
0.149890 -0.043287 0.291893
0.151614 -0.043379 0.292260
0.152999 -0.043373 0.291951
-0.156653 -0.041982 0.294532
-0.155197 -0.041965 0.294658
-0.152938 -0.041728 0.293230
-0.151282 -0.041653 0.292921
-0.149999 -0.041681 0.293321
-0.148789 -0.041729 0.293856
-0.147226 -0.041678 0.293683
-0.145873 -0.041687 0.293912
-0.144472 -0.041682 0.294036
-0.143074 -0.041678 0.294154
-0.141582 -0.041645 0.294065
-0.139282 -0.041373 0.292266
-0.138676 -0.041603 0.294010
-0.136639 -0.041405 0.292713
-0.133852 -0.040972 0.289752
-0.131144 -0.040556 0.286892
-0.129995 -0.040617 0.287406
-0.140112 -0.044707 0.316484
-0.124171 -0.040921 0.289824
-0.122830 -0.040928 0.289898
-0.121588 -0.040968 0.290204
-0.120257 -0.040978 0.290293
-0.119025 -0.041022 0.290619
-0.117722 -0.041044 0.290771
-0.116397 -0.041058 0.290868
-0.115172 -0.041108 0.291212
-0.113764 -0.041093 0.291090
-0.112511 -0.041134 0.291361
-0.111014 -0.041087 0.290997
-0.109615 -0.041074 0.290876
-0.108245 -0.041072 0.290827
-0.107007 -0.041122 0.291134
-0.105703 -0.041146 0.291261
-0.104319 -0.041141 0.291166
-0.102988 -0.041156 0.291216
-0.101706 -0.041191 0.291404
-0.100386 -0.041212 0.291485
-0.098378 -0.040947 0.289542
-0.097233 -0.041039 0.290118
-0.094527 -0.040465 0.285987
-0.096453 -0.041886 0.295948
-0.095212 -0.041954 0.296340
-0.093856 -0.041971 0.296376
-0.092755 -0.042106 0.297234
-0.091361 -0.042110 0.297164
-0.089911 -0.042087 0.296905
-0.088639 -0.042148 0.297237
-0.087148 -0.042106 0.296837
-0.085652 -0.042060 0.296405
-0.084488 -0.042178 0.297129
-0.083146 -0.042210 0.297243
-0.082347 -0.042523 0.299336
-0.081024 -0.042572 0.299563
-0.079742 -0.042645 0.299958
-0.078775 -0.042892 0.301576
-0.077014 -0.042707 0.300160
-0.075586 -0.042704 0.300018
-0.074370 -0.042823 0.300733
-0.074372 -0.043662 0.306498
-0.068883 -0.041247 0.289420
-0.067733 -0.041384 0.290261
-0.066483 -0.041464 0.290704
-0.065137 -0.041487 0.290744
-0.063836 -0.041540 0.290992
-0.062472 -0.041554 0.290965
-0.061140 -0.041589 0.291094
-0.059792 -0.041617 0.291162
-0.058213 -0.041480 0.290083
-0.056882 -0.041517 0.290224
-0.055480 -0.041504 0.290014
-0.054080 -0.041492 0.289806
-0.052701 -0.041495 0.289708
-0.051322 -0.041498 0.289615
-0.049782 -0.041369 0.288595
-0.048507 -0.041458 0.289101
-0.047199 -0.041523 0.289445
-0.045779 -0.041492 0.289115
-0.044449 -0.041542 0.289351
-0.043114 -0.041591 0.289584
-0.041681 -0.041545 0.289153
-0.040452 -0.041707 0.290177
-0.038537 -0.041147 0.286182
-0.037358 -0.041362 0.287573
-0.035928 -0.041304 0.287072
-0.034322 -0.041032 0.285085
-0.030243 -0.037657 0.261550
-0.028744 -0.037343 0.259288
-0.027501 -0.037347 0.259234
-0.026322 -0.037442 0.259820
-0.025052 -0.037412 0.259535
-0.023792 -0.037393 0.259331
-0.022581 -0.037455 0.259688
-0.021348 -0.037484 0.259824
-0.020309 -0.037881 0.262508
-0.019250 -0.038288 0.265270
-0.018156 -0.038682 0.267940
-0.016837 -0.038617 0.267430
-0.015627 -0.038816 0.268751
-0.014404 -0.039012 0.270059
-0.013133 -0.039107 0.270667
-0.011856 -0.039202 0.271278
-0.010551 -0.039215 0.271330
-0.009140 -0.038784 0.268309
-0.008013 -0.039617 0.274035
-0.006692 -0.039626 0.274069
-0.005369 -0.039631 0.274072
-0.004046 -0.039638 0.274094
-0.002718 -0.039580 0.273675
-0.001392 -0.039472 0.272907
-0.000074 -0.039448 0.272728
0.001231 -0.039041 0.269907
0.002512 -0.038688 0.267460
0.003786 -0.038502 0.266168
0.005064 -0.038439 0.265732
0.006282 -0.038036 0.262950
0.007516 -0.037852 0.261687
0.008786 -0.037874 0.261851
0.010041 -0.037833 0.261578
0.011278 -0.037741 0.260960
0.012546 -0.037763 0.261137
0.013858 -0.037901 0.262109
0.015150 -0.037962 0.262561
0.016390 -0.037898 0.262145
0.017743 -0.038082 0.263456
0.019052 -0.038155 0.263996
0.020294 -0.038092 0.263601
0.021757 -0.038427 0.265959
0.023177 -0.038653 0.267573
0.024582 -0.038831 0.268852
0.025817 -0.038737 0.268255
0.027077 -0.038687 0.267963
0.028305 -0.038597 0.267396
0.029569 -0.038563 0.267220
0.030769 -0.038451 0.266509
0.032021 -0.038412 0.266297
0.033154 -0.038236 0.265145
0.034244 -0.038027 0.263768
0.035491 -0.038000 0.263651
0.036568 -0.037800 0.262333
0.037808 -0.037777 0.262244
0.038994 -0.037702 0.261800
0.040170 -0.037622 0.261322
0.041142 -0.037363 0.259599
0.042359 -0.037333 0.259475
0.043132 -0.036926 0.256725
0.044059 -0.036670 0.255023
0.045411 -0.036772 0.255814
0.046578 -0.036722 0.255553
0.047773 -0.036696 0.255458
0.049103 -0.036773 0.256076
0.050266 -0.036724 0.255819
0.051580 -0.036785 0.256331
0.052967 -0.036894 0.257178
