ply
format ascii 1.0
element vertex 1745
property float x
property float y
property float z
end_header
-0.028420 0.027199 0.255663
-0.027250 0.027260 0.256151
-0.026029 0.027275 0.256208
-0.024801 0.027282 0.256196
-0.023627 0.027353 0.256784
-0.022398 0.027365 0.256821
-0.021211 0.027434 0.257395
-0.019974 0.027442 0.257393
-0.018736 0.027449 0.257394
-0.017335 0.027201 0.255007
-0.013243 0.029037 0.271990
-0.011166 0.027183 0.254574
-0.009967 0.027272 0.255365
-0.008745 0.027314 0.255721
-0.007505 0.027305 0.255597
-0.006277 0.027348 0.255971
-0.005051 0.027417 0.256587
-0.003818 0.027484 0.257190
-0.002578 0.027544 0.257736
-0.001331 0.027574 0.257993
-0.000081 0.027608 0.258301
0.001171 0.027625 0.258450
0.002441 0.027835 0.260405
0.003853 0.028961 0.270936
0.005165 0.028958 0.270914
0.006477 0.028955 0.270887
0.007570 0.028140 0.263274
0.008837 0.028112 0.263027
0.010104 0.028090 0.262839
0.011207 0.027669 0.258914
0.012491 0.027734 0.259544
0.013773 0.027783 0.260037
0.015052 0.027819 0.260400
0.016328 0.027843 0.260664
0.017574 0.027816 0.260446
0.019039 0.028116 0.263299
0.020373 0.028198 0.264109
0.021708 0.028271 0.264846
0.023516 0.028917 0.270946
0.024892 0.028992 0.271705
0.025174 0.027850 0.261055
0.026126 0.027521 0.258034
0.027300 0.027446 0.257396
0.028557 0.027457 0.257562
0.029751 0.027409 0.257182
0.030985 0.027401 0.257172
0.032191 0.027369 0.256945
0.033500 0.027424 0.257537
0.034751 0.027429 0.257660
0.036041 0.027463 0.258064
0.037550 0.027657 0.259964
0.039055 0.027834 0.261719
0.040368 0.027869 0.262129
0.041739 0.027939 0.262886
0.042906 0.027873 0.262354
0.044254 0.027925 0.262935
0.045432 0.027870 0.262512
0.046740 0.027895 0.262845
0.048030 0.027909 0.263072
0.048948 0.027711 0.261302
0.050415 0.027826 0.262487
0.051660 0.027816 0.262492
0.052915 0.027811 0.262548
0.054374 0.027912 0.263598
0.055628 0.027905 0.263638
0.057032 0.027972 0.264371
0.058605 0.028116 0.265843
0.060312 0.028318 0.267858
0.061748 0.028387 0.268612
0.063143 0.028434 0.269164
0.064350 0.028397 0.268912
0.065727 0.028434 0.269373
0.067010 0.028430 0.269440
0.068274 0.028418 0.269431
0.069554 0.028414 0.269489
0.070821 0.028404 0.269496
0.072085 0.028393 0.269493
0.073253 0.028345 0.269142
0.074610 0.028371 0.269487
0.076040 0.028424 0.270081
0.077432 0.028460 0.270522
0.078852 0.028505 0.271046
0.080287 0.028555 0.271608
0.081508 0.028527 0.271437
0.082995 0.028593 0.272147
0.084391 0.028625 0.272540
0.085719 0.028634 0.272704
0.087111 0.028663 0.273064
0.088739 0.028768 0.274140
0.090300 0.028849 0.274982
0.095203 0.029979 0.285831
0.096408 0.029930 0.285432
0.098681 0.030208 0.288157
0.099906 0.030163 0.287787
0.101447 0.030213 0.288323
0.102906 0.030238 0.288613
0.104046 0.030169 0.288009
0.105309 0.030137 0.287751
0.106579 0.030108 0.287516
0.107742 0.030050 0.286998
0.108660 0.029926 0.285845
0.109653 0.029826 0.284909
0.111294 0.029901 0.285652
0.112471 0.029852 0.285196
0.123519 0.030915 0.295326
0.124726 0.030865 0.294823
0.122865 0.030065 0.287153
0.124222 0.030062 0.287080
0.127301 0.030471 0.290937
0.128144 0.030342 0.289645
0.130245 0.030509 0.291184
0.131596 0.030500 0.291022
0.132651 0.030423 0.290204
0.134162 0.030451 0.290378
0.135596 0.030461 0.290375
0.136810 0.030422 0.289890
0.138303 0.030445 0.289988
0.139685 0.030443 0.289842
0.142985 0.030856 0.293624
0.143837 0.030737 0.292336
0.144834 0.030650 0.291353
0.146625 0.030732 0.291954
0.147755 0.030676 0.291225
0.149145 0.030673 0.291001
0.150506 0.030665 0.290707
0.151839 0.030651 0.290348
-0.040390 0.010591 0.097518
-0.042462 0.011263 0.103694
-0.042560 0.011420 0.105135
-0.042674 0.011585 0.106645
-0.042600 0.011702 0.107716
-0.042328 0.011767 0.108301
-0.041972 0.011810 0.108683
-0.041771 0.011899 0.109478
-0.041887 0.012081 0.111132
-0.042202 0.012326 0.113363
-0.042310 0.012515 0.115084
-0.042007 0.012587 0.115715
-0.041736 0.012670 0.116451
-0.041568 0.012787 0.117496
-0.042578 0.013274 0.121941
-0.042866 0.013547 0.124407
-0.042980 0.013771 0.126431
-0.042502 0.013809 0.126743
-0.042352 0.013957 0.128055
-0.042430 0.014185 0.130105
-0.042454 0.014401 0.132042
-0.042409 0.014601 0.133821
-0.042369 0.014807 0.135665
-0.042388 0.015042 0.137761
-0.042514 0.015322 0.140270
-0.042433 0.015535 0.142166
-0.042402 0.015773 0.144289
-0.042470 0.016057 0.146826
-0.042841 0.016467 0.150509
-0.042864 0.016755 0.153074
-0.043015 0.017103 0.156188
-0.043178 0.017468 0.159458
-0.043051 0.017727 0.161750
-0.043000 0.018028 0.164417
-0.042937 0.018334 0.167135
-0.042750 0.018598 0.169466
-0.042664 0.018917 0.172291
-0.042570 0.019244 0.175194
-0.042629 0.019656 0.178855
-0.042578 0.020032 0.182199
-0.042505 0.020414 0.185579
-0.042247 0.020721 0.188284
-0.042211 0.021152 0.192116
-0.042199 0.021615 0.196228
-0.042011 0.022007 0.199693
-0.041568 0.022280 0.202076
-0.041219 0.022618 0.205047
-0.040688 0.022870 0.207235
-0.040250 0.023188 0.210023
-0.040242 0.023776 0.215255
-0.041963 0.025444 0.230251
-0.040912 0.025476 0.230437
-0.040811 0.026117 0.236131
-0.040392 0.026586 0.240261
-0.039975 0.027084 0.244657
-0.039681 0.027697 0.250087
-0.039573 0.028483 0.257078
-0.039050 0.029010 0.261729
-0.038677 0.029689 0.267744
-0.038241 0.030363 0.273715
-0.036805 0.030264 0.272713
-0.034893 0.029752 0.267996
-0.034420 0.030473 0.274395
-0.032941 0.030327 0.272981
-0.029569 0.028354 0.255124
-0.028409 0.028422 0.255652
-0.027180 0.028424 0.255583
-0.025981 0.028459 0.255819
-0.024782 0.028498 0.256089
-0.023583 0.028542 0.256398
-0.022333 0.028525 0.256174
-0.021134 0.028575 0.256551
-0.019948 0.028650 0.257153
-0.018658 0.028575 0.256416
-0.017351 0.028463 0.255346
-0.013636 0.031256 0.280167
-0.011263 0.028663 0.256883
-0.010049 0.028747 0.257589
-0.008801 0.028739 0.257480
-0.007554 0.028734 0.257401
-0.006325 0.028808 0.258033
-0.005084 0.028857 0.258438
-0.003841 0.028912 0.258911
-0.002601 0.029062 0.260234
-0.001346 0.029183 0.261297
-0.000081 0.029345 0.262734
0.001189 0.029299 0.262309
0.002456 0.029259 0.261951
0.003893 0.030577 0.273743
0.005218 0.030574 0.273721
0.006361 0.029720 0.266080
0.007536 0.029279 0.262135
0.008827 0.029348 0.262770
0.010078 0.029283 0.262208
0.011200 0.028902 0.258811
0.012470 0.028939 0.259165
0.013747 0.028985 0.259607
0.015072 0.029115 0.260803
0.016343 0.029129 0.260963
0.017512 0.028972 0.259588
0.019114 0.029505 0.264406
0.020428 0.029555 0.264896
0.021498 0.029264 0.262343
0.023498 0.030203 0.270807
0.024974 0.028878 0.259039
0.026009 0.028638 0.256942
0.027226 0.028611 0.256758
0.028359 0.028501 0.255844
0.029671 0.028574 0.256559
0.030865 0.028531 0.256241
0.032093 0.028521 0.256230
0.033322 0.028513 0.256226
0.034586 0.028534 0.256497
0.035796 0.028512 0.256373
0.037081 0.028548 0.256778
0.039054 0.029094 0.261773
0.040810 0.029449 0.265057
0.042435 0.029691 0.267328
0.043693 0.029670 0.267227
0.044585 0.029408 0.264964
0.046008 0.029502 0.265900
0.047327 0.029525 0.266206
0.048454 0.029430 0.265449
0.049676 0.029397 0.265246
0.050826 0.029324 0.264684
0.052271 0.029420 0.265652
0.053782 0.029547 0.266905
0.054949 0.029485 0.266440
0.056616 0.029687 0.268371
0.058103 0.029788 0.269386
0.059160 0.029669 0.268415
0.060481 0.029684 0.268657
0.061814 0.029705 0.268946
0.063180 0.029740 0.269368
0.064325 0.029672 0.268854
0.065666 0.029695 0.269168
0.067103 0.029759 0.269856
0.068478 0.029795 0.270279
0.069644 0.029739 0.269877
0.071278 0.029882 0.271276
0.073897 0.030425 0.276307
0.075646 0.030598 0.277973
0.076991 0.030603 0.278125
0.078019 0.030485 0.277147
0.079222 0.030437 0.276811
0.080261 0.030330 0.275923
0.082426 0.030644 0.278876
0.083626 0.030595 0.278524
0.084907 0.030577 0.278448
0.086251 0.030582 0.278576
0.087363 0.030505 0.277961
0.088478 0.030432 0.277375
0.090260 0.030587 0.278864
0.091740 0.030637 0.279390
0.096482 0.031759 0.289695
0.097705 0.031707 0.289291
0.099033 0.031690 0.289204
0.100836 0.031824 0.290486
0.102199 0.031817 0.290478
0.103486 0.031786 0.290256
0.104663 0.031724 0.289732
0.105880 0.031674 0.289325
0.107290 0.031683 0.289446
0.108593 0.031661 0.289276
0.109748 0.031596 0.288715
0.110807 0.031506 0.287913
0.112170 0.031503 0.287905
0.112059 0.031091 0.284155
0.114168 0.031298 0.286052
0.115344 0.031247 0.285585
0.124153 0.031758 0.290152
0.125338 0.031707 0.289648
0.127251 0.031840 0.290811
0.129230 0.031986 0.292085
0.130030 0.031840 0.290688
0.131650 0.031896 0.291123
0.132962 0.031877 0.290864
0.134257 0.031854 0.290562
0.135456 0.031809 0.290050
0.136862 0.031813 0.289973
0.138200 0.031802 0.289745
0.139622 0.031809 0.289681
0.140944 0.031794 0.289398
0.144258 0.032224 0.293158
0.144958 0.032068 0.291565
0.146646 0.032131 0.291957
0.147891 0.032096 0.291452
0.149282 0.032094 0.291223
0.150346 0.032022 0.290352
0.151582 0.031987 0.289808
-0.040998 0.011217 0.098987
-0.042977 0.011894 0.104953
-0.042691 0.011952 0.105459
-0.042601 0.012067 0.106464
-0.042389 0.012149 0.107184
-0.042142 0.012224 0.107830
-0.041725 0.012251 0.108049
-0.041665 0.012384 0.109207
-0.041805 0.012580 0.110921
-0.041757 0.012725 0.112175
-0.041953 0.012948 0.114118
-0.040957 0.012805 0.112829
-0.040810 0.012926 0.113876
-0.042231 0.013554 0.119379
-0.042811 0.013926 0.122619
-0.042939 0.014159 0.124632
-0.042805 0.014310 0.125927
-0.042658 0.014461 0.127221
-0.042714 0.014687 0.129166
-0.042644 0.014875 0.130775
-0.042561 0.015064 0.132392
-0.042282 0.015188 0.133436
-0.042118 0.015358 0.134880
-0.042147 0.015605 0.136994
-0.042498 0.015980 0.140238
-0.042440 0.016211 0.142208
-0.042455 0.016478 0.144493
-0.042584 0.016799 0.147244
-0.042617 0.017091 0.149748
-0.042931 0.017509 0.153340
-0.042968 0.017826 0.156047
-0.043107 0.018196 0.159222
-0.043293 0.018600 0.162688
-0.043098 0.018853 0.164822
-0.042882 0.019105 0.166955
-0.042745 0.019402 0.169477
-0.042543 0.019681 0.171836
-0.042460 0.020028 0.174780
-0.042355 0.020377 0.177744
-0.042409 0.020818 0.181514
-0.042397 0.021245 0.185150
-0.042161 0.021575 0.187941
-0.042186 0.022057 0.192048
-0.041972 0.022432 0.195220
-0.041841 0.022868 0.198930
-0.041476 0.023195 0.201681
-0.041043 0.023498 0.204224
-0.040393 0.023689 0.205788
-0.040115 0.024113 0.209373
-0.040211 0.024789 0.215146
-0.040934 0.026595 0.230622
-0.040606 0.027114 0.235012
-0.040510 0.027821 0.241036
-0.040022 0.028292 0.245014
-0.039966 0.029106 0.251962
-0.039796 0.029886 0.258604
-0.039237 0.030414 0.263063
-0.038680 0.030980 0.267848
-0.038054 0.031526 0.272464
-0.036759 0.031537 0.272459
-0.034963 0.031105 0.268618
-0.034303 0.031688 0.273554
-0.032791 0.031500 0.271830
-0.029436 0.029451 0.254063
-0.028232 0.029470 0.254140
-0.026999 0.029461 0.253975
-0.025846 0.029540 0.254577
-0.024644 0.029571 0.254759
-0.023442 0.029603 0.254967
-0.022268 0.029676 0.255520
-0.021037 0.029679 0.255472
-0.019834 0.029723 0.255780
-0.018668 0.029831 0.256651
-0.017439 0.029848 0.256735
-0.013623 0.032583 0.280016
-0.011149 0.029607 0.254396
-0.009921 0.029613 0.254410
-0.008738 0.029773 0.255746
-0.007504 0.029786 0.255824
-0.006276 0.029830 0.256170
-0.005052 0.029923 0.256938
-0.003823 0.030033 0.257861
-0.002572 0.030000 0.257552
-0.001338 0.030297 0.260089
-0.000080 0.030452 0.261406
0.001189 0.030542 0.262167
0.002458 0.030533 0.262080
0.003828 0.031360 0.269176
0.005241 0.032030 0.274934
0.006328 0.030838 0.264704
0.007553 0.030608 0.262739
0.008757 0.030372 0.260725
0.010051 0.030468 0.261563
0.011232 0.030238 0.259612
0.012483 0.030222 0.259496
0.013802 0.030359 0.260698
0.015011 0.030252 0.259806
0.016310 0.030329 0.260502
0.017560 0.030309 0.260366
0.018830 0.030325 0.260544
0.020142 0.030402 0.261254
0.021316 0.030273 0.260188
0.024978 0.030134 0.259157
0.025957 0.029819 0.256499
0.027200 0.029821 0.256582
0.028441 0.029822 0.256648
0.029658 0.029798 0.256512
0.030854 0.029756 0.256216
0.032092 0.029756 0.256285
0.033378 0.029798 0.256728
0.034423 0.029631 0.255359
0.035821 0.029767 0.256612
0.037224 0.029899 0.257831
0.038779 0.030141 0.259998
0.040604 0.030570 0.263784
0.042902 0.031319 0.270335
0.044316 0.031397 0.271101
0.045081 0.031024 0.267976
0.046307 0.030980 0.267689
0.047662 0.031023 0.268155
0.048863 0.030965 0.267751
0.050219 0.031006 0.268206
0.051390 0.030934 0.267680
0.052763 0.030984 0.268212
0.054013 0.030961 0.268111
0.055190 0.030898 0.267665
0.056562 0.030944 0.268169
0.058236 0.031150 0.270061
0.059275 0.031015 0.268988
0.060588 0.031026 0.269187
0.061850 0.031010 0.269153
0.063140 0.031009 0.269248
0.064421 0.031004 0.269307
0.065675 0.030986 0.269250
0.067018 0.031010 0.269560
0.068408 0.031054 0.270048
0.069686 0.031047 0.270086
0.071366 0.031216 0.271653
0.073850 0.031724 0.276174
0.075598 0.031904 0.277839
0.076943 0.031910 0.277992
0.077837 0.031732 0.276536
0.078901 0.031628 0.275727
0.080212 0.031625 0.275792
0.081718 0.031698 0.276514
0.083123 0.031730 0.276882
0.084306 0.031677 0.276506
0.085390 0.031589 0.275825
0.086844 0.031639 0.276338
0.087954 0.031563 0.275758
0.089971 0.031811 0.277998
0.091924 0.032029 0.279976
0.095764 0.032889 0.287562
0.096978 0.032835 0.287161
0.098992 0.033050 0.289105
0.100633 0.033137 0.289921
0.102144 0.033178 0.290340
0.103512 0.033173 0.290344
0.104539 0.033060 0.289402
0.105973 0.033077 0.289593
0.107499 0.033121 0.290021
0.108880 0.033121 0.290049
0.110202 0.033102 0.289915
0.111494 0.033076 0.289704
0.112422 0.032943 0.288558
0.113651 0.032900 0.288194
0.114303 0.032694 0.286390
0.115231 0.032570 0.285305
0.116403 0.032518 0.284835
0.125286 0.033069 0.289517
0.125591 0.032788 0.287003
0.128007 0.033058 0.289306
0.129977 0.033208 0.290550
0.131218 0.033170 0.290147
0.132495 0.033143 0.289821
0.133869 0.033140 0.289697
0.135177 0.033121 0.289426
0.136748 0.033166 0.289703
0.138334 0.033213 0.289996
0.139699 0.033207 0.289807
0.141061 0.033201 0.289605
0.142764 0.033274 0.290083
0.144425 0.033336 0.290453
0.146276 0.033440 0.291178
0.147707 0.033447 0.291044
0.148953 0.033412 0.290535
0.150342 0.033410 0.290294
0.151669 0.033394 0.289923
-0.041223 0.011616 0.098415
-0.040980 0.011679 0.098943
-0.043253 0.012468 0.105629
-0.042828 0.012489 0.105800
-0.042692 0.012595 0.106695
-0.042365 0.012648 0.107126
-0.041969 0.012680 0.107391
-0.041605 0.012723 0.107741
-0.041503 0.012849 0.108787
-0.041932 0.013143 0.111264
-0.042413 0.013462 0.113942
-0.042300 0.013598 0.115070
-0.041915 0.013649 0.115477
-0.041680 0.013751 0.116310
-0.041684 0.013935 0.117842
-0.042000 0.014230 0.120306
-0.042368 0.014551 0.122986
-0.042219 0.014701 0.124219
-0.042423 0.014980 0.126533
-0.042719 0.015300 0.129195
-0.042660 0.015500 0.130841
-0.042517 0.015674 0.132271
-0.042058 0.015736 0.132748
-0.041924 0.015923 0.134277
-0.042099 0.016235 0.136860
-0.042449 0.016625 0.140095
-0.042666 0.016975 0.142989
-0.042480 0.017173 0.144599
-0.042415 0.017428 0.146683
-0.042690 0.017832 0.150028
-0.043080 0.018300 0.153898
-0.043316 0.018717 0.157340
-0.043266 0.019023 0.159839
-0.043174 0.019321 0.162275
-0.043058 0.019618 0.164701
-0.042820 0.019870 0.166745
-0.042718 0.020196 0.169405
-0.042387 0.020425 0.171244
-0.042290 0.020777 0.174119
-0.042130 0.021111 0.176841
-0.042487 0.021724 0.181888
-0.042457 0.022160 0.185454
-0.042534 0.022671 0.189650
-0.042209 0.022986 0.192197
-0.041842 0.023292 0.194665
-0.041657 0.023715 0.198109
-0.041230 0.024017 0.200539
-0.040749 0.024300 0.202815
-0.040217 0.024567 0.204945
-0.039969 0.025024 0.208668
-0.041897 0.027608 0.230015
-0.040847 0.027643 0.230200
-0.040658 0.028277 0.235384
-0.040373 0.028880 0.240294
-0.040286 0.029663 0.246707
-0.040291 0.030564 0.254091
-0.040006 0.031293 0.260049
-0.039294 0.031725 0.263535
-0.038630 0.032226 0.267589
-0.037872 0.032680 0.271249
-0.036649 0.032751 0.271737
-0.034690 0.032146 0.266614
-0.034018 0.032732 0.271378
-0.032762 0.032781 0.271682
-0.030973 0.032278 0.267421
-0.029977 0.032594 0.269947
-0.028654 0.032567 0.269634
-0.027274 0.032470 0.268747
-0.026106 0.032628 0.269971
-0.024998 0.032882 0.271990
-0.023595 0.032754 0.270853
-0.021895 0.032174 0.265988
-0.020561 0.032094 0.265256
-0.016869 0.032377 0.267402
-0.015585 0.032393 0.267478
-0.014300 0.032408 0.267548
0.001194 0.031902 0.263008
0.002467 0.031899 0.262973
0.003873 0.033040 0.272376
0.005304 0.033751 0.278246
0.006270 0.031821 0.262335
0.007484 0.031584 0.260387
0.008667 0.031306 0.258108
0.009979 0.031502 0.259746
0.011171 0.031318 0.258248
0.012421 0.031318 0.258268
0.013696 0.031375 0.258759
0.014959 0.031397 0.258973
0.016228 0.031427 0.259251
0.017498 0.031455 0.259521
0.018741 0.031433 0.259382
0.020089 0.031580 0.260632
0.021348 0.031576 0.260650
0.025074 0.033169 0.273902
0.024798 0.031158 0.257355
0.025987 0.031092 0.256868
0.027215 0.031076 0.256789
0.028409 0.031025 0.256429
0.029647 0.031023 0.256480
0.030899 0.031036 0.256660
0.032127 0.031025 0.256633
0.033295 0.030958 0.256155
0.034658 0.031071 0.257164
0.035926 0.031094 0.257432
0.037214 0.031132 0.257828
0.038584 0.031234 0.258754
0.040385 0.031668 0.262431
0.042110 0.032017 0.265415
0.043520 0.032114 0.266301
0.044598 0.031966 0.265168
0.045719 0.031857 0.264355
0.047013 0.031871 0.264565
0.048322 0.031894 0.264850
0.049801 0.032025 0.266037
0.050974 0.031958 0.265573
0.052191 0.031920 0.265360
0.053520 0.031952 0.265719
0.054768 0.031935 0.265674
0.055970 0.031892 0.265418
0.057582 0.032080 0.267083
0.058896 0.032097 0.267324
0.060454 0.032243 0.268643
0.061914 0.032332 0.269483
0.063296 0.032377 0.269964
0.064514 0.032339 0.269745
0.065742 0.032306 0.269575
0.067072 0.032324 0.269827
0.068494 0.032385 0.270432
0.069741 0.032362 0.270343
0.071057 0.032372 0.270521
0.072735 0.032543 0.272048
0.074672 0.032822 0.274477
0.075885 0.032779 0.274208
0.076989 0.032690 0.273565
0.078480 0.032767 0.274294
0.079530 0.032659 0.273483
0.080995 0.032723 0.274104
0.082305 0.032723 0.274190
0.083619 0.032724 0.274286
0.085010 0.032755 0.274626
0.086190 0.032705 0.274288
0.087265 0.032618 0.273626
0.088438 0.032568 0.273287
0.090252 0.032753 0.274906
0.095537 0.034174 0.286904
0.096749 0.034119 0.286504
0.099120 0.034468 0.289501
0.099996 0.034295 0.288103
0.101476 0.034331 0.288459
0.102789 0.034310 0.288333
0.103971 0.034246 0.287843
0.105466 0.034286 0.288219
0.107199 0.034401 0.289222
0.108641 0.034421 0.289420
0.110135 0.034457 0.289747
0.111277 0.034383 0.289146
0.112626 0.034374 0.289083
0.114010 0.034376 0.289107
0.115665 0.034458 0.289802
0.116548 0.034312 0.288563
0.116162 0.033799 0.284240
0.119906 0.034486 0.290000
0.121095 0.034430 0.289511
0.125539 0.034136 0.286868
0.125728 0.033818 0.284137
0.128308 0.034144 0.286802
0.131515 0.034627 0.290783
0.132773 0.034593 0.290404
0.133979 0.034546 0.289911
0.135172 0.034496 0.289387
0.136572 0.034500 0.289301
0.137999 0.034510 0.289261
0.139621 0.034569 0.289611
0.140826 0.034524 0.289085
0.143399 0.034811 0.291334
0.144405 0.034717 0.290371
0.146163 0.034803 0.290908
0.147623 0.034818 0.290832
0.148732 0.034750 0.290056
0.150067 0.034736 0.289713
0.151561 0.034758 0.289663
-0.040453 0.011989 0.097673
-0.043209 0.012953 0.105522
-0.042958 0.013027 0.106122
-0.042737 0.013112 0.106811
-0.042394 0.013162 0.107204
-0.042004 0.013197 0.107484
-0.041870 0.013315 0.108432
-0.041616 0.013398 0.109089
-0.041891 0.013655 0.111161
-0.042079 0.013889 0.113051
-0.042180 0.014101 0.114751
-0.041857 0.014174 0.115326
-0.041446 0.014219 0.115667
-0.041186 0.014318 0.116444
-0.041111 0.014485 0.117770
-0.041509 0.014825 0.120504
-0.042210 0.015285 0.124203
-0.042652 0.015662 0.127232
-0.042619 0.015873 0.128908
-0.042580 0.016088 0.130610
-0.042318 0.016224 0.131668
-0.042026 0.016352 0.132663
-0.041797 0.016509 0.133891
-0.041799 0.016763 0.135902
-0.042370 0.017257 0.139858
-0.042590 0.017622 0.142756
-0.042511 0.017872 0.144728
-0.042306 0.018077 0.146329
-0.042406 0.018421 0.149059
-0.042751 0.018885 0.152750
-0.043185 0.019405 0.156892
-0.043091 0.019702 0.159225
-0.043040 0.020029 0.161800
-0.042925 0.020339 0.164227
-0.042648 0.020581 0.166110
-0.042482 0.020887 0.168506
-0.042316 0.021204 0.170993
-0.042220 0.021571 0.173870
-0.042281 0.022033 0.177518
-0.042400 0.022545 0.181562
-0.042541 0.023090 0.185870
-0.042476 0.023544 0.189438
-0.042322 0.023968 0.192759
-0.041955 0.024287 0.195238
-0.041682 0.024677 0.198280
-0.041162 0.024934 0.200258
-0.040652 0.025210 0.202386
-0.040099 0.025472 0.204400
-0.039781 0.025901 0.207747
-0.041881 0.027966 0.224213
-0.040861 0.028001 0.224397
-0.040795 0.028710 0.229973
-0.040561 0.029336 0.234893
-0.040221 0.029920 0.239461
-0.040251 0.030821 0.246571
-0.041383 0.032645 0.261060
-0.040177 0.032682 0.261244
-0.039427 0.033104 0.264512
-0.038841 0.033696 0.269135
-0.038115 0.034203 0.273085
-0.036461 0.033884 0.270434
-0.034921 0.033652 0.268477
-0.033815 0.033836 0.269853
-0.032314 0.033623 0.268060
-0.030944 0.033536 0.267270
-0.029949 0.033864 0.269794
-0.028627 0.033836 0.269481
-0.027248 0.033735 0.268593
-0.026081 0.033899 0.269817
-0.024974 0.034163 0.271834
-0.023572 0.034029 0.270697
-0.021873 0.033427 0.265836
-0.020540 0.033344 0.265103
-0.018754 0.034773 0.276331
-0.016679 0.033293 0.264512
-0.015498 0.033500 0.266096
-0.014156 0.033365 0.264972
0.001194 0.033144 0.262855
0.002460 0.033064 0.262213
0.003955 0.035068 0.278106
0.005300 0.035065 0.278084
0.006227 0.032854 0.260554
0.007403 0.032485 0.257633
0.008661 0.032525 0.257964
0.009916 0.032546 0.258148
0.011168 0.032556 0.258242
0.012411 0.032537 0.258114
0.013674 0.032571 0.258414
0.014943 0.032612 0.258764
0.016194 0.032610 0.258779
0.017454 0.032626 0.258941
0.018677 0.032573 0.258559
0.020022 0.032728 0.259835
0.021281 0.032731 0.259905
0.023743 0.034482 0.273858
0.025052 0.034461 0.273744
0.025275 0.033023 0.262375
0.025952 0.032287 0.256591
0.027211 0.032309 0.256822
0.028437 0.032293 0.256756
0.029554 0.032159 0.255751
0.030820 0.032191 0.256074
0.032055 0.032189 0.256127
0.033226 0.032125 0.255695
0.034434 0.032101 0.255574
0.035612 0.032051 0.255254
0.037133 0.032303 0.257336
0.038797 0.032659 0.260251
0.040239 0.032811 0.261547
0.041365 0.032705 0.260784
0.042562 0.032658 0.260501
0.043792 0.032640 0.260441
0.044977 0.032589 0.260129
0.046181 0.032555 0.259945
0.047458 0.032573 0.260179
0.048868 0.032678 0.261113
0.050031 0.032617 0.260718
0.051369 0.032671 0.261243
0.052924 0.032856 0.262823
0.054271 0.032907 0.263322
0.055375 0.032811 0.262656
0.056831 0.032924 0.263655
0.058399 0.033095 0.265123
0.060095 0.033330 0.267103
0.061964 0.033648 0.269757
0.063330 0.033686 0.270163
0.064590 0.033668 0.270114
0.065820 0.033634 0.269944
0.067133 0.033644 0.270122
0.068477 0.033668 0.270413
0.069914 0.033736 0.271058
0.071258 0.033758 0.271330
0.072791 0.033867 0.272303
0.074384 0.034000 0.273462
0.075317 0.033831 0.272196
0.076438 0.033751 0.271646
0.077799 0.033778 0.271950
0.078640 0.033582 0.270459
0.079818 0.033533 0.270155
0.081197 0.033570 0.270532
0.082300 0.033493 0.269991
0.083825 0.033587 0.270829
0.085158 0.033603 0.271031
0.086866 0.033763 0.272401
0.087753 0.033605 0.271195
0.089602 0.033815 0.272952
0.094463 0.035138 0.283703
0.095662 0.035082 0.283308
0.099244 0.035888 0.289883
0.100244 0.035752 0.288839
0.101620 0.035751 0.288884
0.103154 0.035805 0.289371
0.104219 0.035698 0.288544
0.105533 0.035677 0.288416
0.107323 0.035815 0.289567
0.108579 0.035775 0.289266
0.110087 0.035816 0.289627
0.111396 0.035793 0.289459
0.112688 0.035765 0.289246
0.114047 0.035759 0.289202
0.115754 0.035861 0.290024
0.117235 0.035891 0.290262
0.116660 0.035298 0.285455
0.117908 0.035264 0.285161
0.120944 0.035760 0.289142
0.124733 0.036464 0.294803
0.125941 0.036407 0.294297
0.129427 0.036203 0.292478
0.130622 0.036147 0.291953
0.129612 0.035488 0.286553
0.132819 0.035986 0.290481
0.134322 0.036016 0.290625
0.135234 0.035889 0.289490
0.136866 0.035954 0.289892
0.138276 0.035960 0.289806
0.139731 0.035977 0.289803
0.141941 0.036186 0.291335
0.143615 0.036255 0.291732
0.145118 0.036281 0.291760
0.146303 0.036227 0.291141
0.147873 0.036269 0.291276
0.149058 0.036216 0.290638
0.150710 0.036277 0.290900
0.151845 0.036213 0.290147
-0.043662 0.013437 0.105421
-0.043238 0.013459 0.105593
-0.042976 0.013533 0.106169
-0.042714 0.013608 0.106756
-0.042273 0.013628 0.106900
-0.041914 0.013675 0.107259
-0.041580 0.013731 0.107685
-0.041364 0.013828 0.108433
-0.041699 0.014114 0.110658
-0.042418 0.014539 0.113969
-0.042540 0.014767 0.115740
-0.042592 0.014977 0.117361
-0.041989 0.014959 0.117193
-0.041820 0.015097 0.118246
-0.041651 0.015239 0.119327
-0.041109 0.015246 0.119356
-0.041424 0.015576 0.121903
-0.042370 0.016156 0.126404
-0.042751 0.016534 0.129322
-0.042546 0.016692 0.130523
-0.042343 0.016857 0.131765
-0.041928 0.016940 0.132374
-0.041684 0.017096 0.133548
-0.041771 0.017395 0.135834
-0.042108 0.017809 0.139014
-0.042349 0.018194 0.141970
-0.042324 0.018476 0.144116
-0.042246 0.018744 0.146149
-0.042248 0.019057 0.148527
-0.042548 0.019517 0.152052
-0.042823 0.019981 0.155606
-0.042788 0.020315 0.158136
-0.042904 0.020733 0.161322
-0.042869 0.021092 0.164048
-0.042696 0.021395 0.166332
-0.042468 0.021681 0.168487
-0.042289 0.022004 0.170923
-0.042160 0.022367 0.173663
-0.042156 0.022811 0.177034
-0.042291 0.023350 0.181138
-0.042539 0.023976 0.185906
-0.042380 0.024393 0.189060
-0.042278 0.024863 0.192610
-0.041913 0.025195 0.195096
-0.041647 0.025602 0.198165
-0.041178 0.025902 0.200394
-0.040766 0.026252 0.203013
-0.040261 0.026558 0.205287
-0.040237 0.027204 0.210190
-0.041787 0.028974 0.223773
-0.040769 0.029011 0.223956
-0.040668 0.029720 0.229332
-0.040366 0.030316 0.233836
-0.040273 0.031109 0.239850
-0.041506 0.034000 0.261923
-0.040296 0.034038 0.262107
-0.039807 0.034707 0.267153
-0.039030 0.035160 0.270541
-0.038098 0.035501 0.273059
-0.036887 0.035597 0.273692
-0.034892 0.034915 0.268351
-0.033905 0.035229 0.270667
-0.032484 0.035099 0.269575
-0.031190 0.035101 0.269493
-0.030044 0.035276 0.270752
-0.028602 0.035106 0.269356
-0.027290 0.035084 0.269107
-0.025991 0.035080 0.268993
-0.024807 0.035238 0.270124
-0.023468 0.035181 0.269611
-0.022280 0.035357 0.270885
-0.021279 0.035871 0.274750
-0.020306 0.036503 0.279521
-0.018735 0.036073 0.276165
-0.017296 0.035853 0.274419
-0.015520 0.034837 0.266590
-0.014659 0.035881 0.274520
0.001199 0.034495 0.263564
0.002473 0.034495 0.263555
0.003929 0.036163 0.276293
0.005265 0.036160 0.276271
0.006240 0.034180 0.261149
0.007393 0.033679 0.257328
0.008656 0.033749 0.257876
0.009925 0.033822 0.258453
0.011150 0.033745 0.257877
0.012404 0.033764 0.258046
0.013654 0.033767 0.258096
0.014926 0.033821 0.258539
0.016172 0.033812 0.258502
0.017429 0.033826 0.258640
0.018679 0.033823 0.258659
0.019979 0.033908 0.259348
0.021251 0.033936 0.259611
0.023700 0.035737 0.273433
0.025006 0.035715 0.273319
0.026310 0.035692 0.273200
0.025975 0.033554 0.256890
0.027167 0.033493 0.256486
0.028448 0.033543 0.256923
0.029562 0.033399 0.255888
0.030816 0.033419 0.256110
0.032043 0.033409 0.256099
0.033224 0.033355 0.255752
0.034521 0.033416 0.256292
0.036067 0.033704 0.258581
0.037528 0.033898 0.260144
0.038857 0.033963 0.260724
0.040308 0.034127 0.262069
0.041298 0.033903 0.260430
0.042343 0.033736 0.259230
0.043650 0.033781 0.259664
0.044793 0.033700 0.259132
0.045871 0.033576 0.258264
0.047091 0.033560 0.258230
0.048349 0.033571 0.258404
0.049505 0.033512 0.258042
0.050832 0.033568 0.258569
0.052288 0.033706 0.259724
0.053839 0.033897 0.261288
0.055083 0.033890 0.261330
0.056181 0.033795 0.260694
0.057945 0.034097 0.263118
0.059787 0.034430 0.265786
0.061827 0.034861 0.269213
0.063235 0.034926 0.269812
0.064496 0.034908 0.269770
0.065817 0.034923 0.269983
0.067105 0.034920 0.270058
0.068431 0.034936 0.270281
0.069743 0.034945 0.270445
0.071066 0.034958 0.270646
0.072414 0.034984 0.270937
0.073572 0.034918 0.270518
0.074645 0.034815 0.269811
0.075716 0.034714 0.269119
0.076673 0.034565 0.268052
0.077731 0.034467 0.267369
0.078589 0.034283 0.266031
0.079777 0.034248 0.265834
0.080947 0.034206 0.265585
0.082090 0.034154 0.265256
0.083523 0.034222 0.265857
0.085039 0.034321 0.266700
0.085208 0.033883 0.263357
0.087079 0.034123 0.265290
0.098864 0.037647 0.292816
0.100100 0.037586 0.292404
0.100205 0.037109 0.288746
0.101815 0.037194 0.289457
0.103288 0.037228 0.289765
0.104770 0.037263 0.290085
0.106081 0.037238 0.289926
0.107382 0.037210 0.289737
0.108710 0.037192 0.289623
0.110184 0.037223 0.289889
0.111676 0.037260 0.290193
0.113199 0.037306 0.290560
0.114678 0.037337 0.290803
0.116206 0.037382 0.291155
0.117406 0.037322 0.290682
0.118689 0.037290 0.290415
0.119857 0.037222 0.289867
0.120662 0.037045 0.288458
0.120494 0.036577 0.284774
0.123836 0.037172 0.289364
0.125021 0.037114 0.288862
0.130834 0.037198 0.289230
0.132017 0.037141 0.288699
0.133657 0.037213 0.289157
0.135012 0.037205 0.288983
0.136284 0.037175 0.288626
0.138135 0.037302 0.289475
0.139697 0.037348 0.289693
0.141183 0.037374 0.289738
0.142974 0.037479 0.290386
0.144041 0.037394 0.289549
0.145831 0.037496 0.290153
0.147884 0.037664 0.291244
0.149161 0.037632 0.290786
0.150618 0.037646 0.290664
0.151998 0.037641 0.290380
-0.042477 0.013556 0.102559
-0.043084 0.013907 0.105218
-0.042604 0.013912 0.105250
-0.042285 0.013970 0.105684
-0.041905 0.014009 0.105972
-0.041568 0.014063 0.106375
-0.041237 0.014121 0.106803
-0.040951 0.014196 0.107355
-0.041190 0.014457 0.109314
-0.041686 0.014816 0.112011
-0.042415 0.015268 0.115408
-0.042077 0.015343 0.115949
-0.041488 0.015327 0.115804
-0.041205 0.015425 0.116518
-0.040681 0.015434 0.116562
-0.040356 0.015520 0.117181
-0.041053 0.016007 0.120824
-0.042049 0.016626 0.125461
-0.042298 0.016963 0.127965
-0.042282 0.017202 0.129728
-0.042002 0.017339 0.130722
-0.041725 0.017482 0.131751
-0.041400 0.017607 0.132654
-0.041540 0.017938 0.135100
-0.041830 0.018346 0.138119
-0.042363 0.018874 0.142042
-0.042270 0.019136 0.143959
-0.042159 0.019398 0.145874
-0.042251 0.019763 0.148566
-0.042407 0.020172 0.151578
-0.042688 0.020655 0.155145
-0.042866 0.021104 0.158455
-0.042929 0.021512 0.161448
-0.042971 0.021924 0.164472
-0.042653 0.022164 0.166201
-0.042451 0.022474 0.168457
-0.042233 0.022788 0.170737
-0.041987 0.023099 0.172990
-0.042255 0.023710 0.177490
-0.042564 0.024370 0.182350
-0.042699 0.024955 0.186650
-0.042514 0.025375 0.189705
-0.042195 0.025731 0.192282
-0.041856 0.026091 0.194884
-0.041449 0.026423 0.197277
-0.040986 0.026734 0.199512
-0.040529 0.027064 0.201889
-0.040163 0.027473 0.204848
-0.040104 0.028117 0.209558
-0.041618 0.029925 0.222938
-0.040604 0.029962 0.223120
-0.040539 0.030721 0.228674
-0.040206 0.031313 0.232984
-0.039987 0.032030 0.238220
-0.041699 0.034381 0.255604
-0.040521 0.034420 0.255788
-0.040700 0.035651 0.264828
-0.040012 0.036176 0.268623
-0.039021 0.036452 0.270572
-0.038427 0.037132 0.275512
-0.036638 0.036664 0.271941
-0.034920 0.036236 0.268666
-0.034549 0.037226 0.275912
-0.033007 0.036984 0.274018
-0.031735 0.037036 0.274309
-0.030442 0.037067 0.274451
-0.029146 0.037097 0.274587
-0.027728 0.036968 0.273543
-0.026432 0.036996 0.273668
-0.025173 0.037081 0.274219
-0.024010 0.037327 0.275960
-0.022595 0.037185 0.274836
-0.021257 0.037160 0.274581
-0.020284 0.037814 0.279348
-0.018806 0.037551 0.277338
-0.017498 0.037615 0.277750
-0.015654 0.036440 0.269015
-0.014643 0.037170 0.274350
-0.013397 0.037385 0.275887
-0.011937 0.036990 0.272926
-0.010660 0.037129 0.273910
-0.009352 0.037187 0.274294
-0.007988 0.037006 0.272927
-0.006743 0.037411 0.275882
-0.005437 0.037601 0.277255
-0.004127 0.037870 0.279211
-0.002804 0.038233 0.281867
-0.001439 0.038160 0.281307
-0.000081 0.038672 0.285066
0.001298 0.038673 0.285063
0.002474 0.035761 0.263594
0.003843 0.036661 0.270222
0.005149 0.036658 0.270200
0.006173 0.035052 0.258371
0.007385 0.034878 0.257092
0.008638 0.034917 0.257396
0.009887 0.034931 0.257512
0.011131 0.034929 0.257512
0.012384 0.034950 0.257688
0.013634 0.034961 0.257798
0.014898 0.035001 0.258119
0.016162 0.035035 0.258404
0.017409 0.035031 0.258408
0.018636 0.034990 0.258141
0.019951 0.035109 0.259058
0.021241 0.035171 0.259558
0.023472 0.036698 0.270883
0.024766 0.036676 0.270770
0.026106 0.036722 0.271161
0.025910 0.034704 0.256316
0.027210 0.034784 0.256963
0.028435 0.034765 0.256884
0.029640 0.034723 0.256637
0.030984 0.034841 0.257576
0.032316 0.034937 0.258357
0.033728 0.035110 0.259701
0.035217 0.035347 0.261532
0.036372 0.035244 0.260841
0.037767 0.035373 0.261874
0.039046 0.035388 0.262065
0.040145 0.035244 0.261081
0.041089 0.034976 0.259178
0.042260 0.034913 0.258791
0.043315 0.034759 0.257739
0.044538 0.034745 0.257719
0.045821 0.034778 0.258050
0.046856 0.034625 0.257004
0.048022 0.034575 0.256719
0.049444 0.034706 0.257786
0.050575 0.034632 0.257327
0.052068 0.034803 0.258691
0.053555 0.034963 0.259971
0.054808 0.034965 0.260081
0.056063 0.034969 0.260205
0.057528 0.035101 0.261280
0.059516 0.035539 0.264638
0.061761 0.036110 0.268982
0.063176 0.036182 0.269616
0.064411 0.036149 0.269469
0.065875 0.036244 0.270274
0.067115 0.036215 0.270150
0.068400 0.036210 0.270206
0.069755 0.036241 0.270538
0.070950 0.036191 0.270252
0.071797 0.035967 0.268673
0.072908 0.035881 0.268121
0.073852 0.035717 0.266984
0.074925 0.035621 0.266349
0.075807 0.035438 0.265065
0.076791 0.035307 0.264173
0.077901 0.035239 0.263739
0.078494 0.034942 0.261592
0.079787 0.034961 0.261809
0.081010 0.034949 0.261797
0.082266 0.034952 0.261884
0.083854 0.035093 0.263013
0.084235 0.034733 0.260375
0.085815 0.034870 0.261463
0.086923 0.034814 0.261104
0.098995 0.038545 0.289199
0.100682 0.038663 0.290138
0.101842 0.038578 0.289552
0.103405 0.038647 0.290108
0.104598 0.038576 0.289620
0.105894 0.038546 0.289426
0.107277 0.038547 0.289464
0.108582 0.038520 0.289289
0.110092 0.038566 0.289652
0.111465 0.038564 0.289647
0.113121 0.038658 0.290363
0.114476 0.038648 0.290290
0.115758 0.038614 0.290032
0.117033 0.038578 0.289753
0.118540 0.038619 0.290043
0.120191 0.038706 0.290668
0.121331 0.038627 0.290048
0.122170 0.038456 0.288722
0.122949 0.038269 0.287277
0.123950 0.038155 0.286370
0.125562 0.038230 0.286869
0.132472 0.038647 0.289666
0.133658 0.038589 0.289129
0.135230 0.038643 0.289418
0.137382 0.038860 0.290915
0.138419 0.038760 0.290032
0.140016 0.038817 0.290314
0.141983 0.038975 0.291335
0.143528 0.039015 0.291465
0.144694 0.038952 0.290814
0.145930 0.038909 0.290298
0.147759 0.039023 0.290944
0.148987 0.038978 0.290389
0.150457 0.038996 0.290293
0.151957 0.039021 0.290237
-0.043407 0.014346 0.104803
-0.042984 0.014370 0.104974
-0.042582 0.014401 0.105199
-0.042324 0.014481 0.105784
-0.041835 0.014484 0.105798
-0.041418 0.014512 0.105995
-0.041222 0.014620 0.106768
-0.041195 0.014790 0.108000
-0.041434 0.015061 0.109966
-0.041283 0.015196 0.110935
-0.041146 0.015340 0.111962
-0.040768 0.015396 0.112349
-0.040662 0.015557 0.113506
-0.040468 0.015689 0.114443
-0.040018 0.015724 0.114670
-0.040044 0.015950 0.116288
-0.040136 0.016208 0.118138
-0.041763 0.017102 0.124622
-0.041864 0.017388 0.126669
-0.041725 0.017581 0.128037
-0.041812 0.017876 0.130145
-0.041734 0.018109 0.131797
-0.041699 0.018367 0.133634
-0.041531 0.018574 0.135094
-0.041988 0.019071 0.138660
-0.042017 0.019387 0.140904
-0.042400 0.019879 0.144424
-0.042106 0.020064 0.145718
-0.042218 0.020452 0.148476
-0.042228 0.020803 0.150967
-0.042560 0.021327 0.154711
-0.042799 0.021823 0.158241
-0.042816 0.022220 0.161058
-0.042850 0.022642 0.164044
-0.042641 0.022948 0.166191
-0.042330 0.023209 0.168016
-0.042258 0.023615 0.170877
-0.042102 0.023988 0.173506
-0.042333 0.024601 0.177864
-0.042368 0.025123 0.181557
-0.042580 0.025774 0.186179
-0.042372 0.026192 0.189122
-0.042193 0.026647 0.192325
-0.041829 0.027003 0.194810
-0.041419 0.027345 0.197189
-0.041048 0.027729 0.199873
-0.040630 0.028099 0.202453
-0.040254 0.028517 0.205370
-0.040038 0.029072 0.209277
-0.040399 0.030084 0.216475
-0.040556 0.030994 0.222926
-0.040484 0.031774 0.228440
-0.040123 0.032363 0.232579
-0.040012 0.033194 0.238453
-0.039550 0.033773 0.242516
-0.041446 0.036462 0.261722
-0.040237 0.036502 0.261905
-0.040360 0.037792 0.271052
-0.039750 0.038458 0.275725
-0.038941 0.038972 0.279305
-0.036910 0.038254 0.274062
-0.035040 0.037659 0.269698
-0.034514 0.038516 0.275739
-0.032974 0.038265 0.273846
-0.031182 0.037689 0.269639
-0.029950 0.037769 0.270122
-0.028821 0.037992 0.271630
-0.027199 0.037556 0.268429
-0.025937 0.037599 0.268654
-0.024784 0.037812 0.270098
-0.023571 0.037951 0.271021
-0.022418 0.038211 0.272805
-0.021381 0.038712 0.276308
-0.020061 0.038734 0.276404
-0.018739 0.038753 0.276476
-0.017479 0.038916 0.277572
-0.015514 0.037406 0.266747
-0.014627 0.038455 0.274173
-0.013161 0.038041 0.271173
-0.011924 0.038269 0.272750
-0.010647 0.038413 0.273734
-0.009340 0.038472 0.274117
-0.007978 0.038285 0.272751
-0.006734 0.038704 0.275704
-0.005430 0.038901 0.277075
-0.004121 0.039179 0.279030
-0.002800 0.039555 0.281684
-0.001436 0.039479 0.281125
-0.000079 0.040008 0.284882
0.001200 0.036977 0.263288
0.002472 0.036977 0.263279
0.003875 0.038271 0.272492
0.005192 0.038268 0.272471
0.006310 0.037098 0.264145
0.007369 0.036034 0.256579
0.008619 0.036072 0.256860
0.009885 0.036164 0.257523
0.011110 0.036098 0.257074
0.012348 0.036087 0.257015
0.013604 0.036121 0.257284
0.014868 0.036173 0.257680
0.016122 0.036190 0.257835
0.017407 0.036272 0.258454
0.018632 0.036225 0.258155
0.019907 0.036276 0.258557
0.021329 0.036572 0.260710
0.023738 0.038434 0.274030
0.025046 0.038410 0.273917
0.026082 0.037992 0.270989
0.027372 0.037967 0.270865
0.035185 0.036572 0.261368
0.037258 0.037388 0.267275
0.038510 0.037352 0.267102
0.039576 0.037145 0.265698
0.040460 0.036784 0.263198
0.041515 0.036597 0.261943
0.042337 0.036221 0.259332
0.043244 0.035938 0.257387
0.044393 0.035865 0.256951
0.045345 0.035642 0.255437
0.046444 0.035543 0.254811
0.047640 0.035520 0.254738
0.048928 0.035566 0.255157
0.050257 0.035639 0.255771
0.051586 0.035709 0.256357
0.053127 0.035918 0.257950
0.054626 0.036090 0.259277
0.055955 0.036145 0.259764
0.057566 0.036375 0.261509
0.059465 0.036774 0.264470
0.061644 0.037325 0.268529
0.063039 0.037389 0.269087
0.064401 0.037431 0.269482
0.065798 0.037491 0.270009
0.067154 0.037526 0.270358
0.068442 0.037522 0.270425
0.069749 0.037529 0.270566
0.071030 0.037521 0.270602
0.071752 0.037224 0.268550
0.072485 0.036943 0.266609
0.073671 0.036899 0.266374
0.074679 0.036768 0.265515
0.075611 0.036605 0.264417
0.076334 0.036347 0.262638
0.077155 0.036144 0.261247
0.078077 0.035994 0.260237
0.078973 0.035837 0.259173
0.080131 0.035801 0.258984
0.081397 0.035815 0.259148
0.082358 0.035695 0.258346
0.083442 0.035631 0.257948
0.084755 0.035666 0.258259
0.086161 0.035738 0.258837
0.098151 0.040136 0.290749
0.099378 0.040072 0.290340
0.100518 0.039975 0.289685
0.101663 0.039882 0.289060
0.103135 0.039919 0.289365
0.104733 0.040002 0.290009
0.105827 0.039894 0.289253
0.107274 0.039919 0.289466
0.108740 0.039951 0.289719
0.110152 0.039962 0.289816
0.111470 0.039939 0.289664
0.112815 0.039927 0.289577
0.114284 0.039958 0.289803
0.115329 0.039841 0.288953
0.116617 0.039811 0.288718
0.117275 0.039569 0.286942
0.118203 0.039422 0.285850
0.121570 0.040082 0.290608
0.122595 0.039964 0.289712
0.123727 0.039884 0.289079
0.124763 0.039774 0.288230
0.125503 0.039573 0.286712
0.126678 0.039513 0.286203
0.133600 0.039947 0.288971
0.134189 0.039712 0.287154
0.136763 0.040063 0.289567
0.138424 0.040142 0.290002
0.139530 0.040061 0.289264
0.140784 0.040023 0.288831
0.143275 0.040334 0.290902
0.145039 0.040436 0.291455
0.146479 0.040447 0.291335
0.147931 0.040461 0.291224
0.149411 0.040482 0.291155
0.151173 0.040578 0.291609
0.152542 0.040568 0.291287
-0.043221 0.014777 0.104355
-0.042800 0.014801 0.104525
-0.042552 0.014886 0.105124
-0.042274 0.014962 0.105661
-0.041708 0.014937 0.105479
-0.041500 0.015042 0.106209
-0.041208 0.015118 0.106735
-0.041106 0.015266 0.107771
-0.041460 0.015590 0.110042
-0.041659 0.015862 0.111950
-0.041493 0.016001 0.112912
-0.041119 0.016063 0.113326
-0.040893 0.016184 0.114160
-0.040569 0.016270 0.114739
-0.040082 0.016291 0.114864
-0.040040 0.016497 0.116286
-0.039833 0.016639 0.117258
-0.041068 0.017396 0.122561
-0.041609 0.017877 0.125913
-0.041637 0.018148 0.127784
-0.041511 0.018359 0.129227
-0.041755 0.018742 0.131881
-0.041329 0.018831 0.132467
-0.041546 0.019220 0.135162
-0.041841 0.019659 0.138197
-0.042291 0.020185 0.141848
-0.042369 0.020548 0.144344
-0.042356 0.020878 0.146608
-0.042225 0.021160 0.148530
-0.042285 0.021548 0.151199
-0.042387 0.021972 0.154112
-0.042475 0.022403 0.157076
-0.042614 0.022877 0.160335
-0.042662 0.023319 0.163361
-0.042396 0.023601 0.165275
-0.042477 0.024092 0.168642
-0.042254 0.024425 0.170902
-0.042200 0.024872 0.173951
-0.042083 0.025298 0.176856
-0.042305 0.025949 0.181334
-0.042408 0.026554 0.185479
-0.042343 0.027076 0.189046
-0.042033 0.027461 0.191648
-0.041733 0.027869 0.194418
-0.041424 0.028290 0.197270
-0.041120 0.028735 0.200284
-0.040715 0.029127 0.202934
-0.040320 0.029547 0.205770
-0.040207 0.030199 0.210223
-0.041309 0.031821 0.221420
-0.040301 0.031860 0.221600
-0.040280 0.032702 0.227363
-0.040275 0.033604 0.233539
-0.039654 0.034029 0.236397
-0.039511 0.034902 0.242362
-0.042912 0.040270 0.279417
-0.041536 0.040233 0.279052
-0.039811 0.039844 0.276251
-0.038668 0.040031 0.277447
-0.037284 0.039974 0.276947
-0.035420 0.039378 0.272726
-0.033995 0.039244 0.271698
-0.032939 0.039542 0.273668
-0.031226 0.039043 0.270125
-0.029616 0.038635 0.267222
-0.028385 0.038707 0.267630
-0.026883 0.038399 0.265422
-0.025261 0.037881 0.261763
-0.023848 0.037638 0.260009
-0.022404 0.037316 0.257719
-0.021181 0.037347 0.257864
-0.019885 0.037245 0.257095
-0.018643 0.037237 0.256981
-0.017522 0.037488 0.258652
-0.016927 0.038986 0.268931
-0.015371 0.038339 0.264408
-0.014153 0.038495 0.265432
-0.013066 0.039070 0.269353
-0.011771 0.039085 0.269411
-0.010100 0.037697 0.259798
-0.008834 0.037646 0.259415
-0.007552 0.037494 0.258329
-0.006300 0.037467 0.258118
-0.005053 0.037459 0.258037
-0.003820 0.037581 0.258850
-0.002572 0.037605 0.258995
-0.001323 0.037659 0.259348
-0.000071 0.038133 0.262600
0.001197 0.038106 0.262402
0.002475 0.038266 0.263498
0.003811 0.038910 0.267934
0.005187 0.039530 0.272203
0.006523 0.039658 0.273091
0.007377 0.037306 0.256896
0.008635 0.037377 0.257397
0.009881 0.037385 0.257466
0.011107 0.037324 0.257068
0.012378 0.037413 0.257697
0.013617 0.037395 0.257601
0.014869 0.037414 0.257756
0.016165 0.037532 0.258599
0.017423 0.037552 0.258774
0.018737 0.037679 0.259686
0.020017 0.037729 0.260067
0.021227 0.037648 0.259551
0.022564 0.037787 0.260556
0.025022 0.039691 0.273737
0.035114 0.037752 0.260920
0.036369 0.037750 0.260975
0.037577 0.037700 0.260704
0.038947 0.037811 0.261550
0.040202 0.037806 0.261595
0.041436 0.037783 0.261517
0.042512 0.037621 0.260479
0.043250 0.037178 0.257494
0.044156 0.036899 0.255646
0.045065 0.036639 0.253926
0.046227 0.036593 0.253688
0.047431 0.036580 0.253686
0.048659 0.036587 0.253820
0.049981 0.036662 0.254429
0.051385 0.036793 0.255424
0.052805 0.036928 0.256451
0.054313 0.037117 0.257855
0.055742 0.037245 0.258835
0.057379 0.037504 0.260723
0.059457 0.038033 0.264492
0.061586 0.038572 0.268336
0.063104 0.038714 0.269419
0.064389 0.038711 0.269489
0.065845 0.038808 0.270257
0.067170 0.038825 0.270474
0.068464 0.038825 0.270562
0.069712 0.038799 0.270470
0.070871 0.038725 0.270047
0.071717 0.038486 0.268466
0.072149 0.038037 0.265418
0.073343 0.037998 0.265231
0.074658 0.038022 0.265479
0.075051 0.037583 0.262498
0.075846 0.037357 0.260996
0.076570 0.037104 0.259302
0.077367 0.036894 0.257905
0.078491 0.036843 0.257620
0.079566 0.036771 0.257189
0.080778 0.036764 0.257205
0.081932 0.036732 0.257039
0.082890 0.036613 0.256266
0.084381 0.036730 0.257144
0.086241 0.037002 0.259099
0.096799 0.040945 0.286768
0.098011 0.040880 0.286365
0.100022 0.041146 0.288274
0.101491 0.041185 0.288588
0.103085 0.041272 0.289242
0.104764 0.041391 0.290109
0.105890 0.041291 0.289438
0.107374 0.041331 0.289743
0.108830 0.041359 0.289965
0.110025 0.041289 0.289489
0.111507 0.041327 0.289763
0.112977 0.041360 0.289995
0.114446 0.041391 0.290213
0.115581 0.041302 0.289581
0.117150 0.041369 0.290033
0.118482 0.041351 0.289887
0.120058 0.041418 0.290326
0.121192 0.041332 0.289692
0.122339 0.041253 0.289091
0.123665 0.041235 0.288918
0.124851 0.041172 0.288414
0.126261 0.041182 0.288422
0.126484 0.040810 0.285740
0.127656 0.040748 0.285227
0.135320 0.041425 0.289538
0.136509 0.041365 0.288988
0.139031 0.041706 0.291230
0.140837 0.041828 0.291928
0.141898 0.041728 0.291066
0.143719 0.041851 0.291752
0.144960 0.041805 0.291242
0.145872 0.041665 0.290070
0.147752 0.041802 0.290812
0.148915 0.041736 0.290124
0.150572 0.041808 0.290385
0.152781 0.042030 0.291673
-0.042067 0.014861 0.101567
-0.042996 0.015364 0.105004
-0.042544 0.015378 0.105105
-0.041920 0.015331 0.104777
-0.041595 0.015393 0.105195
-0.041108 0.015396 0.105208
-0.040710 0.015432 0.105450
-0.040701 0.015619 0.106715
-0.041162 0.015993 0.109256
-0.041496 0.016327 0.111521
-0.040970 0.016326 0.111499
-0.040672 0.016417 0.112102
-0.040843 0.016703 0.114031
-0.040780 0.016899 0.115348
-0.040481 0.017001 0.116019
-0.040269 0.017144 0.116964
-0.039863 0.017206 0.117360
-0.040292 0.017636 0.120261
-0.040984 0.018195 0.124037
-0.041429 0.018658 0.127162
-0.041670 0.019042 0.129739
-0.041639 0.019311 0.131533
-0.041358 0.019472 0.132582
-0.041547 0.019861 0.135188
-0.041926 0.020354 0.138501
-0.042210 0.020817 0.141599
-0.042417 0.021256 0.144534
-0.042314 0.021551 0.146489
-0.042338 0.021922 0.148956
-0.042316 0.022282 0.151341
-0.042184 0.022595 0.153408
-0.042221 0.023010 0.156168
-0.042214 0.023417 0.158863
-0.042425 0.023961 0.162492
-0.042580 0.024493 0.166030
-0.042491 0.024902 0.168737
-0.042229 0.025224 0.170844
-0.042065 0.025618 0.173439
-0.041998 0.026088 0.176548
-0.042278 0.026796 0.181268
-0.042415 0.027442 0.185557
-0.042368 0.027994 0.189208
-0.041991 0.028347 0.191514
-0.041642 0.028734 0.194050
-0.041446 0.029248 0.197433
-0.041098 0.029675 0.200234
-0.040693 0.030081 0.202889
-0.040377 0.030575 0.206129
-0.040116 0.031135 0.209818
-0.040226 0.032019 0.215687
-0.040308 0.032926 0.221709
-0.040539 0.034009 0.228903
-0.040073 0.034549 0.232448
-0.039668 0.035175 0.236563
-0.039182 0.035764 0.240431
-0.043643 0.042319 0.284279
-0.042327 0.042364 0.284471
-0.040958 0.042357 0.284318
-0.039234 0.041971 0.281620
-0.037006 0.040997 0.274987
-0.035349 0.040608 0.272282
-0.034010 0.040569 0.271926
-0.032776 0.040656 0.272423
-0.031495 0.040692 0.272569
-0.029584 0.039879 0.267042
-0.026998 0.038042 0.254662
-0.025919 0.038257 0.256022
-0.024656 0.038206 0.255607
-0.023596 0.038481 0.257377
-0.022388 0.038533 0.257654
-0.021203 0.038633 0.258252
-0.019991 0.038693 0.258591
-0.018777 0.038755 0.258947
-0.017678 0.039082 0.261072
-0.016920 0.040271 0.268955
-0.015218 0.039224 0.261906
-0.014249 0.040047 0.267356
-0.013071 0.040390 0.269591
-0.011360 0.038980 0.260142
-0.010204 0.039358 0.262622
-0.008927 0.039313 0.262285
-0.007590 0.038944 0.259790
-0.006333 0.038925 0.259632
-0.005075 0.038886 0.259344
-0.003829 0.038939 0.259676
-0.002582 0.039034 0.260286
-0.001324 0.038999 0.260040
-0.000069 0.039452 0.263047
0.001205 0.039577 0.263871
0.002472 0.039476 0.263188
0.003778 0.039843 0.265634
0.005115 0.040270 0.268479
0.006518 0.040933 0.272903
0.007403 0.038670 0.257826
0.008635 0.038614 0.257463
0.009887 0.038645 0.257680
0.011116 0.038591 0.257335
0.012357 0.038587 0.257334
0.013620 0.038643 0.257730
0.014893 0.038717 0.258251
0.016153 0.038748 0.258485
0.017557 0.039096 0.260840
0.018815 0.039092 0.260852
0.020058 0.039059 0.260671
0.021342 0.039107 0.261035
0.022589 0.039085 0.260933
0.035697 0.039653 0.265325
0.036942 0.039617 0.265160
0.038132 0.039527 0.264633
0.039331 0.039451 0.264201
0.040416 0.039270 0.263063
0.041705 0.039291 0.263289
0.042759 0.039097 0.262064
0.043487 0.038623 0.258972
0.044016 0.038005 0.254910
0.045120 0.037903 0.254305
0.046287 0.037857 0.254083
0.047393 0.037766 0.253552
0.048717 0.037847 0.254186
0.049968 0.037871 0.254429
0.051153 0.037844 0.254334
0.052708 0.038085 0.256044
0.054177 0.038255 0.257273
0.055730 0.038474 0.258838
0.057138 0.038587 0.259685
