ply
format ascii 1.0
element vertex 1680
property float x
property float y
property float z
end_header
-0.076981 -0.012289 0.288662
-0.075725 -0.012308 0.288963
-0.074388 -0.012314 0.288963
-0.073128 -0.012333 0.289274
-0.072156 -0.012402 0.290760
-0.072791 -0.012755 0.298904
-0.068742 -0.012286 0.287766
-0.067667 -0.012340 0.288886
-0.066360 -0.012353 0.289045
-0.065065 -0.012368 0.289274
-0.063768 -0.012385 0.289511
-0.062446 -0.012396 0.289647
-0.061163 -0.012417 0.289979
-0.059780 -0.012417 0.289851
-0.058528 -0.012446 0.290377
-0.056958 -0.012406 0.289315
-0.052956 -0.012442 0.289742
-0.040078 -0.012327 0.285926
-0.038288 -0.012196 0.282765
-0.036974 -0.012212 0.283021
-0.035751 -0.012260 0.284033
-0.034376 -0.012259 0.283886
-0.030164 -0.011203 0.259347
-0.028865 -0.011185 0.258828
-0.027609 -0.011182 0.258682
-0.026412 -0.011205 0.259112
-0.025159 -0.011205 0.259030
-0.023896 -0.011200 0.258829
-0.022697 -0.011226 0.259357
-0.021439 -0.011225 0.259245
-0.020122 -0.011190 0.258376
-0.019024 -0.011281 0.260403
-0.018447 -0.011716 0.270372
-0.017085 -0.011680 0.269490
-0.015727 -0.011642 0.268553
-0.014818 -0.011959 0.275805
-0.013087 -0.011611 0.267718
-0.011619 -0.011444 0.263825
-0.010224 -0.011316 0.260832
-0.009015 -0.011389 0.262462
-0.007689 -0.011313 0.260680
-0.006425 -0.011316 0.260712
-0.005182 -0.011367 0.261852
-0.003925 -0.011409 0.262803
-0.002658 -0.011450 0.263724
-0.001385 -0.011520 0.265313
-0.000096 -0.011607 0.267303
0.001206 -0.011640 0.268063
0.002507 -0.011629 0.267800
0.006252 -0.011340 0.261153
0.007464 -0.011254 0.259169
0.008718 -0.011247 0.259013
0.009953 -0.011219 0.258406
0.011199 -0.011209 0.258193
0.012473 -0.011226 0.258602
0.013708 -0.011209 0.258230
0.015009 -0.011242 0.259043
0.016287 -0.011256 0.259400
0.017580 -0.011277 0.259923
0.018900 -0.011311 0.260747
0.020206 -0.011333 0.261300
0.021833 -0.011522 0.265709
0.023109 -0.011515 0.265601
0.023979 -0.011317 0.261089
0.024824 -0.011128 0.256787
0.026070 -0.011128 0.256847
0.027328 -0.011133 0.257023
0.028570 -0.011131 0.257049
0.029786 -0.011119 0.256853
0.031060 -0.011130 0.257160
0.032299 -0.011127 0.257178
0.033601 -0.011146 0.257687
0.034821 -0.011137 0.257558
0.036158 -0.011164 0.258284
0.037613 -0.011225 0.259779
0.039333 -0.011359 0.262960
0.040971 -0.011461 0.265424
0.042309 -0.011476 0.265862
0.043726 -0.011511 0.266760
0.045138 -0.011542 0.267586
0.046483 -0.011555 0.267988
0.047879 -0.011580 0.268658
0.049118 -0.011566 0.268446
0.050514 -0.011589 0.269089
0.051964 -0.011623 0.269983
0.053224 -0.011614 0.269880
0.054556 -0.011621 0.270143
0.055859 -0.011621 0.270255
0.057202 -0.011629 0.270562
0.058650 -0.011658 0.271346
0.060150 -0.011696 0.272338
0.061312 -0.011668 0.271790
0.062451 -0.011637 0.271175
0.063788 -0.011643 0.271427
0.064950 -0.011617 0.270944
0.066092 -0.011590 0.270406
0.067316 -0.011577 0.270218
0.068490 -0.011556 0.269842
0.069794 -0.011558 0.269988
0.070576 -0.011475 0.268149
0.071183 -0.011366 0.265720
0.072254 -0.011335 0.265082
0.073210 -0.011286 0.264054
0.073490 -0.011137 0.260663
0.073982 -0.011025 0.258125
0.075117 -0.011010 0.257875
0.076024 -0.010963 0.256867
0.077085 -0.010940 0.256399
0.078422 -0.010955 0.256855
0.079766 -0.010971 0.257316
0.081207 -0.011000 0.258074
0.082350 -0.010989 0.257877
0.084333 -0.011087 0.260275
0.086552 -0.011214 0.263325
0.096616 -0.012339 0.289820
0.097834 -0.012319 0.289412
0.100597 -0.012491 0.293522
0.101429 -0.012421 0.291961
0.102650 -0.012401 0.291542
0.104231 -0.012424 0.292143
0.105329 -0.012389 0.291389
0.106615 -0.012378 0.291163
0.108025 -0.012381 0.291275
0.109578 -0.012400 0.291760
0.110816 -0.012383 0.291402
0.112264 -0.012390 0.291592
0.113581 -0.012382 0.291438
0.115075 -0.012394 0.291733
0.116462 -0.012394 0.291743
0.117799 -0.012389 0.291626
0.119089 -0.012379 0.291389
0.120426 -0.012374 0.291266
0.121899 -0.012383 0.291464
0.123432 -0.012398 0.291790
0.124681 -0.012384 0.291437
0.125958 -0.012374 0.291149
0.127443 -0.012384 0.291337
0.128763 -0.012377 0.291136
0.129939 -0.012358 0.290609
0.131402 -0.012365 0.290717
0.133238 -0.012408 0.291630
0.134766 -0.012421 0.291847
0.136212 -0.012426 0.291870
0.137767 -0.012441 0.292114
0.139244 -0.012449 0.292177
0.140619 -0.012447 0.292012
0.142006 -0.012447 0.291864
0.143591 -0.012464 0.292109
0.145021 -0.012467 0.292020
0.146584 -0.012482 0.292185
0.147969 -0.012481 0.291979
0.149545 -0.012496 0.292134
0.150946 -0.012496 0.291931
0.152289 -0.012492 0.291603
-0.154521 -0.010997 0.291390
-0.153015 -0.010987 0.291339
-0.151426 -0.010971 0.291110
-0.150429 -0.010998 0.292011
-0.149177 -0.011006 0.292415
-0.147641 -0.010994 0.292250
-0.146111 -0.010982 0.292079
-0.144424 -0.010957 0.291575
-0.143124 -0.010962 0.291836
-0.141548 -0.010946 0.291523
-0.140217 -0.010949 0.291699
-0.138874 -0.010950 0.291845
-0.137563 -0.010955 0.292048
-0.136271 -0.010960 0.292285
-0.134660 -0.010941 0.291829
-0.131230 -0.010771 0.287366
-0.127852 -0.010602 0.282917
-0.138057 -0.011568 0.308742
-0.136836 -0.011587 0.309285
-0.123266 -0.010780 0.287801
-0.122078 -0.010794 0.288181
-0.120792 -0.010800 0.288330
-0.119601 -0.010814 0.288704
-0.118504 -0.010837 0.289312
-0.116822 -0.010807 0.288482
-0.115578 -0.010817 0.288722
-0.114562 -0.010849 0.289540
-0.113048 -0.010833 0.289097
-0.111806 -0.010844 0.289346
-0.110511 -0.010850 0.289457
-0.109145 -0.010850 0.289380
-0.107788 -0.010850 0.289321
-0.106459 -0.010852 0.289333
-0.105070 -0.010849 0.289177
-0.103677 -0.010846 0.289007
-0.102312 -0.010845 0.288907
-0.101069 -0.010857 0.289153
-0.099764 -0.010863 0.289222
-0.098377 -0.010860 0.289053
-0.097059 -0.010865 0.289085
-0.094341 -0.010711 0.284889
-0.096997 -0.011171 0.297030
-0.095761 -0.011190 0.297431
-0.094067 -0.011156 0.296400
-0.092603 -0.011148 0.296076
-0.091545 -0.011189 0.297060
-0.089964 -0.011167 0.296351
-0.088419 -0.011149 0.295743
-0.086884 -0.011131 0.295154
-0.085468 -0.011128 0.294957
-0.083909 -0.011107 0.294255
-0.082389 -0.011090 0.293672
-0.079996 -0.010952 0.289908
-0.078806 -0.010978 0.290454
-0.077622 -0.011006 0.291048
-0.076049 -0.010978 0.290179
-0.074600 -0.010967 0.289765
-0.073381 -0.010991 0.290252
-0.072240 -0.011027 0.291073
-0.072693 -0.011313 0.298478
-0.068698 -0.010905 0.287559
-0.067548 -0.010940 0.288354
-0.066323 -0.010965 0.288861
-0.064955 -0.010966 0.288761
-0.063680 -0.010984 0.289086
-0.062420 -0.011005 0.289500
-0.061090 -0.011014 0.289605
-0.059644 -0.011003 0.289165
-0.058428 -0.011034 0.289854
-0.057110 -0.011047 0.290059
-0.055570 -0.011017 0.289134
-0.054370 -0.011055 0.289982
-0.053132 -0.011087 0.290673
-0.051671 -0.011072 0.290161
-0.040050 -0.010940 0.285691
-0.038280 -0.010829 0.282667
-0.037011 -0.010856 0.283267
-0.035732 -0.010883 0.283850
-0.034356 -0.010880 0.283682
-0.030258 -0.009980 0.260117
-0.028893 -0.009943 0.259047
-0.027565 -0.009915 0.258238
-0.026355 -0.009930 0.258524
-0.025144 -0.009945 0.258834
-0.023862 -0.009932 0.258431
-0.022613 -0.009933 0.258357
-0.021434 -0.009966 0.259153
-0.020180 -0.009966 0.259082
-0.019008 -0.010010 0.260159
-0.018508 -0.010439 0.271226
-0.017199 -0.010443 0.271258
-0.015809 -0.010393 0.269906
-0.014823 -0.010624 0.275859
-0.013226 -0.010421 0.270514
-0.011657 -0.010196 0.264633
-0.010330 -0.010154 0.263502
-0.009036 -0.010138 0.263030
-0.007739 -0.010111 0.262300
-0.006471 -0.010120 0.262498
-0.005219 -0.010166 0.263677
-0.003972 -0.010252 0.265859
-0.002689 -0.010288 0.266787
-0.001410 -0.010415 0.270059
-0.000098 -0.010443 0.270765
0.001221 -0.010467 0.271383
0.002466 -0.010163 0.263480
0.006197 -0.009983 0.258832
0.007404 -0.009914 0.257049
0.008666 -0.009928 0.257424
0.009893 -0.009904 0.256831
0.011164 -0.009924 0.257364
0.012422 -0.009929 0.257521
0.013678 -0.009932 0.257633
0.014956 -0.009950 0.258111
0.016310 -0.010011 0.259730
0.017579 -0.010015 0.259874
0.018936 -0.010065 0.261217
0.020244 -0.010084 0.261769
0.021937 -0.010282 0.266955
0.023220 -0.010276 0.266846
0.023761 -0.009960 0.258696
0.024968 -0.009940 0.258251
0.026172 -0.009921 0.257819
0.027332 -0.009888 0.257028
0.028597 -0.009895 0.257258
0.029840 -0.009893 0.257295
0.031048 -0.009881 0.257040
0.032271 -0.009873 0.256928
0.033512 -0.009872 0.256976
0.034816 -0.009889 0.257498
0.036089 -0.009896 0.257763
0.037348 -0.009899 0.257923
0.039005 -0.010004 0.260744
0.040880 -0.010156 0.264809
0.042483 -0.010234 0.266926
0.043719 -0.010221 0.266693
0.045018 -0.010224 0.266853
0.046116 -0.010181 0.265849
0.047477 -0.010198 0.266382
0.048567 -0.010157 0.265414
0.049900 -0.010168 0.265796
0.051238 -0.010179 0.266189
0.052528 -0.010180 0.266328
0.053631 -0.010146 0.265541
0.054829 -0.010131 0.265252
0.056285 -0.010163 0.266206
0.058127 -0.010262 0.268907
0.059725 -0.010314 0.270390
0.061291 -0.010359 0.271676
0.062427 -0.010331 0.271052
0.063645 -0.010317 0.270799
0.064997 -0.010325 0.271125
0.066136 -0.010300 0.270567
0.067306 -0.010280 0.270158
0.068523 -0.010269 0.269955
0.069811 -0.010268 0.270036
0.070746 -0.010216 0.268778
0.071151 -0.010090 0.265585
0.072301 -0.010074 0.265240
0.073487 -0.010062 0.265039
0.074063 -0.009969 0.262681
0.074216 -0.009823 0.258927
0.075236 -0.009794 0.258270
0.076308 -0.009774 0.257814
0.077202 -0.009731 0.256778
0.078400 -0.009728 0.256772
0.079642 -0.009729 0.256905
0.081071 -0.009754 0.257631
0.082321 -0.009756 0.257775
0.083539 -0.009755 0.257817
0.084704 -0.009748 0.257694
0.097121 -0.011017 0.291325
0.098345 -0.010999 0.290915
0.100894 -0.011127 0.294380
0.100881 -0.010973 0.290376
0.102666 -0.011016 0.291582
0.103061 -0.010911 0.288856
0.104705 -0.010939 0.289656
0.106370 -0.010969 0.290491
0.108339 -0.011029 0.292117
0.109751 -0.011031 0.292219
0.111128 -0.011030 0.292221
0.112585 -0.011037 0.292424
0.113688 -0.011009 0.291710
0.115146 -0.011016 0.291911
0.116593 -0.011021 0.292072
0.117979 -0.011021 0.292072
0.119281 -0.011013 0.291859
0.120526 -0.011000 0.291509
0.121751 -0.010986 0.291109
0.123071 -0.010980 0.290938
0.124274 -0.010965 0.290490
0.126116 -0.011005 0.291519
0.127904 -0.011040 0.292395
0.129362 -0.011046 0.292495
0.131162 -0.011080 0.293350
0.132257 -0.011055 0.292617
0.133586 -0.011050 0.292400
0.135009 -0.011053 0.292382
0.136048 -0.011025 0.291529
0.137663 -0.011043 0.291904
0.139567 -0.011084 0.292864
0.141346 -0.011114 0.293534
0.142607 -0.011104 0.293113
0.143769 -0.011086 0.292484
0.145153 -0.011085 0.292300
0.146589 -0.011088 0.292209
0.147749 -0.011071 0.291560
0.149319 -0.011084 0.291708
0.150900 -0.011098 0.291859
0.152399 -0.011105 0.291831
-0.154536 -0.009616 0.291433
-0.153333 -0.009626 0.291959
-0.151638 -0.009605 0.291532
-0.150403 -0.009613 0.291973
-0.149171 -0.009622 0.292416
-0.147911 -0.009629 0.292796
-0.146268 -0.009611 0.292404
-0.144659 -0.009595 0.292058
-0.142767 -0.009560 0.291117
-0.141545 -0.009570 0.291525
-0.140144 -0.009567 0.291556
-0.138860 -0.009572 0.291822
-0.137582 -0.009578 0.292095
-0.136089 -0.009569 0.291902
-0.133650 -0.009493 0.289645
-0.129467 -0.009290 0.283511
-0.127895 -0.009272 0.283016
-0.137431 -0.010067 0.307346
-0.136216 -0.010084 0.307886
-0.123405 -0.009434 0.288127
-0.122195 -0.009445 0.288459
-0.120972 -0.009455 0.288760
-0.119752 -0.009465 0.289067
-0.118582 -0.009480 0.289499
-0.117333 -0.009488 0.289741
-0.115719 -0.009467 0.289070
-0.114092 -0.009445 0.288349
-0.112691 -0.009440 0.288181
-0.111559 -0.009459 0.288703
-0.110369 -0.009473 0.289081
-0.109149 -0.009484 0.289384
-0.107916 -0.009495 0.289659
-0.106592 -0.009498 0.289687
-0.104994 -0.009477 0.288961
-0.103482 -0.009463 0.288456
-0.102271 -0.009476 0.288784
-0.100962 -0.009480 0.288839
-0.099683 -0.009488 0.288980
-0.098455 -0.009501 0.289275
-0.096796 -0.009471 0.288291
-0.095603 -0.009488 0.288688
-0.096101 -0.009816 0.298477
-0.094552 -0.009801 0.297915
-0.093176 -0.009804 0.297894
-0.091948 -0.009823 0.298353
-0.090168 -0.009783 0.297008
-0.088627 -0.009768 0.296424
-0.086885 -0.009730 0.295142
-0.085178 -0.009694 0.293939
-0.083746 -0.009689 0.293666
-0.082165 -0.009667 0.292856
-0.080542 -0.009639 0.291870
-0.078711 -0.009584 0.290089
-0.077075 -0.009552 0.288977
-0.075961 -0.009584 0.289824
-0.074522 -0.009576 0.289442
-0.073365 -0.009605 0.290169
-0.072343 -0.009652 0.291469
-0.072446 -0.009855 0.297443
-0.068773 -0.009541 0.287849
-0.067652 -0.009577 0.288777
-0.066358 -0.009589 0.288992
-0.065054 -0.009599 0.289180
-0.063749 -0.009611 0.289376
-0.062488 -0.009629 0.289790
-0.061118 -0.009631 0.289715
-0.059703 -0.009626 0.289426
-0.058506 -0.009657 0.290214
-0.057078 -0.009650 0.289873
-0.055579 -0.009631 0.289156
-0.054402 -0.009668 0.290123
-0.045953 -0.009646 0.288666
-0.044565 -0.009645 0.288534
-0.043155 -0.009641 0.288264
-0.040023 -0.009555 0.285473
-0.038507 -0.009520 0.284315
-0.037097 -0.009510 0.283898
-0.035852 -0.009543 0.284771
-0.034505 -0.009551 0.284886
-0.030169 -0.008697 0.259324
-0.028858 -0.008679 0.258702
-0.027582 -0.008671 0.258365
-0.026348 -0.008676 0.258422
-0.025139 -0.008690 0.258749
-0.023889 -0.008690 0.258691
-0.022647 -0.008694 0.258715
-0.021407 -0.008699 0.258793
-0.020126 -0.008687 0.258360
-0.019017 -0.008753 0.260246
-0.018465 -0.009102 0.270569
-0.017225 -0.009140 0.271622
-0.015768 -0.009059 0.269167
-0.014828 -0.009288 0.275907
-0.013230 -0.009110 0.270561
-0.011485 -0.008780 0.260698
-0.010119 -0.008693 0.258075
-0.008938 -0.008764 0.260143
-0.007630 -0.008712 0.258560
-0.006415 -0.008768 0.260194
-0.005219 -0.008883 0.263594
-0.004004 -0.009033 0.267993
-0.002722 -0.009098 0.269902
-0.001423 -0.009184 0.272435
-0.000099 -0.009194 0.272729
0.001221 -0.009151 0.271431
0.002540 -0.009151 0.271422
0.006175 -0.008695 0.257906
0.007388 -0.008646 0.256473
0.008651 -0.008663 0.256975
0.009892 -0.008656 0.256787
0.011158 -0.008669 0.257212
0.012428 -0.008683 0.257633
0.013699 -0.008695 0.258018
0.015001 -0.008722 0.258865
0.016280 -0.008733 0.259232
0.017593 -0.008760 0.260062
0.018916 -0.008788 0.260927
0.020286 -0.008832 0.262288
0.021731 -0.008902 0.264420
0.023001 -0.008897 0.264313
0.024137 -0.008843 0.262768
0.025204 -0.008770 0.260667
0.026227 -0.008690 0.258340
0.027502 -0.008696 0.258606
0.028713 -0.008683 0.258285
0.029968 -0.008684 0.258371
0.031279 -0.008700 0.258927
0.032555 -0.008706 0.259174
0.033872 -0.008721 0.259714
0.035371 -0.008781 0.261578
0.036752 -0.008808 0.262479
0.037949 -0.008791 0.262054
0.040009 -0.008969 0.267438
0.041673 -0.009049 0.269922
0.043032 -0.009060 0.270357
0.044390 -0.009071 0.270762
0.045800 -0.009091 0.271467
0.047057 -0.009080 0.271252
0.047489 -0.008915 0.266426
0.048579 -0.008880 0.265458
0.049912 -0.008889 0.265839
0.051250 -0.008899 0.266232
0.052540 -0.008900 0.266372
0.053644 -0.008870 0.265584
0.054842 -0.008857 0.265295
0.056298 -0.008885 0.266248
0.058807 -0.009074 0.272034
0.060033 -0.009062 0.271767
0.061121 -0.009029 0.270909
0.062412 -0.009028 0.270968
0.063522 -0.009001 0.270262
0.064924 -0.009015 0.270804
0.066209 -0.009013 0.270852
0.067278 -0.008982 0.270034
0.068544 -0.008978 0.270022
0.069809 -0.008974 0.270014
0.070699 -0.008923 0.268586
0.071127 -0.008817 0.265484
0.072030 -0.008772 0.264234
0.073503 -0.008797 0.265085
0.074269 -0.008738 0.263400
0.074788 -0.008652 0.260911
0.075535 -0.008595 0.259287
0.076838 -0.008602 0.259594
0.077774 -0.008569 0.258669
0.078912 -0.008558 0.258439
0.080379 -0.008583 0.259273
0.081966 -0.008620 0.260467
0.083126 -0.008612 0.260289
0.084700 -0.008646 0.261392
0.086133 -0.008664 0.262033
0.096263 -0.009545 0.288744
0.097476 -0.009529 0.288337
0.100490 -0.009687 0.293194
0.100346 -0.009541 0.288830
0.101734 -0.009542 0.288929
0.103046 -0.009536 0.288811
0.105540 -0.009639 0.291961
0.106532 -0.009603 0.290928
0.107749 -0.009588 0.290524
0.109392 -0.009611 0.291259
0.110635 -0.009599 0.290920
0.112642 -0.009653 0.292571
0.113765 -0.009630 0.291909
0.115177 -0.009632 0.291989
0.116502 -0.009627 0.291843
0.117872 -0.009626 0.291805
0.119115 -0.009614 0.291455
0.120408 -0.009607 0.291224
0.121690 -0.009599 0.290967
0.123059 -0.009598 0.290912
0.124446 -0.009599 0.290896
0.125449 -0.009570 0.289981
0.127154 -0.009595 0.290683
0.128902 -0.009622 0.291461
0.131392 -0.009704 0.293870
0.131783 -0.009630 0.291572
0.133535 -0.009657 0.292294
0.134960 -0.009660 0.292283
0.135951 -0.009631 0.291329
0.137412 -0.009637 0.291381
0.138896 -0.009644 0.291466
0.140281 -0.009644 0.291333
0.141872 -0.009658 0.291613
0.143524 -0.009675 0.291996
0.144959 -0.009678 0.291922
0.146389 -0.009681 0.291824
0.147981 -0.009694 0.292031
0.149224 -0.009684 0.291537
0.150955 -0.009706 0.291982
0.152302 -0.009703 0.291662
-0.154374 -0.008225 0.291141
-0.153145 -0.008232 0.291613
-0.151640 -0.008224 0.291547
-0.150421 -0.008232 0.292019
-0.148984 -0.008228 0.292058
-0.147502 -0.008222 0.291996
-0.145935 -0.008211 0.291747
-0.144482 -0.008205 0.291711
-0.142986 -0.008198 0.291572
-0.141524 -0.008192 0.291488
-0.140399 -0.008206 0.292092
-0.138904 -0.008198 0.291919
-0.137480 -0.008194 0.291883
-0.136206 -0.008200 0.292158
-0.134248 -0.008164 0.290945
-0.131318 -0.008067 0.287567
-0.129436 -0.008034 0.286431
-0.136720 -0.008574 0.305758
-0.135511 -0.008588 0.306295
-0.133094 -0.008617 0.307380
-0.123239 -0.008066 0.287741
-0.122134 -0.008082 0.288314
-0.120830 -0.008085 0.288420
-0.119493 -0.008085 0.288443
-0.118436 -0.008105 0.289142
-0.117116 -0.008108 0.289203
-0.115702 -0.008103 0.289028
-0.114274 -0.008098 0.288806
-0.112707 -0.008083 0.288220
-0.111761 -0.008112 0.289221
-0.110149 -0.008093 0.288500
-0.108826 -0.008095 0.288523
-0.107491 -0.008096 0.288513
-0.106314 -0.008110 0.288928
-0.104910 -0.008106 0.288727
-0.103571 -0.008107 0.288697
-0.102296 -0.008113 0.288848
-0.100975 -0.008116 0.288867
-0.099737 -0.008126 0.289127
-0.098435 -0.008131 0.289207
-0.097072 -0.008130 0.289104
-0.094489 -0.008027 0.285316
-0.098183 -0.008461 0.300643
-0.096933 -0.008475 0.301048
-0.095373 -0.008463 0.300494
-0.093838 -0.008452 0.299999
-0.092798 -0.008486 0.301100
-0.091009 -0.008452 0.299767
-0.089027 -0.008398 0.297751
-0.087243 -0.008362 0.296345
-0.085611 -0.008340 0.295422
-0.083993 -0.008318 0.294521
-0.082349 -0.008293 0.293499
-0.080817 -0.008278 0.292852
-0.078957 -0.008229 0.290980
-0.077335 -0.008203 0.289937
-0.075854 -0.008192 0.289399
-0.074646 -0.008210 0.289910
-0.073341 -0.008218 0.290058
-0.072207 -0.008246 0.290905
-0.072460 -0.008436 0.297483
-0.068583 -0.008144 0.287036
-0.067556 -0.008185 0.288349
-0.066242 -0.008192 0.288470
-0.064923 -0.008199 0.288579
-0.063683 -0.008217 0.289058
-0.062367 -0.008225 0.289213
-0.061084 -0.008239 0.289535
-0.059701 -0.008239 0.289397
-0.058374 -0.008247 0.289539
-0.057140 -0.008268 0.290166
-0.055649 -0.008253 0.289498
-0.054315 -0.008261 0.289639
-0.043217 -0.008263 0.288652
-0.041937 -0.008284 0.289284
-0.039927 -0.008158 0.284761
-0.038548 -0.008157 0.284592
-0.037050 -0.008129 0.283513
-0.035877 -0.008173 0.284941
-0.034571 -0.008189 0.285397
-0.030232 -0.007458 0.259837
-0.028864 -0.007430 0.258735
-0.027580 -0.007420 0.258318
-0.026355 -0.007427 0.258466
-0.025165 -0.007445 0.258994
-0.023887 -0.007437 0.258639
-0.022623 -0.007432 0.258413
-0.021430 -0.007453 0.259039
-0.020160 -0.007447 0.258771
-0.018956 -0.007467 0.259380
-0.018437 -0.007778 0.270128
-0.017264 -0.007839 0.272202
-0.015861 -0.007799 0.270730
-0.012642 -0.008270 0.286914
-0.011253 -0.008273 0.286972
-0.009863 -0.008276 0.287023
-0.002803 -0.008017 0.277879
-0.001452 -0.008018 0.277890
-0.000101 -0.007974 0.276347
0.001243 -0.007974 0.276344
0.006161 -0.007424 0.257300
0.007415 -0.007427 0.257396
0.008661 -0.007423 0.257267
0.009902 -0.007415 0.257013
0.011163 -0.007423 0.257307
0.012428 -0.007431 0.257605
0.013699 -0.007441 0.257994
0.014959 -0.007444 0.258134
0.016259 -0.007465 0.258876
0.017571 -0.007488 0.259717
0.018888 -0.007510 0.260520
0.020327 -0.007574 0.262809
0.021848 -0.007660 0.265830
0.024961 -0.007826 0.271712
0.025295 -0.007533 0.261584
0.026274 -0.007450 0.258782
0.027596 -0.007468 0.259468
0.028799 -0.007454 0.259034
0.030075 -0.007458 0.259274
0.031453 -0.007487 0.260351
0.032792 -0.007505 0.261039
0.034265 -0.007551 0.262714
0.035796 -0.007605 0.264703
0.037377 -0.007667 0.266919
0.038743 -0.007681 0.267518
0.040070 -0.007688 0.267826
0.041381 -0.007690 0.268016
0.042071 -0.007581 0.264302
0.043505 -0.007608 0.265346
0.044214 -0.007511 0.262046
0.044979 -0.007428 0.259256
0.045894 -0.007374 0.257465
0.047068 -0.007363 0.257187
0.048304 -0.007363 0.257258
0.049432 -0.007346 0.256771
0.050791 -0.007363 0.257487
0.052258 -0.007395 0.258705
0.053522 -0.007398 0.258897
0.054767 -0.007398 0.258994
0.056146 -0.007415 0.259707
0.058129 -0.007510 0.263133
0.061128 -0.007729 0.270925
0.062549 -0.007744 0.271549
0.063602 -0.007713 0.270586
0.064901 -0.007713 0.270694
0.066266 -0.007721 0.271069
0.067469 -0.007710 0.270787
0.068630 -0.007694 0.270350
0.069816 -0.007682 0.270029
0.070876 -0.007657 0.269245
0.071278 -0.007563 0.266034
0.072271 -0.007533 0.265106
0.073630 -0.007543 0.265532
0.074589 -0.007511 0.264525
0.075453 -0.007472 0.263221
0.076465 -0.007448 0.262470
0.077500 -0.007427 0.261822
0.078665 -0.007419 0.261625
0.079986 -0.007425 0.261945
0.081340 -0.007435 0.262366
0.083072 -0.007478 0.263974
0.084388 -0.007483 0.264232
0.085865 -0.007502 0.264978
0.087598 -0.007543 0.266482
0.096976 -0.008231 0.290875
0.098198 -0.008217 0.290465
0.101135 -0.008346 0.295069
0.101097 -0.008228 0.290985
0.101363 -0.008138 0.287870
0.103334 -0.008186 0.289612
0.104937 -0.008204 0.290289
0.106038 -0.008182 0.289574
0.108899 -0.008295 0.293622
0.109879 -0.008264 0.292554
0.111297 -0.008266 0.292660
0.112802 -0.008275 0.292984
0.113920 -0.008255 0.292304
0.115143 -0.008243 0.291900
0.116474 -0.008239 0.291772
0.117773 -0.008233 0.291562
0.118941 -0.008219 0.291028
0.120165 -0.008208 0.290637
0.121518 -0.008206 0.290556
0.122817 -0.008201 0.290344
0.124025 -0.008190 0.289914
0.125761 -0.008213 0.290705
0.127928 -0.008264 0.292457
0.129315 -0.008264 0.292399
0.130509 -0.008252 0.291900
0.132084 -0.008264 0.292245
0.133338 -0.008255 0.291868
0.134982 -0.008271 0.292337
0.136126 -0.008257 0.291710
0.137469 -0.008254 0.291509
0.138734 -0.008247 0.291135
0.140579 -0.008274 0.291960
0.141998 -0.008276 0.291880
0.143361 -0.008275 0.291675
0.144991 -0.008288 0.291998
0.146437 -0.008292 0.291931
0.147911 -0.008296 0.291906
0.149443 -0.008304 0.291979
0.151006 -0.008314 0.292093
0.152461 -0.008317 0.291981
-0.154261 -0.006839 0.290939
-0.152968 -0.006842 0.291287
-0.151311 -0.006829 0.290925
-0.150282 -0.006844 0.291759
-0.148925 -0.006844 0.291952
-0.147410 -0.006837 0.291821
-0.145994 -0.006834 0.291873
-0.144311 -0.006819 0.291372
-0.143025 -0.006823 0.291657
-0.141639 -0.006821 0.291732
-0.140149 -0.006815 0.291579
-0.138652 -0.006808 0.291396
-0.137497 -0.006819 0.291924
-0.136081 -0.006816 0.291893
-0.134394 -0.006799 0.291265
-0.130655 -0.006678 0.286120
-0.126397 -0.006527 0.279707
-0.137593 -0.007179 0.307713
-0.136377 -0.007191 0.308254
-0.135157 -0.007202 0.308790
-0.133107 -0.007169 0.307412
-0.123212 -0.006709 0.287677
-0.122006 -0.006716 0.288013
-0.120712 -0.006719 0.288138
-0.119427 -0.006722 0.288281
-0.118233 -0.006731 0.288646
-0.117032 -0.006740 0.288996
-0.115589 -0.006734 0.288742
-0.114481 -0.006749 0.289326
-0.113279 -0.006758 0.289680
-0.111849 -0.006753 0.289447
-0.110585 -0.006759 0.289640
-0.109390 -0.006768 0.290014
-0.108032 -0.006769 0.289961
-0.106214 -0.006739 0.288650
-0.104888 -0.006741 0.288661
-0.103659 -0.006749 0.288937
-0.102311 -0.006750 0.288885
-0.101026 -0.006754 0.289009
-0.099802 -0.006763 0.289309
-0.098478 -0.006766 0.289328
-0.097152 -0.006768 0.289336
-0.095875 -0.006774 0.289495
-0.100450 -0.007200 0.307575
-0.099170 -0.007212 0.307989
-0.097730 -0.007213 0.307910
-0.095606 -0.007162 0.305644
-0.094880 -0.007216 0.307844
-0.092256 -0.007126 0.303863
-0.090516 -0.007102 0.302720
-0.088623 -0.007065 0.301023
-0.086085 -0.006975 0.297046
-0.084426 -0.006954 0.296026
-0.083007 -0.006952 0.295833
-0.081065 -0.006906 0.293740
-0.079105 -0.006857 0.291514
-0.077617 -0.006847 0.290982
-0.076142 -0.006839 0.290487
-0.074849 -0.006846 0.290685
-0.073570 -0.006856 0.290947
-0.072275 -0.006864 0.291162
-0.072403 -0.007010 0.297232
-0.068643 -0.006779 0.287275
-0.067524 -0.006804 0.288196
-0.066254 -0.006814 0.288507
-0.064911 -0.006818 0.288506
-0.063615 -0.006826 0.288731
-0.062324 -0.006836 0.288995
-0.061004 -0.006842 0.289140
-0.059683 -0.006849 0.289292
-0.058356 -0.006856 0.289429
-0.057093 -0.006870 0.289911
-0.055813 -0.006883 0.290329
-0.054457 -0.006888 0.290379
-0.043107 -0.006853 0.287895
-0.041760 -0.006860 0.288040
-0.039766 -0.006756 0.283588
-0.038542 -0.006781 0.284525
-0.037197 -0.006786 0.284611
-0.035918 -0.006804 0.285245
-0.034547 -0.006805 0.285181
-0.030301 -0.006216 0.260410
-0.028961 -0.006199 0.259581
-0.027638 -0.006183 0.258839
-0.026368 -0.006179 0.258567
-0.025172 -0.006192 0.259045
-0.023920 -0.006192 0.258970
-0.022640 -0.006185 0.258588
-0.021392 -0.006186 0.258559
-0.020150 -0.006189 0.258618
-0.018948 -0.006206 0.259238
-0.018522 -0.006497 0.271339
-0.017318 -0.006539 0.273026
-0.015876 -0.006491 0.270963
0.001186 -0.006331 0.263851
0.002448 -0.006277 0.261597
0.006196 -0.006209 0.258745
0.007418 -0.006179 0.257523
0.008694 -0.006196 0.258232
0.009942 -0.006191 0.258044
0.011204 -0.006195 0.258243
0.012449 -0.006190 0.258039
0.013750 -0.006211 0.258938
0.015046 -0.006226 0.259620
0.016162 -0.006170 0.257322
0.017650 -0.006254 0.260869
0.018942 -0.006262 0.261239
0.020327 -0.006298 0.262783
0.021797 -0.006354 0.265186
0.023661 -0.006513 0.271862
0.024966 -0.006509 0.271746
0.025418 -0.006294 0.262842
0.026589 -0.006270 0.261875
0.027774 -0.006250 0.261129
0.029078 -0.006258 0.261533
0.030374 -0.006264 0.261833
0.031904 -0.006315 0.264063
0.033496 -0.006375 0.266624
0.035006 -0.006415 0.268375
0.036471 -0.006444 0.269680
0.037867 -0.006459 0.270405
0.039063 -0.006440 0.269713
0.040321 -0.006433 0.269489
0.041290 -0.006381 0.267407
0.042214 -0.006326 0.265181
0.042877 -0.006236 0.261500
0.043974 -0.006212 0.260608
0.044611 -0.006127 0.257118
0.045472 -0.006076 0.255079
0.046754 -0.006082 0.255456
0.048014 -0.006086 0.255697
0.049051 -0.006062 0.254781
0.050390 -0.006075 0.255441
0.051658 -0.006079 0.255726
0.053197 -0.006115 0.257309
0.054739 -0.006149 0.258848
0.056025 -0.006153 0.259138
0.058015 -0.006233 0.262607
0.060563 -0.006368 0.268406
0.062548 -0.006440 0.271532
0.063746 -0.006429 0.271189
0.064860 -0.006411 0.270511
0.066230 -0.006418 0.270912
0.067465 -0.006411 0.270757
0.068681 -0.006404 0.270538
0.069806 -0.006388 0.269982
0.071104 -0.006388 0.270102
0.071668 -0.006324 0.267481
0.072579 -0.006292 0.266225
0.074063 -0.006310 0.267084
0.074986 -0.006280 0.265923
0.076111 -0.006268 0.265509
0.076635 -0.006208 0.263044
0.078259 -0.006237 0.264376
0.079422 -0.006230 0.264136
0.080759 -0.006235 0.264470
0.082066 -0.006239 0.264702
0.083385 -0.006243 0.264963
0.085257 -0.006288 0.266946
0.086673 -0.006299 0.267468
0.087803 -0.006288 0.267100
0.097282 -0.006868 0.291786
0.098507 -0.006856 0.291375
0.100152 -0.006874 0.292197
0.100644 -0.006813 0.289677
0.101976 -0.006810 0.289605
0.103849 -0.006843 0.291052
0.104352 -0.006786 0.288668
0.105967 -0.006802 0.289379
0.107658 -0.006822 0.290272
0.108902 -0.006813 0.289948
0.110343 -0.006817 0.290150
0.112616 -0.006872 0.292499
0.113771 -0.006858 0.291921
0.114886 -0.006842 0.291248
0.116330 -0.006846 0.291410
0.117574 -0.006838 0.291069
0.118874 -0.006833 0.290866
0.120485 -0.006846 0.291412
0.121582 -0.006830 0.290712
0.122947 -0.006830 0.290652
0.124262 -0.006826 0.290470
0.125561 -0.006822 0.290245
0.127065 -0.006829 0.290487
0.128720 -0.006844 0.291056
0.130537 -0.006867 0.291966
0.131977 -0.006870 0.292013
0.133371 -0.006870 0.291947
0.134922 -0.006879 0.292212
0.136017 -0.006864 0.291482
0.137444 -0.006866 0.291461
0.139052 -0.006877 0.291808
0.140626 -0.006887 0.292065
0.142187 -0.006895 0.292277
0.143796 -0.006906 0.292568
0.145047 -0.006899 0.292119
0.146281 -0.006892 0.291630
0.147959 -0.006905 0.292010
0.149105 -0.006894 0.291329
0.150737 -0.006906 0.291585
0.152132 -0.006906 0.291362
-0.154094 -0.005453 0.290633
-0.152696 -0.005452 0.290778
-0.151167 -0.005446 0.290656
-0.149967 -0.005451 0.291155
-0.148669 -0.005453 0.291457
-0.146953 -0.005440 0.290925
-0.145744 -0.005446 0.291379
-0.144458 -0.005448 0.291675
-0.142919 -0.005441 0.291447
-0.141698 -0.005447 0.291858
-0.140244 -0.005443 0.291780
-0.138939 -0.005445 0.292004
-0.137000 -0.005422 0.290873
-0.135930 -0.005433 0.291574
-0.131886 -0.005325 0.285833
-0.129352 -0.005276 0.283269
-0.127379 -0.005249 0.281883
-0.136784 -0.005695 0.305907
-0.135576 -0.005704 0.306445
-0.137630 -0.005852 0.314441
-0.133417 -0.005734 0.308127
-0.122997 -0.005344 0.287177
-0.121955 -0.005357 0.287892
-0.120675 -0.005360 0.288049
-0.119490 -0.005367 0.288435
-0.118214 -0.005370 0.288598
-0.117063 -0.005379 0.289072
-0.115754 -0.005381 0.289154
-0.114458 -0.005383 0.289267
-0.113135 -0.005385 0.289310
-0.111835 -0.005387 0.289408
-0.110583 -0.005392 0.289632
-0.109235 -0.005392 0.289602
-0.108113 -0.005404 0.290176
-0.106716 -0.005402 0.290011
-0.105049 -0.005386 0.289099
-0.103532 -0.005378 0.288578
-0.102277 -0.005383 0.288783
-0.100931 -0.005383 0.288731
-0.099672 -0.005388 0.288930
-0.098390 -0.005392 0.289062
-0.097079 -0.005395 0.289114
-0.094189 -0.005309 0.284399
-0.101196 -0.005786 0.309853
-0.099907 -0.005796 0.310271
-0.098353 -0.005790 0.309865
-0.096749 -0.005781 0.309288
-0.095983 -0.005823 0.311415
-0.093639 -0.005769 0.308413
-0.091009 -0.005696 0.304361
-0.088279 -0.005613 0.299845
-0.086126 -0.005566 0.297180
-0.084511 -0.005552 0.296317
-0.082704 -0.005525 0.294743
-0.081037 -0.005506 0.293630
-0.079304 -0.005483 0.292237
-0.077723 -0.005469 0.291369
-0.076161 -0.005456 0.290548
-0.074774 -0.005455 0.290383
-0.073566 -0.005468 0.290920
-0.072602 -0.005499 0.292468
-0.072412 -0.005592 0.297259
-0.068412 -0.005388 0.286293
-0.067410 -0.005417 0.287696
-0.066146 -0.005426 0.288024
-0.064914 -0.005437 0.288506
-0.063555 -0.005439 0.288447
-0.062234 -0.005444 0.288562
-0.061026 -0.005459 0.289229
-0.059594 -0.005454 0.288849
-0.058319 -0.005464 0.289233
-0.057034 -0.005473 0.289594
-0.055677 -0.005476 0.289608
-0.054380 -0.005485 0.289954
-0.053080 -0.005494 0.290307
-0.039867 -0.005402 0.284291
-0.038566 -0.005411 0.284686
-0.037028 -0.005387 0.283303
-0.035924 -0.005427 0.285277
-0.034613 -0.005437 0.285710
-0.030252 -0.004949 0.259973
-0.028876 -0.004928 0.258805
-0.027646 -0.004932 0.258899
-0.026395 -0.004932 0.258816
-0.025166 -0.004936 0.258960
-0.023895 -0.004933 0.258688
-0.022663 -0.004937 0.258831
-0.021427 -0.004941 0.258965
-0.020098 -0.004922 0.257925
-0.019055 -0.004977 0.260695
-0.018351 -0.005133 0.268812
-0.017007 -0.005121 0.268112
-0.015980 -0.005210 0.272714
0.001186 -0.005049 0.263879
0.002473 -0.005057 0.264308
0.005151 -0.005165 0.269917
0.006216 -0.004967 0.259592
0.007423 -0.004930 0.257674
0.008706 -0.004947 0.258562
0.009947 -0.004939 0.258170
0.011194 -0.004935 0.257987
0.012470 -0.004944 0.258456
0.013741 -0.004949 0.258752
0.015027 -0.004958 0.259277
0.016322 -0.004969 0.259861
0.017601 -0.004973 0.260139
0.018887 -0.004979 0.260475
0.020360 -0.005030 0.263199
0.021820 -0.005072 0.265454
0.023917 -0.005250 0.274785
0.025235 -0.005246 0.274667
0.025593 -0.005054 0.264642
0.026641 -0.005009 0.262371
0.027844 -0.004997 0.261773
0.029037 -0.004983 0.261144
0.030475 -0.005012 0.262698
0.031910 -0.005037 0.264098
0.033529 -0.005088 0.266875
0.035235 -0.005149 0.270114
0.036573 -0.005153 0.270420
0.037690 -0.005127 0.269129
0.039022 -0.005130 0.269413
0.040394 -0.005139 0.269964
0.041276 -0.005087 0.267306
0.042202 -0.005043 0.265098
0.043303 -0.005022 0.264086
0.043936 -0.004950 0.260373
0.044169 -0.004838 0.254561
0.045547 -0.004853 0.255491
0.046618 -0.004837 0.254701
0.047770 -0.004829 0.254389
0.049008 -0.004830 0.254542
0.050215 -0.004828 0.254539
0.051421 -0.004826 0.254540
0.052642 -0.004826 0.254616
0.053995 -0.004837 0.255317
0.055440 -0.004856 0.256421
0.058064 -0.004975 0.262815
0.060524 -0.005076 0.268222
0.062620 -0.005142 0.271834
0.063781 -0.005130 0.271326
0.064873 -0.005114 0.270554
0.066337 -0.005127 0.271340
0.067653 -0.005128 0.271502
0.068784 -0.005115 0.270937
0.069986 -0.005108 0.270667
0.071118 -0.005096 0.270147
0.072127 -0.005076 0.269188
0.073069 -0.005053 0.268018
0.074006 -0.005029 0.266869
0.075339 -0.005033 0.267168
0.076430 -0.005021 0.266613
0.077458 -0.005005 0.265863
0.078853 -0.005013 0.266378
0.080079 -0.005010 0.266313
0.081479 -0.005018 0.266823
0.082853 -0.005024 0.267233
0.084337 -0.005037 0.267981
0.085918 -0.005055 0.269010
0.087409 -0.005067 0.269732
0.095288 -0.005444 0.289866
0.096508 -0.005435 0.289462
0.099721 -0.005537 0.294960
0.099457 -0.005446 0.290164
0.100737 -0.005441 0.289942
0.102090 -0.005439 0.289926
0.102974 -0.005413 0.288597
0.105673 -0.005482 0.292320
0.106918 -0.005475 0.291972
0.107619 -0.005440 0.290166
0.109456 -0.005463 0.291422
0.110839 -0.005464 0.291450
0.112941 -0.005499 0.293343
0.114040 -0.005485 0.292611
0.115104 -0.005469 0.291800
0.116161 -0.005454 0.290988
0.117505 -0.005452 0.290899
0.119057 -0.005461 0.291315
0.120192 -0.005449 0.290704
0.121563 -0.005449 0.290667
0.122855 -0.005445 0.290436
0.124339 -0.005450 0.290652
0.125731 -0.005451 0.290642
0.126865 -0.005441 0.290033
0.128227 -0.005440 0.289945
0.129427 -0.005433 0.289488
0.131995 -0.005483 0.292057
0.133034 -0.005469 0.291213
0.134745 -0.005482 0.291833
0.135971 -0.005476 0.291390
0.137214 -0.005471 0.290980
0.138668 -0.005474 0.291008
0.140121 -0.005476 0.291023
0.141516 -0.005477 0.290905
0.143312 -0.005493 0.291591
0.144835 -0.005498 0.291700
0.146139 -0.005495 0.291354
0.147865 -0.005508 0.291834
0.149339 -0.005512 0.291795
0.150650 -0.005509 0.291425
0.152182 -0.005514 0.291469
-0.154059 -0.004074 0.290573
-0.152485 -0.004068 0.290381
-0.150853 -0.004061 0.290059
-0.149669 -0.004065 0.290584
-0.148265 -0.004064 0.290671
-0.147057 -0.004067 0.291135
-0.145504 -0.004062 0.290905
-0.143988 -0.004057 0.290731
-0.142766 -0.004061 0.291140
-0.141411 -0.004061 0.291272
-0.139834 -0.004054 0.290933
-0.137749 -0.004033 0.289506
-0.136815 -0.004045 0.290484
-0.135344 -0.004041 0.290319
-0.133803 -0.004035 0.289990
-0.130433 -0.003974 0.285638
-0.127983 -0.003939 0.283223
-0.136573 -0.004247 0.305437
-0.135367 -0.004254 0.305974
-0.137638 -0.004371 0.314461
-0.133364 -0.004281 0.308006
-0.123349 -0.004002 0.287998
-0.122099 -0.004005 0.288233
-0.120814 -0.004007 0.288381
-0.119468 -0.004007 0.288381
-0.118518 -0.004020 0.289342
-0.117129 -0.004019 0.289233
-0.115768 -0.004018 0.289189
-0.114384 -0.004017 0.289080
-0.113192 -0.004022 0.289454
-0.111760 -0.004020 0.289212
-0.110075 -0.004007 0.288298
-0.108738 -0.004008 0.288282
-0.107288 -0.004004 0.287959
-0.106133 -0.004011 0.288425
-0.104850 -0.004013 0.288549
-0.103491 -0.004013 0.288461
-0.102269 -0.004018 0.288759
-0.100971 -0.004020 0.288844
-0.099668 -0.004022 0.288915
-0.098416 -0.004026 0.289135
-0.097015 -0.004025 0.288920
-0.095820 -0.004031 0.289318
-0.100308 -0.004343 0.311510
-0.098842 -0.004343 0.311398
-0.097258 -0.004338 0.310909
-0.096105 -0.004352 0.311806
-0.093988 -0.004322 0.309556
-0.092632 -0.004327 0.309782
-0.090687 -0.004304 0.308016
-0.086641 -0.004179 0.298947
-0.084475 -0.004142 0.296183
-0.082650 -0.004120 0.294544
-0.081104 -0.004113 0.293862
-0.079622 -0.004108 0.293400
-0.077861 -0.004088 0.291878
-0.076369 -0.004082 0.291334
-0.075021 -0.004084 0.291334
-0.073624 -0.004083 0.291141
-0.072400 -0.004092 0.291647
-0.071753 -0.004135 0.294545
-0.068470 -0.004024 0.286530
-0.067183 -0.004028 0.286719
-0.066032 -0.004042 0.287518
-0.064664 -0.004042 0.287390
-0.063220 -0.004037 0.286913
-0.062204 -0.004060 0.288414
-0.060913 -0.004065 0.288682
-0.059560 -0.004067 0.288671
-0.058347 -0.004079 0.289361
-0.057109 -0.004089 0.289965
-0.054468 -0.004099 0.290408
-0.039691 -0.004012 0.283021
-0.038466 -0.004026 0.283935
-0.036979 -0.004013 0.282917
-0.035730 -0.004026 0.283722
-0.034573 -0.004051 0.285360
-0.030256 -0.003692 0.259998
-0.029006 -0.003693 0.259953
-0.027686 -0.003684 0.259258
-0.026384 -0.003677 0.258691
-0.025148 -0.003680 0.258769
-0.023964 -0.003690 0.259413
-0.022689 -0.003687 0.259117
-0.021410 -0.003682 0.258738
-0.020173 -0.003685 0.258882
-0.018923 -0.003686 0.258863
-0.018328 -0.003824 0.268461
-0.017274 -0.003879 0.272295
-0.015983 -0.003886 0.272736
-0.014763 -0.003914 0.274607
0.001186 -0.003767 0.263900
0.002468 -0.003765 0.263760
0.003839 -0.003853 0.269961
0.005151 -0.003853 0.269939
0.006234 -0.003716 0.260319
0.007440 -0.003686 0.258252
0.008694 -0.003685 0.258219
0.009974 -0.003694 0.258863
0.011206 -0.003685 0.258269
0.012470 -0.003688 0.258450
0.013745 -0.003693 0.258826
0.015042 -0.003702 0.259518
0.016281 -0.003697 0.259194
0.017658 -0.003722 0.260968
0.018925 -0.003721 0.260983
0.020537 -0.003785 0.265478
0.021831 -0.003786 0.265577
0.037070 -0.003896 0.274085
0.038361 -0.003893 0.273907
0.038882 -0.003814 0.268436
0.039877 -0.003785 0.266499
0.041322 -0.003799 0.267593
0.042078 -0.003751 0.264304
0.042688 -0.003693 0.260328
0.043548 -0.003660 0.258064
0.044303 -0.003620 0.255325
0.045489 -0.003616 0.255155
0.046619 -0.003609 0.254700
0.047757 -0.003602 0.254312
0.048898 -0.003595 0.253963
0.050046 -0.003590 0.253679
0.051263 -0.003590 0.253752
0.052354 -0.003581 0.253214
0.053591 -0.003582 0.253402
0.054918 -0.003589 0.253997
0.057331 -0.003665 0.259492
0.059714 -0.003737 0.264628
0.062200 -0.003811 0.270003
0.063546 -0.003814 0.270318
0.064662 -0.003803 0.269666
0.066104 -0.003812 0.270380
0.067532 -0.003820 0.271010
0.068673 -0.003811 0.270493
0.069827 -0.003803 0.270046
0.071227 -0.003809 0.270555
0.072512 -0.003809 0.270619
0.073669 -0.003801 0.270212
0.074468 -0.003777 0.268531
0.075668 -0.003772 0.268330
0.076986 -0.003774 0.268547
0.078085 -0.003766 0.268012
0.079346 -0.003765 0.268038
0.080919 -0.003779 0.269103
0.082422 -0.003789 0.269908
0.083932 -0.003799 0.270708
0.085598 -0.003816 0.271985
0.087263 -0.003832 0.273220
0.088826 -0.003844 0.274102
0.095848 -0.004087 0.291567
0.097076 -0.004081 0.291161
0.099013 -0.004104 0.292863
0.099292 -0.004058 0.289681
0.100640 -0.004057 0.289659
0.101796 -0.004049 0.289091
0.103582 -0.004065 0.290299
0.104353 -0.004042 0.288667
0.105665 -0.004039 0.288549
0.107947 -0.004074 0.291048
0.109627 -0.004085 0.291877
0.111006 -0.004085 0.291889
0.112265 -0.004081 0.291587
0.113510 -0.004076 0.291249
0.114746 -0.004071 0.290892
0.116003 -0.004067 0.290591
0.117270 -0.004063 0.290317
0.118581 -0.004061 0.290150
0.120409 -0.004077 0.291232
0.121372 -0.004063 0.290212
0.122764 -0.004064 0.290224
0.124274 -0.004068 0.290503
0.125740 -0.004071 0.290664
0.127251 -0.004076 0.290918
0.128360 -0.004067 0.290248
0.129535 -0.004061 0.289733
0.131216 -0.004071 0.290336
0.133279 -0.004092 0.291753
0.134603 -0.004091 0.291529
0.135928 -0.004089 0.291301
0.137435 -0.004093 0.291453
0.138777 -0.004092 0.291243
0.140129 -0.004091 0.291046
0.141902 -0.004103 0.291705
0.143586 -0.004112 0.292154
0.144657 -0.004103 0.291348
0.146288 -0.004110 0.291658
0.147762 -0.004113 0.291638
0.149245 -0.004116 0.291618
0.150754 -0.004119 0.291634
0.152150 -0.004120 0.291415
-0.153939 -0.002694 0.290353
-0.152196 -0.002687 0.289837
-0.150737 -0.002685 0.289840
-0.149686 -0.002690 0.290621
-0.148122 -0.002686 0.290396
-0.146771 -0.002686 0.290573
-0.145440 -0.002686 0.290782
-0.143831 -0.002681 0.290418
-0.142507 -0.002681 0.290616
-0.141251 -0.002683 0.290945
-0.139688 -0.002678 0.290630
-0.138266 -0.002677 0.290595
-0.135994 -0.002659 0.288743
-0.134982 -0.002665 0.289546
-0.133932 -0.002671 0.290273
-0.130662 -0.002632 0.286143
-0.127436 -0.002593 0.282014
-0.136557 -0.002807 0.305403
-0.135350 -0.002812 0.305939
-0.137644 -0.002889 0.314476
-0.133030 -0.002822 0.307236
-0.122844 -0.002634 0.286820
-0.121710 -0.002639 0.287316
-0.120495 -0.002641 0.287621
-0.119431 -0.002647 0.288292
-0.118152 -0.002648 0.288447
-0.116964 -0.002652 0.288826
-0.115650 -0.002652 0.288893
-0.114338 -0.002653 0.288962
-0.113055 -0.002654 0.289102
-0.111720 -0.002655 0.289108
-0.110306 -0.002653 0.288902
-0.108898 -0.002651 0.288704
-0.107519 -0.002650 0.288576
-0.106253 -0.002652 0.288750
-0.104948 -0.002653 0.288817
-0.103609 -0.002653 0.288789
-0.102321 -0.002655 0.288901
-0.100984 -0.002655 0.288877
-0.099787 -0.002659 0.289255
-0.098356 -0.002657 0.288957
-0.096974 -0.002656 0.288795
-0.095174 -0.002644 0.287365
-0.100804 -0.002840 0.308644
-0.099520 -0.002845 0.309060
-0.098533 -0.002858 0.310422
-0.096687 -0.002847 0.309081
-0.095336 -0.002850 0.309307
-0.093972 -0.002853 0.309498
-0.092368 -0.002848 0.308894
-0.089550 -0.002805 0.304151
-0.086902 -0.002766 0.299845
-0.084677 -0.002740 0.296886
-0.082677 -0.002720 0.294636
-0.081201 -0.002718 0.294212
-0.079783 -0.002717 0.293989
-0.077877 -0.002699 0.291932
-0.076186 -0.002688 0.290631
-0.074739 -0.002685 0.290230
-0.073550 -0.002692 0.290845
-0.072041 -0.002687 0.290193
-0.072184 -0.002745 0.296309
-0.068247 -0.002646 0.285590
-0.066887 -0.002646 0.285451
-0.065466 -0.002644 0.285044
-0.064203 -0.002647 0.285332
-0.062918 -0.002651 0.285538
-0.061653 -0.002655 0.285851
-0.060413 -0.002660 0.286305
-0.059000 -0.002658 0.285951
-0.057869 -0.002669 0.286981
-0.056560 -0.002671 0.287170
-0.054049 -0.002683 0.288168
-0.042893 -0.002676 0.286425
-0.039464 -0.002631 0.281395
-0.038266 -0.002641 0.282449
-0.036906 -0.002641 0.282348
-0.035743 -0.002656 0.283810
-0.034385 -0.002657 0.283799
-0.030188 -0.002429 0.259405
-0.028970 -0.002432 0.259616
-0.027658 -0.002427 0.258986
-0.026463 -0.002432 0.259463
-0.025208 -0.002432 0.259372
-0.023830 -0.002419 0.257951
-0.022644 -0.002426 0.258591
-0.021433 -0.002431 0.259011
-0.020148 -0.002427 0.258541
-0.019197 -0.002466 0.262606
-0.018489 -0.002543 0.270812
-0.017218 -0.002550 0.271412
-0.015869 -0.002544 0.270780
-0.014765 -0.002581 0.274623
-0.013438 -0.002582 0.274691
-0.001456 -0.002619 0.278365
-0.000103 -0.002620 0.278368
0.001251 -0.002620 0.278366
0.002468 -0.002482 0.263762
0.003873 -0.002563 0.272344
0.005197 -0.002563 0.272322
0.006234 -0.002450 0.260343
0.007485 -0.002445 0.259822
0.008735 -0.002441 0.259413
0.009995 -0.002441 0.259398
0.011231 -0.002435 0.258823
0.012489 -0.002435 0.258830
0.013773 -0.002440 0.259352
0.015069 -0.002446 0.259986
0.016356 -0.002449 0.260376
0.017762 -0.002468 0.262491
0.019133 -0.002481 0.263851
0.020559 -0.002498 0.265751
0.021906 -0.002505 0.266481
0.023186 -0.002503 0.266372
0.038440 -0.002572 0.274469
0.039730 -0.002570 0.274285
0.040858 -0.002558 0.273047
0.041663 -0.002526 0.269798
0.042396 -0.002493 0.266298
0.042905 -0.002448 0.261642
0.043535 -0.002413 0.257981
0.044346 -0.002390 0.255569
0.045503 -0.002386 0.255232
0.046613 -0.002380 0.254657
0.047838 -0.002380 0.254734
0.048989 -0.002376 0.254434
0.050157 -0.002373 0.254233
0.051234 -0.002367 0.253600
0.052561 -0.002372 0.254214
0.053248 -0.002348 0.251773
0.054457 -0.002348 0.251859
0.057171 -0.002412 0.258765
0.060084 -0.002481 0.266261
0.062324 -0.002519 0.270535
0.063561 -0.002517 0.270378
0.064717 -0.002512 0.269894
0.066109 -0.002516 0.270394
0.067509 -0.002520 0.270915
0.068821 -0.002520 0.271070
0.070017 -0.002517 0.270777
0.071308 -0.002517 0.270858
0.072741 -0.002521 0.271466
0.073628 -0.002508 0.270056
0.074723 -0.002501 0.269445
0.076095 -0.002504 0.269842
0.076954 -0.002490 0.268433
0.078282 -0.002492 0.268684
0.079387 -0.002486 0.268174
0.080806 -0.002491 0.268723
0.082390 -0.002500 0.269801
0.083949 -0.002508 0.270762
0.085804 -0.002525 0.272636
0.087013 -0.002523 0.272434
0.089036 -0.002544 0.274747
0.095572 -0.002691 0.290725
0.096796 -0.002687 0.290320
0.099161 -0.002714 0.293299
0.099538 -0.002687 0.290397
0.101700 -0.002708 0.292709
0.102974 -0.002705 0.292435
0.104049 -0.002697 0.291607
0.105199 -0.002691 0.291004
0.106524 -0.002690 0.290895
0.107331 -0.002676 0.289385
0.108710 -0.002676 0.289435
0.110212 -0.002679 0.289802
0.112261 -0.002696 0.291575
0.113608 -0.002695 0.291503
0.114810 -0.002691 0.291055
0.116047 -0.002688 0.290703
0.117286 -0.002685 0.290357
0.118703 -0.002686 0.290449
0.120394 -0.002694 0.291195
0.121726 -0.002693 0.291060
0.121990 -0.002669 0.288394
0.124574 -0.002695 0.291206
0.125932 -0.002695 0.291110
0.127559 -0.002701 0.291624
0.128421 -0.002690 0.290389
0.129688 -0.002688 0.290075
0.131664 -0.002701 0.291330
0.133005 -0.002700 0.291157
0.134364 -0.002700 0.291014
0.135919 -0.002704 0.291286
0.137166 -0.002701 0.290886
0.138924 -0.002709 0.291554
0.140840 -0.002720 0.292526
0.142164 -0.002719 0.292246
0.143782 -0.002723 0.292557
0.145186 -0.002724 0.292417
0.146429 -0.002722 0.291944
0.147835 -0.002722 0.291786
0.148940 -0.002717 0.291028
0.150209 -0.002716 0.290586
0.151746 -0.002719 0.290647
-0.153440 -0.001313 0.289416
-0.152112 -0.001313 0.289680
-0.150784 -0.001313 0.289935
-0.149492 -0.001313 0.290247
-0.148256 -0.001313 0.290662
-0.146872 -0.001313 0.290776
-0.145060 -0.001308 0.290024
-0.143449 -0.001305 0.289649
-0.141911 -0.001303 0.289402
-0.140534 -0.001303 0.289472
-0.138568 -0.001297 0.288304
-0.137080 -0.001295 0.288106
-0.136348 -0.001300 0.289497
-0.134788 -0.001298 0.289132
-0.133195 -0.001295 0.288675
-0.129341 -0.001270 0.283251
-0.126705 -0.001257 0.280397
-0.135933 -0.001362 0.304009
-0.134732 -0.001364 0.304544
-0.135328 -0.001384 0.309186
-0.134104 -0.001386 0.309719
-0.122966 -0.001284 0.287107
-0.121809 -0.001286 0.287551
-0.120500 -0.001286 0.287634
-0.119329 -0.001287 0.288045
-0.118116 -0.001289 0.288361
-0.116908 -0.001290 0.288687
-0.115694 -0.001291 0.289002
-0.114106 -0.001288 0.288376
-0.112543 -0.001285 0.287793
-0.111362 -0.001287 0.288182
-0.110278 -0.001290 0.288829
-0.108842 -0.001288 0.288557
-0.107611 -0.001289 0.288824
-0.106526 -0.001292 0.289491
-0.104980 -0.001290 0.288905
-0.103622 -0.001290 0.288825
-0.102314 -0.001290 0.288882
-0.101091 -0.001291 0.289181
-0.099658 -0.001290 0.288882
-0.098228 -0.001289 0.288580
-0.096804 -0.001288 0.288286
-0.094544 -0.001275 0.285459
-0.100577 -0.001376 0.307947
-0.099296 -0.001378 0.308363
-0.098282 -0.001384 0.309629
-0.096594 -0.001380 0.308781
-0.095170 -0.001380 0.308765
-0.093813 -0.001382 0.308971
-0.091766 -0.001373 0.306880
-0.089092 -0.001354 0.302591
-0.086935 -0.001342 0.299955
-0.084677 -0.001329 0.296882
-0.082743 -0.001320 0.294868
-0.081090 -0.001316 0.293807
-0.079451 -0.001311 0.292764
-0.077644 -0.001304 0.291056
-0.076297 -0.001305 0.291050
-0.074720 -0.001301 0.290156
-0.073418 -0.001302 0.290317
-0.072043 -0.001302 0.290201
-0.069716 -0.001284 0.286172
-0.068161 -0.001281 0.285227
-0.066751 -0.001279 0.284866
-0.065167 -0.001275 0.283741
-0.063886 -0.001276 0.283921
-0.062508 -0.001275 0.283673
-0.061205 -0.001276 0.283770
-0.059906 -0.001277 0.283900
-0.058540 -0.001277 0.283719
-0.057210 -0.001277 0.283709
-0.055859 -0.001277 0.283608
-0.054249 -0.001271 0.282157
-0.052724 -0.001267 0.281100
-0.051460 -0.001269 0.281421
-0.050177 -0.001270 0.281662
-0.048659 -0.001266 0.280569
-0.043870 -0.001283 0.283947
-0.042446 -0.001281 0.283434
-0.041146 -0.001283 0.283756
-0.039582 -0.001276 0.282233
-0.038516 -0.001286 0.284285
-0.036591 -0.001267 0.279930
-0.035618 -0.001280 0.282818
-0.034478 -0.001288 0.284565
-0.030189 -0.001175 0.259404
-0.028801 -0.001169 0.258102
-0.027652 -0.001173 0.258927
-0.026472 -0.001176 0.259542
-0.025040 -0.001168 0.257636
-0.023922 -0.001174 0.258942
-0.022700 -0.001176 0.259226
-0.021450 -0.001176 0.259205
-0.020154 -0.001174 0.258614
-0.019038 -0.001182 0.260419
-0.018290 -0.001216 0.267894
-0.017149 -0.001227 0.270314
-0.015772 -0.001222 0.269125
-0.014766 -0.001248 0.274632
-0.013132 -0.001220 0.268424
-0.011316 -0.001167 0.256738
-0.010042 -0.001163 0.255982
-0.008862 -0.001172 0.257790
-0.007581 -0.001167 0.256779
-0.006337 -0.001168 0.256891
-0.005108 -0.001172 0.257860
-0.003864 -0.001175 0.258426
-0.002616 -0.001179 0.259185
-0.001357 -0.001180 0.259441
-0.000098 -0.001203 0.264561
0.001175 -0.001190 0.261559
0.002467 -0.001199 0.263622
0.003842 -0.001229 0.270189
