ply
format ascii 1.0
element vertex 1680
property float x
property float y
property float z
end_header
-0.068900 -0.012314 0.288427
-0.067656 -0.012338 0.288837
-0.066390 -0.012358 0.289176
-0.065064 -0.012368 0.289269
-0.063722 -0.012376 0.289300
-0.062427 -0.012393 0.289558
-0.061086 -0.012401 0.289614
-0.059706 -0.012402 0.289493
-0.058402 -0.012419 0.289749
-0.056920 -0.012398 0.289122
-0.055644 -0.012422 0.289548
-0.054425 -0.012460 0.290306
-0.052915 -0.012432 0.289517
-0.051643 -0.012460 0.290034
-0.040213 -0.012369 0.286892
-0.038713 -0.012331 0.285901
-0.036843 -0.012169 0.282020
-0.035841 -0.012291 0.284747
-0.034629 -0.012349 0.285979
-0.030206 -0.011219 0.259704
-0.028903 -0.011200 0.259174
-0.027471 -0.011127 0.257390
-0.026329 -0.011170 0.258304
-0.025089 -0.011174 0.258308
-0.023815 -0.011162 0.257949
-0.022586 -0.011171 0.258087
-0.021353 -0.011180 0.258210
-0.020246 -0.011259 0.259975
-0.019041 -0.011291 0.260638
-0.018578 -0.011799 0.272300
-0.017026 -0.011640 0.268566
-0.016000 -0.011844 0.273206
-0.015002 -0.012109 0.279244
0.001218 -0.011752 0.270633
0.002489 -0.011549 0.265945
0.006184 -0.011217 0.258319
0.007404 -0.011164 0.257088
0.008660 -0.011171 0.257277
0.009895 -0.011154 0.256899
0.011146 -0.011156 0.256971
0.012412 -0.011171 0.257347
0.013672 -0.011179 0.257545
0.014945 -0.011195 0.257951
0.016228 -0.011215 0.258452
0.017499 -0.011225 0.258716
0.018943 -0.011337 0.261338
0.020288 -0.011379 0.262361
0.021977 -0.011598 0.267463
0.023700 -0.011810 0.272393
0.024458 -0.011543 0.266305
0.025281 -0.011333 0.261506
0.026313 -0.011232 0.259242
0.027590 -0.011240 0.259487
0.028703 -0.011183 0.258243
0.029921 -0.011170 0.258012
0.031213 -0.011184 0.258427
0.032565 -0.011219 0.259298
0.033743 -0.011193 0.258774
0.035232 -0.011268 0.260598
0.037191 -0.011483 0.265663
0.038940 -0.011621 0.268946
0.040212 -0.011613 0.268842
0.041549 -0.011623 0.269168
0.043577 -0.011820 0.273830
0.044595 -0.011740 0.272064
0.044929 -0.011489 0.266345
0.044673 -0.011105 0.257555
0.045866 -0.011093 0.257367
0.047099 -0.011091 0.257415
0.048376 -0.011099 0.257701
0.049561 -0.011086 0.257498
0.050736 -0.011071 0.257262
0.052156 -0.011109 0.258256
0.053685 -0.011169 0.259736
0.055234 -0.011229 0.261256
0.057073 -0.011345 0.264050
0.058944 -0.011462 0.266877
0.060754 -0.011562 0.269320
0.062139 -0.011579 0.269821
0.063591 -0.011607 0.270592
0.064930 -0.011614 0.270863
0.066260 -0.011619 0.271093
0.067531 -0.011614 0.271082
0.068752 -0.011600 0.270875
0.070122 -0.011612 0.271256
0.071431 -0.011614 0.271396
0.072302 -0.011545 0.269898
0.073180 -0.011480 0.268480
0.074025 -0.011412 0.266992
0.074899 -0.011351 0.265660
0.075584 -0.011264 0.263714
0.076109 -0.011156 0.261281
0.077285 -0.011145 0.261128
0.078315 -0.011114 0.260492
0.079775 -0.011144 0.261286
0.081323 -0.011186 0.262339
0.083189 -0.011269 0.264372
0.084887 -0.011327 0.265821
0.086528 -0.011376 0.267051
0.099494 -0.012707 0.298453
0.100748 -0.012686 0.298033
0.100348 -0.012460 0.292795
0.100760 -0.012339 0.290033
0.102272 -0.012355 0.290470
0.104937 -0.012343 0.290304
0.106498 -0.012364 0.290844
0.107914 -0.012368 0.290977
0.109647 -0.012407 0.291945
0.110922 -0.012395 0.291681
0.112164 -0.012379 0.291335
0.113557 -0.012380 0.291377
0.114891 -0.012374 0.291265
0.116143 -0.012360 0.290944
0.117566 -0.012364 0.291048
0.118835 -0.012353 0.290767
0.120679 -0.012400 0.291878
0.121855 -0.012379 0.291357
0.122838 -0.012338 0.290387
0.124401 -0.012357 0.290783
0.125699 -0.012348 0.290551
0.127353 -0.012375 0.291131
0.128220 -0.012325 0.289908
0.129385 -0.012305 0.289369
0.132045 -0.012426 0.292140
0.133429 -0.012425 0.292048
0.134466 -0.012393 0.291197
0.136246 -0.012429 0.291944
0.137987 -0.012461 0.292582
0.139531 -0.012474 0.292778
0.141093 -0.012489 0.292998
0.141997 -0.012446 0.291846
0.143708 -0.012474 0.292346
0.145136 -0.012477 0.292252
0.146721 -0.012493 0.292457
0.148547 -0.012530 0.293120
0.150042 -0.012538 0.293105
0.151280 -0.012524 0.292577
0.152534 -0.012512 0.292073
-0.154439 -0.010991 0.291235
-0.152814 -0.010972 0.290956
-0.151371 -0.010967 0.291005
-0.150080 -0.010972 0.291334
-0.148662 -0.010968 0.291406
-0.147297 -0.010968 0.291570
-0.145768 -0.010956 0.291394
-0.144435 -0.010958 0.291598
-0.143029 -0.010955 0.291642
-0.141780 -0.010964 0.292001
-0.140417 -0.010964 0.292116
-0.139077 -0.010966 0.292271
-0.137888 -0.010980 0.292738
-0.136010 -0.010939 0.291726
-0.134069 -0.010893 0.290547
-0.130875 -0.010742 0.286589
-0.126608 -0.010499 0.280165
-0.138920 -0.011641 0.310672
-0.137691 -0.011660 0.311218
-0.136460 -0.011679 0.311759
-0.132959 -0.011502 0.307064
-0.123980 -0.010842 0.289468
-0.122872 -0.010864 0.290056
-0.120324 -0.010758 0.287212
-0.119536 -0.010808 0.288548
-0.118480 -0.010835 0.289251
-0.116954 -0.010819 0.288807
-0.115669 -0.010825 0.288949
-0.114327 -0.010826 0.288944
-0.113181 -0.010846 0.289439
-0.111784 -0.010842 0.289290
-0.110451 -0.010844 0.289299
-0.109238 -0.010859 0.289626
-0.107958 -0.010867 0.289777
-0.106705 -0.010878 0.290001
-0.105329 -0.010876 0.289890
-0.104036 -0.010883 0.290007
-0.102708 -0.010887 0.290027
-0.101327 -0.010885 0.289892
-0.099836 -0.010871 0.289433
-0.098486 -0.010872 0.289374
-0.097139 -0.010874 0.289323
-0.095626 -0.010857 0.288770
-0.096912 -0.011161 0.296771
-0.095677 -0.011180 0.297171
-0.094085 -0.011158 0.296456
-0.092756 -0.011166 0.296566
-0.091443 -0.011177 0.296727
-0.089792 -0.011146 0.295786
-0.088386 -0.011145 0.295635
-0.086583 -0.011092 0.294130
-0.084973 -0.011064 0.293250
-0.083385 -0.011037 0.292418
-0.081895 -0.011023 0.291911
-0.080317 -0.010997 0.291073
-0.078865 -0.010986 0.290672
-0.077579 -0.011000 0.290886
-0.076294 -0.011013 0.291114
-0.075110 -0.011042 0.291744
-0.074056 -0.011092 0.292922
-0.072947 -0.011135 0.293921
-0.072601 -0.011299 0.298100
-0.068889 -0.010935 0.288355
-0.067558 -0.010942 0.288396
-0.066283 -0.010958 0.288688
-0.064946 -0.010965 0.288719
-0.063661 -0.010980 0.288997
-0.062380 -0.010998 0.289313
-0.061050 -0.011007 0.289418
-0.059715 -0.011016 0.289510
-0.058379 -0.011025 0.289609
-0.057090 -0.011044 0.289957
-0.055729 -0.011049 0.289959
-0.054378 -0.011057 0.290022
-0.053122 -0.011084 0.290618
-0.051672 -0.011072 0.290163
-0.040162 -0.010971 0.286494
-0.038621 -0.010925 0.285187
-0.037223 -0.010918 0.284891
-0.035860 -0.010921 0.284862
-0.034615 -0.010963 0.285825
-0.030138 -0.009941 0.259088
-0.028803 -0.009912 0.258240
-0.027487 -0.009887 0.257505
-0.026295 -0.009907 0.257932
-0.025058 -0.009911 0.257947
-0.023799 -0.009906 0.257750
-0.022573 -0.009915 0.257900
-0.021320 -0.009913 0.257775
-0.020190 -0.009971 0.259210
-0.019327 -0.010178 0.264517
-0.018370 -0.010361 0.269203
-0.017026 -0.010337 0.268524
-0.015608 -0.010261 0.266485
-0.014350 -0.010286 0.267066
-0.013010 -0.010251 0.266101
0.002531 -0.010432 0.270462
0.005182 -0.010474 0.271558
0.006196 -0.009982 0.258804
0.007411 -0.009923 0.257290
0.008658 -0.009919 0.257202
0.009924 -0.009935 0.257625
0.011169 -0.009929 0.257480
0.012416 -0.009925 0.257408
0.013713 -0.009958 0.258295
0.014987 -0.009970 0.258644
0.016275 -0.009989 0.259173
0.017524 -0.009983 0.259065
0.018885 -0.010038 0.260513
0.020295 -0.010110 0.262435
0.022107 -0.010361 0.269015
0.023660 -0.010471 0.271911
0.024636 -0.010326 0.268222
0.025631 -0.010204 0.265106
0.026446 -0.010025 0.260521
0.027684 -0.010016 0.260340
0.028836 -0.009978 0.259416
0.029896 -0.009912 0.257771
0.031088 -0.009893 0.257373
0.032445 -0.009927 0.258318
0.033789 -0.009954 0.259103
0.035267 -0.010017 0.260833
0.036781 -0.010086 0.262710
0.038721 -0.010263 0.267408
0.040674 -0.010432 0.271905
0.041430 -0.010293 0.268376
0.043270 -0.010424 0.271875
0.044738 -0.010459 0.272907
0.044224 -0.010043 0.262143
0.044389 -0.009800 0.255894
0.045489 -0.009771 0.255230
0.046793 -0.009786 0.255717
0.047829 -0.009746 0.254765
0.049058 -0.009745 0.254863
0.050263 -0.009741 0.254842
0.051401 -0.009724 0.254496
0.052745 -0.009746 0.255171
0.054582 -0.009855 0.258151
0.056784 -0.010025 0.262691
0.058962 -0.010183 0.266939
0.060737 -0.010266 0.269222
0.062169 -0.010288 0.269929
0.063526 -0.010298 0.270293
0.064928 -0.010314 0.270836
0.066269 -0.010321 0.271113
0.067544 -0.010317 0.271114
0.068814 -0.010312 0.271104
0.070064 -0.010305 0.271014
0.071335 -0.010301 0.271015
0.072363 -0.010262 0.270111
0.073471 -0.010237 0.269534
0.074263 -0.010168 0.267838
0.075490 -0.010161 0.267744
0.076548 -0.010132 0.267064
0.077571 -0.010098 0.266286
0.078697 -0.010080 0.265885
0.079934 -0.010075 0.265865
0.081407 -0.010101 0.266618
0.082783 -0.010113 0.267039
0.084262 -0.010138 0.267771
0.086000 -0.010192 0.269296
0.087307 -0.010195 0.269445
0.095025 -0.010935 0.289093
0.096243 -0.010917 0.288690
0.098939 -0.011065 0.292671
0.099632 -0.010988 0.290697
0.100962 -0.010982 0.290609
0.102104 -0.010956 0.289987
0.103393 -0.010946 0.289788
0.104693 -0.010938 0.289625
0.106075 -0.010939 0.289686
0.108140 -0.011008 0.291582
0.109537 -0.011010 0.291648
0.110884 -0.011006 0.291578
0.112049 -0.010984 0.291033
0.113378 -0.010979 0.290916
0.114666 -0.010970 0.290694
0.116129 -0.010978 0.290910
0.117857 -0.011010 0.291769
0.119608 -0.011044 0.292660
0.120743 -0.011020 0.292034
0.121789 -0.010989 0.291202
0.123118 -0.010985 0.291051
0.124374 -0.010974 0.290724
0.125635 -0.010963 0.290409
0.127042 -0.010965 0.290425
0.128216 -0.010948 0.289905
0.130836 -0.011053 0.292620
0.132164 -0.011048 0.292410
0.133590 -0.011051 0.292408
0.134922 -0.011046 0.292192
0.136199 -0.011037 0.291853
0.137506 -0.011030 0.291570
0.139085 -0.011046 0.291854
0.140437 -0.011043 0.291647
0.141933 -0.011051 0.291728
0.143400 -0.011057 0.291732
0.144602 -0.011043 0.291191
0.146072 -0.011049 0.291179
0.148119 -0.011098 0.292291
0.149762 -0.011117 0.292574
0.151322 -0.011129 0.292675
0.152393 -0.011105 0.291820
-0.154476 -0.009612 0.291320
-0.152883 -0.009598 0.291103
-0.151280 -0.009582 0.290843
-0.150004 -0.009588 0.291200
-0.148774 -0.009597 0.291637
-0.147103 -0.009577 0.291196
-0.145713 -0.009575 0.291294
-0.144331 -0.009574 0.291397
-0.143005 -0.009576 0.291604
-0.141658 -0.009577 0.291756
-0.140217 -0.009572 0.291707
-0.138744 -0.009564 0.291577
-0.137486 -0.009572 0.291891
-0.135815 -0.009550 0.291314
-0.134326 -0.009541 0.291108
-0.129408 -0.009286 0.283382
-0.127130 -0.009217 0.281323
-0.138225 -0.010126 0.309121
-0.137003 -0.010142 0.309664
-0.132977 -0.010056 0.307107
-0.123785 -0.009464 0.289015
-0.122340 -0.009456 0.288800
-0.121022 -0.009459 0.288878
-0.119939 -0.009480 0.289519
-0.118573 -0.009479 0.289477
-0.117429 -0.009496 0.289977
-0.116427 -0.009525 0.290840
-0.114407 -0.009471 0.289145
-0.112979 -0.009464 0.288919
-0.111687 -0.009470 0.289034
-0.110353 -0.009471 0.289038
-0.109024 -0.009474 0.289053
-0.107925 -0.009496 0.289682
-0.106479 -0.009488 0.289382
-0.105044 -0.009481 0.289099
-0.103569 -0.009471 0.288699
-0.102275 -0.009476 0.288796
-0.100794 -0.009465 0.288357
-0.099739 -0.009493 0.289141
-0.098434 -0.009498 0.289213
-0.096884 -0.009480 0.288555
-0.094823 -0.009410 0.286335
-0.097749 -0.009840 0.299323
-0.096504 -0.009857 0.299726
-0.095031 -0.009851 0.299426
-0.093268 -0.009814 0.298188
-0.092091 -0.009839 0.298819
-0.090481 -0.009817 0.298041
-0.088608 -0.009766 0.296363
-0.086830 -0.009723 0.294954
-0.085133 -0.009689 0.293785
-0.083433 -0.009653 0.292570
-0.081827 -0.009627 0.291653
-0.080432 -0.009625 0.291472
-0.078996 -0.009619 0.291138
-0.077579 -0.009614 0.290866
-0.076494 -0.009651 0.291857
-0.075064 -0.009646 0.291550
-0.074135 -0.009705 0.293213
-0.073178 -0.009764 0.294832
-0.072168 -0.009817 0.296300
-0.068899 -0.009559 0.288378
-0.067596 -0.009569 0.288538
-0.066288 -0.009578 0.288686
-0.065016 -0.009594 0.289008
-0.063688 -0.009601 0.289097
-0.062392 -0.009614 0.289346
-0.061030 -0.009617 0.289298
-0.059711 -0.009628 0.289466
-0.058415 -0.009642 0.289764
-0.056940 -0.009627 0.289173
-0.052878 -0.009643 0.289256
-0.040274 -0.009615 0.287262
-0.039060 -0.009657 0.288400
-0.037194 -0.009535 0.284636
-0.035827 -0.009537 0.284573
-0.034572 -0.009569 0.285438
-0.030094 -0.008675 0.258684
-0.028711 -0.008635 0.257389
-0.027462 -0.008633 0.257239
-0.026301 -0.008660 0.257961
-0.025055 -0.008661 0.257892
-0.023814 -0.008663 0.257873
-0.022580 -0.008668 0.257950
-0.021332 -0.008668 0.257883
-0.020118 -0.008683 0.258255
-0.019133 -0.008806 0.261836
-0.018454 -0.009097 0.270401
-0.016928 -0.008983 0.266948
-0.015627 -0.008979 0.266770
-0.014632 -0.009166 0.272273
-0.013317 -0.009170 0.272340
0.001231 -0.009228 0.273709
0.002526 -0.009101 0.269938
0.003863 -0.009158 0.271627
0.005183 -0.009157 0.271605
0.006202 -0.008732 0.259015
0.007398 -0.008659 0.256851
0.008663 -0.008675 0.257341
0.009937 -0.008694 0.257933
0.011177 -0.008684 0.257633
0.012461 -0.008706 0.258314
0.013743 -0.008722 0.258833
0.015037 -0.008743 0.259492
0.016347 -0.008769 0.260304
0.017655 -0.008791 0.260977
0.019000 -0.008826 0.262080
0.020532 -0.008939 0.265469
0.021999 -0.009012 0.267681
0.023585 -0.009122 0.271018
0.024859 -0.009107 0.270623
0.025832 -0.008988 0.267161
0.027266 -0.009034 0.268575
0.028548 -0.009027 0.268441
0.034350 -0.008844 0.263386
0.035593 -0.008836 0.263221
0.037357 -0.008953 0.266799
0.038760 -0.008979 0.267655
0.040113 -0.008992 0.268130
0.041370 -0.008983 0.267963
0.043119 -0.009079 0.270905
0.044245 -0.009041 0.269877
0.043312 -0.008597 0.256719
0.044240 -0.008537 0.255014
0.045319 -0.008508 0.254253
0.046603 -0.008518 0.254660
0.047778 -0.008509 0.254471
0.048957 -0.008500 0.254323
0.050203 -0.008504 0.254522
0.051432 -0.008504 0.254633
0.052771 -0.008522 0.255280
0.054059 -0.008532 0.255661
0.055963 -0.008635 0.258879
0.058176 -0.008781 0.263360
0.060708 -0.008968 0.269076
0.062052 -0.008976 0.269404
0.063483 -0.008995 0.270093
0.064863 -0.009006 0.270550
0.066342 -0.009031 0.271392
0.067634 -0.009030 0.271462
0.068811 -0.009013 0.271077
0.070169 -0.009021 0.271407
0.071453 -0.009018 0.271449
0.072784 -0.009022 0.271670
0.073732 -0.008979 0.270478
0.074885 -0.008962 0.270069
0.076191 -0.008964 0.270218
0.077027 -0.008911 0.268722
0.078599 -0.008944 0.269805
0.079509 -0.008901 0.268616
0.080951 -0.008919 0.269238
0.082705 -0.008970 0.270859
0.083733 -0.008941 0.270094
0.085677 -0.009010 0.272260
0.087202 -0.009034 0.273051
0.088630 -0.009047 0.273520
0.096028 -0.009660 0.292135
0.097258 -0.009644 0.291728
0.098292 -0.009609 0.290751
0.099833 -0.009624 0.291277
0.101195 -0.009622 0.291272
0.102617 -0.009625 0.291435
0.103650 -0.009592 0.290502
0.105149 -0.009603 0.290879
0.106666 -0.009615 0.291295
0.108198 -0.009628 0.291733
0.109512 -0.009622 0.291579
0.110897 -0.009622 0.291610
0.112139 -0.009609 0.291263
0.113473 -0.009605 0.291158
0.114793 -0.009600 0.291015
0.115841 -0.009572 0.290187
0.117863 -0.009625 0.291785
0.118635 -0.009576 0.290280
0.119924 -0.009568 0.290053
0.121915 -0.009617 0.291505
0.122548 -0.009558 0.289704
0.123962 -0.009561 0.289763
0.125604 -0.009582 0.290339
0.127420 -0.009615 0.291293
0.128742 -0.009610 0.291099
0.130445 -0.009634 0.291753
0.131821 -0.009633 0.291658
0.133082 -0.009624 0.291303
0.134400 -0.009619 0.291070
0.136079 -0.009640 0.291602
0.137359 -0.009633 0.291267
0.138766 -0.009635 0.291194
0.140240 -0.009641 0.291247
0.141729 -0.009648 0.291317
0.143008 -0.009641 0.290947
0.144464 -0.009645 0.290924
0.145773 -0.009640 0.290596
0.148017 -0.009696 0.292102
0.149912 -0.009729 0.292881
0.151185 -0.009721 0.292425
0.152677 -0.009727 0.292381
-0.154279 -0.008220 0.290961
-0.152862 -0.008217 0.291074
-0.151161 -0.008198 0.290626
-0.150020 -0.008210 0.291242
-0.148797 -0.008218 0.291693
-0.147153 -0.008202 0.291304
-0.145678 -0.008196 0.291233
-0.144270 -0.008193 0.291282
-0.143009 -0.008199 0.291619
-0.141655 -0.008200 0.291759
-0.140317 -0.008201 0.291922
-0.138812 -0.008193 0.291726
-0.137504 -0.008196 0.291934
-0.135925 -0.008183 0.291555
-0.134377 -0.008172 0.291224
-0.129072 -0.007929 0.282648
-0.127029 -0.007884 0.281105
-0.137632 -0.008632 0.307798
-0.136416 -0.008646 0.308339
-0.133060 -0.008615 0.307301
-0.123438 -0.008079 0.288204
-0.122637 -0.008115 0.289501
-0.120859 -0.008087 0.288489
-0.119694 -0.008099 0.288928
-0.118865 -0.008135 0.290189
-0.117454 -0.008131 0.290039
-0.115811 -0.008111 0.289299
-0.114294 -0.008099 0.288856
-0.113074 -0.008109 0.289156
-0.111754 -0.008111 0.289204
-0.110459 -0.008116 0.289312
-0.109137 -0.008118 0.289348
-0.107826 -0.008121 0.289410
-0.106551 -0.008128 0.289572
-0.105144 -0.008124 0.289369
-0.103786 -0.008124 0.289298
-0.102317 -0.008115 0.288907
-0.101209 -0.008135 0.289537
-0.099617 -0.008116 0.288780
-0.098458 -0.008133 0.289276
-0.097188 -0.008140 0.289450
-0.094375 -0.008017 0.284972
-0.098329 -0.008473 0.301088
-0.097076 -0.008488 0.301494
-0.095651 -0.008487 0.301368
-0.094064 -0.008472 0.300723
-0.092887 -0.008494 0.301388
-0.090797 -0.008432 0.299068
-0.089199 -0.008415 0.298324
-0.086990 -0.008338 0.295486
-0.085223 -0.008302 0.294083
-0.083640 -0.008283 0.293283
-0.081905 -0.008248 0.291917
-0.080454 -0.008241 0.291537
-0.079119 -0.008246 0.291578
-0.077812 -0.008254 0.291725
-0.076441 -0.008255 0.291642
-0.075217 -0.008273 0.292127
-0.074245 -0.008319 0.293630
-0.073009 -0.008337 0.294136
-0.072368 -0.008426 0.297107
-0.068847 -0.008175 0.288141
-0.067620 -0.008193 0.288622
-0.066309 -0.008201 0.288759
-0.065009 -0.008210 0.288959
-0.063698 -0.008219 0.289126
-0.062346 -0.008223 0.289115
-0.061009 -0.008228 0.289179
-0.059669 -0.008234 0.289243
-0.058310 -0.008238 0.289221
-0.057013 -0.008250 0.289521
-0.055645 -0.008253 0.289477
-0.054329 -0.008263 0.289715
-0.039990 -0.008171 0.285209
-0.038571 -0.008161 0.284764
-0.036973 -0.008112 0.282920
-0.035731 -0.008140 0.283782
-0.034514 -0.008176 0.284928
-0.030104 -0.007427 0.258742
-0.028691 -0.007385 0.257181
-0.027467 -0.007390 0.257261
-0.026307 -0.007413 0.257994
-0.025032 -0.007405 0.257628
-0.023822 -0.007416 0.257934
-0.022601 -0.007425 0.258171
-0.021349 -0.007425 0.258067
-0.020136 -0.007438 0.258457
-0.019056 -0.007506 0.260746
-0.018475 -0.007794 0.270675
-0.017165 -0.007795 0.270647
-0.016074 -0.007903 0.274357
-0.015067 -0.008077 0.280326
-0.000100 -0.007899 0.273754
0.001231 -0.007899 0.273751
0.002480 -0.007647 0.264999
0.003839 -0.007790 0.269970
0.005151 -0.007789 0.269949
0.006226 -0.007503 0.260018
0.007465 -0.007477 0.259147
0.008705 -0.007460 0.258557
0.009984 -0.007477 0.259156
0.011226 -0.007464 0.258743
0.012523 -0.007488 0.259588
0.013813 -0.007503 0.260139
0.015153 -0.007541 0.261480
0.016470 -0.007562 0.262241
0.017816 -0.007592 0.263344
0.019182 -0.007626 0.264565
0.020593 -0.007673 0.266246
0.022438 -0.007867 0.273007
0.023750 -0.007862 0.272896
0.025059 -0.007857 0.272779
0.025838 -0.007694 0.267201
0.027272 -0.007733 0.268615
0.035733 -0.007592 0.264239
0.038053 -0.007806 0.271753
0.039330 -0.007798 0.271571
0.040528 -0.007775 0.270885
0.041559 -0.007723 0.269166
0.042808 -0.007714 0.268929
0.044254 -0.007739 0.269916
0.043591 -0.007405 0.258356
0.044208 -0.007301 0.254811
0.045432 -0.007300 0.254870
0.046710 -0.007307 0.255228
0.047846 -0.007293 0.254820
0.049067 -0.007292 0.254873
0.050268 -0.007287 0.254832
0.051623 -0.007306 0.255566
0.052793 -0.007297 0.255369
0.054038 -0.007299 0.255546
0.055829 -0.007373 0.258241
0.058059 -0.007501 0.262815
0.060378 -0.007634 0.267599
0.061972 -0.007672 0.269045
0.063409 -0.007690 0.269766
0.064712 -0.007691 0.269907
0.066168 -0.007709 0.270670
0.067532 -0.007717 0.271038
0.068779 -0.007711 0.270935
0.070045 -0.007707 0.270915
0.071503 -0.007725 0.271628
0.072996 -0.007745 0.272447
0.074601 -0.007776 0.273654
0.075485 -0.007733 0.272222
0.076725 -0.007726 0.272101
0.077938 -0.007718 0.271891
0.078978 -0.007692 0.271097
0.080153 -0.007681 0.270782
0.081088 -0.007647 0.269684
0.082467 -0.007656 0.270073
0.083858 -0.007665 0.270488
0.085298 -0.007678 0.271046
0.086829 -0.007700 0.271875
0.088277 -0.007713 0.272422
0.095421 -0.008216 0.290282
0.096643 -0.008203 0.289878
0.099393 -0.008317 0.294001
0.099679 -0.008225 0.290823
0.100979 -0.008219 0.290646
0.102086 -0.008197 0.289924
0.104360 -0.008267 0.292490
0.104676 -0.008183 0.289569
0.105834 -0.008167 0.289018
0.108153 -0.008239 0.291610
0.109624 -0.008245 0.291874
0.110897 -0.008237 0.291607
0.112093 -0.008223 0.291144
0.113410 -0.008218 0.290996
0.114762 -0.008216 0.290935
0.116034 -0.008208 0.290669
0.117235 -0.008196 0.290229
0.118493 -0.008188 0.289932
0.119759 -0.008180 0.289656
0.120984 -0.008170 0.289280
0.122395 -0.008173 0.289345
0.123837 -0.008177 0.289474
0.125577 -0.008201 0.290281
0.127660 -0.008247 0.291845
0.128920 -0.008239 0.291505
0.130281 -0.008237 0.291389
0.131688 -0.008239 0.291367
0.133073 -0.008239 0.291289
0.134222 -0.008225 0.290691
0.135523 -0.008220 0.290419
0.137148 -0.008235 0.290827
0.138776 -0.008249 0.291222
0.140382 -0.008263 0.291552
0.141824 -0.008266 0.291523
0.143053 -0.008257 0.291049
0.144443 -0.008257 0.290893
0.145737 -0.008252 0.290535
0.147261 -0.008260 0.290623
0.149149 -0.008288 0.291404
0.151227 -0.008326 0.292520
0.152499 -0.008319 0.292053
-0.154411 -0.006846 0.291222
-0.153046 -0.006846 0.291435
-0.151345 -0.006830 0.290989
-0.150190 -0.006839 0.291580
-0.148770 -0.006837 0.291648
-0.147164 -0.006825 0.291334
-0.145498 -0.006811 0.290881
-0.144227 -0.006815 0.291203
-0.142961 -0.006820 0.291528
-0.141622 -0.006821 0.291698
-0.140245 -0.006820 0.291778
-0.138747 -0.006813 0.291596
-0.137616 -0.006824 0.292177
-0.135881 -0.006806 0.291465
-0.134741 -0.006817 0.292017
-0.129209 -0.006604 0.282952
-0.128107 -0.006615 0.283491
-0.138180 -0.007210 0.309026
-0.136959 -0.007221 0.309569
-0.135734 -0.007233 0.310107
-0.133073 -0.007168 0.307332
-0.123295 -0.006713 0.287871
-0.122010 -0.006716 0.288021
-0.120708 -0.006719 0.288128
-0.119674 -0.006736 0.288879
-0.118336 -0.006737 0.288898
-0.117207 -0.006750 0.289426
-0.115659 -0.006738 0.288918
-0.114148 -0.006729 0.288486
-0.112884 -0.006734 0.288669
-0.111641 -0.006740 0.288908
-0.110262 -0.006739 0.288792
-0.108991 -0.006744 0.288958
-0.107648 -0.006744 0.288930
-0.106435 -0.006753 0.289251
-0.105062 -0.006752 0.289140
-0.103747 -0.006755 0.289183
-0.102575 -0.006767 0.289629
-0.101224 -0.006768 0.289575
-0.099925 -0.006772 0.289666
-0.098640 -0.006777 0.289802
-0.097310 -0.006779 0.289808
-0.094924 -0.006707 0.286621
-0.098606 -0.007067 0.301927
-0.097350 -0.007079 0.302334
-0.096078 -0.007091 0.302703
-0.094170 -0.007054 0.301051
-0.092929 -0.007068 0.301517
-0.091299 -0.007052 0.300712
-0.089143 -0.006994 0.298127
-0.087324 -0.006961 0.296610
-0.085583 -0.006934 0.295316
-0.083884 -0.006909 0.294128
-0.082175 -0.006882 0.292866
-0.080740 -0.006878 0.292562
-0.079261 -0.006870 0.292087
-0.077847 -0.006867 0.291844
-0.076541 -0.006874 0.292009
-0.075100 -0.006869 0.291658
-0.074097 -0.006905 0.293030
-0.073012 -0.006934 0.294131
-0.071839 -0.006956 0.294917
-0.068813 -0.006796 0.287986
-0.067587 -0.006810 0.288464
-0.066295 -0.006819 0.288685
-0.064963 -0.006823 0.288739
-0.063630 -0.006828 0.288798
-0.062348 -0.006838 0.289106
-0.061015 -0.006844 0.289193
-0.059607 -0.006840 0.288923
-0.058246 -0.006843 0.288884
-0.056981 -0.006857 0.289342
-0.054314 -0.006870 0.289614
-0.039984 -0.006794 0.285146
-0.038597 -0.006791 0.284929
-0.036949 -0.006741 0.282713
-0.035838 -0.006789 0.284611
-0.034567 -0.006809 0.285344
-0.030104 -0.006176 0.258722
-0.028776 -0.006159 0.257926
-0.027512 -0.006155 0.257663
-0.026286 -0.006159 0.257766
-0.025087 -0.006171 0.258170
-0.023843 -0.006172 0.258144
-0.022612 -0.006177 0.258266
-0.021358 -0.006176 0.258147
-0.020250 -0.006220 0.259906
-0.019227 -0.006297 0.263059
-0.018195 -0.006382 0.266552
-0.017029 -0.006430 0.268475
-0.015825 -0.006470 0.270078
-0.015070 -0.006718 0.280362
-0.013716 -0.006721 0.280431
-0.011434 -0.006219 0.259465
-0.010110 -0.006180 0.257785
-0.008929 -0.006230 0.259809
-0.007614 -0.006186 0.257973
-0.006366 -0.006191 0.258139
-0.005127 -0.006209 0.258866
-0.003865 -0.006202 0.258553
-0.002620 -0.006231 0.259741
-0.001364 -0.006259 0.260868
-0.000097 -0.006356 0.264897
0.001187 -0.006337 0.264103
0.002489 -0.006383 0.266027
0.003854 -0.006504 0.271037
0.005172 -0.006503 0.271016
0.006293 -0.006306 0.262821
0.007561 -0.006298 0.262487
0.008806 -0.006275 0.261552
0.010063 -0.006266 0.261196
0.011323 -0.006261 0.260974
0.012640 -0.006285 0.261999
0.013960 -0.006305 0.262895
0.015354 -0.006354 0.264931
0.016649 -0.006356 0.265071
0.018094 -0.006412 0.267430
0.019530 -0.006457 0.269354
0.020689 -0.006410 0.267463
0.022062 -0.006432 0.268407
0.023467 -0.006460 0.269633
0.024544 -0.006399 0.267159
0.025824 -0.006395 0.267035
0.026991 -0.006364 0.265829
0.028088 -0.006321 0.264080
0.029238 -0.006292 0.262965
0.030448 -0.006279 0.262474
0.031773 -0.006289 0.262983
0.033041 -0.006288 0.263003
0.034337 -0.006292 0.263245
0.035740 -0.006315 0.264271
0.036913 -0.006296 0.263590
0.038307 -0.006316 0.264491
0.039761 -0.006344 0.265745
0.041562 -0.006423 0.269169
0.042496 -0.006368 0.266956
0.043422 -0.006315 0.264826
0.043557 -0.006153 0.258139
0.044402 -0.006098 0.255918
0.045624 -0.006096 0.255931
0.046819 -0.006091 0.255808
0.047967 -0.006080 0.255449
0.049170 -0.006076 0.255398
0.050478 -0.006086 0.255887
0.051735 -0.006088 0.256104
0.052926 -0.006084 0.256001
0.054332 -0.006103 0.256924
0.056150 -0.006167 0.259717
0.057984 -0.006230 0.262465
0.060037 -0.006313 0.266078
0.061872 -0.006370 0.268596
0.063410 -0.006395 0.269760
0.064707 -0.006395 0.269872
0.066082 -0.006403 0.270307
0.067436 -0.006409 0.270640
0.068764 -0.006411 0.270865
0.069959 -0.006402 0.270571
0.071129 -0.006391 0.270195
0.072514 -0.006399 0.270638
0.074094 -0.006423 0.271784
0.075233 -0.006410 0.271303
0.076547 -0.006411 0.271461
0.077839 -0.006411 0.271536
0.078814 -0.006385 0.270525
0.079986 -0.006375 0.270210
0.081237 -0.006372 0.270172
0.082540 -0.006373 0.270305
0.083934 -0.006381 0.270727
0.085301 -0.006387 0.271048
0.086738 -0.006397 0.271583
0.088715 -0.006447 0.273768
0.095502 -0.006840 0.290521
0.096725 -0.006828 0.290117
0.098907 -0.006884 0.292558
0.099884 -0.006856 0.291413
0.101080 -0.006843 0.290930
0.102620 -0.006853 0.291434
0.103758 -0.006837 0.290798
0.104845 -0.006818 0.290032
0.106547 -0.006839 0.290961
0.108144 -0.006852 0.291581
0.109353 -0.006841 0.291150
0.110744 -0.006842 0.291204
0.112091 -0.006840 0.291137
0.113485 -0.006841 0.291188
0.114558 -0.006822 0.290417
0.115903 -0.006821 0.290342
0.117148 -0.006813 0.290015
0.118632 -0.006819 0.290273
0.119685 -0.006801 0.289478
0.121901 -0.006848 0.291473
0.122749 -0.006819 0.290184
0.124235 -0.006825 0.290406
0.125449 -0.006816 0.289987
0.126907 -0.006820 0.290127
0.128632 -0.006839 0.290858
0.130491 -0.006864 0.291863
0.131953 -0.006868 0.291958
0.133122 -0.006857 0.291402
0.134434 -0.006854 0.291155
0.135767 -0.006851 0.290947
0.137519 -0.006870 0.291620
0.139090 -0.006879 0.291889
0.140105 -0.006861 0.290984
0.141716 -0.006872 0.291309
0.143283 -0.006881 0.291524
0.144648 -0.006880 0.291316
0.145799 -0.006869 0.290668
0.147221 -0.006871 0.290553
0.149397 -0.006908 0.291900
0.151147 -0.006924 0.292377
0.152517 -0.006923 0.292100
-0.154367 -0.005463 0.291147
-0.152901 -0.005459 0.291168
-0.151098 -0.005443 0.290522
-0.149922 -0.005450 0.291069
-0.148549 -0.005449 0.291222
-0.147120 -0.005446 0.291255
-0.145748 -0.005446 0.291387
-0.144279 -0.005442 0.291314
-0.142954 -0.005443 0.291520
-0.141637 -0.005444 0.291733
-0.140050 -0.005435 0.291377
-0.138617 -0.005432 0.291326
-0.137121 -0.005427 0.291130
-0.135830 -0.005429 0.291358
-0.133258 -0.005380 0.288806
-0.129093 -0.005265 0.282702
-0.128612 -0.005300 0.284612
-0.137077 -0.005707 0.306563
-0.135866 -0.005717 0.307101
-0.133084 -0.005720 0.307358
-0.123424 -0.005362 0.288172
-0.122352 -0.005374 0.288830
-0.120988 -0.005374 0.288796
-0.119800 -0.005381 0.289182
-0.118618 -0.005388 0.289586
-0.117325 -0.005391 0.289718
-0.116030 -0.005394 0.289842
-0.114600 -0.005390 0.289625
-0.112999 -0.005378 0.288961
-0.111616 -0.005377 0.288842
-0.110351 -0.005381 0.289024
-0.108881 -0.005375 0.288662
-0.107578 -0.005377 0.288739
-0.106263 -0.005379 0.288781
-0.104830 -0.005375 0.288496
-0.103304 -0.005366 0.287945
-0.102068 -0.005372 0.288195
-0.100760 -0.005374 0.288242
-0.099526 -0.005381 0.288506
-0.098300 -0.005388 0.288800
-0.097103 -0.005396 0.289185
-0.095311 -0.005372 0.287784
-0.100127 -0.005725 0.306578
-0.098851 -0.005734 0.306992
-0.097604 -0.005746 0.307505
-0.095707 -0.005719 0.305957
-0.094932 -0.005759 0.308005
-0.092582 -0.005704 0.304930
-0.090070 -0.005637 0.301218
-0.087874 -0.005588 0.298469
-0.085906 -0.005552 0.296418
-0.083865 -0.005510 0.294050
-0.082390 -0.005504 0.293624
-0.080746 -0.005487 0.292572
-0.079322 -0.005484 0.292302
-0.077961 -0.005486 0.292262
-0.076509 -0.005481 0.291876
-0.075102 -0.005479 0.291655
-0.073860 -0.005490 0.292083
-0.072842 -0.005517 0.293434
-0.071953 -0.005557 0.295374
-0.068620 -0.005405 0.287166
-0.067561 -0.005429 0.288344
-0.066318 -0.005440 0.288773
-0.064944 -0.005440 0.288642
-0.063595 -0.005442 0.288626
-0.062244 -0.005445 0.288608
-0.060802 -0.005439 0.288170
-0.059510 -0.005446 0.288438
-0.058254 -0.005458 0.288910
-0.056958 -0.005466 0.289209
-0.055668 -0.005475 0.289564
-0.040052 -0.005427 0.285615
-0.038419 -0.005391 0.283600
-0.036509 -0.005311 0.279328
-0.035783 -0.005405 0.284152
-0.034428 -0.005408 0.284175
-0.030102 -0.004924 0.258682
-0.028784 -0.004913 0.257972
-0.027512 -0.004908 0.257646
-0.026320 -0.004918 0.258086
-0.025083 -0.004920 0.258107
-0.023800 -0.004913 0.257657
-0.022609 -0.004925 0.258221
-0.021378 -0.004930 0.258376
-0.020059 -0.004913 0.257430
-0.019070 -0.004980 0.260892
-0.018373 -0.005139 0.269134
-0.016929 -0.005097 0.266880
-0.015822 -0.005158 0.270009
-0.015073 -0.005357 0.280391
-0.011312 -0.004906 0.256686
-0.010087 -0.004917 0.257172
-0.008884 -0.004942 0.258462
-0.007595 -0.004921 0.257308
-0.006362 -0.004933 0.257950
-0.005120 -0.004944 0.258484
-0.003877 -0.004961 0.259346
-0.002636 -0.004997 0.261215
-0.001372 -0.005021 0.262422
-0.000097 -0.005050 0.263916
0.001190 -0.005067 0.264814
0.002494 -0.005100 0.266542
0.006294 -0.005029 0.262848
0.007543 -0.005010 0.261855
0.008855 -0.005032 0.263000
0.010093 -0.005012 0.261960
0.011372 -0.005014 0.262090
0.012795 -0.005073 0.265189
0.014146 -0.005095 0.266389
0.015497 -0.005113 0.267379
0.016987 -0.005171 0.270442
0.018292 -0.005169 0.270351
0.019552 -0.005154 0.269647
0.020652 -0.005102 0.266975
0.021877 -0.005086 0.266145
0.023076 -0.005065 0.265127
0.024370 -0.005066 0.265246
0.025719 -0.005079 0.265939
0.026991 -0.005075 0.265821
0.028143 -0.005050 0.264580
0.029539 -0.005069 0.265662
0.031021 -0.005101 0.267405
0.032202 -0.005083 0.266520
0.033468 -0.005079 0.266385
0.034971 -0.005110 0.268091
0.036191 -0.005099 0.267596
0.037315 -0.005076 0.266448
0.038721 -0.005091 0.267340
0.039948 -0.005082 0.266982
0.040859 -0.005035 0.264603
0.041950 -0.005013 0.263515
0.042996 -0.004987 0.262214
0.043809 -0.004935 0.259622
0.044376 -0.004860 0.255751
0.045616 -0.004861 0.255879
0.046872 -0.004863 0.256087
0.047948 -0.004847 0.255339
0.049203 -0.004849 0.255555
0.050475 -0.004853 0.255857
0.051756 -0.004858 0.256201
0.053152 -0.004872 0.257081
0.054424 -0.004876 0.257346
0.055909 -0.004897 0.258590
0.057864 -0.004958 0.261912
0.060091 -0.005039 0.266306
0.062057 -0.005096 0.269391
0.063458 -0.005104 0.269954
0.064755 -0.005105 0.270065
0.066137 -0.005111 0.270523
0.067572 -0.005122 0.271179
0.068768 -0.005114 0.270874
0.069963 -0.005107 0.270580
0.071379 -0.005115 0.271139
0.073100 -0.005145 0.272819
0.074697 -0.005165 0.273987
0.075699 -0.005144 0.272976
0.076783 -0.005129 0.272288
0.077975 -0.005122 0.272003
0.079294 -0.005124 0.272167
0.080493 -0.005117 0.271916
0.081628 -0.005107 0.271465
0.083125 -0.005120 0.272214
0.084565 -0.005128 0.272755
0.085550 -0.005109 0.271834
0.087048 -0.005121 0.272550
0.088648 -0.005139 0.273555
0.096065 -0.005488 0.292230
0.097296 -0.005479 0.291823
0.100610 -0.005586 0.297590
0.099882 -0.005469 0.291406
0.101219 -0.005467 0.291328
0.102614 -0.005467 0.291416
0.103865 -0.005460 0.291093
0.105129 -0.005454 0.290815
0.106600 -0.005459 0.291105
0.107965 -0.005458 0.291098
0.109400 -0.005461 0.291274
0.110873 -0.005465 0.291542
0.112565 -0.005480 0.292366
0.113790 -0.005473 0.291968
0.115014 -0.005465 0.291572
0.116398 -0.005465 0.291582
0.117313 -0.005444 0.290424
0.118647 -0.005442 0.290311
0.119939 -0.005438 0.290093
0.121326 -0.005439 0.290101
0.122763 -0.005441 0.290219
0.123799 -0.005427 0.289390
0.125215 -0.005429 0.289449
0.126915 -0.005443 0.290148
0.128794 -0.005464 0.291227
0.130065 -0.005460 0.290915
0.131667 -0.005469 0.291332
0.132917 -0.005464 0.290958
0.134389 -0.005468 0.291062
0.135852 -0.005471 0.291135
0.137877 -0.005497 0.292385
0.138879 -0.005482 0.291453
0.140255 -0.005482 0.291301
0.141814 -0.005489 0.291518
0.143510 -0.005501 0.291993
0.144633 -0.005491 0.291293
0.145898 -0.005486 0.290874
0.147760 -0.005504 0.291625
0.149504 -0.005518 0.292117
0.150853 -0.005516 0.291817
0.152353 -0.005520 0.291796
-0.154559 -0.004087 0.291518
-0.153037 -0.004083 0.291433
-0.151266 -0.004072 0.290853
-0.149621 -0.004064 0.290490
-0.148413 -0.004068 0.290962
-0.147367 -0.004076 0.291748
-0.145768 -0.004069 0.291433
-0.144384 -0.004068 0.291532
-0.142928 -0.004065 0.291470
-0.141647 -0.004067 0.291757
-0.140193 -0.004065 0.291679
-0.138505 -0.004055 0.291095
-0.137395 -0.004062 0.291715
-0.136016 -0.004061 0.291760
-0.134223 -0.004048 0.290899
-0.128945 -0.003928 0.282380
-0.127483 -0.003924 0.282116
-0.137219 -0.004267 0.306882
-0.136007 -0.004274 0.307421
-0.136790 -0.004344 0.312523
-0.132296 -0.004246 0.305540
-0.123441 -0.004005 0.288214
-0.122342 -0.004013 0.288807
-0.121111 -0.004017 0.289091
-0.119717 -0.004015 0.288981
-0.118543 -0.004021 0.289403
-0.117331 -0.004026 0.289731
-0.115881 -0.004022 0.289471
-0.114460 -0.004020 0.289270
-0.113164 -0.004021 0.289382
-0.111592 -0.004013 0.288778
-0.110169 -0.004011 0.288544
-0.108808 -0.004010 0.288468
-0.107490 -0.004011 0.288500
-0.106242 -0.004015 0.288720
-0.104874 -0.004014 0.288615
-0.103572 -0.004016 0.288687
-0.102289 -0.004019 0.288816
-0.101174 -0.004028 0.289423
-0.099646 -0.004021 0.288850
-0.098382 -0.004025 0.289036
-0.095089 -0.003945 0.283182
-0.094657 -0.003982 0.285807
-0.100327 -0.004282 0.307188
-0.099050 -0.004289 0.307602
-0.097901 -0.004302 0.308434
-0.096479 -0.004303 0.308419
-0.095166 -0.004309 0.308758
-0.093872 -0.004317 0.309174
-0.091266 -0.004263 0.305214
-0.088914 -0.004220 0.301994
-0.086394 -0.004167 0.298095
-0.084230 -0.004130 0.295324
-0.082241 -0.004100 0.293087
-0.080484 -0.004081 0.291616
-0.079408 -0.004097 0.292610
-0.077966 -0.004094 0.292271
-0.076463 -0.004087 0.291690
-0.075026 -0.004084 0.291351
-0.073814 -0.004094 0.291893
-0.072730 -0.004111 0.292977
-0.071471 -0.004118 0.293387
-0.068582 -0.004031 0.286999
-0.067308 -0.004036 0.287253
-0.065901 -0.004033 0.286947
-0.064493 -0.004031 0.286628
-0.063379 -0.004047 0.287637
-0.062122 -0.004054 0.288034
-0.060743 -0.004054 0.287876
-0.059417 -0.004057 0.287978
-0.058250 -0.004072 0.288882
-0.057009 -0.004082 0.289455
-0.039927 -0.004036 0.284708
-0.038601 -0.004040 0.284927
-0.036177 -0.003926 0.276774
-0.035830 -0.004037 0.284514
-0.034545 -0.004048 0.285129
-0.030172 -0.003682 0.259277
-0.028766 -0.003662 0.257798
-0.027504 -0.003660 0.257558
-0.026303 -0.003666 0.257899
-0.025006 -0.003659 0.257301
-0.023850 -0.003672 0.258181
-0.022611 -0.003674 0.258223
-0.021385 -0.003678 0.258443
-0.020058 -0.003664 0.257400
-0.018966 -0.003695 0.259459
-0.018141 -0.003785 0.265720
-0.016943 -0.003805 0.267080
-0.015734 -0.003826 0.268492
-0.012856 -0.003746 0.262799
-0.011320 -0.003662 0.256858
-0.010088 -0.003668 0.257195
-0.008853 -0.003673 0.257555
-0.007597 -0.003671 0.257335
-0.006348 -0.003672 0.257364
-0.005112 -0.003682 0.258059
-0.003862 -0.003687 0.258350
-0.002617 -0.003702 0.259379
-0.001368 -0.003732 0.261493
-0.000097 -0.003761 0.263515
0.001189 -0.003775 0.264497
0.002475 -0.003775 0.264463
0.012239 -0.004025 0.282073
0.013607 -0.004024 0.282010
0.014960 -0.004019 0.281694
0.016323 -0.004017 0.281618
0.019554 -0.003845 0.269669
0.020657 -0.003807 0.267029
0.022278 -0.003863 0.271017
0.023799 -0.003897 0.273416
0.025722 -0.003789 0.265960
0.029542 -0.003782 0.265683
0.031025 -0.003806 0.267426
0.032206 -0.003792 0.266541
0.033471 -0.003789 0.266406
0.034975 -0.003812 0.268112
0.036732 -0.003861 0.271583
0.038011 -0.003857 0.271407
0.038665 -0.003792 0.266940
0.039797 -0.003777 0.265960
0.040929 -0.003763 0.265051
0.041994 -0.003744 0.263781
0.042979 -0.003719 0.262103
0.043738 -0.003676 0.259188
0.044529 -0.003638 0.256629
0.045731 -0.003636 0.256517
0.046929 -0.003632 0.256390
0.048056 -0.003624 0.255905
0.049331 -0.003627 0.256217
0.050644 -0.003633 0.256707
0.051975 -0.003640 0.257277
0.053405 -0.003653 0.258298
0.054892 -0.003669 0.259554
0.056411 -0.003687 0.260902
0.057913 -0.003703 0.262124
0.060179 -0.003766 0.266688
0.062052 -0.003802 0.269363
0.063465 -0.003809 0.269975
0.064820 -0.003813 0.270329
0.066113 -0.003813 0.270417
0.067472 -0.003816 0.270770
0.068777 -0.003817 0.270902
0.070027 -0.003814 0.270820
0.071206 -0.003808 0.270475
0.072706 -0.003819 0.271342
0.073960 -0.003817 0.271280
0.074991 -0.003803 0.270417
0.075994 -0.003789 0.269485
0.077002 -0.003775 0.268604
0.078078 -0.003765 0.267987
0.079102 -0.003753 0.267215
0.079900 -0.003731 0.265714
0.081072 -0.003727 0.265485
0.082544 -0.003736 0.266232
0.083784 -0.003735 0.266219
0.084979 -0.003732 0.266069
0.087226 -0.003774 0.269166
0.088362 -0.003768 0.268795
0.099378 -0.004178 0.298065
0.100629 -0.004171 0.297645
0.100137 -0.004093 0.292148
0.100532 -0.004053 0.289348
0.102080 -0.004060 0.289897
0.103687 -0.004069 0.290594
0.104570 -0.004050 0.289265
0.105957 -0.004051 0.289347
0.107687 -0.004064 0.290345
0.110763 -0.004076 0.291251
0.112138 -0.004076 0.291258
0.113651 -0.004081 0.291611
0.114944 -0.004078 0.291394
0.116025 -0.004068 0.290647
0.117278 -0.004063 0.290337
0.118550 -0.004060 0.290074
0.119744 -0.004054 0.289623
0.120994 -0.004050 0.289307
0.122691 -0.004061 0.290051
0.124268 -0.004068 0.290487
0.125449 -0.004062 0.289992
0.126771 -0.004060 0.289820
0.128197 -0.004062 0.289881
0.129623 -0.004064 0.289929
0.131681 -0.004085 0.291364
0.133005 -0.004084 0.291155
0.134421 -0.004085 0.291135
0.135819 -0.004086 0.291068
0.137315 -0.004089 0.291198
0.138781 -0.004092 0.291252
0.140034 -0.004089 0.290848
0.141544 -0.004093 0.290968
0.143169 -0.004100 0.291305
0.144543 -0.004100 0.291116
0.145836 -0.004097 0.290757
0.147176 -0.004096 0.290481
0.148692 -0.004100 0.290538
0.150821 -0.004121 0.291764
0.152147 -0.004120 0.291409
-0.153938 -0.002694 0.290352
-0.152511 -0.002693 0.290437
-0.151220 -0.002693 0.290770
-0.149759 -0.002691 0.290763
-0.148496 -0.002693 0.291129
-0.147188 -0.002693 0.291398
-0.145717 -0.002691 0.291334
-0.144178 -0.002687 0.291119
-0.143028 -0.002691 0.291679
-0.141566 -0.002689 0.291595
-0.140099 -0.002686 0.291487
-0.138383 -0.002679 0.290841
-0.136866 -0.002676 0.290595
-0.134265 -0.002651 0.288008
-0.133297 -0.002658 0.288897
-0.129272 -0.002604 0.283099
-0.127467 -0.002594 0.282082
-0.136988 -0.002816 0.306366
-0.135777 -0.002820 0.306904
-0.136796 -0.002872 0.312537
-0.131523 -0.002790 0.303756
-0.123387 -0.002646 0.288088
-0.122100 -0.002647 0.288235
-0.120793 -0.002648 0.288334
-0.119652 -0.002652 0.288827
-0.118340 -0.002653 0.288906
-0.117067 -0.002654 0.289079
-0.115715 -0.002654 0.289056
-0.114417 -0.002655 0.289161
-0.112950 -0.002652 0.288834
-0.111536 -0.002650 0.288633
-0.110202 -0.002650 0.288631
-0.108765 -0.002648 0.288353
-0.107472 -0.002649 0.288451
-0.106229 -0.002652 0.288684
-0.104897 -0.002652 0.288676
-0.103518 -0.002651 0.288535
-0.102313 -0.002655 0.288879
-0.101030 -0.002657 0.289009
-0.099603 -0.002654 0.288723
-0.098256 -0.002654 0.288662
-0.097224 -0.002663 0.289537
-0.094622 -0.002629 0.285697
-0.100169 -0.002823 0.306700
-0.098894 -0.002827 0.307113
-0.098104 -0.002846 0.309071
-0.097524 -0.002872 0.311757
-0.095152 -0.002844 0.308710
-0.093778 -0.002847 0.308857
-0.094494 -0.002914 0.316004
-0.089212 -0.002795 0.303001
-0.086583 -0.002756 0.298743
-0.084164 -0.002724 0.295086
-0.083013 -0.002732 0.295834
-0.080945 -0.002709 0.293282
-0.079387 -0.002703 0.292529
-0.077856 -0.002698 0.291856
-0.076719 -0.002706 0.292665
-0.075280 -0.002704 0.292333
-0.073768 -0.002700 0.291707
-0.072616 -0.002708 0.292511
-0.071247 -0.002709 0.292459
-0.068071 -0.002640 0.284854
-0.067078 -0.002654 0.286265
-0.065633 -0.002650 0.285773
-0.064253 -0.002650 0.285555
-0.063070 -0.002657 0.286229
-0.061748 -0.002659 0.286292
-0.060396 -0.002659 0.286228
-0.059128 -0.002664 0.286569
-0.053931 -0.002611 0.280510
-0.045315 -0.002656 0.284576
-0.041305 -0.002662 0.284861
-0.039331 -0.002622 0.280448
-0.038358 -0.002648 0.283129
-0.036117 -0.002585 0.276306
-0.035896 -0.002667 0.285032
-0.034396 -0.002658 0.283888
-0.030176 -0.002428 0.259298
-0.028825 -0.002420 0.258318
-0.027333 -0.002398 0.255945
-0.026164 -0.002405 0.256527
-0.024751 -0.002388 0.254666
-0.023506 -0.002387 0.254448
-0.022585 -0.002420 0.257914
-0.021249 -0.002410 0.256792
-0.020061 -0.002417 0.257437
-0.018926 -0.002431 0.258898
-0.018311 -0.002519 0.268198
-0.016804 -0.002488 0.264887
-0.015729 -0.002522 0.268396
-0.014434 -0.002523 0.268469
-0.012857 -0.002470 0.262814
-0.011289 -0.002408 0.256136
-0.010071 -0.002414 0.256738
-0.008853 -0.002422 0.257532
-0.007588 -0.002417 0.257014
-0.006339 -0.002417 0.256972
-0.005099 -0.002421 0.257375
-0.003857 -0.002427 0.257995
-0.002601 -0.002426 0.257781
-0.001351 -0.002431 0.258356
-0.000095 -0.002437 0.258916
0.001184 -0.002480 0.263529
0.002473 -0.002487 0.264241
0.003757 -0.002487 0.264226
0.020830 -0.002531 0.269261
0.022337 -0.002554 0.271725
0.023801 -0.002570 0.273432
0.025113 -0.002568 0.273314
0.025517 -0.002478 0.263830
0.026778 -0.002477 0.263705
0.027890 -0.002462 0.262186
0.029139 -0.002460 0.262050
0.030721 -0.002485 0.264795
0.031984 -0.002484 0.264695
0.033115 -0.002472 0.263563
0.034587 -0.002486 0.265136
0.035766 -0.002479 0.264430
0.036978 -0.002475 0.264027
0.038021 -0.002459 0.262486
0.039325 -0.002462 0.262801
0.040615 -0.002463 0.263007
0.041923 -0.002465 0.263329
0.043050 -0.002457 0.262528
0.044045 -0.002442 0.261001
0.044756 -0.002412 0.257930
0.045913 -0.002408 0.257530
0.047029 -0.002401 0.256933
0.048327 -0.002404 0.257343
0.049577 -0.002405 0.257485
0.051021 -0.002414 0.258613
0.052408 -0.002421 0.259412
0.053773 -0.002426 0.260071
0.055295 -0.002438 0.261451
0.056751 -0.002447 0.262469
0.058286 -0.002459 0.263811
0.060188 -0.002485 0.266722
0.062217 -0.002515 0.270072
0.063524 -0.002516 0.270220
0.064795 -0.002515 0.270220
0.066092 -0.002515 0.270326
0.067370 -0.002514 0.270358
0.068767 -0.002518 0.270860
0.069876 -0.002512 0.270232
0.070536 -0.002489 0.267926
0.071535 -0.002480 0.266967
0.072591 -0.002472 0.266254
0.073854 -0.002472 0.266312
0.074848 -0.002463 0.265419
0.075673 -0.002449 0.263964
0.076693 -0.002441 0.263230
0.077752 -0.002435 0.262651
0.078529 -0.002421 0.261152
0.079631 -0.002416 0.260764
0.080941 -0.002419 0.261060
0.082410 -0.002425 0.261851
0.083059 -0.002408 0.260054
0.084681 -0.002419 0.261310
0.086995 -0.002450 0.264633
0.097777 -0.002714 0.293262
0.099009 -0.002710 0.292849
0.100136 -0.002703 0.292141
0.101350 -0.002698 0.291700
0.102749 -0.002699 0.291794
0.104010 -0.002696 0.291497
0.105113 -0.002689 0.290768
0.106330 -0.002685 0.290363
0.107756 -0.002686 0.290533
0.108887 -0.002680 0.289906
0.110126 -0.002677 0.289576
0.112066 -0.002691 0.291069
0.113523 -0.002693 0.291283
0.114799 -0.002691 0.291028
0.115982 -0.002687 0.290540
0.117320 -0.002686 0.290442
0.118706 -0.002686 0.290456
0.119958 -0.002684 0.290140
0.121299 -0.002683 0.290039
0.122798 -0.002686 0.290305
0.125121 -0.002707 0.292482
0.126189 -0.002701 0.291705
0.126847 -0.002686 0.289998
0.128727 -0.002696 0.291080
0.129956 -0.002694 0.290675
0.131651 -0.002700 0.291302
0.133081 -0.002702 0.291323
0.134739 -0.002707 0.291828
0.136178 -0.002709 0.291840
0.137707 -0.002712 0.292034
0.138899 -0.002709 0.291503
0.140512 -0.002713 0.291844
0.142179 -0.002719 0.292277
0.143741 -0.002723 0.292474
0.144936 -0.002719 0.291913
0.146233 -0.002718 0.291552
0.147585 -0.002718 0.291292
0.148904 -0.002717 0.290957
0.150337 -0.002718 0.290832
0.151509 -0.002715 0.290193
-0.154765 -0.001324 0.291915
-0.152906 -0.001320 0.291192
-0.150968 -0.001314 0.290289
-0.149713 -0.001315 0.290677
-0.148287 -0.001314 0.290723
-0.147033 -0.001314 0.291094
-0.145711 -0.001314 0.291326
-0.144231 -0.001313 0.291228
-0.142411 -0.001308 0.290423
-0.141117 -0.001308 0.290671
-0.139776 -0.001308 0.290818
-0.137134 -0.001295 0.288218
-0.137158 -0.001308 0.291218
-0.134222 -0.001292 0.287916
-0.132938 -0.001293 0.288120
-0.129415 -0.001271 0.283412
-0.127355 -0.001263 0.281836
-0.136275 -0.001365 0.304773
-0.135071 -0.001367 0.305309
-0.136799 -0.001399 0.312546
-0.133475 -0.001379 0.308266
-0.123004 -0.001285 0.287196
-0.122025 -0.001288 0.288060
-0.120796 -0.001289 0.288341
-0.119413 -0.001288 0.288250
-0.118269 -0.001290 0.288733
-0.116962 -0.001290 0.288821
-0.115618 -0.001290 0.288815
-0.114155 -0.001289 0.288500
-0.112903 -0.001289 0.288713
-0.111489 -0.001288 0.288511
-0.110287 -0.001290 0.288852
-0.108774 -0.001288 0.288377
-0.107372 -0.001287 0.288183
-0.106294 -0.001290 0.288860
-0.104927 -0.001289 0.288758
-0.103536 -0.001288 0.288584
-0.102323 -0.001290 0.288907
-0.101172 -0.001292 0.289415
-0.099504 -0.001288 0.288435
-0.098297 -0.001290 0.288782
-0.097138 -0.001292 0.289282
-0.095178 -0.001284 0.287376
-0.097531 -0.001334 0.298622
-0.099172 -0.001376 0.307976
-0.098194 -0.001383 0.309354
-0.096393 -0.001377 0.308141
-0.095711 -0.001388 0.310521
-0.094240 -0.001388 0.310380
-0.092183 -0.001379 0.308275
-0.091708 -0.001393 0.311476
-0.090386 -0.001396 0.311862
-0.085053 -0.001335 0.298202
-0.082471 -0.001316 0.293898
-0.080745 -0.001310 0.292555
-0.079403 -0.001311 0.292586
-0.078051 -0.001311 0.292581
-0.076694 -0.001311 0.292565
-0.075104 -0.001308 0.291647
-0.073682 -0.001307 0.291363
-0.072437 -0.001309 0.291785
-0.071488 -0.001317 0.293449
-0.068559 -0.001288 0.286891
-0.067277 -0.001289 0.287109
-0.066262 -0.001296 0.288509
-0.064809 -0.001294 0.288021
-0.061944 -0.001264 0.281113
-0.061049 -0.001273 0.283048
-0.059905 -0.001277 0.283897
-0.058697 -0.001280 0.284477
-0.057530 -0.001284 0.285297
-0.056334 -0.001288 0.286017
-0.054224 -0.001271 0.282027
-0.052833 -0.001269 0.281679
-0.051511 -0.001270 0.281700
-0.050292 -0.001273 0.282308
-0.048966 -0.001274 0.282339
-0.047662 -0.001275 0.282515
-0.046339 -0.001276 0.282595
-0.044995 -0.001276 0.282558
-0.043735 -0.001279 0.283075
-0.042578 -0.001285 0.284320
-0.040947 -0.001276 0.282386
-0.039918 -0.001287 0.284629
-0.038322 -0.001279 0.282856
-0.036216 -0.001254 0.277062
-0.036028 -0.001295 0.286075
-0.034463 -0.001288 0.284436
-0.030261 -0.001178 0.260025
-0.028806 -0.001169 0.258142
-0.027574 -0.001170 0.258199
-0.026284 -0.001168 0.257704
-0.024647 -0.001150 0.253597
-0.023888 -0.001173 0.258576
-0.022592 -0.001170 0.257988
-0.021433 -0.001175 0.259001
-0.020037 -0.001167 0.257112
-0.019033 -0.001182 0.260355
-0.018097 -0.001203 0.265068
-0.016873 -0.001208 0.265964
-0.015661 -0.001214 0.267240
-0.014372 -0.001214 0.267312
-0.012632 -0.001173 0.258210
-0.011284 -0.001163 0.256021
-0.010064 -0.001166 0.256559
-0.008845 -0.001169 0.257295
-0.007579 -0.001167 0.256722
-0.006341 -0.001169 0.257040
-0.005084 -0.001167 0.256625
-0.003848 -0.001170 0.257353
-0.002606 -0.001174 0.258265
-0.001355 -0.001178 0.259072
-0.000096 -0.001181 0.259607
0.001171 -0.001185 0.260567
0.002445 -0.001189 0.261328
0.003732 -0.001194 0.262436
0.020476 -0.001203 0.264677
0.022539 -0.001246 0.274176
0.023856 -0.001245 0.274065
0.024663 -0.001219 0.268413
0.025204 -0.001184 0.260598
0.026370 -0.001179 0.259677
0.027692 -0.001182 0.260326
0.028751 -0.001174 0.258553
0.030043 -0.001175 0.258950
0.031358 -0.001178 0.259513
0.032604 -0.001177 0.259495
0.033936 -0.001180 0.260136
