ply
format ascii 1.0
element vertex 1681
property float x
property float y
property float z
end_header
-0.003774 -0.072818 0.263458
-0.002533 -0.073274 0.265092
-0.001271 -0.073405 0.265554
-0.000004 -0.073787 0.266921
0.001272 -0.073939 0.267461
0.002552 -0.074057 0.267881
0.003837 -0.074174 0.268295
0.005046 -0.073139 0.264550
0.006139 -0.071174 0.257438
0.007354 -0.071048 0.256984
0.008610 -0.071288 0.257855
0.009832 -0.071227 0.257637
0.011053 -0.071168 0.257427
0.012307 -0.071315 0.257968
0.013575 -0.071512 0.258689
0.014822 -0.071567 0.258899
0.016096 -0.071740 0.259538
0.017411 -0.072053 0.260685
0.018885 -0.072941 0.263916
0.020296 -0.073487 0.265910
0.021566 -0.073492 0.265946
0.022827 -0.073464 0.265866
0.023951 -0.073023 0.264295
0.025032 -0.072501 0.262429
0.026209 -0.072293 0.261702
0.027370 -0.072063 0.260897
0.028522 -0.071829 0.260079
0.029753 -0.071804 0.260018
0.031043 -0.071919 0.260465
0.032287 -0.071921 0.260504
0.033581 -0.072034 0.260944
0.034777 -0.071932 0.260608
0.036078 -0.072048 0.261063
0.037746 -0.072866 0.264062
0.039147 -0.073131 0.265061
0.040500 -0.073292 0.265683
0.041629 -0.073050 0.264843
0.042728 -0.072772 0.263874
0.043996 -0.072789 0.263973
0.045278 -0.072828 0.264154
0.046345 -0.072528 0.263105
0.047735 -0.072736 0.263898
0.048892 -0.072586 0.263394
0.050009 -0.072388 0.262711
0.051544 -0.072788 0.264202
0.052822 -0.072816 0.264342
0.054336 -0.073160 0.265629
0.055672 -0.073253 0.266006
0.057024 -0.073363 0.266442
0.058437 -0.073545 0.267139
0.060386 -0.074380 0.270208
0.061919 -0.074677 0.271323
0.063199 -0.074664 0.271311
0.064840 -0.075069 0.272815
0.066062 -0.074982 0.272531
0.067400 -0.075029 0.272730
0.068594 -0.074916 0.272350
0.069903 -0.074930 0.272429
0.071008 -0.074729 0.271721
0.072224 -0.074651 0.271459
0.073654 -0.074791 0.271990
0.074711 -0.074555 0.271150
0.076242 -0.074792 0.272027
0.077405 -0.074666 0.271583
0.078588 -0.074562 0.271217
0.080196 -0.074860 0.272306
0.081873 -0.075211 0.273587
0.083619 -0.075613 0.275054
0.085347 -0.075987 0.276410
0.086271 -0.075645 0.275160
0.088230 -0.076206 0.277193
0.090591 -0.077094 0.280408
0.095943 -0.080463 0.292646
0.097144 -0.080305 0.292047
0.098741 -0.080474 0.292636
0.100200 -0.080527 0.292796
0.101747 -0.080648 0.293201
0.102778 -0.080364 0.292124
0.104332 -0.080490 0.292532
0.105776 -0.080528 0.292620
0.107182 -0.080538 0.292594
0.108666 -0.080604 0.292770
0.109942 -0.080517 0.292383
0.111406 -0.080568 0.292488
0.112852 -0.080605 0.292537
0.114278 -0.080626 0.292522
0.115699 -0.080644 0.292488
0.117354 -0.080822 0.293026
0.118991 -0.080983 0.293497
0.120438 -0.081014 0.293484
0.121938 -0.081078 0.293585
0.123283 -0.081040 0.293306
0.124683 -0.081037 0.293147
0.126094 -0.081043 0.293008
0.127466 -0.081022 0.292767
0.129057 -0.081140 0.293016
0.130644 -0.081253 0.293235
0.132143 -0.081310 0.293240
0.133717 -0.081411 0.293393
0.135283 -0.081505 0.293509
0.136889 -0.081620 0.293692
0.138323 -0.081632 0.293487
0.139937 -0.081749 0.293649
0.141369 -0.081757 0.293408
0.143131 -0.081955 0.293831
0.144608 -0.081988 0.293648
0.146080 -0.082016 0.293435
0.147699 -0.082126 0.293497
0.149099 -0.082113 0.293107
0.150994 -0.082370 0.293662
0.152146 -0.082221 0.292750
0.153699 -0.082289 0.292597
0.155413 -0.082442 0.292724
-0.142004 -0.072398 0.263955
-0.140779 -0.072418 0.264368
-0.139669 -0.072497 0.264987
-0.138546 -0.072571 0.265572
-0.137348 -0.072607 0.266003
-0.136244 -0.072694 0.266608
-0.135021 -0.072719 0.266972
-0.133788 -0.072738 0.267305
-0.132618 -0.072793 0.267753
-0.131383 -0.072812 0.268063
-0.130116 -0.072815 0.268297
-0.128967 -0.072884 0.268766
-0.127822 -0.072957 0.269239
-0.126721 -0.073057 0.269801
-0.125633 -0.073166 0.270386
-0.124500 -0.073252 0.270876
-0.123344 -0.073325 0.271311
-0.122316 -0.073477 0.272029
-0.121129 -0.073536 0.272392
-0.119852 -0.073541 0.272547
-0.118722 -0.073637 0.273033
-0.117563 -0.073717 0.273450
-0.116354 -0.073767 0.273747
-0.115149 -0.073821 0.274053
-0.113962 -0.073888 0.274399
-0.112831 -0.073994 0.274879
-0.111661 -0.074076 0.275268
-0.110482 -0.074154 0.275634
-0.109288 -0.074224 0.275960
-0.108105 -0.074303 0.276317
-0.106939 -0.074396 0.276720
-0.105665 -0.074415 0.276840
-0.104645 -0.074616 0.277632
-0.103536 -0.074757 0.278196
-0.102347 -0.074844 0.278554
-0.101377 -0.075096 0.279517
-0.100190 -0.075191 0.279893
-0.099082 -0.075349 0.280499
-0.097908 -0.075460 0.280925
-0.096804 -0.075629 0.281563
-0.095737 -0.075833 0.282324
-0.094584 -0.075972 0.282843
-0.093528 -0.076195 0.283668
-0.093984 -0.077674 0.289164
-0.099033 -0.083048 0.309155
-0.097708 -0.083158 0.309547
-0.096445 -0.083325 0.310143
-0.095110 -0.083433 0.310519
-0.093325 -0.083145 0.309416
-0.091893 -0.083166 0.309462
-0.090389 -0.083122 0.309261
-0.089068 -0.083247 0.309687
-0.087624 -0.083261 0.309693
-0.086512 -0.083595 0.310891
-0.085013 -0.083562 0.310717
-0.083605 -0.083616 0.310869
-0.082148 -0.083625 0.310846
-0.080319 -0.083247 0.309388
-0.079042 -0.083438 0.310039
-0.077626 -0.083488 0.310163
-0.076255 -0.083589 0.310475
-0.070205 -0.078463 0.291378
-0.069015 -0.078674 0.292099
-0.067628 -0.078665 0.292002
-0.066310 -0.078737 0.292205
-0.065008 -0.078830 0.292486
-0.063485 -0.078654 0.291768
-0.062181 -0.078749 0.292053
-0.060847 -0.078809 0.292209
-0.059406 -0.078730 0.291846
-0.057993 -0.078685 0.291610
-0.056606 -0.078675 0.291503
-0.055211 -0.078653 0.291353
-0.053850 -0.078678 0.291377
-0.052503 -0.078727 0.291488
-0.051156 -0.078778 0.291607
-0.049799 -0.078816 0.291681
-0.048423 -0.078826 0.291649
-0.047070 -0.078875 0.291759
-0.045665 -0.078837 0.291551
-0.044227 -0.078739 0.291121
-0.042772 -0.078603 0.290552
-0.040688 -0.077263 0.285535
-0.040680 -0.079908 0.295243
-0.039309 -0.079971 0.295411
-0.037397 -0.078896 0.291375
-0.035664 -0.078131 0.288489
-0.031770 -0.072382 0.267206
-0.030033 -0.071274 0.263059
-0.029021 -0.071864 0.265185
-0.027658 -0.071600 0.264157
-0.026287 -0.071288 0.262958
-0.025008 -0.071210 0.262618
-0.023828 -0.071418 0.263339
-0.022636 -0.071612 0.264009
-0.021464 -0.071895 0.265009
-0.020293 -0.072217 0.266149
-0.019086 -0.072448 0.266959
-0.017788 -0.072341 0.266528
-0.016532 -0.072398 0.266697
-0.015284 -0.072506 0.267061
-0.013966 -0.072275 0.266173
-0.012633 -0.071905 0.264781
-0.011346 -0.071753 0.264190
-0.010025 -0.071312 0.262536
-0.008735 -0.071004 0.261376
-0.007518 -0.071286 0.262390
-0.006270 -0.071328 0.262523
-0.005051 -0.071804 0.264255
-0.003805 -0.072096 0.265310
-0.002546 -0.072282 0.265977
-0.001285 -0.072759 0.267718
-0.000007 -0.072825 0.267950
0.001269 -0.072668 0.267363
0.002564 -0.073205 0.269328
0.003836 -0.072940 0.268350
0.005031 -0.071720 0.263856
0.006184 -0.070501 0.259370
0.007413 -0.070412 0.259044
0.008685 -0.070692 0.260074
0.009904 -0.070533 0.259493
0.011140 -0.070514 0.259430
0.012403 -0.070649 0.259936
0.013668 -0.070774 0.260405
0.014932 -0.070871 0.260772
0.016202 -0.070977 0.261177
0.017482 -0.071111 0.261687
0.018913 -0.071798 0.264233
0.020254 -0.072083 0.265301
0.021693 -0.072660 0.267443
0.022902 -0.072445 0.266674
0.023915 -0.071664 0.263824
0.025061 -0.071342 0.262664
0.026151 -0.070895 0.261045
0.027358 -0.070794 0.260704
0.028561 -0.070692 0.260354
0.029723 -0.070502 0.259686
0.031042 -0.070681 0.260379
0.032417 -0.070973 0.261486
0.033734 -0.071119 0.262058
0.035128 -0.071410 0.263165
0.036478 -0.071595 0.263885
0.037905 -0.071914 0.265098
0.039170 -0.071915 0.265140
0.040476 -0.071990 0.265456
0.041525 -0.071616 0.264115
0.042757 -0.071570 0.263986
0.044058 -0.071638 0.264277
0.045341 -0.071676 0.264459
0.046410 -0.071380 0.263408
0.046545 -0.069702 0.257256
0.047682 -0.069573 0.256820
0.048831 -0.069466 0.256466
0.049999 -0.069391 0.256230
0.051557 -0.069848 0.257957
0.053145 -0.070325 0.259755
0.054558 -0.070552 0.260632
0.055872 -0.070644 0.261011
0.058193 -0.071977 0.265978
0.060328 -0.073029 0.269903
0.061838 -0.073296 0.270926
0.063201 -0.073381 0.271276
0.064856 -0.073795 0.272843
0.066286 -0.073941 0.273419
0.067526 -0.073875 0.273207
0.068696 -0.073736 0.272722
0.069724 -0.073451 0.271701
0.070852 -0.073281 0.271097
0.072042 -0.073180 0.270749
0.073246 -0.073096 0.270463
0.074610 -0.073172 0.270766
0.075961 -0.073233 0.271011
0.077426 -0.073400 0.271645
0.078684 -0.073368 0.271540
0.080311 -0.073676 0.272690
0.082042 -0.074068 0.274148
0.083684 -0.074368 0.275264
0.085442 -0.074761 0.276721
0.086483 -0.074524 0.275839
0.088212 -0.074878 0.277144
0.090440 -0.075639 0.279951
0.095373 -0.078607 0.290920
0.097310 -0.079057 0.292567
0.098867 -0.079188 0.293030
0.100189 -0.079132 0.292792
0.101614 -0.079156 0.292848
0.102770 -0.078973 0.292134
0.104242 -0.079035 0.292318
0.105631 -0.079033 0.292260
0.107022 -0.079032 0.292203
0.108470 -0.079073 0.292291
0.109863 -0.079073 0.292226
0.111275 -0.079087 0.292202
0.112681 -0.079096 0.292154
0.114156 -0.079152 0.292275
0.115756 -0.079293 0.292700
0.117126 -0.079275 0.292530
0.118842 -0.079489 0.293209
0.120240 -0.079487 0.293084
0.121820 -0.079604 0.293390
0.123270 -0.079635 0.293367
0.124690 -0.079646 0.293263
0.126074 -0.079634 0.293064
0.127524 -0.079663 0.293007
0.129076 -0.079754 0.293172
0.130722 -0.079901 0.293528
0.132143 -0.079909 0.293362
0.133720 -0.080010 0.293527
0.135192 -0.080046 0.293445
0.137008 -0.080284 0.294087
0.138685 -0.080435 0.294401
0.139666 -0.080185 0.293232
0.141409 -0.080372 0.293650
0.143022 -0.080482 0.293773
0.144286 -0.080395 0.293163
0.145950 -0.080531 0.293351
0.147418 -0.080557 0.293124
0.149162 -0.080732 0.293421
0.150754 -0.080822 0.293393
0.152112 -0.080787 0.292892
0.153598 -0.080819 0.292619
0.155050 -0.080832 0.292261
-0.142196 -0.071222 0.264488
-0.141000 -0.071256 0.264953
-0.139820 -0.071299 0.265436
-0.138740 -0.071395 0.266102
-0.137576 -0.071449 0.266597
-0.136381 -0.071487 0.267022
-0.135140 -0.071503 0.267348
-0.133956 -0.071549 0.267776
-0.132744 -0.071580 0.268138
-0.131472 -0.071581 0.268371
-0.130265 -0.071617 0.268726
-0.129110 -0.071682 0.269181
-0.127945 -0.071743 0.269609
-0.126909 -0.071878 0.270306
-0.125690 -0.071912 0.270612
-0.124600 -0.072021 0.271191
-0.123629 -0.072202 0.272032
-0.122386 -0.072226 0.272271
-0.121247 -0.072313 0.272741
-0.120264 -0.072496 0.273563
-0.118994 -0.072508 0.273733
-0.117810 -0.072573 0.274096
-0.116607 -0.072628 0.274411
-0.115387 -0.072673 0.274684
-0.114132 -0.072698 0.274868
-0.113083 -0.072855 0.275549
-0.111891 -0.072923 0.275884
-0.110730 -0.073013 0.276300
-0.109690 -0.073186 0.277019
-0.108491 -0.073256 0.277343
-0.107285 -0.073324 0.277651
-0.106166 -0.073452 0.278184
-0.105028 -0.073571 0.278676
-0.103840 -0.073658 0.279038
-0.102721 -0.073796 0.279592
-0.101681 -0.073996 0.280373
-0.100635 -0.074196 0.281149
-0.099436 -0.074287 0.281510
-0.098188 -0.074345 0.281737
-0.097144 -0.074560 0.282557
-0.096047 -0.074739 0.283236
-0.094789 -0.074797 0.283452
-0.093670 -0.074968 0.284091
-0.092617 -0.075197 0.284946
-0.091424 -0.075318 0.285388
-0.097992 -0.081932 0.310425
-0.096660 -0.082041 0.310813
-0.095187 -0.082031 0.310746
-0.093755 -0.082057 0.310811
-0.091813 -0.081631 0.309160
-0.090842 -0.082069 0.310775
-0.089152 -0.081860 0.309941
-0.087574 -0.081749 0.309475
-0.086225 -0.081852 0.309815
-0.084615 -0.081706 0.309212
-0.083060 -0.081609 0.308791
-0.081807 -0.081811 0.309499
-0.079955 -0.081411 0.307925
-0.078198 -0.081094 0.306666
-0.077043 -0.081402 0.307768
-0.075684 -0.081501 0.308079
-0.069912 -0.076760 0.290095
-0.068701 -0.076937 0.290699
-0.067497 -0.077129 0.291361
-0.066393 -0.077446 0.292492
-0.064758 -0.077144 0.291281
-0.063462 -0.077242 0.291583
-0.062288 -0.077495 0.292471
-0.060803 -0.077364 0.291906
-0.059409 -0.077347 0.291771
-0.058101 -0.077443 0.292063
-0.056566 -0.077233 0.291198
-0.055208 -0.077261 0.291233
-0.053852 -0.077294 0.291284
-0.052475 -0.077298 0.291230
-0.051109 -0.077318 0.291230
-0.049806 -0.077437 0.291609
-0.048400 -0.077400 0.291398
-0.047045 -0.077442 0.291487
-0.045816 -0.077703 0.292396
-0.044136 -0.077191 0.290403
-0.042376 -0.076500 0.287735
-0.041341 -0.077118 0.289992
-0.040768 -0.078669 0.295755
-0.039395 -0.078732 0.295925
-0.037256 -0.077212 0.290148
-0.035688 -0.076804 0.288549
-0.031707 -0.070964 0.266550
-0.030044 -0.070042 0.263032
-0.029065 -0.070701 0.265454
-0.027702 -0.070447 0.264448
-0.026308 -0.070085 0.263034
-0.025068 -0.070116 0.263104
-0.023872 -0.070283 0.263680
-0.022680 -0.070480 0.264371
-0.021507 -0.070762 0.265385
-0.020304 -0.070977 0.266147
-0.019121 -0.071294 0.267291
-0.017891 -0.071466 0.267897
-0.016590 -0.071366 0.267483
-0.015396 -0.071742 0.268854
-0.014071 -0.071524 0.268002
-0.012748 -0.071272 0.267022
-0.011472 -0.071256 0.266933
-0.010142 -0.070860 0.265419
-0.008832 -0.070511 0.264086
-0.007593 -0.070707 0.264797
-0.006348 -0.070917 0.265560
-0.005090 -0.071054 0.266049
-0.003838 -0.071388 0.267282
-0.002575 -0.071736 0.268568
-0.001296 -0.071896 0.269151
-0.000010 -0.072005 0.269549
0.001273 -0.071794 0.268748
0.002566 -0.072062 0.269743
0.003847 -0.071917 0.269193
0.005039 -0.070612 0.264307
0.006196 -0.069424 0.259857
0.007399 -0.069073 0.258543
0.008666 -0.069325 0.259490
0.009902 -0.069296 0.259387
0.011116 -0.069143 0.258819
0.012378 -0.069282 0.259349
0.013648 -0.069442 0.259959
0.014909 -0.069533 0.260310
0.016178 -0.069640 0.260725
0.017456 -0.069769 0.261224
0.018802 -0.070137 0.262623
0.020261 -0.070849 0.265308
0.021749 -0.071576 0.268051
0.022814 -0.070906 0.265568
0.023869 -0.070277 0.263237
0.025116 -0.070251 0.263164
0.026255 -0.069935 0.262008
0.027413 -0.069698 0.261151
0.028581 -0.069507 0.260468
0.029837 -0.069536 0.260606
0.031168 -0.069728 0.261361
0.032606 -0.070138 0.262931
0.033968 -0.070360 0.263799
0.035386 -0.070677 0.265027
0.036801 -0.070966 0.266149
0.038116 -0.071051 0.266504
0.039419 -0.071107 0.266757
0.040759 -0.071224 0.267237
0.042019 -0.071199 0.267185
0.043257 -0.071140 0.267003
0.042677 -0.068179 0.255934
0.043523 -0.067598 0.253792
0.044773 -0.067658 0.254060
0.045978 -0.067648 0.254063
0.047169 -0.067619 0.253997
0.048389 -0.067633 0.254089
0.049693 -0.067760 0.254608
0.051045 -0.067945 0.255344
0.052570 -0.068345 0.256890
0.053588 -0.068084 0.255949
0.055049 -0.068385 0.257120
0.057748 -0.070176 0.263896
0.061133 -0.072707 0.273454
0.062382 -0.072645 0.273264
0.063478 -0.072411 0.272422
0.065085 -0.072758 0.273767
0.066577 -0.072965 0.274582
0.067729 -0.072799 0.273993
0.068953 -0.072714 0.273707
0.070305 -0.072766 0.273933
0.071318 -0.072470 0.272852
0.072565 -0.072419 0.272688
0.073951 -0.072507 0.273043
0.074928 -0.072196 0.271897
0.076294 -0.072266 0.272181
0.077527 -0.072208 0.271982
0.078991 -0.072364 0.272586
0.080481 -0.072538 0.273258
0.081898 -0.072642 0.273660
0.083626 -0.073014 0.275069
0.085325 -0.073350 0.276339
0.086396 -0.073145 0.275566
0.088310 -0.073648 0.277458
0.090186 -0.074105 0.279173
0.095480 -0.077316 0.291261
0.097849 -0.078100 0.294200
0.098902 -0.077828 0.293154
0.100218 -0.077767 0.292899
0.101588 -0.077748 0.292799
0.102888 -0.077678 0.292500
0.104231 -0.077641 0.292320
0.105661 -0.077669 0.292380
0.107094 -0.077699 0.292440
0.108388 -0.077628 0.292117
0.109863 -0.077687 0.292274
0.111121 -0.077592 0.291849
0.112603 -0.077656 0.292010
0.114055 -0.077696 0.292077
0.115322 -0.077611 0.291669
0.117022 -0.077816 0.292341
0.118553 -0.077905 0.292571
0.120113 -0.078011 0.292854
0.121680 -0.078119 0.293136
0.123191 -0.078189 0.293268
0.124642 -0.078219 0.293241
0.126081 -0.078242 0.293178
0.127786 -0.078427 0.293713
0.129227 -0.078447 0.293621
0.130824 -0.078561 0.293870
0.132233 -0.078561 0.293680
0.133686 -0.078587 0.293576
0.135130 -0.078606 0.293439
0.136636 -0.078662 0.293424
0.137963 -0.078614 0.293010
0.139442 -0.078652 0.292906
0.141013 -0.078741 0.292979
0.142455 -0.078757 0.292766
0.144020 -0.078840 0.292787
0.145853 -0.079067 0.293328
0.147110 -0.078979 0.292687
0.148812 -0.079130 0.292915
0.150518 -0.079281 0.293124
0.152141 -0.079385 0.293145
0.153470 -0.079335 0.292579
0.154974 -0.079376 0.292330
-0.142395 -0.070044 0.265027
-0.141254 -0.070106 0.265593
-0.140042 -0.070134 0.266016
-0.138962 -0.070229 0.266679
-0.137717 -0.070242 0.267017
-0.136546 -0.070293 0.267488
-0.135344 -0.070329 0.267888
-0.134070 -0.070328 0.268135
-0.132927 -0.070396 0.268634
-0.131790 -0.070469 0.269140
-0.130650 -0.070542 0.269636
-0.129541 -0.070634 0.270190
-0.128429 -0.070725 0.270735
-0.127268 -0.070792 0.271173
-0.126150 -0.070883 0.271698
-0.125009 -0.070964 0.272173
-0.123873 -0.071050 0.272657
-0.122753 -0.071146 0.273173
-0.121562 -0.071203 0.273530
-0.120312 -0.071226 0.273748
-0.119177 -0.071319 0.274224
-0.118066 -0.071428 0.274758
-0.116912 -0.071514 0.275191
-0.115785 -0.071618 0.275688
-0.114618 -0.071700 0.276094
-0.113581 -0.071866 0.276815
-0.112380 -0.071930 0.277139
-0.111225 -0.072026 0.277576
-0.109999 -0.072078 0.277839
-0.108847 -0.072181 0.278291
-0.107666 -0.072267 0.278669
-0.106306 -0.072233 0.278581
-0.105308 -0.072447 0.279444
-0.104007 -0.072455 0.279509
-0.102729 -0.072481 0.279633
-0.101687 -0.072675 0.280402
-0.100571 -0.072821 0.280982
-0.099534 -0.073029 0.281796
-0.098306 -0.073100 0.282077
-0.097203 -0.073268 0.282726
-0.096350 -0.073632 0.284126
-0.095128 -0.073720 0.284459
-0.093972 -0.073863 0.284998
-0.092933 -0.074103 0.285906
-0.091525 -0.074051 0.285688
-0.091863 -0.075432 0.290991
-0.096770 -0.080663 0.311139
-0.094414 -0.079907 0.308192
-0.092991 -0.079931 0.308247
-0.091646 -0.080023 0.308561
-0.090165 -0.079997 0.308419
-0.088858 -0.080128 0.308876
-0.087335 -0.080065 0.308585
-0.085762 -0.079953 0.308100
-0.084429 -0.080066 0.308479
-0.083215 -0.080296 0.309310
-0.081532 -0.080075 0.308400
-0.079945 -0.079942 0.307824
-0.078298 -0.079742 0.306992
-0.076548 -0.079430 0.305723
-0.075199 -0.079527 0.306033
-0.069717 -0.075174 0.289216
-0.068593 -0.075439 0.290168
-0.067351 -0.075583 0.290654
-0.066043 -0.075657 0.290871
-0.064753 -0.075755 0.291179
-0.063412 -0.075797 0.291267
-0.062129 -0.075912 0.291637
-0.060828 -0.076008 0.291935
-0.059341 -0.075873 0.291343
-0.057941 -0.075845 0.291161
-0.056633 -0.075939 0.291449
-0.055183 -0.075842 0.291005
-0.053764 -0.075783 0.290704
-0.052407 -0.075813 0.290744
-0.051050 -0.075844 0.290790
-0.049671 -0.075842 0.290710
-0.048248 -0.075771 0.290365
-0.046844 -0.075728 0.290128
-0.045413 -0.075638 0.289710
-0.043907 -0.075412 0.288775
-0.042623 -0.075565 0.289291
-0.041303 -0.075664 0.289598
-0.041013 -0.077721 0.297403
-0.039633 -0.077784 0.297574
-0.037375 -0.076068 0.290941
-0.036008 -0.076102 0.291006
-0.031789 -0.069868 0.267111
-0.030096 -0.068901 0.263356
-0.028963 -0.069187 0.264392
-0.027696 -0.069166 0.264260
-0.026351 -0.068937 0.263331
-0.025064 -0.068846 0.262933
-0.023860 -0.068984 0.263407
-0.022655 -0.069137 0.263945
-0.021441 -0.069275 0.264426
-0.020318 -0.069747 0.266183
-0.019140 -0.070078 0.267402
-0.017923 -0.070305 0.268224
-0.016705 -0.070562 0.269165
-0.015482 -0.070840 0.270188
-0.014171 -0.070726 0.269719
-0.012885 -0.070734 0.269714
-0.011611 -0.070808 0.269962
-0.010299 -0.070651 0.269336
-0.008989 -0.070454 0.268556
-0.007705 -0.070441 0.268481
-0.006408 -0.070272 0.267813
-0.005136 -0.070364 0.268141
-0.003859 -0.070438 0.268405
-0.002586 -0.070664 0.269250
-0.001303 -0.070830 0.269867
-0.000013 -0.070797 0.269729
0.001269 -0.070440 0.268358
0.002561 -0.070703 0.269353
0.003838 -0.070522 0.268656
0.005040 -0.069400 0.264380
0.006225 -0.068539 0.261096
0.007453 -0.068352 0.260386
0.008698 -0.068362 0.260425
0.009920 -0.068206 0.259836
0.011156 -0.068165 0.259690
0.012395 -0.068154 0.259654
0.013664 -0.068294 0.260199
0.014934 -0.068417 0.260680
0.016207 -0.068529 0.261124
0.017459 -0.068544 0.261197
0.018816 -0.068945 0.262746
0.020227 -0.069477 0.264792
0.021616 -0.069877 0.266342
0.022823 -0.069676 0.265597
0.023931 -0.069211 0.263851
0.025194 -0.069217 0.263905
0.026318 -0.068857 0.262559
0.027498 -0.068673 0.261887
0.028656 -0.068450 0.261072
0.029853 -0.068335 0.260665
0.031223 -0.068610 0.261749
0.032576 -0.068828 0.262617
0.034037 -0.069249 0.264261
0.035475 -0.069594 0.265618
0.036938 -0.069963 0.267064
0.038246 -0.070024 0.267340
0.039627 -0.070209 0.268089
0.041072 -0.070494 0.269218
0.042226 -0.070276 0.268429
0.043470 -0.070216 0.268246
0.042612 -0.066862 0.255475
0.043693 -0.066653 0.254717
0.044838 -0.066549 0.254363
0.046107 -0.066629 0.254716
0.047327 -0.066637 0.254786
0.048487 -0.066562 0.254546
0.049760 -0.066642 0.254893
0.051085 -0.066785 0.255485
0.052488 -0.067023 0.256437
0.053661 -0.066961 0.256243
0.055380 -0.067569 0.258615
0.058632 -0.069980 0.267885
0.061105 -0.071378 0.273282
0.062501 -0.071487 0.273739
0.063627 -0.071287 0.273016
0.065139 -0.071520 0.273952
0.066433 -0.071509 0.273946
0.067710 -0.071480 0.273875
0.068998 -0.071465 0.273852
0.070262 -0.071424 0.273732
0.071323 -0.071183 0.272841
0.072413 -0.070979 0.272091
0.073836 -0.071102 0.272592
0.074890 -0.070873 0.271739
0.076174 -0.070865 0.271732
0.077667 -0.071048 0.272456
0.078926 -0.071014 0.272346
0.080264 -0.071052 0.272510
0.081777 -0.071241 0.273247
0.083319 -0.071448 0.274053
0.084966 -0.071739 0.275175
0.086034 -0.071538 0.274410
0.087747 -0.071872 0.275690
0.089973 -0.072610 0.278517
0.094755 -0.075360 0.289057
0.097431 -0.076380 0.292958
0.098881 -0.076423 0.293108
0.100199 -0.076364 0.292861
0.101614 -0.076381 0.292899
0.102787 -0.076217 0.292239
0.104142 -0.076190 0.292100
0.105654 -0.076278 0.292394
0.106995 -0.076241 0.292206
0.108367 -0.076228 0.292100
0.109804 -0.076259 0.292161
0.111084 -0.076182 0.291802
0.112595 -0.076264 0.292041
0.114326 -0.076491 0.292830
0.115786 -0.076533 0.292904
0.116996 -0.076410 0.292341
0.119054 -0.076838 0.293876
0.120436 -0.076825 0.293716
0.121696 -0.076735 0.293255
0.123226 -0.076815 0.293433
0.124578 -0.076784 0.293179
0.125918 -0.076746 0.292892
0.127498 -0.076853 0.293148
0.129147 -0.077000 0.293543
0.130826 -0.077160 0.293982
0.132210 -0.077145 0.293741
0.133616 -0.077144 0.293542
0.135155 -0.077218 0.293618
0.136533 -0.077199 0.293329
0.137781 -0.077109 0.292756
0.139392 -0.077221 0.292942
0.140968 -0.077311 0.293031
0.142456 -0.077352 0.292919
0.143978 -0.077411 0.292860
0.145703 -0.077576 0.293189
0.147122 -0.077577 0.292883
0.148694 -0.077657 0.292860
0.150215 -0.077710 0.292719
0.151811 -0.077799 0.292700
0.153288 -0.077827 0.292431
0.154775 -0.077859 0.292160
-0.142615 -0.068874 0.265601
-0.141339 -0.068871 0.265913
-0.140175 -0.068922 0.266422
-0.139099 -0.069017 0.267089
-0.137881 -0.069044 0.267477
-0.136686 -0.069083 0.267898
-0.135490 -0.069122 0.268307
-0.134343 -0.069187 0.268807
-0.133144 -0.069226 0.269194
-0.132013 -0.069302 0.269713
-0.130864 -0.069370 0.270189
-0.129597 -0.069376 0.270413
-0.128591 -0.069524 0.271178
-0.127533 -0.069646 0.271836
-0.126323 -0.069687 0.272165
-0.125353 -0.069862 0.273010
-0.124242 -0.069963 0.273554
-0.123053 -0.070020 0.273921
-0.122051 -0.070186 0.274705
-0.120870 -0.070252 0.275090
-0.119522 -0.070222 0.275087
-0.118446 -0.070352 0.275706
-0.117262 -0.070421 0.276075
-0.116008 -0.070448 0.276275
-0.114859 -0.070541 0.276727
-0.113828 -0.070709 0.277465
-0.112760 -0.070858 0.278120
-0.111659 -0.070989 0.278701
-0.110470 -0.071068 0.279066
-0.109358 -0.071198 0.279629
-0.108242 -0.071328 0.280188
-0.107249 -0.071544 0.281076
-0.106147 -0.071692 0.281692
-0.105187 -0.071942 0.282700
-0.105415 -0.073020 0.286960
-0.103509 -0.072629 0.285440
-0.101663 -0.072269 0.284041
-0.100278 -0.072234 0.283908
-0.098722 -0.072072 0.283273
-0.097781 -0.072360 0.284405
-0.096700 -0.072552 0.285152
-0.095633 -0.072760 0.285960
-0.094518 -0.072937 0.286640
-0.093272 -0.073017 0.286933
-0.092060 -0.073126 0.287340
-0.091965 -0.074139 0.291291
-0.095404 -0.078074 0.306721
-0.094089 -0.078180 0.307101
-0.092571 -0.078119 0.306819
-0.091249 -0.078223 0.307188
-0.089749 -0.078176 0.306956
-0.088333 -0.078202 0.307008
-0.087182 -0.078467 0.307997
-0.085779 -0.078511 0.308113
-0.084335 -0.078518 0.308081
-0.082959 -0.078589 0.308302
-0.081618 -0.078698 0.308666
-0.079808 -0.078349 0.307232
-0.077840 -0.077830 0.305133
-0.076578 -0.078011 0.305773
-0.075229 -0.078108 0.306084
-0.069647 -0.073729 0.288855
-0.068631 -0.074104 0.290257
-0.067297 -0.074144 0.290344
-0.066194 -0.074446 0.291455
-0.065045 -0.074707 0.292405
-0.063461 -0.074471 0.291406
-0.062237 -0.074655 0.292052
-0.060826 -0.074619 0.291839
-0.059365 -0.074519 0.291369
-0.058002 -0.074538 0.291370
-0.056620 -0.074535 0.291282
-0.055215 -0.074500 0.291070
-0.053874 -0.074553 0.291199
-0.052497 -0.074557 0.291138
-0.051126 -0.074568 0.291109
-0.049729 -0.074544 0.290939
-0.048362 -0.074563 0.290938
-0.046853 -0.074358 0.290064
-0.045443 -0.074303 0.289776
-0.044160 -0.074459 0.290312
-0.042678 -0.074279 0.289537
-0.041242 -0.074170 0.289041
-0.040972 -0.076223 0.296967
-0.039593 -0.076285 0.297138
-0.037256 -0.074439 0.289880
-0.035408 -0.073463 0.286015
-0.031662 -0.068317 0.265920
-0.030159 -0.067782 0.263779
-0.028964 -0.067923 0.264272
-0.027634 -0.067747 0.263530
-0.026363 -0.067705 0.263312
-0.025063 -0.067581 0.262776
-0.023875 -0.067762 0.263429
-0.022677 -0.067933 0.264045
-0.021520 -0.068257 0.265256
-0.020377 -0.068664 0.266793
-0.019262 -0.069229 0.268944
-0.018044 -0.069477 0.269865
-0.016725 -0.069350 0.269328
-0.015514 -0.069681 0.270575
-0.014234 -0.069734 0.270746
-0.012913 -0.069581 0.270117
-0.011684 -0.069939 0.271473
-0.010378 -0.069878 0.271204
-0.009064 -0.069728 0.270595
-0.007776 -0.069763 0.270705
-0.006475 -0.069679 0.270352
-0.005183 -0.069682 0.270343
-0.003892 -0.069694 0.270370
-0.002593 -0.069497 0.269591
-0.001307 -0.069617 0.270039
-0.000016 -0.069470 0.269456
0.001261 -0.068879 0.267153
0.002543 -0.069010 0.267654
0.003822 -0.069009 0.267645
0.005028 -0.068014 0.263782
0.006251 -0.067597 0.262163
0.007503 -0.067585 0.262117
0.008722 -0.067322 0.261102
0.009960 -0.067254 0.260844
0.011207 -0.067248 0.260827
0.012454 -0.067250 0.260843
0.013716 -0.067320 0.261130
0.015006 -0.067506 0.261864
0.016294 -0.067658 0.262468
0.017520 -0.067542 0.262039
0.018933 -0.068120 0.264297
0.020270 -0.068369 0.265286
0.021708 -0.068905 0.267392
0.022886 -0.068604 0.266249
0.023930 -0.067956 0.263761
0.025249 -0.068111 0.264393
0.026323 -0.067623 0.262529
0.027466 -0.067349 0.261497
0.028682 -0.067271 0.261226
0.029873 -0.067143 0.260764
0.031251 -0.067428 0.261908
0.032610 -0.067651 0.262810
0.034031 -0.067981 0.264130
0.035382 -0.068154 0.264843
0.036736 -0.068319 0.265526
0.038112 -0.068514 0.266325
0.039400 -0.068542 0.266479
0.040704 -0.068595 0.266732
0.041971 -0.068585 0.266734
0.043207 -0.068526 0.266552
0.042681 -0.065755 0.255819
0.043896 -0.065747 0.255832
0.045198 -0.065866 0.256339
0.046346 -0.065759 0.255970
0.047581 -0.065779 0.256094
0.048794 -0.065768 0.256096
0.050027 -0.065783 0.256201
0.051389 -0.065963 0.256947
0.052668 -0.066031 0.257257
0.053689 -0.065780 0.256325
0.055264 -0.066204 0.258021
0.058185 -0.068186 0.265790
0.060668 -0.069581 0.271275
0.062313 -0.069977 0.272864
0.063556 -0.069915 0.272667
0.064982 -0.070052 0.273245
0.066497 -0.070279 0.274171
0.067818 -0.070295 0.274274
0.069034 -0.070203 0.273955
0.070202 -0.070067 0.273461
0.071305 -0.069872 0.272738
0.072435 -0.069711 0.272143
0.073557 -0.069547 0.271535
0.074727 -0.069434 0.271122
0.075984 -0.069404 0.271031
0.077273 -0.069403 0.271053
0.078704 -0.069528 0.271562
0.080044 -0.069570 0.271747
0.081588 -0.069785 0.272602
0.083210 -0.070059 0.273687
0.084943 -0.070416 0.275093
0.086127 -0.070315 0.274704
0.087800 -0.070609 0.275857
0.089890 -0.071226 0.278266
0.095083 -0.074247 0.290065
0.097962 -0.075401 0.294565
0.099168 -0.075252 0.293970
0.100442 -0.075159 0.293589
0.101829 -0.075151 0.293538
0.103068 -0.075037 0.293061
0.104346 -0.074953 0.292701
0.105695 -0.074921 0.292540
0.107081 -0.074917 0.292478
0.108415 -0.074876 0.292268
0.109851 -0.074905 0.292328
0.111160 -0.074850 0.292049
0.112626 -0.074899 0.292173
0.113941 -0.074847 0.291896
0.115594 -0.075017 0.292477
0.117042 -0.075052 0.292520
0.118465 -0.075069 0.292489
0.120046 -0.075184 0.292835
0.121491 -0.075214 0.292835
0.122893 -0.075215 0.292720
0.124619 -0.075413 0.293359
0.126098 -0.075459 0.293399
0.127586 -0.075509 0.293443
0.129118 -0.075583 0.293574
0.130515 -0.075578 0.293386
0.131927 -0.075582 0.293222
0.133660 -0.075767 0.293750
0.134836 -0.075636 0.293042
0.136224 -0.075625 0.292789
0.137785 -0.075710 0.292894
0.139054 -0.075634 0.292365
0.140917 -0.075879 0.293065
0.142476 -0.075957 0.293105
0.143936 -0.075981 0.292925
0.145535 -0.076078 0.293008
0.147159 -0.076186 0.293120
0.148672 -0.076234 0.292989
0.150272 -0.076326 0.293007
0.151838 -0.076399 0.292936
0.153310 -0.076424 0.292663
0.154836 -0.076474 0.292472
-0.143026 -0.067791 0.266525
-0.141985 -0.067901 0.267280
-0.140693 -0.067892 0.267553
-0.139485 -0.067924 0.267973
-0.138480 -0.068057 0.268776
-0.137356 -0.068133 0.269344
-0.136020 -0.068104 0.269484
-0.134852 -0.068160 0.269948
-0.133710 -0.068230 0.270457
-0.132555 -0.068295 0.270931
-0.131366 -0.068344 0.271332
-0.130203 -0.068407 0.271781
-0.129157 -0.068534 0.272470
-0.128119 -0.068667 0.273178
-0.126981 -0.068750 0.273673
-0.125815 -0.068818 0.274103
-0.124817 -0.068982 0.274901
-0.123720 -0.069093 0.275483
-0.122557 -0.069169 0.275918
-0.121365 -0.069231 0.276285
-0.120316 -0.069376 0.276978
-0.119300 -0.069544 0.277755
-0.117999 -0.069548 0.277868
-0.116911 -0.069678 0.278479
-0.115851 -0.069829 0.279164
-0.114694 -0.069924 0.279621
-0.113749 -0.070153 0.280602
-0.112680 -0.070309 0.281288
-0.111660 -0.070499 0.282106
-0.110911 -0.070868 0.283631
-0.110403 -0.071402 0.285810
-0.109407 -0.071629 0.286756
-0.109259 -0.072424 0.289971
-0.107537 -0.072183 0.289030
-0.106000 -0.072061 0.288563
-0.104636 -0.072056 0.288556
-0.102511 -0.071519 0.286416
-0.100671 -0.071170 0.285023
-0.099102 -0.071006 0.284363
-0.097965 -0.071150 0.284937
-0.097212 -0.071582 0.286656
-0.096037 -0.071711 0.287156
-0.094825 -0.071815 0.287558
-0.093808 -0.072072 0.288563
-0.092654 -0.072231 0.289171
-0.091945 -0.072745 0.291201
-0.093050 -0.074733 0.299123
-0.092970 -0.075815 0.303416
-0.092929 -0.076965 0.307971
-0.091016 -0.076574 0.306363
-0.089571 -0.076572 0.306303
-0.088770 -0.077128 0.308478
-0.087412 -0.077212 0.308758
-0.085960 -0.077215 0.308709
-0.084475 -0.077187 0.308537
-0.083104 -0.077264 0.308783
-0.081755 -0.077365 0.309119
-0.080159 -0.077232 0.308520
-0.078184 -0.076721 0.306411
-0.076568 -0.076551 0.305660
-0.075219 -0.076647 0.305971
-0.069515 -0.072221 0.288235
-0.068633 -0.072729 0.290189
-0.067395 -0.072872 0.290688
-0.066063 -0.072918 0.290798
-0.064786 -0.073028 0.291161
-0.063484 -0.073113 0.291426
-0.062205 -0.073230 0.291814
-0.060889 -0.073308 0.292048
-0.059438 -0.073222 0.291628
-0.057961 -0.073100 0.291065
-0.056637 -0.073171 0.291269
-0.055229 -0.073133 0.291041
-0.053863 -0.073151 0.291033
-0.052500 -0.073174 0.291046
-0.051134 -0.073194 0.291047
-0.049764 -0.073209 0.291030
-0.048410 -0.073248 0.291110
-0.047018 -0.073233 0.290970
-0.045548 -0.073090 0.290330
-0.044016 -0.072836 0.289245
-0.042666 -0.072877 0.289334
-0.041608 -0.073436 0.291481
-0.041113 -0.075062 0.297861
-0.039730 -0.075124 0.298033
-0.037322 -0.073181 0.290253
-0.035838 -0.072971 0.289354
-0.031804 -0.067344 0.266979
-0.030106 -0.066401 0.263183
-0.028938 -0.066598 0.263902
-0.027652 -0.066526 0.263563
-0.026327 -0.066353 0.262819
-0.025060 -0.066314 0.262611
-0.023848 -0.066424 0.262998
-0.022627 -0.066520 0.263328
-0.021436 -0.066721 0.264072
-0.020286 -0.067081 0.265451
-0.019259 -0.067924 0.268744
-0.018083 -0.068325 0.270286
-0.016914 -0.068819 0.272196
-0.015693 -0.069162 0.273514
-0.014465 -0.069538 0.274961
-0.013144 -0.069495 0.274756
-0.011852 -0.069611 0.275180
-0.010518 -0.069482 0.274639
-0.009164 -0.069167 0.273362
-0.007855 -0.069140 0.273232
-0.006545 -0.069094 0.273024
-0.005234 -0.069022 0.272718
-0.003925 -0.068930 0.272332
-0.002612 -0.068637 0.271159
-0.001317 -0.068704 0.271407
-0.000019 -0.068402 0.270200
0.001260 -0.067726 0.267522
0.002534 -0.067573 0.266910
0.003802 -0.067422 0.266308
0.005015 -0.066614 0.263114
0.006243 -0.066288 0.261824
0.007485 -0.066198 0.261471
0.008710 -0.066004 0.260706
0.009951 -0.065960 0.260541
0.011195 -0.065949 0.260502
0.012458 -0.066037 0.260863
0.013728 -0.066146 0.261304
0.015003 -0.066255 0.261749
0.016332 -0.066566 0.262994
0.017643 -0.066769 0.263816
0.018954 -0.066942 0.264521
0.020276 -0.067129 0.265280
0.021641 -0.067429 0.266492
0.023013 -0.067714 0.267645
0.024101 -0.067179 0.265559
0.025334 -0.067082 0.265205
0.026582 -0.067030 0.265031
0.027778 -0.066859 0.264389
0.028988 -0.066736 0.263936
0.030362 -0.066982 0.264945
0.031780 -0.067304 0.266258
0.033160 -0.067523 0.267164
0.034549 -0.067743 0.268074
0.035847 -0.067775 0.268245
0.037114 -0.067747 0.268177
0.038376 -0.067714 0.268091
0.039493 -0.067434 0.267028
0.040587 -0.067134 0.265886
0.041816 -0.067070 0.265678
0.042738 -0.066529 0.263583
0.042893 -0.064861 0.257021
0.044017 -0.064710 0.256468
0.045357 -0.064875 0.257171
0.046512 -0.064775 0.256822
0.047687 -0.064707 0.256600
0.048982 -0.064801 0.257020
0.050254 -0.064860 0.257303
0.051613 -0.065026 0.258009
0.052770 -0.064936 0.257701
0.054057 -0.065007 0.258027
0.055755 -0.065557 0.260259
0.058483 -0.067267 0.267096
0.060525 -0.068134 0.270585
0.061869 -0.068194 0.270871
0.063413 -0.068467 0.272004
0.064915 -0.068686 0.272918
0.066477 -0.068957 0.274040
0.067808 -0.068984 0.274189
0.068947 -0.068817 0.273569
0.070409 -0.068974 0.274234
0.071494 -0.068762 0.273428
0.072529 -0.068510 0.272462
0.073992 -0.068664 0.273111
0.075116 -0.068504 0.272504
0.076209 -0.068321 0.271807
0.077357 -0.068193 0.271325
0.078730 -0.068264 0.271633
0.080016 -0.068259 0.271636
0.081526 -0.068442 0.272382
0.083138 -0.068703 0.273437
0.084833 -0.069023 0.274728
0.085867 -0.068805 0.273867
0.087637 -0.069173 0.275341
0.089643 -0.069715 0.277502
0.094871 -0.072710 0.289421
0.097236 -0.073456 0.292387
0.098826 -0.073605 0.292969
0.100210 -0.073597 0.292923
0.101397 -0.073448 0.292310
0.102789 -0.073448 0.292288
0.104154 -0.073430 0.292185
0.105543 -0.073429 0.292147
0.106956 -0.073444 0.292168
0.108230 -0.073365 0.291805
0.109577 -0.073336 0.291638
0.110990 -0.073352 0.291643
0.112296 -0.073297 0.291362
0.113856 -0.073407 0.291729
0.115177 -0.073363 0.291475
0.116671 -0.073428 0.291648
0.118609 -0.073769 0.292908
0.119788 -0.073634 0.292272
0.121360 -0.073741 0.292588
0.122840 -0.073791 0.292669
0.124234 -0.073789 0.292533
0.125729 -0.073845 0.292623
0.127270 -0.073928 0.292806
0.129604 -0.074463 0.294773
0.130946 -0.074424 0.294453
0.132057 -0.074255 0.293612
0.133679 -0.074375 0.293900
0.135112 -0.074388 0.293756
0.136306 -0.074270 0.293084
0.137721 -0.074274 0.292882
0.139235 -0.074330 0.292874
0.140556 -0.074283 0.292448
0.142274 -0.074445 0.292830
0.143705 -0.074455 0.292600
0.145409 -0.074605 0.292907
0.146895 -0.074641 0.292753
0.148640 -0.074807 0.293089
0.150091 -0.074823 0.292825
0.151363 -0.074750 0.292197
0.152963 -0.074839 0.292185
0.154583 -0.074936 0.292185
-0.143437 -0.066700 0.267445
-0.142333 -0.066780 0.268084
-0.140818 -0.066667 0.267932
-0.139775 -0.066778 0.268667
-0.138667 -0.066860 0.269270
-0.137308 -0.066821 0.269375
-0.136183 -0.066896 0.269928
-0.135042 -0.066965 0.270445
-0.133714 -0.066942 0.270576
-0.132916 -0.067186 0.271777
-0.131805 -0.067276 0.272343
-0.130450 -0.067241 0.272396
-0.129636 -0.067487 0.273576
-0.128554 -0.067598 0.274196
-0.127217 -0.067575 0.274267
-0.126515 -0.067892 0.275710
-0.125447 -0.068018 0.276365
-0.124007 -0.067943 0.276195
-0.123079 -0.068150 0.277162
-0.122051 -0.068305 0.277913
-0.120700 -0.068281 0.277925
-0.119799 -0.068514 0.278974
-0.118736 -0.068658 0.279656
-0.117594 -0.068760 0.280157
-0.116414 -0.068841 0.280567
-0.115511 -0.069091 0.281655
-0.114542 -0.069306 0.282598
-0.113116 -0.069246 0.282411
-0.112609 -0.069754 0.284537
-0.112773 -0.070695 0.288422
-0.113439 -0.071978 0.293694
-0.112319 -0.072145 0.294412
-0.111133 -0.072273 0.294964
-0.109884 -0.072363 0.295355
-0.108965 -0.072676 0.296648
-0.107985 -0.072955 0.297799
-0.106165 -0.072668 0.296631
-0.105092 -0.072890 0.297538
-0.099752 -0.070119 0.286225
-0.098783 -0.070387 0.287309
-0.097661 -0.070552 0.287970
-0.096417 -0.070632 0.288280
-0.095189 -0.070727 0.288645
-0.093971 -0.070831 0.289045
-0.092687 -0.070889 0.289250
-0.090895 -0.070555 0.287852
-0.092763 -0.073093 0.298171
-0.090348 -0.072284 0.294828
-0.093034 -0.075593 0.308279
-0.091408 -0.075449 0.307643
-0.089919 -0.075414 0.307448
-0.088518 -0.075454 0.307556
-0.087369 -0.075714 0.308555
-0.085787 -0.075600 0.308032
-0.084195 -0.075475 0.307456
-0.082870 -0.075588 0.307854
-0.081450 -0.075617 0.307904
-0.080178 -0.075787 0.308524
-0.078283 -0.075365 0.306733
-0.077101 -0.075624 0.307716
-0.075744 -0.075720 0.308029
-0.069467 -0.070805 0.287961
-0.068705 -0.071427 0.290416
-0.067413 -0.071511 0.290685
-0.066023 -0.071494 0.290539
-0.064817 -0.071679 0.291212
-0.063429 -0.071667 0.291086
-0.062138 -0.071766 0.291409
-0.060797 -0.071810 0.291511
-0.059320 -0.071693 0.290955
-0.058016 -0.071784 0.291242
-0.056650 -0.071801 0.291231
-0.055263 -0.071791 0.291114
-0.053983 -0.071925 0.291574
-0.052649 -0.071991 0.291762
-0.051127 -0.071796 0.290894
-0.049774 -0.071836 0.290976
-0.048340 -0.071756 0.290574
-0.046959 -0.071754 0.290484
-0.045635 -0.071842 0.290762
-0.044160 -0.071689 0.290068
-0.042666 -0.071495 0.289208
-0.041037 -0.071054 0.287350
-0.041287 -0.073949 0.298980
-0.039898 -0.074010 0.299153
-0.037318 -0.071786 0.290093
-0.036018 -0.071946 0.290668
-0.031596 -0.065634 0.265104
-0.030067 -0.065058 0.262716
-0.028825 -0.065078 0.262740
-0.027656 -0.065272 0.263466
-0.026324 -0.065084 0.262651
-0.025070 -0.065078 0.262570
-0.023859 -0.065191 0.262972
-0.022634 -0.065274 0.263258
-0.021424 -0.065416 0.263778
-0.020225 -0.065606 0.264498
-0.019157 -0.066280 0.267169
-0.018039 -0.066862 0.269472
-0.016758 -0.066883 0.269514
-0.015609 -0.067480 0.271878
-0.014392 -0.067866 0.273395
-0.013167 -0.068288 0.275057
-0.011873 -0.068402 0.275482
-0.010537 -0.068276 0.274941
-0.009181 -0.067966 0.273663
-0.007870 -0.067940 0.273532
-0.006558 -0.067895 0.273324
-0.005245 -0.067824 0.273018
-0.003934 -0.067733 0.272632
-0.002619 -0.067446 0.271458
-0.001322 -0.067511 0.271706
-0.000022 -0.066860 0.269070
0.001259 -0.066555 0.267834
0.002523 -0.066082 0.265924
0.003785 -0.065913 0.265235
0.005018 -0.065429 0.263287
0.006260 -0.065246 0.262551
0.007510 -0.065193 0.262338
0.008728 -0.064915 0.261225
0.009966 -0.064834 0.260903
0.011243 -0.064996 0.261564
0.012537 -0.065215 0.262454
0.013809 -0.065290 0.262772
0.015128 -0.065557 0.263860
0.016420 -0.065673 0.264345
0.017789 -0.066059 0.265917
0.019067 -0.066079 0.266020
0.020352 -0.066117 0.266197
0.021731 -0.066439 0.267521
0.023030 -0.066492 0.267759
0.024271 -0.066384 0.267356
0.025490 -0.066227 0.266755
0.026852 -0.066440 0.267646
0.028097 -0.066356 0.267344
0.029328 -0.066247 0.266941
0.030695 -0.066445 0.267775
0.031987 -0.066467 0.267903
0.033378 -0.066688 0.268835
0.034695 -0.066749 0.269125
0.035915 -0.066624 0.268665
0.037144 -0.066527 0.268319
0.038436 -0.066544 0.268431
0.039434 -0.066067 0.266554
0.040539 -0.065793 0.265498
0.041714 -0.065646 0.264953
0.042598 -0.065063 0.262647
0.043258 -0.064182 0.259140
0.044432 -0.064090 0.258816
0.045799 -0.064274 0.259612
0.046857 -0.064026 0.258658
0.048016 -0.063925 0.258301
0.049363 -0.064075 0.258954
0.050670 -0.064165 0.259370
0.051859 -0.064106 0.259180
0.053116 -0.064130 0.259330
0.054614 -0.064439 0.260628
0.056359 -0.065018 0.263020
0.058392 -0.065897 0.266627
0.060217 -0.066509 0.269151
0.061747 -0.066776 0.270282
0.063286 -0.067042 0.271409
0.064864 -0.067338 0.272652
0.066180 -0.067355 0.272771
0.067504 -0.067380 0.272915
0.068840 -0.067416 0.273106
0.069960 -0.067242 0.272445
0.071315 -0.067297 0.272707
0.072509 -0.067200 0.272352
0.073884 -0.067271 0.272679
0.075131 -0.067226 0.272530
0.076201 -0.067026 0.271754
0.077373 -0.066921 0.271357
0.078616 -0.066880 0.271220
0.080005 -0.066962 0.271578
0.081229 -0.066906 0.271372
0.082705 -0.067056 0.272001
0.084361 -0.067345 0.273189
0.085349 -0.067101 0.272209
0.087116 -0.067466 0.273701
0.089248 -0.068099 0.276275
0.094731 -0.071233 0.288994
0.098964 -0.073352 0.297588
0.098238 -0.071787 0.291233
0.100058 -0.072100 0.292491
0.101443 -0.072095 0.292457
0.102582 -0.071918 0.291717
0.104060 -0.071980 0.291942
0.105427 -0.071964 0.291848
0.106872 -0.072002 0.291965
0.108199 -0.071960 0.291752
0.109550 -0.071935 0.291602
0.111184 -0.072094 0.292193
0.112326 -0.071933 0.291481
0.113786 -0.071978 0.291596
0.115622 -0.072258 0.292653
0.116996 -0.072244 0.292516
0.118307 -0.072193 0.292219
0.119944 -0.072339 0.292715
0.121297 -0.072313 0.292504
0.122813 -0.072383 0.292675
0.124410 -0.072499 0.293023
0.125676 -0.072422 0.292579
0.127215 -0.072502 0.292764
0.128994 -0.072715 0.293476
0.130454 -0.072746 0.293441
0.132044 -0.072848 0.293683
0.133578 -0.072917 0.293781
0.134954 -0.072899 0.293519
0.136230 -0.072828 0.293032
0.137594 -0.072805 0.292728
0.139067 -0.072840 0.292644
0.140468 -0.072837 0.292393
0.142085 -0.072944 0.292575
0.143747 -0.073072 0.292827
0.145254 -0.073120 0.292741
0.146885 -0.073228 0.292883
0.148772 -0.073461 0.293508
0.150263 -0.073496 0.293324
0.151505 -0.073409 0.292641
0.153056 -0.073472 0.292539
0.154472 -0.073470 0.292159
-0.143999 -0.065671 0.268642
-0.142605 -0.065619 0.268739
-0.141766 -0.065823 0.269874
-0.140473 -0.065819 0.270142
-0.139071 -0.065763 0.270184
-0.138377 -0.066043 0.271596
-0.136827 -0.065917 0.271323
-0.135629 -0.065960 0.271733
-0.134822 -0.066196 0.272927
-0.133706 -0.066283 0.273498
-0.132358 -0.066256 0.273585
-0.131315 -0.066382 0.274295
-0.130215 -0.066482 0.274887
-0.129056 -0.066554 0.275353
-0.128007 -0.066684 0.276052
-0.127074 -0.066878 0.277007
-0.125968 -0.066984 0.277587
-0.124878 -0.067102 0.278206
-0.124002 -0.067337 0.279307
-0.123804 -0.067951 0.281966
-0.123098 -0.068295 0.283505
-0.121383 -0.068082 0.282717
-0.123276 -0.069910 0.290403
-0.122254 -0.070107 0.291309
-0.121048 -0.070202 0.291781
-0.119995 -0.070389 0.292628
-0.118658 -0.070412 0.292788
-0.117490 -0.070537 0.293367
-0.116294 -0.070648 0.293878
-0.114120 -0.070160 0.291891
-0.112989 -0.070310 0.292552
-0.111720 -0.070377 0.292861
-0.110364 -0.070389 0.292938
-0.109351 -0.070624 0.293933
-0.108063 -0.070684 0.294198
-0.108214 -0.071700 0.298435
-0.106854 -0.071729 0.298556
-0.105290 -0.071619 0.298097
-0.103947 -0.071659 0.298255
-0.101515 -0.070939 0.295245
-0.098775 -0.069981 0.291242
-0.097179 -0.069818 0.290543
-0.095985 -0.069943 0.291039
-0.094413 -0.069793 0.290385
-0.093041 -0.069788 0.290330
-0.094149 -0.071671 0.298126
-0.093293 -0.072093 0.299842
-0.089372 -0.070123 0.291606
-0.088917 -0.070854 0.294600
-0.091511 -0.074077 0.307945
-0.090177 -0.074172 0.308286
-0.088472 -0.073960 0.307347
-0.087192 -0.074103 0.307877
-0.085795 -0.074149 0.308007
-0.084207 -0.074029 0.307441
-0.082868 -0.074128 0.307783
-0.081151 -0.073886 0.306708
-0.080212 -0.074357 0.308591
-0.078120 -0.073757 0.306023
-0.076659 -0.073740 0.305878
-0.075310 -0.073834 0.306190
-0.069513 -0.069484 0.288075
-0.068795 -0.070140 0.290719
-0.067483 -0.070204 0.290906
-0.066121 -0.070218 0.290885
-0.064959 -0.070449 0.291763
-0.063556 -0.070424 0.291577
-0.062289 -0.070551 0.292024
-0.060960 -0.070614 0.292200
-0.059469 -0.070486 0.291590
-0.058042 -0.070430 0.291274
-0.056689 -0.070463 0.291332
-0.055283 -0.070431 0.291116
-0.053915 -0.070447 0.291098
-0.052537 -0.070450 0.291028
-0.051165 -0.070463 0.291000
-0.049758 -0.070425 0.290764
-0.048399 -0.070456 0.290811
-0.047040 -0.070489 0.290867
-0.045604 -0.070405 0.290442
-0.044246 -0.070440 0.290507
-0.042827 -0.070378 0.290173
-0.041296 -0.070122 0.289041
-0.041284 -0.072515 0.298827
-0.039896 -0.072576 0.299001
-0.037161 -0.070102 0.288735
-0.036024 -0.070566 0.290576
-0.031607 -0.064388 0.265073
-0.030240 -0.064165 0.264093
-0.028849 -0.063872 0.262827
-0.027731 -0.064185 0.264053
-0.026398 -0.064004 0.263251
-0.025088 -0.063866 0.262627
-0.023887 -0.064003 0.263139
-0.022667 -0.064103 0.263496
-0.021415 -0.064119 0.263513
-0.020369 -0.064793 0.266233
-0.019395 -0.065800 0.270322
-0.018286 -0.066463 0.272999
-0.016831 -0.065871 0.270525
-0.015618 -0.066210 0.271877
-0.014417 -0.066661 0.273690
-0.012243 -0.062256 0.255568
-0.011064 -0.062496 0.256522
-0.009863 -0.062661 0.257169
-0.008635 -0.062674 0.257192
-0.007419 -0.062794 0.257660
-0.006198 -0.062906 0.258095
-0.004978 -0.063092 0.258834
-0.003739 -0.063076 0.258751
-0.002501 -0.063103 0.258842
-0.001267 -0.063324 0.259736
-0.000025 -0.064526 0.264654
0.001250 -0.064955 0.266404
0.002504 -0.064388 0.264072
0.003772 -0.064462 0.264369
0.005012 -0.064133 0.263016
0.006261 -0.064026 0.262577
0.007525 -0.064083 0.262811
0.008752 -0.063857 0.261891
0.009983 -0.063709 0.261290
0.011283 -0.063985 0.262430
0.012600 -0.064297 0.263721
0.013888 -0.064412 0.264205
0.015187 -0.064558 0.264822
0.016460 -0.064578 0.264920
0.017874 -0.065106 0.267107
0.019184 -0.065211 0.267563
0.020427 -0.065091 0.267092
0.021810 -0.065404 0.268404
0.023124 -0.065487 0.268774
0.024362 -0.065357 0.268273
0.025727 -0.065562 0.269145
0.027233 -0.066092 0.271355
0.028458 -0.065921 0.270692
0.029749 -0.065913 0.270694
0.031117 -0.066066 0.271363
0.032312 -0.065856 0.270544
0.033642 -0.065927 0.270878
0.034994 -0.066032 0.271355
0.036115 -0.065712 0.270085
0.037201 -0.065351 0.268646
0.038330 -0.065087 0.267609
0.039426 -0.064785 0.266416
0.040366 -0.064254 0.264283
0.041426 -0.063942 0.263047
0.042546 -0.063736 0.262252
0.043433 -0.063204 0.260110
0.044546 -0.063021 0.259409
0.045802 -0.063045 0.259558
0.047005 -0.062996 0.259409
0.048133 -0.062851 0.258865
0.049432 -0.062932 0.259249
0.050647 -0.062904 0.259188
0.051961 -0.062998 0.259627
0.053250 -0.063057 0.259920
0.054618 -0.063205 0.260584
0.056216 -0.063607 0.262294
0.058061 -0.064265 0.265059
0.059951 -0.064944 0.267910
0.061572 -0.065308 0.269462
0.063082 -0.065542 0.270482
0.064590 -0.065765 0.271451
0.066112 -0.065994 0.272443
0.067372 -0.065956 0.272336
0.068594 -0.065884 0.272087
0.069900 -0.065893 0.272169
0.071198 -0.065895 0.272218
0.072360 -0.065773 0.271756
0.073581 -0.065708 0.271528
0.074762 -0.065610 0.271162
0.075662 -0.065273 0.269802
0.076782 -0.065133 0.269258
0.077949 -0.065038 0.268895
0.078982 -0.064836 0.268086
0.080561 -0.065081 0.269123
0.082236 -0.065394 0.270442
0.083817 -0.065625 0.271414
0.084534 -0.065182 0.269597
0.086231 -0.065497 0.270912
0.088093 -0.065926 0.272696
0.094576 -0.069750 0.288522
0.097416 -0.070817 0.292935
0.098019 -0.070250 0.290588
0.100083 -0.070732 0.292573
0.101404 -0.070682 0.292356
0.102728 -0.070636 0.292148
0.104091 -0.070618 0.292049
0.105508 -0.070635 0.292094
0.106932 -0.070657 0.292154
0.108261 -0.070617 0.291948
0.109651 -0.070617 0.291903
0.111112 -0.070662 0.292038
0.112365 -0.070575 0.291622
0.114056 -0.070762 0.292332
0.115621 -0.070867 0.292695
0.117167 -0.070959 0.292995
0.118414 -0.070869 0.292538
0.119884 -0.070913 0.292628
0.121385 -0.070974 0.292780
0.122724 -0.070940 0.292530
0.124130 -0.070945 0.292434
0.125722 -0.071056 0.292763
0.127276 -0.071142 0.292982
0.128618 -0.071109 0.292704
0.130240 -0.071230 0.293048
0.131642 -0.071230 0.292882
0.133327 -0.071380 0.293327
0.134704 -0.071365 0.293079
0.135909 -0.071260 0.292450
0.137445 -0.071328 0.292525
0.138856 -0.071331 0.292316
0.140488 -0.071446 0.292558
0.142185 -0.071592 0.292909
0.143610 -0.071599 0.292681
0.145062 -0.071620 0.292494
0.146894 -0.071825 0.293047
0.148783 -0.072054 0.293682
0.150220 -0.072062 0.293399
0.151598 -0.072042 0.292986
0.153024 -0.072045 0.292649
0.154523 -0.072081 0.292433
-0.155259 -0.069415 0.289802
-0.154034 -0.069485 0.290425
-0.152878 -0.069588 0.291172
-0.152016 -0.069827 0.292477
-0.150585 -0.069808 0.292684
-0.149362 -0.069886 0.293285
-0.141931 -0.067033 0.281562
-0.140783 -0.067122 0.282173
-0.140007 -0.067391 0.283531
-0.138912 -0.067510 0.284249
-0.137775 -0.067612 0.284881
-0.137066 -0.067928 0.286404
-0.135666 -0.067904 0.286485
-0.134450 -0.067972 0.286947
