ply
format ascii 1.0
element vertex 1681
property float x
property float y
property float z
end_header
-0.065124 -0.041478 0.290683
-0.063771 -0.041497 0.290694
-0.062427 -0.041523 0.290754
-0.061079 -0.041548 0.290807
-0.059712 -0.041560 0.290770
-0.058319 -0.041555 0.290610
-0.056812 -0.041467 0.289871
-0.055399 -0.041443 0.289588
-0.054059 -0.041476 0.289694
-0.052665 -0.041466 0.289511
-0.051295 -0.041476 0.289463
-0.049955 -0.041513 0.289601
-0.048561 -0.041504 0.289424
-0.047200 -0.041525 0.289454
-0.045830 -0.041537 0.289431
-0.044471 -0.041563 0.289496
-0.043119 -0.041595 0.289616
-0.041035 -0.040901 0.284677
-0.039863 -0.041100 0.285954
-0.038530 -0.041140 0.286131
-0.037426 -0.041437 0.288094
-0.036410 -0.041858 0.290922
-0.031698 -0.037895 0.263290
-0.030136 -0.037525 0.260632
-0.028783 -0.037392 0.259631
-0.027647 -0.037544 0.260607
-0.026331 -0.037455 0.259909
-0.025055 -0.037416 0.259561
-0.023774 -0.037365 0.259139
-0.022555 -0.037411 0.259387
-0.021365 -0.037515 0.260037
-0.020136 -0.037558 0.260274
-0.019123 -0.038036 0.263520
-0.018093 -0.038548 0.267011
-0.016769 -0.038461 0.266351
-0.015663 -0.038904 0.269364
-0.014382 -0.038952 0.269642
-0.013084 -0.038959 0.269642
-0.011809 -0.039044 0.270186
-0.010523 -0.039111 0.270612
-0.009227 -0.039153 0.270864
-0.007890 -0.039008 0.269826
-0.006597 -0.039066 0.270196
-0.005297 -0.039097 0.270378
-0.004002 -0.039209 0.271132
-0.002690 -0.039173 0.270856
-0.001387 -0.039326 0.271898
-0.000074 -0.039492 0.273033
0.001216 -0.038552 0.266525
0.002572 -0.039609 0.273823
0.003954 -0.040203 0.277930
0.005011 -0.038033 0.262928
0.006159 -0.037290 0.257793
0.007413 -0.037330 0.258079
0.008681 -0.037418 0.258697
0.009937 -0.037442 0.258877
0.011188 -0.037440 0.258881
0.012449 -0.037469 0.259101
0.013770 -0.037659 0.260437
0.014996 -0.037577 0.259901
0.016332 -0.037763 0.261215
0.017625 -0.037829 0.261701
0.018943 -0.037936 0.262477
0.020342 -0.038182 0.264226
0.022160 -0.039139 0.270892
0.023455 -0.039117 0.270786
0.024102 -0.038073 0.263604
0.025297 -0.037956 0.262846
0.026433 -0.037766 0.261584
0.027617 -0.037660 0.260903
0.028708 -0.037439 0.259434
0.029895 -0.037360 0.258942
0.031145 -0.037360 0.259006
0.032510 -0.037493 0.259995
0.033704 -0.037428 0.259607
0.035080 -0.037561 0.260601
0.036494 -0.037724 0.261807
0.037862 -0.037830 0.262614
0.039383 -0.038077 0.264409
0.040814 -0.038225 0.265511
0.042048 -0.038185 0.265313
0.043385 -0.038238 0.265762
0.044849 -0.038396 0.266945
0.044083 -0.036689 0.255161
0.045234 -0.036628 0.254816
0.046464 -0.036632 0.254925
0.047654 -0.036605 0.254818
0.048867 -0.036596 0.254845
0.050177 -0.036659 0.255367
0.051416 -0.036668 0.255516
0.052567 -0.036615 0.255233
0.053848 -0.036653 0.255585
0.055209 -0.036743 0.256298
0.059362 -0.038646 0.269669
0.061153 -0.038964 0.271976
0.062142 -0.038767 0.270695
0.063258 -0.038657 0.270015
0.064706 -0.038750 0.270755
0.065922 -0.038702 0.270511
0.067101 -0.038635 0.270137
0.068113 -0.038476 0.269114
0.069125 -0.038324 0.268132
0.069954 -0.038077 0.266493
0.070905 -0.037904 0.265366
0.072010 -0.037819 0.264849
0.073148 -0.037753 0.264467
0.074338 -0.037715 0.264283
0.075485 -0.037658 0.263959
0.076533 -0.037554 0.263304
0.077648 -0.037485 0.262896
0.079022 -0.037542 0.263364
0.080418 -0.037607 0.263890
0.081625 -0.037583 0.263788
0.083223 -0.037737 0.264933
0.084281 -0.037646 0.264351
0.086205 -0.037938 0.266459
0.094491 -0.040981 0.287891
0.095713 -0.040917 0.287496
0.099253 -0.041831 0.293975
0.099798 -0.041476 0.291526
0.101294 -0.041520 0.291880
0.102415 -0.041411 0.291153
0.103526 -0.041301 0.290417
0.105071 -0.041365 0.290897
0.106964 -0.041563 0.292312
0.108315 -0.041547 0.292222
0.109626 -0.041517 0.292024
0.111004 -0.041512 0.292003
0.112352 -0.041497 0.291897
0.113789 -0.041514 0.292019
0.115364 -0.041581 0.292480
0.116455 -0.041474 0.291711
0.118170 -0.041589 0.292498
0.119309 -0.041500 0.291849
0.120638 -0.041479 0.291668
0.122381 -0.041600 0.292473
0.123198 -0.041406 0.291063
0.124506 -0.041380 0.290823
0.126489 -0.041576 0.292137
0.127783 -0.041544 0.291839
0.128984 -0.041483 0.291328
0.130397 -0.041491 0.291290
0.131722 -0.041470 0.291048
0.133062 -0.041455 0.290833
0.134454 -0.041456 0.290724
0.135818 -0.041449 0.290544
0.137472 -0.041529 0.290967
0.139634 -0.041759 0.292432
0.140949 -0.041735 0.292098
0.142205 -0.041693 0.291636
0.144076 -0.041831 0.292414
0.145631 -0.041875 0.292527
0.147157 -0.041910 0.292564
0.148429 -0.041873 0.292083
0.149769 -0.041855 0.291726
0.151184 -0.041859 0.291503
0.152935 -0.041954 0.291905
-0.155830 -0.040367 0.293052
-0.154405 -0.040357 0.293219
-0.152829 -0.040306 0.293081
-0.151857 -0.040415 0.294093
-0.150251 -0.040356 0.293867
-0.148456 -0.040245 0.293249
-0.146958 -0.040213 0.293196
-0.145518 -0.040196 0.293243
-0.144362 -0.040259 0.293856
-0.142732 -0.040189 0.293490
-0.141375 -0.040196 0.293674
-0.139692 -0.040109 0.293162
-0.138066 -0.040037 0.292750
-0.136602 -0.040011 0.292663
-0.135265 -0.040022 0.292838
-0.139184 -0.042477 0.311045
-0.139764 -0.043106 0.315715
-0.138498 -0.043173 0.316263
-0.127482 -0.040169 0.294304
-0.124132 -0.039542 0.289743
-0.122951 -0.039599 0.290191
-0.121815 -0.039673 0.290752
-0.120545 -0.039704 0.290993
-0.119188 -0.039706 0.291019
-0.117954 -0.039751 0.291344
-0.116657 -0.039775 0.291514
-0.115092 -0.039707 0.291005
-0.113632 -0.039674 0.290746
-0.112296 -0.039684 0.290796
-0.110869 -0.039662 0.290603
-0.109522 -0.039668 0.290617
-0.108273 -0.039711 0.290888
-0.106921 -0.039716 0.290884
-0.105634 -0.039746 0.291053
-0.104290 -0.039755 0.291064
-0.102527 -0.039603 0.289890
-0.101447 -0.039713 0.290637
-0.100269 -0.039788 0.291117
-0.098835 -0.039762 0.290857
-0.095717 -0.039049 0.285565
-0.097506 -0.040345 0.294963
-0.097113 -0.040763 0.297937
-0.095865 -0.040830 0.298332
-0.094401 -0.040805 0.298059
-0.093351 -0.040960 0.299100
-0.092231 -0.041090 0.299947
-0.090677 -0.041027 0.299390
-0.089406 -0.041092 0.299762
-0.088057 -0.041124 0.299882
-0.086491 -0.041053 0.299256
-0.085030 -0.041030 0.298980
-0.083679 -0.041060 0.299089
-0.081975 -0.040916 0.297925
-0.080841 -0.041056 0.298829
-0.079659 -0.041176 0.299584
-0.078404 -0.041263 0.300091
-0.076965 -0.041254 0.299905
-0.075710 -0.041345 0.300442
-0.074395 -0.041406 0.300762
-0.071273 -0.040444 0.293655
-0.069076 -0.039980 0.290160
-0.067697 -0.039979 0.290033
-0.066458 -0.040063 0.290518
-0.065197 -0.040137 0.290932
-0.063803 -0.040130 0.290763
-0.062464 -0.040159 0.290848
-0.061164 -0.040215 0.291129
-0.059805 -0.040234 0.291139
-0.058343 -0.040182 0.290643
-0.056864 -0.040117 0.290049
-0.055701 -0.040276 0.291078
-0.054126 -0.040138 0.289962
-0.052767 -0.040157 0.289979
-0.051490 -0.040242 0.290474
-0.050001 -0.040161 0.289770
-0.048646 -0.040186 0.289832
-0.047354 -0.040267 0.290300
-0.045895 -0.040206 0.289745
-0.044557 -0.040250 0.289950
-0.043179 -0.040260 0.289914
-0.041170 -0.039663 0.285510
-0.040437 -0.040296 0.289960
-0.038465 -0.039697 0.285539
-0.037434 -0.040059 0.288046
-0.036442 -0.040493 0.291068
-0.031857 -0.036810 0.264503
-0.030223 -0.036373 0.261275
-0.028800 -0.036163 0.259681
-0.027649 -0.036291 0.260524
-0.026353 -0.036231 0.260014
-0.025074 -0.036191 0.259646
-0.023814 -0.036175 0.259459
-0.022556 -0.036161 0.259291
-0.021344 -0.036223 0.259667
-0.020197 -0.036410 0.260943
-0.019154 -0.036823 0.263835
-0.018221 -0.037520 0.268768
-0.016765 -0.037164 0.266160
-0.015865 -0.038086 0.272711
-0.014483 -0.037910 0.271399
-0.013296 -0.038264 0.273881
-0.011963 -0.038227 0.273570
-0.010676 -0.038349 0.274399
-0.009311 -0.038185 0.273191
-0.007995 -0.038199 0.273253
-0.006687 -0.038263 0.273682
-0.005371 -0.038311 0.273996
-0.004028 -0.038125 0.272643
-0.002732 -0.038428 0.274784
-0.001400 -0.038303 0.273871
-0.000076 -0.038468 0.275037
0.001212 -0.037203 0.265988
0.002549 -0.037970 0.271461
0.003922 -0.038566 0.275716
0.004992 -0.036634 0.261905
0.006179 -0.036171 0.258599
0.007418 -0.036116 0.258215
0.008678 -0.036163 0.258560
0.009923 -0.036144 0.258437
0.011185 -0.036184 0.258744
0.012440 -0.036197 0.258859
0.013706 -0.036236 0.259163
0.014985 -0.036300 0.259644
0.016298 -0.036428 0.260587
0.017585 -0.036486 0.261039
0.018887 -0.036564 0.261637
0.020336 -0.036898 0.264063
0.022060 -0.037664 0.269588
0.023230 -0.037451 0.268109
0.024128 -0.036843 0.263811
0.025393 -0.036830 0.263766
0.026550 -0.036669 0.262670
0.027616 -0.036402 0.260810
0.028657 -0.036127 0.258902
0.029832 -0.036037 0.258319
0.031055 -0.036010 0.258186
0.032345 -0.036059 0.258601
0.033614 -0.036082 0.258835
0.034955 -0.036179 0.259600
0.036318 -0.036290 0.260468
0.037655 -0.036369 0.261111
0.039131 -0.036572 0.262645
0.040515 -0.036679 0.263494
0.041944 -0.036819 0.264584
0.043424 -0.036995 0.265931
0.042536 -0.035201 0.253113
0.043775 -0.035217 0.253313
0.045013 -0.035233 0.253506
0.046186 -0.035198 0.253338
0.047431 -0.035218 0.253564
0.048705 -0.035257 0.253935
0.050013 -0.035320 0.254471
0.051281 -0.035351 0.254784
0.052568 -0.035394 0.255180
0.054015 -0.035540 0.256323
0.056251 -0.036187 0.261077
0.058770 -0.036984 0.266920
0.060705 -0.037387 0.269926
0.061840 -0.037291 0.269324
0.063159 -0.037308 0.269537
0.064570 -0.037377 0.270130
0.065901 -0.037398 0.270373
0.067153 -0.037375 0.270295
0.068186 -0.037232 0.269356
0.069175 -0.037072 0.268281
0.069996 -0.036828 0.266606
0.070828 -0.036599 0.265033
0.071997 -0.036549 0.264755
0.073073 -0.036455 0.264153
0.074224 -0.036400 0.263839
0.075210 -0.036268 0.262959
0.076311 -0.036195 0.262504
0.077511 -0.036170 0.262397
0.078846 -0.036208 0.262743
0.080329 -0.036311 0.263564
0.081598 -0.036316 0.263669
0.083227 -0.036479 0.264918
0.084378 -0.036431 0.264629
0.086501 -0.036797 0.267350
0.094592 -0.039655 0.288172
0.098279 -0.040611 0.295178
0.099528 -0.040547 0.294768
0.099607 -0.040015 0.290947
0.101227 -0.040108 0.291670
0.102406 -0.040026 0.291114
0.104027 -0.040116 0.291808
0.105498 -0.040147 0.292069
0.106845 -0.040131 0.291976
0.108382 -0.040185 0.292397
0.109828 -0.040205 0.292557
0.111218 -0.040204 0.292563
0.112639 -0.040214 0.292644
0.113959 -0.040189 0.292456
0.115313 -0.040175 0.292355
0.116684 -0.040168 0.292289
0.117888 -0.040104 0.291807
0.119385 -0.040141 0.292045
0.120694 -0.040113 0.291816
0.121581 -0.039949 0.290576
0.123795 -0.040218 0.292491
0.125163 -0.040210 0.292376
0.126307 -0.040131 0.291738
0.127693 -0.040129 0.291658
0.128874 -0.040064 0.291105
0.130119 -0.040020 0.290699
0.131493 -0.040016 0.290573
0.132873 -0.040015 0.290455
0.134171 -0.039988 0.290148
0.135888 -0.040086 0.290732
0.137423 -0.040129 0.290906
0.139542 -0.040339 0.292286
0.140626 -0.040249 0.291477
0.142248 -0.040314 0.291774
0.143720 -0.040335 0.291747
0.144876 -0.040268 0.291068
0.146641 -0.040370 0.291599
0.148256 -0.040428 0.291805
0.149589 -0.040410 0.291441
0.151025 -0.040419 0.291264
0.152533 -0.040448 0.291210
-0.155377 -0.038859 0.292262
-0.154322 -0.038941 0.293120
-0.152638 -0.038865 0.292771
-0.151398 -0.038901 0.293258
-0.150385 -0.038997 0.294181
-0.148418 -0.038845 0.293223
-0.147184 -0.038883 0.293693
-0.145819 -0.038888 0.293894
-0.144390 -0.038876 0.293953
-0.142177 -0.038650 0.292389
-0.141068 -0.038723 0.293071
-0.139621 -0.038703 0.293046
-0.138146 -0.038676 0.292949
-0.136850 -0.038698 0.293222
-0.135273 -0.038641 0.292881
-0.140061 -0.041267 0.313025
-0.139514 -0.041542 0.315169
-0.138252 -0.041607 0.315717
-0.125852 -0.038285 0.290552
-0.123809 -0.038076 0.288999
-0.122744 -0.038167 0.289712
-0.121446 -0.038186 0.289876
-0.120350 -0.038270 0.290525
-0.119045 -0.038288 0.290672
-0.117806 -0.038329 0.290977
-0.116646 -0.038397 0.291485
-0.115251 -0.038387 0.291402
-0.113967 -0.038415 0.291594
-0.112671 -0.038440 0.291758
-0.111339 -0.038453 0.291826
-0.109382 -0.038248 0.290233
-0.108119 -0.038284 0.290459
-0.107022 -0.038379 0.291139
-0.105460 -0.038309 0.290553
-0.104126 -0.038320 0.290585
-0.102605 -0.038263 0.290087
-0.101222 -0.038256 0.289968
-0.099992 -0.038307 0.290287
-0.098367 -0.038206 0.289450
-0.096026 -0.037821 0.286454
-0.097584 -0.038982 0.295168
-0.096445 -0.039083 0.295851
-0.095206 -0.039147 0.296243
-0.094021 -0.039235 0.296818
-0.093321 -0.039532 0.298963
-0.092243 -0.039675 0.299943
-0.090566 -0.039560 0.298977
-0.089222 -0.039590 0.299097
-0.087839 -0.039604 0.299091
-0.086229 -0.039513 0.298297
-0.084827 -0.039517 0.298214
-0.083485 -0.039549 0.298341
-0.081887 -0.039459 0.297549
-0.080607 -0.039522 0.297902
-0.079465 -0.039656 0.298794
-0.078106 -0.039685 0.298890
-0.076797 -0.039741 0.299186
-0.075622 -0.039869 0.300026
-0.074309 -0.039928 0.300347
-0.070551 -0.038650 0.290612
-0.069109 -0.038616 0.290230
-0.067777 -0.038642 0.290307
-0.066367 -0.038624 0.290047
-0.065075 -0.038677 0.290314
-0.063790 -0.038735 0.290629
-0.062340 -0.038694 0.290192
-0.060954 -0.038691 0.290049
-0.059755 -0.038810 0.290816
-0.058221 -0.038711 0.289953
-0.056864 -0.038729 0.289961
-0.055551 -0.038778 0.290205
-0.054256 -0.038843 0.290567
-0.052771 -0.038771 0.289911
-0.051395 -0.038778 0.289844
-0.049928 -0.038715 0.289254
-0.048645 -0.038795 0.289734
-0.047285 -0.038817 0.289781
-0.045887 -0.038808 0.289594
-0.044544 -0.038846 0.289767
-0.043192 -0.038879 0.289903
-0.041627 -0.038716 0.288573
-0.040476 -0.038940 0.290140
-0.038439 -0.038298 0.285247
-0.037407 -0.038645 0.287731
-0.036286 -0.038925 0.289715
-0.031889 -0.035573 0.264675
-0.030262 -0.035160 0.261515
-0.028768 -0.034872 0.259292
-0.027614 -0.034991 0.260090
-0.026387 -0.035022 0.260244
-0.025077 -0.034942 0.259574
-0.023825 -0.034938 0.259470
-0.022607 -0.034988 0.259766
-0.021368 -0.035008 0.259844
-0.020169 -0.035100 0.260466
-0.019187 -0.035607 0.264163
-0.018246 -0.036270 0.269022
-0.016873 -0.036108 0.267758
-0.015838 -0.036704 0.272120
-0.014512 -0.036669 0.271810
-0.013349 -0.037084 0.274836
-0.012010 -0.037048 0.274523
-0.010705 -0.037117 0.274994
-0.009369 -0.037085 0.274715
-0.008084 -0.037283 0.276142
-0.006739 -0.037222 0.275662
-0.005413 -0.037262 0.275930
-0.004087 -0.037336 0.276449
-0.002753 -0.037357 0.276585
-0.001408 -0.037169 0.275177
-0.000078 -0.037176 0.275214
0.001226 -0.036372 0.269248
0.002559 -0.036817 0.272541
0.003924 -0.037271 0.275894
0.005062 -0.035875 0.265565
0.006280 -0.035499 0.262785
0.007481 -0.035170 0.260355
0.008749 -0.035205 0.260624
0.009986 -0.035124 0.260036
0.011247 -0.035135 0.260139
0.012505 -0.035134 0.260155
0.013763 -0.035132 0.260165
0.015019 -0.035127 0.260155
0.016386 -0.035363 0.261935
0.017628 -0.035313 0.261597
0.019040 -0.035590 0.263681
0.020373 -0.035691 0.264471
0.022081 -0.036398 0.269760
0.023408 -0.036435 0.270076
0.024383 -0.035948 0.266519
0.025546 -0.035773 0.265278
0.026628 -0.035507 0.263361
0.027709 -0.035264 0.261615
0.028823 -0.035082 0.260322
0.029998 -0.034987 0.259683
0.031223 -0.034955 0.259506
0.032578 -0.035065 0.260389
0.033884 -0.035117 0.260846
0.035251 -0.035226 0.261725
0.036633 -0.035341 0.262658
0.037925 -0.035365 0.262907
0.039060 -0.035245 0.262098
0.040564 -0.035456 0.263742
0.041775 -0.035406 0.263451
0.042999 -0.035369 0.263259
0.042600 -0.034036 0.253424
0.043908 -0.034105 0.254018
0.045136 -0.034109 0.254132
0.046322 -0.034082 0.254016
0.047556 -0.034091 0.254170
0.048835 -0.034131 0.254554
0.050136 -0.034184 0.255038
0.051437 -0.034234 0.255497
0.052681 -0.034245 0.255671
0.053934 -0.034261 0.255879
0.055245 -0.034312 0.256351
0.058367 -0.035462 0.265033
0.061017 -0.036282 0.271253
0.061984 -0.036088 0.269897
0.063125 -0.036000 0.269339
0.064788 -0.036209 0.270991
0.065968 -0.036144 0.270599
0.067279 -0.036151 0.270750
0.068428 -0.036074 0.270260
0.069339 -0.035876 0.268870
0.070233 -0.035676 0.267461
0.071210 -0.035526 0.266419
0.072390 -0.035480 0.266162
0.073502 -0.035403 0.265664
0.074503 -0.035276 0.264794
0.075472 -0.035138 0.263838
0.076651 -0.035101 0.263638
0.077764 -0.035035 0.263218
0.079079 -0.035061 0.263489
0.080246 -0.035021 0.263262
0.081382 -0.034970 0.262944
0.082509 -0.034916 0.262606
0.084073 -0.035046 0.263644
0.086147 -0.035381 0.266229
0.094653 -0.038310 0.288334
0.097459 -0.038882 0.292693
0.098587 -0.038777 0.291960
0.099711 -0.038673 0.291234
0.101316 -0.038756 0.291907
0.102495 -0.038677 0.291351
0.103516 -0.038540 0.290362
0.105157 -0.038635 0.291111
0.106753 -0.038711 0.291715
0.108199 -0.038732 0.291896
0.109640 -0.038750 0.292052
0.110829 -0.038680 0.291536
0.112257 -0.038694 0.291648
0.113711 -0.038716 0.291820
0.114969 -0.038672 0.291484
0.116380 -0.038680 0.291534
0.117796 -0.038689 0.291586
0.119200 -0.038694 0.291601
0.120409 -0.038637 0.291137
0.121725 -0.038615 0.290933
0.123893 -0.038860 0.292736
0.125159 -0.038820 0.292385
0.126025 -0.038659 0.291108
0.127790 -0.038773 0.291901
0.129002 -0.038719 0.291419
0.130353 -0.038708 0.291250
0.131597 -0.038665 0.290833
0.133301 -0.038757 0.291422
0.134766 -0.038779 0.291469
0.136489 -0.038873 0.292055
0.137465 -0.038755 0.291035
0.139299 -0.038879 0.291820
0.140767 -0.038899 0.291814
0.142424 -0.038970 0.292183
0.143955 -0.039006 0.292275
0.145409 -0.039020 0.292194
0.146907 -0.039046 0.292183
0.148126 -0.038998 0.291610
0.149231 -0.038921 0.290806
0.150717 -0.038944 0.290736
0.151984 -0.038911 0.290232
-0.155272 -0.037443 0.292125
-0.154042 -0.037480 0.292647
-0.152798 -0.037513 0.293133
-0.151358 -0.037499 0.293233
-0.149982 -0.037500 0.293443
-0.148264 -0.037416 0.292966
-0.147084 -0.037467 0.293539
-0.145865 -0.037508 0.294028
-0.144105 -0.037410 0.293413
-0.142163 -0.037263 0.292395
-0.141144 -0.037357 0.293263
-0.139491 -0.037283 0.292805
-0.137878 -0.037219 0.292410
-0.136378 -0.037185 0.292237
-0.135386 -0.037289 0.293151
-0.140402 -0.039887 0.313807
-0.139742 -0.040120 0.315701
-0.138479 -0.040184 0.316249
-0.127491 -0.037396 0.294349
-0.123696 -0.036680 0.288743
-0.122522 -0.036734 0.289194
-0.121307 -0.036777 0.289548
-0.120043 -0.036806 0.289787
-0.118804 -0.036843 0.290083
-0.117529 -0.036870 0.290291
-0.116234 -0.036891 0.290450
-0.114944 -0.036915 0.290619
-0.113649 -0.036937 0.290774
-0.112215 -0.036914 0.290567
-0.111064 -0.036985 0.291092
-0.109758 -0.037006 0.291215
-0.108165 -0.036929 0.290568
-0.106359 -0.036776 0.289319
-0.105372 -0.036907 0.290291
-0.104005 -0.036906 0.290226
-0.102531 -0.036866 0.289854
-0.101331 -0.036926 0.290254
-0.100134 -0.036988 0.290672
-0.097593 -0.036548 0.287145
-0.096184 -0.036527 0.286895
-0.097248 -0.037457 0.294118
-0.097370 -0.038046 0.298655
-0.096120 -0.038108 0.299051
-0.094681 -0.038096 0.298861
-0.093378 -0.038140 0.299104
-0.091831 -0.038083 0.298562
-0.090529 -0.038128 0.298810
-0.088956 -0.038059 0.298157
-0.087528 -0.038050 0.297980
-0.086199 -0.038085 0.298145
-0.084617 -0.038008 0.297424
-0.083269 -0.038034 0.297517
-0.081727 -0.037972 0.296910
-0.080437 -0.038026 0.297219
-0.079301 -0.038157 0.298117
-0.078044 -0.038233 0.298589
-0.076939 -0.038388 0.299675
-0.075523 -0.038391 0.299570
-0.074212 -0.038448 0.299890
-0.070400 -0.037186 0.289926
-0.069222 -0.037293 0.290635
-0.067850 -0.037298 0.290548
-0.066506 -0.037319 0.290585
-0.065215 -0.037371 0.290866
-0.063908 -0.037417 0.291092
-0.062419 -0.037355 0.290484
-0.061068 -0.037375 0.290512
-0.059841 -0.037474 0.291154
-0.058348 -0.037407 0.290507
-0.056959 -0.037404 0.290364
-0.055595 -0.037419 0.290354
-0.054228 -0.037432 0.290332
-0.052750 -0.037368 0.289710
-0.051510 -0.037473 0.290406
-0.050057 -0.037425 0.289909
-0.048655 -0.037414 0.289704
-0.047339 -0.037469 0.290019
-0.045910 -0.037436 0.289647
-0.044573 -0.037478 0.289858
-0.043232 -0.037520 0.290069
-0.041589 -0.037294 0.288210
-0.040515 -0.037581 0.290313
-0.038251 -0.036744 0.283747
-0.037253 -0.037107 0.286445
-0.036267 -0.037510 0.289453
-0.031804 -0.034206 0.263870
-0.030090 -0.033707 0.259928
-0.028755 -0.033607 0.259073
-0.027657 -0.033788 0.260388
-0.026311 -0.033669 0.259392
-0.025086 -0.033701 0.259560
-0.023862 -0.033738 0.259768
-0.022633 -0.033771 0.259953
-0.021438 -0.033863 0.260592
-0.020300 -0.034062 0.262054
-0.019230 -0.034408 0.264654
-0.018148 -0.034781 0.267455
-0.016796 -0.034653 0.266416
-0.015558 -0.034760 0.267179
-0.014333 -0.034917 0.268340
-0.012944 -0.034667 0.266369
-0.012024 -0.035757 0.274694
-0.001411 -0.035874 0.275349
-0.000077 -0.034897 0.267830
0.001212 -0.034712 0.266406
0.002496 -0.034653 0.265945
0.003859 -0.035350 0.271291
0.005052 -0.034531 0.265006
0.006293 -0.034309 0.263307
0.007525 -0.034121 0.261867
0.008779 -0.034070 0.261492
0.010015 -0.033969 0.260730
0.011286 -0.033999 0.260976
0.012536 -0.033963 0.260721
0.013852 -0.034098 0.261782
0.015127 -0.034117 0.261958
0.016411 -0.034153 0.262266
0.017776 -0.034339 0.263732
0.019209 -0.034622 0.265942
0.020447 -0.034541 0.265359
0.022025 -0.035010 0.269007
0.023390 -0.035107 0.269800
0.024564 -0.034920 0.268421
0.025943 -0.035031 0.269326
0.027209 -0.034986 0.269035
0.028374 -0.034819 0.267814
0.029467 -0.034585 0.266071
0.030680 -0.034504 0.265512
0.032034 -0.034581 0.266174
0.033278 -0.034538 0.265913
0.034489 -0.034465 0.265425
0.035887 -0.034578 0.266368
0.037169 -0.034575 0.266423
0.038422 -0.034547 0.266278
0.039302 -0.034196 0.263652
0.040701 -0.034303 0.264565
0.042015 -0.034335 0.264890
0.041638 -0.033024 0.254857
0.042740 -0.032927 0.254194
0.043957 -0.032922 0.254235
0.045149 -0.032899 0.254141
0.046437 -0.032945 0.254584
0.047648 -0.032935 0.254599
0.048996 -0.033019 0.255331
0.050237 -0.033028 0.255492
0.051557 -0.033087 0.256039
0.052893 -0.033153 0.256643
0.054061 -0.033114 0.256427
0.055418 -0.033189 0.257099
0.057891 -0.033915 0.262819
0.060942 -0.034941 0.270864
0.062142 -0.034885 0.270530
0.063188 -0.034747 0.269555
0.064727 -0.034880 0.270684
0.066029 -0.034883 0.270798
0.067266 -0.034852 0.270649
0.068373 -0.034756 0.269997
0.069360 -0.034603 0.268904
0.070273 -0.034420 0.267571
0.071322 -0.034309 0.266797
0.072511 -0.034268 0.266563
0.073768 -0.034260 0.266588
0.074657 -0.034084 0.265302
0.075858 -0.034054 0.265152
0.077080 -0.034034 0.265079
0.078362 -0.034041 0.265211
0.079904 -0.034159 0.266206
0.081133 -0.034142 0.266144
0.082311 -0.034104 0.265917
0.083257 -0.033972 0.264958
0.084520 -0.033972 0.265020
0.094040 -0.037241 0.290596
0.095274 -0.037182 0.290201
0.096457 -0.037105 0.289661
0.098381 -0.037311 0.291328
0.099622 -0.037256 0.290952
0.100864 -0.037203 0.290587
0.102065 -0.037137 0.290112
0.103242 -0.037064 0.289581
0.104581 -0.037049 0.289506
0.105820 -0.037001 0.289157
0.106915 -0.036903 0.288424
0.108434 -0.036953 0.288832
0.111034 -0.037365 0.292071
0.112300 -0.037324 0.291759
0.113476 -0.037254 0.291217
0.114877 -0.037259 0.291253
0.116278 -0.037264 0.291282
0.117974 -0.037362 0.292032
0.119170 -0.037301 0.291538
0.120226 -0.037198 0.290705
0.121852 -0.037272 0.291248
0.123320 -0.037297 0.291399
0.124933 -0.037364 0.291874
0.125986 -0.037264 0.291037
0.127348 -0.037257 0.290915
0.128861 -0.037294 0.291124
0.129962 -0.037212 0.290401
0.131412 -0.037230 0.290454
0.133097 -0.037314 0.291007
0.134547 -0.037331 0.291028
0.136004 -0.037350 0.291053
0.137491 -0.037376 0.291127
0.138761 -0.037343 0.290732
0.140596 -0.037462 0.291503
0.142389 -0.037567 0.292159
0.143668 -0.037536 0.291740
0.145471 -0.037641 0.292368
0.147102 -0.037700 0.292626
0.148094 -0.037595 0.291603
0.149268 -0.037539 0.290938
0.150669 -0.037540 0.290707
0.152148 -0.037560 0.290610
-0.155382 -0.036079 0.292389
-0.153883 -0.036052 0.292400
-0.152515 -0.036054 0.292643
-0.151311 -0.036096 0.293191
-0.149625 -0.036023 0.292791
-0.148262 -0.036027 0.293006
-0.146945 -0.036042 0.293302
-0.145543 -0.036036 0.293418
-0.144084 -0.036017 0.293406
-0.142066 -0.035855 0.292230
-0.140809 -0.035885 0.292599
-0.139273 -0.035844 0.292378
-0.137987 -0.035866 0.292669
-0.136549 -0.035849 0.292630
-0.134444 -0.035655 0.291134
-0.140646 -0.038473 0.314368
-0.140253 -0.038772 0.316869
-0.138986 -0.038834 0.317420
-0.126511 -0.035731 0.292094
-0.124030 -0.035414 0.289532
-0.122726 -0.035429 0.289680
-0.121557 -0.035485 0.290150
-0.120395 -0.035543 0.290636
-0.118666 -0.035434 0.289746
-0.117455 -0.035479 0.290107
-0.116541 -0.035615 0.291212
-0.114871 -0.035522 0.290428
-0.113563 -0.035539 0.290546
-0.112034 -0.035487 0.290090
-0.110761 -0.035515 0.290286
-0.109035 -0.035397 0.289283
-0.107701 -0.035405 0.289306
-0.106588 -0.035487 0.289924
-0.105169 -0.035468 0.289712
-0.103826 -0.035474 0.289704
-0.102436 -0.035465 0.289562
-0.101092 -0.035471 0.289544
-0.099868 -0.035520 0.289872
-0.098478 -0.035511 0.289721
-0.096325 -0.035222 0.287286
-0.098261 -0.036442 0.297149
-0.097869 -0.036821 0.300150
-0.096613 -0.036881 0.300549
-0.094923 -0.036775 0.299587
-0.094033 -0.036981 0.301163
-0.092516 -0.036942 0.300744
-0.090876 -0.036853 0.299910
-0.089529 -0.036882 0.300034
-0.088076 -0.036867 0.299800
-0.086421 -0.036765 0.298860
-0.084874 -0.036707 0.298274
-0.083277 -0.036625 0.297494
-0.081788 -0.036589 0.297077
-0.080347 -0.036573 0.296830
-0.079116 -0.036654 0.297363
-0.078060 -0.036821 0.298593
-0.076608 -0.036803 0.298325
-0.075486 -0.036947 0.299360
-0.074177 -0.037002 0.299680
-0.071165 -0.036194 0.293011
-0.069146 -0.035869 0.290251
-0.067852 -0.035914 0.290490
-0.066350 -0.035849 0.289834
-0.065263 -0.036010 0.291007
-0.063940 -0.036045 0.291164
-0.062477 -0.036000 0.290677
-0.061223 -0.036078 0.291173
-0.059900 -0.036117 0.291364
-0.058553 -0.036143 0.291447
-0.057155 -0.036139 0.291284
-0.055741 -0.036123 0.291032
-0.053603 -0.035626 0.286905
-0.053045 -0.036180 0.291243
-0.051634 -0.036167 0.291015
-0.050073 -0.036046 0.289912
-0.048756 -0.036098 0.290212
-0.047384 -0.036111 0.290199
-0.046005 -0.036120 0.290152
-0.044604 -0.036111 0.289964
-0.043217 -0.036114 0.289876
-0.041598 -0.035916 0.288177
-0.040369 -0.036054 0.289171
-0.038309 -0.035432 0.284080
-0.037359 -0.035829 0.287158
-0.036178 -0.036027 0.288642
-0.031848 -0.032980 0.264140
-0.030138 -0.032505 0.260245
-0.028817 -0.032428 0.259541
-0.027692 -0.032573 0.260619
-0.026399 -0.032526 0.260159
-0.025122 -0.032495 0.259836
-0.023865 -0.032487 0.259697
-0.022669 -0.032567 0.260265
-0.021422 -0.032579 0.260290
-0.020233 -0.032686 0.261073
-0.019372 -0.033373 0.266493
-0.018270 -0.033711 0.269136
-0.016858 -0.033486 0.267276
-0.015749 -0.033876 0.270334
-0.014511 -0.034036 0.271557
-0.013272 -0.034223 0.272999
-0.011958 -0.034236 0.273058
-0.000080 -0.033843 0.269662
0.001225 -0.033844 0.269659
0.002530 -0.033842 0.269636
0.003837 -0.033860 0.269779
0.005046 -0.033225 0.264723
0.006313 -0.033149 0.264121
0.007546 -0.032950 0.262539
0.008824 -0.032977 0.262769
0.010032 -0.032767 0.261110
0.011292 -0.032757 0.261045
0.012591 -0.032849 0.261804
0.013877 -0.032895 0.262192
0.015219 -0.033053 0.263484
0.016536 -0.033137 0.264186
0.017933 -0.033357 0.265978
0.019227 -0.033370 0.266119
0.020567 -0.033457 0.266849
0.022278 -0.034100 0.272024
0.023590 -0.034094 0.272026
0.024702 -0.033816 0.269859
0.026186 -0.034049 0.271777
0.027334 -0.033843 0.270192
0.028366 -0.033520 0.267670
0.029647 -0.033505 0.267618
0.030865 -0.033424 0.267037
0.031868 -0.033126 0.264718
0.033238 -0.033218 0.265523
0.034446 -0.033146 0.265024
0.035659 -0.033085 0.264610
0.036933 -0.033082 0.264663
0.038219 -0.033090 0.264805
0.039145 -0.032796 0.262529
0.040364 -0.032758 0.262307
0.041743 -0.032847 0.263109
0.042965 -0.032813 0.262916
0.042911 -0.031833 0.255146
0.044158 -0.031846 0.255336
0.045434 -0.031878 0.255684
0.046547 -0.031798 0.255127
0.047837 -0.031839 0.255547
0.049057 -0.031833 0.255590
0.050319 -0.031854 0.255848
0.051694 -0.031944 0.256659
0.052869 -0.031909 0.256469
0.054212 -0.031974 0.257086
0.056006 -0.032297 0.259776
0.058302 -0.032889 0.264630
0.060646 -0.033482 0.269498
0.061894 -0.033457 0.269396
0.063221 -0.033475 0.269643
0.064737 -0.033591 0.270673
0.066080 -0.033615 0.270958
0.067357 -0.033604 0.270966
0.068598 -0.033576 0.270839
0.069684 -0.033475 0.270113
0.070494 -0.033247 0.268371
0.071357 -0.033052 0.266885
0.072530 -0.033005 0.266594
0.073579 -0.032904 0.265864
0.074643 -0.032813 0.265215
0.076043 -0.032871 0.265762
0.077087 -0.032774 0.265066
0.078363 -0.032779 0.265182
0.079677 -0.032799 0.265418
0.080888 -0.032776 0.265307
0.082093 -0.032752 0.265185
0.083149 -0.032669 0.264589
0.084528 -0.032715 0.265022
0.093139 -0.035516 0.287787
0.094361 -0.035460 0.287396
0.097274 -0.036031 0.292092
0.098669 -0.036032 0.292161
0.099809 -0.035942 0.291481
0.101025 -0.035880 0.291035
0.102494 -0.035909 0.291316
0.103609 -0.035815 0.290595
0.105882 -0.036119 0.293095
0.107034 -0.036037 0.292464
0.108146 -0.035943 0.291736
0.109719 -0.036004 0.292250
0.111048 -0.035984 0.292104
0.112388 -0.035968 0.291985
0.113590 -0.035908 0.291509
0.114923 -0.035891 0.291371
0.116345 -0.035902 0.291451
0.117586 -0.035858 0.291079
0.119069 -0.035887 0.291298
0.120301 -0.035841 0.290897
0.121629 -0.035824 0.290728
0.123040 -0.035832 0.290750
0.124644 -0.035895 0.291216
0.125820 -0.035835 0.290671
0.127207 -0.035835 0.290613
0.128754 -0.035880 0.290905
0.130097 -0.035868 0.290727
0.131399 -0.035845 0.290451
0.132896 -0.035876 0.290597
0.134355 -0.035895 0.290644
0.135566 -0.035848 0.290148
0.137391 -0.035963 0.290953
0.138768 -0.035960 0.290787
0.140476 -0.036042 0.291296
0.142180 -0.036120 0.291772
0.143790 -0.036174 0.292034
0.145153 -0.036165 0.291778
0.146405 -0.036129 0.291290
0.147914 -0.036157 0.291304
0.149256 -0.036144 0.290972
0.150753 -0.036168 0.290929
0.151988 -0.036129 0.290367
-0.155172 -0.034642 0.292049
-0.154042 -0.034698 0.292754
-0.152396 -0.034638 0.292464
-0.151121 -0.034662 0.292871
-0.149964 -0.034713 0.293500
-0.147668 -0.034499 0.291874
-0.146396 -0.034523 0.292245
-0.144951 -0.034507 0.292262
-0.143437 -0.034473 0.292123
-0.141707 -0.034386 0.291523
-0.140714 -0.034479 0.292431
-0.139348 -0.034481 0.292563
-0.137613 -0.034390 0.291901
-0.135944 -0.034315 0.291357
-0.132624 -0.033817 0.287214
-0.141695 -0.037266 0.316731
-0.140156 -0.037252 0.316666
-0.138891 -0.037311 0.317216
-0.127538 -0.034632 0.294476
-0.123822 -0.033991 0.289053
-0.122655 -0.034044 0.289519
-0.121444 -0.034085 0.289883
-0.120251 -0.034132 0.290291
-0.118803 -0.034107 0.290080
-0.117617 -0.034158 0.290505
-0.116428 -0.034209 0.290926
-0.115068 -0.034211 0.290919
-0.113864 -0.034259 0.291306
-0.112552 -0.034276 0.291419
-0.111365 -0.034332 0.291857
-0.110176 -0.034388 0.292297
-0.107705 -0.034041 0.289300
-0.106562 -0.034111 0.289837
-0.105429 -0.034185 0.290409
-0.103952 -0.034148 0.290037
-0.102610 -0.034155 0.290030
-0.101272 -0.034164 0.290036
-0.099929 -0.034171 0.290023
-0.098453 -0.034132 0.289617
-0.096534 -0.033937 0.287879
-0.097054 -0.034606 0.293467
-0.096984 -0.035081 0.297402
-0.095741 -0.035139 0.297798
-0.094546 -0.035217 0.298361
-0.093184 -0.035234 0.298402
-0.092006 -0.035322 0.299044
-0.090425 -0.035256 0.298379
-0.088810 -0.035174 0.297579
-0.087587 -0.035248 0.298089
-0.085924 -0.035144 0.297095
-0.084500 -0.035136 0.296910
-0.083222 -0.035190 0.297246
-0.081667 -0.035125 0.296584
-0.080473 -0.035218 0.297241
-0.079208 -0.035281 0.297653
-0.078082 -0.035411 0.298618
-0.076641 -0.035399 0.298393
-0.075345 -0.035455 0.298736
-0.074038 -0.035508 0.299057
-0.070579 -0.034511 0.290532
-0.069231 -0.034528 0.290541
-0.067838 -0.034521 0.290361
-0.066468 -0.034527 0.290282
-0.065136 -0.034554 0.290374
-0.063885 -0.034624 0.290841
-0.062454 -0.034599 0.290499
-0.061040 -0.034582 0.290228
-0.059716 -0.034617 0.290392
-0.058436 -0.034679 0.290787
-0.057002 -0.034651 0.290425
-0.055593 -0.034637 0.290179
-0.054270 -0.034678 0.290392
-0.052826 -0.034641 0.289959
-0.051426 -0.034632 0.289760
-0.050037 -0.034630 0.289619
-0.048685 -0.034654 0.289702
-0.047347 -0.034690 0.289884
-0.045858 -0.034615 0.289134
-0.044564 -0.034686 0.289614
-0.043248 -0.034745 0.289992
-0.041666 -0.034586 0.288552
-0.040363 -0.034657 0.289030
-0.038299 -0.034056 0.283914
-0.037216 -0.034315 0.285967
-0.036141 -0.034601 0.288247
-0.031995 -0.031854 0.265263
-0.030016 -0.031125 0.259104
-0.028793 -0.031150 0.259233
-0.027580 -0.031189 0.259472
-0.026341 -0.031202 0.259494
-0.025121 -0.031239 0.259724
-0.023885 -0.031259 0.259815
-0.022694 -0.031344 0.260452
-0.021418 -0.031315 0.260136
-0.020282 -0.031499 0.261596
-0.019197 -0.031793 0.263975
-0.018461 -0.032748 0.271839
-0.016746 -0.031980 0.265401
-0.016018 -0.033124 0.274836
-0.014697 -0.033139 0.274908
-0.013286 -0.032934 0.273157
-0.011237 -0.030927 0.256471
-0.010023 -0.031009 0.257103
-0.008811 -0.031116 0.257957
-0.007547 -0.031049 0.257361
-0.006316 -0.031115 0.257879
-0.005081 -0.031194 0.258508
-0.003827 -0.031167 0.258262
-0.002600 -0.031445 0.260546
-0.001359 -0.031909 0.264374
-0.000080 -0.032049 0.265517
0.001206 -0.032050 0.265514
0.002517 -0.032390 0.268327
0.003844 -0.032629 0.270298
0.005076 -0.032142 0.266270
0.006314 -0.031884 0.264133
0.007573 -0.031800 0.263452
0.008825 -0.031714 0.262748
0.010044 -0.031547 0.261382
0.011284 -0.031477 0.260814
0.012572 -0.031539 0.261350
0.013876 -0.031627 0.262110
0.015224 -0.031792 0.263506
0.016545 -0.031879 0.264262
0.017971 -0.032143 0.266484
0.019299 -0.032207 0.267055
0.020627 -0.032262 0.267549
0.022399 -0.032965 0.273431
0.023953 -0.033286 0.276143
0.025273 -0.033266 0.276028
0.026208 -0.032765 0.271933
0.027357 -0.032567 0.270346
0.028390 -0.032256 0.267822
0.029672 -0.032242 0.267771
0.030891 -0.032164 0.267189
0.031894 -0.031876 0.264868
0.033757 -0.032437 0.269600
0.035029 -0.032409 0.269441
0.036311 -0.032392 0.269377
0.037395 -0.032205 0.267902
0.038660 -0.032182 0.267789
0.039478 -0.031800 0.264693
0.040718 -0.031772 0.264538
0.041732 -0.031574 0.262974
0.042650 -0.031317 0.260923
0.043373 -0.030936 0.257831
0.044529 -0.030876 0.257421
0.045739 -0.030856 0.257341
0.046792 -0.030734 0.256410
0.048018 -0.030728 0.256456
0.049182 -0.030685 0.256186
0.050289 -0.030609 0.255638
0.051570 -0.030639 0.255987
0.052874 -0.030682 0.256440
0.054146 -0.030705 0.256722
0.055660 -0.030860 0.258116
0.057669 -0.031278 0.261701
0.060805 -0.032276 0.270150
0.062252 -0.032354 0.270902
0.063431 -0.032293 0.270488
0.064856 -0.032357 0.271123
0.066224 -0.032390 0.271500
0.067497 -0.032376 0.271484
0.068735 -0.032347 0.271335
0.069908 -0.032288 0.270938
0.070751 -0.032083 0.269303
0.071496 -0.031840 0.267363
0.072294 -0.031630 0.265687
0.073386 -0.031553 0.265129
0.074317 -0.031411 0.264019
0.075124 -0.031222 0.262515
0.076140 -0.031124 0.261777
0.077387 -0.031123 0.261844
0.078205 -0.030952 0.260483
0.079574 -0.031001 0.260971
0.080969 -0.031058 0.261525
0.082011 -0.030981 0.260941
0.083707 -0.031148 0.262423
0.085455 -0.031330 0.264021
0.094613 -0.034184 0.288140
0.098589 -0.035111 0.296018
0.098472 -0.034575 0.291558
0.099636 -0.034497 0.290956
0.100903 -0.034456 0.290667
0.102196 -0.034425 0.290453
0.103431 -0.034376 0.290082
0.104779 -0.034365 0.290029
0.106850 -0.034588 0.291949
0.108096 -0.034543 0.291593
0.109479 -0.034541 0.291603
0.110781 -0.034514 0.291396
0.112051 -0.034478 0.291106
0.113433 -0.034477 0.291105
0.114564 -0.034401 0.290461
0.115986 -0.034412 0.290557
0.117578 -0.034474 0.291064
0.119018 -0.034489 0.291178
0.120278 -0.034453 0.290850
0.121630 -0.034444 0.290740
0.123053 -0.034455 0.290792
0.124560 -0.034489 0.291033
0.125862 -0.034466 0.290785
0.127482 -0.034529 0.291259
0.129218 -0.034622 0.291975
0.130271 -0.034533 0.291138
0.131803 -0.034571 0.291370
0.133109 -0.034549 0.291090
0.134525 -0.034556 0.291043
0.136304 -0.034655 0.291761
0.137132 -0.034513 0.290438
0.138647 -0.034545 0.290570
0.140318 -0.034614 0.291007
0.143748 -0.035112 0.295032
0.143877 -0.034802 0.292254
0.144920 -0.034717 0.291357
0.146636 -0.034793 0.291801
0.147901 -0.034761 0.291330
0.149066 -0.034707 0.290656
0.150352 -0.034682 0.290211
0.151613 -0.034651 0.289710
-0.155202 -0.033260 0.292158
-0.153795 -0.033254 0.292335
-0.152381 -0.033246 0.292481
-0.151253 -0.033301 0.293171
-0.149697 -0.033262 0.293020
-0.147810 -0.033148 0.292194
-0.146388 -0.033138 0.292267
-0.144915 -0.033115 0.292225
-0.143278 -0.033054 0.291833
-0.141787 -0.033027 0.291720
-0.140589 -0.033067 0.292201
-0.139086 -0.033036 0.292039
-0.137752 -0.033045 0.292220
-0.135994 -0.032951 0.291485
-0.135027 -0.033049 0.292437
-0.141872 -0.035817 0.317140
-0.140721 -0.035903 0.317955
-0.139452 -0.035960 0.318507
-0.127336 -0.033191 0.294018
-0.123778 -0.032617 0.288957
-0.122593 -0.032662 0.289376
-0.121268 -0.032671 0.289465
-0.120193 -0.032748 0.290152
-0.118708 -0.032714 0.289846
-0.117488 -0.032753 0.290183
-0.116108 -0.032747 0.290121
-0.114793 -0.032760 0.290217
-0.113493 -0.032778 0.290350
-0.112081 -0.032764 0.290189
-0.110580 -0.032723 0.289788
-0.109133 -0.032697 0.289515
-0.107911 -0.032739 0.289837
-0.106623 -0.032761 0.289985
-0.105252 -0.032759 0.289903
-0.103987 -0.032789 0.290112
-0.102517 -0.032756 0.289745
-0.101238 -0.032783 0.289913
-0.099925 -0.032800 0.289988
-0.098397 -0.032745 0.289427
-0.096646 -0.032614 0.288186
-0.095661 -0.032741 0.289224
-0.096869 -0.033634 0.297015
-0.095628 -0.033690 0.297411
-0.094595 -0.033822 0.298480
-0.093210 -0.033830 0.298448
-0.091749 -0.033811 0.298171
-0.090500 -0.033870 0.298583
-0.088996 -0.033834 0.298159
-0.087357 -0.033745 0.297260
-0.086012 -0.033769 0.297353
-0.084466 -0.033713 0.296744
-0.083003 -0.033689 0.296411
-0.081608 -0.033692 0.296319
-0.080347 -0.033752 0.296721
-0.079047 -0.033797 0.296993
-0.077681 -0.033815 0.297027
-0.076405 -0.033874 0.297414
-0.075473 -0.034091 0.299186
-0.074165 -0.034142 0.299508
-0.070580 -0.033128 0.290476
-0.069152 -0.033105 0.290149
-0.067779 -0.033108 0.290045
-0.066356 -0.033086 0.289726
-0.065234 -0.033217 0.290743
-0.063829 -0.033206 0.290515
-0.062435 -0.033201 0.290340
-0.061053 -0.033202 0.290220
-0.059738 -0.033240 0.290423
-0.058400 -0.033267 0.290532
-0.057026 -0.033275 0.290471
-0.055668 -0.033292 0.290494
-0.054284 -0.033295 0.290385
-0.052856 -0.033270 0.290044
-0.051454 -0.033261 0.289837
-0.049992 -0.033211 0.289279
-0.048677 -0.033258 0.289570
-0.047323 -0.033282 0.289654
-0.045939 -0.033285 0.289559
-0.044593 -0.033316 0.289715
-0.043192 -0.033308 0.289526
-0.041596 -0.033143 0.287980
-0.041103 -0.033876 0.294236
-0.038315 -0.032702 0.283934
-0.037140 -0.032870 0.285288
-0.036107 -0.033181 0.287877
-0.031891 -0.030475 0.264307
-0.030104 -0.029963 0.259773
-0.028819 -0.029927 0.259375
-0.027614 -0.029974 0.259698
-0.026378 -0.029991 0.259765
-0.025125 -0.029990 0.259678
-0.023901 -0.030025 0.259903
-0.022661 -0.030042 0.259976
-0.021418 -0.030057 0.260032
-0.020354 -0.030341 0.262424
-0.019274 -0.030638 0.264923
-0.018396 -0.031321 0.270771
-0.016829 -0.030846 0.266605
-0.016060 -0.031876 0.275446
-0.014736 -0.031891 0.275518
-0.012438 -0.029591 0.255599
-0.011231 -0.029669 0.256228
-0.010027 -0.029773 0.257082
-0.008777 -0.029748 0.256836
-0.007550 -0.029812 0.257349
-0.006323 -0.029895 0.258031
-0.005085 -0.029960 0.258572
-0.003839 -0.029998 0.258873
-0.002587 -0.030019 0.259033
-0.001336 -0.030072 0.259468
-0.000080 -0.030186 0.260445
0.001202 -0.030719 0.265031
0.002524 -0.031193 0.269113
0.003846 -0.031347 0.270442
0.005086 -0.030919 0.266747
0.006315 -0.030613 0.264112
0.007597 -0.030625 0.264224
0.008847 -0.030523 0.263354
0.010116 -0.030503 0.263196
0.011395 -0.030516 0.263328
0.012688 -0.030556 0.263698
0.014022 -0.030682 0.264809
0.015382 -0.030838 0.266184
0.016750 -0.030983 0.267469
0.018104 -0.031084 0.268386
0.019438 -0.031140 0.268905
0.020604 -0.030937 0.267192
0.021965 -0.031031 0.268058
0.023272 -0.031044 0.268216
0.024400 -0.030830 0.266420
0.025699 -0.030841 0.266574
0.027009 -0.030865 0.266839
0.028048 -0.030591 0.264527
0.029312 -0.030575 0.264454
0.030415 -0.030400 0.263007
0.031766 -0.030476 0.263737
0.033005 -0.030444 0.263524
0.034270 -0.030436 0.263532
0.035615 -0.030498 0.264148
0.036912 -0.030516 0.264377
0.038232 -0.030551 0.264759
0.039525 -0.030563 0.264946
0.040271 -0.030164 0.261573
0.041594 -0.030208 0.262040
0.042826 -0.030186 0.261936
0.043491 -0.029777 0.258471
0.044630 -0.029706 0.257945
0.045695 -0.029591 0.257037
0.046681 -0.029432 0.255748
0.047905 -0.029428 0.255796
0.049030 -0.029364 0.255335
0.050124 -0.029286 0.254745
0.051502 -0.029373 0.255595
0.052693 -0.029352 0.255508
0.054048 -0.029421 0.256205
0.056164 -0.029892 0.260400
0.058358 -0.030383 0.264779
0.060826 -0.030993 0.270191
0.062326 -0.031094 0.271174
0.063622 -0.031092 0.271253
0.064912 -0.031086 0.271306
0.066407 -0.031178 0.272203
0.067703 -0.031174 0.272268
0.068915 -0.031132 0.271998
0.070114 -0.031086 0.271694
0.070781 -0.030810 0.269376
0.071405 -0.030525 0.266983
0.072552 -0.030471 0.266596
0.073563 -0.030362 0.265731
0.074458 -0.030209 0.264484
0.075528 -0.030132 0.263893
0.076436 -0.029993 0.262762
0.077321 -0.029850 0.261592
0.078750 -0.029918 0.262268
0.080105 -0.029957 0.262683
0.081403 -0.029973 0.262899
0.082321 -0.029851 0.261900
0.083966 -0.029993 0.263210
0.085764 -0.030183 0.264951
0.096038 -0.033309 0.292456
0.097276 -0.033255 0.292053
0.099018 -0.033373 0.293151
0.099668 -0.033125 0.291029
0.101015 -0.033112 0.290971
0.102373 -0.033103 0.290941
0.103471 -0.033011 0.290181
0.104893 -0.033024 0.290333
0.106482 -0.033088 0.290934
0.107686 -0.033032 0.290477
0.109515 -0.033168 0.291691
0.110811 -0.033140 0.291469
0.112094 -0.033109 0.291214
0.113389 -0.033083 0.290990
0.114667 -0.033052 0.290723
0.115934 -0.033018 0.290426
0.117467 -0.033061 0.290792
0.119130 -0.033138 0.291458
0.120379 -0.033100 0.291101
0.121598 -0.033055 0.290673
0.123244 -0.033125 0.291255
0.124648 -0.033130 0.291253
0.126151 -0.033160 0.291466
0.127788 -0.033225 0.291974
0.129066 -0.033196 0.291652
0.130394 -0.033180 0.291435
0.131629 -0.033141 0.291008
0.133555 -0.033276 0.292090
0.134746 -0.033226 0.291549
0.135735 -0.033128 0.290573
0.138355 -0.033425 0.293059
0.139560 -0.033379 0.292516
0.140903 -0.033366 0.292257
0.142262 -0.033357 0.292022
0.143858 -0.033403 0.292259
0.145327 -0.033419 0.292219
0.146988 -0.033479 0.292546
0.148405 -0.033482 0.292371
0.149517 -0.033417 0.291586
0.151203 -0.033481 0.291908
0.152166 -0.033385 0.290824
-0.155082 -0.031847 0.291982
-0.153495 -0.031803 0.291810
-0.152212 -0.031823 0.292202
-0.150983 -0.031854 0.292690
-0.149235 -0.031775 0.292155
-0.147570 -0.031713 0.291759
-0.146269 -0.031728 0.292066
-0.144589 -0.031661 0.291601
-0.143085 -0.031631 0.291470
-0.141674 -0.031622 0.291516
-0.140435 -0.031652 0.291908
-0.138982 -0.031633 0.291845
-0.137741 -0.031662 0.292220
-0.136364 -0.031661 0.292300
-0.134494 -0.031544 0.291302
-0.141744 -0.034290 0.316870
-0.141146 -0.034507 0.318928
-0.139874 -0.034562 0.319482
-0.128258 -0.032035 0.296154
-0.123730 -0.031242 0.288850
-0.122393 -0.031247 0.288908
-0.121479 -0.031361 0.289970
-0.120228 -0.031389 0.290237
-0.118806 -0.031373 0.290083
-0.117484 -0.031383 0.290169
-0.116310 -0.031434 0.290621
-0.114738 -0.031377 0.290072
-0.113500 -0.031411 0.290359
-0.112177 -0.031422 0.290427
-0.110633 -0.031371 0.289915
-0.109225 -0.031358 0.289746
-0.107884 -0.031363 0.289749
-0.106747 -0.031429 0.290305
-0.105370 -0.031426 0.290211
-0.104033 -0.031434 0.290221
-0.102745 -0.031457 0.290369
-0.101395 -0.031462 0.290340
-0.099988 -0.031449 0.290145
-0.098585 -0.031437 0.289951
-0.096872 -0.031324 0.288830
-0.096417 -0.031621 0.291479
-0.097311 -0.032376 0.298338
-0.096064 -0.032430 0.298736
-0.094116 -0.032244 0.296929
-0.093020 -0.032351 0.297804
-0.091939 -0.032465 0.298748
-0.090201 -0.032348 0.297559
-0.088864 -0.032372 0.297674
-0.087539 -0.032402 0.297835
-0.085994 -0.032351 0.297245
-0.084587 -0.032350 0.297121
-0.083115 -0.032325 0.296763
-0.081598 -0.032280 0.296233
-0.080270 -0.032311 0.296385
-0.078822 -0.032293 0.296097
-0.077724 -0.032420 0.297136
-0.076148 -0.032350 0.296359
-0.075120 -0.032513 0.297727
-0.073818 -0.032563 0.298047
-0.070617 -0.031759 0.290567
-0.068922 -0.031615 0.289120
-0.067710 -0.031692 0.289688
-0.066288 -0.031671 0.289364
-0.065020 -0.031724 0.289724
-0.063779 -0.031793 0.290221
-0.062398 -0.031795 0.290103
-0.061077 -0.031827 0.290266
-0.059730 -0.031846 0.290313
-0.058410 -0.031882 0.290510
-0.057055 -0.031900 0.290541
-0.055597 -0.031860 0.290049
-0.054229 -0.031871 0.290017
-0.052856 -0.031879 0.289966
-0.051478 -0.031885 0.289890
-0.050031 -0.031847 0.289421
-0.048678 -0.031869 0.289496
-0.047331 -0.031895 0.289616
-0.045902 -0.031868 0.289243
-0.044481 -0.031843 0.288901
-0.043062 -0.031819 0.288568
-0.041644 -0.031794 0.288225
-0.040704 -0.032145 0.291291
-0.038432 -0.031431 0.284711
-0.037182 -0.031531 0.285516
-0.036088 -0.031777 0.287638
-0.032083 -0.029377 0.265817
-0.030229 -0.028829 0.260764
-0.028841 -0.028697 0.259486
-0.027605 -0.028711 0.259525
-0.026414 -0.028776 0.260028
-0.025125 -0.028735 0.259584
-0.023884 -0.028747 0.259616
-0.022623 -0.028737 0.259443
-0.021381 -0.028750 0.259495
-0.020300 -0.028995 0.261635
-0.019152 -0.029171 0.263156
-0.018327 -0.029899 0.269656
-0.016690 -0.029311 0.264298
-0.016067 -0.030556 0.275460
-0.014743 -0.030570 0.275533
-0.012501 -0.028495 0.256786
-0.011271 -0.028526 0.257019
-0.010058 -0.028613 0.257763
-0.008805 -0.028594 0.257549
-0.007570 -0.028634 0.257877
-0.006336 -0.028701 0.258446
-0.005095 -0.028756 0.258910
-0.003844 -0.028777 0.259075
-0.002592 -0.028799 0.259258
-0.001336 -0.028792 0.259178
-0.000081 -0.028884 0.259988
0.001195 -0.029289 0.263623
0.002546 -0.030162 0.271478
0.003861 -0.030161 0.271463
0.005118 -0.029820 0.268399
0.006341 -0.029464 0.265197
0.007677 -0.029660 0.266966
0.008940 -0.029560 0.266083
0.010205 -0.029489 0.265455
0.011482 -0.029465 0.265261
0.012819 -0.029585 0.266367
0.014156 -0.029684 0.267284
0.015483 -0.029746 0.267869
0.016893 -0.029944 0.269691
0.018262 -0.030047 0.270654
0.019612 -0.030107 0.271237
0.020677 -0.029750 0.268062
0.022190 -0.030041 0.270735
0.023548 -0.030101 0.271328
0.024405 -0.029549 0.266406
0.026007 -0.029909 0.269702
0.027340 -0.029939 0.270037
0.028319 -0.029598 0.267021
0.029742 -0.029729 0.268269
0.031103 -0.029790 0.268889
0.032272 -0.029669 0.267869
0.033686 -0.029775 0.268892
0.035057 -0.029836 0.269519
0.036218 -0.029720 0.268555
0.037404 -0.029632 0.267836
0.038662 -0.029605 0.267672
0.039819 -0.029504 0.266851
0.040520 -0.029083 0.263124
0.041595 -0.028948 0.261986
0.042763 -0.028883 0.261489
0.043778 -0.028722 0.260120
0.044744 -0.028539 0.258548
0.045769 -0.028401 0.257394
0.046802 -0.028276 0.256350
0.047944 -0.028222 0.255952
0.049153 -0.028209 0.255923
0.050354 -0.028191 0.255859
0.051611 -0.028206 0.256086
0.053099 -0.028343 0.257424
0.054760 -0.028564 0.259527
0.056268 -0.028697 0.260831
0.058132 -0.029001 0.263700
0.060675 -0.029625 0.269471
0.062389 -0.029826 0.271401
0.063639 -0.029802 0.271278
0.064909 -0.029787 0.271247
0.066289 -0.029823 0.271675
0.067686 -0.029865 0.272155
0.068933 -0.029840 0.272026
0.070032 -0.029753 0.271333
0.070597 -0.029447 0.268636
0.071171 -0.029155 0.266069
0.072007 -0.028979 0.264557
0.073133 -0.028924 0.264143
0.073826 -0.028702 0.262206
0.074528 -0.028491 0.260366
0.075388 -0.028347 0.259129
0.076438 -0.028277 0.258573
0.077714 -0.028292 0.258788
0.078884 -0.028269 0.258651
0.080272 -0.028323 0.259221
0.081790 -0.028420 0.260186
0.082923 -0.028383 0.259916
0.085324 -0.028775 0.263571
0.095207 -0.031642 0.289901
0.096433 -0.031591 0.289501
0.100515 -0.032463 0.297564
0.099982 -0.031842 0.291928
0.101298 -0.031818 0.291769
0.102371 -0.031720 0.290920
0.103732 -0.031713 0.290898
0.105291 -0.031765 0.291422
0.106871 -0.031822 0.291987
0.108162 -0.031793 0.291752
0.109665 -0.031826 0.292084
0.110833 -0.031763 0.291523
0.112256 -0.031773 0.291631
0.113546 -0.031745 0.291390
0.114721 -0.031687 0.290859
0.116301 -0.031740 0.291348
0.117844 -0.031782 0.291729
0.119293 -0.031798 0.291862
0.120392 -0.031722 0.291139
0.121766 -0.031719 0.291084
0.123130 -0.031713 0.290996
0.124402 -0.031684 0.290688
0.126153 -0.031777 0.291486
0.127486 -0.031763 0.291302
0.128994 -0.031793 0.291506
0.130425 -0.031803 0.291524
0.131642 -0.031761 0.291058
0.132991 -0.031752 0.290881
0.134395 -0.031756 0.290815
0.135949 -0.031795 0.291058
0.137604 -0.031856 0.291500
0.139136 -0.031888 0.291660
0.140311 -0.031839 0.291063
0.141776 -0.031855 0.291060
0.143752 -0.031985 0.292082
0.145322 -0.032023 0.292250
0.146998 -0.032084 0.292610
0.148117 -0.032023 0.291850
0.149508 -0.032021 0.291617
0.150896 -0.032018 0.291367
