ply
format ascii 1.0
element vertex 1749
property float x
property float y
property float z
end_header
0.062172 0.000079 0.269874
0.063484 0.000078 0.270050
0.064706 0.000078 0.269844
0.066027 0.000078 0.270057
0.067281 0.000078 0.269997
0.068407 0.000077 0.269439
0.069636 0.000077 0.269300
0.070821 0.000076 0.269006
0.071986 0.000076 0.268648
0.073233 0.000076 0.268606
0.074569 0.000076 0.268888
0.075909 0.000075 0.269179
0.077276 0.000075 0.269557
0.078535 0.000075 0.269549
0.079850 0.000075 0.269736
0.081215 0.000074 0.270083
0.082419 0.000074 0.269891
0.083690 0.000074 0.269925
0.085019 0.000073 0.270141
0.086051 0.000073 0.269420
0.087484 0.000073 0.269958
0.089178 0.000073 0.271275
0.091826 0.000074 0.275414
0.106561 0.000084 0.315187
0.107881 0.000083 0.314737
0.109120 0.000083 0.314063
0.109488 0.000082 0.310933
0.110781 0.000081 0.310474
0.106056 0.000076 0.293377
0.106477 0.000075 0.290767
0.106311 0.000074 0.286637
0.108424 0.000074 0.288675
0.110423 0.000074 0.290358
0.111715 0.000073 0.290159
0.113254 0.000073 0.290595
0.114598 0.000073 0.290520
0.115852 0.000072 0.290215
0.117419 0.000072 0.290687
0.119315 0.000072 0.291949
0.120668 0.000071 0.291861
0.121838 0.000071 0.291331
0.122921 0.000070 0.290597
0.124351 0.000070 0.290685
0.125527 0.000069 0.290175
0.126817 0.000069 0.289930
0.128116 0.000068 0.289701
0.129371 0.000068 0.289371
0.130724 0.000067 0.289254
0.132349 0.000067 0.289723
0.134304 0.000067 0.290889
0.135661 0.000066 0.290736
0.136999 0.000066 0.290535
0.138637 0.000065 0.290957
0.139918 0.000065 0.290616
0.141254 0.000064 0.290380
0.142877 0.000064 0.290721
0.144251 0.000063 0.290539
0.145571 0.000063 0.290238
0.146870 0.000062 0.289887
0.148660 0.000062 0.290486
0.150762 0.000062 0.291660
0.152582 0.000061 0.292254
-0.152247 0.001420 0.287168
-0.150894 0.001421 0.287362
-0.149284 0.001419 0.287052
-0.148346 0.001424 0.288024
-0.146907 0.001423 0.288018
-0.145324 0.001422 0.287714
-0.143960 0.001422 0.287827
-0.142328 0.001420 0.287387
-0.141216 0.001423 0.287988
-0.139933 0.001424 0.288236
-0.138396 0.001423 0.287948
-0.136959 0.001422 0.287852
-0.135365 0.001420 0.287411
-0.134230 0.001423 0.287937
-0.132451 0.001419 0.287066
-0.129658 0.001404 0.283947
-0.130613 0.001429 0.289047
-0.135226 0.001495 0.302430
-0.134032 0.001498 0.302961
-0.136747 0.001546 0.312429
-0.131980 0.001508 0.304814
-0.123057 0.001422 0.287321
-0.121696 0.001423 0.287286
-0.120626 0.001426 0.287935
-0.119276 0.001427 0.287920
-0.117909 0.001427 0.287857
-0.116473 0.001426 0.287615
-0.115201 0.001428 0.287774
-0.113967 0.001429 0.288027
-0.112645 0.001430 0.288057
-0.110898 0.001426 0.286983
-0.109673 0.001428 0.287247
-0.108348 0.001428 0.287249
-0.107127 0.001430 0.287527
-0.105923 0.001433 0.287855
-0.104595 0.001433 0.287848
-0.103339 0.001435 0.288038
-0.102057 0.001436 0.288158
-0.100712 0.001437 0.288101
-0.099402 0.001438 0.288140
-0.097798 0.001435 0.287318
-0.096718 0.001439 0.288031
-0.097185 0.001467 0.293436
-0.097404 0.001492 0.298233
-0.095394 0.001483 0.296246
-0.094878 0.001497 0.298907
-0.093618 0.001500 0.299272
-0.091825 0.001494 0.297916
-0.091108 0.001506 0.300064
-0.089668 0.001506 0.299865
-0.088856 0.001516 0.301793
-0.087426 0.001517 0.301654
-0.085231 0.001504 0.298830
-0.083132 0.001492 0.296255
-0.081546 0.001489 0.295462
-0.080446 0.001494 0.296429
-0.078703 0.001488 0.295028
-0.077161 0.001486 0.294350
-0.075013 0.001472 0.291294
-0.073580 0.001471 0.290963
-0.072066 0.001468 0.290295
-0.069983 0.001454 0.287270
-0.068416 0.001450 0.286294
-0.067171 0.001453 0.286662
-0.065852 0.001454 0.286725
-0.064582 0.001457 0.287014
-0.060604 0.001461 0.287209
-0.059316 0.001463 0.287478
-0.058155 0.001469 0.288401
-0.056974 0.001474 0.289273
-0.056161 0.001489 0.292104
-0.054562 0.001484 0.290901
-0.052865 0.001476 0.289109
-0.051093 0.001465 0.286807
-0.049652 0.001463 0.286297
-0.048255 0.001463 0.286032
-0.046942 0.001465 0.286277
-0.045504 0.001463 0.285760
-0.043822 0.001453 0.283639
-0.041991 0.001437 0.280402
-0.040739 0.001441 0.280955
-0.039508 0.001445 0.281705
-0.037949 0.001438 0.280105
-0.036374 0.001429 0.278273
-0.031921 0.001355 0.263462
-0.029924 0.001323 0.257132
-0.028776 0.001327 0.257881
-0.027567 0.001329 0.258137
-0.026294 0.001328 0.257800
-0.025162 0.001334 0.258895
-0.023924 0.001335 0.258973
-0.022641 0.001333 0.258552
-0.021559 0.001344 0.260530
-0.020255 0.001341 0.259918
-0.018962 0.001339 0.259393
-0.018152 0.001373 0.265865
-0.017256 0.001405 0.272001
-0.016054 0.001415 0.273935
-0.014732 0.001416 0.274009
-0.012803 0.001353 0.261706
-0.011317 0.001328 0.256757
-0.010082 0.001329 0.257023
-0.008831 0.001329 0.256900
-0.007589 0.001330 0.257044
-0.006345 0.001331 0.257228
-0.005107 0.001334 0.257814
-0.003866 0.001338 0.258552
-0.002615 0.001341 0.259153
-0.001359 0.001345 0.259865
-0.000096 0.001346 0.260041
0.001177 0.001356 0.261961
0.002471 0.001367 0.264081
0.003837 0.001397 0.269849
0.005149 0.001397 0.269827
0.006391 0.001382 0.266889
0.007713 0.001386 0.267716
0.009075 0.001395 0.269523
0.010395 0.001396 0.269765
0.011728 0.001399 0.270277
0.013038 0.001398 0.270217
0.016906 0.001509 0.291680
0.018317 0.001508 0.291595
0.019725 0.001507 0.291503
0.021097 0.001409 0.272705
0.022409 0.001408 0.272600
0.023957 0.001422 0.275229
0.024742 0.001391 0.269280
0.034366 0.001409 0.273516
0.035659 0.001407 0.273350
0.036963 0.001407 0.273282
0.038074 0.001399 0.271853
0.038455 0.001365 0.265482
0.039641 0.001362 0.264908
0.041004 0.001364 0.265530
0.042019 0.001355 0.263928
0.043033 0.001347 0.262422
0.043821 0.001332 0.259673
0.044125 0.001304 0.254291
0.045367 0.001304 0.254465
0.046669 0.001306 0.254962
0.047768 0.001302 0.254361
0.049013 0.001302 0.254556
0.050318 0.001304 0.255047
0.051599 0.001305 0.255407
0.052924 0.001307 0.255966
0.054437 0.001314 0.257393
0.056204 0.001326 0.259940
0.058114 0.001341 0.263030
0.060567 0.001368 0.268402
0.062182 0.001375 0.269918
0.063560 0.001376 0.270372
0.064704 0.001373 0.269836
0.066006 0.001372 0.269972
0.067292 0.001372 0.270042
0.068463 0.001369 0.269661
0.069707 0.001368 0.269577
0.070930 0.001366 0.269422
0.072201 0.001366 0.269453
0.073390 0.001364 0.269183
0.074715 0.001364 0.269419
0.076166 0.001367 0.270093
0.077522 0.001367 0.270415
0.078697 0.001365 0.270107
0.079998 0.001365 0.270237
0.081408 0.001367 0.270726
0.082600 0.001365 0.270487
0.083897 0.001364 0.270596
0.085251 0.001365 0.270879
0.086578 0.001365 0.271072
0.087987 0.001367 0.271511
0.089764 0.001374 0.273058
0.091825 0.001385 0.275411
0.093284 0.001387 0.275919
0.108386 0.001588 0.316213
0.109949 0.001589 0.316451
0.111268 0.001586 0.315990
0.106055 0.001471 0.293374
0.106376 0.001456 0.290491
0.107191 0.001448 0.289011
0.108465 0.001446 0.288785
0.110142 0.001449 0.289621
0.111467 0.001448 0.289517
0.112945 0.001449 0.289804
0.114528 0.001451 0.290343
0.116911 0.001463 0.292870
0.118280 0.001463 0.292822
0.119232 0.001457 0.291747
0.120506 0.001455 0.291469
0.121756 0.001453 0.291135
0.122753 0.001448 0.290202
0.124066 0.001447 0.290020
0.125404 0.001446 0.289893
0.127210 0.001450 0.290829
0.128372 0.001447 0.290281
0.129858 0.001448 0.290460
0.131404 0.001449 0.290759
0.132785 0.001449 0.290680
0.134160 0.001448 0.290577
0.135632 0.001448 0.290675
0.136931 0.001447 0.290392
0.138501 0.001448 0.290671
0.139914 0.001448 0.290606
0.141584 0.001451 0.291059
0.143061 0.001451 0.291096
0.144315 0.001449 0.290668
0.145759 0.001449 0.290613
0.147211 0.001449 0.290561
0.148245 0.001445 0.289675
0.149717 0.001445 0.289640
0.151673 0.001450 0.290514
-0.150894 0.002757 0.284613
-0.149394 0.002755 0.284505
-0.148110 0.002757 0.284793
-0.146969 0.002761 0.285350
-0.145342 0.002756 0.284949
-0.143841 0.002754 0.284776
-0.142471 0.002753 0.284849
-0.141110 0.002754 0.284927
-0.139791 0.002754 0.285081
-0.138434 0.002755 0.285148
-0.137124 0.002756 0.285300
-0.135661 0.002754 0.285124
-0.133654 0.002740 0.283779
-0.132066 0.002736 0.283293
-0.130732 0.002736 0.283341
-0.129511 0.002739 0.283626
-0.128292 0.002742 0.283913
-0.133143 0.002876 0.297771
-0.131966 0.002881 0.298294
-0.136742 0.003018 0.312420
-0.133844 0.002986 0.309120
-0.120667 0.002722 0.281742
-0.119146 0.002718 0.281268
-0.117933 0.002721 0.281509
-0.116986 0.002730 0.282394
-0.116338 0.002746 0.284022
-0.115869 0.002767 0.286125
-0.114608 0.002770 0.286295
-0.113305 0.002771 0.286356
-0.112498 0.002785 0.287682
-0.110921 0.002780 0.287044
-0.109359 0.002775 0.286425
-0.107606 0.002764 0.285283
-0.107030 0.002785 0.287268
-0.105630 0.002784 0.287061
-0.104194 0.002782 0.286746
-0.103124 0.002790 0.287442
-0.101894 0.002794 0.287700
-0.100445 0.002791 0.287339
-0.098943 0.002787 0.286813
-0.098110 0.002803 0.288238
-0.096580 0.002798 0.287625
-0.097641 0.002869 0.294817
-0.096564 0.002879 0.295666
-0.094768 0.002867 0.294306
-0.093016 0.002856 0.293046
-0.092235 0.002876 0.294854
-0.090296 0.002859 0.292958
-0.088645 0.002850 0.291959
-0.087021 0.002843 0.291017
-0.085480 0.002838 0.290332
-0.083776 0.002827 0.289063
-0.082375 0.002826 0.288821
-0.081019 0.002827 0.288731
-0.079816 0.002833 0.289197
-0.078487 0.002835 0.289216
-0.077345 0.002844 0.289942
-0.076123 0.002850 0.290395
-0.074609 0.002845 0.289730
-0.073442 0.002853 0.290421
-0.071381 0.002827 0.287541
-0.069548 0.002808 0.285491
-0.067917 0.002797 0.284211
-0.066501 0.002795 0.283807
-0.063454 0.002723 0.276289
-0.062109 0.002722 0.276031
-0.061140 0.002737 0.277474
-0.059822 0.002738 0.277370
-0.058505 0.002739 0.277267
-0.059312 0.002841 0.287468
-0.056772 0.002784 0.281547
-0.056479 0.002837 0.286762
-0.055183 0.002842 0.287023
-0.053639 0.002833 0.285986
-0.052317 0.002836 0.286119
-0.050774 0.002826 0.285025
-0.049350 0.002823 0.284565
-0.048068 0.002829 0.284930
-0.046554 0.002820 0.283916
-0.045432 0.002835 0.285315
-0.044159 0.002842 0.285830
-0.041941 0.002786 0.280074
-0.040658 0.002791 0.280405
-0.039151 0.002780 0.279171
-0.037600 0.002765 0.277536
-0.036349 0.002772 0.278087
-0.035042 0.002775 0.278255
-0.031919 0.002628 0.263452
-0.029940 0.002568 0.257280
-0.028812 0.002578 0.258208
-0.027575 0.002579 0.258219
-0.026349 0.002581 0.258345
-0.025174 0.002589 0.259028
-0.023931 0.002590 0.259055
-0.022705 0.002594 0.259297
-0.021535 0.002604 0.260251
-0.020259 0.002602 0.259972
-0.018991 0.002601 0.259791
-0.018026 0.002644 0.264030
-0.017175 0.002712 0.270739
-0.016009 0.002738 0.273182
-0.014691 0.002739 0.273256
-0.012508 0.002563 0.255690
-0.011345 0.002581 0.257408
-0.010103 0.002583 0.257567
-0.008834 0.002578 0.256997
-0.007596 0.002582 0.257314
-0.006352 0.002584 0.257512
-0.005103 0.002585 0.257575
-0.003862 0.002592 0.258283
-0.002611 0.002597 0.258700
-0.001358 0.002606 0.259596
-0.000096 0.002607 0.259662
0.001181 0.002638 0.262798
0.002466 0.002646 0.263551
0.003747 0.002646 0.263535
0.005149 0.002709 0.269817
0.006391 0.002679 0.266880
0.019462 0.002691 0.268393
0.020755 0.002689 0.268296
0.022527 0.002746 0.274046
0.023956 0.002758 0.275219
0.024741 0.002697 0.269270
0.026030 0.002695 0.269149
0.033137 0.002636 0.263740
0.034384 0.002633 0.263580
0.035581 0.002627 0.263074
0.036968 0.002635 0.263963
0.038022 0.002620 0.262502
0.039313 0.002621 0.262726
0.040534 0.002617 0.262490
0.041988 0.002629 0.263743
0.042941 0.002609 0.261872
0.043832 0.002587 0.259745
0.044485 0.002552 0.256372
0.045579 0.002544 0.255661
0.046825 0.002544 0.255820
0.048035 0.002542 0.255789
0.049259 0.002542 0.255841
0.050601 0.002547 0.256487
0.051963 0.002553 0.257214
0.053881 0.002585 0.260598
0.055450 0.002600 0.262189
0.056708 0.002599 0.262279
0.058353 0.002616 0.264117
0.060446 0.002652 0.267870
0.062232 0.002673 0.270141
0.063479 0.002670 0.270032
0.064718 0.002668 0.269903
0.066053 0.002669 0.270168
0.067456 0.002673 0.270704
0.068636 0.002668 0.270345
0.069882 0.002666 0.270260
0.071235 0.002668 0.270584
0.072419 0.002663 0.270272
0.073633 0.002660 0.270081
0.074882 0.002658 0.270025
0.076211 0.002659 0.270257
0.077465 0.002657 0.270219
0.078723 0.002656 0.270202
0.080013 0.002656 0.270293
0.081301 0.002655 0.270373
0.082531 0.002653 0.270264
0.083877 0.002654 0.270533
0.085150 0.002653 0.270563
0.086459 0.002653 0.270704
0.087993 0.002660 0.271535
0.089786 0.002675 0.273129
0.091900 0.002698 0.275640
0.095173 0.002755 0.281507
0.097388 0.002779 0.284128
0.109945 0.003094 0.316442
0.110138 0.002825 0.289612
0.111044 0.002813 0.288419
0.112087 0.002804 0.287604
0.113791 0.002812 0.288477
0.115451 0.002818 0.289213
0.117983 0.002846 0.292087
0.119346 0.002845 0.292027
0.120430 0.002837 0.291286
0.121704 0.002834 0.291010
0.122944 0.002830 0.290654
0.124312 0.002829 0.290596
0.125526 0.002825 0.290177
0.126766 0.002821 0.289815
0.128268 0.002824 0.290046
0.129881 0.002828 0.290512
0.131235 0.002827 0.290384
0.132516 0.002824 0.290089
0.134031 0.002827 0.290297
0.135522 0.002828 0.290439
0.136851 0.002827 0.290223
0.138483 0.002831 0.290632
0.139920 0.002832 0.290618
0.141398 0.002833 0.290675
0.142804 0.002833 0.290572
0.144318 0.002835 0.290673
0.145658 0.002833 0.290411
0.146956 0.002831 0.290056
0.148510 0.002833 0.290192
0.150053 0.002835 0.290287
0.151598 0.002838 0.290367
-0.134636 0.004151 0.288806
-0.133497 0.004158 0.289334
-0.132000 0.004154 0.289076
-0.128406 0.004083 0.284163
-0.130682 0.004200 0.292268
-0.129528 0.004207 0.292782
-0.134537 0.004417 0.307381
-0.133320 0.004425 0.307911
-0.120671 0.004050 0.281752
-0.119758 0.004064 0.282712
-0.120529 0.004136 0.287708
-0.118656 0.004119 0.286427
-0.116849 0.004103 0.285271
-0.115630 0.004107 0.285537
-0.114114 0.004102 0.285062
-0.112445 0.004090 0.284184
-0.110849 0.004081 0.283469
-0.109637 0.004086 0.283723
-0.108386 0.004089 0.283880
-0.106793 0.004080 0.283132
-0.104991 0.004062 0.281798
-0.103642 0.004061 0.281662
-0.102232 0.004058 0.281350
-0.100976 0.004061 0.281458
-0.099869 0.004070 0.281988
-0.098697 0.004077 0.282342
-0.097541 0.004085 0.282755
-0.096346 0.004091 0.283060
-0.096574 0.004159 0.287611
-0.098223 0.004290 0.296579
-0.095319 0.004224 0.291860
-0.094159 0.004234 0.292421
-0.092564 0.004225 0.291626
-0.091313 0.004231 0.291913
-0.090198 0.004244 0.292648
-0.088731 0.004240 0.292247
-0.087575 0.004251 0.292875
-0.086126 0.004248 0.292532
-0.084795 0.004251 0.292587
-0.084166 0.004290 0.295106
-0.082295 0.004266 0.293286
-0.079152 0.004174 0.286799
-0.078185 0.004195 0.288110
-0.076113 0.004157 0.285333
-0.075712 0.004211 0.288834
-0.074505 0.004220 0.289334
-0.072967 0.004211 0.288552
-0.071579 0.004211 0.288346
-0.068875 0.004131 0.282738
-0.067801 0.004148 0.283738
-0.065682 0.004100 0.280320
-0.064020 0.004080 0.278763
-0.062449 0.004064 0.277551
-0.061182 0.004069 0.277674
-0.059739 0.004061 0.276992
-0.058500 0.004067 0.277256
-0.057562 0.004192 0.285477
-0.056274 0.004198 0.285733
-0.054600 0.004175 0.284003
-0.053116 0.004166 0.283206
-0.051884 0.004176 0.283757
-0.050499 0.004174 0.283488
-0.049077 0.004169 0.283001
-0.047571 0.004157 0.281997
-0.046090 0.004145 0.281100
-0.044902 0.004161 0.281994
-0.043661 0.004172 0.282612
-0.042552 0.004197 0.284164
-0.039780 0.004054 0.274362
-0.038495 0.004058 0.274507
-0.038385 0.004191 0.283344
-0.036025 0.004078 0.275624
-0.034730 0.004083 0.275790
-0.031561 0.003858 0.260506
-0.030080 0.003830 0.258495
-0.028866 0.003834 0.258701
-0.027621 0.003835 0.258657
-0.026420 0.003843 0.259059
-0.025218 0.003850 0.259491
-0.023927 0.003845 0.259027
-0.022736 0.003856 0.259664
-0.021535 0.003866 0.260256
-0.020197 0.003851 0.259198
-0.018963 0.003856 0.259426
-0.017568 0.003826 0.257334
-0.017134 0.004016 0.270095
-0.015926 0.004043 0.271788
-0.014615 0.004045 0.271861
-0.012536 0.003814 0.256266
-0.011285 0.003811 0.256066
-0.010072 0.003823 0.256786
-0.008835 0.003827 0.257040
-0.007579 0.003824 0.256753
-0.006344 0.003831 0.257205
-0.005102 0.003837 0.257589
-0.003854 0.003840 0.257789
-0.002611 0.003855 0.258740
-0.001357 0.003867 0.259537
-0.000096 0.003877 0.260188
0.001182 0.003919 0.263035
0.002473 0.003938 0.264273
0.003729 0.003908 0.262248
0.005043 0.003938 0.264276
0.006273 0.003903 0.261950
0.007731 0.003998 0.268349
0.019038 0.003908 0.262554
0.020383 0.003921 0.263492
0.021584 0.003906 0.262577
0.023954 0.004093 0.275202
0.024738 0.004004 0.269254
0.024812 0.003814 0.256561
0.025909 0.003792 0.255158
0.027257 0.003807 0.256254
0.028346 0.003786 0.254929
0.029690 0.003800 0.255923
0.030998 0.003808 0.256549
0.032354 0.003821 0.257516
0.033729 0.003835 0.258572
0.035206 0.003860 0.260306
0.036589 0.003872 0.261266
0.037998 0.003887 0.262343
0.039332 0.003893 0.262857
0.040343 0.003868 0.261259
0.041821 0.003887 0.262697
0.043010 0.003880 0.262301
0.043884 0.003845 0.260063
0.044829 0.003818 0.258362
0.045937 0.003807 0.257676
0.047022 0.003793 0.256908
0.048294 0.003796 0.257176
0.049566 0.003798 0.257442
0.050977 0.003810 0.258402
0.052310 0.003816 0.258939
0.053641 0.003822 0.259445
0.055051 0.003833 0.260311
0.056462 0.003843 0.261146
0.058123 0.003870 0.263081
0.060532 0.003944 0.268257
0.062159 0.003965 0.269831
0.063467 0.003966 0.269989
0.064721 0.003963 0.269921
0.065974 0.003960 0.269853
0.067325 0.003963 0.270189
0.068526 0.003957 0.269920
0.069766 0.003954 0.269815
0.071079 0.003954 0.269999
0.072342 0.003952 0.269991
0.073576 0.003949 0.269877
0.074800 0.003945 0.269736
0.076125 0.003946 0.269956
0.077429 0.003947 0.270102
0.078731 0.003947 0.270233
0.080045 0.003947 0.270405
0.081428 0.003951 0.270800
0.082737 0.003952 0.270945
0.084059 0.003953 0.271124
0.085444 0.003957 0.271502
0.086752 0.003957 0.271624
0.088021 0.003955 0.271624
0.089662 0.003970 0.272755
0.092123 0.004020 0.276311
0.095166 0.004094 0.281493
0.113785 0.004181 0.288463
0.114003 0.004139 0.285587
0.116224 0.004169 0.287735
0.118828 0.004213 0.290760
0.119051 0.004172 0.287952
0.119964 0.004155 0.286852
0.122514 0.004195 0.289637
0.123734 0.004189 0.289244
0.125468 0.004201 0.290042
0.126504 0.004189 0.289216
0.128834 0.004220 0.291326
0.129912 0.004209 0.290581
0.131334 0.004210 0.290603
0.132659 0.004207 0.290403
0.134248 0.004213 0.290767
0.135653 0.004213 0.290717
0.137012 0.004212 0.290562
0.138252 0.004207 0.290147
0.139847 0.004213 0.290465
0.141439 0.004218 0.290759
0.143579 0.004240 0.292146
0.144815 0.004235 0.291670
0.145761 0.004221 0.290613
0.147744 0.004237 0.291607
0.148793 0.004227 0.290742
0.150206 0.004227 0.290580
0.151929 0.004235 0.290998
-0.098214 0.005693 0.296558
-0.095161 0.005597 0.291381
-0.093521 0.005581 0.290447
-0.091955 0.005570 0.289715
-0.090108 0.005541 0.288066
-0.088167 0.005505 0.286065
-0.086732 0.005500 0.285672
-0.085511 0.005508 0.285981
-0.084189 0.005511 0.285961
-0.082758 0.005506 0.285567
-0.084157 0.005693 0.295084
-0.080254 0.005521 0.286021
-0.078298 0.005479 0.283712
-0.077224 0.005499 0.284580
-0.075373 0.005463 0.282567
-0.074168 0.005473 0.282952
-0.072880 0.005478 0.283036
-0.071401 0.005468 0.282368
-0.069515 0.005426 0.280043
-0.068670 0.005465 0.281904
-0.066987 0.005437 0.280340
-0.065025 0.005386 0.277526
-0.066378 0.005612 0.289041
-0.066223 0.005718 0.294335
-0.064915 0.005727 0.294626
-0.059732 0.005387 0.276971
-0.058147 0.005487 0.281841
-0.056879 0.005495 0.282099
-0.055130 0.005456 0.279935
-0.053663 0.005444 0.279140
-0.052573 0.005470 0.280324
-0.051221 0.005469 0.280146
-0.049985 0.005481 0.280620
-0.048830 0.005503 0.281593
-0.047639 0.005522 0.282417
-0.045879 0.005474 0.279827
-0.044643 0.005488 0.280386
-0.043343 0.005494 0.280573
-0.043473 0.005688 0.290333
-0.042123 0.005694 0.290532
-0.040220 0.005624 0.286824
-0.037194 0.005386 0.274564
-0.035925 0.005395 0.274875
-0.034634 0.005400 0.275041
-0.031850 0.005164 0.262905
-0.030129 0.005088 0.258929
-0.028865 0.005086 0.258711
-0.027667 0.005095 0.259103
-0.026427 0.005098 0.259142
-0.025216 0.005107 0.259492
-0.024006 0.005117 0.259894
-0.022762 0.005120 0.259974
-0.021502 0.005120 0.259884
-0.020282 0.005130 0.260306
-0.018991 0.005121 0.259817
-0.018040 0.005211 0.264275
-0.017252 0.005364 0.271976
-0.016041 0.005400 0.273756
-0.014720 0.005403 0.273831
-0.012381 0.004996 0.253119
-0.011320 0.005071 0.256880
-0.010054 0.005061 0.256342
-0.008799 0.005056 0.256020
-0.007577 0.005070 0.256692
-0.006330 0.005070 0.256676
-0.005080 0.005067 0.256508
-0.003853 0.005092 0.257728
-0.002608 0.005107 0.258491
-0.001355 0.005119 0.259081
-0.000095 0.005114 0.258772
0.001199 0.005272 0.266796
0.002477 0.005231 0.264716
0.003810 0.005294 0.267902
0.005141 0.005324 0.269397
0.006439 0.005314 0.268887
0.007730 0.005302 0.268327
0.009054 0.005314 0.268917
0.010376 0.005321 0.269302
0.011639 0.005300 0.268250
0.013010 0.005327 0.269667
0.014424 0.005365 0.271628
0.016081 0.005480 0.277467
0.019315 0.005258 0.266386
0.020598 0.005255 0.266290
0.021773 0.005227 0.264897
0.023002 0.005213 0.264278
0.024269 0.005210 0.264164
0.024899 0.005076 0.257467
0.025903 0.005028 0.255112
0.027210 0.005041 0.255825
0.028352 0.005023 0.254995
0.029597 0.005024 0.255131
0.030925 0.005039 0.255959
0.032240 0.005050 0.256626
0.033636 0.005073 0.257870
0.035038 0.005095 0.259080
0.036362 0.005105 0.259653
0.037806 0.005130 0.261026
0.039286 0.005158 0.262562
0.040461 0.005146 0.262039
0.041531 0.005121 0.260886
0.042488 0.005084 0.259128
0.043795 0.005090 0.259547
0.044792 0.005061 0.258159
0.045909 0.005046 0.257529
0.047030 0.005033 0.256958
0.048164 0.005022 0.256495
0.049506 0.005032 0.257142
0.050853 0.005042 0.257784
0.052216 0.005054 0.258485
0.053553 0.005062 0.259032
0.054802 0.005062 0.259143
0.056387 0.005092 0.260807
0.057842 0.005110 0.261822
0.060904 0.005265 0.269915
0.062358 0.005278 0.270703
0.063664 0.005278 0.270839
0.064880 0.005271 0.270594
0.066163 0.005269 0.270636
0.067472 0.005270 0.270787
0.068685 0.005263 0.270555
0.069860 0.005253 0.270190
0.071180 0.005254 0.270389
0.072470 0.005254 0.270475
0.073556 0.005238 0.269812
0.074827 0.005236 0.269839
0.076153 0.005238 0.270064
0.077368 0.005233 0.269893
0.078707 0.005236 0.270157
0.080066 0.005240 0.270483
0.081516 0.005249 0.271101
0.082777 0.005247 0.271081
0.084077 0.005247 0.271188
0.085461 0.005252 0.271562
0.086809 0.005255 0.271808
0.087896 0.005242 0.271243
0.089342 0.005250 0.271786
0.090725 0.005255 0.272124
0.096707 0.005522 0.286054
0.118831 0.005660 0.294189
0.120030 0.005650 0.293702
0.117245 0.005455 0.283585
0.122202 0.005620 0.292204
0.123443 0.005613 0.291835
0.124314 0.005589 0.290601
0.125561 0.005582 0.290258
0.127009 0.005585 0.290370
0.128234 0.005577 0.289969
0.129897 0.005589 0.290547
0.131456 0.005596 0.290873
0.132567 0.005584 0.290198
0.134165 0.005592 0.290585
0.135708 0.005598 0.290835
0.137553 0.005616 0.291707
0.138650 0.005604 0.290979
0.139783 0.005593 0.290330
0.141622 0.005610 0.291131
0.143093 0.005613 0.291154
0.145051 0.005634 0.292142
0.146213 0.005624 0.291510
0.147498 0.005620 0.291118
0.149030 0.005624 0.291200
0.150186 0.005615 0.290536
0.151482 0.005610 0.290136
-0.080415 0.006895 0.286607
-0.079188 0.006906 0.286948
-0.077973 0.006920 0.287351
-0.076713 0.006929 0.287604
-0.075478 0.006942 0.287966
-0.073312 0.006867 0.284725
-0.072766 0.006945 0.287780
-0.069111 0.006723 0.278427
-0.067689 0.006713 0.277893
-0.066646 0.006742 0.278925
-0.068312 0.007051 0.291571
-0.067024 0.007063 0.291870
-0.062131 0.006686 0.276163
-0.060278 0.006628 0.273597
-0.058842 0.006613 0.272860
-0.057756 0.006639 0.273756
-0.056590 0.006656 0.274313
-0.055336 0.006663 0.274463
-0.054166 0.006681 0.275057
-0.053064 0.006708 0.276045
-0.052030 0.006746 0.277445
-0.050745 0.006752 0.277563
-0.049662 0.006786 0.278821
-0.048486 0.006809 0.279627
-0.046845 0.006766 0.277724
-0.045599 0.006780 0.278135
-0.044210 0.006772 0.277684
-0.042763 0.006754 0.276835
-0.042411 0.006914 0.283257
-0.042547 0.007167 0.293481
-0.041178 0.007175 0.293676
-0.037628 0.006790 0.277786
-0.035681 0.006677 0.273023
-0.034398 0.006683 0.273187
-0.031634 0.006391 0.261145
-0.030038 0.006321 0.258162
-0.028853 0.006335 0.258620
-0.027630 0.006341 0.258782
-0.026379 0.006341 0.258690
-0.025176 0.006353 0.259093
-0.023923 0.006354 0.259020
-0.022693 0.006360 0.259205
-0.021503 0.006380 0.259911
-0.020219 0.006372 0.259509
-0.018886 0.006346 0.258404
-0.017989 0.006474 0.263544
-0.017133 0.006638 0.270135
-0.015880 0.006662 0.271035
-0.014572 0.006665 0.271109
-0.012625 0.006348 0.258141
-0.011324 0.006321 0.256999
-0.010097 0.006333 0.257465
-0.008852 0.006338 0.257589
-0.007601 0.006337 0.257533
-0.006353 0.006340 0.257607
-0.005102 0.006341 0.257643
-0.003856 0.006351 0.258023
-0.002605 0.006357 0.258236
-0.001350 0.006359 0.258294
-0.000094 0.006349 0.257849
0.001201 0.006579 0.267204
0.002499 0.006577 0.267095
0.003916 0.006781 0.275380
0.005254 0.006780 0.275357
0.006593 0.006779 0.275329
0.007901 0.006753 0.274279
0.009215 0.006738 0.273702
0.010536 0.006732 0.273466
0.011886 0.006744 0.273963
0.013214 0.006741 0.273902
0.014736 0.006829 0.277512
0.016078 0.006827 0.277437
0.017203 0.006739 0.273915
0.018796 0.006834 0.277818
0.020136 0.006830 0.277725
0.020611 0.006552 0.266463
0.021851 0.006536 0.265855
0.023128 0.006531 0.265747
0.024698 0.006274 0.255410
0.025858 0.006255 0.254682
0.027174 0.006273 0.255502
0.028348 0.006258 0.254980
0.029651 0.006272 0.255615
0.030947 0.006283 0.256154
0.032282 0.006301 0.256970
0.033618 0.006318 0.257746
0.034903 0.006324 0.258091
0.036202 0.006333 0.258523
0.037657 0.006367 0.260012
0.039328 0.006434 0.262858
0.040852 0.006474 0.264581
0.042553 0.006538 0.267322
0.043836 0.006537 0.267364
0.045077 0.006529 0.267158
0.046314 0.006521 0.266947
0.046407 0.006357 0.260337
0.047435 0.006326 0.259186
0.048555 0.006309 0.258589
0.055067 0.006487 0.266367
0.056274 0.006478 0.266115
0.057520 0.006474 0.266062
0.059567 0.006558 0.269642
0.061265 0.006600 0.271530
0.062436 0.006586 0.271054
0.063621 0.006573 0.270665
0.064970 0.006578 0.270978
0.066205 0.006571 0.270818
0.067441 0.006564 0.270674
0.068664 0.006557 0.270484
0.069900 0.006551 0.270355
0.071263 0.006556 0.270716
0.072470 0.006548 0.270485
0.073750 0.006546 0.270532
0.075231 0.006562 0.271304
0.076380 0.006549 0.270878
0.077651 0.006546 0.270890
0.078980 0.006548 0.271105
0.080344 0.006554 0.271431
0.081713 0.006559 0.271765
0.083159 0.006570 0.272340
0.084415 0.006566 0.272287
0.085733 0.006567 0.272432
0.087087 0.006571 0.272687
0.088347 0.006567 0.272644
0.089687 0.006570 0.272843
0.093491 0.006750 0.280426
0.096696 0.006882 0.286028
0.098156 0.006889 0.286383
0.098350 0.006807 0.283083
0.099557 0.006797 0.282747
0.101054 0.006807 0.283229
0.101982 0.006778 0.282123
0.103491 0.006789 0.282626
0.104509 0.006767 0.281792
0.107752 0.006888 0.286897
0.108933 0.006876 0.286451
0.126835 0.007532 0.314007
0.127105 0.007459 0.311017
0.128371 0.007446 0.310497
0.117501 0.006738 0.280964
0.119374 0.006767 0.282215
0.122075 0.006843 0.285367
0.125652 0.006966 0.290467
0.126306 0.006925 0.288763
0.128529 0.006970 0.290634
0.129930 0.006971 0.290618
0.130998 0.006953 0.289856
0.132725 0.006971 0.290542
0.134161 0.006973 0.290574
0.135658 0.006978 0.290725
0.136812 0.006966 0.290132
0.138126 0.006962 0.289875
0.140731 0.007022 0.292295
0.141616 0.006996 0.291113
0.143783 0.007034 0.292551
0.144819 0.007015 0.291670
0.146112 0.007010 0.291303
0.147675 0.007017 0.291460
0.148862 0.007007 0.290864
0.150327 0.007009 0.290802
0.151887 0.007016 0.290904
-0.067012 0.008457 0.291835
-0.061473 0.007922 0.273256
-0.059911 0.007889 0.271948
-0.058692 0.007900 0.272181
-0.057400 0.007901 0.272089
-0.056166 0.007911 0.272276
-0.054915 0.007919 0.272396
-0.053682 0.007929 0.272618
-0.052500 0.007948 0.273129
-0.051304 0.007966 0.273599
-0.050149 0.007991 0.274321
-0.048992 0.008017 0.275079
-0.047845 0.008046 0.275948
-0.046631 0.008066 0.276476
-0.045307 0.008067 0.276377
-0.044118 0.008093 0.277126
-0.043788 0.008282 0.283493
-0.042068 0.008213 0.280988
-0.040602 0.008191 0.280086
-0.039228 0.008186 0.279791
-0.037741 0.008156 0.278645
-0.035289 0.007907 0.270049
-0.034020 0.007916 0.270211
-0.031882 0.007714 0.263217
-0.029963 0.007551 0.257547
-0.028768 0.007563 0.257885
-0.027544 0.007570 0.258001
-0.026281 0.007565 0.257751
-0.025082 0.007580 0.258157
-0.023858 0.007588 0.258339
-0.022615 0.007590 0.258341
-0.021386 0.007598 0.258527
-0.020091 0.007582 0.257899
-0.018868 0.007592 0.258188
-0.017796 0.007670 0.260745
-0.017246 0.008001 0.271940
-0.015950 0.008012 0.272254
-0.014636 0.008016 0.272328
-0.012676 0.007631 0.259198
-0.011250 0.007520 0.255348
-0.010037 0.007539 0.255959
-0.008835 0.007574 0.257101
-0.007575 0.007563 0.256692
-0.006351 0.007591 0.257597
-0.005108 0.007602 0.257953
-0.003863 0.007619 0.258487
-0.002613 0.007636 0.259057
-0.001356 0.007649 0.259468
-0.000096 0.007749 0.262853
0.001197 0.007849 0.266246
0.002498 0.007871 0.266977
0.003847 0.007976 0.270555
0.005162 0.007976 0.270533
0.006477 0.007975 0.270505
0.007608 0.007786 0.264131
0.008828 0.007730 0.262218
0.009995 0.007647 0.259450
0.011229 0.007628 0.258824
0.012471 0.007619 0.258529
0.013711 0.007609 0.258235
0.014935 0.007593 0.257719
0.016210 0.007603 0.258116
0.017480 0.007610 0.258379
0.018811 0.007641 0.259469
0.020466 0.007791 0.264613
0.021650 0.007754 0.263431
0.022732 0.007687 0.261211
0.023985 0.007682 0.261100
0.024750 0.007529 0.255969
0.025854 0.007489 0.254667
0.027152 0.007506 0.255307
0.028330 0.007489 0.254833
0.029571 0.007491 0.254945
0.030853 0.007501 0.255392
0.032141 0.007513 0.255867
0.033434 0.007525 0.256356
0.034644 0.007517 0.256197
0.035912 0.007523 0.256473
0.037241 0.007540 0.257164
0.039133 0.007667 0.261576
0.040676 0.007719 0.263462
0.041883 0.007707 0.263136
0.042955 0.007670 0.262007
0.044271 0.007679 0.262399
0.045357 0.007648 0.261449
0.046398 0.007611 0.260305
0.047426 0.007574 0.259154
0.048546 0.007554 0.258557
0.055616 0.007846 0.269038
0.055045 0.007588 0.260317
0.057222 0.007712 0.264699
0.059700 0.007871 0.270259
0.061094 0.007883 0.270784
0.062326 0.007873 0.270592
0.063601 0.007870 0.270595
0.064906 0.007870 0.270726
0.066135 0.007861 0.270545
0.067319 0.007847 0.270195
0.068590 0.007844 0.270204
0.069675 0.007820 0.269495
0.071147 0.007839 0.270287
0.072382 0.007833 0.270167
0.073490 0.007812 0.269591
0.075084 0.007844 0.270786
0.076584 0.007864 0.271611
0.078060 0.007881 0.272327
0.079125 0.007857 0.271614
0.080484 0.007863 0.271913
0.082002 0.007883 0.272735
0.083442 0.007896 0.273276
0.084666 0.007888 0.273105
0.086258 0.007914 0.274110
0.088016 0.007954 0.275605
0.089233 0.007945 0.275385
0.090574 0.007947 0.275548
0.094453 0.008168 0.283320
0.098526 0.008400 0.291448
0.098975 0.008320 0.288780
0.100516 0.008333 0.289326
0.101885 0.008332 0.289366
0.102963 0.008307 0.288585
0.104386 0.008311 0.288779
0.105605 0.008298 0.288405
0.106971 0.008297 0.288435
0.108369 0.008298 0.288544
0.108683 0.008218 0.285797
0.110612 0.008259 0.287307
0.112236 0.008278 0.287995
0.113416 0.008263 0.287533
0.125537 0.009037 0.314488
0.126821 0.009021 0.313973
0.128157 0.009010 0.313592
0.129434 0.008994 0.313068
0.130569 0.008969 0.312212
0.121265 0.008236 0.286686
0.122585 0.008232 0.286559
0.124042 0.008238 0.286744
0.126945 0.008338 0.290222
0.128306 0.008336 0.290128
0.129781 0.008342 0.290283
0.131030 0.008333 0.289925
0.132400 0.008331 0.289829
0.133748 0.008329 0.289676
0.135240 0.008335 0.289823
0.136963 0.008355 0.290446
0.138517 0.008365 0.290692
0.139596 0.008346 0.289932
0.141675 0.008386 0.291229
0.143077 0.008386 0.291109
0.145011 0.008417 0.292048
0.146252 0.008407 0.291573
0.147348 0.008390 0.290806
0.149049 0.008406 0.291220
0.150231 0.008394 0.290605
0.151825 0.008404 0.290775
-0.062771 0.010066 0.297571
-0.061437 0.010081 0.297849
-0.059917 0.010065 0.297231
-0.058358 0.010042 0.296392
-0.056569 0.009977 0.294321
-0.054668 0.009888 0.291562
-0.053341 0.009902 0.291807
-0.046645 0.009675 0.284565
-0.045332 0.009687 0.284777
-0.043227 0.009525 0.279886
-0.041603 0.009462 0.277910
-0.040330 0.009478 0.278239
-0.039311 0.009556 0.280412
-0.036732 0.009247 0.271229
-0.035234 0.009197 0.269655
-0.031874 0.008984 0.263178
-0.029918 0.008783 0.257187
-0.028730 0.008799 0.257572
-0.027520 0.008810 0.257804
-0.026340 0.008833 0.258363
-0.025129 0.008846 0.258670
-0.023992 0.008888 0.259815
-0.022774 0.008904 0.260188
-0.021595 0.008937 0.261079
-0.020363 0.008952 0.261425
-0.018453 0.008650 0.252535
-0.018557 0.009317 0.271929
-0.017249 0.009322 0.272015
-0.015940 0.009328 0.272120
-0.014627 0.009333 0.272193
-0.012895 0.009044 0.263713
-0.011420 0.008892 0.259240
-0.010120 0.008855 0.258126
-0.008903 0.008892 0.259146
-0.007627 0.008871 0.258507
-0.006385 0.008889 0.258989
-0.005148 0.008925 0.260017
-0.003893 0.008945 0.260550
-0.002638 0.008983 0.261660
-0.001374 0.009033 0.263076
-0.000098 0.009213 0.268300
0.001207 0.009213 0.268297
0.002492 0.009143 0.266248
0.003898 0.009413 0.274121
0.005230 0.009412 0.274099
0.006287 0.009017 0.262591
0.007524 0.008970 0.261238
0.008749 0.008924 0.259908
0.009983 0.008897 0.259158
0.011234 0.008890 0.258978
0.012483 0.008883 0.258778
0.013704 0.008859 0.258113
0.015041 0.008908 0.259582
0.016245 0.008876 0.258693
0.017589 0.008920 0.260023
0.018981 0.008981 0.261836
0.020395 0.009044 0.263720
0.021630 0.009024 0.263214
0.022895 0.009019 0.263107
0.024778 0.008780 0.256280
0.025943 0.008754 0.255562
0.027225 0.008767 0.256016
0.028401 0.008746 0.255490
0.029655 0.008751 0.255691
0.030933 0.008761 0.256078
0.032176 0.008761 0.256172
0.033464 0.008773 0.256605
0.034708 0.008773 0.256688
0.035884 0.008757 0.256295
0.037184 0.008770 0.256789
0.038765 0.008847 0.259132
0.040380 0.008927 0.261569
0.041647 0.008927 0.261668
0.042817 0.008907 0.261187
0.044195 0.008930 0.261969
0.045530 0.008943 0.262463
0.046984 0.008979 0.263612
0.048442 0.009013 0.264727
0.049658 0.009001 0.264502
0.054619 0.009191 0.270428
0.055604 0.009138 0.269000
0.056706 0.009107 0.268193
0.058121 0.009126 0.268876
0.059627 0.009158 0.269947
0.061131 0.009189 0.270966
0.062431 0.009188 0.271066
0.063609 0.009169 0.270645
0.064848 0.009160 0.270501
0.066136 0.009158 0.270565
0.067347 0.009146 0.270324
0.068525 0.009130 0.269963
0.069852 0.009134 0.270196
0.071610 0.009193 0.272060
0.072801 0.009178 0.271745
0.080331 0.009449 0.280264
0.081540 0.009434 0.279915
0.082538 0.009395 0.278865
0.083501 0.009353 0.277733
0.084376 0.009302 0.276347
0.085751 0.009308 0.276615
0.086847 0.009283 0.275993
0.087770 0.009241 0.274842
0.089233 0.009256 0.275393
0.090559 0.009257 0.275512
0.096949 0.009768 0.290815
0.097892 0.009724 0.289582
0.099146 0.009711 0.289287
0.100357 0.009694 0.288875
0.101771 0.009697 0.289049
0.104641 0.009707 0.289491
0.106246 0.009727 0.290160
0.107422 0.009708 0.289655
0.108572 0.009687 0.289089
0.109977 0.009689 0.289204
0.111254 0.009680 0.288979
0.112528 0.009670 0.288747
0.113138 0.009605 0.286833
0.114822 0.009631 0.287649
0.126804 0.010510 0.313934
0.123888 0.009695 0.289604
0.125062 0.009678 0.289099
0.126719 0.009699 0.289705
0.128136 0.009701 0.289742
0.129538 0.009702 0.289737
0.131313 0.009731 0.290546
0.132683 0.009729 0.290444
0.133752 0.009706 0.289680
0.136166 0.009779 0.291803
0.136811 0.009726 0.290120
0.138541 0.009750 0.290736
0.140232 0.009770 0.291245
0.141327 0.009749 0.290506
0.142855 0.009758 0.290648
0.144389 0.009767 0.290788
0.146254 0.009798 0.291569
0.147546 0.009790 0.291187
0.148794 0.009780 0.290712
0.150295 0.009787 0.290719
0.151637 0.009782 0.290403
-0.061551 0.011530 0.298431
-0.060208 0.011546 0.298705
-0.057187 0.011234 0.290473
-0.054674 0.011008 0.284491
-0.054654 0.011286 0.291514
-0.044044 0.010132 0.261194
-0.042842 0.010145 0.261393
-0.042267 0.010311 0.265555
-0.042011 0.010568 0.272046
-0.040907 0.010621 0.273294
-0.039997 0.010730 0.275976
-0.038912 0.010798 0.277597
-0.036572 0.010510 0.270074
-0.035185 0.010485 0.269316
-0.035518 0.010990 0.282171
-0.034833 0.011208 0.287647
-0.029766 0.009975 0.255905
-0.028477 0.009957 0.255337
-0.027183 0.009934 0.254673
-0.026054 0.009974 0.255592
-0.024711 0.009931 0.254397
-0.023413 0.009902 0.253584
-0.022219 0.009917 0.253882
-0.021588 0.010200 0.261033
-0.019624 0.009848 0.251963
-0.019695 0.010539 0.269573
-0.018400 0.010546 0.269664
-0.017310 0.010680 0.273015
-0.015807 0.010560 0.269887
-0.012890 0.010321 0.263666
-0.011497 0.010220 0.261030
-0.010101 0.010090 0.257681
-0.008870 0.010113 0.258212
-0.007609 0.010103 0.257933
-0.006360 0.010108 0.258028
-0.005119 0.010134 0.258646
-0.003874 0.010162 0.259337
-0.002613 0.010160 0.259260
-0.001358 0.010190 0.260012
-0.000097 0.010471 0.267182
0.005229 0.010741 0.274050
0.006170 0.010101 0.257729
0.007412 0.010086 0.257350
0.008655 0.010076 0.257118
0.009912 0.010084 0.257324
0.011162 0.010083 0.257325
0.012424 0.010092 0.257594
0.013681 0.010096 0.257717
0.014976 0.010124 0.258479
0.016281 0.010155 0.259296
0.017616 0.010198 0.260440
0.018899 0.010207 0.260724
0.020323 0.010287 0.262812
0.021688 0.010329 0.263934
0.024820 0.010040 0.256735
0.025907 0.009979 0.255232
0.027224 0.010007 0.256031
0.028438 0.009997 0.255849
0.029656 0.009989 0.255724
0.030967 0.010012 0.256381
0.032236 0.010020 0.256668
0.033489 0.010023 0.256821
0.034730 0.010022 0.256877
0.035967 0.010019 0.256910
0.037318 0.010048 0.257740
0.039048 0.010173 0.261051
0.041043 0.010358 0.265882
0.042283 0.010346 0.265688
0.043692 0.010376 0.266545
0.045141 0.010413 0.267600
0.046567 0.010442 0.268465
0.048115 0.010497 0.269978
0.049358 0.010483 0.269754
0.055096 0.010584 0.272813
0.056595 0.010618 0.273812
0.057200 0.010487 0.270549
0.058242 0.010440 0.269453
0.059382 0.010412 0.268854
0.061142 0.010492 0.271034
0.062491 0.010499 0.271344
0.063613 0.010469 0.270683
0.064773 0.010446 0.270205
0.066028 0.010439 0.270143
0.067342 0.010441 0.270321
0.068395 0.010403 0.269470
0.069561 0.010384 0.269087
0.071534 0.010484 0.271788
0.072793 0.010477 0.271732
0.081523 0.010768 0.279871
0.081069 0.010535 0.273914
0.082048 0.010492 0.272913
0.083812 0.010549 0.274513
0.085226 0.010562 0.274934
0.087431 0.010670 0.277858
0.088315 0.010616 0.276562
0.090491 0.010717 0.279288
0.095704 0.011170 0.291176
0.096931 0.011150 0.290771
0.098128 0.011128 0.290290
0.098889 0.011058 0.288545
0.100923 0.011130 0.290514
0.102030 0.011100 0.289791
0.103901 0.011152 0.291228
0.105171 0.011139 0.290962
0.106616 0.011145 0.291179
0.109186 0.011123 0.290731
0.110405 0.011106 0.290336
0.111658 0.011092 0.290033
0.112849 0.011073 0.289574
0.114096 0.011060 0.289263
0.115530 0.011065 0.289424
0.115643 0.010944 0.286304
0.117805 0.011019 0.288263
0.125509 0.011090 0.290133
0.126685 0.011072 0.289623
0.127834 0.011051 0.289057
0.129953 0.011114 0.290661
0.131127 0.011096 0.290133
0.132591 0.011102 0.290237
0.133993 0.011103 0.290196
0.135543 0.011116 0.290462
0.137009 0.011122 0.290533
0.138310 0.011114 0.290242
0.139875 0.011128 0.290495
0.141472 0.011144 0.290795
0.142695 0.011130 0.290314
0.144260 0.011143 0.290517
0.145790 0.011153 0.290633
0.147392 0.011168 0.290872
0.148858 0.011173 0.290824
0.150139 0.011164 0.290404
0.151555 0.011165 0.290232
-0.057171 0.012624 0.290420
-0.054658 0.012370 0.284438
-0.044729 0.010382 0.238604
-0.043643 0.010396 0.238804
-0.043039 0.010529 0.241733
-0.042124 0.010590 0.243031
-0.041404 0.010706 0.245563
-0.041179 0.010960 0.251279
-0.040894 0.011213 0.256958
-0.041135 0.011631 0.266405
-0.040050 0.011689 0.267601
-0.039493 0.011909 0.272528
-0.038970 0.012156 0.278047
-0.036427 0.011767 0.269042
-0.035125 0.011765 0.268886
-0.035507 0.012349 0.282117
-0.034822 0.012594 0.287591
-0.033465 0.012606 0.287751
-0.018538 0.011943 0.271731
-0.017231 0.011949 0.271816
-0.015971 0.011993 0.272734
-0.002860 0.012501 0.283857
-0.001481 0.012503 0.283867
-0.000101 0.012421 0.281999
0.006194 0.011397 0.258749
0.007433 0.011367 0.258083
0.008688 0.011369 0.258139
0.009944 0.011371 0.258187
0.011182 0.011353 0.257804
0.012449 0.011365 0.258121
0.013727 0.011385 0.258595
0.014988 0.011389 0.258714
0.016269 0.011405 0.259132
0.017552 0.011421 0.259519
0.018797 0.011411 0.259347
0.020237 0.011513 0.261723
0.021522 0.011521 0.261953
0.024936 0.011338 0.257967
0.026014 0.011262 0.256313
0.027310 0.011284 0.256874
0.028503 0.011263 0.256459
0.029812 0.011287 0.257093
0.031059 0.011287 0.257174
0.032294 0.011283 0.257162
0.033613 0.011307 0.257798
0.034969 0.011342 0.258673
0.036189 0.011331 0.258526
0.037432 0.011328 0.258550
0.038984 0.011416 0.260651
0.040622 0.011523 0.263183
0.041870 0.011516 0.263124
0.043262 0.011548 0.263951
0.044502 0.011538 0.263838
0.045656 0.011508 0.263242
0.048101 0.011795 0.269927
0.055081 0.011894 0.272762
0.056579 0.011932 0.273762
0.057184 0.011785 0.270499
0.057288 0.011543 0.265062
0.058562 0.011542 0.265165
0.060827 0.011733 0.269663
0.062420 0.011788 0.271057
0.063608 0.011767 0.270681
0.064824 0.011751 0.270441
0.066131 0.011752 0.270583
0.067375 0.011742 0.270474
0.068596 0.011728 0.270280
0.069886 0.011727 0.270365
0.071180 0.011726 0.270462
0.072775 0.011774 0.271683
0.073681 0.011711 0.270338
0.074705 0.011668 0.269466
0.075834 0.011643 0.268997
0.076593 0.011562 0.267252
0.077744 0.011543 0.266913
0.081050 0.011839 0.273866
0.079343 0.011405 0.263930
0.083794 0.011856 0.274466
0.085207 0.011870 0.274886
0.087411 0.011992 0.277810
0.088296 0.011931 0.276514
0.090472 0.012045 0.279241
0.096910 0.012532 0.290721
0.097338 0.012409 0.287964
0.099254 0.012477 0.289621
0.100280 0.012432 0.288671
0.105214 0.012527 0.291090
0.106290 0.012490 0.290296
0.107471 0.012466 0.289800
0.109307 0.012517 0.291057
0.110614 0.012508 0.290890
0.111831 0.012489 0.290486
0.113135 0.012480 0.290312
0.114293 0.012455 0.289768
0.115376 0.012422 0.289040
0.116556 0.012401 0.288567
0.117785 0.012385 0.288216
0.120361 0.012510 0.291126
0.121545 0.012488 0.290635
0.128998 0.012674 0.294908
0.130191 0.012653 0.294384
0.129524 0.012454 0.289698
0.131112 0.012473 0.290093
0.132379 0.012461 0.289767
0.133332 0.012421 0.288758
0.135090 0.012455 0.289483
0.136703 0.012476 0.289875
0.138112 0.012478 0.289820
0.139510 0.012478 0.289729
0.140936 0.012481 0.289683
0.142671 0.012511 0.290255
0.144012 0.012507 0.290007
0.145859 0.012545 0.290757
0.147267 0.012546 0.290611
0.148563 0.012537 0.290233
0.150193 0.012556 0.290493
0.151689 0.012564 0.290474
-0.045544 0.010407 0.215970
-0.044575 0.010422 0.216172
-0.045073 0.010789 0.223666
-0.044064 0.010804 0.223867
-0.043480 0.010926 0.226296
-0.042874 0.011050 0.228735
-0.042252 0.011175 0.231221
-0.041658 0.011315 0.234002
-0.041135 0.011483 0.237353
-0.040764 0.011704 0.241802
-0.040636 0.012009 0.247995
-0.040503 0.012332 0.254534
-0.040394 0.012682 0.261640
-0.039842 0.012911 0.266251
-0.039281 0.013152 0.271106
-0.039037 0.013520 0.278563
-0.036656 0.013148 0.270773
-0.035142 0.013070 0.269060
-0.035494 0.013707 0.282055
-0.017224 0.013263 0.271756
-0.015906 0.013263 0.271688
0.006197 0.012659 0.258870
0.007430 0.012616 0.258003
0.008685 0.012618 0.258061
0.009943 0.012622 0.258174
0.011187 0.012611 0.257965
0.012442 0.012612 0.258014
0.013712 0.012627 0.258346
0.014964 0.012624 0.258330
0.016242 0.012642 0.258734
0.017528 0.012663 0.259195
0.018776 0.012655 0.259088
0.020232 0.012780 0.261689
0.021591 0.012832 0.262815
0.024894 0.013232 0.271111
0.025096 0.012669 0.259649
0.026015 0.012505 0.256350
0.027441 0.012589 0.258135
0.028638 0.012564 0.257705
0.029961 0.012595 0.258413
0.031219 0.012597 0.258533
0.032519 0.012615 0.258980
0.033879 0.012654 0.259872
0.035199 0.012676 0.260401
0.036387 0.012650 0.259969
0.037881 0.012729 0.261683
0.039412 0.012815 0.263539
0.040427 0.012733 0.261952
0.041602 0.012705 0.261466
0.042372 0.012558 0.258549
0.043728 0.012588 0.259276
0.044443 0.012438 0.256273
0.045646 0.012428 0.256176
0.046798 0.012405 0.255816
0.047805 0.012346 0.254705
0.048993 0.012336 0.254592
0.050198 0.012330 0.254581
0.051596 0.012371 0.255531
0.052914 0.012391 0.256054
0.054424 0.012453 0.257466
0.055923 0.012511 0.258771
0.057764 0.012641 0.261575
0.060394 0.012935 0.267767
0.062293 0.013062 0.270531
0.063485 0.013040 0.270181
0.064726 0.013028 0.270054
0.066028 0.013029 0.270187
0.067378 0.013038 0.270507
0.068533 0.013011 0.270052
0.069852 0.013015 0.270253
0.071299 0.013042 0.270934
0.072757 0.013070 0.271637
0.073831 0.013030 0.270907
0.074614 0.012940 0.269154
0.075545 0.012879 0.267988
0.076076 0.012752 0.265465
0.076432 0.012601 0.262425
0.077294 0.012537 0.261190
0.077755 0.012411 0.258662
0.078593 0.012348 0.257447
0.080060 0.012384 0.258296
0.081360 0.012394 0.258592
0.082394 0.012363 0.258044
0.083768 0.012384 0.258562
0.087254 0.012711 0.265490
0.096261 0.013822 0.288785
0.097475 0.013799 0.288379
0.099749 0.013924 0.291078
0.100631 0.013853 0.289692
0.103459 0.013861 0.290007
0.104528 0.013819 0.289199
0.106162 0.013852 0.289952
0.107472 0.013843 0.289811
0.108846 0.013841 0.289837
0.110501 0.013875 0.290599
0.112082 0.013899 0.291145
0.113138 0.013858 0.290324
0.114422 0.013846 0.290099
0.115943 0.013862 0.290466
0.117015 0.013825 0.289705
0.118351 0.013819 0.289604
0.118731 0.013703 0.287185
0.119323 0.013614 0.285322
0.121740 0.013733 0.287808
0.130170 0.014049 0.294330
0.131352 0.014025 0.293783
0.131046 0.013844 0.289942
0.132597 0.013861 0.290238
0.133763 0.013838 0.289685
0.135142 0.013837 0.289589
0.136961 0.013881 0.290414
0.138122 0.013858 0.289832
0.139498 0.013856 0.289692
0.141149 0.013882 0.290110
0.142678 0.013895 0.290256
0.144177 0.013905 0.290325
0.145978 0.013944 0.290980
0.147406 0.013946 0.290872
0.148913 0.013956 0.290902
0.150431 0.013967 0.290936
0.151647 0.013950 0.290375
-0.045711 0.010108 0.191408
-0.044868 0.010123 0.191607
-0.044196 0.010179 0.192562
-0.043573 0.010249 0.193780
-0.042712 0.010264 0.193971
-0.044825 0.011011 0.207979
-0.043895 0.011027 0.208176
-0.043666 0.011224 0.211787
-0.043040 0.011326 0.213605
-0.042685 0.011506 0.216890
-0.042504 0.011743 0.221247
-0.042357 0.012002 0.226008
-0.041801 0.012155 0.228783
-0.041360 0.012351 0.232360
-0.040962 0.012571 0.236389
-0.040741 0.012860 0.241701
-0.040718 0.013230 0.248532
-0.040433 0.013534 0.254135
-0.040060 0.013827 0.259519
-0.039258 0.013986 0.262384
-0.038832 0.014294 0.268048
-0.038485 0.014654 0.274668
-0.036399 0.014353 0.268912
-0.035139 0.014368 0.269083
-0.033590 0.014261 0.266975
-0.016821 0.014240 0.265445
-0.015589 0.014290 0.266327
0.006160 0.013832 0.257340
0.007391 0.013796 0.256694
0.008647 0.013809 0.256950
0.009890 0.013802 0.256829
0.011145 0.013811 0.257026
0.012397 0.013814 0.257101
0.013687 0.013855 0.257902
0.014968 0.013882 0.258430
0.016255 0.013909 0.258965
0.017581 0.013963 0.260013
0.018831 0.013953 0.259876
0.020237 0.014053 0.261790
0.021590 0.014106 0.262836
0.023585 0.014550 0.271161
0.024885 0.014540 0.271045
0.025018 0.013884 0.258875
0.026311 0.013903 0.259299
0.027530 0.013884 0.259008
0.028760 0.013871 0.258839
0.030062 0.013893 0.259313
0.031354 0.013908 0.259678
0.032717 0.013953 0.260595
0.034079 0.013993 0.261434
0.035466 0.014041 0.262416
0.037042 0.014157 0.264680
0.038404 0.014187 0.265328
0.039688 0.014187 0.265423
0.041080 0.014224 0.266217
0.041977 0.014093 0.263856
0.042903 0.013979 0.261821
0.043983 0.013920 0.260816
0.044647 0.013736 0.257478
0.045553 0.013635 0.255682
0.046508 0.013553 0.254259
0.047603 0.013516 0.253656
0.048821 0.013514 0.253724
0.050029 0.013509 0.253749
0.051236 0.013505 0.253772
0.052715 0.013570 0.255115
0.054193 0.013633 0.256398
0.055447 0.013638 0.256598
0.057596 0.013857 0.260841
0.060293 0.014196 0.267345
0.062141 0.014326 0.269895
0.063514 0.014342 0.270331
0.064761 0.014331 0.270225
0.066018 0.014321 0.270170
0.067317 0.014321 0.270285
0.068610 0.014320 0.270378
0.069845 0.014307 0.270248
0.071152 0.014309 0.270398
0.072447 0.014308 0.270501
0.073069 0.014177 0.268131
0.074154 0.014139 0.267517
0.075073 0.014070 0.266335
0.075535 0.013920 0.263596
0.076073 0.013789 0.261210
0.076694 0.013676 0.259180
0.077486 0.013597 0.257783
0.078603 0.013577 0.257495
0.079389 0.013501 0.256147
0.080817 0.013535 0.256879
0.082236 0.013566 0.257562
0.082645 0.013432 0.255110
0.087231 0.013972 0.265434
0.096668 0.015045 0.286006
0.101165 0.015525 0.295220
0.101054 0.015295 0.290922
0.102195 0.015258 0.290289
0.103913 0.015307 0.291289
