ply
format ascii 1.0
element vertex 1678
property float x
property float y
property float z
end_header
0.135227 -0.100758 0.294418
0.136951 -0.100977 0.294749
0.138538 -0.101093 0.294762
0.140280 -0.101317 0.295077
0.141808 -0.101384 0.294916
0.143513 -0.101575 0.295101
0.145089 -0.101671 0.294993
0.146677 -0.101774 0.294888
0.148186 -0.101821 0.294602
0.149869 -0.101984 0.294634
0.151720 -0.102258 0.294965
0.153185 -0.102269 0.294516
0.154349 -0.102081 0.293473
0.155916 -0.102160 0.293180
0.158122 -0.102652 0.294047
-0.143762 -0.090063 0.264241
-0.142600 -0.090136 0.264903
-0.141528 -0.090268 0.265720
-0.140221 -0.090252 0.266083
-0.139026 -0.090308 0.266644
-0.137967 -0.090454 0.267455
-0.136732 -0.090487 0.267915
-0.135588 -0.090581 0.268544
-0.134494 -0.090712 0.269265
-0.133279 -0.090762 0.269736
-0.132113 -0.090847 0.270297
-0.130904 -0.090904 0.270760
-0.129647 -0.090929 0.271116
-0.128422 -0.090977 0.271530
-0.127135 -0.090981 0.271800
-0.125803 -0.090953 0.271963
-0.124514 -0.090957 0.272209
-0.123306 -0.091020 0.272623
-0.122143 -0.091118 0.273131
-0.120957 -0.091201 0.273583
-0.119681 -0.091217 0.273826
-0.118668 -0.091437 0.274671
-0.117347 -0.091420 0.274798
-0.116250 -0.091581 0.275449
-0.115180 -0.091767 0.276167
-0.114027 -0.091890 0.276688
-0.112823 -0.091975 0.277086
-0.111622 -0.092064 0.277489
-0.110321 -0.092072 0.277640
-0.109096 -0.092144 0.277977
-0.107916 -0.092257 0.278430
-0.106609 -0.092263 0.278552
-0.105476 -0.092421 0.279128
-0.104340 -0.092581 0.279703
-0.103289 -0.092822 0.280517
-0.102313 -0.093136 0.281548
-0.101121 -0.093260 0.281998
-0.100198 -0.093639 0.283213
-0.099061 -0.093826 0.283841
-0.102519 -0.098429 0.297827
-0.099560 -0.096913 0.293294
-0.097446 -0.096190 0.291152
-0.105941 -0.106067 0.321098
-0.104550 -0.106190 0.321513
-0.102863 -0.106011 0.321007
-0.101725 -0.106400 0.322220
-0.099442 -0.105587 0.319784
-0.098063 -0.105723 0.320218
-0.097003 -0.106212 0.321717
-0.094957 -0.105620 0.319940
-0.093599 -0.105787 0.320456
-0.091997 -0.105679 0.320134
-0.090125 -0.105252 0.318842
-0.089110 -0.105829 0.320589
-0.087899 -0.106188 0.321674
-0.086402 -0.106210 0.321731
-0.085133 -0.106517 0.322652
-0.083137 -0.105909 0.320796
-0.082052 -0.106462 0.322454
-0.080620 -0.106575 0.322778
-0.071670 -0.096565 0.292440
-0.070120 -0.096328 0.291700
-0.068869 -0.096501 0.292199
-0.067657 -0.096735 0.292883
-0.066253 -0.096701 0.292750
-0.064964 -0.096835 0.293128
-0.063580 -0.096832 0.293087
-0.062223 -0.096871 0.293173
-0.060878 -0.096929 0.293315
-0.059317 -0.096639 0.292402
-0.057939 -0.096642 0.292375
-0.056570 -0.096659 0.292388
-0.055061 -0.096433 0.291667
-0.053759 -0.096565 0.292028
-0.052359 -0.096526 0.291869
-0.050996 -0.096553 0.291911
-0.049614 -0.096547 0.291852
-0.048198 -0.096470 0.291579
-0.046891 -0.096615 0.291977
-0.045467 -0.096519 0.291646
-0.044001 -0.096328 0.291025
-0.042567 -0.096195 0.290584
-0.042152 -0.098434 0.297305
-0.040776 -0.098504 0.297474
-0.038321 -0.095880 0.289509
-0.037278 -0.096728 0.292027
-0.035920 -0.096791 0.292176
-0.031873 -0.089322 0.269594
-0.030535 -0.089141 0.269011
-0.029032 -0.088443 0.266868
-0.027607 -0.087925 0.265272
-0.026169 -0.087319 0.263408
-0.024934 -0.087363 0.263508
-0.023683 -0.087349 0.263434
-0.022467 -0.087476 0.263783
-0.021422 -0.088317 0.266289
-0.020212 -0.088546 0.266949
-0.018990 -0.088747 0.267526
-0.017713 -0.088705 0.267371
-0.016499 -0.088990 0.268201
-0.015196 -0.088809 0.267629
-0.013988 -0.089198 0.268778
-0.012625 -0.088578 0.266885
-0.011389 -0.088808 0.267554
-0.010126 -0.088866 0.267708
-0.008782 -0.088129 0.265468
-0.007512 -0.087999 0.265055
-0.006277 -0.088322 0.266011
-0.004990 -0.087901 0.264727
-0.003750 -0.088275 0.265837
-0.002501 -0.088751 0.267254
-0.001236 -0.089002 0.267999
0.000037 -0.089355 0.269048
0.001313 -0.089229 0.268658
0.002609 -0.089940 0.270790
0.003895 -0.089946 0.270800
0.004986 -0.086544 0.260551
0.006239 -0.086764 0.261209
0.007455 -0.086481 0.260354
0.008673 -0.086287 0.259766
0.009906 -0.086278 0.259737
0.011130 -0.086203 0.259511
0.012381 -0.086330 0.259895
0.013606 -0.086266 0.259705
0.014906 -0.086652 0.260870
0.016183 -0.086851 0.261471
0.017433 -0.086887 0.261586
0.018919 -0.088021 0.265007
0.020163 -0.087955 0.264816
0.021243 -0.087222 0.262615
0.022496 -0.087239 0.262677
0.023707 -0.087102 0.262274
0.024702 -0.086227 0.259649
0.025812 -0.085814 0.258417
0.027049 -0.085844 0.258518
0.028207 -0.085629 0.257882
0.029482 -0.085773 0.258329
0.030842 -0.086145 0.259462
0.032139 -0.086317 0.259997
0.033505 -0.086655 0.261028
0.034851 -0.086917 0.261832
0.036156 -0.087065 0.262293
0.037638 -0.087614 0.263962
0.039070 -0.088013 0.265180
0.040287 -0.087919 0.264913
0.041369 -0.087546 0.263802
0.042568 -0.087434 0.263482
0.043993 -0.087780 0.264538
0.045216 -0.087714 0.264354
0.045426 -0.085741 0.258423
0.046867 -0.086133 0.259618
0.048062 -0.086064 0.259423
0.048940 -0.085446 0.257571
0.050239 -0.085574 0.257969
0.051703 -0.085970 0.259174
0.053281 -0.086534 0.260883
0.054605 -0.086668 0.261297
0.057152 -0.088694 0.267413
0.059127 -0.089763 0.270643
0.060350 -0.089670 0.270366
0.062072 -0.090307 0.272289
0.063764 -0.090874 0.274003
0.064800 -0.090503 0.272884
0.065878 -0.090205 0.271981
0.067257 -0.090321 0.272329
0.068259 -0.089937 0.271164
0.069208 -0.089497 0.269829
0.070746 -0.089822 0.270797
0.072025 -0.089812 0.270756
0.073322 -0.089824 0.270774
0.074021 -0.089117 0.268623
0.074916 -0.088664 0.267236
0.076155 -0.088627 0.267102
0.076827 -0.087943 0.265011
0.078397 -0.088292 0.266030
0.080514 -0.089236 0.268839
0.082119 -0.089591 0.269871
0.084740 -0.091027 0.274151
0.085774 -0.090741 0.273243
0.089258 -0.093016 0.280040
0.095904 -0.098471 0.296401
0.097210 -0.098363 0.296011
0.097649 -0.097395 0.293026
0.099176 -0.097524 0.293336
0.100754 -0.097698 0.293779
0.101844 -0.097400 0.292796
0.103396 -0.097547 0.293143
0.105004 -0.097742 0.293629
0.106431 -0.097765 0.293591
0.107932 -0.097855 0.293748
0.109351 -0.097869 0.293668
0.110762 -0.097876 0.293561
0.112202 -0.097907 0.293519
0.113682 -0.097972 0.293570
0.115230 -0.098094 0.293782
0.116751 -0.098190 0.293910
0.118353 -0.098351 0.294223
0.119877 -0.098443 0.294321
0.121294 -0.098447 0.294145
0.122801 -0.098523 0.294175
0.124179 -0.098495 0.293884
0.125662 -0.098549 0.293829
0.127191 -0.098638 0.293866
0.128581 -0.098618 0.293568
0.130219 -0.098787 0.293820
0.131737 -0.098863 0.293783
0.133329 -0.098991 0.293889
0.134877 -0.099084 0.293876
0.136623 -0.099319 0.294272
0.138214 -0.099438 0.294310
0.139949 -0.099657 0.294625
0.141479 -0.099727 0.294486
0.143217 -0.099940 0.294754
0.144799 -0.100042 0.294676
0.146283 -0.100074 0.294376
0.147847 -0.100159 0.294216
0.149409 -0.100242 0.294030
0.151052 -0.100377 0.293976
0.152527 -0.100399 0.293572
0.154104 -0.100486 0.293340
0.155726 -0.100601 0.293164
0.157577 -0.100860 0.293387
-0.144085 -0.088971 0.265116
-0.142889 -0.089025 0.265713
-0.141681 -0.089071 0.266272
-0.140465 -0.089113 0.266801
-0.139292 -0.089184 0.267400
-0.138067 -0.089223 0.267888
-0.136885 -0.089290 0.268447
-0.135749 -0.089389 0.269088
-0.134548 -0.089448 0.269591
-0.133312 -0.089484 0.270014
-0.132207 -0.089609 0.270693
-0.130982 -0.089654 0.271118
-0.129701 -0.089663 0.271419
-0.128259 -0.089559 0.271367
-0.127095 -0.089649 0.271892
-0.125731 -0.089598 0.271978
-0.124401 -0.089572 0.272127
-0.123251 -0.089675 0.272658
-0.122031 -0.089729 0.273032
-0.120853 -0.089816 0.273494
-0.119745 -0.089957 0.274113
-0.118531 -0.090021 0.274488
-0.117375 -0.090132 0.274995
-0.116250 -0.090268 0.275574
-0.115064 -0.090361 0.276009
-0.113957 -0.090518 0.276634
-0.112874 -0.090697 0.277320
-0.111626 -0.090748 0.277604
-0.110497 -0.090897 0.278182
-0.109207 -0.090916 0.278356
-0.107909 -0.090928 0.278502
-0.106701 -0.091019 0.278879
-0.105370 -0.091005 0.278929
-0.104218 -0.091147 0.279454
-0.103026 -0.091258 0.279875
-0.101939 -0.091466 0.280588
-0.100845 -0.091672 0.281291
-0.099819 -0.091948 0.282201
-0.098780 -0.092218 0.283088
-0.097822 -0.092572 0.284230
-0.096964 -0.093033 0.285694
-0.097905 -0.095258 0.292570
-0.096642 -0.095370 0.292953
-0.105300 -0.105418 0.323858
-0.103898 -0.105541 0.324270
-0.101979 -0.105136 0.323054
-0.099985 -0.104640 0.321553
-0.098439 -0.104605 0.321464
-0.096554 -0.104204 0.320245
-0.094991 -0.104142 0.320064
-0.092624 -0.103183 0.317125
-0.091166 -0.103222 0.317245
-0.089869 -0.103448 0.317938
-0.088088 -0.103115 0.316909
-0.086506 -0.103006 0.316567
-0.085424 -0.103500 0.318075
-0.084265 -0.103918 0.319343
-0.081706 -0.102593 0.315254
-0.080734 -0.103247 0.317246
-0.079325 -0.103359 0.317565
-0.071370 -0.094780 0.291186
-0.070178 -0.095024 0.291909
-0.068921 -0.095186 0.292380
-0.067620 -0.095294 0.292683
-0.066186 -0.095215 0.292409
-0.064857 -0.095288 0.292601
-0.063372 -0.095129 0.292079
-0.062000 -0.095137 0.292068
-0.060685 -0.095234 0.292329
-0.059113 -0.094924 0.291339
-0.057706 -0.094869 0.291133
-0.056391 -0.094969 0.291400
-0.055023 -0.094980 0.291392
-0.053613 -0.094920 0.291166
-0.052325 -0.095076 0.291605
-0.050931 -0.095045 0.291466
-0.049464 -0.094870 0.290888
-0.048215 -0.095116 0.291598
-0.046800 -0.095041 0.291325
-0.045303 -0.094788 0.290507
-0.044076 -0.095104 0.291429
-0.041935 -0.093402 0.286173
-0.042222 -0.097177 0.297693
-0.040843 -0.097247 0.297863
-0.037935 -0.093550 0.286497
-0.036725 -0.093920 0.287588
-0.035387 -0.093981 0.287735
-0.031794 -0.087818 0.268827
-0.030441 -0.087584 0.268073
-0.028967 -0.086969 0.266153
-0.027551 -0.086481 0.264625
-0.026175 -0.086076 0.263350
-0.024902 -0.085989 0.263048
-0.023651 -0.085970 0.262957
-0.022458 -0.086176 0.263554
-0.021236 -0.086287 0.263861
-0.020181 -0.087129 0.266403
-0.018968 -0.087360 0.267080
-0.017763 -0.087661 0.267970
-0.016499 -0.087701 0.268066
-0.015234 -0.087734 0.268138
-0.013988 -0.087901 0.268624
-0.012647 -0.087435 0.267175
-0.011390 -0.087521 0.267414
-0.010135 -0.087638 0.267749
-0.008846 -0.087459 0.267181
-0.007582 -0.087513 0.267326
-0.006306 -0.087414 0.267004
-0.005033 -0.087318 0.266694
-0.003776 -0.087550 0.267386
-0.002518 -0.087938 0.268557
-0.001242 -0.087940 0.268549
0.000033 -0.088035 0.268828
0.001315 -0.088328 0.269711
0.002594 -0.088279 0.269554
0.003863 -0.087999 0.268691
0.005073 -0.086872 0.265243
0.006289 -0.086258 0.263363
0.007541 -0.086264 0.263377
0.008735 -0.085701 0.261656
0.009927 -0.085259 0.260306
0.011174 -0.085331 0.260525
0.012367 -0.085026 0.259596
0.013620 -0.085143 0.259957
0.014890 -0.085341 0.260563
0.016102 -0.085200 0.260139
0.017419 -0.085597 0.261355
0.018792 -0.086196 0.263191
0.020131 -0.086574 0.264355
0.021356 -0.086447 0.263977
0.022537 -0.086163 0.263119
0.023795 -0.086190 0.263211
0.024787 -0.085299 0.260502
0.025916 -0.084939 0.259417
0.027052 -0.084636 0.258503
0.028186 -0.084353 0.257653
0.029449 -0.084462 0.258001
0.030845 -0.084931 0.259447
0.032119 -0.085038 0.259790
0.033544 -0.085522 0.261286
0.034927 -0.085870 0.262363
0.036181 -0.085887 0.262432
0.037589 -0.086255 0.263576
0.038754 -0.086062 0.263001
0.039739 -0.085492 0.261277
0.041092 -0.085724 0.262003
0.041943 -0.084926 0.259581
0.042604 -0.083799 0.256154
0.043742 -0.083648 0.255708
0.045115 -0.083942 0.256622
0.046104 -0.083524 0.255361
0.047360 -0.083600 0.255609
0.048623 -0.083684 0.255878
0.049844 -0.083692 0.255918
0.051174 -0.083880 0.256504
0.052366 -0.083838 0.256387
0.053554 -0.083789 0.256251
0.055623 -0.085092 0.260244
0.059132 -0.088493 0.270655
0.060433 -0.088516 0.270733
0.061589 -0.088329 0.270167
0.063600 -0.089350 0.273295
0.064874 -0.089317 0.273196
0.066112 -0.089235 0.272948
0.067411 -0.089238 0.272957
0.068828 -0.089395 0.273432
0.069967 -0.089190 0.272800
0.070965 -0.088816 0.271650
0.072230 -0.088784 0.271541
0.073809 -0.089133 0.272593
0.074325 -0.088207 0.269748
0.075071 -0.087581 0.267815
0.077091 -0.088438 0.270412
0.078129 -0.088158 0.269532
0.078992 -0.087694 0.268084
0.081561 -0.089107 0.272374
0.082993 -0.089254 0.272784
0.084281 -0.089244 0.272715
0.086370 -0.090068 0.275190
0.088452 -0.090862 0.277565
0.095937 -0.097100 0.296566
0.097242 -0.096993 0.296176
0.097768 -0.096123 0.293453
0.099317 -0.096270 0.293829
0.100827 -0.096375 0.294072
0.102066 -0.096222 0.293520
0.103522 -0.096273 0.293588
0.105022 -0.096365 0.293771
0.106514 -0.096447 0.293919
0.107904 -0.096434 0.293773
0.109320 -0.096446 0.293692
0.110759 -0.096477 0.293665
0.112198 -0.096508 0.293628
0.113672 -0.096567 0.293668
0.115194 -0.096665 0.293821
0.116788 -0.096820 0.294138
0.118149 -0.096781 0.293857
0.119708 -0.096903 0.294054
0.121282 -0.097034 0.294269
0.122898 -0.097195 0.294567
0.124308 -0.097191 0.294353
0.125702 -0.097175 0.294095
0.127280 -0.097299 0.294250
0.128678 -0.097286 0.293975
0.130132 -0.097313 0.293815
0.131824 -0.097517 0.294173
0.133195 -0.097481 0.293798
0.134833 -0.097639 0.293994
0.136531 -0.097837 0.294294
0.138228 -0.098030 0.294566
0.139792 -0.098126 0.294532
0.141416 -0.098260 0.294599
0.143145 -0.098465 0.294859
0.144625 -0.098496 0.294584
0.146096 -0.098520 0.294270
0.147601 -0.098567 0.294007
0.148956 -0.098513 0.293428
0.150411 -0.098526 0.293027
0.151927 -0.098577 0.292724
0.153291 -0.098530 0.292109
0.154889 -0.098633 0.291918
0.156729 -0.098887 0.292149
-0.144089 -0.087681 0.265396
-0.142778 -0.087662 0.265769
-0.141637 -0.087749 0.266443
-0.140501 -0.087840 0.267117
-0.139232 -0.087850 0.267525
-0.138089 -0.087939 0.268162
-0.136916 -0.088012 0.268732
-0.135748 -0.088090 0.269304
-0.134557 -0.088153 0.269819
-0.133319 -0.088187 0.270230
-0.132208 -0.088307 0.270890
-0.131029 -0.088383 0.271406
-0.129791 -0.088420 0.271790
-0.128475 -0.088405 0.272000
-0.127213 -0.088428 0.272315
-0.125997 -0.088482 0.272718
-0.124708 -0.088487 0.272955
-0.123435 -0.088503 0.273218
-0.122269 -0.088597 0.273711
-0.121107 -0.088696 0.274211
-0.119928 -0.088785 0.274669
-0.118816 -0.088926 0.275279
-0.117523 -0.088934 0.275468
-0.116363 -0.089043 0.275962
-0.115264 -0.089201 0.276602
-0.114017 -0.089248 0.276889
-0.112972 -0.089456 0.277666
-0.111718 -0.089502 0.277932
-0.110523 -0.089596 0.278342
-0.109250 -0.089629 0.278554
-0.107979 -0.089665 0.278769
-0.106674 -0.089672 0.278889
-0.105466 -0.089763 0.279261
-0.104252 -0.089851 0.279617
-0.103074 -0.089972 0.280072
-0.101912 -0.090111 0.280576
-0.100799 -0.090298 0.281222
-0.099765 -0.090561 0.282102
-0.098760 -0.090858 0.283081
-0.097592 -0.091011 0.283609
-0.096695 -0.091425 0.284942
-0.095860 -0.091910 0.286494
-0.095294 -0.092671 0.288901
-0.094878 -0.093602 0.291833
-0.104292 -0.104400 0.325529
-0.102882 -0.104524 0.325938
-0.100164 -0.103303 0.322150
-0.099979 -0.104696 0.326509
-0.097566 -0.103763 0.323611
-0.095005 -0.102641 0.320117
-0.094637 -0.103892 0.324019
-0.092204 -0.102878 0.320856
-0.090735 -0.102924 0.320995
-0.089495 -0.103237 0.321960
-0.087214 -0.102337 0.319144
-0.085532 -0.102123 0.318460
-0.084214 -0.102343 0.319128
-0.081725 -0.101123 0.315303
-0.080618 -0.101599 0.316764
-0.079213 -0.101710 0.317083
-0.071705 -0.093839 0.292520
-0.070127 -0.093572 0.291659
-0.068930 -0.093813 0.292380
-0.067576 -0.093846 0.292451
-0.066175 -0.093813 0.292316
-0.064893 -0.093952 0.292712
-0.063440 -0.093844 0.292339
-0.062025 -0.093789 0.292128
-0.060569 -0.093668 0.291712
-0.059119 -0.093551 0.291307
-0.057796 -0.093633 0.291522
-0.056424 -0.093639 0.291497
-0.055029 -0.093607 0.291356
-0.053653 -0.093605 0.291306
-0.052269 -0.093590 0.291214
-0.050926 -0.093649 0.291354
-0.049528 -0.093608 0.291182
-0.048038 -0.093386 0.290445
-0.046745 -0.093545 0.290893
-0.045390 -0.093586 0.290975
-0.043780 -0.093086 0.289376
-0.043041 -0.094468 0.293626
-0.042070 -0.095415 0.296523
-0.040697 -0.095484 0.296692
-0.038000 -0.092340 0.286880
-0.036759 -0.092632 0.287744
-0.035420 -0.092694 0.287892
-0.031721 -0.086335 0.268103
-0.030469 -0.086384 0.268213
-0.028870 -0.085410 0.265152
-0.027423 -0.084819 0.263281
-0.026099 -0.084569 0.262469
-0.024803 -0.084393 0.261886
-0.023564 -0.084399 0.261870
-0.022339 -0.084463 0.262033
-0.021169 -0.084751 0.262894
-0.020031 -0.085212 0.264294
-0.018910 -0.085813 0.266126
-0.017787 -0.086489 0.268192
-0.016524 -0.086537 0.268311
-0.015329 -0.086983 0.269667
-0.014076 -0.087143 0.270136
-0.012750 -0.086846 0.269187
-0.011485 -0.086941 0.269458
-0.010210 -0.086979 0.269553
-0.008864 -0.086334 0.267531
-0.007624 -0.086675 0.268568
-0.006328 -0.086404 0.267710
-0.005059 -0.086432 0.267780
-0.003803 -0.086809 0.268932
-0.002523 -0.086704 0.268591
-0.001253 -0.087118 0.269861
0.000030 -0.087116 0.269842
0.001313 -0.087170 0.269999
0.002603 -0.087403 0.270711
0.003856 -0.086645 0.268354
0.005060 -0.085446 0.264635
0.006280 -0.084931 0.263038
0.007513 -0.084738 0.262436
0.008732 -0.084462 0.261579
0.009925 -0.084033 0.260249
0.011147 -0.083922 0.259906
0.012379 -0.083895 0.259824
0.013602 -0.083822 0.259600
0.014880 -0.084065 0.260359
0.016134 -0.084149 0.260625
0.017430 -0.084422 0.261478
0.018743 -0.084740 0.262470
0.019993 -0.084748 0.262503
0.021162 -0.084433 0.261536
0.022196 -0.083643 0.259101
0.023566 -0.084134 0.260634
0.024696 -0.083764 0.259501
0.025731 -0.083123 0.257527
0.026944 -0.083085 0.257425
0.028064 -0.082781 0.256498
0.029427 -0.083186 0.257769
0.030774 -0.083514 0.258801
0.032050 -0.083633 0.259187
0.033449 -0.084054 0.260509
0.034834 -0.084407 0.261623
0.036219 -0.084739 0.262668
0.037378 -0.084535 0.262055
0.038399 -0.084043 0.260548
0.039938 -0.084680 0.262544
0.041015 -0.084329 0.261475
0.041831 -0.083477 0.258852
0.042422 -0.082238 0.255027
0.043788 -0.082528 0.255945
0.045144 -0.082784 0.256759
0.046101 -0.082314 0.255316
0.047366 -0.082404 0.255613
0.048690 -0.082589 0.256203
0.049912 -0.082596 0.256242
0.051271 -0.082825 0.256968
0.052540 -0.082901 0.257217
0.053901 -0.083114 0.257893
0.056956 -0.085873 0.266466
0.059270 -0.087418 0.271272
0.060447 -0.087257 0.270783
0.061989 -0.087618 0.271912
0.063688 -0.088181 0.273667
0.064932 -0.088104 0.273434
0.066151 -0.087999 0.273110
0.067495 -0.088058 0.273297
0.068786 -0.088048 0.273266
0.069951 -0.087881 0.272744
0.070981 -0.087552 0.271720
0.072294 -0.087579 0.271794
0.073543 -0.087527 0.271625
0.074483 -0.087116 0.270338
0.075744 -0.087089 0.270237
0.077013 -0.087071 0.270163
0.078515 -0.087314 0.270895
0.079824 -0.087336 0.270939
0.081206 -0.087436 0.271221
0.083238 -0.088223 0.273630
0.084786 -0.088480 0.274391
0.086246 -0.088639 0.274843
0.088713 -0.089812 0.278436
0.096367 -0.096125 0.297953
0.097676 -0.096017 0.297561
0.097844 -0.094807 0.293747
0.099370 -0.094928 0.294054
0.100997 -0.095141 0.294641
0.102066 -0.094829 0.293597
0.103473 -0.094837 0.293535
0.105004 -0.094955 0.293810
0.106408 -0.094956 0.293718
0.107800 -0.094948 0.293587
0.109218 -0.094963 0.293523
0.110609 -0.094953 0.293374
0.111991 -0.094936 0.293197
0.113384 -0.094929 0.293042
0.114938 -0.095055 0.293291
0.116496 -0.095181 0.293530
0.117933 -0.095206 0.293451
0.119467 -0.095308 0.293601
0.120986 -0.095396 0.293695
0.122621 -0.095572 0.294053
0.123863 -0.095442 0.293457
0.125373 -0.095518 0.293488
0.127019 -0.095695 0.293815
0.128435 -0.095697 0.293596
0.130072 -0.095861 0.293863
0.131595 -0.095939 0.293852
0.133184 -0.096062 0.293969
0.134709 -0.096138 0.293926
0.136410 -0.096336 0.294245
0.138099 -0.096522 0.294512
0.139689 -0.096634 0.294541
0.141107 -0.096627 0.294190
0.142763 -0.096782 0.294316
0.144370 -0.096900 0.294315
0.145870 -0.096945 0.294076
0.147415 -0.097018 0.293906
0.148966 -0.097094 0.293724
0.150455 -0.097128 0.293400
0.152005 -0.097201 0.293173
0.153422 -0.097188 0.292665
0.155050 -0.097307 0.292539
0.156988 -0.097618 0.292962
-0.144048 -0.086363 0.265582
-0.143006 -0.086507 0.266445
-0.141742 -0.086518 0.266886
-0.140497 -0.086542 0.267347
-0.139340 -0.086621 0.267963
-0.138171 -0.086694 0.268544
-0.136931 -0.086723 0.268977
-0.135782 -0.086811 0.269578
-0.134621 -0.086894 0.270149
-0.133451 -0.086972 0.270692
-0.132265 -0.087042 0.271195
-0.131125 -0.087143 0.271786
-0.129863 -0.087165 0.272118
-0.128643 -0.087215 0.272526
-0.127424 -0.087268 0.272930
-0.126294 -0.087383 0.273519
-0.125052 -0.087422 0.273861
-0.123814 -0.087465 0.274204
-0.122728 -0.087618 0.274880
-0.121523 -0.087688 0.275287
-0.120269 -0.087724 0.275579
-0.119090 -0.087816 0.276038
-0.117808 -0.087834 0.276253
-0.116641 -0.087938 0.276735
-0.115369 -0.087965 0.276963
-0.114393 -0.088221 0.277905
-0.113159 -0.088283 0.278226
-0.111876 -0.088306 0.278419
-0.110887 -0.088565 0.279349
-0.109433 -0.088454 0.279106
-0.108155 -0.088485 0.279303
-0.106908 -0.088543 0.279575
-0.105521 -0.088484 0.279476
-0.104373 -0.088628 0.280008
-0.103224 -0.088774 0.280542
-0.102253 -0.089079 0.281573
-0.100999 -0.089142 0.281833
-0.099822 -0.089275 0.282312
-0.099014 -0.089747 0.283854
-0.097825 -0.089882 0.284327
-0.096315 -0.089722 0.283862
-0.095332 -0.090056 0.284951
-0.094339 -0.090389 0.286035
-0.094990 -0.092329 0.292202
-0.100640 -0.099257 0.314153
-0.099281 -0.099376 0.314548
-0.097362 -0.098931 0.313152
-0.096057 -0.099103 0.313709
-0.095026 -0.099570 0.315193
-0.093363 -0.099378 0.314588
-0.091688 -0.099168 0.313920
-0.090423 -0.099401 0.314651
-0.089260 -0.099756 0.315766
-0.087635 -0.099598 0.315254
-0.086081 -0.099516 0.314981
-0.084927 -0.099903 0.316187
-0.083137 -0.099542 0.315021
-0.081346 -0.099167 0.313811
-0.080059 -0.099403 0.314532
-0.078664 -0.099513 0.314850
-0.071755 -0.092517 0.292686
-0.069989 -0.092007 0.291042
-0.068673 -0.092082 0.291244
-0.067316 -0.092103 0.291277
-0.065967 -0.092137 0.291347
-0.064634 -0.092194 0.291491
-0.063298 -0.092250 0.291626
-0.061901 -0.092218 0.291485
-0.060541 -0.092240 0.291512
-0.059193 -0.092283 0.291605
-0.057834 -0.092310 0.291646
-0.056476 -0.092340 0.291697
-0.055064 -0.092281 0.291466
-0.053718 -0.092332 0.291580
-0.052353 -0.092353 0.291601
-0.050914 -0.092241 0.291198
-0.049561 -0.092284 0.291288
-0.048114 -0.092149 0.290815
-0.046773 -0.092215 0.290975
-0.045402 -0.092223 0.290953
-0.043943 -0.092050 0.290359
-0.042705 -0.092340 0.291227
-0.042293 -0.094498 0.297982
-0.040913 -0.094567 0.298153
-0.038169 -0.091376 0.288046
-0.036803 -0.091369 0.287978
-0.035463 -0.091430 0.288126
-0.031514 -0.084498 0.266240
-0.030445 -0.085037 0.267895
-0.028841 -0.084058 0.264773
-0.027413 -0.083531 0.263076
-0.026121 -0.083386 0.262581
-0.024851 -0.083300 0.262271
-0.023664 -0.083499 0.262862
-0.022463 -0.083666 0.263352
-0.021293 -0.083978 0.264300
-0.020100 -0.084232 0.265069
-0.018900 -0.084489 0.265845
-0.017738 -0.084966 0.267313
-0.016480 -0.085017 0.267444
-0.015248 -0.085229 0.268083
-0.014109 -0.086041 0.270608
-0.012790 -0.085810 0.269855
-0.011456 -0.085419 0.268601
-0.010238 -0.085905 0.270104
-0.008956 -0.085906 0.270086
-0.007652 -0.085680 0.269355
-0.006394 -0.085968 0.270241
-0.005109 -0.085950 0.270165
-0.003817 -0.085766 0.269570
-0.002541 -0.085925 0.270057
-0.001257 -0.085902 0.269969
0.000026 -0.086139 0.270704
0.001311 -0.085986 0.270212
0.002594 -0.085954 0.270100
0.003867 -0.085700 0.269298
0.005077 -0.084538 0.265638
0.006296 -0.083939 0.263752
0.007543 -0.083868 0.263526
0.008744 -0.083370 0.261960
0.009952 -0.083049 0.260951
0.011178 -0.082938 0.260603
0.012413 -0.082913 0.260528
0.013624 -0.082737 0.259979
0.014918 -0.083058 0.260991
0.016192 -0.083225 0.261522
0.017536 -0.083703 0.263031
0.018891 -0.084166 0.264495
0.020266 -0.084656 0.266046
0.021407 -0.084166 0.264517
0.022535 -0.083682 0.263008
0.023830 -0.083838 0.263513
0.024958 -0.083420 0.262211
0.026087 -0.083041 0.261037
0.027264 -0.082846 0.260440
0.028308 -0.082280 0.258676
0.029595 -0.082437 0.259188
0.030822 -0.082424 0.259165
0.031930 -0.082104 0.258176
0.033303 -0.082462 0.259321
0.034616 -0.082653 0.259942
0.035898 -0.082759 0.260296
0.037267 -0.083051 0.261232
0.038463 -0.082952 0.260944
0.039786 -0.083124 0.261503
0.041009 -0.083082 0.261394
0.041954 -0.082496 0.259572
0.042862 -0.081874 0.257635
0.044038 -0.081783 0.257369
0.045267 -0.081793 0.257421
0.046232 -0.081339 0.256010
0.047419 -0.081288 0.255869
0.048694 -0.081386 0.256197
0.049869 -0.081317 0.255998
0.051391 -0.081802 0.257542
0.052484 -0.081599 0.256920
0.053881 -0.081866 0.257777
0.056239 -0.083550 0.263093
0.058995 -0.085738 0.269998
0.060567 -0.086148 0.271304
0.061844 -0.086132 0.271264
0.063581 -0.086743 0.273198
0.064895 -0.086763 0.273272
0.066143 -0.086697 0.273070
0.067224 -0.086418 0.272196
0.068447 -0.086329 0.271919
0.069590 -0.086145 0.271341
0.070837 -0.086093 0.271174
0.072000 -0.085942 0.270696
0.073389 -0.086063 0.271070
0.074687 -0.086074 0.271094
0.075913 -0.086002 0.270857
0.077310 -0.086125 0.271227
0.078616 -0.086142 0.271265
0.079816 -0.086046 0.270939
0.081597 -0.086569 0.272560
0.083489 -0.087191 0.274491
0.084869 -0.087267 0.274697
0.086523 -0.087618 0.275766
0.088677 -0.088458 0.278367
0.095261 -0.093627 0.294586
0.096554 -0.093521 0.294199
0.097740 -0.093316 0.293495
0.098978 -0.093166 0.292960
0.100672 -0.093443 0.293762
0.102153 -0.093517 0.293922
0.103221 -0.093216 0.292895
0.104833 -0.093409 0.293415
0.106318 -0.093484 0.293558
0.107605 -0.093385 0.293147
0.109094 -0.093462 0.293284
0.110503 -0.093469 0.293195
0.111784 -0.093369 0.292762
0.113294 -0.093460 0.292920
0.114825 -0.093567 0.293119
0.116437 -0.093735 0.293503
0.117979 -0.093844 0.293692
0.119503 -0.093937 0.293822
0.120960 -0.093976 0.293772
0.122639 -0.094183 0.294242
0.124170 -0.094273 0.294334
0.125591 -0.094279 0.294154
0.127101 -0.094351 0.294169
0.128508 -0.094345 0.293931
0.129906 -0.094333 0.293662
0.131465 -0.094437 0.293744
0.132818 -0.094392 0.293351
0.134351 -0.094475 0.293342
0.135860 -0.094539 0.293262
0.137392 -0.094617 0.293213
0.139003 -0.094748 0.293313
0.140884 -0.095058 0.293951
0.142475 -0.095168 0.293957
0.144127 -0.095316 0.294061
0.145668 -0.095389 0.293918
0.147257 -0.095491 0.293850
0.148789 -0.095555 0.293644
0.150413 -0.095675 0.293595
0.151888 -0.095700 0.293233
0.153262 -0.095661 0.292658
0.155004 -0.095850 0.292758
0.156763 -0.096046 0.292858
-0.144079 -0.085088 0.265890
-0.142977 -0.085195 0.266638
-0.141940 -0.085342 0.267496
-0.140683 -0.085360 0.267931
-0.139530 -0.085441 0.268551
-0.138390 -0.085531 0.269184
-0.137182 -0.085582 0.269679
-0.136019 -0.085662 0.270252
-0.134827 -0.085724 0.270756
-0.133637 -0.085790 0.271258
-0.132397 -0.085824 0.271648
-0.131245 -0.085917 0.272211
-0.130131 -0.086037 0.272848
-0.128979 -0.086134 0.273402
-0.127806 -0.086219 0.273906
-0.126612 -0.086291 0.274358
-0.125510 -0.086429 0.275010
-0.124308 -0.086500 0.275438
-0.123046 -0.086530 0.275726
-0.121884 -0.086632 0.276235
-0.120677 -0.086704 0.276639
-0.119439 -0.086755 0.276967
-0.118157 -0.086775 0.277187
-0.116995 -0.086885 0.277684
-0.115887 -0.087037 0.278312
-0.114697 -0.087131 0.278744
-0.113514 -0.087233 0.279193
-0.112320 -0.087328 0.279613
-0.111235 -0.087513 0.280313
-0.109874 -0.087481 0.280311
-0.108557 -0.087485 0.280418
-0.107243 -0.087490 0.280522
-0.105918 -0.087487 0.280593
-0.104690 -0.087565 0.280919
-0.103445 -0.087631 0.281199
-0.102248 -0.087740 0.281612
-0.101060 -0.087860 0.282054
-0.099987 -0.088083 0.282823
-0.098987 -0.088380 0.283821
-0.097856 -0.088564 0.284455
-0.096546 -0.088590 0.284574
-0.095409 -0.088778 0.285210
-0.094233 -0.088934 0.285738
-0.093006 -0.089047 0.286122
-0.091771 -0.089155 0.286486
-0.099400 -0.098005 0.314940
-0.095949 -0.096034 0.308618
-0.095298 -0.096848 0.311238
-0.094988 -0.098039 0.315068
-0.092425 -0.096906 0.311425
-0.091546 -0.097530 0.313427
-0.090272 -0.097748 0.314117
-0.089151 -0.098141 0.315367
-0.087939 -0.098445 0.316328
-0.086334 -0.098313 0.315884
-0.085097 -0.098602 0.316793
-0.083693 -0.098705 0.317098
-0.081043 -0.097316 0.312608
-0.079648 -0.097411 0.312883
-0.078262 -0.097520 0.313199
-0.071727 -0.091094 0.292529
-0.070054 -0.090712 0.291269
-0.068762 -0.090818 0.291574
-0.067465 -0.090922 0.291869
-0.066093 -0.090928 0.291848
-0.064718 -0.090930 0.291814
-0.063418 -0.091038 0.292119
-0.061972 -0.090939 0.291756
-0.060591 -0.090931 0.291689
-0.059260 -0.091001 0.291865
-0.057893 -0.091017 0.291870
-0.056494 -0.090982 0.291711
-0.055089 -0.090937 0.291520
-0.053743 -0.090988 0.291634
-0.052315 -0.090901 0.291305
-0.050908 -0.090846 0.291079
-0.049522 -0.090827 0.290969
-0.048126 -0.090787 0.290793
-0.046772 -0.090827 0.290871
-0.045369 -0.090772 0.290645
-0.043896 -0.090569 0.289943
-0.042330 -0.090155 0.288570
-0.042267 -0.093021 0.297695
-0.040889 -0.093090 0.297865
-0.038210 -0.090099 0.288245
-0.036889 -0.090205 0.288537
-0.035547 -0.090266 0.288686
-0.031423 -0.082988 0.265368
-0.030343 -0.083474 0.266878
-0.028891 -0.082937 0.265122
-0.027362 -0.082120 0.262468
-0.026063 -0.081946 0.261875
-0.024821 -0.081945 0.261834
-0.023645 -0.082173 0.262525
-0.022477 -0.082456 0.263392
-0.021334 -0.082869 0.264677
-0.020226 -0.083481 0.266597
-0.019065 -0.083938 0.268021
-0.017852 -0.084217 0.268881
-0.016689 -0.084793 0.270687
-0.015420 -0.084879 0.270933
-0.014169 -0.085097 0.271601
-0.012898 -0.085218 0.271958
-0.011551 -0.084814 0.270645
-0.010237 -0.084579 0.269871
-0.008979 -0.084810 0.270585
-0.007704 -0.084929 0.270944
-0.006446 -0.085324 0.272184
-0.005141 -0.085136 0.271563
-0.003859 -0.085335 0.272183
-0.002563 -0.085242 0.271870
-0.001265 -0.084881 0.270705
0.000023 -0.085127 0.271478
0.001316 -0.085281 0.271957
0.002600 -0.084974 0.270969
0.003878 -0.084732 0.270190
0.005126 -0.084133 0.268276
0.006345 -0.083385 0.265885
0.007579 -0.083048 0.264807
0.008794 -0.082623 0.263451
0.010007 -0.082288 0.262385
0.011219 -0.082025 0.261548
0.012433 -0.081825 0.260913
0.013648 -0.081667 0.260412
0.014937 -0.081943 0.261299
0.016182 -0.081953 0.261337
0.017558 -0.082575 0.263330
0.018856 -0.082772 0.263970
0.020196 -0.083118 0.265081
0.021454 -0.083106 0.265055
0.022653 -0.082878 0.264344
0.024006 -0.083207 0.265406
0.025090 -0.082618 0.263542
0.026241 -0.082295 0.262529
0.027470 -0.082235 0.262353
0.028498 -0.081604 0.260360
0.029649 -0.081364 0.259611
0.030870 -0.081326 0.259511
0.031894 -0.080794 0.257833
0.033191 -0.080965 0.258399
0.034562 -0.081299 0.259486
0.035942 -0.081629 0.260562
0.037105 -0.081462 0.260050
0.038426 -0.081642 0.260646
0.039420 -0.081135 0.259050
0.040694 -0.081220 0.259346
0.041913 -0.081192 0.259278
0.042724 -0.080399 0.256767
0.043910 -0.080334 0.256583
0.045258 -0.080562 0.257333
0.046293 -0.080235 0.256313
0.047450 -0.080131 0.256001
0.048660 -0.080120 0.255986
0.049919 -0.080188 0.256224
0.051215 -0.080310 0.256634
0.052396 -0.080250 0.256460
0.053965 -0.080774 0.258155
0.056214 -0.082270 0.262952
0.058667 -0.083993 0.268476
0.060280 -0.084464 0.269997
0.061631 -0.084557 0.270311
0.063240 -0.084994 0.271719
0.064870 -0.085438 0.273152
0.066104 -0.085356 0.272898
0.067148 -0.085035 0.271881
0.068412 -0.085001 0.271777
0.069665 -0.084954 0.271630
0.070985 -0.084988 0.271742
0.072335 -0.085057 0.271959
0.073502 -0.084912 0.271493
0.074995 -0.085141 0.272221
0.076354 -0.085214 0.272446
0.077580 -0.085138 0.272191
0.079105 -0.085388 0.272974
0.080687 -0.085689 0.273918
0.082528 -0.086252 0.275696
0.084115 -0.086536 0.276578
0.085352 -0.086456 0.276293
0.086963 -0.086752 0.277207
0.088988 -0.087446 0.279386
0.093977 -0.090989 0.290663
0.095251 -0.090885 0.290281
0.097859 -0.092038 0.293909
0.099195 -0.091979 0.293663
0.100729 -0.092103 0.293993
0.101890 -0.091887 0.293233
0.103142 -0.091757 0.292744
0.104665 -0.091869 0.293019
0.106026 -0.091838 0.292832
0.107439 -0.091852 0.292783
0.108914 -0.091917 0.292891
0.110327 -0.091930 0.292823
0.111862 -0.092042 0.293067
0.113305 -0.092077 0.293053
0.114775 -0.092133 0.293102
0.116333 -0.092256 0.293357
0.117791 -0.092299 0.293346
0.119221 -0.092319 0.293255
0.120518 -0.092237 0.292830
0.122027 -0.092316 0.292909
0.123549 -0.092404 0.293005
0.124798 -0.092288 0.292446
0.126390 -0.092425 0.292678
0.127989 -0.092564 0.292905
0.129597 -0.092706 0.293133
0.131150 -0.092806 0.293215
0.132701 -0.092903 0.293272
0.134295 -0.093028 0.293407
0.135724 -0.093036 0.293161
0.137218 -0.093089 0.293042
0.138697 -0.093130 0.292875
0.140253 -0.093222 0.292850
0.142145 -0.093532 0.293499
0.144111 -0.093885 0.294263
0.145648 -0.093954 0.294119
0.147195 -0.094029 0.293976
0.148833 -0.094159 0.293990
0.150308 -0.094184 0.293657
0.151828 -0.094237 0.293395
0.153233 -0.094217 0.292887
0.154727 -0.094253 0.292531
0.156509 -0.094461 0.292691
-0.144456 -0.084014 0.266833
-0.143300 -0.084089 0.267477
-0.142159 -0.084175 0.268139
-0.141003 -0.084254 0.268763
-0.139872 -0.084349 0.269424
-0.138724 -0.084435 0.270044
-0.137516 -0.084487 0.270538
-0.136322 -0.084548 0.271048
-0.135167 -0.084634 0.271627
-0.133892 -0.084647 0.271958
-0.132695 -0.084710 0.272435
-0.131467 -0.084755 0.272840
-0.130527 -0.084988 0.273843
-0.129529 -0.085187 0.274726
-0.128147 -0.085135 0.274789
-0.127143 -0.085337 0.275657
-0.126115 -0.085525 0.276475
-0.124785 -0.085512 0.276629
-0.123502 -0.085530 0.276877
-0.122278 -0.085591 0.277252
-0.121010 -0.085622 0.277522
-0.119815 -0.085705 0.277952
-0.118589 -0.085769 0.278309
-0.117296 -0.085784 0.278502
-0.116087 -0.085862 0.278890
-0.115099 -0.086108 0.279816
-0.113875 -0.086180 0.280169
-0.112741 -0.086324 0.280748
-0.111548 -0.086425 0.281181
-0.110478 -0.086625 0.281928
-0.109324 -0.086763 0.282470
-0.108163 -0.086899 0.282996
-0.107262 -0.087251 0.284219
-0.106564 -0.087778 0.286007
-0.105532 -0.088040 0.286927
-0.103808 -0.087725 0.285960
-0.103341 -0.088477 0.288465
-0.100431 -0.087130 0.284121
-0.099665 -0.087632 0.285801
-0.098293 -0.087607 0.285758
-0.096849 -0.087516 0.285495
-0.095906 -0.087884 0.286721
-0.094519 -0.087847 0.286625
-0.093091 -0.087772 0.286399
-0.091371 -0.087416 0.285251
-0.094848 -0.092094 0.300527
-0.096246 -0.094866 0.309578
-0.094905 -0.094981 0.309957
-0.094216 -0.095763 0.312507
-0.093074 -0.096102 0.313606
-0.091100 -0.095579 0.311890
-0.090284 -0.096274 0.314145
-0.089108 -0.096602 0.315199
-0.087894 -0.096898 0.316147
-0.086648 -0.097169 0.317007
-0.085011 -0.097005 0.316446
-0.083720 -0.097236 0.317171
-0.081805 -0.096737 0.315512
-0.079826 -0.096143 0.313542
-0.078437 -0.096251 0.313859
-0.072129 -0.090211 0.294127
-0.070214 -0.089536 0.291889
-0.068918 -0.089640 0.292187
-0.067621 -0.089746 0.292494
-0.066249 -0.089755 0.292481
-0.064900 -0.089796 0.292571
-0.063545 -0.089832 0.292643
-0.062140 -0.089796 0.292480
-0.060749 -0.089781 0.292381
-0.059336 -0.089730 0.292168
-0.057943 -0.089708 0.292047
-0.056511 -0.089623 0.291722
-0.055119 -0.089600 0.291597
-0.053761 -0.089632 0.291647
-0.052333 -0.089547 0.291321
-0.050875 -0.089403 0.290799
-0.049547 -0.089487 0.291022
-0.048200 -0.089540 0.291143
-0.046768 -0.089434 0.290747
-0.045429 -0.089506 0.290929
-0.044054 -0.089509 0.290887
-0.042049 -0.088189 0.286546
-0.042529 -0.092170 0.299426
-0.041143 -0.092239 0.299599
-0.038492 -0.089378 0.290257
-0.037273 -0.089753 0.291424
-0.033159 -0.082918 0.269186
-0.031401 -0.081661 0.265063
-0.030282 -0.082033 0.266225
-0.028730 -0.081214 0.263525
-0.027338 -0.080792 0.262115
-0.026012 -0.080534 0.261237
-0.024780 -0.080558 0.261277
-0.023594 -0.080740 0.261829
-0.022416 -0.080972 0.262544
-0.021213 -0.081136 0.263039
-0.020056 -0.081510 0.264215
-0.018919 -0.082014 0.265817
-0.017784 -0.082605 0.267699
-0.016620 -0.083142 0.269406
-0.015428 -0.083619 0.270923
-0.014172 -0.083802 0.271486
-0.012930 -0.084111 0.272459
-0.011682 -0.084453 0.273538
-0.010377 -0.084409 0.273370
-0.009047 -0.084125 0.272429
-0.007785 -0.084484 0.273568
-0.006475 -0.084356 0.273133
-0.005159 -0.084071 0.272191
-0.003887 -0.084574 0.273805
-0.002548 -0.083370 0.269891
-0.001267 -0.083525 0.270378
0.000019 -0.084463 0.273401
0.001311 -0.083918 0.271628
0.002599 -0.083759 0.271105
0.003876 -0.083492 0.270233
0.005119 -0.082802 0.267996
0.006365 -0.082416 0.266740
0.007571 -0.081740 0.264549
0.008785 -0.081314 0.263172
0.010008 -0.081079 0.262410
0.011226 -0.080858 0.261699
0.012448 -0.080706 0.261211
0.013690 -0.080696 0.261184
0.014962 -0.080855 0.261703
0.016248 -0.081053 0.262354
0.017571 -0.081396 0.263471
0.018933 -0.081862 0.264992
0.020220 -0.081968 0.265345
0.021531 -0.082152 0.265954
0.022788 -0.082118 0.265858
0.023989 -0.081899 0.265167
0.025167 -0.081625 0.264294
0.026297 -0.081229 0.263032
0.027412 -0.080827 0.261747
0.028511 -0.080414 0.260428
0.029810 -0.080575 0.260970
0.030916 -0.080221 0.259844
0.032173 -0.080272 0.260032
0.033508 -0.080508 0.260818
0.034762 -0.080537 0.260934
0.036044 -0.080627 0.261252
0.037631 -0.081371 0.263687
0.038634 -0.080845 0.262003
0.039830 -0.080743 0.261699
0.041139 -0.080870 0.262134
0.041877 -0.079899 0.259013
0.042910 -0.079529 0.257838
0.044024 -0.079328 0.257209
0.045160 -0.079173 0.256733
0.046411 -0.079225 0.256924
0.047602 -0.079174 0.256782
0.048820 -0.079169 0.256789
0.050187 -0.079400 0.257563
0.051449 -0.079458 0.257771
0.052811 -0.079664 0.258462
0.054583 -0.080464 0.261080
0.056700 -0.081726 0.265195
0.058697 -0.082766 0.268587
0.059998 -0.082799 0.268713
0.061615 -0.083258 0.270219
0.063277 -0.083757 0.271857
0.064630 -0.083837 0.272130
0.065957 -0.083880 0.272281
0.067279 -0.083914 0.272404
0.068382 -0.083679 0.271648
0.069753 -0.083776 0.271970
0.071006 -0.083728 0.271820
0.072207 -0.083623 0.271479
0.073342 -0.083446 0.270905
0.074798 -0.083634 0.271513
0.075968 -0.083502 0.271078
0.077324 -0.083574 0.271305
0.079034 -0.084021 0.272745
0.080558 -0.084259 0.273501
0.082223 -0.084634 0.274701
0.083899 -0.085008 0.275893
0.085360 -0.085156 0.276348
0.086660 -0.085142 0.276273
0.088568 -0.085717 0.278104
0.095163 -0.090744 0.294373
0.096452 -0.090638 0.293986
0.097703 -0.090501 0.293492
0.098878 -0.090298 0.292778
0.100219 -0.090250 0.292562
0.101673 -0.090304 0.292671
0.103148 -0.090374 0.292829
0.104484 -0.090323 0.292586
0.105930 -0.090367 0.292644
0.107430 -0.090454 0.292838
0.108953 -0.090559 0.293083
0.110368 -0.090573 0.293022
0.111814 -0.090611 0.293035
0.113199 -0.090599 0.292880
0.114628 -0.090622 0.292829
0.116100 -0.090678 0.292878
0.117690 -0.090824 0.293209
0.119181 -0.090891 0.293275
0.120551 -0.090866 0.293035
0.122076 -0.090956 0.293158
0.123560 -0.091014 0.293168
0.125004 -0.091041 0.293070
0.126738 -0.091276 0.293631
0.128087 -0.091233 0.293285
0.129507 -0.091240 0.293089
0.131168 -0.091414 0.293421
0.132555 -0.091397 0.293124
0.134263 -0.091598 0.293517
0.135625 -0.091561 0.293134
0.137137 -0.091626 0.293063
0.138750 -0.091756 0.293187
0.140365 -0.091884 0.293292
0.142077 -0.092073 0.293575
0.143944 -0.092358 0.294147
0.145602 -0.092503 0.294259
0.147133 -0.092567 0.294093
0.148736 -0.092673 0.294047
0.150480 -0.092865 0.294252
0.151918 -0.092866 0.293835
0.153304 -0.092835 0.293299
0.154926 -0.092946 0.293192
0.156564 -0.093065 0.293090
-0.144559 -0.082777 0.267260
-0.143535 -0.082928 0.268144
-0.142457 -0.083050 0.268922
-0.141265 -0.083108 0.269477
-0.140095 -0.083180 0.270061
-0.138962 -0.083275 0.270707
-0.137789 -0.083348 0.271269
-0.136600 -0.083413 0.271788
-0.135477 -0.083520 0.272433
-0.134369 -0.083638 0.273101
-0.133200 -0.083721 0.273642
-0.132203 -0.083914 0.274532
-0.131164 -0.084084 0.275336
-0.130040 -0.084203 0.275961
-0.128909 -0.084320 0.276568
-0.127541 -0.084283 0.276660
-0.126442 -0.084424 0.277328
-0.125183 -0.084461 0.277642
-0.123794 -0.084410 0.277657
-0.122623 -0.084508 0.278154
-0.121329 -0.084523 0.278366
-0.120063 -0.084557 0.278636
-0.118893 -0.084661 0.279126
-0.117628 -0.084700 0.279390
-0.116585 -0.084900 0.280181
-0.115502 -0.085076 0.280884
-0.114520 -0.085331 0.281842
-0.113138 -0.085291 0.281817
-0.112335 -0.085691 0.283240
-0.111282 -0.085909 0.284053
-0.109623 -0.085658 0.283309
-0.110538 -0.087437 0.289276
-0.109521 -0.087713 0.290262
-0.108169 -0.087724 0.290369
-0.107001 -0.087888 0.290972
-0.105819 -0.088043 0.291545
-0.104162 -0.087803 0.290800
-0.103468 -0.088379 0.292753
-0.099363 -0.086017 0.284968
-0.099025 -0.086897 0.287915
-0.097205 -0.086482 0.286570
-0.095782 -0.086415 0.286371
-0.094938 -0.086875 0.287914
-0.093208 -0.086526 0.286774
-0.091708 -0.086383 0.286310
-0.094960 -0.090780 0.300891
-0.093874 -0.091100 0.301952
-0.094494 -0.093110 0.308613
-0.093335 -0.093402 0.309577
-0.092512 -0.094047 0.311704
-0.091644 -0.094664 0.313738
-0.090803 -0.095331 0.315932
-0.089313 -0.095328 0.315900
-0.087789 -0.095288 0.315744
-0.086592 -0.095607 0.316774
-0.085250 -0.095774 0.317300
-0.083733 -0.095748 0.317181
-0.081531 -0.094923 0.314414
-0.080270 -0.095184 0.315240
-0.078874 -0.095292 0.315559
-0.071659 -0.088238 0.292161
-0.070244 -0.088190 0.291961
-0.068946 -0.088290 0.292251
-0.067618 -0.088354 0.292421
-0.066238 -0.088353 0.292371
-0.064862 -0.088357 0.292339
-0.063536 -0.088431 0.292535
-0.062170 -0.088451 0.292553
-0.060712 -0.088337 0.292126
-0.059360 -0.088379 0.292212
-0.057997 -0.088403 0.292241
-0.056587 -0.088356 0.292034
-0.055203 -0.088349 0.291958
-0.053785 -0.088285 0.291693
-0.052358 -0.088204 0.291371
-0.050893 -0.088051 0.290811
-0.049578 -0.088158 0.291112
-0.048155 -0.088072 0.290772
-0.046795 -0.088102 0.290817
-0.045445 -0.088152 0.290928
-0.043912 -0.087838 0.289839
-0.042231 -0.087199 0.287678
-0.042339 -0.090336 0.297973
-0.040959 -0.090405 0.298145
-0.038521 -0.088059 0.290358
-0.037150 -0.088070 0.290342
-0.035799 -0.088131 0.290493
-0.031408 -0.080413 0.265007
-0.030113 -0.080310 0.264624
-0.028887 -0.080391 0.264847
-0.027356 -0.079591 0.262167
-0.026075 -0.079477 0.261751
-0.024875 -0.079610 0.262148
-0.023666 -0.079729 0.262500
-0.022470 -0.079906 0.263045
-0.021281 -0.080128 0.263740
-0.020141 -0.080578 0.265183
-0.018988 -0.081033 0.266645
-0.017771 -0.081259 0.267354
-0.016613 -0.081809 0.269134
-0.015323 -0.081754 0.268919
-0.014199 -0.082650 0.271837
-0.012955 -0.082955 0.272812
-0.011706 -0.083292 0.273893
-0.010398 -0.083249 0.273725
-0.009066 -0.082969 0.272782
-0.007802 -0.083323 0.273923
-0.006489 -0.083197 0.273488
-0.005171 -0.082916 0.272545
-0.003897 -0.083413 0.274161
-0.002539 -0.081675 0.268432
-0.001269 -0.082154 0.269995
0.000016 -0.082696 0.271763
0.001311 -0.082795 0.272076
0.002590 -0.082288 0.270403
0.003862 -0.081979 0.269379
0.005121 -0.081601 0.268131
0.006340 -0.080877 0.265749
0.007546 -0.080248 0.263681
0.008752 -0.079794 0.262189
0.009961 -0.079480 0.261159
0.011179 -0.079299 0.260565
0.012412 -0.079255 0.260427
0.013697 -0.079513 0.261279
0.014956 -0.079593 0.261550
0.016284 -0.079999 0.262891
0.017634 -0.080445 0.264368
0.018981 -0.080820 0.265612
0.020390 -0.081396 0.267519
0.021676 -0.081441 0.267681
0.023002 -0.081624 0.268297
0.024207 -0.081381 0.267514
0.025329 -0.080898 0.265947
0.026491 -0.080581 0.264921
0.027743 -0.080553 0.264849
0.028904 -0.080275 0.263958
0.030092 -0.080093 0.263381
0.031328 -0.080048 0.263254
0.032446 -0.079716 0.262185
0.033506 -0.079272 0.260748
0.034826 -0.079452 0.261365
0.036011 -0.079320 0.260958
0.037383 -0.079599 0.261899
0.038700 -0.079744 0.262403
0.039885 -0.079615 0.262007
0.040988 -0.079338 0.261122
0.042005 -0.078914 0.259752
0.043051 -0.078567 0.258637
0.044168 -0.078366 0.258001
0.045327 -0.078248 0.257639
0.046467 -0.078105 0.257194
0.047663 -0.078059 0.257070
0.048756 -0.077853 0.256415
0.050043 -0.077958 0.256787
0.051424 -0.078201 0.257611
0.052791 -0.078413 0.258333
0.054794 -0.079536 0.262057
0.056636 -0.080383 0.264868
0.058308 -0.080955 0.266776
0.060245 -0.081863 0.269791
0.061655 -0.082033 0.270371
0.063159 -0.082318 0.271327
0.064661 -0.082589 0.272239
0.065901 -0.082522 0.272031
0.067252 -0.082593 0.272280
0.068384 -0.082397 0.271646
0.069550 -0.082249 0.271168
0.070657 -0.082038 0.270478
0.072049 -0.082159 0.270884
0.073137 -0.081935 0.270147
0.074204 -0.081696 0.269359
0.075415 -0.081621 0.269110
0.076632 -0.081554 0.268884
0.077997 -0.081645 0.269176
0.079398 -0.081770 0.269578
0.081120 -0.082216 0.271033
0.082932 -0.082738 0.272735
0.084149 -0.082660 0.272455
0.085549 -0.082760 0.272760
0.087748 -0.083619 0.275563
0.097069 -0.091140 0.300309
0.098382 -0.091033 0.299914
0.097386 -0.088822 0.292585
0.098661 -0.088715 0.292184
0.100066 -0.088728 0.292170
0.101563 -0.088820 0.292411
0.102740 -0.088634 0.291732
0.104413 -0.088875 0.292453
0.105892 -0.088946 0.292608
0.107334 -0.088985 0.292652
0.108845 -0.089080 0.292871
0.110309 -0.089133 0.292950
0.111669 -0.089103 0.292744
0.113072 -0.089107 0.292645
0.114589 -0.089200 0.292831
0.116132 -0.089310 0.293064
0.117589 -0.089352 0.293067
0.119108 -0.089440 0.293212
0.120762 -0.089626 0.293669
0.122030 -0.089524 0.293173
0.123606 -0.089649 0.293408
0.125255 -0.089822 0.293795
0.126614 -0.089786 0.293487
0.128180 -0.089896 0.293645
0.129556 -0.089872 0.293354
0.131030 -0.089915 0.293273
0.132596 -0.090020 0.293380
0.134010 -0.090021 0.293136
0.135452 -0.090040 0.292941
0.136918 -0.090074 0.292783
0.138569 -0.090228 0.292999
0.140390 -0.090489 0.293547
0.142152 -0.090706 0.293938
0.143882 -0.090899 0.294235
0.145373 -0.090939 0.294021
0.147029 -0.091080 0.294117
0.148663 -0.091204 0.294143
0.150235 -0.091289 0.294023
0.151910 -0.091434 0.294077
0.153291 -0.091401 0.293541
0.154881 -0.091492 0.293384
0.156490 -0.091591 0.293235
-0.145574 -0.082052 0.269365
-0.144175 -0.081992 0.269563
-0.143049 -0.082089 0.270257
-0.142012 -0.082238 0.271109
-0.140696 -0.082227 0.271420
-0.139504 -0.082290 0.271959
-0.138235 -0.082307 0.272334
-0.137032 -0.082366 0.272830
-0.135628 -0.082303 0.272911
-0.134760 -0.082567 0.274065
-0.133732 -0.082738 0.274898
-0.132293 -0.082656 0.274876
-0.131851 -0.083200 0.276931
-0.130656 -0.083277 0.277415
-0.129112 -0.083130 0.277145
-0.128088 -0.083318 0.277983
-0.126709 -0.083277 0.278043
-0.125641 -0.083442 0.278782
-0.124381 -0.083481 0.279092
-0.123339 -0.083669 0.279892
-0.122287 -0.083855 0.280673
-0.121133 -0.083974 0.281224
-0.120453 -0.084428 0.282888
-0.119216 -0.084498 0.283256
-0.118817 -0.085169 0.285637
-0.117670 -0.085315 0.286244
-0.116365 -0.085347 0.286465
-0.115561 -0.085752 0.287930
-0.114438 -0.085928 0.288617
-0.113124 -0.085962 0.288823
-0.112313 -0.086384 0.290326
-0.111555 -0.086858 0.291997
-0.110675 -0.087248 0.293377
-0.109720 -0.087587 0.294585
-0.108517 -0.087735 0.295142
-0.107300 -0.087876 0.295668
-0.106277 -0.088182 0.296744
-0.104270 -0.087668 0.295056
-0.101369 -0.086378 0.290751
-0.099020 -0.085531 0.287928
-0.097779 -0.085629 0.288285
-0.096606 -0.085792 0.288851
-0.095232 -0.085778 0.288821
-0.093976 -0.085871 0.289146
-0.092649 -0.085902 0.289257
-0.094795 -0.089201 0.300368
-0.092991 -0.088827 0.299108
-0.094609 -0.091761 0.308982
-0.092939 -0.091547 0.308254
-0.092159 -0.092218 0.310500
-0.091021 -0.092547 0.311589
-0.089923 -0.092927 0.312851
-0.089075 -0.093583 0.315034
-0.087899 -0.093910 0.316110
-0.086406 -0.093905 0.316062
-0.085048 -0.094049 0.316514
-0.083857 -0.094385 0.317611
-0.081758 -0.093695 0.315248
-0.080031 -0.093412 0.314256
-0.078641 -0.093519 0.314575
-0.071980 -0.087242 0.293420
-0.070231 -0.086790 0.291855
-0.068907 -0.086855 0.292029
-0.067604 -0.086950 0.292302
-0.066216 -0.086937 0.292211
-0.064878 -0.086992 0.292346
-0.063505 -0.087000 0.292322
-0.062113 -0.086982 0.292212
-0.060722 -0.086966 0.292104
-0.059300 -0.086902 0.291836
-0.057988 -0.087001 0.292115
-0.056521 -0.086868 0.291612
-0.055059 -0.086734 0.291108
-0.053830 -0.086971 0.291849
-0.052420 -0.086921 0.291622
-0.050994 -0.086840 0.291295
-0.049626 -0.086856 0.291292
-0.048262 -0.086880 0.291318
-0.046916 -0.086941 0.291465
-0.045537 -0.086941 0.291410
-0.044100 -0.086827 0.290972
-0.042199 -0.085764 0.287353
-0.042387 -0.089017 0.298196
-0.041006 -0.089085 0.298368
-0.038463 -0.086542 0.289799
-0.037502 -0.087506 0.292974
-0.036139 -0.087568 0.293127
-0.031490 -0.079353 0.265583
-0.029988 -0.078718 0.263412
-0.028789 -0.078855 0.263824
-0.027440 -0.078577 0.262850
-0.026108 -0.078323 0.261956
-0.024855 -0.078293 0.261814
-0.023608 -0.078277 0.261722
-0.022463 -0.078621 0.262830
-0.021322 -0.079017 0.264118
-0.020256 -0.079759 0.266561
-0.019291 -0.081023 0.270747
-0.017802 -0.080114 0.267676
-0.016724 -0.081052 0.270775
-0.015442 -0.081082 0.270843
-0.013161 -0.075387 0.251791
-0.012045 -0.075901 0.253479
-0.010934 -0.076563 0.255666
-0.009739 -0.076730 0.256200
-0.008566 -0.077137 0.257534
-0.007334 -0.077066 0.257276
-0.006139 -0.077438 0.258497
-0.004904 -0.077359 0.258216
