ply
format ascii 1.0
element vertex 1679
property float x
property float y
property float z
end_header
-0.112298 -0.058895 0.290858
-0.111376 -0.059130 0.292027
-0.110037 -0.059148 0.292112
-0.108425 -0.059017 0.291460
-0.107084 -0.059033 0.291526
-0.106161 -0.059281 0.292738
-0.104720 -0.059244 0.292533
-0.103124 -0.059117 0.291879
-0.101894 -0.059200 0.292256
-0.100819 -0.059376 0.293088
-0.098605 -0.058876 0.290584
-0.096193 -0.058243 0.287415
-0.099698 -0.061226 0.302084
-0.098425 -0.061318 0.302483
-0.097145 -0.061408 0.302873
-0.096191 -0.061711 0.304304
-0.094576 -0.061592 0.303651
-0.093265 -0.061671 0.303972
-0.091740 -0.061608 0.303592
-0.090557 -0.061777 0.304350
-0.088852 -0.061589 0.303348
-0.087539 -0.061671 0.303673
-0.085892 -0.061517 0.302833
-0.084425 -0.061489 0.302610
-0.083660 -0.061981 0.304942
-0.082321 -0.062057 0.305226
-0.080855 -0.062038 0.305042
-0.079985 -0.062484 0.307142
-0.078876 -0.062756 0.308384
-0.076152 -0.062915 0.308966
-0.070358 -0.059265 0.290950
-0.068930 -0.059221 0.290639
-0.067633 -0.059291 0.290884
-0.066250 -0.059285 0.290761
-0.064968 -0.059373 0.291091
-0.063677 -0.059455 0.291399
-0.062194 -0.059359 0.290830
-0.060847 -0.059391 0.290886
-0.059459 -0.059383 0.290748
-0.058076 -0.059381 0.290637
-0.056732 -0.059418 0.290721
-0.055361 -0.059429 0.290677
-0.054013 -0.059466 0.290760
-0.052618 -0.059452 0.290594
-0.051261 -0.059482 0.290642
-0.049926 -0.059539 0.290824
-0.048491 -0.059477 0.290425
-0.047115 -0.059485 0.290369
-0.045736 -0.059491 0.290307
-0.044371 -0.059515 0.290330
-0.042046 -0.058212 0.283885
-0.041670 -0.059611 0.290618
-0.040320 -0.059666 0.290797
-0.038742 -0.059374 0.289288
-0.037072 -0.058915 0.286967
-0.035546 -0.058658 0.285635
-0.031478 -0.054019 0.262970
-0.030058 -0.053727 0.261476
-0.028749 -0.053616 0.260867
-0.027533 -0.053677 0.261098
-0.026294 -0.053697 0.261129
-0.025046 -0.053700 0.261079
-0.023748 -0.053590 0.260484
-0.022590 -0.053804 0.261463
-0.021509 -0.054235 0.263499
-0.020371 -0.054568 0.265064
-0.019359 -0.055304 0.268584
-0.017978 -0.055018 0.267143
-0.016791 -0.055326 0.268588
-0.015601 -0.055674 0.270232
-0.014097 -0.054865 0.266259
-0.012722 -0.054445 0.264181
-0.011381 -0.054097 0.262455
-0.010108 -0.054023 0.262063
-0.008812 -0.053790 0.260899
-0.007557 -0.053769 0.260768
-0.006317 -0.053872 0.261242
-0.005065 -0.053902 0.261360
-0.003790 -0.053619 0.259969
-0.002566 -0.054131 0.262431
-0.001329 -0.055099 0.267111
-0.000046 -0.055487 0.268976
0.001247 -0.055529 0.269173
0.002538 -0.055463 0.268845
0.003837 -0.055568 0.269347
0.005081 -0.055024 0.266712
0.006422 -0.055540 0.269212
0.007707 -0.055475 0.268903
0.008894 -0.054824 0.265751
0.010259 -0.055299 0.268065
0.011549 -0.055307 0.268117
0.012850 -0.055359 0.268387
0.014085 -0.055145 0.267366
0.015434 -0.055376 0.268508
0.016772 -0.055534 0.269296
0.017963 -0.055218 0.267789
0.019161 -0.054963 0.266582
0.020660 -0.055549 0.269456
0.022042 -0.055770 0.270562
0.023330 -0.055742 0.270460
0.023597 -0.053407 0.259168
0.024646 -0.052986 0.257165
0.026051 -0.053334 0.258896
0.027313 -0.053370 0.259114
0.028510 -0.053283 0.258737
0.029817 -0.053398 0.259341
0.031004 -0.053299 0.258914
0.032254 -0.053312 0.259025
0.033605 -0.053484 0.259915
0.034930 -0.053603 0.260546
0.036048 -0.053409 0.259659
0.037758 -0.054074 0.262951
0.039292 -0.054452 0.264852
0.040647 -0.054566 0.265466
0.041865 -0.054496 0.265190
0.043063 -0.054404 0.264802
0.044312 -0.054380 0.264752
0.045276 -0.054017 0.263048
0.046468 -0.053938 0.262731
0.047657 -0.053860 0.262417
0.048729 -0.053657 0.261497
0.050100 -0.053786 0.262189
0.051359 -0.053790 0.262277
0.052651 -0.053828 0.262531
0.054231 -0.054153 0.264183
0.055775 -0.054427 0.265588
0.057670 -0.055023 0.268568
0.059289 -0.055336 0.270165
0.060806 -0.055543 0.271244
0.061976 -0.055430 0.270761
0.063316 -0.055471 0.271029
0.064671 -0.055524 0.271355
0.065809 -0.055391 0.270775
0.067055 -0.055352 0.270650
0.068256 -0.055280 0.270359
0.068930 -0.054790 0.268028
0.069549 -0.054275 0.265571
0.070514 -0.054044 0.264496
0.071332 -0.053710 0.262921
0.072045 -0.053311 0.261020
0.072731 -0.052905 0.259085
0.073517 -0.052583 0.257561
0.074740 -0.052581 0.257597
0.075674 -0.052377 0.256646
0.076998 -0.052446 0.257028
0.078320 -0.052512 0.257392
0.079661 -0.052588 0.257803
0.081069 -0.052706 0.258413
0.082199 -0.052642 0.258132
0.084113 -0.053074 0.260281
0.094351 -0.058670 0.287752
0.095583 -0.058585 0.287363
0.098316 -0.059410 0.291430
0.099909 -0.059533 0.292049
0.101378 -0.059580 0.292291
0.102784 -0.059588 0.292341
0.103928 -0.059447 0.291650
0.105410 -0.059500 0.291910
0.106856 -0.059531 0.292056
0.108107 -0.059455 0.291669
0.109441 -0.059426 0.291507
0.110892 -0.059460 0.291650
0.112202 -0.059418 0.291415
0.113354 -0.059295 0.290774
0.114800 -0.059326 0.290887
0.116290 -0.059380 0.291101
0.117854 -0.059469 0.291482
0.119116 -0.059406 0.291110
0.120668 -0.059487 0.291436
0.122107 -0.059511 0.291474
0.123820 -0.059667 0.292151
0.125338 -0.059726 0.292345
0.126475 -0.059604 0.291646
0.127763 -0.059555 0.291297
0.129364 -0.059652 0.291648
0.130378 -0.059479 0.290672
0.131728 -0.059461 0.290446
0.133491 -0.059628 0.291110
0.134781 -0.059583 0.290729
0.136869 -0.059887 0.292042
0.138566 -0.060016 0.292489
0.140088 -0.060067 0.292543
0.141626 -0.060124 0.292616
0.143180 -0.060187 0.292702
0.144602 -0.060193 0.292500
0.146198 -0.060271 0.292636
0.147723 -0.060318 0.292609
0.149150 -0.060325 0.292370
0.150934 -0.060475 0.292809
0.152470 -0.060524 0.292742
0.154117 -0.060615 0.292865
-0.155829 -0.058502 0.291918
-0.154589 -0.058557 0.292484
-0.153335 -0.058608 0.293013
-0.152013 -0.058634 0.293405
-0.150667 -0.058650 0.293739
-0.149185 -0.058614 0.293793
-0.147405 -0.058458 0.293238
-0.145825 -0.058380 0.293057
-0.144575 -0.058434 0.293527
-0.143119 -0.058405 0.293568
-0.141609 -0.058353 0.293482
-0.140131 -0.058314 0.293447
-0.138990 -0.058416 0.294114
-0.137449 -0.058349 0.293922
-0.135459 -0.058089 0.292746
-0.129517 -0.056111 0.282898
-0.143658 -0.062884 0.317167
-0.142369 -0.062973 0.317731
-0.141969 -0.063463 0.320304
-0.140666 -0.063554 0.320860
-0.126103 -0.057592 0.290837
-0.124937 -0.057684 0.291374
-0.123712 -0.057751 0.291774
-0.122054 -0.057616 0.291145
-0.120614 -0.057581 0.291016
-0.119269 -0.057591 0.291110
-0.117583 -0.057435 0.290355
-0.116385 -0.057517 0.290794
-0.115104 -0.057559 0.291029
-0.113668 -0.057524 0.290864
-0.112527 -0.057639 0.291454
-0.111189 -0.057655 0.291536
-0.109805 -0.057647 0.291493
-0.108472 -0.057666 0.291581
-0.107220 -0.057730 0.291887
-0.105915 -0.057765 0.292049
-0.104600 -0.057797 0.292184
-0.103220 -0.057793 0.292134
-0.101887 -0.057816 0.292214
-0.100388 -0.057744 0.291812
-0.098449 -0.057413 0.290098
-0.097232 -0.057500 0.290491
-0.098383 -0.059863 0.302319
-0.097290 -0.060066 0.303288
-0.095874 -0.060073 0.303259
-0.094644 -0.060199 0.303826
-0.093204 -0.060193 0.303725
-0.091792 -0.060206 0.303715
-0.090501 -0.060299 0.304109
-0.089178 -0.060374 0.304407
-0.087498 -0.060205 0.303474
-0.085693 -0.059944 0.302073
-0.084622 -0.060196 0.303255
-0.083280 -0.060260 0.303490
-0.081685 -0.060141 0.302798
-0.080791 -0.060543 0.304728
-0.079365 -0.060554 0.304688
-0.078148 -0.060727 0.305460
-0.077594 -0.061431 0.308906
-0.076237 -0.061515 0.309227
-0.070210 -0.057761 0.290258
-0.068884 -0.057802 0.290365
-0.067632 -0.057906 0.290793
-0.066273 -0.057923 0.290776
-0.064932 -0.057956 0.290843
-0.063676 -0.058068 0.291303
-0.062288 -0.058062 0.291174
-0.060848 -0.058007 0.290796
-0.059491 -0.058029 0.290809
-0.058119 -0.058038 0.290751
-0.056710 -0.058010 0.290509
-0.055422 -0.058107 0.290895
-0.054009 -0.058074 0.290630
-0.052567 -0.058009 0.290204
-0.051326 -0.058167 0.290898
-0.049864 -0.058077 0.290348
-0.048460 -0.058051 0.290120
-0.047072 -0.058044 0.289990
-0.045750 -0.058120 0.290274
-0.044374 -0.058130 0.290229
-0.042375 -0.057298 0.285988
-0.041886 -0.058521 0.292000
-0.040530 -0.058576 0.292181
-0.038713 -0.057944 0.288943
-0.037016 -0.057451 0.286397
-0.035396 -0.057045 0.284293
-0.031415 -0.052651 0.262319
-0.030044 -0.052446 0.261224
-0.028737 -0.052341 0.260629
-0.027501 -0.052361 0.260661
-0.026250 -0.052355 0.260566
-0.025007 -0.052364 0.260544
-0.023759 -0.052362 0.260472
-0.022528 -0.052401 0.260604
-0.021413 -0.052729 0.262179
-0.020267 -0.053018 0.263561
-0.019287 -0.053808 0.267432
-0.017958 -0.053667 0.266680
-0.016687 -0.053693 0.266759
-0.015535 -0.054138 0.268922
-0.014093 -0.053560 0.266009
-0.012720 -0.053160 0.263981
-0.011377 -0.052807 0.262189
-0.010098 -0.052702 0.261633
-0.008817 -0.052555 0.260871
-0.007554 -0.052480 0.260466
-0.006330 -0.052710 0.261579
-0.005095 -0.052930 0.262651
-0.003851 -0.053179 0.263865
-0.002603 -0.053590 0.265885
-0.001333 -0.053897 0.267390
-0.000048 -0.054255 0.269151
0.001246 -0.054270 0.269219
0.002550 -0.054488 0.270292
0.003846 -0.054434 0.270021
0.005144 -0.054430 0.270000
0.006429 -0.054321 0.269460
0.007715 -0.054258 0.269151
0.008904 -0.053621 0.265996
0.010271 -0.054085 0.268313
0.011563 -0.054093 0.268364
0.012865 -0.054144 0.268634
0.014102 -0.053935 0.267612
0.015453 -0.054161 0.268754
0.016793 -0.054315 0.269543
0.018022 -0.054115 0.268580
0.019305 -0.054092 0.268496
0.020601 -0.054106 0.268599
0.022102 -0.054626 0.271214
0.023419 -0.054656 0.271401
0.023800 -0.052616 0.261309
0.024937 -0.052367 0.260110
0.026344 -0.052681 0.261713
0.027438 -0.052370 0.260213
0.028687 -0.052369 0.260253
0.029991 -0.052463 0.260772
0.031171 -0.052342 0.260221
0.032381 -0.052278 0.259956
0.033509 -0.052093 0.259088
0.034808 -0.052175 0.259552
0.036193 -0.052377 0.260617
0.038377 -0.053683 0.267173
0.039932 -0.054054 0.269082
0.041004 -0.053767 0.267716
0.042254 -0.053724 0.267567
0.043437 -0.053601 0.267021
0.044542 -0.053392 0.266047
0.045499 -0.053021 0.264266
0.046738 -0.052991 0.264183
0.047870 -0.052843 0.263514
0.049083 -0.052791 0.263322
0.050178 -0.052617 0.262526
0.051524 -0.052708 0.263050
0.052797 -0.052723 0.263190
0.054083 -0.052749 0.263391
0.055775 -0.053161 0.265520
0.057563 -0.053644 0.268003
0.059298 -0.054058 0.270144
0.060672 -0.054132 0.270584
0.062017 -0.054177 0.270881
0.063369 -0.054226 0.271197
0.064660 -0.054223 0.271252
0.065945 -0.054215 0.271277
0.067200 -0.054182 0.271182
0.068414 -0.054119 0.270933
0.069287 -0.053792 0.269363
0.069647 -0.053087 0.265897
0.070429 -0.052723 0.264133
0.071411 -0.052519 0.263171
0.072177 -0.052166 0.261457
0.072843 -0.051754 0.259445
0.073819 -0.051571 0.258585
0.074915 -0.051478 0.258166
0.075924 -0.051328 0.257465
0.077213 -0.051370 0.257717
0.078516 -0.051419 0.258009
0.079727 -0.051408 0.257992
0.081188 -0.051555 0.258770
0.082417 -0.051553 0.258796
0.084882 -0.052313 0.262643
0.094627 -0.057473 0.288577
0.095862 -0.057389 0.288186
0.097820 -0.057735 0.289947
0.099729 -0.058043 0.291514
0.101392 -0.058202 0.292325
0.102968 -0.058307 0.292862
0.104195 -0.058213 0.292400
0.105541 -0.058188 0.292275
0.106900 -0.058171 0.292182
0.108361 -0.058208 0.292363
0.109596 -0.058125 0.291930
0.111044 -0.058156 0.292062
0.112452 -0.058165 0.292080
0.113676 -0.058080 0.291620
0.114971 -0.058033 0.291344
0.116356 -0.058031 0.291292
0.117850 -0.058084 0.291501
0.119274 -0.058101 0.291527
0.120685 -0.058111 0.291512
0.122126 -0.058136 0.291560
0.123805 -0.058272 0.292158
0.125179 -0.058262 0.292020
0.126736 -0.058338 0.292298
0.128109 -0.058327 0.292138
0.129117 -0.058153 0.291147
0.130787 -0.058277 0.291644
0.132163 -0.058269 0.291467
0.133588 -0.058283 0.291390
0.135035 -0.058306 0.291348
0.136969 -0.058536 0.292331
0.138444 -0.058568 0.292311
0.140129 -0.058687 0.292714
0.141381 -0.058624 0.292196
0.142841 -0.058647 0.292101
0.144531 -0.058764 0.292454
0.146217 -0.058876 0.292775
0.148015 -0.059032 0.293294
0.149420 -0.059029 0.293009
0.150629 -0.058949 0.292332
0.152282 -0.059043 0.292500
0.153957 -0.059143 0.292686
-0.156132 -0.057218 0.292595
-0.154689 -0.057197 0.292778
-0.153396 -0.057233 0.293232
-0.152099 -0.057267 0.293669
-0.150525 -0.057197 0.293555
-0.149297 -0.057258 0.294102
-0.146970 -0.056896 0.292457
-0.145764 -0.056964 0.293015
-0.144523 -0.057020 0.293496
-0.142731 -0.056857 0.292843
-0.141309 -0.056841 0.292928
-0.140037 -0.056885 0.293316
-0.138855 -0.056966 0.293888
-0.137417 -0.056944 0.293912
-0.134092 -0.056131 0.289843
-0.129054 -0.054577 0.281935
-0.143150 -0.061167 0.316095
-0.141866 -0.061254 0.316657
-0.142303 -0.062094 0.321100
-0.140425 -0.061931 0.320350
-0.125879 -0.056118 0.290354
-0.124583 -0.056149 0.290579
-0.123346 -0.056206 0.290938
-0.122164 -0.056291 0.291430
-0.120597 -0.056199 0.290995
-0.119234 -0.056200 0.291040
-0.117926 -0.056229 0.291216
-0.116234 -0.056072 0.290428
-0.115391 -0.056326 0.291761
-0.114080 -0.056355 0.291923
-0.112052 -0.056026 0.290226
-0.111646 -0.056511 0.292734
-0.110391 -0.056572 0.293044
-0.108310 -0.056206 0.291138
-0.107107 -0.056292 0.291568
-0.105867 -0.056362 0.291905
-0.104523 -0.056376 0.291954
-0.103150 -0.056376 0.291919
-0.101953 -0.056473 0.292384
-0.100626 -0.056499 0.292480
-0.098343 -0.055982 0.289759
-0.096744 -0.055846 0.289005
-0.100292 -0.058719 0.303818
-0.099013 -0.058808 0.304220
-0.097597 -0.058818 0.304207
-0.096423 -0.058975 0.304955
-0.095077 -0.059031 0.305174
-0.093523 -0.058958 0.304719
-0.092351 -0.059126 0.305513
-0.090759 -0.059027 0.304923
-0.089427 -0.059097 0.305199
-0.087942 -0.059066 0.304957
-0.086361 -0.058969 0.304367
-0.084810 -0.058890 0.303868
-0.083630 -0.059069 0.304702
-0.082007 -0.058937 0.303925
-0.080811 -0.059112 0.304732
-0.079294 -0.059055 0.304341
-0.077983 -0.059152 0.304741
-0.076982 -0.059492 0.306392
-0.075637 -0.059574 0.306711
-0.070176 -0.056354 0.290037
-0.069018 -0.056531 0.290845
-0.067726 -0.056602 0.291112
-0.066333 -0.056591 0.290953
-0.065027 -0.056655 0.291179
-0.063733 -0.056731 0.291471
-0.062319 -0.056704 0.291227
-0.060908 -0.056677 0.290987
-0.059504 -0.056655 0.290772
-0.058138 -0.056670 0.290747
-0.056778 -0.056691 0.290751
-0.055460 -0.056758 0.290989
-0.054125 -0.056809 0.291150
-0.052717 -0.056784 0.290920
-0.051272 -0.056717 0.290477
-0.049966 -0.056805 0.290827
-0.048587 -0.056812 0.290765
-0.047121 -0.056716 0.290173
-0.045810 -0.056805 0.290536
-0.044455 -0.056844 0.290636
-0.042325 -0.055862 0.285527
-0.041567 -0.056687 0.289648
-0.040221 -0.056740 0.289827
-0.038707 -0.056550 0.288769
-0.037098 -0.056201 0.286901
-0.035692 -0.056148 0.286542
-0.031477 -0.051493 0.262713
-0.030017 -0.051146 0.260867
-0.028728 -0.051073 0.260424
-0.027532 -0.051167 0.260833
-0.026233 -0.051069 0.260264
-0.025010 -0.051117 0.260443
-0.023772 -0.051136 0.260477
-0.022497 -0.051076 0.260109
-0.021353 -0.051322 0.261304
-0.020198 -0.051571 0.262513
-0.019325 -0.052624 0.267819
-0.017913 -0.052250 0.265865
-0.016701 -0.052451 0.266835
-0.015499 -0.052718 0.268146
-0.014108 -0.052332 0.266139
-0.012778 -0.052119 0.265012
-0.011451 -0.051872 0.263720
-0.010157 -0.051732 0.262969
-0.008884 -0.051678 0.262665
-0.007624 -0.051691 0.262697
-0.006380 -0.051841 0.263432
-0.005135 -0.052054 0.264492
-0.003881 -0.052279 0.265614
-0.002610 -0.052403 0.266222
-0.001340 -0.052786 0.268153
-0.000051 -0.053148 0.269979
0.001236 -0.052667 0.267523
0.002557 -0.053380 0.271137
0.003861 -0.053378 0.271122
0.004805 -0.049658 0.252231
0.006058 -0.049982 0.253877
0.007334 -0.050359 0.255796
0.008564 -0.050358 0.255799
0.009850 -0.050642 0.257250
0.011098 -0.050691 0.257510
0.012323 -0.050635 0.257242
0.013598 -0.050775 0.257975
0.014863 -0.050858 0.258418
0.016072 -0.050750 0.257893
0.017330 -0.050802 0.258182
0.018872 -0.051625 0.262395
0.020532 -0.052644 0.267607
0.022114 -0.053357 0.271267
0.023447 -0.053424 0.271644
0.024294 -0.052432 0.266642
0.025281 -0.051828 0.263614
0.026539 -0.051809 0.263561
0.027727 -0.051663 0.262864
0.028810 -0.051343 0.261282
0.030127 -0.051449 0.261870
0.031500 -0.051636 0.262877
0.032478 -0.051188 0.260648
0.034036 -0.051652 0.263070
0.035614 -0.052114 0.265478
0.037056 -0.052350 0.266741
0.038446 -0.052500 0.267567
0.039749 -0.052526 0.267762
0.041183 -0.052717 0.268803
0.042360 -0.052577 0.268154
0.043514 -0.052418 0.267413
0.044854 -0.052486 0.267828
0.045934 -0.052254 0.266714
0.047203 -0.052244 0.266731
0.048347 -0.052099 0.266062
0.049438 -0.051907 0.265152
0.050770 -0.051970 0.265547
0.052091 -0.052020 0.265871
0.053360 -0.052017 0.265929
0.054766 -0.052144 0.266649
0.056426 -0.052501 0.268550
0.057569 -0.052373 0.267967
0.059141 -0.052631 0.269362
0.060730 -0.052893 0.270778
0.061868 -0.052760 0.270167
0.063294 -0.052873 0.270818
0.064715 -0.052977 0.271423
0.066058 -0.053015 0.271687
0.067393 -0.053044 0.271909
0.068665 -0.053024 0.271872
0.069601 -0.052750 0.270536
0.070053 -0.052126 0.267400
0.070699 -0.051665 0.265100
0.071564 -0.051379 0.263692
0.072485 -0.051141 0.262533
0.073040 -0.050658 0.260109
0.073992 -0.050461 0.259153
0.074981 -0.050296 0.258358
0.076085 -0.050212 0.257978
0.077392 -0.050263 0.258285
0.078669 -0.050292 0.258483
0.079945 -0.050320 0.258670
0.081573 -0.050566 0.259973
0.083077 -0.050728 0.260846
0.083776 -0.050402 0.259201
0.094724 -0.056161 0.288852
0.095958 -0.056079 0.288460
0.099620 -0.057398 0.295271
0.099765 -0.056682 0.291610
0.101616 -0.056941 0.292962
0.103003 -0.056937 0.292956
0.104302 -0.056885 0.292697
0.105691 -0.056883 0.292690
0.106966 -0.056820 0.292366
0.108342 -0.056812 0.292316
0.109668 -0.056778 0.292131
0.110947 -0.056721 0.291819
0.112340 -0.056723 0.291805
0.113507 -0.056612 0.291206
0.114790 -0.056561 0.290906
0.116259 -0.056601 0.291071
0.117869 -0.056709 0.291575
0.119320 -0.056738 0.291668
0.120617 -0.056695 0.291379
0.122180 -0.056776 0.291725
0.123635 -0.056805 0.291797
0.125239 -0.056902 0.292203
0.126574 -0.056875 0.291970
0.127662 -0.056739 0.291168
0.129057 -0.056742 0.291066
0.130370 -0.056708 0.290771
0.132004 -0.056813 0.291179
0.133227 -0.056741 0.290666
0.134778 -0.056809 0.290861
0.136345 -0.056882 0.291071
0.138456 -0.057178 0.292413
0.139946 -0.057214 0.292411
0.141560 -0.057300 0.292652
0.142965 -0.057300 0.292443
0.144599 -0.057391 0.292684
0.146125 -0.057438 0.292689
0.147920 -0.057588 0.293206
0.149340 -0.057592 0.292959
0.150661 -0.057557 0.292506
0.152156 -0.057589 0.292375
0.153873 -0.057703 0.292648
-0.155877 -0.055728 0.292222
-0.154669 -0.055793 0.292842
-0.153436 -0.055849 0.293406
-0.152145 -0.055885 0.293849
-0.150824 -0.055910 0.294225
-0.149357 -0.055882 0.294306
-0.146892 -0.055476 0.292381
-0.145542 -0.055487 0.292644
-0.144113 -0.055469 0.292736
-0.142736 -0.055470 0.292922
-0.141445 -0.055505 0.293276
-0.140023 -0.055489 0.293348
-0.138689 -0.055508 0.293594
-0.137435 -0.055560 0.294005
-0.133276 -0.054426 0.288130
-0.129550 -0.053448 0.283065
-0.143938 -0.060001 0.317884
-0.142649 -0.060087 0.318448
-0.142433 -0.060632 0.321434
-0.139119 -0.059856 0.317407
-0.125860 -0.054738 0.290339
-0.124436 -0.054712 0.290263
-0.123277 -0.054802 0.290799
-0.122068 -0.054872 0.291222
-0.120655 -0.054852 0.291153
-0.119094 -0.054763 0.290715
-0.117542 -0.054676 0.290280
-0.116071 -0.054625 0.290031
-0.114831 -0.054683 0.290352
-0.113438 -0.054668 0.290284
-0.112111 -0.054686 0.290380
-0.110837 -0.054730 0.290609
-0.109607 -0.054797 0.290958
-0.108359 -0.054857 0.291263
-0.107085 -0.054905 0.291499
-0.105786 -0.054942 0.291667
-0.103737 -0.054585 0.289742
-0.103064 -0.054952 0.291657
-0.101844 -0.055033 0.292049
-0.100133 -0.054848 0.291021
-0.098674 -0.054797 0.290708
-0.095150 -0.053583 0.284214
-0.099812 -0.057009 0.302329
-0.098540 -0.057096 0.302729
-0.097180 -0.057134 0.302867
-0.096158 -0.057375 0.304073
-0.095044 -0.057568 0.305022
-0.093721 -0.057638 0.305317
-0.092217 -0.057597 0.305020
-0.090837 -0.057634 0.305133
-0.089466 -0.057677 0.305277
-0.087940 -0.057620 0.304890
-0.086394 -0.057549 0.304422
-0.084732 -0.057397 0.303525
-0.083593 -0.057599 0.304502
-0.082170 -0.057609 0.304460
-0.080672 -0.057567 0.304136
-0.079305 -0.057619 0.304310
-0.077955 -0.057684 0.304555
-0.077610 -0.058510 0.308812
-0.076254 -0.058591 0.309134
-0.069944 -0.054794 0.288998
-0.068774 -0.054953 0.289734
-0.067666 -0.055169 0.290771
-0.066229 -0.055120 0.290411
-0.064885 -0.055148 0.290456
-0.063700 -0.055315 0.291232
-0.062294 -0.055294 0.291014
-0.060862 -0.055248 0.290668
-0.059549 -0.055311 0.290893
-0.058158 -0.055303 0.290747
-0.056719 -0.055247 0.290351
-0.055455 -0.055364 0.290859
-0.053862 -0.055150 0.289630
-0.052554 -0.055223 0.289913
-0.051314 -0.055375 0.290608
-0.049901 -0.055343 0.290339
-0.048501 -0.055323 0.290135
-0.047189 -0.055407 0.290475
-0.045827 -0.055435 0.290524
-0.044388 -0.055369 0.290079
-0.042604 -0.054854 0.287285
-0.041427 -0.055113 0.288549
-0.040086 -0.055165 0.288728
-0.038704 -0.055160 0.288612
-0.037149 -0.054901 0.287167
-0.035795 -0.054930 0.287235
-0.031399 -0.050107 0.261939
-0.030107 -0.050043 0.261528
-0.028777 -0.049907 0.260744
-0.027598 -0.050032 0.261329
-0.026296 -0.049936 0.260758
-0.025038 -0.049919 0.260603
-0.023816 -0.049976 0.260833
-0.022557 -0.049957 0.260670
-0.021395 -0.050161 0.261679
-0.020304 -0.050571 0.263757
-0.019403 -0.051537 0.268740
-0.017978 -0.051154 0.266688
-0.016745 -0.051298 0.267387
-0.015521 -0.051497 0.268375
-0.014130 -0.051127 0.266401
-0.012842 -0.051092 0.266180
-0.011513 -0.050870 0.264980
-0.010214 -0.050739 0.264261
-0.008928 -0.050653 0.263781
-0.007665 -0.050686 0.263920
-0.006417 -0.050843 0.264712
-0.005144 -0.050845 0.264699
-0.003886 -0.051042 0.265699
-0.002609 -0.051062 0.265786
-0.001337 -0.051319 0.267106
-0.000053 -0.051536 0.268224
0.001240 -0.051627 0.268684
0.002550 -0.051971 0.270469
0.003851 -0.051969 0.270454
0.004860 -0.049016 0.255087
0.006109 -0.049192 0.256006
0.007371 -0.049396 0.257072
0.008595 -0.049316 0.256661
0.009839 -0.049361 0.256908
0.011119 -0.049558 0.257943
0.012371 -0.049599 0.258177
0.013648 -0.049725 0.258849
0.014921 -0.049817 0.259349
0.016112 -0.049640 0.258455
0.017371 -0.049685 0.258714
0.018782 -0.050129 0.261057
0.020640 -0.051634 0.268929
0.022048 -0.051904 0.270368
0.023290 -0.051774 0.269735
0.024366 -0.051308 0.267345
0.025407 -0.050819 0.264839
0.026593 -0.050652 0.264015
0.027758 -0.050462 0.263072
0.028857 -0.050174 0.261621
0.030115 -0.050174 0.261672
0.031357 -0.050150 0.261601
0.032661 -0.050222 0.262029
0.033819 -0.050073 0.261310
0.035169 -0.050209 0.262077
0.036890 -0.050845 0.265460
0.038635 -0.051472 0.268796
0.039742 -0.051236 0.267627
0.040975 -0.051171 0.267357
0.042507 -0.051473 0.269003
0.043536 -0.051166 0.267468
0.044936 -0.051300 0.268236
0.046143 -0.051212 0.267847
0.047416 -0.051200 0.267855
0.048648 -0.051146 0.267645
0.049877 -0.051091 0.267429
0.050826 -0.050760 0.265770
0.052148 -0.050807 0.266094
0.053793 -0.051160 0.268014
0.055012 -0.051101 0.267778
0.056449 -0.051241 0.268591
0.057863 -0.051356 0.269267
0.059295 -0.051481 0.269999
0.060742 -0.051613 0.270766
0.062105 -0.051670 0.271140
0.063349 -0.051628 0.270991
0.064847 -0.051790 0.271918
0.066203 -0.051835 0.272225
0.067393 -0.051750 0.271854
0.068528 -0.051627 0.271278
0.069380 -0.051299 0.269625
0.070162 -0.050933 0.267768
0.070856 -0.050516 0.265643
0.071854 -0.050328 0.264715
0.072782 -0.050098 0.263566
0.073359 -0.049638 0.261205
0.074217 -0.049380 0.259904
0.075164 -0.049188 0.258953
0.076304 -0.049128 0.258689
0.077619 -0.049180 0.259012
0.079130 -0.049353 0.259971
0.080773 -0.049601 0.261324
0.082501 -0.049893 0.262906
0.084082 -0.050089 0.263980
0.086686 -0.050880 0.268182
0.095664 -0.055335 0.291700
0.096910 -0.055253 0.291304
0.099236 -0.055781 0.294116
0.100018 -0.055439 0.292337
0.101563 -0.055523 0.292801
0.103145 -0.055624 0.293352
0.104359 -0.055527 0.292851
0.105623 -0.055459 0.292500
0.107111 -0.055509 0.292763
0.108422 -0.055466 0.292536
0.109717 -0.055417 0.292268
0.111075 -0.055401 0.292165
0.112432 -0.055384 0.292057
0.113741 -0.055344 0.291820
0.115044 -0.055303 0.291567
0.116254 -0.055218 0.291081
0.117942 -0.055359 0.291780
0.119209 -0.055303 0.291426
0.120408 -0.055216 0.290907
0.122087 -0.055348 0.291535
0.123902 -0.055539 0.292463
0.125341 -0.055558 0.292481
0.126473 -0.055443 0.291781
0.127744 -0.055391 0.291404
0.129114 -0.055381 0.291245
0.130482 -0.055372 0.291074
0.131674 -0.055288 0.290507
0.133149 -0.055324 0.290558
0.134757 -0.055414 0.290881
0.137177 -0.055832 0.292916
0.138713 -0.055886 0.293028
0.140014 -0.055845 0.292630
0.141179 -0.055751 0.291943
0.142959 -0.055900 0.292516
0.144463 -0.055938 0.292498
0.146003 -0.055989 0.292536
0.147838 -0.056152 0.293141
0.149254 -0.056154 0.292892
0.150539 -0.056107 0.292376
0.152311 -0.056241 0.292783
0.154099 -0.056378 0.293194
-0.155867 -0.054329 0.292305
-0.154540 -0.054350 0.292695
-0.153238 -0.054380 0.293121
-0.151971 -0.054423 0.293603
-0.150270 -0.054309 0.293230
-0.149352 -0.054480 0.294376
-0.146886 -0.054084 0.292446
-0.145541 -0.054097 0.292717
-0.143950 -0.054018 0.292476
-0.142580 -0.054021 0.292668
-0.141202 -0.054022 0.292833
-0.139918 -0.054058 0.293186
-0.138554 -0.054065 0.293365
-0.135106 -0.053250 0.289074
-0.133765 -0.053257 0.289234
-0.130184 -0.052364 0.284492
-0.143311 -0.058243 0.316543
-0.142029 -0.058327 0.317105
-0.142737 -0.059239 0.322159
-0.139290 -0.058428 0.317833
-0.125391 -0.053168 0.289285
-0.124395 -0.053323 0.290192
-0.122840 -0.053240 0.289792
-0.121624 -0.053303 0.290183
-0.120600 -0.053453 0.291037
-0.119163 -0.053422 0.290897
-0.117720 -0.053386 0.290730
-0.116211 -0.053320 0.290387
-0.114812 -0.053304 0.290310
-0.113477 -0.053317 0.290385
-0.112269 -0.053391 0.290788
-0.110883 -0.053381 0.290728
-0.109497 -0.053370 0.290660
-0.108249 -0.053428 0.290958
-0.106972 -0.053473 0.291179
-0.105671 -0.053507 0.291336
-0.104308 -0.053510 0.291319
-0.102984 -0.053533 0.291409
-0.101785 -0.053623 0.291857
-0.100429 -0.053631 0.291857
-0.098204 -0.053170 0.289296
-0.096430 -0.052943 0.288006
-0.099926 -0.055644 0.302642
-0.098654 -0.055730 0.303043
-0.097306 -0.055775 0.303219
-0.096097 -0.055902 0.303838
-0.094594 -0.055860 0.303534
-0.093451 -0.056032 0.304390
-0.092313 -0.056212 0.305289
-0.090687 -0.056096 0.304576
-0.089634 -0.056337 0.305794
-0.088206 -0.056347 0.305757
-0.086632 -0.056261 0.305200
-0.085234 -0.056289 0.305258
-0.083912 -0.056369 0.305596
-0.082790 -0.056590 0.306690
-0.081258 -0.056532 0.306275
-0.079556 -0.056352 0.305200
-0.078199 -0.056414 0.305433
-0.077340 -0.056845 0.307658
-0.076521 -0.057322 0.310132
-0.070051 -0.053502 0.289362
-0.068938 -0.053703 0.290347
-0.067727 -0.053834 0.290948
-0.066258 -0.053761 0.290450
-0.064892 -0.053771 0.290398
-0.063541 -0.053794 0.290416
-0.062221 -0.053845 0.290582
-0.060866 -0.053866 0.290594
-0.059537 -0.053913 0.290741
-0.058212 -0.053966 0.290916
-0.056855 -0.053990 0.290942
-0.055520 -0.054038 0.291095
-0.054185 -0.054089 0.291261
-0.052739 -0.054028 0.290827
-0.051175 -0.053839 0.289708
-0.049950 -0.054007 0.290508
-0.048563 -0.054005 0.290394
-0.047107 -0.053923 0.289853
-0.045732 -0.053932 0.289805
-0.044398 -0.053992 0.290027
-0.042733 -0.053639 0.288035
-0.041571 -0.053916 0.289426
-0.040226 -0.053967 0.289607
-0.038682 -0.053745 0.288324
-0.037073 -0.053414 0.286457
-0.035756 -0.053493 0.286791
-0.031439 -0.048912 0.262153
-0.030083 -0.048747 0.261196
-0.028826 -0.048737 0.261064
-0.027611 -0.048799 0.261324
-0.026296 -0.048682 0.260633
-0.025049 -0.048687 0.260587
-0.023785 -0.048656 0.260356
-0.022556 -0.048697 0.260516
-0.021394 -0.048899 0.261535
-0.020268 -0.049213 0.263153
-0.019365 -0.050143 0.268070
-0.018111 -0.050234 0.268500
-0.016785 -0.050126 0.267872
-0.015537 -0.050252 0.268496
-0.014241 -0.050229 0.268326
-0.012896 -0.050011 0.267120
-0.011560 -0.049788 0.265888
-0.010230 -0.049540 0.264525
-0.008940 -0.049437 0.263943
-0.007687 -0.049539 0.264458
-0.006418 -0.049561 0.264547
-0.005158 -0.049687 0.265194
-0.003898 -0.049891 0.266259
-0.002613 -0.049820 0.265863
-0.001345 -0.050236 0.268062
-0.000055 -0.050411 0.268983
0.001234 -0.050177 0.267724
0.002554 -0.050798 0.271034
0.003858 -0.050796 0.271019
0.004913 -0.048339 0.257909
0.006150 -0.048301 0.257709
0.007447 -0.048670 0.259682
0.008677 -0.048555 0.259078
0.009935 -0.048608 0.259372
0.011187 -0.048619 0.259441
0.012442 -0.048643 0.259589
0.013696 -0.048657 0.259681
0.014954 -0.048685 0.259853
0.016183 -0.048619 0.259523
0.017450 -0.048667 0.259808
0.018954 -0.049326 0.263361
0.020504 -0.050014 0.267068
0.022136 -0.050811 0.271361
0.023170 -0.050222 0.268251
0.024256 -0.049802 0.266049
0.025307 -0.049355 0.263706
0.026453 -0.049128 0.262538
0.027658 -0.049024 0.262034
0.028878 -0.048957 0.261726
0.030138 -0.048960 0.261792
0.031451 -0.049043 0.262292
0.032792 -0.049164 0.262996
0.034108 -0.049240 0.263459
0.035408 -0.049287 0.263769
0.036807 -0.049463 0.264777
0.038251 -0.049688 0.266042
0.039588 -0.049763 0.266510
0.040838 -0.049726 0.266380
0.042343 -0.049994 0.267886
0.043586 -0.049945 0.267695
0.044987 -0.050074 0.268459
0.044374 -0.048017 0.257501
0.045393 -0.047791 0.256357
0.046862 -0.048037 0.257747
0.047728 -0.047668 0.255838
0.048861 -0.047577 0.255423
0.050181 -0.047668 0.255985
0.051403 -0.047665 0.256039
0.052557 -0.047599 0.255759
0.053860 -0.047669 0.256207
0.055858 -0.048337 0.259873
0.058547 -0.049560 0.266526
0.060667 -0.050260 0.270369
0.061839 -0.050163 0.269919
0.063120 -0.050155 0.269953
0.064762 -0.050429 0.271502
0.066115 -0.050471 0.271807
0.067379 -0.050445 0.271740
0.068503 -0.050317 0.271124
0.069493 -0.050097 0.270011
0.070146 -0.049647 0.267655
0.070941 -0.049312 0.265916
0.071959 -0.049141 0.265059
0.072957 -0.048962 0.264156
0.073740 -0.048647 0.262519
0.074431 -0.048283 0.260616
0.075608 -0.048241 0.260447
0.076839 -0.048235 0.260469
0.078125 -0.048262 0.260669
0.079916 -0.048596 0.262521
0.081642 -0.048881 0.264109
0.083117 -0.049009 0.264844
0.084704 -0.049198 0.265910
0.087421 -0.050028 0.270435
0.095689 -0.053964 0.291755
0.096934 -0.053884 0.291359
0.100028 -0.054820 0.296449
0.099958 -0.054019 0.292148
0.101346 -0.054018 0.292163
0.102665 -0.053980 0.291978
0.104301 -0.054108 0.292685
0.105684 -0.054103 0.292665
0.106972 -0.054050 0.292383
0.108227 -0.053982 0.292013
0.109687 -0.054016 0.292194
0.110844 -0.053903 0.291567
0.112061 -0.053820 0.291103
0.113603 -0.053895 0.291480
0.114831 -0.053820 0.291045
0.116041 -0.053738 0.290568
0.117698 -0.053863 0.291199
0.119257 -0.053941 0.291569
0.120549 -0.053897 0.291275
0.121863 -0.053865 0.291034
0.123365 -0.053915 0.291230
0.125045 -0.054041 0.291831
0.126374 -0.054014 0.291595
0.127640 -0.053961 0.291211
0.128976 -0.053938 0.290982
0.130413 -0.053958 0.290972
0.132069 -0.054067 0.291434
0.133716 -0.054170 0.291854
0.135055 -0.054147 0.291586
0.136411 -0.054132 0.291347
0.138323 -0.054335 0.292273
0.140063 -0.054467 0.292806
0.141656 -0.054540 0.293007
0.142932 -0.054491 0.292541
0.144380 -0.054507 0.292415
0.146041 -0.054603 0.292703
0.147795 -0.054732 0.293150
0.149267 -0.054754 0.293017
0.150463 -0.054676 0.292329
0.152084 -0.054752 0.292453
0.153502 -0.054755 0.292168
-0.155847 -0.052927 0.292367
-0.154688 -0.053004 0.293069
-0.153317 -0.053010 0.293362
-0.152042 -0.053049 0.293825
-0.150691 -0.053063 0.294134
-0.149326 -0.053071 0.294404
-0.147000 -0.052736 0.292747
-0.145270 -0.052609 0.292241
-0.143625 -0.052511 0.291880
-0.142435 -0.052580 0.292433
-0.140665 -0.052434 0.291779
-0.139511 -0.052517 0.292390
-0.138467 -0.052643 0.293233
-0.136265 -0.052327 0.291601
-0.134055 -0.052002 0.289907
-0.129240 -0.050649 0.282472
-0.142801 -0.056544 0.315460
-0.141525 -0.056627 0.316019
-0.142611 -0.057666 0.321911
-0.138624 -0.056655 0.316344
-0.125188 -0.051718 0.288844
-0.124107 -0.051833 0.289543
-0.122981 -0.051931 0.290145
-0.121524 -0.051891 0.289962
-0.120331 -0.051963 0.290402
-0.119153 -0.052044 0.290883
-0.117504 -0.051919 0.290204
-0.116127 -0.051913 0.290184
-0.114733 -0.051898 0.290113
-0.113583 -0.051995 0.290658
-0.112201 -0.051987 0.290608
-0.110995 -0.052061 0.291016
-0.109828 -0.052156 0.291530
-0.108459 -0.052156 0.291511
-0.107194 -0.052207 0.291771
-0.105899 -0.052244 0.291948
-0.104442 -0.052202 0.291676
-0.103011 -0.052171 0.291465
-0.101739 -0.052221 0.291703
-0.100252 -0.052161 0.291316
-0.098705 -0.052068 0.290742
-0.096137 -0.051425 0.287100
-0.099823 -0.054158 0.302292
-0.098552 -0.054242 0.302693
-0.097954 -0.054703 0.305199
-0.096081 -0.054456 0.303747
-0.094756 -0.054517 0.304006
-0.093876 -0.054839 0.305724
-0.092130 -0.054658 0.304632
-0.090739 -0.054686 0.304698
-0.088896 -0.054437 0.303221
-0.087724 -0.054598 0.304025
-0.086037 -0.054438 0.303045
-0.084416 -0.054316 0.302266
-0.083569 -0.054696 0.304282
-0.082001 -0.054609 0.303700
-0.080855 -0.054805 0.304688
-0.079404 -0.054798 0.304544
-0.077801 -0.054684 0.303801
-0.077060 -0.055183 0.306468
-0.076213 -0.055624 0.308805
-0.070021 -0.052104 0.289160
-0.068806 -0.052222 0.289709
-0.067580 -0.052336 0.290234
-0.066221 -0.052350 0.290206
-0.064942 -0.052429 0.290534
-0.063607 -0.052465 0.290627
-0.062254 -0.052488 0.290644
-0.060940 -0.052545 0.290854
-0.059536 -0.052526 0.290638
-0.058269 -0.052629 0.291104
-0.056791 -0.052543 0.290519
-0.055455 -0.052587 0.290652
-0.054236 -0.052746 0.291428
-0.052662 -0.052561 0.290295
-0.051382 -0.052666 0.290773
-0.050028 -0.052700 0.290852
-0.048585 -0.052639 0.290414
-0.047201 -0.052640 0.290318
-0.045720 -0.052530 0.289609
-0.044369 -0.052568 0.289716
-0.042786 -0.052324 0.288274
-0.041166 -0.052017 0.286490
-0.040032 -0.052324 0.288086
-0.038690 -0.052373 0.288260
-0.037176 -0.052183 0.287123
-0.035872 -0.052284 0.287592
-0.031449 -0.047667 0.262116
-0.030147 -0.047593 0.261628
-0.028726 -0.047316 0.260032
-0.027609 -0.047538 0.261179
-0.026321 -0.047473 0.260749
-0.025029 -0.047393 0.260244
-0.023821 -0.047473 0.260617
-0.022585 -0.047505 0.260726
-0.021402 -0.047656 0.261493
-0.020273 -0.047953 0.263068
-0.019343 -0.048795 0.267625
-0.018091 -0.048884 0.268058
-0.016872 -0.049085 0.269110
-0.015589 -0.049118 0.269237
-0.014303 -0.049145 0.269343
-0.013016 -0.049174 0.269457
-0.011688 -0.049036 0.268659
-0.010377 -0.048946 0.268129
-0.009045 -0.048723 0.266869
-0.007771 -0.048786 0.267182
-0.006475 -0.048704 0.266707
-0.005197 -0.048753 0.266947
-0.003908 -0.048711 0.266695
-0.002630 -0.048821 0.267278
-0.001349 -0.049007 0.268281
-0.000058 -0.049420 0.270529
0.001235 -0.049023 0.268347
0.002551 -0.049484 0.270861
0.003869 -0.049661 0.271825
0.004933 -0.047310 0.258954
0.006165 -0.047187 0.258285
0.007452 -0.047464 0.259805
0.008677 -0.047316 0.259006
0.009942 -0.047402 0.259489
0.011194 -0.047408 0.259535
0.012433 -0.047366 0.259320
0.013673 -0.047337 0.259180
0.014936 -0.047384 0.259461
0.016182 -0.047371 0.259415
0.017418 -0.047335 0.259246
0.018961 -0.048083 0.263375
0.020528 -0.048792 0.267293
0.022015 -0.049241 0.269793
0.023191 -0.048981 0.268406
0.024224 -0.048463 0.265610
0.025434 -0.048333 0.264946
0.026625 -0.048180 0.264152
0.027818 -0.048046 0.263468
0.029047 -0.047981 0.263164
0.030306 -0.047971 0.263161
0.031645 -0.048083 0.263830
0.032874 -0.048025 0.263570
0.034274 -0.048212 0.264656
0.035610 -0.048297 0.265186
0.036851 -0.048254 0.265014
0.038212 -0.048365 0.265687
0.039392 -0.048247 0.265108
0.040682 -0.048267 0.265284
0.041997 -0.048314 0.265614
0.043230 -0.048267 0.265425
0.042653 -0.046260 0.254457
0.043948 -0.046337 0.254954
0.045158 -0.046324 0.254950
0.046308 -0.046251 0.254624
0.047562 -0.046283 0.254874
0.048810 -0.046309 0.255087
0.050067 -0.046341 0.255338
0.051315 -0.046363 0.255533
0.052556 -0.046378 0.255690
0.053995 -0.046563 0.256786
0.055884 -0.047119 0.259927
0.058844 -0.048534 0.267814
0.060790 -0.049071 0.270855
0.062037 -0.049032 0.270718
0.063090 -0.048845 0.269766
0.064683 -0.049075 0.271112
0.065972 -0.049070 0.271162
0.067235 -0.049046 0.271105
0.068355 -0.048921 0.270486
0.069349 -0.048711 0.269403
0.070163 -0.048385 0.267671
0.070759 -0.047924 0.265187
0.071958 -0.047879 0.265008
0.072923 -0.047683 0.263990
0.073719 -0.047386 0.262406
0.074630 -0.047170 0.261275
0.075799 -0.047123 0.261070
0.077002 -0.047097 0.260986
0.078521 -0.047263 0.261959
0.080223 -0.047531 0.263499
0.081890 -0.047771 0.264880
0.083271 -0.047840 0.265308
0.085616 -0.048452 0.268747
0.087515 -0.048797 0.270705
0.097017 -0.053309 0.295781
0.098278 -0.053230 0.295378
0.099905 -0.053347 0.296066
0.100394 -0.052863 0.293407
0.101418 -0.052669 0.292359
0.102832 -0.052681 0.292444
0.104209 -0.052673 0.292418
0.105528 -0.052637 0.292230
0.106832 -0.052594 0.291998
0.108170 -0.052569 0.291860
0.109596 -0.052587 0.291955
0.110929 -0.052560 0.291797
0.112167 -0.052489 0.291389
0.113631 -0.052524 0.291564
0.115007 -0.052519 0.291506
0.116141 -0.052405 0.290836
0.118398 -0.052793 0.292951
0.119544 -0.052683 0.292293
0.120694 -0.052578 0.291652
0.122281 -0.052663 0.292062
0.123455 -0.052570 0.291477
0.124765 -0.052536 0.291212
0.126225 -0.052566 0.291289
0.127660 -0.052584 0.291297
0.128891 -0.052520 0.290837
0.130349 -0.052548 0.290877
0.131859 -0.052596 0.291022
0.133529 -0.052706 0.291501
0.135046 -0.052755 0.291626
0.136568 -0.052804 0.291745
0.138428 -0.052981 0.292561
0.139985 -0.053040 0.292712
0.141416 -0.053051 0.292586
0.142857 -0.053065 0.292465
0.144441 -0.053131 0.292620
0.146148 -0.053242 0.293003
0.147770 -0.053319 0.293190
0.149152 -0.053308 0.292884
0.150564 -0.053309 0.292623
0.152008 -0.053321 0.292410
0.153569 -0.053373 0.292403
-0.155832 -0.051527 0.292432
-0.154661 -0.051598 0.293108
-0.153191 -0.051570 0.293206
-0.151763 -0.051556 0.293369
-0.150309 -0.051533 0.293467
-0.148971 -0.051549 0.293777
-0.147296 -0.051448 0.293407
-0.145796 -0.051408 0.293366
-0.144044 -0.051276 0.292796
-0.142466 -0.051205 0.292556
-0.140844 -0.051116 0.292208
-0.139729 -0.051212 0.292900
-0.137550 -0.050915 0.291340
-0.135995 -0.050846 0.291070
-0.133218 -0.050314 0.288140
-0.130869 -0.049935 0.286071
-0.143082 -0.055162 0.316119
-0.141805 -0.055243 0.316680
-0.142776 -0.056211 0.322317
-0.138887 -0.055266 0.316975
-0.125045 -0.050297 0.288538
-0.124306 -0.050547 0.290030
-0.122837 -0.050503 0.289822
-0.121573 -0.050543 0.290094
-0.120470 -0.050652 0.290752
-0.119173 -0.050681 0.290943
-0.117713 -0.050640 0.290730
-0.116553 -0.050729 0.291253
-0.114991 -0.050643 0.290767
-0.113401 -0.050543 0.290192
-0.112109 -0.050575 0.290368
-0.110932 -0.050659 0.290844
-0.109366 -0.050567 0.290296
-0.107870 -0.050505 0.289917
-0.106752 -0.050620 0.290554
-0.105522 -0.050685 0.290891
-0.104001 -0.050610 0.290426
-0.102794 -0.050688 0.290829
-0.101559 -0.050754 0.291161
-0.100276 -0.050797 0.291361
-0.098362 -0.050518 0.289703
-0.095619 -0.049799 0.285522
-0.098407 -0.051981 0.297970
-0.097156 -0.052062 0.298366
-0.096583 -0.052514 0.300885
-0.095334 -0.052607 0.301342
-0.094106 -0.052714 0.301876
-0.093385 -0.053113 0.304078
-0.091753 -0.052998 0.303333
-0.090198 -0.052926 0.302828
-0.089153 -0.053154 0.304043
-0.088128 -0.053402 0.305370
-0.086556 -0.053321 0.304810
-0.085284 -0.053427 0.305312
-0.083955 -0.053499 0.305622
-0.083123 -0.053895 0.307784
-0.081426 -0.053736 0.306768
-0.079954 -0.053722 0.306578
-0.078505 -0.053722 0.306474
-0.077283 -0.053882 0.307276
-0.076516 -0.054371 0.309948
-0.069966 -0.050690 0.288857
-0.068679 -0.050750 0.289096
-0.067422 -0.050836 0.289474
-0.066189 -0.050943 0.289978
-0.064844 -0.050968 0.290007
-0.063537 -0.051024 0.290219
-0.062268 -0.051113 0.290617
-0.060925 -0.051145 0.290688
-0.059621 -0.051212 0.290958
-0.058260 -0.051232 0.290961
-0.056783 -0.051148 0.290374
-0.055248 -0.051007 0.289466
-0.053948 -0.051082 0.289781
-0.052578 -0.051092 0.289730
-0.051239 -0.051133 0.289856
-0.049915 -0.051192 0.290084
-0.048594 -0.051259 0.290358
-0.047129 -0.051172 0.289760
-0.045804 -0.051237 0.290026
-0.044369 -0.051179 0.289597
-0.042892 -0.051069 0.288873
-0.040921 -0.050342 0.284668
-0.040069 -0.050990 0.288234
-0.038727 -0.051038 0.288409
-0.037181 -0.050811 0.287038
-0.035926 -0.050980 0.287897
-0.031372 -0.046294 0.261358
-0.030042 -0.046174 0.260598
-0.028732 -0.046075 0.259967
-0.027516 -0.046125 0.260174
-0.026304 -0.046189 0.260462
-0.025038 -0.046158 0.260216
-0.023790 -0.046159 0.260158
-0.022595 -0.046267 0.260702
-0.021403 -0.046397 0.261369
-0.020332 -0.046821 0.263697
-0.019384 -0.047604 0.268053
-0.018177 -0.047817 0.269196
-0.016872 -0.047786 0.268967
-0.015687 -0.048115 0.270765
-0.014389 -0.048130 0.270801
-0.013050 -0.047994 0.269993
-0.011776 -0.048096 0.270523
-0.010454 -0.048000 0.269946
-0.009152 -0.047984 0.269823
-0.007857 -0.048007 0.269920
-0.006538 -0.047867 0.269103
-0.005257 -0.047998 0.269810
-0.003958 -0.048003 0.269818
-0.002658 -0.047986 0.269700
-0.001370 -0.048380 0.271897
-0.000060 -0.048357 0.271756
0.001235 -0.047807 0.268655
0.002552 -0.048237 0.271066
0.003872 -0.048413 0.272050
0.005023 -0.046913 0.263620
0.006198 -0.046208 0.259658
0.007446 -0.046187 0.259545
0.008715 -0.046285 0.260104
0.009930 -0.046104 0.259103
0.011199 -0.046190 0.259600
0.012461 -0.046232 0.259851
0.013751 -0.046359 0.260587
0.015039 -0.046459 0.261170
0.016333 -0.046560 0.261767
0.017615 -0.046614 0.262101
0.019002 -0.046921 0.263859
0.020478 -0.047396 0.266564
0.021932 -0.047765 0.268679
0.023076 -0.047457 0.266989
0.024276 -0.047290 0.266089
0.025524 -0.047228 0.265791
0.026680 -0.047011 0.264614
0.027897 -0.046916 0.264128
0.029062 -0.046744 0.263213
0.030350 -0.046778 0.263459
0.031646 -0.046820 0.263752
0.033080 -0.047055 0.265135
0.034461 -0.047199 0.266008
0.035806 -0.047286 0.266566
0.036987 -0.047158 0.265906
0.038286 -0.047183 0.266117
0.039601 -0.047226 0.266428
0.040766 -0.047094 0.265749
0.042099 -0.047157 0.266179
0.043335 -0.047110 0.265988
0.042811 -0.045209 0.255325
0.043977 -0.045147 0.255047
0.045178 -0.045124 0.254990
0.046383 -0.045107 0.254964
0.047561 -0.045064 0.254797
0.048745 -0.045029 0.254674
0.050015 -0.045074 0.255003
0.051235 -0.045072 0.255068
0.052356 -0.044985 0.254650
0.053685 -0.045077 0.255248
0.055682 -0.045713 0.258926
0.058600 -0.047060 0.266639
0.060855 -0.047830 0.271081
0.061906 -0.047641 0.270087
0.063131 -0.047590 0.269878
0.064705 -0.047799 0.271145
0.066111 -0.047879 0.271676
0.067324 -0.047818 0.271410
0.068482 -0.047721 0.270937
0.069496 -0.047529 0.269922
0.070162 -0.047111 0.267618
0.070987 -0.046813 0.265996
0.072023 -0.046661 0.265205
0.073099 -0.046540 0.264586
0.074134 -0.046398 0.263841
0.075269 -0.046322 0.263475
0.076338 -0.046208 0.262890
0.077763 -0.046310 0.263532
0.078986 -0.046291 0.263477
0.080549 -0.046468 0.264540
0.082274 -0.046732 0.266095
0.083489 -0.046702 0.265976
0.085347 -0.047028 0.267879
0.095115 -0.051638 0.294186
0.096371 -0.051560 0.293791
0.097751 -0.051550 0.293775
0.098626 -0.051278 0.292259
0.100086 -0.051313 0.292491
0.101495 -0.051321 0.292567
0.102734 -0.051244 0.292154
0.104004 -0.051185 0.291837
0.105417 -0.051197 0.291915
0.106848 -0.051217 0.292039
0.108432 -0.051309 0.292569
0.109776 -0.051286 0.292438
0.111139 -0.051272 0.292354
0.112486 -0.051252 0.292226
0.113841 -0.051236 0.292115
0.115448 -0.051332 0.292636
0.116661 -0.051253 0.292153
0.118050 -0.051252 0.292109
0.119257 -0.051173 0.291615
0.120936 -0.051296 0.292262
0.121941 -0.051133 0.291277
0.123399 -0.051162 0.291373
0.125041 -0.051266 0.291891
0.126457 -0.051276 0.291862
0.127700 -0.051216 0.291429
0.128963 -0.051165 0.291041
0.130393 -0.051181 0.291022
0.131966 -0.051252 0.291307
0.134256 -0.051598 0.293141
0.135461 -0.051523 0.292578
0.137041 -0.051591 0.292814
0.138850 -0.051743 0.293516
0.140231 -0.051734 0.293294
0.141495 -0.051683 0.292820
0.142939 -0.051697 0.292706
0.144347 -0.051699 0.292507
0.145759 -0.051701 0.292305
0.147406 -0.051787 0.292554
0.149176 -0.051913 0.293022
0.150392 -0.051846 0.292383
0.151824 -0.051854 0.292154
0.153351 -0.051894 0.292091
-0.155969 -0.050176 0.292779
-0.154674 -0.050205 0.293219
-0.153261 -0.050197 0.293423
-0.152094 -0.050269 0.294087
-0.150378 -0.050160 0.293677
-0.148530 -0.050005 0.292980
-0.147584 -0.050153 0.294049
-0.144962 -0.049730 0.291752
-0.143939 -0.049851 0.292642
-0.142623 -0.049873 0.292936
-0.141070 -0.049812 0.292729
-0.139883 -0.049880 0.293272
-0.138599 -0.049914 0.293609
-0.134744 -0.049014 0.288435
-0.133274 -0.048973 0.288302
-0.129272 -0.047990 0.282617
-0.143522 -0.053833 0.317130
-0.142243 -0.053913 0.317692
-0.142859 -0.054720 0.322537
-0.138104 -0.053466 0.315216
-0.125099 -0.048956 0.288686
-0.124061 -0.049081 0.289477
-0.122818 -0.049127 0.289795
-0.121535 -0.049159 0.290017
-0.120417 -0.049258 0.290634
-0.119173 -0.049308 0.290952
-0.117778 -0.049295 0.290895
-0.116570 -0.049362 0.291299
-0.115349 -0.049425 0.291672
-0.113821 -0.049356 0.291265
-0.112564 -0.049405 0.291543
-0.111451 -0.049518 0.292198
-0.109891 -0.049433 0.291680
-0.108578 -0.049459 0.291809
-0.107057 -0.049390 0.291368
-0.105346 -0.049230 0.290391
-0.104151 -0.049310 0.290823
-0.102712 -0.049275 0.290575
-0.101333 -0.049269 0.290489
-0.099890 -0.049231 0.290212
-0.098467 -0.049202 0.289984
-0.095949 -0.048617 0.286477
-0.098596 -0.050670 0.298506
-0.097343 -0.050749 0.298904
-0.095872 -0.050716 0.298630
-0.095709 -0.051383 0.302485
-0.093768 -0.051102 0.300748
-0.092532 -0.051203 0.301253
-0.091499 -0.051420 0.302446
-0.090197 -0.051491 0.302770
-0.088828 -0.051525 0.302880
-0.087750 -0.051732 0.304001
-0.086231 -0.051682 0.303607
-0.084770 -0.051666 0.303409
-0.083342 -0.051669 0.303327
-0.082039 -0.051751 0.303705
-0.080796 -0.051875 0.304323
-0.078920 -0.051590 0.302542
-0.077821 -0.051812 0.303733
-0.076521 -0.051905 0.304171
-0.076591 -0.052950 0.310176
-0.070031 -0.049362 0.289048
-0.068880 -0.049519 0.289862
-0.067568 -0.049565 0.290021
-0.066306 -0.049650 0.290409
-0.064980 -0.049691 0.290533
-0.063585 -0.049678 0.290348
-0.062377 -0.049815 0.291036
-0.061003 -0.049823 0.290968
-0.059608 -0.049813 0.290799
-0.058464 -0.050017 0.291880
-0.056777 -0.049757 0.290249
-0.055584 -0.049926 0.291125
-0.054395 -0.050108 0.292078
-0.052703 -0.049824 0.290310
-0.051446 -0.049948 0.290921
-0.050091 -0.049980 0.291002
-0.048645 -0.049921 0.290550
-0.047172 -0.049830 0.289917
-0.045717 -0.049753 0.289366
-0.044358 -0.049779 0.289411
-0.042925 -0.049721 0.288974
-0.041342 -0.049480 0.287476
-0.040116 -0.049665 0.288452
-0.038773 -0.049712 0.288628
-0.037184 -0.049437 0.286938
-0.035904 -0.049566 0.287593
-0.031423 -0.045110 0.261659
-0.030080 -0.044977 0.260807
-0.028784 -0.044906 0.260320
-0.027619 -0.045042 0.261030
-0.026315 -0.044953 0.260446
-0.025078 -0.044975 0.260501
-0.023818 -0.044958 0.260337
-0.022584 -0.044990 0.260452
-0.021431 -0.045195 0.261578
-0.020265 -0.045398 0.262692
-0.019411 -0.046376 0.268289
-0.018174 -0.046510 0.269008
-0.017043 -0.046956 0.271535
-0.015764 -0.047038 0.271955
-0.014468 -0.047077 0.272132
-0.013194 -0.047203 0.272816
-0.011914 -0.047332 0.273517
-0.010544 -0.047095 0.272107
-0.009211 -0.046976 0.271384
-0.007900 -0.046955 0.271230
-0.006590 -0.046926 0.271036
-0.005286 -0.046938 0.271078
-0.003990 -0.047054 0.271725
-0.002676 -0.046969 0.271213
-0.001375 -0.047175 0.272387
-0.000062 -0.047183 0.272420
0.001232 -0.046461 0.268239
0.002548 -0.046894 0.270732
0.003860 -0.046976 0.271201
0.005017 -0.045610 0.263312
0.006220 -0.045130 0.260546
0.007468 -0.045080 0.260265
0.008716 -0.045045 0.260069
0.009948 -0.044948 0.259523
0.011208 -0.044982 0.259734
0.012478 -0.045046 0.260124
0.013756 -0.045125 0.260600
0.014956 -0.044958 0.259656
0.016280 -0.045156 0.260829
0.017711 -0.045605 0.263451
0.019238 -0.046222 0.267050
0.020520 -0.046210 0.267018
0.022068 -0.046765 0.270264
0.023201 -0.046427 0.268352
0.024418 -0.046283 0.267562
0.025786 -0.046426 0.268435
0.026973 -0.046244 0.267433
0.028099 -0.045978 0.265950
0.029264 -0.045798 0.264958
0.030736 -0.046092 0.266719
0.032026 -0.046101 0.266830
0.033402 -0.046229 0.267631
0.034746 -0.046304 0.268128
0.035999 -0.046256 0.267915
0.037081 -0.046001 0.266501
0.038146 -0.045741 0.265063
0.039365 -0.045676 0.264760
0.040641 -0.045680 0.264854
0.041838 -0.045598 0.264448
0.043066 -0.045553 0.264259
0.043092 -0.044276 0.256923
0.044271 -0.044221 0.256682
0.045549 -0.044265 0.257011
0.046666 -0.044156 0.256451
0.047840 -0.044104 0.256225
0.049084 -0.044117 0.256377
0.050297 -0.044103 0.256373
0.051598 -0.044164 0.256806
0.052662 -0.044025 0.256075
0.053875 -0.044013 0.256086
