ply
format ascii 1.0
element vertex 1681
property float x
property float y
property float z
end_header
-0.014189 -0.085214 0.271974
-0.012773 -0.084392 0.269323
-0.011515 -0.084549 0.269798
-0.010164 -0.083981 0.267962
-0.008779 -0.082924 0.264566
-0.007613 -0.083928 0.267750
-0.006365 -0.084246 0.268745
-0.005070 -0.083950 0.267780
-0.003795 -0.083921 0.267671
-0.002501 -0.083203 0.265367
-0.001254 -0.084172 0.268445
0.000022 -0.084169 0.268424
0.001297 -0.084065 0.268079
0.002565 -0.083843 0.267363
0.003829 -0.083668 0.266799
0.005072 -0.083236 0.265416
0.006307 -0.082881 0.264277
0.007555 -0.082781 0.263958
0.008789 -0.082572 0.263289
0.010026 -0.082445 0.262883
0.011303 -0.082640 0.263509
0.012527 -0.082444 0.262888
0.013799 -0.082573 0.263302
0.015066 -0.082649 0.263550
0.016306 -0.082576 0.263325
0.017572 -0.082642 0.263543
0.018920 -0.083053 0.264866
0.020081 -0.082644 0.263571
0.021332 -0.082633 0.263548
0.022546 -0.082486 0.263092
0.023702 -0.082152 0.262042
0.024912 -0.082031 0.261672
0.026129 -0.081943 0.261406
0.027330 -0.081818 0.261023
0.028639 -0.082010 0.261653
0.029762 -0.081675 0.260605
0.030891 -0.081382 0.259690
0.032214 -0.081603 0.260416
0.033502 -0.081724 0.260822
0.034957 -0.082229 0.262455
0.036336 -0.082525 0.263421
0.037618 -0.082589 0.263649
0.038844 -0.082530 0.263481
0.040024 -0.082378 0.263020
0.041232 -0.082294 0.262776
0.042302 -0.081945 0.261682
0.043424 -0.081714 0.260970
0.044720 -0.081816 0.261316
0.045769 -0.081472 0.260240
0.046835 -0.081175 0.259315
0.048183 -0.081368 0.259953
0.049534 -0.081558 0.260581
0.050739 -0.081505 0.260432
0.052115 -0.081720 0.261141
0.053622 -0.082127 0.262460
0.055338 -0.082829 0.264720
0.057397 -0.084001 0.268486
0.059087 -0.084593 0.270395
0.060653 -0.084987 0.271670
0.062311 -0.085489 0.273291
0.063677 -0.085580 0.273595
0.065279 -0.085978 0.274877
0.066446 -0.085798 0.274312
0.067628 -0.085644 0.273828
0.068884 -0.085587 0.273651
0.069987 -0.085346 0.272884
0.071122 -0.085152 0.272265
0.072405 -0.085140 0.272225
0.073620 -0.085048 0.271929
0.074859 -0.084988 0.271730
0.075951 -0.084765 0.271008
0.077336 -0.084871 0.271336
0.078603 -0.084846 0.271241
0.079974 -0.084932 0.271500
0.081453 -0.085129 0.272106
0.083053 -0.085443 0.273086
0.084525 -0.085618 0.273615
0.085905 -0.085697 0.273834
0.088241 -0.086712 0.277040
0.094367 -0.091366 0.291867
0.095646 -0.091261 0.291483
0.097983 -0.092155 0.294282
0.099480 -0.092243 0.294505
0.100883 -0.092244 0.294443
0.102084 -0.092061 0.293790
0.103438 -0.092021 0.293586
0.104808 -0.091995 0.293421
0.106219 -0.092005 0.293366
0.107573 -0.091966 0.293147
0.109008 -0.091997 0.293144
0.110418 -0.092005 0.293064
0.111889 -0.092065 0.293137
0.113321 -0.092090 0.293095
0.114713 -0.092082 0.292942
0.116215 -0.092163 0.293060
0.117762 -0.092276 0.293274
0.119270 -0.092357 0.293375
0.120643 -0.092332 0.293133
0.122200 -0.092447 0.293325
0.123643 -0.092474 0.293229
0.125240 -0.092614 0.293480
0.126800 -0.092725 0.293628
0.128344 -0.092820 0.293717
0.129735 -0.092805 0.293445
0.131197 -0.092840 0.293320
0.132850 -0.093008 0.293603
0.133916 -0.092765 0.292578
0.135833 -0.093111 0.293397
0.137562 -0.093322 0.293777
0.137138 -0.092084 0.289584
0.140548 -0.093418 0.293467
0.142206 -0.093573 0.293626
0.143744 -0.093646 0.293513
0.145415 -0.093804 0.293648
0.147206 -0.094035 0.293997
0.148722 -0.094088 0.293770
0.150205 -0.094119 0.293456
0.151844 -0.094246 0.293424
0.153304 -0.094261 0.293024
0.154701 -0.094237 0.292482
0.155976 -0.094140 0.291693
-0.145263 -0.084484 0.268323
-0.144097 -0.084557 0.268965
-0.143023 -0.084687 0.269768
-0.141844 -0.084756 0.270365
-0.140733 -0.084868 0.271082
-0.139576 -0.084954 0.271702
-0.138241 -0.084932 0.271962
-0.137138 -0.085054 0.272671
-0.136035 -0.085178 0.273372
-0.134833 -0.085242 0.273868
-0.133731 -0.085372 0.274562
-0.132777 -0.085599 0.275560
-0.131733 -0.085773 0.276372
-0.130792 -0.086017 0.277403
-0.129537 -0.086059 0.277770
-0.128219 -0.086059 0.277990
-0.127029 -0.086146 0.278480
-0.125716 -0.086150 0.278694
-0.124390 -0.086146 0.278870
-0.123103 -0.086168 0.279123
-0.121765 -0.086156 0.279253
-0.120624 -0.086284 0.279829
-0.119402 -0.086356 0.280216
-0.118108 -0.086378 0.280431
-0.117014 -0.086548 0.281118
-0.115817 -0.086645 0.281561
-0.114847 -0.086916 0.282560
-0.113980 -0.087272 0.283832
-0.112606 -0.087245 0.283848
-0.111852 -0.087703 0.285436
-0.111381 -0.088396 0.287784
-0.110525 -0.088797 0.289177
-0.109328 -0.088931 0.289694
-0.108383 -0.089276 0.290889
-0.106963 -0.089234 0.290817
-0.105872 -0.089468 0.291644
-0.105076 -0.089962 0.293307
-0.101438 -0.088004 0.286971
-0.100148 -0.088056 0.287185
-0.098699 -0.087969 0.286939
-0.097534 -0.088136 0.287515
-0.096353 -0.088293 0.288056
-0.095101 -0.088389 0.288393
-0.093645 -0.088295 0.288104
-0.092506 -0.088502 0.288795
-0.094336 -0.091597 0.298905
-0.094207 -0.092856 0.303019
-0.096187 -0.096264 0.314142
-0.094006 -0.095550 0.311810
-0.092142 -0.095139 0.310465
-0.091292 -0.095781 0.312549
-0.089943 -0.095910 0.312957
-0.088525 -0.095969 0.313134
-0.087104 -0.096027 0.313304
-0.086243 -0.096716 0.315528
-0.084636 -0.096577 0.315049
-0.083589 -0.097083 0.316672
-0.082327 -0.097354 0.317526
-0.080584 -0.097056 0.316517
-0.079182 -0.097165 0.316838
-0.071778 -0.089772 0.292694
-0.070085 -0.089371 0.291351
-0.068834 -0.089529 0.291828
-0.067568 -0.089675 0.292261
-0.066191 -0.089676 0.292225
-0.064897 -0.089793 0.292559
-0.063552 -0.089842 0.292675
-0.062188 -0.089865 0.292704
-0.060809 -0.089869 0.292669
-0.059453 -0.089907 0.292745
-0.058042 -0.089861 0.292544
-0.056630 -0.089812 0.292336
-0.055269 -0.089844 0.292391
-0.053804 -0.089704 0.291882
-0.052368 -0.089606 0.291513
-0.050978 -0.089584 0.291390
-0.049550 -0.089492 0.291037
-0.048146 -0.089440 0.290816
-0.046739 -0.089380 0.290570
-0.045333 -0.089316 0.290310
-0.043915 -0.089226 0.289966
-0.042328 -0.088775 0.288450
-0.042829 -0.092820 0.301541
-0.041433 -0.092890 0.301714
-0.038601 -0.089632 0.291080
-0.037582 -0.090497 0.293841
-0.036215 -0.090559 0.293993
-0.031419 -0.081708 0.265215
-0.030268 -0.081995 0.266102
-0.028951 -0.081837 0.265548
-0.027424 -0.081047 0.262942
-0.026121 -0.080872 0.262335
-0.025015 -0.081321 0.263752
-0.023813 -0.081489 0.264256
-0.022659 -0.081852 0.265397
-0.021599 -0.082611 0.267821
-0.020500 -0.083313 0.270060
-0.019314 -0.083730 0.271378
-0.017987 -0.083551 0.270764
-0.016876 -0.084426 0.273567
-0.015583 -0.084456 0.273634
-0.013302 -0.078660 0.254826
-0.012217 -0.079476 0.257444
-0.011026 -0.079710 0.258178
-0.009793 -0.079654 0.257973
-0.008609 -0.080052 0.259239
-0.007390 -0.080194 0.259678
-0.006173 -0.080420 0.260391
-0.004960 -0.080828 0.261692
-0.003724 -0.081011 0.262268
-0.002475 -0.080970 0.262120
-0.001239 -0.081701 0.264475
0.000019 -0.083247 0.269466
0.001298 -0.083078 0.268909
0.002554 -0.082303 0.266391
0.003840 -0.082714 0.267714
0.005088 -0.082303 0.266379
0.006312 -0.081738 0.264548
0.007562 -0.081642 0.264232
0.008785 -0.081321 0.263193
0.010035 -0.081295 0.263110
0.011283 -0.081263 0.263010
0.012555 -0.081397 0.263446
0.013815 -0.081434 0.263572
0.015068 -0.081422 0.263540
0.016382 -0.081721 0.264513
0.017617 -0.081611 0.264167
0.018940 -0.081895 0.265098
0.020182 -0.081812 0.264843
0.021356 -0.081483 0.263789
0.022691 -0.081768 0.264725
0.023929 -0.081695 0.264504
0.024997 -0.081075 0.262515
0.026373 -0.081467 0.263800
0.027570 -0.081292 0.263253
0.028733 -0.081039 0.262454
0.029986 -0.081050 0.262509
0.031071 -0.080623 0.261147
0.032388 -0.080809 0.261771
0.033700 -0.080968 0.262308
0.035009 -0.081110 0.262792
0.036357 -0.081329 0.263524
0.037653 -0.081419 0.263839
0.038873 -0.081346 0.263629
0.040038 -0.081164 0.263064
0.041191 -0.080972 0.262466
0.042201 -0.080517 0.261016
0.043346 -0.080338 0.260462
0.044659 -0.080471 0.260915
0.045529 -0.079820 0.258831
0.046866 -0.080002 0.259443
0.047946 -0.079746 0.258639
0.049212 -0.079805 0.258852
0.050577 -0.080018 0.259566
0.052005 -0.080317 0.260560
0.053553 -0.080783 0.262094
0.055303 -0.081526 0.264525
0.057184 -0.082425 0.267460
0.059047 -0.083259 0.270188
0.060558 -0.083572 0.271222
0.062122 -0.083942 0.272442
0.063662 -0.084267 0.273511
0.064972 -0.084280 0.273567
0.066284 -0.084295 0.273630
0.067701 -0.084441 0.274113
0.068741 -0.084119 0.273077
0.069811 -0.083845 0.272194
0.070852 -0.083547 0.271230
0.071913 -0.083282 0.270375
0.073119 -0.083192 0.270082
0.074149 -0.082908 0.269157
0.075137 -0.082589 0.268114
0.076433 -0.082611 0.268179
0.077752 -0.082658 0.268320
0.079143 -0.082778 0.268695
0.080599 -0.082962 0.269274
0.082263 -0.083350 0.270512
0.084098 -0.083897 0.272262
0.084794 -0.083309 0.270325
0.087095 -0.084291 0.273478
0.090064 -0.085882 0.278601
0.094687 -0.088980 0.288608
0.095807 -0.088745 0.287795
0.098838 -0.090262 0.292661
0.100474 -0.090479 0.293306
0.102055 -0.090643 0.293771
0.103114 -0.090344 0.292732
0.104571 -0.090398 0.292829
0.106026 -0.090448 0.292907
0.107459 -0.090479 0.292917
0.109020 -0.090615 0.293262
0.110519 -0.090696 0.293422
0.111989 -0.090752 0.293493
0.113479 -0.090823 0.293603
0.115058 -0.090962 0.293929
0.116503 -0.090993 0.293895
0.117894 -0.090982 0.293719
0.119419 -0.091073 0.293862
0.120817 -0.091066 0.293681
0.122150 -0.091011 0.293337
0.123690 -0.091110 0.293477
0.125098 -0.091110 0.293291
0.126658 -0.091219 0.293447
0.128342 -0.091414 0.293867
0.129755 -0.091415 0.293651
0.131255 -0.091475 0.293615
0.132647 -0.091460 0.293328
0.134093 -0.091482 0.293145
0.135657 -0.091583 0.293205
0.137032 -0.091556 0.292838
0.138519 -0.091603 0.292699
0.140034 -0.091668 0.292601
0.141770 -0.091874 0.292941
0.143540 -0.092098 0.293320
0.145062 -0.092160 0.293168
0.146735 -0.092316 0.293296
0.148565 -0.092567 0.293709
0.150083 -0.092620 0.293475
0.151683 -0.092722 0.293379
0.153339 -0.092856 0.293367
0.154649 -0.092780 0.292670
0.156164 -0.092827 0.292339
-0.145679 -0.083418 0.269330
-0.144447 -0.083455 0.269848
-0.143308 -0.083546 0.270530
-0.142229 -0.083675 0.271316
-0.141209 -0.083841 0.272209
-0.139887 -0.083829 0.272510
-0.138627 -0.083855 0.272918
-0.137608 -0.084028 0.273793
-0.136343 -0.084053 0.274173
-0.135185 -0.084146 0.274760
-0.134126 -0.084303 0.275544
-0.133055 -0.084455 0.276300
-0.131875 -0.084540 0.276829
-0.130759 -0.084669 0.277486
-0.129542 -0.084734 0.277926
-0.128505 -0.084920 0.278750
-0.127303 -0.084999 0.279217
-0.126024 -0.085028 0.279507
-0.124821 -0.085110 0.279961
-0.123620 -0.085195 0.280414
-0.122514 -0.085348 0.281084
-0.121535 -0.085594 0.282052
-0.120037 -0.085476 0.281813
-0.119315 -0.085914 0.283396
-0.119945 -0.087347 0.288257
-0.116925 -0.086124 0.284346
-0.116523 -0.086824 0.286772
-0.116428 -0.087771 0.290012
-0.115004 -0.087727 0.289970
-0.113825 -0.087872 0.290544
-0.112807 -0.088146 0.291537
-0.111713 -0.088366 0.292349
-0.110731 -0.088682 0.293471
-0.109476 -0.088785 0.293879
-0.108547 -0.089157 0.295176
-0.107501 -0.089443 0.296178
-0.105828 -0.089208 0.295451
-0.106323 -0.090818 0.300829
-0.100498 -0.087000 0.288223
-0.099336 -0.087170 0.288821
-0.098042 -0.087227 0.289039
-0.096574 -0.087130 0.288740
-0.095561 -0.087445 0.289805
-0.094019 -0.087279 0.289269
-0.092250 -0.086894 0.288003
-0.093935 -0.089800 0.297642
-0.093245 -0.090488 0.299926
-0.092990 -0.091628 0.303700
-0.094122 -0.094190 0.312189
-0.092578 -0.094113 0.311924
-0.091232 -0.094239 0.312327
-0.089605 -0.094073 0.311763
-0.088659 -0.094630 0.313587
-0.087083 -0.094521 0.313204
-0.085858 -0.094796 0.314090
-0.084692 -0.095148 0.315226
-0.083491 -0.095471 0.316264
-0.081932 -0.095390 0.315962
-0.080989 -0.096036 0.318065
-0.079581 -0.096146 0.318387
-0.071586 -0.088148 0.291864
-0.070166 -0.088092 0.291639
-0.068879 -0.088204 0.291967
-0.067599 -0.088330 0.292342
-0.066219 -0.088328 0.292289
-0.064862 -0.088357 0.292338
-0.063552 -0.088453 0.292609
-0.062207 -0.088503 0.292725
-0.060803 -0.088471 0.292568
-0.059454 -0.088517 0.292670
-0.058061 -0.088500 0.292562
-0.056710 -0.088549 0.292671
-0.055318 -0.088533 0.292564
-0.053914 -0.088496 0.292390
-0.052492 -0.088429 0.292115
-0.051048 -0.088319 0.291697
-0.049656 -0.088297 0.291569
-0.048203 -0.088161 0.291066
-0.046867 -0.088237 0.291264
-0.045431 -0.088125 0.290838
-0.043903 -0.087820 0.289781
-0.042154 -0.087042 0.287160
-0.042710 -0.091129 0.300587
-0.041318 -0.091198 0.300760
-0.038538 -0.088098 0.290487
-0.037586 -0.089104 0.293750
-0.036219 -0.089166 0.293903
-0.031260 -0.080034 0.263757
-0.029995 -0.079996 0.263590
-0.028898 -0.080422 0.264948
-0.027392 -0.079694 0.262507
-0.026053 -0.079409 0.261528
-0.024977 -0.079935 0.263219
-0.023754 -0.080026 0.263479
-0.022604 -0.080383 0.264617
-0.021577 -0.081245 0.267416
-0.020505 -0.082034 0.269975
-0.019459 -0.083045 0.273266
-0.018052 -0.082543 0.271579
-0.016857 -0.083015 0.273099
-0.015565 -0.083045 0.273166
-0.013444 -0.078252 0.257371
-0.012223 -0.078269 0.257401
-0.011082 -0.078854 0.259298
-0.009836 -0.078750 0.258932
-0.008624 -0.078926 0.259488
-0.007408 -0.079114 0.260085
-0.006178 -0.079206 0.260367
-0.004955 -0.079460 0.261186
-0.003713 -0.079471 0.261204
-0.002471 -0.079492 0.261257
-0.001233 -0.079779 0.262189
0.000015 -0.080724 0.265282
0.001281 -0.080934 0.265961
0.002523 -0.080178 0.263469
0.003803 -0.080732 0.265283
0.005051 -0.080487 0.264472
0.006256 -0.079798 0.262205
0.007534 -0.080118 0.263255
0.008767 -0.079929 0.262633
0.010015 -0.079910 0.262570
0.011284 -0.080050 0.263033
0.012543 -0.080086 0.263157
0.013826 -0.080264 0.263747
0.015078 -0.080241 0.263677
0.016374 -0.080442 0.264349
0.017719 -0.080834 0.265647
0.019027 -0.081019 0.266265
0.020353 -0.081249 0.267036
0.021651 -0.081348 0.267376
0.022805 -0.080928 0.266009
0.023981 -0.080621 0.265016
0.025292 -0.080780 0.265557
0.026215 -0.079740 0.262158
0.027266 -0.079167 0.260294
0.028757 -0.079868 0.262619
0.029928 -0.079655 0.261940
0.031225 -0.079785 0.262389
0.032630 -0.080168 0.263671
0.033624 -0.079549 0.261662
0.034882 -0.079578 0.261781
0.036281 -0.079916 0.262919
0.037528 -0.079906 0.262910
0.038738 -0.079822 0.262661
0.039858 -0.079563 0.261833
0.041034 -0.079428 0.261415
0.041969 -0.078846 0.259528
0.043125 -0.078704 0.259086
0.044446 -0.078861 0.259629
0.045511 -0.078566 0.258687
0.046667 -0.078442 0.258303
0.048038 -0.078674 0.259094
0.049371 -0.078834 0.259647
0.050740 -0.079044 0.260363
0.052096 -0.079224 0.260980
0.053641 -0.079674 0.262488
0.055553 -0.080638 0.265688
0.057163 -0.081130 0.267331
0.058680 -0.081471 0.268478
0.060543 -0.082269 0.271129
0.061962 -0.082442 0.271719
0.063363 -0.082585 0.272207
0.064649 -0.082574 0.272187
0.066000 -0.082645 0.272439
0.067259 -0.082602 0.272308
0.068316 -0.082315 0.271376
0.069277 -0.081927 0.270104
0.070282 -0.081602 0.269042
0.071359 -0.081372 0.268289
0.072404 -0.081114 0.267440
0.073272 -0.080671 0.265979
0.074579 -0.080717 0.266129
0.075570 -0.080424 0.265158
0.076591 -0.080174 0.264325
0.078067 -0.080399 0.265059
0.079327 -0.080399 0.265042
0.080975 -0.080786 0.266300
0.082864 -0.081397 0.268294
0.084016 -0.081277 0.267871
0.086090 -0.082039 0.270353
0.090164 -0.084656 0.278944
0.096658 -0.089437 0.294656
0.097945 -0.089331 0.294263
0.098941 -0.088968 0.293015
0.100277 -0.088916 0.292787
0.101990 -0.089194 0.293643
0.103210 -0.089039 0.293066
0.104620 -0.089051 0.293032
0.106109 -0.089129 0.293209
0.107538 -0.089154 0.293207
0.108999 -0.089206 0.293286
0.110405 -0.089211 0.293204
0.111779 -0.089190 0.293031
0.113357 -0.089332 0.293383
0.114680 -0.089270 0.293062
0.116112 -0.089294 0.293013
0.117694 -0.089432 0.293330
0.119274 -0.089565 0.293619
0.120758 -0.089623 0.293658
0.122174 -0.089630 0.293520
0.123599 -0.089644 0.293392
0.125180 -0.089769 0.293620
0.126681 -0.089834 0.293641
0.128146 -0.089873 0.293568
0.129573 -0.089883 0.293391
0.130979 -0.089881 0.293160
0.132657 -0.090062 0.293516
0.133896 -0.089944 0.292887
0.135258 -0.089910 0.292520
0.136916 -0.090073 0.292777
0.138297 -0.090051 0.292422
0.140008 -0.090243 0.292748
0.141751 -0.090450 0.293109
0.143222 -0.090482 0.292885
0.145057 -0.090741 0.293381
0.146799 -0.090937 0.293656
0.148407 -0.091047 0.293636
0.150192 -0.091263 0.293939
0.151839 -0.091391 0.293940
0.153278 -0.091393 0.293517
0.154832 -0.091462 0.293290
0.156442 -0.091564 0.293147
-0.147359 -0.083058 0.272670
-0.146712 -0.083435 0.274307
-0.145153 -0.083296 0.274231
-0.144207 -0.083509 0.275300
-0.143065 -0.083612 0.275990
-0.141452 -0.083439 0.275757
-0.140719 -0.083787 0.277229
-0.139164 -0.083647 0.277075
-0.137964 -0.083721 0.277612
-0.136996 -0.083937 0.278612
-0.135518 -0.083843 0.278569
-0.134267 -0.083889 0.278976
-0.133623 -0.084318 0.280652
-0.131462 -0.083790 0.279127
-0.130364 -0.083936 0.279832
-0.132145 -0.085957 0.286786
-0.127385 -0.083721 0.279527
-0.126220 -0.083826 0.280067
-0.125439 -0.084191 0.281467
-0.123896 -0.084048 0.281158
-0.126339 -0.086634 0.289975
-0.125182 -0.086781 0.290624
-0.123549 -0.086598 0.290160
-0.122885 -0.087098 0.291975
-0.121780 -0.087293 0.292760
-0.120474 -0.087348 0.293065
-0.119384 -0.087562 0.293898
-0.117981 -0.087548 0.293959
-0.116509 -0.087482 0.293838
-0.114778 -0.087219 0.293045
-0.113438 -0.087250 0.293234
-0.112198 -0.087359 0.293678
-0.110857 -0.087392 0.293862
-0.109605 -0.087496 0.294277
-0.108477 -0.087703 0.295034
-0.109581 -0.089745 0.301954
-0.108098 -0.089693 0.301827
-0.105416 -0.088631 0.298298
-0.104050 -0.088663 0.298441
-0.102129 -0.088216 0.296966
-0.100494 -0.088007 0.296289
-0.097243 -0.086358 0.290757
-0.095674 -0.086175 0.290160
-0.094086 -0.085972 0.289485
-0.094926 -0.088013 0.296366
-0.094956 -0.089353 0.300880
-0.093655 -0.089461 0.301244
-0.091284 -0.088536 0.298123
-0.094405 -0.092992 0.313119
-0.093047 -0.093107 0.313492
-0.091207 -0.092735 0.312225
-0.090040 -0.093048 0.313258
-0.088655 -0.093142 0.313549
-0.087356 -0.093330 0.314158
-0.086150 -0.093627 0.315127
-0.084934 -0.093923 0.316091
-0.083479 -0.093960 0.316180
-0.081948 -0.093912 0.315979
-0.081034 -0.094582 0.318195
-0.079626 -0.094691 0.318517
-0.071824 -0.087053 0.292785
-0.070183 -0.086730 0.291656
-0.068893 -0.086837 0.291969
-0.067571 -0.086907 0.292159
-0.066220 -0.086943 0.292230
-0.064927 -0.087057 0.292565
-0.063504 -0.086998 0.292316
-0.062128 -0.087003 0.292280
-0.060801 -0.087078 0.292481
-0.059361 -0.086991 0.292135
-0.057956 -0.086953 0.291952
-0.056531 -0.086882 0.291661
-0.055209 -0.086970 0.291901
-0.053832 -0.086974 0.291858
-0.052415 -0.086912 0.291592
-0.051059 -0.086950 0.291666
-0.049631 -0.086866 0.291326
-0.048275 -0.086905 0.291400
-0.046894 -0.086901 0.291330
-0.045519 -0.086907 0.291294
-0.044053 -0.086735 0.290661
-0.042348 -0.086066 0.288367
-0.042397 -0.089038 0.298268
-0.041016 -0.089107 0.298441
-0.038577 -0.086801 0.290664
-0.037507 -0.087517 0.293010
-0.036144 -0.087578 0.293162
-0.031436 -0.079217 0.265126
-0.030060 -0.078907 0.264042
-0.029001 -0.079435 0.265763
-0.027465 -0.078649 0.263091
-0.026142 -0.078424 0.262295
-0.025031 -0.078844 0.263659
-0.023872 -0.079153 0.264651
-0.022645 -0.079258 0.264961
-0.021653 -0.080243 0.268214
-0.020568 -0.080987 0.270665
-0.019476 -0.081802 0.273350
-0.018044 -0.081200 0.271305
-0.016842 -0.081625 0.272690
-0.015532 -0.081554 0.272421
-0.013679 -0.078357 0.261711
-0.012424 -0.078291 0.261461
-0.011221 -0.078572 0.262376
-0.009944 -0.078343 0.261586
-0.008705 -0.078389 0.261716
-0.007464 -0.078434 0.261844
-0.006216 -0.078407 0.261733
-0.004975 -0.078475 0.261940
-0.003733 -0.078579 0.262272
-0.002482 -0.078470 0.261892
-0.001240 -0.078770 0.262881
0.000012 -0.079510 0.265337
0.001278 -0.079677 0.265884
0.002534 -0.079372 0.264859
0.003790 -0.079268 0.264505
0.005045 -0.079184 0.264220
0.006280 -0.078900 0.263267
0.007529 -0.078849 0.263096
0.008760 -0.078645 0.262416
0.010016 -0.078698 0.262592
0.011314 -0.079024 0.263685
0.012572 -0.079041 0.263746
0.013883 -0.079349 0.264782
0.015108 -0.079163 0.264167
0.016435 -0.079494 0.265281
0.017766 -0.079797 0.266305
0.019167 -0.080352 0.268168
0.020590 -0.080923 0.270088
0.021799 -0.080635 0.269143
0.023107 -0.080728 0.269469
0.024427 -0.080848 0.269888
0.025700 -0.080810 0.269781
0.026254 -0.078621 0.262492
0.027307 -0.078055 0.260625
0.028800 -0.078746 0.262953
0.029972 -0.078536 0.262273
0.031298 -0.078728 0.262938
0.032530 -0.078680 0.262803
0.033672 -0.078426 0.261980
0.034919 -0.078423 0.261998
0.036335 -0.078790 0.263251
0.037603 -0.078820 0.263378
0.038729 -0.078561 0.262540
0.039980 -0.078564 0.262580
0.040919 -0.077971 0.260625
0.042059 -0.077786 0.260036
0.043260 -0.077721 0.259845
0.044380 -0.077517 0.259192
0.045543 -0.077397 0.258822
0.046767 -0.077385 0.258808
0.048287 -0.077850 0.260391
0.049661 -0.078063 0.261133
0.050911 -0.078075 0.261202
0.052320 -0.078324 0.262060
0.053932 -0.078859 0.263877
0.055568 -0.079403 0.265724
0.057341 -0.080115 0.268133
0.058740 -0.080284 0.268724
0.060412 -0.080812 0.270513
0.062001 -0.081208 0.271863
0.063204 -0.081094 0.271500
0.064482 -0.081077 0.271465
0.065638 -0.080911 0.270925
0.066819 -0.080782 0.270509
0.068005 -0.080663 0.270126
0.068970 -0.080292 0.268896
0.069853 -0.079840 0.267392
0.070811 -0.079489 0.266225
0.071924 -0.079320 0.265664
0.072483 -0.078557 0.263112
0.073264 -0.078056 0.261436
0.074296 -0.077835 0.260695
0.075325 -0.077619 0.259964
0.076362 -0.077416 0.259279
0.077772 -0.077593 0.259861
0.079269 -0.077850 0.260706
0.081029 -0.078353 0.262374
0.082334 -0.078408 0.262535
0.083836 -0.078645 0.263305
0.098018 -0.088003 0.294524
0.098895 -0.087539 0.292923
0.100580 -0.087792 0.293720
0.102124 -0.087917 0.294081
0.103353 -0.087772 0.293532
0.104795 -0.087808 0.293585
0.106171 -0.087789 0.293446
0.107772 -0.087954 0.293918
0.109197 -0.087973 0.293894
0.110555 -0.087938 0.293684
0.111892 -0.087887 0.293412
0.113254 -0.087858 0.293206
0.114699 -0.087892 0.293206
0.116105 -0.087896 0.293094
0.117488 -0.087883 0.292920
0.118979 -0.087949 0.293003
0.120498 -0.088034 0.293139
0.121924 -0.088051 0.293037
0.123432 -0.088125 0.293119
0.124997 -0.088238 0.293320
0.126583 -0.088364 0.293551
0.128026 -0.088387 0.293433
0.129616 -0.088510 0.293636
0.131004 -0.088495 0.293368
0.132395 -0.088481 0.293095
0.134046 -0.088639 0.293380
0.135206 -0.088474 0.292580
0.136825 -0.088608 0.292761
0.138550 -0.088808 0.293143
0.140084 -0.088883 0.293099
0.142031 -0.089215 0.293889
0.143459 -0.089217 0.293578
0.144953 -0.089261 0.293386
0.146819 -0.089530 0.293919
0.148579 -0.089730 0.294208
0.150208 -0.089848 0.294208
0.151699 -0.089882 0.293918
0.153365 -0.090018 0.293940
0.154880 -0.090063 0.293647
0.156333 -0.090071 0.293216
-0.149363 -0.082848 0.276605
-0.148253 -0.082969 0.277408
-0.147365 -0.083220 0.278625
-0.146286 -0.083365 0.279477
-0.145195 -0.083506 0.280301
-0.144767 -0.084035 0.282414
-0.149727 -0.087731 0.295170
-0.144018 -0.085187 0.286922
-0.142877 -0.085322 0.287675
-0.141917 -0.085568 0.288791
-0.140696 -0.085661 0.289377
-0.139511 -0.085778 0.290032
-0.138013 -0.085703 0.290026
-0.136759 -0.085779 0.290521
-0.135615 -0.085927 0.291246
-0.131999 -0.084495 0.286603
-0.129751 -0.083919 0.284847
-0.128551 -0.084015 0.285362
-0.128255 -0.085619 0.291161
-0.127030 -0.085721 0.291668
-0.125722 -0.085768 0.291982
-0.124210 -0.085676 0.291810
-0.123012 -0.085800 0.292370
-0.121410 -0.085643 0.291959
-0.119956 -0.085587 0.291886
-0.118314 -0.085395 0.291341
-0.116956 -0.085405 0.291478
-0.115773 -0.085546 0.292052
-0.114418 -0.085561 0.292190
-0.113156 -0.085647 0.292566
-0.111867 -0.085715 0.292870
-0.110537 -0.085752 0.293064
-0.109289 -0.085855 0.293476
-0.107795 -0.085765 0.293223
-0.106390 -0.085743 0.293199
-0.105347 -0.086018 0.294181
-0.103935 -0.085994 0.294137
-0.103019 -0.086387 0.295511
-0.101802 -0.086533 0.296039
-0.099990 -0.086172 0.294824
-0.097433 -0.085149 0.291341
-0.096301 -0.085359 0.292074
-0.097971 -0.088096 0.301446
-0.095846 -0.087450 0.299240
-0.093812 -0.086870 0.297255
-0.092423 -0.086879 0.297279
-0.090817 -0.086680 0.296591
-0.094288 -0.091397 0.312717
-0.092932 -0.091511 0.313090
-0.091434 -0.091486 0.312984
-0.090350 -0.091881 0.314312
-0.089114 -0.092132 0.315143
-0.087603 -0.092103 0.315014
-0.086291 -0.092286 0.315606
-0.085663 -0.093220 0.318763
-0.083503 -0.092489 0.316226
-0.082169 -0.092664 0.316785
-0.081545 -0.093662 0.320152
-0.080130 -0.093771 0.320477
-0.071702 -0.085520 0.292234
-0.070093 -0.085238 0.291225
-0.068821 -0.085364 0.291606
-0.067567 -0.085518 0.292082
-0.066153 -0.085470 0.291870
-0.064852 -0.085570 0.292159
-0.063529 -0.085645 0.292360
-0.062141 -0.085633 0.292268
-0.060812 -0.085705 0.292459
-0.059420 -0.085689 0.292346
-0.057974 -0.085593 0.291963
-0.056637 -0.085656 0.292120
-0.055261 -0.085663 0.292086
-0.053853 -0.085621 0.291883
-0.052452 -0.085586 0.291707
-0.051101 -0.085633 0.291810
-0.049706 -0.085608 0.291663
-0.048222 -0.085423 0.290977
-0.046959 -0.085630 0.291624
-0.045494 -0.085473 0.291029
-0.043945 -0.085141 0.289842
-0.042424 -0.084844 0.288772
-0.042464 -0.087753 0.298615
-0.041081 -0.087821 0.298789
-0.038587 -0.085436 0.290619
-0.037631 -0.086403 0.293853
-0.036263 -0.086464 0.294007
-0.031497 -0.078102 0.265524
-0.029993 -0.077471 0.263332
-0.028924 -0.077957 0.264939
-0.027474 -0.077416 0.263052
-0.026137 -0.077155 0.262122
-0.025001 -0.077489 0.263214
-0.023852 -0.077818 0.264290
-0.022619 -0.077894 0.264508
-0.021588 -0.078718 0.267265
-0.020542 -0.079586 0.270174
-0.019496 -0.080571 0.273479
-0.017974 -0.079585 0.270096
-0.016840 -0.080305 0.272503
-0.015552 -0.080344 0.272602
-0.013765 -0.077580 0.263196
-0.012495 -0.077468 0.262785
-0.011272 -0.077652 0.263382
-0.009951 -0.077125 0.261568
-0.008707 -0.077133 0.261573
-0.007464 -0.077148 0.261601
-0.006214 -0.077092 0.261392
-0.004975 -0.077179 0.261668
-0.003733 -0.077259 0.261922
-0.002488 -0.077333 0.262155
-0.001243 -0.077510 0.262745
0.000009 -0.078484 0.266034
0.001282 -0.078900 0.267431
0.002539 -0.078357 0.265584
0.003824 -0.078771 0.266981
0.005098 -0.078805 0.267090
0.006323 -0.078217 0.265093
0.007589 -0.078252 0.265211
0.008848 -0.078210 0.265069
0.010064 -0.077847 0.263840
0.011343 -0.077990 0.264330
0.012701 -0.078601 0.266404
0.014006 -0.078802 0.267094
0.015298 -0.078901 0.267437
0.016658 -0.079310 0.268835
0.017966 -0.079429 0.269249
0.019260 -0.079472 0.269411
0.020570 -0.079573 0.269769
0.021916 -0.079794 0.270533
0.023107 -0.079455 0.269403
0.023866 -0.077748 0.263633
0.024282 -0.075148 0.254835
0.025493 -0.075138 0.254822
0.027006 -0.075978 0.257694
0.028123 -0.075681 0.256707
0.029443 -0.075932 0.257583
0.030728 -0.076073 0.258088
0.032009 -0.076197 0.258534
0.033305 -0.076346 0.259064
0.034512 -0.076287 0.258891
0.035829 -0.076464 0.259522
0.037334 -0.077020 0.261437
0.038522 -0.076907 0.261084
0.039655 -0.076693 0.260386
0.040830 -0.076572 0.260007
0.042111 -0.076651 0.260304
0.043080 -0.076173 0.258712
0.044266 -0.076094 0.258475
0.045235 -0.075658 0.257022
0.046424 -0.075602 0.256863
0.047932 -0.076055 0.258431
0.049189 -0.076097 0.258604
0.050695 -0.076514 0.260051
0.052072 -0.076720 0.260780
0.053472 -0.076948 0.261586
0.055341 -0.077827 0.264602
0.056952 -0.078311 0.266274
0.058552 -0.078761 0.267830
0.060346 -0.079446 0.270186
0.061642 -0.079459 0.270258
0.063054 -0.079620 0.270826
0.064344 -0.079623 0.270859
0.065403 -0.079344 0.269933
0.066678 -0.079334 0.269916
0.067903 -0.079267 0.269706
0.068920 -0.078962 0.268685
0.069646 -0.078342 0.266586
0.070485 -0.077869 0.264988
0.071562 -0.077670 0.264319
0.072226 -0.077039 0.262178
0.072701 -0.076229 0.259425
0.073777 -0.076067 0.258876
0.075028 -0.076088 0.258944
0.075898 -0.075727 0.257712
0.077407 -0.076005 0.258651
0.079037 -0.076392 0.259956
0.080706 -0.076804 0.261344
0.082215 -0.077053 0.262173
0.083554 -0.077138 0.262442
0.084701 -0.077046 0.262102
0.096808 -0.085540 0.290928
0.098574 -0.085872 0.292016
0.100218 -0.086089 0.292707
0.102024 -0.086439 0.293842
0.103248 -0.086293 0.293287
0.104694 -0.086333 0.293361
0.106137 -0.086369 0.293413
0.107624 -0.086441 0.293579
0.108913 -0.086353 0.293198
0.110275 -0.086325 0.293014
0.111746 -0.086381 0.293110
0.113315 -0.086511 0.293447
0.114764 -0.086547 0.293458
0.116258 -0.086616 0.293574
0.117644 -0.086604 0.293407
0.119050 -0.086607 0.293282
0.120504 -0.086643 0.293263
0.121845 -0.086599 0.292962
0.123217 -0.086577 0.292728
0.124769 -0.086681 0.292909
0.126273 -0.086750 0.292962
0.127744 -0.086794 0.292923
0.129290 -0.086888 0.293040
0.130834 -0.086979 0.293135
0.132311 -0.087023 0.293062
0.133726 -0.087026 0.292839
0.135246 -0.087096 0.292832
0.136651 -0.087092 0.292561
0.138308 -0.087247 0.292809
0.140215 -0.087555 0.293558
0.141919 -0.087731 0.293849
0.143285 -0.087696 0.293421
0.145030 -0.087892 0.293749
0.146729 -0.088057 0.293955
0.148396 -0.088199 0.294070
0.150222 -0.088432 0.294469
0.151699 -0.088457 0.294156
0.153280 -0.088541 0.294025
0.154812 -0.088596 0.293776
0.156331 -0.088642 0.293478
-0.157726 -0.086072 0.292325
-0.150821 -0.083042 0.282431
-0.155058 -0.086147 0.293386
-0.154154 -0.086428 0.294720
-0.152638 -0.086367 0.294873
-0.151197 -0.086349 0.295153
-0.149813 -0.086362 0.295530
-0.147982 -0.086116 0.295002
-0.145758 -0.085635 0.293651
-0.145085 -0.086064 0.295408
-0.143293 -0.085831 0.294881
-0.140908 -0.085235 0.293091
-0.140414 -0.085783 0.295220
-0.138258 -0.085317 0.293849
-0.136756 -0.085248 0.293833
-0.130963 -0.082476 0.284481
-0.129848 -0.082623 0.285181
-0.126698 -0.084114 0.291009
-0.125545 -0.084262 0.291669
-0.123888 -0.084072 0.291148
-0.122656 -0.084168 0.291611
-0.121179 -0.084097 0.291487
-0.119629 -0.083973 0.291170
-0.118262 -0.083977 0.291286
-0.116896 -0.083981 0.291398
-0.115551 -0.084001 0.291558
-0.114253 -0.084055 0.291829
-0.113009 -0.084152 0.292240
-0.111669 -0.084179 0.292403
-0.110276 -0.084165 0.292420
-0.109022 -0.084259 0.292803
-0.107518 -0.084160 0.292507
-0.106088 -0.084117 0.292402
-0.104548 -0.083984 0.291980
-0.102746 -0.083635 0.290800
-0.102202 -0.084315 0.293190
-0.099678 -0.083357 0.289881
-0.098427 -0.083451 0.290228
-0.098596 -0.084770 0.294828
-0.099936 -0.087147 0.303104
-0.098637 -0.087259 0.303497
-0.094809 -0.085104 0.296001
-0.093509 -0.085188 0.296290
-0.091084 -0.084234 0.292962
-0.090402 -0.084888 0.295224
-0.094123 -0.089761 0.312155
-0.092591 -0.089699 0.311921
-0.091327 -0.089899 0.312592
-0.089952 -0.089995 0.312899
-0.088850 -0.090372 0.314178
-0.087216 -0.090212 0.313590
-0.085575 -0.090039 0.312951
-0.084552 -0.090520 0.314586
-0.083241 -0.090707 0.315191
-0.081491 -0.090412 0.314125
-0.081183 -0.091736 0.318675
-0.079774 -0.091843 0.318999
-0.072338 -0.084882 0.294772
-0.070001 -0.083749 0.290788
-0.068775 -0.083925 0.291349
-0.067356 -0.083869 0.291104
-0.066106 -0.084025 0.291593
-0.064832 -0.084157 0.291997
-0.063407 -0.084096 0.291727
-0.062104 -0.084196 0.292018
-0.060775 -0.084265 0.292200
-0.059371 -0.084232 0.292026
-0.057993 -0.084233 0.291971
-0.056646 -0.084281 0.292080
-0.055264 -0.084279 0.292010
-0.053918 -0.084333 0.292136
-0.052605 -0.084444 0.292460
-0.051222 -0.084443 0.292397
-0.049845 -0.084454 0.292375
-0.048523 -0.084562 0.292688
-0.047127 -0.084543 0.292560
-0.045716 -0.084495 0.292335
-0.044227 -0.084297 0.291590
-0.042249 -0.083123 0.287468
-0.042431 -0.086262 0.298266
-0.041050 -0.086330 0.298440
-0.038649 -0.084182 0.290956
-0.037702 -0.085159 0.294278
-0.036332 -0.085220 0.294433
-0.031548 -0.076957 0.265832
-0.030089 -0.076456 0.264054
-0.028896 -0.076616 0.264558
-0.027594 -0.076487 0.264066
-0.026158 -0.075959 0.262198
-0.025065 -0.076425 0.263762
-0.023894 -0.076687 0.264624
-0.022507 -0.076247 0.263064
-0.021570 -0.077371 0.266901
-0.020473 -0.078024 0.269112
-0.019365 -0.078722 0.271483
-0.017928 -0.078086 0.269251
-0.016722 -0.078435 0.270421
-0.015425 -0.078383 0.270208
-0.013984 -0.077521 0.267203
-0.012590 -0.076774 0.264597
-0.011311 -0.076640 0.264110
-0.009998 -0.076216 0.262621
-0.008727 -0.076032 0.261962
-0.007490 -0.076134 0.262290
-0.006216 -0.075839 0.261254
-0.004970 -0.075814 0.261148
-0.003739 -0.076061 0.261981
-0.002494 -0.076171 0.262346
-0.001253 -0.076695 0.264138
0.000005 -0.077199 0.265860
0.001276 -0.077459 0.266744
0.002544 -0.077361 0.266400
0.003825 -0.077588 0.267173
0.005106 -0.077705 0.267574
0.006342 -0.077227 0.265924
0.007594 -0.077069 0.265380
0.008847 -0.076967 0.265028
0.010101 -0.076889 0.264763
0.011373 -0.076959 0.265008
0.012678 -0.077214 0.265890
0.014002 -0.077527 0.266977
0.015280 -0.077554 0.267080
0.016593 -0.077736 0.267718
0.017916 -0.077943 0.268442
0.019216 -0.078024 0.268735
0.020620 -0.078492 0.270364
0.021986 -0.078767 0.271329
0.023269 -0.078733 0.271231
0.023392 -0.074983 0.258330
0.024536 -0.074717 0.257436
0.025849 -0.074966 0.258314
0.027065 -0.074925 0.258196
0.028300 -0.074936 0.258260
0.029576 -0.075051 0.258681
0.030851 -0.075152 0.259056
0.032123 -0.075240 0.259387
0.033392 -0.075316 0.259677
0.034547 -0.075138 0.259090
0.035919 -0.075426 0.260116
0.037322 -0.075759 0.261295
0.038772 -0.076162 0.262716
0.039968 -0.076056 0.262381
0.041124 -0.075884 0.261821
0.042417 -0.075966 0.262135
0.043434 -0.075563 0.260778
0.044528 -0.075315 0.259954
0.045515 -0.074901 0.258558
0.046605 -0.074677 0.257815
0.047871 -0.074738 0.258057
0.049092 -0.074726 0.258051
0.050601 -0.075143 0.259522
0.052086 -0.075505 0.260803
0.053328 -0.075507 0.260842
0.055078 -0.076211 0.263303
0.057240 -0.077441 0.267583
0.058604 -0.077562 0.268030
0.060171 -0.077939 0.269364
0.061882 -0.078485 0.271277
0.063106 -0.078403 0.271018
0.064382 -0.078387 0.270989
0.065548 -0.078240 0.270504
0.066747 -0.078138 0.270172
0.067914 -0.078002 0.269726
0.068757 -0.077507 0.268032
0.069402 -0.076811 0.265639
0.070197 -0.076302 0.263892
0.071344 -0.076186 0.263505
0.071894 -0.075449 0.260963
0.072488 -0.074782 0.258664
0.073661 -0.074724 0.258468
0.074604 -0.074439 0.257482
0.075752 -0.074364 0.257220
0.077109 -0.074493 0.257663
0.078397 -0.074553 0.257864
0.079743 -0.074665 0.258239
0.081321 -0.074987 0.259339
0.082994 -0.075387 0.260702
0.084681 -0.075787 0.262064
0.096915 -0.085477 0.295543
0.098202 -0.085373 0.295149
0.098616 -0.084525 0.292177
0.100173 -0.084665 0.292617
0.101702 -0.084778 0.292960
0.102925 -0.084637 0.292419
0.104333 -0.084649 0.292400
0.105815 -0.084720 0.292581
0.107316 -0.084805 0.292802
0.108780 -0.084858 0.292907
0.110092 -0.084793 0.292597
0.111399 -0.084726 0.292274
0.112951 -0.084844 0.292584
0.114617 -0.085044 0.293168
0.116155 -0.085145 0.293402
0.117564 -0.085150 0.293299
0.119076 -0.085229 0.293442
0.120633 -0.085338 0.293679
0.122099 -0.085381 0.293680
0.123407 -0.085313 0.293292
0.124868 -0.085352 0.293261
0.126254 -0.085339 0.293042
0.127703 -0.085368 0.292957
0.129226 -0.085446 0.293030
0.130715 -0.085499 0.293009
0.132371 -0.085659 0.293341
0.133893 -0.085731 0.293359
0.135192 -0.085659 0.292874
0.136677 -0.085705 0.292781
0.138297 -0.085834 0.292957
0.140355 -0.086230 0.294030
0.142005 -0.086370 0.294214
0.143300 -0.086292 0.293644
0.144924 -0.086413 0.293733
0.146738 -0.086643 0.294180
0.148381 -0.086769 0.294254
0.150260 -0.087029 0.294765
0.151861 -0.087125 0.294702
0.153130 -0.087029 0.293976
0.154747 -0.087132 0.293901
0.156390 -0.087247 0.293846
-0.159101 -0.085395 0.295101
-0.157862 -0.085490 0.295835
-0.156115 -0.085310 0.295599
-0.154814 -0.085371 0.296184
-0.152688 -0.084975 0.295165
-0.149495 -0.083973 0.292018
-0.148190 -0.084023 0.292509
-0.147104 -0.084198 0.293426
-0.145451 -0.084050 0.293199
-0.143814 -0.083908 0.292981
-0.142609 -0.084018 0.293629
-0.141228 -0.084025 0.293907
-0.139490 -0.083818 0.293420
-0.138805 -0.084246 0.295147
-0.133023 -0.081558 0.285941
-0.131118 -0.081217 0.284940
-0.147543 -0.092340 0.324177
-0.146183 -0.092449 0.324762
-0.145564 -0.093034 0.327009
-0.144194 -0.093146 0.327584
-0.126488 -0.082594 0.290626
-0.125271 -0.082696 0.291125
-0.123803 -0.082632 0.291035
-0.122412 -0.082620 0.291115
-0.121045 -0.082623 0.291243
-0.119807 -0.082716 0.291679
-0.118279 -0.082608 0.291399
-0.117000 -0.082674 0.291724
-0.115596 -0.082652 0.291731
-0.114230 -0.082657 0.291827
-0.113003 -0.082764 0.292278
-0.111731 -0.082841 0.292613
-0.110336 -0.082826 0.292620
-0.108946 -0.082816 0.292637
-0.107751 -0.082956 0.293177
-0.106425 -0.082996 0.293362
-0.104717 -0.082737 0.292480
-0.103811 -0.083113 0.293837
-0.102449 -0.083129 0.293918
-0.101584 -0.083554 0.295439
-0.097898 -0.081638 0.288681
-0.097909 -0.082795 0.292781
-0.098104 -0.084143 0.297553
-0.096811 -0.084235 0.297880
-0.094444 -0.083382 0.294858
-0.093224 -0.083532 0.295380
-0.092256 -0.083915 0.296722
-0.095585 -0.088278 0.312134
-0.094237 -0.088391 0.312512
-0.093135 -0.088742 0.313731
-0.091365 -0.088457 0.312695
-0.090317 -0.088874 0.314140
-0.089220 -0.089256 0.315455
-0.087342 -0.088855 0.314002
-0.086105 -0.089105 0.314846
-0.085079 -0.089586 0.316501
-0.083178 -0.089147 0.314905
-0.081464 -0.088894 0.313966
-0.080341 -0.089290 0.315314
-0.078948 -0.089396 0.315636
-0.071905 -0.082985 0.292951
-0.069963 -0.082324 0.290566
-0.068761 -0.082527 0.291230
-0.067415 -0.082561 0.291293
-0.066086 -0.082617 0.291435
-0.064804 -0.082736 0.291799
-0.063437 -0.082749 0.291787
-0.062045 -0.082731 0.291661
-0.060742 -0.082833 0.291962
-0.059329 -0.082785 0.291734
-0.057994 -0.082847 0.291889
-0.056533 -0.082728 0.291407
-0.055217 -0.082821 0.291672
-0.053885 -0.082894 0.291867
-0.052412 -0.082747 0.291288
-0.051115 -0.082879 0.291689
-0.049790 -0.082971 0.291950
-0.048344 -0.082861 0.291501
-0.046979 -0.082889 0.291536
-0.045527 -0.082759 0.291017
-0.044153 -0.082768 0.290984
-0.042358 -0.081963 0.288094
-0.042353 -0.084682 0.297590
-0.040974 -0.084749 0.297764
-0.038605 -0.082700 0.290506
-0.037742 -0.083843 0.294461
-0.036371 -0.083904 0.294616
-0.031692 -0.076033 0.266929
-0.030247 -0.075587 0.265313
-0.029011 -0.075650 0.265484
-0.027653 -0.075385 0.264504
-0.026295 -0.075096 0.263445
-0.025046 -0.075102 0.263421
-0.023877 -0.075363 0.264292
-0.022479 -0.074893 0.262600
-0.021552 -0.076027 0.266535
-0.020450 -0.076647 0.268667
-0.019496 -0.077942 0.273165
-0.017979 -0.077008 0.269857
-0.016729 -0.077166 0.270372
-0.015469 -0.077298 0.270799
-0.014032 -0.076493 0.267946
-0.012613 -0.075631 0.264897
-0.011280 -0.075152 0.263193
-0.009998 -0.074942 0.262428
-0.008728 -0.074763 0.261778
-0.007482 -0.074781 0.261819
-0.006250 -0.074957 0.262414
-0.004994 -0.074874 0.262103
-0.003747 -0.074907 0.262201
-0.002518 -0.075538 0.264394
-0.001271 -0.076304 0.267059
0.000002 -0.077016 0.269540
0.001280 -0.076616 0.268130
0.002565 -0.076799 0.268763
0.003845 -0.076779 0.268687
0.005118 -0.076652 0.268237
0.006384 -0.076500 0.267701
0.007637 -0.076267 0.266887
0.008877 -0.075984 0.265898
0.010106 -0.075692 0.264879
0.011382 -0.075779 0.265187
0.012730 -0.076276 0.266934
0.014004 -0.076282 0.266963
0.015263 -0.076212 0.266727
0.016558 -0.076315 0.267098
0.017861 -0.076442 0.267557
0.019114 -0.076348 0.267245
0.020489 -0.076726 0.268582
0.021726 -0.076570 0.268055
0.022990 -0.076523 0.267912
0.023568 -0.074317 0.260209
0.024778 -0.074223 0.259902
0.026099 -0.074457 0.260745
0.027267 -0.074254 0.260056
0.028500 -0.074234 0.260014
0.029768 -0.074305 0.260289
0.031010 -0.074309 0.260329
0.032234 -0.074270 0.260223
0.033484 -0.074290 0.260323
0.034703 -0.074245 0.260196
0.036035 -0.074435 0.260893
0.037694 -0.075264 0.263831
0.039443 -0.076215 0.267197
0.040362 -0.075551 0.264904
0.041492 -0.075312 0.264102
0.042805 -0.075409 0.264474
0.043679 -0.074750 0.262197
0.044813 -0.074557 0.261557
0.045802 -0.074142 0.260134
0.046613 -0.073468 0.257803
0.048005 -0.073721 0.258727
0.049357 -0.073900 0.259390
0.050742 -0.074121 0.260197
0.052125 -0.074326 0.260953
0.053636 -0.074701 0.262303
0.055227 -0.075167 0.263970
0.057121 -0.076016 0.266984
0.058826 -0.076582 0.269006
0.060166 -0.076658 0.269304
0.061729 -0.077010 0.270571
0.063239 -0.077283 0.271558
0.064479 -0.077220 0.271366
0.065681 -0.077116 0.271026
0.066692 -0.076796 0.269927
0.067573 -0.076341 0.268348
0.068616 -0.076082 0.267460
0.069336 -0.075481 0.265366
0.069747 -0.074572 0.262185
0.070955 -0.074531 0.262055
0.071626 -0.073937 0.259981
0.071897 -0.072959 0.256549
0.073081 -0.072922 0.256428
0.074251 -0.072874 0.256263
0.075356 -0.072765 0.255879
0.076626 -0.072815 0.256054
0.078010 -0.072971 0.256598
0.079697 -0.073400 0.258100
0.081263 -0.073707 0.259167
0.082672 -0.073865 0.259708
0.085214 -0.075015 0.263733
0.096543 -0.083754 0.294432
0.097823 -0.083651 0.294039
0.098626 -0.083149 0.292240
0.100293 -0.083378 0.293004
0.101805 -0.083474 0.293298
0.102971 -0.083288 0.292593
0.104460 -0.083365 0.292806
0.105958 -0.083446 0.293030
0.107388 -0.083472 0.293056
0.108776 -0.083466 0.292958
0.110174 -0.083467 0.292881
0.111486 -0.083403 0.292571
0.113088 -0.083555 0.293012
0.114581 -0.083625 0.293155
0.116178 -0.083767 0.293543
0.117591 -0.083775 0.293456
0.118980 -0.083766 0.293299
0.120451 -0.083814 0.293334
0.121897 -0.083843 0.293296
0.123267 -0.083821 0.293068
0.124785 -0.083898 0.293178
0.126238 -0.083930 0.293122
0.127724 -0.083983 0.293128
0.129225 -0.084045 0.293155
0.130853 -0.084188 0.293453
0.132230 -0.084167 0.293170
0.133707 -0.084209 0.293096
0.135224 -0.084276 0.293094
0.136727 -0.084332 0.293046
0.138371 -0.084474 0.293280
0.139936 -0.084564 0.293323
0.141447 -0.084621 0.293234
0.143265 -0.084858 0.293758
0.144755 -0.084899 0.293584
0.146445 -0.085054 0.293792
0.148280 -0.085290 0.294261
0.149939 -0.085421 0.294351
0.151436 -0.085458 0.294100
0.152905 -0.085478 0.293775
0.154613 -0.085631 0.293884
0.156155 -0.085689 0.293652
-0.159711 -0.084290 0.296451
-0.157260 -0.083741 0.294918
-0.155632 -0.083624 0.294887
-0.154314 -0.083674 0.295424
-0.152935 -0.083691 0.295832
-0.151319 -0.083578 0.295763
-0.149757 -0.083492 0.295776
-0.147554 -0.083044 0.294491
-0.145639 -0.082752 0.293740
-0.144054 -0.082643 0.293623
-0.142821 -0.082737 0.294214
-0.140989 -0.082481 0.293551
-0.139840 -0.082624 0.294294
-0.137413 -0.082008 0.292319
-0.135875 -0.081915 0.292196
-0.131195 -0.079906 0.285224
-0.147330 -0.090666 0.323836
-0.145975 -0.090774 0.324419
-0.144959 -0.091099 0.325765
-0.143596 -0.091210 0.326337
-0.126559 -0.081259 0.290882
-0.125293 -0.081328 0.291266
-0.123760 -0.081224 0.291019
-0.122380 -0.081218 0.291118
-0.121197 -0.081344 0.291683
-0.119983 -0.081453 0.292176
-0.118460 -0.081351 0.291909
-0.117216 -0.081442 0.292322
-0.115901 -0.081485 0.292557
-0.114479 -0.081452 0.292516
-0.113194 -0.081518 0.292819
-0.111832 -0.081530 0.292921
-0.110472 -0.081543 0.293023
-0.109060 -0.081517 0.292979
-0.107645 -0.081489 0.292920
-0.106547 -0.081703 0.293727
-0.104072 -0.080853 0.290702
-0.102877 -0.080988 0.291212
-0.102664 -0.081911 0.294551
-0.100106 -0.080961 0.291152
-0.098050 -0.080398 0.289136
-0.097474 -0.081049 0.291485
-0.098214 -0.082829 0.297886
-0.100688 -0.086144 0.309807
-0.099610 -0.086472 0.310979
-0.097854 -0.086214 0.310039
-0.096780 -0.086558 0.311259
-0.095351 -0.086589 0.311352
-0.093978 -0.086674 0.311633
-0.092734 -0.086882 0.312354
-0.091296 -0.086912 0.312431
-0.090254 -0.087326 0.313886
-0.089295 -0.087836 0.315681
-0.088021 -0.088049 0.316405
-0.086071 -0.087581 0.314680
-0.085568 -0.088594 0.318273
-0.083880 -0.088394 0.317508
-0.081544 -0.087493 0.314221
-0.081162 -0.088694 0.318480
-0.079756 -0.088800 0.318805
-0.072514 -0.082287 0.295368
-0.070127 -0.081137 0.291184
-0.068809 -0.081202 0.291365
-0.067535 -0.081324 0.291743
-0.066170 -0.081338 0.291735
-0.064859 -0.081421 0.291972
-0.063517 -0.081467 0.292077
-0.062102 -0.081421 0.291850
-0.060761 -0.081471 0.291967
-0.059389 -0.081482 0.291942
-0.057989 -0.081453 0.291774
-0.056657 -0.081522 0.291957
-0.055304 -0.081563 0.292038
-0.053891 -0.081514 0.291801
-0.052559 -0.081590 0.292004
-0.051182 -0.081598 0.291969
-0.049755 -0.081523 0.291637
-0.048338 -0.081464 0.291359
-0.047021 -0.081572 0.291680
-0.045602 -0.081505 0.291379
-0.044054 -0.081197 0.290214
-0.042472 -0.080806 0.288754
-0.042427 -0.083408 0.297987
-0.041046 -0.083475 0.298162
-0.038509 -0.081110 0.289655
-0.037611 -0.082150 0.293307
-0.033223 -0.075355 0.268991
-0.031702 -0.074780 0.266887
-0.030197 -0.074195 0.264749
-0.028999 -0.074348 0.265243
-0.027636 -0.074073 0.264212
-0.026288 -0.073812 0.263234
-0.025069 -0.073908 0.263528
-0.023861 -0.074048 0.263983
-0.022434 -0.073487 0.261938
-0.021516 -0.074621 0.265938
-0.020372 -0.075068 0.267489
-0.019296 -0.075843 0.270210
-0.017892 -0.075346 0.268402
-0.016651 -0.075510 0.268948
-0.015351 -0.075416 0.268579
-0.013985 -0.074949 0.266884
-0.012579 -0.074152 0.264013
-0.011288 -0.073931 0.263198
-0.009985 -0.073573 0.261894
-0.008699 -0.073246 0.260708
-0.007463 -0.073311 0.260915
-0.006245 -0.073612 0.261966
-0.005004 -0.073726 0.262350
-0.003773 -0.074121 0.263740
-0.002533 -0.074607 0.265452
-0.001279 -0.075307 0.267927
-0.000001 -0.075424 0.268333
0.001278 -0.075379 0.268161
0.002565 -0.075614 0.268989
0.003847 -0.075600 0.268934
0.005108 -0.075280 0.267788
0.006390 -0.075331 0.267968
0.007675 -0.075396 0.268201
0.008908 -0.075002 0.266801
0.010142 -0.074720 0.265800
0.011420 -0.074784 0.266031
0.012689 -0.074779 0.266022
0.013998 -0.074991 0.266786
0.015334 -0.075305 0.267912
0.016507 -0.074826 0.266223
0.017887 -0.075286 0.267873
0.019218 -0.075495 0.268632
0.020390 -0.075093 0.267219
0.021739 -0.075350 0.268154
0.022885 -0.074912 0.266615
0.023813 -0.073845 0.262840
0.024819 -0.073116 0.260267
0.026013 -0.072983 0.259818
0.027315 -0.073152 0.260445
0.028442 -0.072855 0.259417
0.029649 -0.072781 0.259181
0.030966 -0.072971 0.259885
0.032237 -0.073044 0.260175
0.033584 -0.073275 0.261031
0.034770 -0.073153 0.260627
0.036161 -0.073455 0.261736
0.038097 -0.074806 0.266584
0.039673 -0.075387 0.268691
0.040452 -0.074463 0.265434
0.041799 -0.074609 0.265991
0.042969 -0.074441 0.265427
0.043872 -0.073831 0.263289
0.044940 -0.073527 0.262244
0.045906 -0.073076 0.260671
0.046761 -0.072477 0.258569
0.048025 -0.072525 0.258778
0.049244 -0.072506 0.258745
0.050546 -0.072606 0.259138
0.052090 -0.073042 0.260731
0.053617 -0.073433 0.262164
0.055253 -0.073953 0.264053
0.057363 -0.075069 0.268075
0.058909 -0.075414 0.269342
0.060278 -0.075524 0.269765
0.061786 -0.075799 0.270782
0.063219 -0.075972 0.271433
0.064419 -0.075865 0.271080
0.065402 -0.075512 0.269846
0.066470 -0.075267 0.268997
0.067367 -0.074842 0.267506
0.068443 -0.074628 0.266764
0.069174 -0.074052 0.264728
0.069825 -0.073413 0.262459
0.070997 -0.073334 0.262197
0.071679 -0.072761 0.260162
0.072220 -0.072066 0.257688
0.073220 -0.071845 0.256909
0.074521 -0.071922 0.257190
0.075525 -0.071713 0.256449
0.076662 -0.071636 0.256174
0.078289 -0.072013 0.257519
0.079804 -0.072275 0.258454
0.081500 -0.072692 0.259935
0.083079 -0.072993 0.260998
0.085434 -0.073956 0.264430
0.096336 -0.082184 0.293826
0.097612 -0.082082 0.293433
0.098573 -0.081720 0.292110
0.100174 -0.081893 0.292692
0.101705 -0.082004 0.293047
0.103061 -0.081973 0.292891
0.104565 -0.082059 0.293144
0.105971 -0.082066 0.293114
0.107203 -0.081941 0.292602
0.108802 -0.082095 0.293085
0.110188 -0.082087 0.292980
0.111364 -0.081925 0.292317
0.112866 -0.082003 0.292506
0.114400 -0.082102 0.292764
0.116009 -0.082252 0.293196
0.117412 -0.082255 0.293093
0.118768 -0.082225 0.292865
0.120228 -0.082266 0.292885
0.121706 -0.082318 0.292934
0.123214 -0.082390 0.293044
0.124595 -0.082375 0.292838
0.126072 -0.082424 0.292848
0.127589 -0.082498 0.292937
0.128985 -0.082492 0.292735
0.130550 -0.082594 0.292902
0.131994 -0.082617 0.292780
0.133628 -0.082758 0.293063
0.135076 -0.082782 0.292921
0.136490 -0.082784 0.292690
0.138012 -0.082852 0.292677
0.139819 -0.083087 0.293242
0.141335 -0.083146 0.293173
0.143149 -0.083378 0.293698
0.144268 -0.083204 0.292779
0.146095 -0.083438 0.293282
0.148026 -0.083726 0.293956
0.149741 -0.083887 0.294169
0.151361 -0.083993 0.294168
0.152757 -0.083974 0.293713
0.154299 -0.084034 0.293518
0.155991 -0.084174 0.293582
-0.159028 -0.082504 0.295395
-0.156846 -0.082101 0.294344
-0.155466 -0.082116 0.294768
-0.154013 -0.082092 0.295037
-0.152524 -0.082048 0.295219
-0.150888 -0.081923 0.295096
-0.149038 -0.081679 0.294524
-0.147789 -0.081763 0.295122
-0.146104 -0.081606 0.294833
-0.144542 -0.081514 0.294768
-0.142977 -0.081419 0.294678
-0.141420 -0.081327 0.294586
-0.140145 -0.081397 0.295068
