ply
format ascii 1.0
element vertex 1745
property float x
property float y
property float z
end_header
0.002540 0.084277 0.264514
0.003877 0.086058 0.270096
0.005160 0.086054 0.270076
0.006025 0.080465 0.252533
0.007279 0.081066 0.254414
0.008517 0.081338 0.255268
0.009720 0.081252 0.254998
0.010963 0.081477 0.255706
0.012182 0.081506 0.255799
0.013420 0.081640 0.256223
0.014662 0.081773 0.256646
0.015898 0.081852 0.256902
0.017113 0.081820 0.256807
0.018402 0.082125 0.257773
0.019929 0.083385 0.261740
0.021346 0.084066 0.263887
0.022786 0.084758 0.266072
0.024116 0.084986 0.266803
0.025315 0.084754 0.266090
0.026685 0.085088 0.267155
0.028076 0.085456 0.268326
0.029347 0.085444 0.268304
0.030644 0.085502 0.268507
0.032067 0.085896 0.269762
0.033498 0.086277 0.270977
0.034939 0.086656 0.272189
0.036218 0.086622 0.272103
0.037279 0.086086 0.270440
0.038393 0.085703 0.269259
0.039352 0.085009 0.267101
0.040367 0.084476 0.265448
0.041127 0.083457 0.262269
0.041834 0.082395 0.258952
0.042807 0.081902 0.257426
0.043746 0.081374 0.255786
0.044672 0.080850 0.254159
0.045647 0.080440 0.252889
0.046794 0.080346 0.252615
0.047863 0.080127 0.251945
0.048972 0.079983 0.251510
0.050369 0.080304 0.252540
0.051405 0.080049 0.251754
0.052834 0.080403 0.252885
0.054405 0.080953 0.254630
0.057032 0.083016 0.261133
0.058217 0.082936 0.260897
0.060051 0.083767 0.263521
0.061739 0.084362 0.265407
0.063369 0.084856 0.266971
0.064916 0.085221 0.268126
0.066360 0.085441 0.268825
0.067837 0.085693 0.269622
0.069235 0.085838 0.270080
0.070676 0.086030 0.270683
0.072206 0.086321 0.271596
0.073073 0.085824 0.270027
0.073912 0.085311 0.268405
0.074642 0.084692 0.266447
0.075120 0.083811 0.263664
0.075942 0.083338 0.262158
0.076230 0.082303 0.258884
0.076775 0.081574 0.256570
0.078089 0.081673 0.256854
0.079407 0.081771 0.257135
0.080641 0.081782 0.257136
0.082547 0.082464 0.259242
0.083711 0.082395 0.258986
0.085231 0.082674 0.259816
0.096509 0.090972 0.285783
0.097758 0.090868 0.285391
0.099817 0.091508 0.287331
0.101341 0.091648 0.287694
0.102795 0.091722 0.287843
0.103983 0.091558 0.287241
0.105295 0.091507 0.286988
0.106719 0.091553 0.287031
0.108214 0.091658 0.287252
0.109513 0.091597 0.286946
0.111391 0.092015 0.288132
0.112774 0.092020 0.288017
0.114156 0.092022 0.287888
0.115693 0.092149 0.288137
0.117230 0.092272 0.288366
0.118679 0.092323 0.288365
0.119973 0.092255 0.287979
0.121608 0.092447 0.288396
0.123265 0.092651 0.288842
0.125072 0.092962 0.289609
0.126603 0.093063 0.289712
0.127908 0.092998 0.289285
0.129703 0.093286 0.289946
0.131190 0.093350 0.289896
0.132984 0.093627 0.290498
0.134489 0.093697 0.290445
0.136025 0.093788 0.290439
0.137560 0.093875 0.290411
0.138984 0.093885 0.290131
0.140475 0.093940 0.289975
0.142013 0.094026 0.289897
0.143545 0.094105 0.289783
0.145169 0.094242 0.289831
0.146930 0.094465 0.290125
0.148439 0.094523 0.289895
0.150279 0.094788 0.290282
0.151866 0.094890 0.290146
0.154001 0.095329 0.291021
0.155995 0.095674 0.291584
-0.045346 0.027621 0.083568
-0.044970 0.027638 0.083752
-0.045001 0.027908 0.084699
-0.045653 0.028571 0.086840
-0.045316 0.028623 0.087117
-0.044950 0.028656 0.087335
-0.044575 0.028685 0.087535
-0.045493 0.029554 0.090298
-0.043037 0.032608 0.100923
-0.042608 0.032645 0.101093
-0.042440 0.032886 0.101892
-0.041982 0.032904 0.102000
-0.041729 0.033086 0.102611
-0.041476 0.033272 0.103232
-0.041763 0.033900 0.105225
-0.041115 0.033776 0.104880
-0.041278 0.034322 0.106616
-0.041671 0.035077 0.108995
-0.041768 0.035597 0.110646
-0.041587 0.035891 0.111593
-0.040724 0.035596 0.110706
-0.041237 0.036512 0.113583
-0.041728 0.037432 0.116471
-0.042072 0.038243 0.119019
-0.041466 0.038201 0.118910
-0.041305 0.038574 0.120089
-0.040788 0.038620 0.120251
-0.060037 0.062961 0.196157
-0.059389 0.063254 0.197075
-0.059145 0.063993 0.199381
-0.058192 0.063977 0.199329
-0.057447 0.064192 0.199998
-0.056723 0.064439 0.200762
-0.056504 0.065278 0.203369
-0.055508 0.065232 0.203219
-0.054687 0.065394 0.203711
-0.053994 0.065717 0.204704
-0.053136 0.065848 0.205097
-0.052291 0.066000 0.205556
-0.051387 0.066082 0.205795
-0.050553 0.066260 0.206328
-0.049783 0.066528 0.207143
-0.049529 0.067513 0.210186
-0.048716 0.067758 0.210926
-0.047902 0.068015 0.211699
-0.046955 0.068088 0.211901
-0.046123 0.068335 0.212641
-0.045338 0.068664 0.213637
-0.044432 0.068820 0.214092
-0.043788 0.069400 0.215865
-0.043144 0.070007 0.217722
-0.042532 0.070697 0.219837
-0.053223 0.090678 0.281926
-0.051939 0.090760 0.282139
-0.050930 0.091338 0.283891
-0.049824 0.091770 0.285190
-0.048629 0.092057 0.286035
-0.047286 0.092072 0.286036
-0.045998 0.092197 0.286380
-0.044671 0.092250 0.286500
-0.043429 0.092489 0.287195
-0.042048 0.092437 0.286988
-0.040526 0.092062 0.285777
-0.039222 0.092173 0.286078
-0.037896 0.092238 0.286235
-0.036148 0.091242 0.283101
-0.034671 0.090882 0.281940
-0.033358 0.090940 0.282080
-0.029708 0.084364 0.261643
-0.028092 0.083245 0.258135
-0.026958 0.083519 0.258945
-0.025582 0.083033 0.257405
-0.024259 0.082678 0.256269
-0.022988 0.082473 0.255599
-0.021829 0.082671 0.256177
-0.020674 0.082908 0.256879
-0.019564 0.083363 0.258258
-0.018411 0.083689 0.259239
-0.017362 0.084566 0.261925
-0.016169 0.084821 0.262685
-0.015007 0.085296 0.264128
-0.013757 0.085313 0.264154
-0.012523 0.085446 0.264541
-0.011253 0.085327 0.264148
-0.009954 0.084941 0.262931
-0.008688 0.084767 0.262370
-0.007418 0.084474 0.261445
-0.006161 0.084262 0.260768
-0.004949 0.084701 0.262111
-0.003709 0.084814 0.262445
-0.002474 0.085171 0.263534
-0.001224 0.085274 0.263840
0.000030 0.085903 0.265774
0.001295 0.086099 0.266370
0.002531 0.085130 0.263365
0.003848 0.086618 0.267960
0.005283 0.089353 0.276412
0.006055 0.082027 0.253745
0.007287 0.082322 0.254657
0.008517 0.082515 0.255252
0.009693 0.082207 0.254298
0.010927 0.082398 0.254889
0.012137 0.082389 0.254863
0.013362 0.082476 0.255136
0.014630 0.082791 0.256114
0.015822 0.082658 0.255709
0.017078 0.082856 0.256328
0.018373 0.083202 0.257406
0.020086 0.085281 0.263848
0.021402 0.085529 0.264625
0.022638 0.085446 0.264382
0.023881 0.085398 0.264246
0.025035 0.085052 0.263187
0.026402 0.085428 0.264365
0.027723 0.085629 0.265002
0.029020 0.085740 0.265361
0.030394 0.086059 0.266365
0.031683 0.086123 0.266581
0.033095 0.086501 0.267769
0.034552 0.086966 0.269228
0.035953 0.087261 0.270159
0.036961 0.086613 0.268174
0.038158 0.086438 0.267653
0.039145 0.085815 0.265741
0.040280 0.085543 0.264920
0.041117 0.084675 0.262251
0.042134 0.084217 0.260853
0.043073 0.083634 0.259066
0.043781 0.082647 0.256029
0.044729 0.082153 0.254517
0.045754 0.081824 0.253515
0.046807 0.081560 0.252716
0.047919 0.081410 0.252266
0.049104 0.081388 0.252217
0.050396 0.081540 0.252702
0.051837 0.081919 0.253894
0.053049 0.081929 0.253938
0.054249 0.081919 0.253920
0.056015 0.082747 0.256497
0.058337 0.084342 0.261453
0.060364 0.085453 0.264908
0.061612 0.085439 0.264874
0.063484 0.086272 0.267464
0.065084 0.086711 0.268828
0.066459 0.086839 0.269229
0.067967 0.087133 0.270142
0.069114 0.086960 0.269605
0.070602 0.087216 0.270395
0.071795 0.087105 0.270043
0.072557 0.086483 0.268109
0.073497 0.086093 0.266886
0.074457 0.085737 0.265769
0.074673 0.084550 0.262076
0.075545 0.084135 0.260769
0.076151 0.083440 0.258593
0.076953 0.082979 0.257137
0.077939 0.082728 0.256330
0.079324 0.082901 0.256834
0.080440 0.082791 0.256459
0.081621 0.082751 0.256294
0.083000 0.082910 0.256744
0.083115 0.081820 0.253321
0.095093 0.092272 0.285621
0.096345 0.092168 0.285235
0.097918 0.092369 0.285790
0.100010 0.093049 0.287818
0.101341 0.093011 0.287619
0.102815 0.093103 0.287818
0.104057 0.092986 0.287362
0.105409 0.092968 0.287209
0.106928 0.093097 0.287502
0.108292 0.093089 0.287363
0.109781 0.093187 0.287547
0.111087 0.093129 0.287241
0.112652 0.093287 0.287593
0.114059 0.093311 0.287525
0.115769 0.093581 0.288203
0.117216 0.093634 0.288206
0.118705 0.093718 0.288296
0.120094 0.093722 0.288131
0.121392 0.093655 0.287740
0.123083 0.093891 0.288265
0.124581 0.093975 0.288316
0.126518 0.094384 0.289353
0.127849 0.094338 0.288980
0.129190 0.094300 0.288623
0.131098 0.094671 0.289508
0.132863 0.094933 0.290042
0.134290 0.094951 0.289818
0.135716 0.094966 0.289573
0.137440 0.095188 0.289945
0.139066 0.095338 0.290082
0.140471 0.095335 0.289739
0.142191 0.095544 0.290023
0.143732 0.095629 0.289916
0.145309 0.095737 0.289859
0.146980 0.095903 0.289963
0.148566 0.096011 0.289872
0.150207 0.096152 0.289861
0.151809 0.096266 0.289748
0.153756 0.096594 0.290259
0.155968 0.097080 0.291220
-0.045252 0.027970 0.083310
-0.044780 0.027927 0.083317
-0.044701 0.028130 0.084055
-0.044919 0.028526 0.085366
-0.045571 0.029208 0.087531
-0.044744 0.028945 0.086861
-0.045089 0.029443 0.088472
-0.045032 0.029684 0.089310
-0.044159 0.029389 0.088526
-0.042011 0.032662 0.099635
-0.042135 0.033131 0.101120
-0.041869 0.033299 0.101686
-0.041749 0.033589 0.102622
-0.041151 0.033497 0.102388
-0.041723 0.034366 0.105089
-0.041765 0.034815 0.106504
-0.040532 0.034199 0.104658
-0.041917 0.035803 0.109608
-0.041866 0.036206 0.110877
-0.042092 0.036862 0.112919
-0.041407 0.036727 0.112537
-0.041000 0.036837 0.112906
-0.041790 0.038040 0.116621
-0.041499 0.038278 0.117377
-0.041054 0.038380 0.117710
-0.041998 0.039800 0.122087
-0.061508 0.063502 0.194939
-0.060784 0.063705 0.195575
-0.059953 0.063800 0.195875
-0.059414 0.064213 0.197152
-0.058826 0.064586 0.198302
-0.057952 0.064652 0.198508
-0.057323 0.064998 0.199569
-0.056509 0.065142 0.200009
-0.055962 0.065605 0.201426
-0.055061 0.065660 0.201589
-0.054644 0.066306 0.203564
-0.053847 0.066505 0.204165
-0.053033 0.066690 0.204721
-0.052140 0.066781 0.204985
-0.051291 0.066931 0.205431
-0.050384 0.067011 0.205660
-0.049917 0.067691 0.207729
-0.049378 0.068299 0.209574
-0.048593 0.068584 0.210427
-0.047733 0.068774 0.210987
-0.046841 0.068925 0.211424
-0.045987 0.069138 0.212054
-0.045171 0.069421 0.212893
-0.044451 0.069867 0.214233
-0.043611 0.070139 0.215041
-0.043312 0.071317 0.218621
-0.042605 0.071863 0.220264
-0.052547 0.090849 0.278418
-0.051887 0.092007 0.281928
-0.050850 0.092542 0.283524
-0.049790 0.093062 0.285075
-0.048368 0.092914 0.284580
-0.047174 0.093209 0.285441
-0.045939 0.093440 0.286105
-0.044594 0.093453 0.286101
-0.043261 0.093493 0.286179
-0.041889 0.093450 0.286003
-0.040269 0.092830 0.284065
-0.039378 0.093908 0.287319
-0.038046 0.093974 0.287477
-0.036356 0.093125 0.284839
-0.034944 0.092954 0.284275
-0.033621 0.093014 0.284415
-0.029627 0.085380 0.261037
-0.028106 0.084523 0.258378
-0.026960 0.084762 0.259075
-0.025565 0.084207 0.257344
-0.024256 0.083896 0.256359
-0.023010 0.083778 0.255966
-0.021839 0.083936 0.256417
-0.020716 0.084311 0.257530
-0.019600 0.084759 0.258867
-0.018430 0.085021 0.259638
-0.017400 0.086012 0.262636
-0.016167 0.086077 0.262803
-0.014980 0.086415 0.263810
-0.013784 0.086762 0.264844
-0.012520 0.086705 0.264646
-0.011265 0.086707 0.264628
-0.010010 0.086708 0.264609
-0.008709 0.086256 0.263206
-0.007420 0.085788 0.261760
-0.006193 0.085992 0.262364
-0.004920 0.085509 0.260873
-0.003686 0.085592 0.261111
-0.002461 0.086119 0.262704
-0.001211 0.085909 0.262050
0.000033 0.086862 0.264947
0.001303 0.087644 0.267321
0.002576 0.087788 0.267751
0.003916 0.089363 0.272548
0.005278 0.090509 0.276036
0.006588 0.090502 0.276010
0.007257 0.083144 0.253564
0.008483 0.083364 0.254235
0.009718 0.083596 0.254941
0.010930 0.083602 0.254959
0.012173 0.083827 0.255646
0.013373 0.083734 0.255366
0.014694 0.084355 0.257263
0.015936 0.084459 0.257585
0.017059 0.083964 0.256081
0.018863 0.086662 0.264318
0.020300 0.087441 0.266702
0.021520 0.087250 0.266129
0.022724 0.087021 0.265440
0.023919 0.086778 0.264711
0.025125 0.086599 0.264179
0.026351 0.086505 0.263905
0.027648 0.086640 0.264331
0.028932 0.086725 0.264603
0.030245 0.086885 0.265107
0.031609 0.087174 0.266005
0.032910 0.087272 0.266322
0.034205 0.087347 0.266565
0.035613 0.087697 0.267653
0.036815 0.087530 0.267161
0.037804 0.086887 0.265215
0.038923 0.086573 0.264273
0.040258 0.086745 0.264818
0.041097 0.085869 0.262160
0.042271 0.085726 0.261741
0.043331 0.085364 0.260653
0.043916 0.084113 0.256852
0.044790 0.083467 0.254896
0.045955 0.083385 0.254663
0.046829 0.082792 0.252867
0.048053 0.082831 0.253000
0.049279 0.082872 0.253140
0.050610 0.083083 0.253797
0.051914 0.083242 0.254296
0.053296 0.083514 0.255139
0.054721 0.083841 0.256147
0.056084 0.084060 0.256827
0.057989 0.085065 0.259905
0.060090 0.086310 0.263717
0.061482 0.086506 0.264322
0.063222 0.087174 0.266368
0.064804 0.087602 0.267677
0.066388 0.088017 0.268944
0.067893 0.088311 0.269843
0.069178 0.088315 0.269851
0.070465 0.088322 0.269865
0.071327 0.087804 0.268274
0.072175 0.087288 0.266685
0.073143 0.086932 0.265582
0.073731 0.086144 0.263160
0.073967 0.084978 0.259580
0.074704 0.084416 0.257838
0.075436 0.083866 0.256135
0.076260 0.083435 0.254789
0.077431 0.083391 0.254624
0.078994 0.083764 0.255725
0.080404 0.083966 0.256303
0.082143 0.084500 0.257888
0.082653 0.083773 0.255622
0.084032 0.083934 0.256062
0.095184 0.093713 0.285832
0.096438 0.093609 0.285446
0.097333 0.093163 0.284015
0.099954 0.094359 0.287582
0.101388 0.094418 0.287675
0.102888 0.094534 0.287938
0.104107 0.094394 0.287412
0.105550 0.094457 0.287502
0.106894 0.094431 0.287312
0.108479 0.094616 0.287757
0.110057 0.094790 0.288162
0.111436 0.094791 0.288031
0.112839 0.094811 0.287951
0.114485 0.095032 0.288475
0.115913 0.095070 0.288432
0.117405 0.095159 0.288535
0.118681 0.095072 0.288097
0.120173 0.095158 0.288175
0.121731 0.095293 0.288391
0.123202 0.095359 0.288387
0.124558 0.095334 0.288098
0.126038 0.095404 0.288085
0.127588 0.095525 0.288215
0.129167 0.095665 0.288388
0.130881 0.095900 0.288837
0.132566 0.096109 0.289196
0.134072 0.096185 0.289140
0.135656 0.096316 0.289233
0.137409 0.096561 0.289658
0.139005 0.096693 0.289726
0.140442 0.096713 0.289443
0.142161 0.096924 0.289716
0.143848 0.097109 0.289897
0.145407 0.097205 0.289792
0.147169 0.097434 0.290064
0.148838 0.097597 0.290121
0.150452 0.097721 0.290043
0.151949 0.097767 0.289715
0.153671 0.097955 0.289786
0.156046 0.098553 0.291044
-0.045653 0.028627 0.083961
-0.045016 0.028482 0.083672
-0.045037 0.028753 0.084604
-0.044982 0.028981 0.085405
-0.045120 0.029338 0.086585
-0.044809 0.029408 0.086911
-0.044280 0.029612 0.087746
-0.044133 0.029797 0.088403
-0.042343 0.033398 0.100379
-0.041914 0.033435 0.100547
-0.041833 0.033753 0.101557
-0.041891 0.034193 0.102931
-0.041361 0.034157 0.102872
-0.041305 0.034516 0.103999
-0.040947 0.034628 0.104382
-0.040553 0.034713 0.104678
-0.040614 0.035194 0.106169
-0.040934 0.035914 0.108378
-0.040935 0.036369 0.109787
-0.041009 0.036901 0.111426
-0.042350 0.038603 0.116596
-0.042702 0.039435 0.119139
-0.041900 0.039210 0.118488
-0.041803 0.039647 0.119835
-0.041951 0.040332 0.121929
-0.060710 0.064552 0.195322
-0.060165 0.064956 0.196558
-0.059628 0.065380 0.197853
-0.058845 0.065546 0.198362
-0.057959 0.065599 0.198528
-0.057291 0.065906 0.199458
-0.056547 0.066133 0.200148
-0.055770 0.066329 0.200738
-0.054999 0.066539 0.201369
-0.054493 0.067083 0.203010
-0.053718 0.067310 0.203688
-0.052847 0.067422 0.204017
-0.052063 0.067650 0.204697
-0.051168 0.067741 0.204959
-0.050247 0.067801 0.205127
-0.049497 0.068098 0.206008
-0.048713 0.068359 0.206779
-0.048401 0.069307 0.209626
-0.047492 0.069422 0.209953
-0.046534 0.069468 0.210071
-0.045634 0.069606 0.210465
-0.045027 0.070206 0.212255
-0.044413 0.070822 0.214091
-0.043843 0.071538 0.216231
-0.043027 0.071878 0.217229
-0.054251 0.092838 0.280539
-0.052975 0.092922 0.280755
-0.052510 0.094467 0.285385
-0.050762 0.093726 0.283106
-0.049694 0.094235 0.284604
-0.048612 0.094744 0.286100
-0.047440 0.095101 0.287138
-0.045971 0.094868 0.286392
-0.044687 0.095013 0.286789
-0.043309 0.094962 0.286594
-0.041902 0.094842 0.286190
-0.040580 0.094911 0.286357
-0.038036 0.095319 0.287505
-0.036323 0.094399 0.284692
-0.035165 0.094905 0.286178
-0.033833 0.094965 0.286318
-0.029591 0.086523 0.260828
-0.027970 0.085341 0.257232
-0.026877 0.085738 0.258392
-0.025525 0.085306 0.257059
-0.024244 0.085079 0.256341
-0.023041 0.085118 0.256427
-0.021896 0.085388 0.257208
-0.020792 0.085858 0.258595
-0.019668 0.086302 0.259901
-0.018538 0.086773 0.261291
-0.017410 0.087325 0.262924
-0.016184 0.087435 0.263229
-0.014951 0.087517 0.263449
-0.013732 0.087707 0.263997
-0.012463 0.087585 0.263605
-0.011183 0.087351 0.262877
-0.009952 0.087484 0.263257
-0.008696 0.087405 0.262997
-0.007393 0.086749 0.261006
-0.006165 0.086895 0.261426
-0.004918 0.086773 0.261043
-0.003674 0.086634 0.260610
-0.002444 0.086873 0.261314
-0.001203 0.086794 0.261064
0.000036 0.087253 0.262434
0.001288 0.087676 0.263694
0.002546 0.087907 0.264381
0.003848 0.088981 0.267604
0.005173 0.089929 0.270446
0.006473 0.090159 0.271134
0.007909 0.091887 0.276325
0.009306 0.092734 0.278869
0.010606 0.092524 0.278237
0.011907 0.092364 0.277756
0.013178 0.092029 0.276748
0.014400 0.091447 0.275000
0.015644 0.091086 0.273918
0.016818 0.090402 0.271868
0.017851 0.089115 0.268000
0.019086 0.088936 0.267468
0.020264 0.088532 0.266261
0.021403 0.088017 0.264722
0.022649 0.087971 0.264593
0.023875 0.087859 0.264265
0.025115 0.087805 0.264114
0.026327 0.087666 0.263709
0.027598 0.087724 0.263894
0.028821 0.087632 0.263630
0.030021 0.087479 0.263185
0.031217 0.087329 0.262749
0.032471 0.087345 0.262811
0.033786 0.087516 0.263340
0.035223 0.087982 0.264757
0.036574 0.088209 0.265456
0.037669 0.087821 0.264306
0.038876 0.087712 0.263992
0.040018 0.087469 0.263277
0.041434 0.087819 0.264347
0.042529 0.087489 0.263369
0.043611 0.087152 0.262370
0.043963 0.085415 0.257157
0.044667 0.084437 0.254227
0.045860 0.084411 0.254164
0.046755 0.083851 0.252488
0.047917 0.083787 0.252308
0.049055 0.083684 0.252013
0.050356 0.083858 0.252546
0.051663 0.084032 0.253082
0.052915 0.084112 0.253332
0.054168 0.084190 0.253573
0.055667 0.084637 0.254929
0.058200 0.086606 0.260864
0.060011 0.087439 0.263377
0.061462 0.087725 0.264242
0.063109 0.088273 0.265893
0.064693 0.088712 0.267217
0.066326 0.089201 0.268686
0.067705 0.089337 0.269090
0.069077 0.089459 0.269449
0.070216 0.089279 0.268898
0.071549 0.089348 0.269096
0.072092 0.088445 0.266361
0.073338 0.088421 0.266271
0.074018 0.087727 0.264159
0.073665 0.085853 0.258494
0.074510 0.085411 0.257140
0.075460 0.085105 0.256187
0.075836 0.084169 0.253338
0.077123 0.084258 0.253573
0.078167 0.084084 0.253008
0.079347 0.084058 0.252888
0.080421 0.083923 0.252435
0.081921 0.084229 0.253306
0.082649 0.083744 0.251792
0.083632 0.083528 0.251085
0.096151 0.094677 0.284524
0.098005 0.095161 0.285901
0.100046 0.095810 0.287766
0.101477 0.095865 0.287842
0.103294 0.096278 0.288986
0.104455 0.096077 0.288279
0.105684 0.095942 0.287766
0.107181 0.096052 0.287980
0.108552 0.096047 0.287841
0.109826 0.095957 0.287442
0.111737 0.096419 0.288689
0.113065 0.096372 0.288402
0.114508 0.096424 0.288404
0.115950 0.096474 0.288390
0.117350 0.096488 0.288259
0.118787 0.096531 0.288209
0.120305 0.096639 0.288339
0.121738 0.096676 0.288251
0.123197 0.096732 0.288210
0.124866 0.096950 0.288638
0.126539 0.097167 0.289053
0.127951 0.097181 0.288850
0.129424 0.097239 0.288770
0.130966 0.097348 0.288827
0.132577 0.097505 0.289013
0.134273 0.097721 0.289360
0.135769 0.097788 0.289252
0.137369 0.097928 0.289346
0.139027 0.098106 0.289536
0.140683 0.098278 0.289694
0.142327 0.098439 0.289801
0.143935 0.098571 0.289808
0.145544 0.098703 0.289794
0.147278 0.098914 0.289997
0.149094 0.099177 0.290329
0.150703 0.099298 0.290225
0.152257 0.099380 0.289989
0.154090 0.099641 0.290252
0.156185 0.100065 0.290967
-0.045314 0.028822 0.083247
-0.044978 0.028865 0.083513
-0.044802 0.029013 0.084079
-0.044686 0.029202 0.084759
-0.045256 0.029848 0.086762
-0.044885 0.029879 0.086978
-0.044352 0.029802 0.086873
-0.044320 0.030064 0.087752
-0.043892 0.030059 0.087847
-0.040790 0.032634 0.096652
-0.042151 0.034105 0.101069
-0.042996 0.035188 0.104336
-0.042810 0.035443 0.105146
-0.042412 0.035526 0.105445
-0.042181 0.035752 0.106165
-0.041717 0.035784 0.106308
-0.041538 0.036065 0.107185
-0.041477 0.036456 0.108390
-0.041641 0.037057 0.110217
-0.042042 0.037888 0.112724
-0.041775 0.038129 0.113477
-0.041359 0.038238 0.113837
-0.043017 0.040295 0.119992
-0.042409 0.040254 0.119899
-0.041892 0.040300 0.120065
-0.062411 0.065332 0.194838
-0.061733 0.065586 0.195616
-0.061024 0.065815 0.196316
-0.060300 0.066034 0.196985
-0.059647 0.066338 0.197905
-0.058867 0.066509 0.198426
-0.058093 0.066693 0.198982
-0.057310 0.066872 0.199522
-0.056520 0.067048 0.200049
-0.055754 0.067260 0.200683
-0.055087 0.067600 0.201697
-0.054268 0.067764 0.202181
-0.053486 0.067979 0.202819
-0.052727 0.068232 0.203564
-0.051869 0.068364 0.203949
-0.050988 0.068470 0.204255
-0.050144 0.068632 0.204724
-0.049290 0.068785 0.205169
-0.048466 0.068987 0.205754
-0.047836 0.069480 0.207207
-0.047369 0.070234 0.209438
-0.046250 0.070034 0.208821
-0.045475 0.070358 0.209767
-0.044800 0.070853 0.211220
-0.044353 0.071741 0.213843
-0.043906 0.072668 0.216584
-0.043497 0.073706 0.219650
-0.055280 0.095956 0.285924
-0.053980 0.096042 0.286143
-0.052004 0.094899 0.282702
-0.051397 0.096260 0.286720
-0.050057 0.096284 0.286753
-0.048443 0.095769 0.285180
-0.047327 0.096237 0.286536
-0.046016 0.096323 0.286754
-0.044477 0.095924 0.285526
-0.043167 0.096010 0.285742
-0.041624 0.095565 0.284381
-0.040053 0.095024 0.282731
-0.039633 0.097272 0.289379
-0.038291 0.097338 0.289537
-0.036368 0.095876 0.285148
-0.034920 0.095602 0.284295
-0.031657 0.090136 0.268006
-0.029745 0.088225 0.262287
-0.028044 0.086801 0.258022
-0.026888 0.087007 0.258602
-0.025561 0.086658 0.257530
-0.024237 0.086282 0.256384
-0.023012 0.086238 0.256221
-0.021881 0.086563 0.257156
-0.020803 0.087146 0.258858
-0.019653 0.087483 0.259830
-0.018558 0.088126 0.261711
-0.017426 0.088674 0.263312
-0.016171 0.088627 0.263148
-0.014945 0.088755 0.263502
-0.013682 0.088661 0.263199
-0.012361 0.088130 0.261599
-0.011123 0.088146 0.261622
-0.009849 0.087843 0.260702
-0.008573 0.087433 0.259465
-0.007348 0.087503 0.259655
-0.006121 0.087558 0.259802
-0.004888 0.087545 0.259746
-0.003673 0.087939 0.260902
-0.002431 0.087766 0.260374
-0.001196 0.087804 0.260473
0.000040 0.088844 0.263547
0.001304 0.089749 0.266223
0.002599 0.090858 0.269502
0.003915 0.091731 0.272082
0.005236 0.092265 0.273659
0.006568 0.092726 0.275023
0.007899 0.093037 0.275940
0.009294 0.093895 0.278480
0.010592 0.093683 0.277849
0.011890 0.093521 0.277369
0.013159 0.093182 0.276363
0.014379 0.092593 0.274617
0.015621 0.092227 0.273537
0.016793 0.091536 0.271490
0.017958 0.090909 0.269634
0.019164 0.090558 0.268600
0.020368 0.090242 0.267669
0.021523 0.089759 0.266245
0.022683 0.089348 0.265033
0.023843 0.088980 0.263950
0.024935 0.088408 0.262264
0.026092 0.088109 0.261386
0.027265 0.087891 0.260751
0.028367 0.087469 0.259511
0.029512 0.087212 0.258759
0.030672 0.087018 0.258198
0.032012 0.087329 0.259131
0.033217 0.087263 0.258949
0.034718 0.087949 0.260998
0.036185 0.088507 0.262669
0.037438 0.088519 0.262720
0.038665 0.088472 0.262593
0.040031 0.088737 0.263394
0.041259 0.088688 0.263261
0.042780 0.089254 0.264957
0.044041 0.089260 0.264988
0.044359 0.087408 0.259501
0.044438 0.085197 0.252950
0.045640 0.085199 0.252967
0.046872 0.085253 0.253142
0.047870 0.084893 0.252082
0.049181 0.085089 0.252674
0.050329 0.085002 0.252425
0.051627 0.085166 0.252920
0.052911 0.085300 0.253325
0.053995 0.085112 0.252771
0.055387 0.085408 0.253656
0.057847 0.087303 0.259286
0.060227 0.089000 0.264328
0.061937 0.089658 0.266282
0.063061 0.089459 0.265689
0.064773 0.090085 0.267545
0.066349 0.090501 0.268773
0.067710 0.090614 0.269102
0.068793 0.090358 0.268330
0.070020 0.090296 0.268134
0.071303 0.090306 0.268149
0.072186 0.089819 0.266685
0.073418 0.089777 0.266538
0.073894 0.088825 0.263690
0.073389 0.086747 0.257494
0.074045 0.086085 0.255501
0.075145 0.085954 0.255080
0.075770 0.085292 0.253079
0.077249 0.085597 0.253945
0.078066 0.085169 0.252634
0.079386 0.085295 0.252962
0.080808 0.085526 0.253596
0.081869 0.085373 0.253089
0.082280 0.084557 0.250609
0.083969 0.085058 0.252032
0.095534 0.095408 0.282622
0.097658 0.096173 0.284808
0.100190 0.097312 0.288092
0.101716 0.097457 0.288426
0.103097 0.097461 0.288337
0.104612 0.097590 0.288612
0.105878 0.097487 0.288191
0.107235 0.097468 0.288015
0.108776 0.097615 0.288320
0.110104 0.097569 0.288049
0.111566 0.097642 0.288122
0.113046 0.097728 0.288225
0.114519 0.097806 0.288295
0.115813 0.097731 0.287906
0.117627 0.098092 0.288791
0.119108 0.098169 0.288832
0.120288 0.098000 0.288138
0.121821 0.098119 0.288281
0.123356 0.098235 0.288408
0.124428 0.097986 0.287449
0.126316 0.098377 0.288358
0.128052 0.098642 0.288885
0.129336 0.098556 0.288374
0.131260 0.098955 0.289267
0.132896 0.099131 0.289494
0.134458 0.099249 0.289538
0.135844 0.099235 0.289183
0.137434 0.099369 0.289244
0.139089 0.099546 0.289417
0.140700 0.099689 0.289475
0.142436 0.099916 0.289758
0.144283 0.100216 0.290235
0.145741 0.100243 0.289901
0.147588 0.100534 0.290315
0.149227 0.100678 0.290283
0.150921 0.100857 0.290331
0.152589 0.101014 0.290297
0.154186 0.101123 0.290099
0.155673 0.101157 0.289668
-0.045346 0.029249 0.083212
-0.045010 0.029293 0.083482
-0.044802 0.029422 0.083990
-0.044815 0.029699 0.084917
-0.044951 0.030065 0.086094
-0.044698 0.030174 0.086534
-0.044179 0.030105 0.086456
-0.043852 0.030166 0.086747
-0.044145 0.030659 0.088278
-0.041426 0.033610 0.098109
-0.041437 0.034001 0.099310
-0.042206 0.035029 0.102371
-0.042540 0.035716 0.104438
-0.042224 0.035868 0.104933
-0.041685 0.035830 0.104875
-0.041464 0.036069 0.105623
-0.041135 0.036219 0.106108
-0.041350 0.036858 0.108022
-0.041226 0.037206 0.109085
-0.041982 0.038367 0.112528
-0.041893 0.038776 0.113765
-0.043495 0.040781 0.119685
-0.042979 0.040828 0.119856
-0.042463 0.040874 0.120024
-0.064088 0.066092 0.194278
-0.062589 0.066444 0.195368
-0.061791 0.066574 0.195776
-0.061059 0.066782 0.196409
-0.060233 0.066892 0.196749
-0.059523 0.067135 0.197481
-0.058775 0.067342 0.198103
-0.058028 0.067559 0.198750
-0.057238 0.067731 0.199263
-0.056449 0.067910 0.199795
-0.055710 0.068156 0.200523
-0.054884 0.068303 0.200956
-0.054091 0.068496 0.201523
-0.053332 0.068741 0.202241
-0.052495 0.068891 0.202679
-0.051653 0.069041 0.203112
-0.050805 0.069188 0.203536
-0.049920 0.069291 0.203828
-0.049263 0.069719 0.205075
-0.048613 0.070174 0.206400
-0.047772 0.070367 0.206954
-0.047043 0.070737 0.208025
-0.046148 0.070868 0.208393
-0.045399 0.071233 0.209448
-0.044605 0.071543 0.210337
-0.043981 0.072144 0.212085
-0.043284 0.072652 0.213554
-0.055445 0.095280 0.280037
-0.054173 0.095365 0.280257
-0.053771 0.097024 0.285099
-0.052778 0.097675 0.286977
-0.051373 0.097576 0.286653
-0.049972 0.097482 0.286340
-0.048673 0.097586 0.286612
-0.047271 0.097483 0.286271
-0.045879 0.097396 0.285979
-0.044520 0.097376 0.285883
-0.043142 0.097314 0.285663
-0.041780 0.097283 0.285535
-0.040150 0.096605 0.283510
-0.039840 0.099167 0.290991
-0.038492 0.099234 0.291150
-0.036266 0.096963 0.284449
-0.034961 0.097070 0.284726
-0.031682 0.091490 0.268324
-0.029767 0.089543 0.262582
-0.027893 0.087558 0.256729
-0.026852 0.088127 0.258366
-0.025520 0.087748 0.257223
-0.024169 0.087262 0.255769
-0.022950 0.087228 0.255638
-0.021779 0.087385 0.256071
-0.020632 0.087660 0.256848
-0.019532 0.088185 0.258358
-0.018437 0.088798 0.260127
-0.017271 0.089139 0.261100
-0.016058 0.089268 0.261452
-0.014856 0.089487 0.262068
-0.013616 0.089498 0.262076
-0.012311 0.089038 0.260707
-0.011047 0.088804 0.260002
-0.009830 0.088940 0.260380
-0.008548 0.088441 0.258900
-0.007302 0.088212 0.258212
-0.006100 0.088537 0.259145
-0.004863 0.088377 0.258661
-0.003631 0.088243 0.258255
-0.002383 0.087374 0.255696
-0.001186 0.088584 0.259227
0.000044 0.089577 0.262120
0.001307 0.090973 0.266194
0.002575 0.091162 0.266738
0.003904 0.092671 0.271146
0.005225 0.093288 0.272945
0.006555 0.093791 0.274409
0.007866 0.093900 0.274725
0.009195 0.094163 0.275488
0.010482 0.093985 0.274966
0.011711 0.093376 0.273183
0.012980 0.093180 0.272608
0.014129 0.092233 0.269839
0.015375 0.092028 0.269240
0.016572 0.091580 0.267932
0.017784 0.091272 0.267036
0.019053 0.091284 0.267075
0.020260 0.091011 0.266283
0.021525 0.091015 0.266300
0.022695 0.090639 0.265206
0.023754 0.089881 0.262998
0.024911 0.089551 0.262042
0.026045 0.089175 0.260950
0.027112 0.088616 0.259322
0.028193 0.088145 0.257955
0.029395 0.088078 0.257770
0.030577 0.087957 0.257426
0.031824 0.088028 0.257645
0.033027 0.087973 0.257496
0.034299 0.088100 0.257881
0.035831 0.088865 0.260130
0.037279 0.089374 0.261634
0.038527 0.089390 0.261691
0.039898 0.089677 0.262545
0.041123 0.089631 0.262422
0.042473 0.089852 0.263080
0.044049 0.090525 0.265062
0.045274 0.090458 0.264879
0.044451 0.086413 0.253043
0.045444 0.086019 0.251899
0.046737 0.086198 0.252431
0.047870 0.086081 0.252098
0.049070 0.086085 0.252118
0.050231 0.086024 0.251945
0.051522 0.086182 0.252414
0.052849 0.086393 0.253035
0.054047 0.086388 0.253023
0.055536 0.086837 0.254341
0.057201 0.087537 0.256391
0.059742 0.089520 0.262198
0.061472 0.090232 0.264280
0.063049 0.090695 0.265632
0.064818 0.091411 0.267723
0.066164 0.091513 0.268011
0.067615 0.091755 0.268710
0.068728 0.091537 0.268057
0.070072 0.091629 0.268312
0.070969 0.091143 0.266870
0.071966 0.090801 0.265848
0.073679 0.091358 0.267454
0.074306 0.090573 0.265129
0.074210 0.088946 0.260338
0.074781 0.088161 0.258005
0.075498 0.087569 0.256238
0.076428 0.087238 0.255232
0.077867 0.087491 0.255928
0.078930 0.087320 0.255381
0.080376 0.087571 0.256064
0.081934 0.087934 0.257070
0.083203 0.087981 0.257150
0.084127 0.087668 0.256170
0.094668 0.097241 0.284067
0.095919 0.097137 0.283682
0.098014 0.097878 0.285759
0.100018 0.098508 0.287507
0.101553 0.098666 0.287870
0.102844 0.098586 0.287529
0.104225 0.098593 0.287437
0.105618 0.098611 0.287371
0.106941 0.098565 0.287110
0.108442 0.098680 0.287313
0.109865 0.098723 0.287297
0.111409 0.098872 0.287583
0.112962 0.099025 0.287871
0.114330 0.099014 0.287675
0.115760 0.099057 0.287625
0.117231 0.099134 0.287664
0.118775 0.099269 0.287864
0.120449 0.099508 0.288355
0.121964 0.099612 0.288445
0.123252 0.099530 0.287986
0.124779 0.099641 0.288073
0.126311 0.099753 0.288152
0.127617 0.099687 0.287705
0.129268 0.099887 0.288017
0.130826 0.100013 0.288097
0.132315 0.100083 0.288007
0.134072 0.100353 0.288475
0.135591 0.100441 0.288407
0.137221 0.100607 0.288550
0.138962 0.100851 0.288898
0.140542 0.100975 0.288884
0.142325 0.101240 0.289260
0.144495 0.101772 0.290378
0.145879 0.101746 0.289883
0.147810 0.102098 0.290446
0.149614 0.102356 0.290722
0.151393 0.102592 0.290914
0.153052 0.102743 0.290842
0.154536 0.102775 0.290411
0.156400 0.103056 0.290660
-0.045288 0.029618 0.083008
-0.045111 0.029767 0.083576
-0.044966 0.029940 0.084204
-0.044892 0.030164 0.084974
-0.044785 0.030371 0.085688
-0.044431 0.030412 0.085933
-0.044107 0.030474 0.086232
-0.043868 0.030597 0.086700
-0.044119 0.031067 0.088148
-0.041389 0.034048 0.097973
-0.040967 0.034083 0.098134
-0.041179 0.034653 0.099835
-0.042100 0.035839 0.103311
-0.041685 0.035902 0.103549
-0.041109 0.035828 0.103385
-0.040867 0.036045 0.104062
-0.040909 0.036522 0.105485
-0.041875 0.037845 0.109353
-0.043218 0.039546 0.114315
-0.042726 0.039590 0.114485
-0.041686 0.039122 0.113169
-0.064169 0.067097 0.194488
-0.063348 0.067197 0.194813
-0.062671 0.067457 0.195594
-0.061903 0.067624 0.196107
-0.061066 0.067719 0.196407
-0.060228 0.067817 0.196711
-0.059504 0.068048 0.197398
-0.058751 0.068253 0.198008
-0.057976 0.068439 0.198561
-0.057149 0.068568 0.198945
-0.056366 0.068754 0.199494
-0.055581 0.068945 0.200054
-0.054770 0.069110 0.200536
-0.053937 0.069252 0.200950
-0.053083 0.069373 0.201300
-0.052293 0.069583 0.201906
-0.051524 0.069828 0.202614
-0.050793 0.070137 0.203502
-0.049997 0.070364 0.204154
-0.049208 0.070612 0.204863
-0.048521 0.071018 0.206031
-0.047719 0.071269 0.206746
-0.047037 0.071714 0.208021
-0.046232 0.071986 0.208796
-0.045354 0.072154 0.209268
-0.044598 0.072528 0.210334
-0.043844 0.072923 0.211459
-0.043492 0.074019 0.214618
-0.055814 0.097252 0.281954
-0.054533 0.097338 0.282175
-0.053300 0.097516 0.282660
-0.052493 0.098502 0.285486
-0.051143 0.098495 0.285434
-0.049773 0.098449 0.285269
-0.048499 0.098595 0.285657
-0.047178 0.098650 0.285781
-0.045850 0.098694 0.285875
-0.044484 0.098657 0.285732
-0.043133 0.098653 0.285686
-0.041708 0.098472 0.285128
-0.039458 0.096267 0.278710
-0.039925 0.100767 0.291701
-0.038573 0.100834 0.291859
-0.036055 0.097745 0.282884
-0.035050 0.098681 0.285556
-0.031841 0.093234 0.269760
-0.029898 0.091197 0.263836
-0.027941 0.088938 0.257269
-0.026805 0.089205 0.258012
-0.025560 0.089117 0.257729
-0.024187 0.088555 0.256075
-0.022960 0.088492 0.255863
-0.021810 0.088737 0.256545
-0.020725 0.089292 0.258121
-0.019548 0.089497 0.258685
-0.018416 0.089946 0.259958
-0.017287 0.090480 0.261477
-0.016006 0.090235 0.260745
-0.014851 0.090720 0.262121
-0.013585 0.090559 0.261632
-0.012229 0.089701 0.259134
-0.011030 0.089927 0.259764
-0.009794 0.089885 0.259623
-0.008530 0.089518 0.258547
-0.007318 0.089678 0.258989
-0.006088 0.089642 0.258868
-0.004876 0.089922 0.259661
-0.003647 0.089962 0.259763
-0.002409 0.089714 0.259034
-0.001176 0.089293 0.257805
0.000047 0.089993 0.259814
0.001285 0.090453 0.261133
0.002545 0.091233 0.263375
0.003863 0.092875 0.268106
0.005150 0.093156 0.268911
0.006433 0.093266 0.269223
0.007727 0.093472 0.269811
0.009023 0.093647 0.270312
0.010297 0.093573 0.270096
0.011531 0.093184 0.268973
0.012802 0.093148 0.268867
0.014011 0.092709 0.267601
0.015183 0.092117 0.265892
0.016365 0.091672 0.264610
0.017570 0.091406 0.263846
0.018823 0.091415 0.263873
0.020088 0.091469 0.264035
0.021295 0.091276 0.263482
0.022556 0.091317 0.263609
0.023767 0.091165 0.263176
0.024874 0.090647 0.261687
0.026062 0.090458 0.261151
0.027165 0.090006 0.259854
0.028311 0.089732 0.259069
0.029355 0.089168 0.257451
0.030573 0.089156 0.257425
0.031735 0.088988 0.256950
0.032860 0.088733 0.256223
0.034133 0.088881 0.256660
0.035565 0.089419 0.258225
0.037066 0.090089 0.260171
0.038505 0.090568 0.261563
0.039745 0.090565 0.261566
0.041145 0.090916 0.262588
0.042763 0.091713 0.264901
0.044232 0.092153 0.266182
0.045462 0.092086 0.265998
0.043977 0.086670 0.250361
0.045174 0.086688 0.250420
0.046605 0.087140 0.251732
0.047576 0.086732 0.250558
0.048840 0.086865 0.250949
0.050006 0.086820 0.250824
0.051387 0.087144 0.251763
0.052732 0.087392 0.252479
0.054095 0.087658 0.253249
0.055548 0.088056 0.254398
0.057468 0.089160 0.257586
0.060357 0.091691 0.264894
0.061779 0.091936 0.265594
0.063161 0.092111 0.266093
0.064609 0.092374 0.266843
0.066235 0.092878 0.268286
0.067672 0.093101 0.268918
0.069087 0.093287 0.269436
0.070349 0.093262 0.269345
0.071416 0.092984 0.268522
0.072514 0.092756 0.267839
0.074172 0.093240 0.269208
0.075178 0.092902 0.268200
0.074866 0.090974 0.262601
0.074958 0.089591 0.258574
0.075891 0.089241 0.257525
0.076920 0.089014 0.256826
0.077936 0.088779 0.256101
0.079225 0.088857 0.256277
0.080561 0.088986 0.256593
0.082162 0.089398 0.257722
0.083581 0.089603 0.258249
0.084493 0.089266 0.257210
0.086433 0.090010 0.259281
0.095017 0.097553 0.280926
0.098006 0.099223 0.285642
0.099978 0.099830 0.287293
0.101427 0.099906 0.287408
0.102775 0.099882 0.287228
0.104230 0.099962 0.287340
0.105585 0.099944 0.287165
0.107140 0.100113 0.287519
0.108454 0.100056 0.287216
0.109854 0.100079 0.287136
0.111391 0.100224 0.287399
0.113001 0.100430 0.287827
0.114494 0.100529 0.287939
0.115760 0.100428 0.287469
0.117073 0.100369 0.287113
0.118577 0.100474 0.287216
0.119878 0.100407 0.286815
0.121309 0.100448 0.286715
0.123301 0.100947 0.287912
0.124220 0.100567 0.286587
0.126181 0.101029 0.287654
0.127946 0.101326 0.288236
0.129613 0.101540 0.288569
0.131023 0.101549 0.288307
0.132601 0.101688 0.288399
0.134211 0.101847 0.288535
0.135765 0.101961 0.288528
0.137540 0.102237 0.288963
0.139164 0.102396 0.289053
0.140621 0.102429 0.288771
0.142978 0.103112 0.290301
0.144436 0.103138 0.289964
0.146364 0.103497 0.290542
0.148210 0.103791 0.290916
0.149973 0.104021 0.291093
0.151613 0.104163 0.290998
0.153259 0.104306 0.290886
0.154972 0.104491 0.290868
0.156395 0.104478 0.290276
-0.045270 0.030012 0.082875
-0.045012 0.030109 0.083294
-0.044829 0.030259 0.083853
-0.044634 0.030403 0.084393
-0.044675 0.030712 0.085387
-0.044287 0.030729 0.085567
-0.043888 0.030739 0.085720
-0.043728 0.030918 0.086341
-0.040876 0.034087 0.096705
-0.040844 0.034447 0.097790
-0.042582 0.036325 0.103185
-0.042440 0.036624 0.104094
-0.042127 0.036781 0.104598
-0.041712 0.036852 0.104854
-0.041306 0.036932 0.105136
-0.041377 0.037446 0.106648
-0.040855 0.037430 0.106648
-0.040764 0.037813 0.107784
-0.042681 0.040092 0.114327
-0.064015 0.067855 0.193984
-0.063284 0.068052 0.194583
-0.062513 0.068211 0.195070
-0.061737 0.068369 0.195550
-0.060953 0.068523 0.196019
-0.060120 0.068625 0.196335
-0.059383 0.068842 0.196976
-0.058690 0.069118 0.197784
-0.057918 0.069309 0.198347
-0.057125 0.069480 0.198848
-0.056330 0.069654 0.199358
-0.055514 0.069809 0.199807
-0.054676 0.069939 0.200187
-0.053812 0.070042 0.200484
-0.052944 0.070142 0.200772
-0.052081 0.070252 0.201088
-0.051272 0.070442 0.201628
-0.050453 0.070624 0.202146
-0.049614 0.070785 0.202602
-0.049142 0.071487 0.204603
-0.048280 0.071637 0.205024
-0.047537 0.071974 0.205978
-0.046811 0.072352 0.207046
-0.046088 0.072749 0.208170
-0.045251 0.072981 0.208818
-0.044550 0.073447 0.210137
-0.044057 0.074284 0.212516
-0.043776 0.075529 0.216057
-0.056029 0.098970 0.283088
-0.054743 0.099057 0.283310
-0.053623 0.099457 0.284426
-0.052312 0.099514 0.284561
-0.050943 0.099462 0.284381
-0.049740 0.099738 0.285141
-0.048341 0.099626 0.284790
-0.046985 0.099600 0.284684
-0.045779 0.099898 0.285504
-0.044400 0.099827 0.285269
-0.043062 0.099847 0.285292
-0.041690 0.099785 0.285082
-0.040372 0.099855 0.285247
-0.038561 0.102196 0.291866
-0.036054 0.099092 0.282971
-0.034961 0.099789 0.284928
-0.033636 0.099850 0.285067
-0.030006 0.092791 0.264884
-0.028006 0.090378 0.257966
-0.026755 0.090269 0.257628
-0.025473 0.090044 0.256957
-0.024182 0.089761 0.256121
-0.022910 0.089523 0.255415
-0.021713 0.089569 0.255518
-0.020645 0.090180 0.257237
-0.019509 0.090560 0.258294
-0.018363 0.090936 0.259341
-0.017262 0.091604 0.261222
-0.016055 0.091774 0.261685
-0.014944 0.092563 0.263912
-0.013774 0.093099 0.265415
-0.012182 0.090604 0.258281
-0.010995 0.090903 0.259114
-0.009744 0.090681 0.258463
-0.008429 0.089714 0.255689
-0.007241 0.090004 0.256497
-0.006032 0.090094 0.256737
-0.004813 0.090036 0.256557
-0.003609 0.090328 0.257376
-0.002392 0.090440 0.257680
-0.001173 0.090589 0.258094
0.000051 0.091072 0.259459
0.001281 0.091139 0.259640
0.002561 0.092906 0.264662
0.003859 0.093958 0.267651
0.005167 0.094669 0.269669
0.006414 0.094208 0.268350
0.007650 0.093760 0.267069
0.008957 0.094193 0.268297
0.010197 0.093892 0.267438
0.011458 0.093828 0.267252
0.012697 0.093620 0.266656
0.013869 0.093000 0.264891
0.015137 0.093069 0.265089
0.016289 0.092470 0.263383
0.017487 0.092200 0.262615
0.018751 0.092290 0.262874
0.019832 0.091525 0.260698
0.021016 0.091292 0.260041
0.022383 0.091842 0.261611
0.023505 0.091379 0.260299
0.024622 0.090943 0.259062
0.025859 0.090970 0.259146
0.026824 0.090080 0.256618
0.027962 0.089825 0.255899
0.029182 0.089844 0.255961
0.030250 0.089409 0.254729
0.031450 0.089385 0.254667
0.032738 0.089603 0.255296
0.033915 0.089511 0.255045
0.035273 0.089889 0.256129
0.036462 0.089825 0.255954
0.038031 0.090668 0.258364
0.039719 0.091735 0.261415
0.040636 0.091011 0.259359
0.041834 0.090939 0.259162
0.043822 0.092541 0.263734
0.045008 0.092406 0.263357
0.046812 0.093513 0.266517
0.045787 0.089058 0.253825
0.046915 0.088914 0.253418
0.047811 0.088346 0.251804
0.049000 0.088336 0.251779
0.050044 0.088069 0.251018
0.051465 0.088464 0.252145
0.052909 0.088879 0.253327
0.054310 0.089205 0.254255
0.056314 0.090485 0.257900
0.058138 0.091428 0.260582
0.060208 0.092711 0.264230
0.061745 0.093135 0.265433
0.063110 0.093291 0.265865
0.064620 0.093649 0.266872
0.066289 0.094220 0.268483
0.067678 0.094378 0.268916
0.069262 0.094798 0.270093
0.070718 0.095029 0.270729
0.072191 0.095275 0.271404
0.073435 0.095216 0.271208
0.075230 0.095859 0.273009
0.076276 0.095544 0.272075
0.077191 0.095077 0.270709
0.078725 0.095376 0.271517
0.079141 0.094332 0.268500
0.081682 0.095814 0.272670
0.080936 0.093454 0.265900
0.083618 0.095064 0.270425
0.084537 0.094651 0.269190
0.083876 0.092508 0.263029
0.085322 0.092717 0.263555
0.086468 0.092598 0.263144
0.093528 0.098727 0.280476
0.094767 0.098624 0.280096
0.098197 0.100772 0.286100
0.099928 0.101142 0.287046
0.101491 0.101334 0.287482
0.102778 0.101248 0.287123
0.104208 0.101304 0.287159
0.105660 0.101380 0.287245
0.107126 0.101466 0.287352
0.108572 0.101531 0.287394
0.110053 0.101628 0.287514
0.111510 0.101700 0.287560
0.112862 0.101675 0.287321
0.114491 0.101898 0.287773
0.115971 0.101984 0.287829
0.117377 0.102003 0.287690
0.118788 0.102026 0.287551
0.120176 0.102030 0.287345
0.121663 0.102116 0.287362
0.123065 0.102129 0.287165
0.124691 0.102326 0.287472
0.126538 0.102697 0.288257
0.128091 0.102825 0.288346
0.129652 0.102956 0.288430
0.131302 0.103155 0.288688
0.132846 0.103266 0.288689
0.134407 0.103387 0.288705
0.136011 0.103539 0.288792
0.137829 0.103850 0.289304
0.139557 0.104086 0.289592
0.141070 0.104159 0.289409
0.142654 0.104282 0.289347
0.144603 0.104667 0.289993
0.146632 0.105101 0.290757
0.148391 0.105336 0.290944
0.150240 0.105628 0.291272
0.152061 0.105896 0.291507
0.153478 0.105880 0.290939
0.155628 0.106365 0.291723
0.157521 0.106667 0.291978
-0.044863 0.030146 0.082029
-0.044759 0.030346 0.082726
-0.044533 0.030466 0.083203
-0.044381 0.030640 0.083820
-0.044344 0.030897 0.084662
-0.044044 0.030975 0.085007
-0.043844 0.031124 0.085545
-0.043315 0.031041 0.085440
-0.043057 0.031152 0.085865
-0.040362 0.034114 0.095434
-0.040975 0.035026 0.098051
-0.041406 0.035800 0.100283
-0.041836 0.036592 0.102562
-0.041640 0.036848 0.103340
-0.040539 0.036301 0.101859
-0.040866 0.037034 0.103970
-0.040503 0.037152 0.104352
-0.040022 0.037163 0.104432
-0.040066 0.037669 0.105899
-0.064970 0.068818 0.194024
-0.064077 0.068842 0.194133
-0.063229 0.068914 0.194375
-0.062462 0.069079 0.194875
-0.061651 0.069199 0.195247
-0.060838 0.069320 0.195617
-0.060036 0.069458 0.196033
-0.059280 0.069654 0.196610
-0.058544 0.069881 0.197271
-0.057840 0.070154 0.198059
-0.057132 0.070431 0.198858
-0.056308 0.070572 0.199268
-0.055505 0.070744 0.199764
-0.054701 0.070920 0.200270
-0.053796 0.070970 0.200418
-0.052945 0.071095 0.200775
-0.052102 0.071234 0.201170
-0.051262 0.071383 0.201592
-0.050432 0.071553 0.202070
-0.049731 0.071914 0.203086
-0.049035 0.072298 0.204165
-0.048279 0.072608 0.205034
-0.047581 0.073017 0.206182
-0.046801 0.073316 0.207017
-0.045952 0.073518 0.207575
-0.045168 0.073836 0.208459
-0.044474 0.074317 0.209804
-0.043942 0.075097 0.211992
-0.043677 0.076381 0.215599
-0.055175 0.098785 0.278818
-0.054863 0.100623 0.283982
-0.053545 0.100662 0.284065
-0.052303 0.100848 0.284564
-0.051019 0.100963 0.284862
-0.049679 0.100970 0.284853
-0.048376 0.101054 0.285062
-0.047075 0.101146 0.285293
-0.045742 0.101176 0.285347
-0.044465 0.101333 0.285759
-0.043109 0.101315 0.285678
-0.041742 0.101270 0.285518
-0.040422 0.101339 0.285683
-0.039165 0.105208 0.296525
-0.035906 0.100030 0.281898
-0.034827 0.100761 0.283929
-0.031886 0.095946 0.270330
-0.030134 0.094457 0.266106
-0.027957 0.091448 0.257602
-0.026766 0.091539 0.257829
-0.025459 0.091222 0.256911
-0.024115 0.090734 0.255508
-0.022850 0.090510 0.254854
-0.021660 0.090571 0.255000
-0.020576 0.091112 0.256496
-0.019461 0.091574 0.257773
-0.018326 0.091996 0.258936
-0.017213 0.092597 0.260605
-0.016021 0.092838 0.261260
-0.014988 0.094114 0.264829
-0.013750 0.094220 0.265105
-0.012499 0.094246 0.265158
-0.010831 0.090784 0.255397
-0.009601 0.090594 0.254847
-0.008390 0.090545 0.254689
-0.007155 0.090177 0.253638
-0.005947 0.090081 0.253354
-0.004752 0.090177 0.253610
-0.003558 0.090355 0.254096
-0.002360 0.090570 0.254686
-0.001156 0.090760 0.255209
0.000054 0.091172 0.256357
0.001285 0.092329 0.259600
0.002559 0.093945 0.264132
0.003830 0.094422 0.265466
0.005096 0.094556 0.265835
0.006367 0.094726 0.266305
0.007582 0.094140 0.264653
0.008820 0.093961 0.264145
0.010093 0.094151 0.264674
0.011263 0.093445 0.262687
0.012489 0.093300 0.262278
0.013733 0.093302 0.262283
0.014922 0.092966 0.261336
0.016148 0.092885 0.261109
0.017384 0.092873 0.261077
0.018618 0.092851 0.261018
0.019857 0.092858 0.261041
0.021039 0.092611 0.260347
0.022340 0.092885 0.261121
0.023553 0.092785 0.260844
0.024675 0.092355 0.259641
0.025681 0.091549 0.257380
0.026796 0.091188 0.256372
0.027883 0.090768 0.255196
0.028903 0.090175 0.253534
0.030054 0.090018 0.253100
0.031317 0.090199 0.253615
0.032586 0.090380 0.254129
0.033771 0.090326 0.253986
0.035075 0.090582 0.254712
0.036510 0.091146 0.256304
0.038198 0.092287 0.259518
0.039715 0.092955 0.261405
0.041414 0.093996 0.264339
0.042435 0.093483 0.262902
0.044147 0.094477 0.265701
0.045368 0.094394 0.265472
0.046743 0.094629 0.266136
0.048207 0.095024 0.267250
0.049790 0.095629 0.268954
0.051039 0.095577 0.268810
0.052539 0.095986 0.269961
0.053403 0.095243 0.267871
0.054458 0.094865 0.266804
0.056135 0.095565 0.268770
0.057498 0.095709 0.269170
0.058725 0.095627 0.268934
0.059435 0.094723 0.266383
0.060580 0.094536 0.265846
0.061946 0.094695 0.266282
0.063122 0.094562 0.265895
0.064747 0.095094 0.267376
0.066344 0.095565 0.268680
0.067723 0.095709 0.269065
0.069116 0.095869 0.269490
0.070696 0.096276 0.270609
0.072101 0.096435 0.271027
0.073606 0.096720 0.271795
0.075377 0.097338 0.273498
0.076854 0.097562 0.274088
0.078117 0.097512 0.273905
0.079735 0.097899 0.274944
0.080895 0.097719 0.274391
0.081586 0.096988 0.272284
0.082538 0.096586 0.271098
0.083522 0.096231 0.270042
0.084441 0.095815 0.268808
0.085341 0.095390 0.267546
0.086640 0.095415 0.267544
0.088230 0.095757 0.268423
0.094158 0.100728 0.282269
0.095407 0.100625 0.281886
0.098530 0.102474 0.286964
0.099951 0.102526 0.287003
0.101380 0.102585 0.287051
0.102665 0.102498 0.286688
0.104143 0.102603 0.286855
0.105548 0.102635 0.286810
0.107003 0.102714 0.286888
0.108632 0.102955 0.287413
0.110078 0.103019 0.287432
0.111401 0.102968 0.287125
0.112884 0.103064 0.287219
0.114361 0.103152 0.287280
0.115847 0.103246 0.287352
0.117359 0.103361 0.287469
0.118703 0.103325 0.287160
0.120212 0.103434 0.287242
0.121847 0.103647 0.287600
0.123505 0.103874 0.287987
0.125310 0.104218 0.288686
0.126727 0.104236 0.288470
0.128485 0.104530 0.289006
0.129963 0.104593 0.288887
0.131357 0.104586 0.288565
0.132784 0.104607 0.288303
0.134322 0.104713 0.288264
0.135828 0.104792 0.288137
0.137473 0.104976 0.288279
0.139644 0.105553 0.289485
0.141540 0.105913 0.290075
0.143135 0.106042 0.290016
0.145196 0.106511 0.290865
0.146868 0.106688 0.290896
0.148624 0.106921 0.291061
0.150583 0.107295 0.291584
0.152352 0.107527 0.291702
0.154185 0.107800 0.291903
0.156098 0.108122 0.292214
0.157730 0.108246 0.291962
-0.044515 0.030312 0.081287
-0.044436 0.030529 0.082026
-0.044472 0.030831 0.082987
-0.044335 0.031017 0.083635
-0.044362 0.031323 0.084600
-0.044097 0.031426 0.085016
-0.043744 0.031468 0.085259
-0.043410 0.031524 0.085538
-0.043033 0.031551 0.085731
-0.040903 0.035034 0.096658
-0.040355 0.034957 0.096511
-0.040842 0.035784 0.098861
-0.042090 0.037306 0.103131
-0.041963 0.037630 0.104088
-0.041282 0.037460 0.103677
-0.040922 0.037580 0.104064
-0.041377 0.038461 0.106556
-0.040673 0.038273 0.106086
-0.040214 0.038313 0.106246
-0.065533 0.069366 0.192893
-0.064756 0.069508 0.193336
-0.063955 0.069629 0.193717
-0.063132 0.069728 0.194035
-0.062351 0.069878 0.194491
-0.061550 0.070009 0.194889
-0.060848 0.070259 0.195617
-0.060038 0.070390 0.196010
-0.059231 0.070527 0.196420
-0.058483 0.070742 0.197040
