ply
format ascii 1.0
element vertex 1679
property float x
property float y
property float z
end_header
0.099994 -0.026666 0.295944
0.099558 -0.026180 0.290620
0.100950 -0.026182 0.290702
0.102553 -0.026238 0.291378
0.104077 -0.026272 0.291814
0.104989 -0.026153 0.290540
0.106559 -0.026199 0.291093
0.107976 -0.026207 0.291214
0.109735 -0.026296 0.292242
0.111071 -0.026283 0.292124
0.112162 -0.026213 0.291369
0.113682 -0.026244 0.291727
0.114931 -0.026212 0.291385
0.116110 -0.026165 0.290872
0.117627 -0.026195 0.291199
0.118803 -0.026149 0.290678
0.119909 -0.026089 0.289992
0.121623 -0.026160 0.290768
0.122949 -0.026148 0.290604
0.124346 -0.026151 0.290599
0.125813 -0.026168 0.290748
0.126956 -0.026119 0.290145
0.128482 -0.026148 0.290410
0.129834 -0.026142 0.290272
0.131584 -0.026215 0.291005
0.133390 -0.026298 0.291837
0.134840 -0.026309 0.291868
0.136059 -0.026276 0.291393
0.137270 -0.026241 0.290896
0.138714 -0.026252 0.290887
0.141056 -0.026431 0.292731
0.142856 -0.026505 0.293408
0.144393 -0.026530 0.293522
0.145580 -0.026491 0.292914
0.146715 -0.026443 0.292202
0.148831 -0.026571 0.293419
0.150184 -0.026562 0.293109
0.152074 -0.026647 0.293823
0.153223 -0.026601 0.293087
-0.154910 -0.024882 0.291867
-0.153778 -0.024921 0.292548
-0.151761 -0.024816 0.291526
-0.150586 -0.024849 0.292100
-0.149463 -0.024891 0.292771
-0.148039 -0.024883 0.292846
-0.146578 -0.024868 0.292833
-0.144940 -0.024823 0.292449
-0.142463 -0.024632 0.290333
-0.141421 -0.024688 0.291116
-0.140350 -0.024740 0.291844
-0.138922 -0.024730 0.291822
-0.137613 -0.024741 0.292043
-0.136101 -0.024715 0.291823
-0.133992 -0.024579 0.290292
-0.132841 -0.024618 0.290817
-0.139837 -0.026457 0.312661
-0.140437 -0.026852 0.317373
-0.139175 -0.026896 0.317924
-0.126732 -0.024756 0.292657
-0.124269 -0.024541 0.290127
-0.122752 -0.024509 0.289767
-0.121327 -0.024496 0.289611
-0.119992 -0.024500 0.289661
-0.118821 -0.024539 0.290110
-0.117388 -0.024524 0.289913
-0.115863 -0.024489 0.289478
-0.114518 -0.024492 0.289482
-0.113307 -0.024524 0.289823
-0.112060 -0.024548 0.290076
-0.110823 -0.024576 0.290355
-0.109626 -0.024613 0.290746
-0.107913 -0.024534 0.289756
-0.106606 -0.024547 0.289843
-0.105174 -0.024530 0.289584
-0.103874 -0.024545 0.289685
-0.102527 -0.024548 0.289651
-0.101224 -0.024563 0.289744
-0.099974 -0.024591 0.289990
-0.098537 -0.024573 0.289690
-0.096001 -0.024276 0.286107
-0.097525 -0.025013 0.294690
-0.096299 -0.025055 0.295089
-0.094909 -0.025055 0.294989
-0.093742 -0.025115 0.295590
-0.092275 -0.025096 0.295248
-0.090938 -0.025111 0.295322
-0.089797 -0.025183 0.296043
-0.088256 -0.025142 0.295449
-0.087125 -0.025219 0.296232
-0.085924 -0.025278 0.296800
-0.084415 -0.025247 0.296308
-0.083192 -0.025301 0.296823
-0.081893 -0.025334 0.297080
-0.080458 -0.025325 0.296848
-0.078927 -0.025286 0.296254
-0.077526 -0.025287 0.296136
-0.075728 -0.025157 0.294474
-0.074763 -0.025304 0.296058
-0.073470 -0.025343 0.296379
-0.070436 -0.024771 0.289561
-0.069062 -0.024773 0.289439
-0.067739 -0.024792 0.289534
-0.066384 -0.024801 0.289503
-0.065097 -0.024836 0.289774
-0.063757 -0.024852 0.289824
-0.062418 -0.024870 0.289891
-0.061039 -0.024871 0.289773
-0.059623 -0.024858 0.289481
-0.058317 -0.024890 0.289725
-0.056990 -0.024915 0.289881
-0.055522 -0.024879 0.289321
-0.054150 -0.024884 0.289254
-0.052772 -0.024888 0.289160
-0.051397 -0.024892 0.289084
-0.050004 -0.024888 0.288910
-0.047307 -0.024927 0.289098
-0.045892 -0.024912 0.288801
-0.044513 -0.024916 0.288728
-0.043172 -0.024942 0.288912
-0.041573 -0.024817 0.287342
-0.040732 -0.025151 0.291088
-0.038268 -0.024470 0.283102
-0.037182 -0.024654 0.285113
-0.035918 -0.024729 0.285870
-0.034574 -0.024752 0.286034
-0.030039 -0.022398 0.258742
-0.028730 -0.022350 0.258093
-0.027463 -0.022332 0.257796
-0.026265 -0.022371 0.258163
-0.024980 -0.022336 0.257683
-0.023781 -0.022378 0.258088
-0.022647 -0.022490 0.259297
-0.021396 -0.022492 0.259247
-0.020219 -0.022577 0.260154
-0.018948 -0.022562 0.259913
-0.018516 -0.023614 0.271962
-0.016879 -0.023172 0.266817
-0.016158 -0.024020 0.276515
-0.014827 -0.024031 0.276588
-0.012532 -0.022330 0.256952
-0.011314 -0.022381 0.257499
-0.010103 -0.022461 0.258380
-0.008835 -0.022421 0.257869
-0.007594 -0.022446 0.258122
-0.006347 -0.022462 0.258274
-0.005099 -0.022480 0.258451
-0.003851 -0.022511 0.258785
-0.002597 -0.022513 0.258791
-0.001342 -0.022519 0.258837
-0.000086 -0.022564 0.259347
0.001195 -0.023017 0.264543
0.002594 -0.024087 0.276827
0.003937 -0.024085 0.276811
0.005255 -0.023974 0.275532
0.006577 -0.023918 0.274895
0.007935 -0.023992 0.275758
0.009266 -0.023974 0.275559
0.010547 -0.023848 0.274128
0.011862 -0.023817 0.273794
0.013162 -0.023765 0.273226
0.014435 -0.023679 0.272261
0.015825 -0.023783 0.273491
0.017101 -0.023713 0.272725
0.018526 -0.023845 0.274281
0.019972 -0.023984 0.275918
0.020600 -0.023184 0.266766
0.022887 -0.024237 0.278930
0.024225 -0.024222 0.278818
0.026622 -0.023947 0.275771
0.027879 -0.023880 0.275057
0.029005 -0.023711 0.273174
0.030550 -0.023884 0.275241
0.031869 -0.023874 0.275200
0.033185 -0.023862 0.275136
0.034535 -0.023875 0.275366
0.035836 -0.023854 0.275201
0.036919 -0.023695 0.273451
0.038206 -0.023672 0.273276
0.038991 -0.023351 0.269658
0.039815 -0.023074 0.266538
0.040759 -0.022881 0.264400
0.041674 -0.022683 0.262208
0.042688 -0.022550 0.260760
0.043583 -0.022364 0.258694
0.044704 -0.022300 0.258055
0.045906 -0.022280 0.257910
0.047001 -0.022209 0.257190
0.048284 -0.022229 0.257517
0.049646 -0.022284 0.258246
0.051130 -0.022388 0.259561
0.052471 -0.022428 0.260113
0.053945 -0.022520 0.261288
0.055207 -0.022522 0.261414
0.056555 -0.022558 0.261934
0.058595 -0.022863 0.265577
0.061163 -0.023356 0.271410
0.062609 -0.023409 0.272137
0.063675 -0.023321 0.271216
0.065062 -0.023351 0.271677
0.066378 -0.023356 0.271832
0.067582 -0.023321 0.271532
0.068790 -0.023289 0.271266
0.069763 -0.023181 0.270104
0.069855 -0.022788 0.265634
0.070590 -0.022616 0.263724
0.071075 -0.022371 0.260967
0.072387 -0.022391 0.261288
0.073170 -0.022249 0.259721
0.073613 -0.022010 0.257021
0.074740 -0.021980 0.256758
0.075905 -0.021962 0.256633
0.077072 -0.021945 0.256520
0.078488 -0.021998 0.257227
0.080115 -0.022108 0.258594
0.081869 -0.022249 0.260322
0.082750 -0.022153 0.259268
0.084907 -0.022395 0.262180
0.095283 -0.024767 0.290025
0.096507 -0.024727 0.289623
0.099791 -0.025207 0.295324
0.099549 -0.024796 0.290577
0.101209 -0.024864 0.291431
0.102699 -0.024889 0.291780
0.103810 -0.024822 0.291050
0.105064 -0.024791 0.290736
0.106368 -0.024772 0.290560
0.107741 -0.024770 0.290572
0.109087 -0.024761 0.290508
0.110870 -0.024851 0.291589
0.112375 -0.024877 0.291918
0.113792 -0.024883 0.292006
0.115038 -0.024852 0.291656
0.116336 -0.024833 0.291436
0.117720 -0.024832 0.291430
0.118939 -0.024797 0.291012
0.120253 -0.024783 0.290827
0.121628 -0.024781 0.290786
0.123135 -0.024806 0.291050
0.124369 -0.024776 0.290660
0.125906 -0.024806 0.290973
0.126985 -0.024746 0.290221
0.128494 -0.024771 0.290449
0.130070 -0.024807 0.290812
0.131206 -0.024760 0.290185
0.133152 -0.024866 0.291334
0.134583 -0.024874 0.291330
0.135905 -0.024861 0.291083
0.137298 -0.024862 0.290979
0.139204 -0.024955 0.291940
0.140638 -0.024962 0.291888
0.142378 -0.025023 0.292453
0.143532 -0.024981 0.291802
0.145358 -0.025055 0.292500
0.146870 -0.025074 0.292542
0.148209 -0.025064 0.292228
0.149844 -0.025103 0.292480
0.151088 -0.025077 0.291956
0.152759 -0.025122 0.292241
-0.154681 -0.023461 0.291472
-0.153340 -0.023466 0.291749
-0.151853 -0.023448 0.291734
-0.150552 -0.023459 0.292063
-0.149432 -0.023499 0.292739
-0.148076 -0.023502 0.292944
-0.146590 -0.023485 0.292881
-0.145236 -0.023488 0.293069
-0.143720 -0.023465 0.292916
-0.141630 -0.023347 0.291567
-0.139923 -0.023291 0.290974
-0.138694 -0.023314 0.291361
-0.137639 -0.023367 0.292114
-0.135997 -0.023320 0.291612
-0.134720 -0.023336 0.291882
-0.128873 -0.022552 0.282140
-0.141033 -0.024936 0.312023
-0.139795 -0.024976 0.312576
-0.139825 -0.025246 0.315997
-0.138569 -0.025287 0.316546
-0.127103 -0.023445 0.293519
-0.123993 -0.023122 0.289486
-0.122873 -0.023167 0.290055
-0.121510 -0.023166 0.290048
-0.120329 -0.023200 0.290474
-0.119200 -0.023246 0.291033
-0.117329 -0.023146 0.289762
-0.115918 -0.023135 0.289608
-0.114485 -0.023120 0.289390
-0.113291 -0.023154 0.289773
-0.112042 -0.023176 0.290019
-0.110679 -0.023176 0.289968
-0.109387 -0.023191 0.290100
-0.108021 -0.023190 0.290034
-0.106693 -0.023197 0.290064
-0.105342 -0.023200 0.290031
-0.103936 -0.023190 0.289839
-0.102618 -0.023201 0.289892
-0.101331 -0.023218 0.290031
-0.099492 -0.023108 0.288570
-0.098273 -0.023141 0.288891
-0.095843 -0.022885 0.285613
-0.096793 -0.023441 0.292455
-0.096100 -0.023610 0.294453
-0.094872 -0.023649 0.294848
-0.093446 -0.023641 0.294630
-0.092216 -0.023682 0.295031
-0.090909 -0.023704 0.295197
-0.089435 -0.023683 0.294819
-0.088122 -0.023704 0.294966
-0.086493 -0.023640 0.294049
-0.085250 -0.023681 0.294437
-0.083969 -0.023713 0.294705
-0.082409 -0.023666 0.293990
-0.081290 -0.023746 0.294854
-0.080271 -0.023858 0.296121
-0.078678 -0.023801 0.295279
-0.077528 -0.023878 0.296100
-0.076110 -0.023874 0.295917
-0.074699 -0.023872 0.295758
-0.073407 -0.023909 0.296078
-0.070401 -0.023379 0.289369
-0.068973 -0.023361 0.289018
-0.067696 -0.023395 0.289303
-0.066373 -0.023414 0.289403
-0.065021 -0.023424 0.289388
-0.063735 -0.023458 0.289674
-0.062348 -0.023456 0.289512
-0.060971 -0.023458 0.289398
-0.059584 -0.023456 0.289233
-0.058267 -0.023482 0.289421
-0.056898 -0.023488 0.289357
-0.055482 -0.023475 0.289057
-0.054192 -0.023515 0.289419
-0.052818 -0.023520 0.289347
-0.051388 -0.023500 0.288972
-0.048670 -0.023525 0.289022
-0.047267 -0.023517 0.288791
-0.045831 -0.023491 0.288353
-0.044541 -0.023541 0.288842
-0.043127 -0.023527 0.288542
-0.041709 -0.023509 0.288210
-0.040758 -0.023763 0.291201
-0.038383 -0.023175 0.283883
-0.037097 -0.023225 0.284391
-0.035901 -0.023338 0.285656
-0.034557 -0.023360 0.285820
-0.030116 -0.021203 0.259335
-0.028720 -0.021096 0.257936
-0.027371 -0.021015 0.256863
-0.026050 -0.020950 0.255979
-0.024949 -0.021064 0.257292
-0.023693 -0.021052 0.257061
-0.022527 -0.021123 0.257851
-0.021385 -0.021226 0.259035
-0.020169 -0.021265 0.259443
-0.019627 -0.022066 0.269139
-0.018569 -0.022359 0.272651
-0.016853 -0.021845 0.266320
-0.015890 -0.022303 0.271839
-0.014580 -0.022313 0.271911
-0.012607 -0.021208 0.258392
-0.011342 -0.021185 0.258061
-0.010094 -0.021190 0.258077
-0.008860 -0.021228 0.258510
-0.007600 -0.021209 0.258235
-0.006348 -0.021209 0.258209
-0.005104 -0.021245 0.258616
-0.003853 -0.021259 0.258758
-0.002603 -0.021300 0.259243
-0.001346 -0.021321 0.259473
-0.000088 -0.021372 0.260078
0.001190 -0.021666 0.263656
0.002513 -0.022047 0.268274
0.003938 -0.022758 0.276924
0.018537 -0.022530 0.274391
0.019984 -0.022661 0.276029
0.020816 -0.022122 0.269510
0.022550 -0.022549 0.274763
0.023868 -0.022535 0.274652
0.025183 -0.022521 0.274536
0.024782 -0.021050 0.256658
0.025945 -0.020985 0.255925
0.027256 -0.021039 0.256649
0.028482 -0.021026 0.256557
0.029674 -0.020991 0.256195
0.030928 -0.021000 0.256373
0.032256 -0.021056 0.257137
0.033548 -0.021087 0.257586
0.034892 -0.021146 0.258386
0.036189 -0.021173 0.258805
0.037693 -0.021316 0.260634
0.039393 -0.021557 0.263664
0.040487 -0.021461 0.262582
0.041703 -0.021434 0.262345
0.042943 -0.021421 0.262269
0.043979 -0.021309 0.260998
0.045078 -0.021234 0.260169
0.046322 -0.021229 0.260200
0.047408 -0.021153 0.259370
0.048787 -0.021209 0.260153
0.050024 -0.021202 0.260167
0.051455 -0.021275 0.261170
0.052763 -0.021296 0.261521
0.054229 -0.021377 0.262624
0.055420 -0.021349 0.262383
0.056559 -0.021303 0.261914
0.059053 -0.021758 0.267613
0.061338 -0.022117 0.272148
0.062598 -0.022101 0.272047
0.063719 -0.022036 0.271365
0.065046 -0.022045 0.271573
0.066320 -0.022035 0.271557
0.067637 -0.022039 0.271719
0.068769 -0.021985 0.271150
0.069752 -0.021885 0.270029
0.070000 -0.021563 0.266153
0.070743 -0.021402 0.264264
0.071867 -0.021360 0.263845
0.072637 -0.021216 0.262162
0.072959 -0.020948 0.258945
0.073353 -0.020710 0.256088
0.074577 -0.020710 0.256173
0.075700 -0.020682 0.255916
0.076844 -0.020661 0.255739
0.078333 -0.020731 0.256698
0.079807 -0.020796 0.257578
0.081705 -0.020967 0.259781
0.082641 -0.020891 0.258905
0.084534 -0.021054 0.261008
0.087120 -0.021384 0.265161
0.097130 -0.023500 0.291474
0.099564 -0.023749 0.294635
0.099659 -0.023441 0.290881
0.100877 -0.023402 0.290461
0.102318 -0.023415 0.290684
0.103831 -0.023444 0.291098
0.104885 -0.023370 0.290229
0.106152 -0.023344 0.289961
0.107782 -0.023399 0.290675
0.109589 -0.023489 0.291837
0.111102 -0.023516 0.292193
0.112427 -0.023502 0.292048
0.113767 -0.023492 0.291939
0.115177 -0.023496 0.292007
0.116304 -0.023443 0.291357
0.117711 -0.023447 0.291409
0.119177 -0.023463 0.291597
0.119929 -0.023339 0.290047
0.121403 -0.023357 0.290253
0.123105 -0.023418 0.290983
0.124444 -0.023410 0.290842
0.125568 -0.023361 0.290200
0.126961 -0.023363 0.290178
0.128303 -0.023356 0.290030
0.129542 -0.023331 0.289645
0.130942 -0.023334 0.289616
0.132826 -0.023423 0.290636
0.134578 -0.023487 0.291337
0.135641 -0.023431 0.290535
0.137180 -0.023457 0.290750
0.138622 -0.023467 0.290742
0.140818 -0.023602 0.292286
0.141915 -0.023553 0.291528
0.143983 -0.023664 0.292746
0.145585 -0.023697 0.292986
0.147047 -0.023706 0.292926
0.148342 -0.023689 0.292524
0.149541 -0.023658 0.291924
0.150976 -0.023663 0.291776
0.152460 -0.023676 0.291707
-0.154552 -0.022059 0.291262
-0.153109 -0.022048 0.291339
-0.151637 -0.022034 0.291347
-0.150566 -0.022078 0.292117
-0.149196 -0.022078 0.292303
-0.147830 -0.022079 0.292483
-0.146346 -0.022063 0.292417
-0.145048 -0.022074 0.292712
-0.143447 -0.022039 0.292380
-0.142157 -0.022052 0.292671
-0.140488 -0.022005 0.292165
-0.139117 -0.022005 0.292265
-0.138074 -0.022058 0.293052
-0.132717 -0.021415 0.284592
-0.131852 -0.021491 0.285680
-0.128650 -0.021184 0.281662
-0.140752 -0.023418 0.311412
-0.139518 -0.023455 0.311964
-0.139529 -0.023706 0.315335
-0.138277 -0.023744 0.315883
-0.126376 -0.021936 0.291842
-0.124352 -0.021820 0.290326
-0.122795 -0.021786 0.289871
-0.121209 -0.021745 0.289328
-0.120247 -0.021816 0.290274
-0.118930 -0.021824 0.290369
-0.117305 -0.021775 0.289700
-0.115857 -0.021759 0.289452
-0.114537 -0.021766 0.289517
-0.113246 -0.021778 0.289651
-0.111908 -0.021783 0.289665
-0.110646 -0.021802 0.289873
-0.109345 -0.021814 0.289976
-0.108014 -0.021820 0.290001
-0.106690 -0.021828 0.290043
-0.105272 -0.021816 0.289822
-0.103911 -0.021817 0.289756
-0.102736 -0.021856 0.290208
-0.101332 -0.021848 0.290015
-0.099703 -0.021790 0.289162
-0.097987 -0.021712 0.288032
-0.095472 -0.021451 0.284485
-0.096413 -0.021971 0.291282
-0.096094 -0.022215 0.294411
-0.094867 -0.022252 0.294806
-0.093887 -0.022350 0.295991
-0.092180 -0.022275 0.294890
-0.091016 -0.022331 0.295517
-0.089710 -0.022353 0.295696
-0.088043 -0.022285 0.294671
-0.086614 -0.022276 0.294428
-0.085074 -0.022237 0.293796
-0.083647 -0.022227 0.293540
-0.082134 -0.022194 0.292974
-0.080739 -0.022192 0.292819
-0.079697 -0.022289 0.293964
-0.078458 -0.022333 0.294413
-0.077049 -0.022330 0.294233
-0.075710 -0.022346 0.294319
-0.074682 -0.022458 0.295648
-0.073391 -0.022493 0.295969
-0.070620 -0.022067 0.290225
-0.069030 -0.022000 0.289212
-0.067598 -0.021982 0.288838
-0.066331 -0.022018 0.289172
-0.065027 -0.022043 0.289363
-0.063575 -0.022018 0.288899
-0.062317 -0.022060 0.289318
-0.060939 -0.022061 0.289193
-0.059394 -0.022001 0.288261
-0.058217 -0.022076 0.289118
-0.056870 -0.022090 0.289161
-0.055475 -0.022085 0.288964
-0.054155 -0.022111 0.289163
-0.052800 -0.022124 0.289196
-0.051428 -0.022129 0.289135
-0.050020 -0.022119 0.288876
-0.048649 -0.022126 0.288832
-0.047299 -0.022143 0.288926
-0.045908 -0.022141 0.288773
-0.044585 -0.022172 0.289063
-0.043205 -0.022177 0.289006
-0.041673 -0.022101 0.287896
-0.040677 -0.022315 0.290558
-0.038194 -0.021698 0.282419
-0.037036 -0.021817 0.283851
-0.035885 -0.021949 0.285464
-0.034542 -0.021970 0.285628
-0.029959 -0.019846 0.257921
-0.028639 -0.019793 0.257142
-0.027375 -0.019777 0.256843
-0.026115 -0.019761 0.256551
-0.024956 -0.019824 0.257288
-0.023714 -0.019825 0.257221
-0.022540 -0.019887 0.257938
-0.021357 -0.019946 0.258637
-0.020325 -0.020163 0.261372
-0.019322 -0.020440 0.264891
-0.018608 -0.021082 0.273153
-0.016814 -0.020507 0.265639
-0.016005 -0.021137 0.273729
-0.014686 -0.021147 0.273802
-0.012639 -0.020006 0.258985
-0.011358 -0.019960 0.258333
-0.010125 -0.019996 0.258763
-0.008889 -0.020038 0.259259
-0.007628 -0.020029 0.259111
-0.006375 -0.020038 0.259190
-0.005124 -0.020063 0.259494
-0.003868 -0.020079 0.259670
-0.002617 -0.020149 0.260551
-0.001358 -0.020225 0.261525
-0.000089 -0.020258 0.261933
0.001193 -0.020441 0.264288
0.002479 -0.020468 0.264631
0.003746 -0.020372 0.263389
0.017754 -0.020305 0.262745
0.019221 -0.020509 0.265435
0.020679 -0.020680 0.267694
0.022385 -0.021063 0.272699
0.023693 -0.021050 0.272590
0.024430 -0.020558 0.266276
0.024641 -0.019695 0.255147
0.025873 -0.019691 0.255164
0.027127 -0.019704 0.255384
0.028343 -0.019689 0.255256
0.029602 -0.019704 0.255522
0.030836 -0.019702 0.255562
0.032103 -0.019720 0.255876
0.033482 -0.019803 0.257026
0.034713 -0.019795 0.257010
0.035985 -0.019811 0.257294
0.037597 -0.020007 0.259921
0.039933 -0.020563 0.267232
0.040776 -0.020339 0.264414
0.041996 -0.020311 0.264139
0.043170 -0.020263 0.263610
0.044541 -0.020308 0.264292
0.045702 -0.020257 0.263721
0.046929 -0.020237 0.263567
0.048284 -0.020272 0.264120
0.049555 -0.020271 0.264207
0.050988 -0.020335 0.265141
0.052326 -0.020358 0.265548
0.053891 -0.020467 0.267066
0.055384 -0.020544 0.268175
0.056557 -0.020501 0.267725
0.057742 -0.020465 0.267354
0.059654 -0.020682 0.270298
0.061404 -0.020834 0.272402
0.062546 -0.020779 0.271786
0.063700 -0.020729 0.271246
0.065048 -0.020744 0.271543
0.066321 -0.020734 0.271526
0.067559 -0.020715 0.271373
0.068711 -0.020670 0.270888
0.069832 -0.020617 0.270306
0.070328 -0.020385 0.267370
0.070831 -0.020164 0.264563
0.071872 -0.020101 0.263834
0.072896 -0.020035 0.263067
0.072922 -0.019702 0.258787
0.073459 -0.019516 0.256433
0.074712 -0.019523 0.256614
0.075757 -0.019476 0.256089
0.076814 -0.019434 0.255619
0.078014 -0.019428 0.255630
0.079256 -0.019434 0.255781
0.080407 -0.019417 0.255634
0.081704 -0.019435 0.255951
0.083195 -0.019498 0.256858
0.084938 -0.019618 0.258504
0.098592 -0.022446 0.295843
0.099837 -0.022409 0.295428
0.099896 -0.022110 0.291558
0.101466 -0.022149 0.292144
0.102600 -0.022094 0.291473
0.103862 -0.022067 0.291173
0.105238 -0.022065 0.291194
0.106436 -0.022026 0.290727
0.108015 -0.022066 0.291295
0.109561 -0.022098 0.291754
0.111192 -0.022146 0.292425
0.112443 -0.022118 0.292086
0.113869 -0.022125 0.292197
0.115234 -0.022121 0.292149
0.116430 -0.022084 0.291670
0.118032 -0.022124 0.292202
0.119252 -0.022092 0.291782
0.120532 -0.022073 0.291508
0.121824 -0.022055 0.291263
0.123038 -0.022025 0.290831
0.124216 -0.021988 0.290317
0.125525 -0.021976 0.290108
0.126956 -0.021984 0.290174
0.128363 -0.021989 0.290177
0.129687 -0.021979 0.289983
0.131424 -0.022039 0.290697
0.133199 -0.022103 0.291468
0.134508 -0.022090 0.291203
0.135825 -0.022079 0.290950
0.137158 -0.022070 0.290722
0.138458 -0.022056 0.290419
0.139809 -0.022051 0.290215
0.142105 -0.022193 0.291942
0.142838 -0.022091 0.290442
0.145841 -0.022338 0.293529
0.147129 -0.022321 0.293119
0.148249 -0.022278 0.292372
0.149896 -0.022315 0.292650
0.151349 -0.022323 0.292532
0.152547 -0.022293 0.291909
-0.154334 -0.020647 0.290880
-0.153107 -0.020666 0.291364
-0.151577 -0.020645 0.291259
-0.150357 -0.020665 0.291738
-0.149163 -0.020690 0.292262
-0.147756 -0.020685 0.292359
-0.146350 -0.020680 0.292446
-0.144999 -0.020683 0.292632
-0.143355 -0.020644 0.292212
-0.141673 -0.020599 0.291691
-0.140333 -0.020603 0.291859
-0.139257 -0.020646 0.292573
-0.137790 -0.020632 0.292462
-0.134438 -0.020333 0.288294
-0.131444 -0.020082 0.284806
-0.128690 -0.019863 0.281760
-0.140702 -0.021942 0.311310
-0.139469 -0.021977 0.311862
-0.139004 -0.022136 0.314155
-0.137757 -0.022172 0.314701
-0.126917 -0.020648 0.293095
-0.123870 -0.020373 0.289203
-0.122786 -0.020418 0.289849
-0.121461 -0.020424 0.289930
-0.120150 -0.020432 0.290038
-0.119009 -0.020469 0.290559
-0.117634 -0.020467 0.290508
-0.116087 -0.020434 0.290021
-0.114431 -0.020382 0.289243
-0.113109 -0.020388 0.289292
-0.111819 -0.020400 0.289424
-0.110493 -0.020406 0.289462
-0.109127 -0.020405 0.289388
-0.107828 -0.020416 0.289492
-0.106470 -0.020416 0.289432
-0.105229 -0.020440 0.289692
-0.103990 -0.020464 0.289958
-0.102592 -0.020457 0.289783
-0.101129 -0.020436 0.289415
-0.099336 -0.020348 0.288080
-0.097820 -0.020315 0.287521
-0.095165 -0.020041 0.283549
-0.097567 -0.020839 0.294749
-0.096342 -0.020875 0.295149
-0.094768 -0.020834 0.294474
-0.093511 -0.020864 0.294781
-0.092437 -0.020936 0.295683
-0.090894 -0.020902 0.295093
-0.089535 -0.020910 0.295087
-0.088069 -0.020893 0.294729
-0.086520 -0.020856 0.294077
-0.085115 -0.020852 0.293905
-0.083570 -0.020814 0.293239
-0.082085 -0.020789 0.292765
-0.080760 -0.020805 0.292859
-0.079488 -0.020836 0.293158
-0.078288 -0.020886 0.293739
-0.076979 -0.020910 0.293928
-0.075497 -0.020886 0.293454
-0.074338 -0.020952 0.294247
-0.073053 -0.020984 0.294567
-0.070256 -0.020575 0.288688
-0.068925 -0.020588 0.288728
-0.067527 -0.020581 0.288490
-0.066099 -0.020564 0.288120
-0.064888 -0.020615 0.288700
-0.063540 -0.020625 0.288690
-0.062170 -0.020627 0.288589
-0.060794 -0.020628 0.288458
-0.059458 -0.020642 0.288524
-0.058170 -0.020674 0.288833
-0.056833 -0.020690 0.288922
-0.055461 -0.020694 0.288840
-0.054148 -0.020721 0.289075
-0.052793 -0.020732 0.289101
-0.051395 -0.020727 0.288898
-0.050050 -0.020744 0.288996
-0.048647 -0.020736 0.288766
-0.047295 -0.020751 0.288841
-0.045973 -0.020780 0.289125
-0.044457 -0.020721 0.288174
-0.043064 -0.020717 0.288001
-0.041586 -0.020671 0.287234
-0.040824 -0.020990 0.291544
-0.037735 -0.020092 0.278965
-0.036804 -0.020319 0.282010
-0.035884 -0.020571 0.285392
-0.034541 -0.020591 0.285556
-0.029720 -0.018452 0.255808
-0.028606 -0.018530 0.256789
-0.027199 -0.018416 0.255123
-0.025948 -0.018402 0.254848
-0.024811 -0.018472 0.255739
-0.023563 -0.018463 0.255523
-0.022467 -0.018577 0.257035
-0.021225 -0.018578 0.256971
-0.020117 -0.018703 0.258632
-0.020130 -0.019956 0.275887
-0.018806 -0.019968 0.275979
-0.017479 -0.019979 0.276066
-0.015974 -0.019770 0.273120
-0.014658 -0.019780 0.273193
-0.012748 -0.018911 0.261140
-0.011379 -0.018741 0.258739
-0.010118 -0.018728 0.258519
-0.008870 -0.018739 0.258634
-0.007634 -0.018785 0.259224
-0.006377 -0.018783 0.259177
-0.005125 -0.018805 0.259448
-0.003872 -0.018836 0.259842
-0.002624 -0.018925 0.261057
-0.001365 -0.019039 0.262613
-0.000091 -0.019154 0.264181
0.001197 -0.019247 0.265449
0.002500 -0.019353 0.266913
0.003895 -0.019862 0.273926
0.018155 -0.019461 0.268632
0.019449 -0.019452 0.268542
0.020675 -0.019379 0.267591
0.022575 -0.019910 0.274976
0.023895 -0.019898 0.274865
0.025212 -0.019886 0.274748
0.024644 -0.018462 0.255137
0.025863 -0.018449 0.255019
0.027128 -0.018469 0.255356
0.028331 -0.018446 0.255107
0.029582 -0.018456 0.255308
0.030844 -0.018471 0.255585
0.032084 -0.018472 0.255676
0.033427 -0.018530 0.256564
0.034684 -0.018538 0.256751
0.035992 -0.018572 0.257302
0.037477 -0.018692 0.259047
0.039954 -0.019283 0.267324
0.041350 -0.019332 0.268093
0.042611 -0.019316 0.267967
0.043747 -0.019246 0.267092
0.045060 -0.019256 0.267325
0.046341 -0.019252 0.267368
0.047542 -0.019216 0.266969
0.048897 -0.019242 0.267431
0.050274 -0.019275 0.268000
0.051531 -0.019262 0.267920
0.052690 -0.019214 0.267355
0.053843 -0.019166 0.266792
0.055360 -0.019247 0.268022
0.056410 -0.019165 0.266992
0.057177 -0.018993 0.264700
0.059406 -0.019304 0.269138
0.061024 -0.019407 0.270683
0.062317 -0.019404 0.270756
0.063603 -0.019400 0.270799
0.064937 -0.019410 0.271050
0.066170 -0.019390 0.270878
0.067411 -0.019373 0.270746
0.068638 -0.019353 0.270570
0.069657 -0.019276 0.269598
0.069971 -0.019010 0.265985
0.071001 -0.018945 0.265174
0.072110 -0.018902 0.264682
0.072600 -0.018702 0.261973
0.072984 -0.018482 0.258985
0.073752 -0.018364 0.257431
0.074739 -0.018305 0.256683
0.075824 -0.018270 0.256291
0.077032 -0.018267 0.256323
0.078201 -0.018254 0.256225
0.079479 -0.018266 0.256480
0.080857 -0.018301 0.257049
0.081856 -0.018250 0.256412
0.083281 -0.018294 0.257107
0.085162 -0.018436 0.259169
0.097906 -0.020891 0.293767
0.099142 -0.020857 0.293354
0.099841 -0.020712 0.291384
0.100984 -0.020662 0.290741
0.102518 -0.020692 0.291227
0.103878 -0.020686 0.291207
0.105405 -0.020714 0.291647
0.106583 -0.020673 0.291120
0.107913 -0.020662 0.291011
0.109321 -0.020667 0.291109
0.111325 -0.020782 0.292770
0.112276 -0.020701 0.291646
0.113683 -0.020704 0.291719
0.115294 -0.020744 0.292298
0.116380 -0.020690 0.291545
0.117818 -0.020699 0.291674
0.119137 -0.020687 0.291503
0.120369 -0.020661 0.291117
0.121765 -0.020663 0.291125
0.122813 -0.020606 0.290304
0.124308 -0.020625 0.290538
0.125647 -0.020618 0.290398
0.127116 -0.020632 0.290548
0.128827 -0.020685 0.291235
0.130176 -0.020679 0.291088
0.131464 -0.020663 0.290798
0.133193 -0.020717 0.291468
0.134678 -0.020732 0.291585
0.135851 -0.020699 0.291021
0.137477 -0.020735 0.291417
0.138901 -0.020740 0.291368
0.140500 -0.020771 0.291670
0.141780 -0.020755 0.291297
0.143915 -0.020862 0.292658
0.145281 -0.020858 0.292427
0.146704 -0.020861 0.292299
0.148245 -0.020882 0.292392
0.149420 -0.020850 0.291750
0.150901 -0.020862 0.291697
0.152459 -0.020884 0.291775
-0.154024 -0.019228 0.290324
-0.152526 -0.019211 0.290287
-0.151197 -0.019216 0.290556
-0.150117 -0.019252 0.291297
-0.148859 -0.019267 0.291690
-0.147565 -0.019277 0.292003
-0.146064 -0.019259 0.291895
-0.144749 -0.019267 0.292146
-0.143361 -0.019264 0.292241
-0.141837 -0.019244 0.292046
-0.140310 -0.019222 0.291826
-0.138923 -0.019219 0.291886
-0.137217 -0.019172 0.291258
-0.135944 -0.019185 0.291534
-0.131685 -0.018773 0.285337
-0.129052 -0.018586 0.282561
-0.140484 -0.020442 0.310834
-0.139252 -0.020475 0.311385
-0.139081 -0.020666 0.314335
-0.137834 -0.020700 0.314881
-0.128335 -0.019482 0.296374
-0.124322 -0.019079 0.290259
-0.122441 -0.018998 0.289037
-0.121068 -0.018995 0.288991
-0.120172 -0.019068 0.290091
-0.118764 -0.019060 0.289960
-0.117442 -0.019066 0.290030
-0.116176 -0.019082 0.290238
-0.114569 -0.019041 0.289585
-0.113106 -0.019023 0.289280
-0.111765 -0.019026 0.289277
-0.110419 -0.019028 0.289258
-0.109065 -0.019029 0.289215
-0.107737 -0.019034 0.289236
-0.106460 -0.019048 0.289391
-0.105166 -0.019060 0.289503
-0.103887 -0.019075 0.289658
-0.102474 -0.019066 0.289435
-0.101211 -0.019084 0.289633
-0.099763 -0.019068 0.289302
-0.098372 -0.019062 0.289123
-0.095243 -0.018715 0.283765
-0.096715 -0.019275 0.292153
-0.096756 -0.019561 0.296393
-0.095521 -0.019595 0.296791
-0.094180 -0.019607 0.296867
-0.092883 -0.019629 0.297085
-0.091453 -0.019623 0.296881
-0.089862 -0.019582 0.296138
-0.088420 -0.019572 0.295874
-0.086582 -0.019474 0.294260
-0.084896 -0.019406 0.293119
-0.083542 -0.019414 0.293109
-0.081911 -0.019357 0.292114
-0.080474 -0.019344 0.291789
-0.079345 -0.019406 0.292597
-0.078119 -0.019446 0.293070
-0.076797 -0.019464 0.293197
-0.075532 -0.019496 0.293554
-0.074412 -0.019568 0.294500
-0.073311 -0.019649 0.295566
-0.070746 -0.019332 0.290661
-0.068997 -0.019230 0.288989
-0.067319 -0.019144 0.287563
-0.066060 -0.019176 0.287905
-0.064559 -0.019138 0.287193
-0.063366 -0.019191 0.287860
-0.062056 -0.019211 0.288015
-0.060675 -0.019209 0.287845
-0.059437 -0.019253 0.288374
-0.058142 -0.019281 0.288651
-0.056793 -0.019291 0.288671
-0.055493 -0.019320 0.288959
-0.054174 -0.019342 0.289164
-0.052848 -0.019364 0.289354
-0.051475 -0.019369 0.289295
-0.050087 -0.019369 0.289156
-0.048725 -0.019379 0.289177
-0.047375 -0.019394 0.289278
-0.045957 -0.019382 0.288971
-0.044615 -0.019402 0.289142
-0.043265 -0.019420 0.289289
-0.041752 -0.019364 0.288327
-0.040547 -0.019451 0.289504
-0.037702 -0.018730 0.278663
-0.036675 -0.018892 0.280963
-0.035719 -0.019105 0.284017
-0.015983 -0.018457 0.273211
-0.014629 -0.018418 0.272586
-0.012882 -0.017829 0.263813
-0.011502 -0.017674 0.261463
-0.010186 -0.017589 0.260172
-0.008944 -0.017629 0.260717
-0.007663 -0.017590 0.260103
-0.006404 -0.017599 0.260206
-0.005141 -0.017598 0.260162
-0.003893 -0.017662 0.261085
-0.002632 -0.017704 0.261679
-0.001371 -0.017836 0.263606
-0.000092 -0.017954 0.265341
0.001198 -0.017985 0.265788
0.002502 -0.018080 0.267193
0.003897 -0.018542 0.274019
0.005325 -0.018890 0.279151
0.006708 -0.018965 0.280266
0.008068 -0.018961 0.280231
0.018280 -0.018284 0.270441
0.019583 -0.018275 0.270351
0.020403 -0.017845 0.264032
0.022387 -0.018423 0.272639
0.023696 -0.018412 0.272529
0.023818 -0.017529 0.259509
0.024770 -0.017315 0.256399
0.025928 -0.017258 0.255614
0.027187 -0.017270 0.255861
0.028397 -0.017252 0.255662
0.029635 -0.017251 0.255718
0.030892 -0.017261 0.255939
0.032132 -0.017261 0.256015
0.033332 -0.017241 0.255788
0.034575 -0.017243 0.255904
0.035867 -0.017269 0.256368
0.037336 -0.017375 0.258032
0.039973 -0.018001 0.267410
0.041370 -0.018046 0.268179
0.042891 -0.018141 0.269684
0.044145 -0.018121 0.269483
0.045598 -0.018181 0.270474
0.046986 -0.018213 0.271049
0.048340 -0.018230 0.271407
0.049540 -0.018190 0.270909
0.051051 -0.018263 0.272103
0.052360 -0.018262 0.272193
0.053576 -0.018229 0.271812
0.055076 -0.018293 0.272864
0.056501 -0.018329 0.273510
0.057740 -0.018304 0.273253
0.058242 -0.018052 0.269595
0.059759 -0.018119 0.270703
0.061101 -0.018131 0.270991
0.062353 -0.018116 0.270880
0.063586 -0.018097 0.270695
0.064858 -0.018089 0.270686
0.066149 -0.018086 0.270759
0.067311 -0.018050 0.270317
0.068573 -0.018040 0.270287
0.069771 -0.018015 0.270013
0.070622 -0.017903 0.268433
0.071301 -0.017752 0.266268
0.072422 -0.017714 0.265800
0.073217 -0.017599 0.264176
0.073578 -0.017385 0.261068
0.074079 -0.017212 0.258553
0.075001 -0.017140 0.257563
0.076082 -0.017106 0.257144
0.077058 -0.017050 0.256388
0.078119 -0.017014 0.255935
0.079401 -0.017027 0.256213
0.080900 -0.017085 0.257169
0.082129 -0.017086 0.257251
0.083688 -0.017154 0.258347
0.086024 -0.017377 0.261779
0.098478 -0.019608 0.295468
0.099721 -0.019575 0.295053
0.099827 -0.019323 0.291329
0.101018 -0.019286 0.290829
0.102414 -0.019288 0.290920
0.103814 -0.019291 0.291019
0.105330 -0.019314 0.291431
0.106208 -0.019222 0.290088
0.107794 -0.019259 0.290684
0.109294 -0.019279 0.291031
0.109823 -0.019130 0.288814
0.112225 -0.019307 0.291511
0.113535 -0.019294 0.291336
0.115064 -0.019318 0.291713
0.116370 -0.019304 0.291518
0.117726 -0.019299 0.291446
0.119123 -0.019301 0.291468
0.120423 -0.019287 0.291249
0.121659 -0.019264 0.290877
0.122945 -0.019248 0.290622
0.124184 -0.019226 0.290254
0.125583 -0.019229 0.290257
0.127365 -0.019290 0.291125
0.128079 -0.019189 0.289554
0.130061 -0.019279 0.290840
0.131583 -0.019299 0.291072
0.132766 -0.019269 0.290546
0.134313 -0.019293 0.290809
0.136052 -0.019343 0.291468
0.137304 -0.019324 0.291067
0.138642 -0.019317 0.290843
0.140209 -0.019342 0.291085
0.141815 -0.019371 0.291391
0.143884 -0.019463 0.292617
0.145350 -0.019472 0.292590
0.146648 -0.019459 0.292214
0.148267 -0.019488 0.292461
0.149450 -0.019460 0.291837
0.150870 -0.019463 0.291667
0.152499 -0.019493 0.291882
-0.153992 -0.017846 0.290290
-0.152629 -0.017847 0.290507
-0.151236 -0.017843 0.290654
-0.150183 -0.017881 0.291447
-0.148936 -0.017895 0.291861
-0.147507 -0.017888 0.291909
-0.146113 -0.017885 0.292011
-0.144801 -0.017892 0.292268
-0.143386 -0.017887 0.292309
-0.141879 -0.017870 0.292146
-0.140101 -0.017818 0.291405
-0.138869 -0.017835 0.291785
-0.137326 -0.017812 0.291501
-0.136190 -0.017842 0.292072
-0.132831 -0.017579 0.287830
-0.128684 -0.017204 0.281763
-0.140389 -0.018964 0.310632
-0.139159 -0.018995 0.311183
-0.138429 -0.019095 0.312865
-0.137188 -0.019126 0.313409
-0.127251 -0.017933 0.293873
-0.124049 -0.017673 0.289625
-0.122541 -0.017651 0.289272
-0.121263 -0.017662 0.289457
-0.120049 -0.017683 0.289792
-0.118819 -0.017702 0.290091
-0.117510 -0.017710 0.290195
-0.116148 -0.017709 0.290164
-0.114692 -0.017695 0.289890
-0.113069 -0.017653 0.289178
-0.111747 -0.017659 0.289223
-0.110380 -0.017657 0.289148
-0.109114 -0.017672 0.289335
-0.108022 -0.017716 0.289990
-0.106446 -0.017680 0.289344
-0.105199 -0.017699 0.289583
-0.103833 -0.017698 0.289494
-0.102378 -0.017682 0.289151
-0.101171 -0.017709 0.289506
-0.099710 -0.017691 0.289132
-0.098219 -0.017668 0.288658
-0.095990 -0.017509 0.285972
-0.096825 -0.017913 0.292466
-0.096532 -0.018116 0.295687
-0.095300 -0.018147 0.296084
-0.094207 -0.018206 0.296930
-0.093090 -0.018261 0.297723
-0.091424 -0.018210 0.296763
-0.090047 -0.018214 0.296724
-0.088557 -0.018196 0.296308
-0.086776 -0.018117 0.294891
-0.084998 -0.018036 0.293445
-0.083394 -0.017989 0.292562
-0.081980 -0.017983 0.292330
-0.080418 -0.017944 0.291556
-0.079163 -0.017973 0.291895
-0.077971 -0.018017 0.292480
-0.076707 -0.018046 0.292818
-0.075357 -0.018056 0.292839
-0.074243 -0.018123 0.293798
-0.073340 -0.018246 0.295649
-0.070413 -0.017860 0.289260
-0.069018 -0.017855 0.289041
-0.067513 -0.017821 0.288352
-0.066158 -0.017826 0.288296
-0.064952 -0.017873 0.288902
-0.063529 -0.017860 0.288558
-0.062244 -0.017886 0.288846
-0.060912 -0.017900 0.288928
-0.059600 -0.017921 0.289120
-0.058251 -0.017931 0.289148
-0.056881 -0.017935 0.289075
-0.055571 -0.017958 0.289318
-0.054212 -0.017967 0.289320
-0.052876 -0.017984 0.289459
-0.051499 -0.017987 0.289380
-0.050130 -0.017994 0.289356
-0.048690 -0.017975 0.288918
-0.047346 -0.017991 0.289050
-0.045943 -0.017986 0.288828
-0.044613 -0.018009 0.289079
-0.043219 -0.018007 0.288927
-0.041826 -0.018006 0.288779
-0.040681 -0.018115 0.290407
-0.037638 -0.017356 0.278136
-0.036526 -0.017465 0.279773
-0.035736 -0.017742 0.284103
-0.018240 -0.016772 0.267545
-0.016953 -0.016782 0.267629
-0.015963 -0.017110 0.272797
-0.014707 -0.017187 0.273966
-0.012901 -0.016573 0.264132
-0.011547 -0.016468 0.262410
-0.010198 -0.016345 0.260411
-0.008976 -0.016421 0.261570
-0.007688 -0.016379 0.260873
-0.006430 -0.016401 0.261179
-0.005184 -0.016469 0.262239
-0.003939 -0.016589 0.264117
-0.002669 -0.016660 0.265233
-0.001387 -0.016733 0.266382
-0.000094 -0.016863 0.268428
0.001207 -0.016830 0.267892
0.002505 -0.016807 0.267525
0.003898 -0.017221 0.274105
0.005327 -0.017543 0.279239
0.006184 -0.016232 0.258379
0.007378 -0.016099 0.256263
0.008627 -0.016105 0.256382
0.009873 -0.016107 0.256425
0.011136 -0.016132 0.256842
0.012417 -0.016176 0.257572
0.013704 -0.016218 0.258264
0.014996 -0.016259 0.258948
0.016307 -0.016313 0.259846
0.017624 -0.016364 0.260691
0.018933 -0.016401 0.261338
0.020349 -0.016521 0.263292
0.023707 -0.017099 0.272613
0.024099 -0.016463 0.262529
0.024724 -0.016043 0.255880
0.026002 -0.016066 0.256307
0.027265 -0.016077 0.256559
0.028487 -0.016065 0.256427
0.029720 -0.016060 0.256415
0.030972 -0.016065 0.256566
0.032278 -0.016096 0.257139
0.033557 -0.016112 0.257475
0.034845 -0.016131 0.257863
0.036203 -0.016180 0.258733
0.037692 -0.016283 0.260451
0.039140 -0.016361 0.261797
0.040271 -0.016307 0.261014
0.041603 -0.016334 0.261549
0.042932 -0.016359 0.262037
0.044189 -0.016356 0.262081
0.047007 -0.016914 0.271130
0.048361 -0.016930 0.271487
0.049561 -0.016892 0.270989
0.051073 -0.016960 0.272183
0.052382 -0.016959 0.272273
0.055990 -0.016476 0.264938
0.057906 -0.016661 0.268012
0.059627 -0.016782 0.270073
0.061067 -0.016821 0.270806
0.062306 -0.016804 0.270645
0.063590 -0.016800 0.270683
0.064873 -0.016795 0.270720
0.066080 -0.016772 0.270451
0.067313 -0.016755 0.270295
0.068459 -0.016719 0.269808
0.069768 -0.016722 0.269974
0.071019 -0.016712 0.269916
0.071688 -0.016568 0.267689
0.072392 -0.016437 0.265668
0.073512 -0.016402 0.265217
0.074113 -0.016256 0.262943
0.074618 -0.016093 0.260410
0.075518 -0.016020 0.259318
0.076390 -0.015943 0.258166
0.077342 -0.015886 0.257317
0.078470 -0.015865 0.257070
0.079621 -0.015850 0.256904
0.080894 -0.015859 0.257132
0.081991 -0.015834 0.256802
0.083087 -0.015809 0.256478
0.085108 -0.015959 0.258978
0.098223 -0.018154 0.294689
0.099463 -0.018124 0.294275
0.099948 -0.017960 0.291671
0.101371 -0.017965 0.291831
0.102752 -0.017964 0.291869
0.104047 -0.017947 0.291661
0.105257 -0.017917 0.291220
0.106527 -0.017898 0.290951
0.107804 -0.017880 0.290703
0.109269 -0.017893 0.290959
0.111139 -0.017971 0.292270
0.111496 -0.017806 0.289613
0.113570 -0.017916 0.291421
0.114940 -0.017914 0.291396
0.116194 -0.017893 0.291075
0.117821 -0.017930 0.291681
0.119500 -0.017974 0.292391
0.120716 -0.017948 0.291960
0.122027 -0.017937 0.291758
0.123222 -0.017909 0.291280
0.124470 -0.017889 0.290928
0.125734 -0.017872 0.290612
0.127140 -0.017875 0.290619
0.129665 -0.018034 0.293148
0.132001 -0.018164 0.295189
0.131320 -0.017880 0.290501
0.133129 -0.017937 0.291353
0.134893 -0.017987 0.292079
0.135997 -0.017950 0.291364
0.137464 -0.017960 0.291422
0.138850 -0.017960 0.291296
0.140098 -0.017941 0.290873
0.141505 -0.017944 0.290773
0.143041 -0.017963 0.290922
0.145131 -0.018050 0.292170
0.146887 -0.018094 0.292713
0.148321 -0.018098 0.292594
0.149577 -0.018081 0.292111
0.151036 -0.018088 0.292016
0.152413 -0.018086 0.291747
-0.153941 -0.016463 0.290220
-0.152649 -0.016471 0.290568
-0.151192 -0.016461 0.290590
-0.150049 -0.016486 0.291207
-0.148746 -0.016493 0.291508
-0.147370 -0.016492 0.291656
-0.145673 -0.016455 0.291149
-0.144414 -0.016467 0.291504
-0.143147 -0.016478 0.291836
-0.141790 -0.016480 0.291978
-0.140417 -0.016479 0.292074
-0.138620 -0.016428 0.291274
-0.137219 -0.016424 0.291285
-0.135573 -0.016390 0.290759
-0.133993 -0.016363 0.290357
-0.128740 -0.015883 0.281891
-0.130937 -0.016321 0.289724
-0.138879 -0.017492 0.310561
-0.138473 -0.017626 0.312969
-0.137232 -0.017655 0.313513
-0.127690 -0.016605 0.294889
-0.123610 -0.016250 0.288600
-0.122393 -0.016268 0.288924
-0.121150 -0.016283 0.289186
-0.119863 -0.016292 0.289342
-0.118583 -0.016302 0.289512
-0.117366 -0.016322 0.289835
-0.116022 -0.016324 0.289846
-0.114633 -0.016319 0.289735
-0.113220 -0.016312 0.289559
-0.111852 -0.016310 0.289486
-0.110453 -0.016304 0.289330
-0.109152 -0.016313 0.289428
-0.107900 -0.016329 0.289653
-0.106509 -0.016324 0.289502
-0.105170 -0.016327 0.289491
-0.103813 -0.016328 0.289427
-0.102284 -0.016301 0.288871
-0.101001 -0.016313 0.289003
-0.099586 -0.016304 0.288756
-0.098210 -0.016301 0.288614
-0.096085 -0.016172 0.286237
-0.097265 -0.016604 0.293778
-0.096715 -0.016748 0.296228
-0.095481 -0.016777 0.296626
-0.094251 -0.016807 0.297048
-0.093187 -0.016868 0.298012
-0.091735 -0.016859 0.297747
-0.090195 -0.016835 0.297187
-0.088663 -0.016810 0.296638
-0.086844 -0.016730 0.295098
-0.085203 -0.016682 0.294127
-0.083472 -0.016615 0.292807
-0.082070 -0.016612 0.292624
-0.080644 -0.016603 0.292348
-0.079114 -0.016573 0.291684
-0.077920 -0.016613 0.292259
-0.076702 -0.016650 0.292769
-0.075385 -0.016666 0.292915
-0.074189 -0.016710 0.293551
-0.073337 -0.016835 0.295601
-0.070342 -0.016463 0.288932
-0.069023 -0.016476 0.289027
-0.067634 -0.016473 0.288836
-0.066230 -0.016466 0.288571
-0.064948 -0.016490 0.288847
-0.063624 -0.016504 0.288953
-0.062186 -0.016488 0.288539
-0.060828 -0.016494 0.288493
-0.059539 -0.016518 0.288783
-0.058184 -0.016526 0.288772
-0.056868 -0.016545 0.288966
-0.055569 -0.016570 0.289265
-0.054231 -0.016584 0.289377
-0.052902 -0.016602 0.289554
-0.051535 -0.016609 0.289538
-0.050156 -0.016612 0.289459
-0.048724 -0.016597 0.289073
-0.047328 -0.016594 0.288892
-0.045965 -0.016603 0.288920
-0.044626 -0.016621 0.289114
-0.043207 -0.016610 0.288800
-0.041676 -0.016554 0.287695
-0.040374 -0.016588 0.288168
-0.037512 -0.015961 0.277159
-0.036223 -0.015981 0.277402
-0.035202 -0.016126 0.279802
-0.033058 -0.015747 0.273126
-0.031673 -0.015714 0.272452
-0.030541 -0.015808 0.273994
-0.029062 -0.015724 0.272428
-0.027647 -0.015668 0.271368
-0.026294 -0.015643 0.270845
-0.024901 -0.015590 0.269851
-0.023450 -0.015494 0.268100
-0.022099 -0.015456 0.267373
-0.020744 -0.015410 0.266505
-0.019481 -0.015432 0.266815
-0.018182 -0.015426 0.266642
-0.016932 -0.015464 0.267223
-0.016172 -0.015993 0.276306
-0.014840 -0.016001 0.276380
-0.012939 -0.015336 0.264849
-0.011580 -0.015237 0.263089
-0.010295 -0.015225 0.262829
-0.009007 -0.015202 0.262390
-0.007764 -0.015262 0.263397
-0.006524 -0.015351 0.264901
-0.005244 -0.015368 0.265166
-0.003980 -0.015462 0.266761
-0.002693 -0.015508 0.267530
-0.001399 -0.015564 0.268476
-0.000095 -0.015567 0.268506
0.001208 -0.015553 0.268268
0.002508 -0.015534 0.267928
0.003825 -0.015596 0.268991
0.005132 -0.015594 0.268969
0.006140 -0.014870 0.256488
0.007374 -0.014846 0.256076
0.008610 -0.014833 0.255869
0.009859 -0.014841 0.256018
0.011126 -0.014872 0.256583
0.012385 -0.014887 0.256857
0.013659 -0.014916 0.257382
0.014985 -0.014991 0.258720
0.016319 -0.015063 0.259987
0.017565 -0.015049 0.259790
0.018881 -0.015093 0.260587
0.020290 -0.015200 0.262489
0.022168 -0.015626 0.269891
0.023464 -0.015616 0.269782
0.024109 -0.015198 0.262604
0.024790 -0.014843 0.256530
0.026064 -0.014859 0.256875
0.027381 -0.014898 0.257610
0.028521 -0.014841 0.256698
0.029767 -0.014842 0.256778
0.031031 -0.014851 0.257018
0.032311 -0.014867 0.257369
0.033480 -0.014833 0.256854
0.034707 -0.014826 0.256809
0.035988 -0.014841 0.257156
0.037967 -0.015134 0.262321
0.039699 -0.015312 0.265501
0.041531 -0.015517 0.269148
0.042642 -0.015448 0.268047
0.043841 -0.015414 0.267553
0.045433 -0.015516 0.269422
0.046870 -0.015562 0.270310
0.048006 -0.015507 0.269458
0.049452 -0.015553 0.270359
0.050901 -0.015597 0.271235
0.052070 -0.015555 0.270616
0.053306 -0.015535 0.270377
0.055859 -0.015521 0.270336
0.057084 -0.015500 0.270081
0.057590 -0.015289 0.266516
0.059587 -0.015475 0.269862
0.061155 -0.015543 0.271168
0.062384 -0.015525 0.270956
0.063551 -0.015492 0.270489
0.064869 -0.015496 0.270678
0.066089 -0.015478 0.270459
0.067299 -0.015457 0.270214
0.068495 -0.015435 0.269928
0.069706 -0.015416 0.269709
0.070821 -0.015378 0.269138
0.071378 -0.015221 0.266506
0.072445 -0.015177 0.265839
0.073318 -0.015095 0.264496
0.074138 -0.015005 0.263013
0.074747 -0.014876 0.260842
0.075510 -0.014781 0.259273
0.076639 -0.014760 0.258988
0.077652 -0.014717 0.258330
0.078909 -0.014721 0.258489
0.080256 -0.014742 0.258938
0.081826 -0.014802 0.260078
0.083396 -0.014861 0.261187
0.085950 -0.015090 0.265302
0.087071 -0.015065 0.264938
0.100020 -0.016818 0.295911
0.099743 -0.016538 0.291059
0.101171 -0.016545 0.291246
0.102589 -0.016550 0.291396
0.103690 -0.016504 0.290651
0.105240 -0.016530 0.291163
0.106510 -0.016512 0.290896
0.107951 -0.016521 0.291093
0.109331 -0.016520 0.291118
0.110985 -0.016560 0.291859
0.112149 -0.016527 0.291305
0.112904 -0.016435 0.289708
0.114967 -0.016534 0.291463
0.116224 -0.016516 0.291150
0.117540 -0.016506 0.290986
0.119027 -0.016521 0.291237
0.120322 -0.016508 0.291010
0.121740 -0.016513 0.291076
0.123021 -0.016499 0.290808
0.124328 -0.016489 0.290601
0.125823 -0.016504 0.290823
0.127126 -0.016493 0.290595
0.128606 -0.016506 0.290761
0.129935 -0.016499 0.290578
0.132456 -0.016642 0.293025
0.132818 -0.016514 0.290684
0.134571 -0.016559 0.291394
0.136393 -0.016612 0.292225
0.137919 -0.016628 0.292400
0.139342 -0.016632 0.292344
0.140868 -0.016647 0.292488
0.142255 -0.016647 0.292332
0.144033 -0.016691 0.292960
0.145292 -0.016675 0.292515
0.146620 -0.016667 0.292202
0.148247 -0.016693 0.292471
0.149458 -0.016672 0.291904
0.150850 -0.016672 0.291681
0.152269 -0.016674 0.291497
-0.154184 -0.015110 0.290700
-0.152824 -0.015111 0.290923
-0.151244 -0.015089 0.290711
-0.150226 -0.015124 0.291570
-0.148952 -0.015134 0.291931
-0.147304 -0.015105 0.291541
-0.145692 -0.015080 0.291203
-0.144318 -0.015079 0.291324
-0.142913 -0.015075 0.291372
-0.141553 -0.015076 0.291502
-0.140118 -0.015068 0.291465
-0.138735 -0.015066 0.291525
-0.137354 -0.015064 0.291580
-0.135668 -0.015029 0.290971
-0.134459 -0.015046 0.291374
-0.129077 -0.014592 0.282635
-0.130576 -0.014914 0.288931
-0.138648 -0.016002 0.310051
-0.138202 -0.016119 0.312360
-0.127717 -0.015218 0.294953
-0.123414 -0.014866 0.288143
-0.122286 -0.014893 0.288672
-0.120931 -0.014893 0.288662
-0.119855 -0.014927 0.289320
-0.118640 -0.014945 0.289648
-0.117338 -0.014952 0.289764
-0.116081 -0.014965 0.289987
-0.114836 -0.014980 0.290244
-0.113469 -0.014979 0.290190
-0.112109 -0.014979 0.290146
-0.110722 -0.014976 0.290028
-0.109308 -0.014968 0.289831
-0.107941 -0.014967 0.289752
-0.106511 -0.014957 0.289498
-0.105112 -0.014952 0.289321
-0.103496 -0.014915 0.288531
-0.102122 -0.014912 0.288401
-0.100822 -0.014921 0.288478
-0.099305 -0.014897 0.287928
-0.098078 -0.014916 0.288212
-0.096354 -0.014859 0.287024
-0.096911 -0.015158 0.292691
-0.096845 -0.015366 0.296609
-0.095610 -0.015393 0.297008
-0.094472 -0.015435 0.297723
-0.093025 -0.015428 0.297473
-0.091738 -0.015448 0.297736
-0.090164 -0.015420 0.297065
-0.088704 -0.015410 0.296754
-0.086866 -0.015333 0.295151
-0.085098 -0.015266 0.293741
-0.083745 -0.015273 0.293741
-0.081997 -0.015207 0.292338
-0.080560 -0.015197 0.292019
-0.079257 -0.015212 0.292183
-0.077862 -0.015211 0.292017
-0.076581 -0.015231 0.292277
-0.075265 -0.015246 0.292422
-0.074035 -0.015279 0.292911
-0.072785 -0.015309 0.293347
-0.071133 -0.015254 0.292150
-0.069085 -0.015110 0.289256
-0.067738 -0.015117 0.289245
-0.066338 -0.015112 0.289011
-0.065027 -0.015127 0.289164
-0.063779 -0.015158 0.289619
-0.062386 -0.015156 0.289432
-0.060846 -0.015117 0.288543
-0.059663 -0.015166 0.289348
-0.058321 -0.015177 0.289417
-0.056850 -0.015154 0.288833
-0.055563 -0.015180 0.289192
-0.054214 -0.015190 0.289247
-0.052856 -0.015198 0.289265
-0.051547 -0.015221 0.289563
-0.050130 -0.015212 0.289267
-0.048748 -0.015214 0.289173
-0.047378 -0.015220 0.289153
-0.046032 -0.015234 0.289295
-0.044636 -0.015232 0.289137
-0.043319 -0.015258 0.289498
-0.041942 -0.015264 0.289487
-0.040467 -0.015233 0.288783
-0.037610 -0.014661 0.277834
-0.036255 -0.014655 0.277600
-0.034509 -0.014484 0.274252
-0.033233 -0.014504 0.274531
-0.031864 -0.014484 0.274047
-0.030465 -0.014447 0.273257
-0.029254 -0.014501 0.274186
-0.027884 -0.014478 0.273639
-0.026498 -0.014443 0.272901
-0.025241 -0.014479 0.273489
-0.023887 -0.014460 0.273048
-0.022612 -0.014490 0.273528
-0.021250 -0.014464 0.272959
-0.019855 -0.014410 0.271871
-0.018624 -0.014476 0.273060
-0.017054 -0.014270 0.269106
-0.015809 -0.014324 0.270057
-0.014847 -0.014666 0.276454
-0.012946 -0.014057 0.264920
-0.011599 -0.013983 0.263477
-0.010321 -0.013983 0.263431
-0.009112 -0.014090 0.265392
-0.007890 -0.014209 0.267611
-0.006643 -0.014321 0.269676
-0.005353 -0.014374 0.270638
-0.004068 -0.014478 0.272568
-0.002761 -0.014565 0.274197
-0.001427 -0.014537 0.273643
-0.000097 -0.014538 0.273646
0.001213 -0.014316 0.269455
0.002514 -0.014266 0.268515
0.003826 -0.014295 0.269063
0.006136 -0.013617 0.256309
0.007379 -0.013614 0.256251
0.008645 -0.013646 0.256868
0.009887 -0.013638 0.256731
0.011147 -0.013653 0.257038
0.012414 -0.013673 0.257442
0.013715 -0.013723 0.258420
0.014985 -0.013736 0.258697
0.016269 -0.013760 0.259171
0.017550 -0.013776 0.259526
0.018862 -0.013814 0.260284
0.020264 -0.013909 0.262110
0.022298 -0.014401 0.271428
0.023601 -0.014392 0.271319
0.024258 -0.014011 0.264190
0.025014 -0.013722 0.258814
0.026137 -0.013653 0.257564
0.027407 -0.013663 0.257823
0.028661 -0.013665 0.257920
0.029879 -0.013650 0.257718
0.031167 -0.013667 0.258111
0.032466 -0.013687 0.258565
0.033777 -0.013711 0.259094
0.035214 -0.013782 0.260521
0.036464 -0.013778 0.260529
0.037896 -0.013841 0.261796
0.039369 -0.013913 0.263260
0.041083 -0.014064 0.266211
0.042398 -0.014073 0.266477
0.043687 -0.014074 0.266577
0.045009 -0.014084 0.266880
0.046438 -0.014127 0.267785
0.047639 -0.014099 0.267367
0.048754 -0.014049 0.266514
0.049902 -0.014010 0.265881
0.050960 -0.013949 0.264819
0.052212 -0.013942 0.264798
0.053057 -0.013830 0.262769
0.054259 -0.013814 0.262567
0.055815 -0.013886 0.264049
0.057014 -0.013869 0.263826
0.058882 -0.014011 0.266640
