ply
format ascii 1.0
element vertex 1747
property float x
property float y
property float z
end_header
0.020044 0.018877 0.276754
0.020634 0.018212 0.267054
0.021966 0.018242 0.267544
0.023470 0.018403 0.269964
0.024764 0.018391 0.269850
0.025044 0.017666 0.259263
0.025975 0.017446 0.256107
0.027195 0.017432 0.255971
0.028433 0.017431 0.256017
0.029621 0.017400 0.255633
0.030862 0.017401 0.255720
0.032153 0.017429 0.256217
0.033488 0.017478 0.257019
0.034707 0.017465 0.256911
0.035982 0.017480 0.257222
0.037416 0.017569 0.258619
0.039273 0.017844 0.262760
0.041170 0.018120 0.266914
0.042981 0.018342 0.270284
0.044065 0.018250 0.269022
0.045160 0.018167 0.267908
0.046544 0.018202 0.268530
0.047880 0.018217 0.268856
0.049051 0.018170 0.268270
0.050383 0.018183 0.268572
0.051520 0.018128 0.267859
0.053026 0.018201 0.269054
0.053837 0.018038 0.266756
0.054486 0.017830 0.263785
0.056018 0.017913 0.265132
0.057117 0.017858 0.264418
0.058251 0.017815 0.263900
0.061074 0.018280 0.270898
0.062347 0.018271 0.270882
0.063606 0.018258 0.270813
0.064857 0.018244 0.270712
0.066142 0.018239 0.270760
0.067470 0.018247 0.270983
0.068638 0.018211 0.270569
0.069960 0.018217 0.270773
0.071324 0.018234 0.271129
0.073001 0.018328 0.272643
0.073885 0.018223 0.271198
0.075158 0.018217 0.271210
0.076134 0.018140 0.270165
0.077007 0.018041 0.268799
0.078153 0.018008 0.268415
0.079391 0.017997 0.268356
0.080873 0.018041 0.269109
0.082249 0.018061 0.269494
0.083400 0.018031 0.269142
0.083340 0.017744 0.264952
0.084632 0.017749 0.265116
0.086045 0.017779 0.265652
0.087992 0.017917 0.267794
0.097595 0.019587 0.292850
0.098827 0.019554 0.292439
0.099813 0.019474 0.291317
0.100607 0.019359 0.289675
0.102557 0.019466 0.291354
0.103774 0.019434 0.290933
0.104916 0.019388 0.290313
0.106236 0.019376 0.290192
0.107531 0.019360 0.290003
0.108750 0.019331 0.289613
0.109960 0.019300 0.289203
0.111371 0.019306 0.289319
0.112693 0.019296 0.289204
0.114151 0.019309 0.289428
0.115715 0.019339 0.289906
0.117398 0.019389 0.290661
0.118571 0.019354 0.290146
0.120409 0.019427 0.291243
0.121600 0.019395 0.290762
0.122831 0.019370 0.290379
0.124198 0.019367 0.290316
0.125409 0.019340 0.289884
0.126645 0.019317 0.289508
0.128241 0.019349 0.289947
0.129936 0.019396 0.290589
0.131010 0.019349 0.289834
0.132145 0.019312 0.289215
0.133564 0.019317 0.289216
0.134985 0.019322 0.289209
0.136907 0.019399 0.290253
0.136907 0.019203 0.287229
0.139922 0.019431 0.290518
0.147092 0.019644 0.293127
0.148286 0.019615 0.292527
0.147431 0.019319 0.287923
0.149310 0.019383 0.288680
0.151091 0.019433 0.289216
-0.042507 0.009147 0.128426
-0.041127 0.008978 0.126009
-0.042942 0.009512 0.133450
-0.042976 0.009661 0.135492
-0.042409 0.009678 0.135670
-0.042276 0.009796 0.137265
-0.043445 0.010224 0.143202
-0.043596 0.010422 0.145914
-0.043562 0.010582 0.148082
-0.043307 0.010692 0.149557
-0.043125 0.010824 0.151337
-0.043050 0.010988 0.153562
-0.043112 0.011193 0.156355
-0.043405 0.011467 0.160099
-0.043248 0.011629 0.162285
-0.043461 0.011898 0.165963
-0.043403 0.012102 0.168726
-0.043758 0.012431 0.173224
-0.043233 0.012518 0.174345
-0.043294 0.012781 0.177920
-0.043597 0.013127 0.182653
-0.043484 0.013360 0.185797
-0.043077 0.013510 0.187792
-0.042844 0.013722 0.190646
-0.042580 0.013933 0.193482
-0.042251 0.014132 0.196149
-0.042119 0.014408 0.199872
-0.041928 0.014675 0.203481
-0.042013 0.015054 0.208637
-0.041672 0.015295 0.211876
-0.041518 0.015619 0.216252
-0.041230 0.015907 0.220136
-0.040984 0.016228 0.224461
-0.040805 0.016592 0.229397
-0.040475 0.016914 0.233736
-0.040254 0.017301 0.238977
-0.040154 0.017765 0.245263
-0.041288 0.018818 0.259693
-0.040086 0.018840 0.259879
-0.039079 0.018957 0.261381
-0.038384 0.019239 0.265155
-0.037963 0.019683 0.271149
-0.036362 0.019524 0.268851
-0.035073 0.019527 0.268787
-0.034876 0.020162 0.277415
-0.032671 0.019640 0.270133
-0.029681 0.018584 0.255504
-0.028716 0.018759 0.257814
-0.027550 0.018812 0.258453
-0.026255 0.018778 0.257903
-0.025074 0.018827 0.258478
-0.023834 0.018834 0.258498
-0.022439 0.018713 0.256754
-0.021187 0.018703 0.256539
-0.019959 0.018715 0.256630
-0.018937 0.018935 0.259580
-0.017613 0.018862 0.258516
-0.016983 0.019578 0.268268
-0.015692 0.019589 0.268346
-0.012626 0.018890 0.258662
-0.011348 0.018850 0.258071
-0.010078 0.018813 0.257519
-0.008836 0.018828 0.257681
-0.007591 0.018839 0.257790
-0.006340 0.018838 0.257743
-0.005092 0.018845 0.257814
-0.003849 0.018885 0.258338
-0.002593 0.018863 0.258019
-0.001342 0.018880 0.258226
-0.000089 0.018995 0.259782
0.001189 0.019271 0.263549
0.002470 0.019285 0.263734
0.003955 0.020341 0.278174
0.005249 0.020124 0.275212
0.006600 0.020169 0.275833
0.007938 0.020166 0.275798
0.016129 0.020362 0.278632
0.016739 0.019497 0.266843
0.018110 0.019579 0.268003
0.019401 0.019569 0.267913
0.020509 0.019388 0.265479
0.021655 0.019261 0.263796
0.024751 0.019688 0.269759
0.024787 0.018727 0.256654
0.025866 0.018608 0.255081
0.027136 0.018631 0.255460
0.028371 0.018629 0.255497
0.029554 0.018594 0.255098
0.030816 0.018610 0.255385
0.032080 0.018625 0.255677
0.033321 0.018627 0.255781
0.034588 0.018642 0.256072
0.035791 0.018624 0.255900
0.037069 0.018643 0.256259
0.038776 0.018871 0.259479
0.040959 0.019308 0.265586
0.042572 0.019459 0.267756
0.043562 0.019324 0.265996
0.044756 0.019285 0.265553
0.046182 0.019345 0.266484
0.047274 0.019265 0.265492
0.048457 0.019226 0.265062
0.049565 0.019160 0.264253
0.050802 0.019146 0.264162
0.051991 0.019115 0.263842
0.053144 0.019072 0.263360
0.054617 0.019144 0.264458
0.055380 0.018968 0.262146
0.056917 0.019060 0.263530
0.059291 0.019422 0.268648
0.061099 0.019587 0.271045
0.062339 0.019568 0.270885
0.063549 0.019539 0.270601
0.064842 0.019537 0.270685
0.066169 0.019544 0.270903
0.067371 0.019516 0.270619
0.068551 0.019482 0.270260
0.069792 0.019466 0.270153
0.070963 0.019431 0.269784
0.072013 0.019366 0.268985
0.072850 0.019246 0.267426
0.074053 0.019225 0.267247
0.075378 0.019237 0.267510
0.076116 0.019100 0.265715
0.077266 0.019070 0.265394
0.078315 0.019016 0.264741
0.079450 0.018985 0.264399
0.080615 0.018961 0.264162
0.081771 0.018936 0.263907
0.083310 0.018999 0.264874
0.084601 0.019005 0.265039
0.086015 0.019037 0.265575
0.087961 0.019185 0.267716
0.096401 0.020724 0.289283
0.098827 0.020945 0.292454
0.099652 0.020826 0.290863
0.100906 0.020798 0.290549
0.102195 0.020778 0.290339
0.104783 0.020741 0.289957
0.106007 0.020710 0.289577
0.107729 0.020775 0.290545
0.109027 0.020759 0.290358
0.110600 0.020794 0.290894
0.112400 0.020870 0.292000
0.114348 0.020718 0.289930
0.116235 0.020808 0.291211
0.116907 0.020681 0.289448
0.118875 0.020784 0.290891
0.120279 0.020787 0.290929
0.121728 0.020797 0.291068
0.123033 0.020783 0.290855
0.124193 0.020744 0.290300
0.125500 0.020731 0.290089
0.126817 0.020720 0.289896
0.128539 0.020775 0.290614
0.129795 0.020753 0.290265
0.130761 0.020687 0.289271
0.132291 0.020709 0.289524
0.133668 0.020708 0.289429
0.135661 0.020802 0.290645
0.137022 0.020797 0.290483
0.138445 0.020801 0.290440
0.139892 0.020810 0.290437
0.143460 0.021130 0.294779
0.144657 0.021098 0.294196
0.149092 0.020927 0.291140
0.150281 0.020898 0.290530
0.152301 0.020983 0.291502
-0.042096 0.008454 0.111648
-0.041395 0.008418 0.111152
-0.041201 0.008486 0.112020
-0.043833 0.009146 0.120690
-0.042776 0.009042 0.119295
-0.042313 0.009063 0.119539
-0.041803 0.009075 0.119656
-0.041537 0.009141 0.120482
-0.041077 0.009165 0.120759
-0.040555 0.009176 0.120860
-0.042491 0.009751 0.128387
-0.043462 0.010118 0.133175
-0.043417 0.010256 0.134938
-0.042747 0.010248 0.134782
-0.042649 0.010379 0.136453
-0.042658 0.010541 0.138519
-0.042627 0.010698 0.140519
-0.042768 0.010903 0.143158
-0.042795 0.011086 0.145491
-0.043134 0.011356 0.148977
-0.043055 0.011524 0.151110
-0.043094 0.011730 0.153736
-0.043166 0.011952 0.156572
-0.043576 0.012277 0.160752
-0.043472 0.012466 0.163148
-0.043383 0.012666 0.165688
-0.043289 0.012872 0.168304
-0.043549 0.013193 0.172423
-0.043235 0.013349 0.174377
-0.042995 0.013535 0.176717
-0.042906 0.013777 0.179782
-0.042981 0.014082 0.183675
-0.042874 0.014339 0.186934
-0.042659 0.014570 0.189852
-0.042671 0.014890 0.193931
-0.042346 0.015104 0.196622
-0.042196 0.015392 0.200272
-0.041943 0.015655 0.203590
-0.041656 0.015918 0.206902
-0.041598 0.016282 0.211538
-0.041162 0.016513 0.214438
-0.041056 0.016892 0.219250
-0.040887 0.017264 0.223972
-0.040592 0.017602 0.228248
-0.040222 0.017925 0.232325
-0.039914 0.018294 0.237005
-0.039953 0.018850 0.244088
-0.041444 0.020144 0.260730
-0.040238 0.020167 0.260917
-0.039157 0.020257 0.261963
-0.038466 0.020561 0.265777
-0.037937 0.020976 0.271024
-0.036520 0.020911 0.270078
-0.035134 0.020860 0.269317
-0.034856 0.021489 0.277318
-0.032652 0.020933 0.270038
-0.029887 0.019956 0.257340
-0.028697 0.019992 0.257708
-0.027550 0.020061 0.258514
-0.026280 0.020045 0.258216
-0.025060 0.020066 0.258408
-0.023870 0.020115 0.258947
-0.022637 0.020131 0.259080
-0.021271 0.020024 0.257628
-0.020198 0.020197 0.259782
-0.018974 0.020232 0.260156
-0.017620 0.020123 0.258684
-0.015682 0.020877 0.268249
-0.011417 0.020224 0.259712
-0.010122 0.020153 0.258747
-0.008875 0.020168 0.258898
-0.007610 0.020143 0.258541
-0.006365 0.020170 0.258851
-0.005119 0.020204 0.259266
-0.003861 0.020204 0.259242
-0.002609 0.020244 0.259727
-0.001353 0.020310 0.260559
-0.000089 0.020304 0.260472
0.001190 0.020557 0.263700
0.002461 0.020482 0.262733
0.003954 0.021678 0.278073
0.005199 0.021250 0.272593
0.006597 0.021495 0.275733
0.007440 0.020152 0.258514
0.008735 0.020245 0.259725
0.010001 0.020257 0.259892
0.011257 0.020247 0.259785
0.012536 0.020276 0.260185
0.013847 0.020346 0.261113
0.015205 0.020469 0.262724
0.016448 0.020429 0.262253
0.017821 0.020545 0.263781
0.019357 0.020820 0.267358
0.020469 0.020633 0.265004
0.021861 0.020734 0.266355
0.024894 0.020055 0.257801
0.025853 0.019832 0.254999
0.027119 0.019854 0.255347
0.028337 0.019841 0.255238
0.029515 0.019802 0.254806
0.030795 0.019831 0.255257
0.032020 0.019824 0.255245
0.033229 0.019809 0.255123
0.034543 0.019854 0.255789
0.035912 0.019927 0.256811
0.037189 0.019945 0.257136
0.038630 0.020048 0.258546
0.040372 0.020295 0.261828
0.041912 0.020429 0.263651
0.042972 0.020328 0.262441
0.044458 0.020428 0.263830
0.045764 0.020442 0.264119
0.046985 0.020419 0.263917
0.048290 0.020432 0.264191
0.049602 0.020447 0.264491
0.050694 0.020373 0.263645
0.052022 0.020396 0.264039
0.053374 0.020426 0.264543
0.054452 0.020352 0.263695
0.055548 0.020289 0.262983
0.056963 0.020342 0.263783
0.058839 0.020554 0.266640
0.061034 0.020865 0.270794
0.062256 0.020839 0.270560
0.063505 0.020822 0.270453
0.064802 0.020821 0.270553
0.066090 0.020817 0.270614
0.067360 0.020808 0.270607
0.068555 0.020776 0.270308
0.069794 0.020759 0.270193
0.071156 0.020778 0.270551
0.072522 0.020797 0.270914
0.073477 0.020701 0.269760
0.074758 0.020697 0.269822
0.075988 0.020680 0.269702
0.077371 0.020704 0.270122
0.078955 0.020781 0.271222
0.079954 0.020703 0.270309
0.081328 0.020724 0.270673
0.082716 0.020747 0.271072
0.083989 0.020741 0.271086
0.084854 0.020636 0.269804
0.086319 0.020678 0.270440
0.087960 0.020760 0.271601
0.090558 0.021063 0.275640
0.097170 0.022277 0.291611
0.098398 0.022239 0.291202
0.099367 0.022145 0.290048
0.101083 0.022218 0.291075
0.102301 0.022180 0.290654
0.103535 0.022148 0.290289
0.104810 0.022124 0.290044
0.106013 0.022087 0.289603
0.107480 0.022104 0.289885
0.108748 0.022081 0.289624
0.109758 0.022006 0.288686
0.111764 0.022130 0.290353
0.113537 0.022206 0.291379
0.114678 0.022158 0.290771
0.116794 0.022297 0.292615
0.117924 0.022247 0.291968
0.118571 0.022108 0.290147
0.120514 0.022211 0.291498
0.121813 0.022194 0.291269
0.122595 0.022084 0.289816
0.124422 0.022163 0.290831
0.125890 0.022177 0.290984
0.127374 0.022194 0.291162
0.128595 0.022164 0.290732
0.129882 0.022147 0.290449
0.131135 0.022124 0.290089
0.132447 0.022111 0.289853
0.133828 0.022111 0.289761
0.135095 0.022091 0.289417
0.136650 0.022118 0.289678
0.138568 0.022203 0.290681
0.140004 0.022210 0.290651
0.141910 0.022291 0.291574
0.141891 0.022070 0.288550
0.145210 0.022368 0.292291
-0.041795 0.008295 0.103232
-0.040675 0.008168 0.101635
-0.040359 0.008201 0.102031
-0.043007 0.008844 0.110016
-0.042836 0.009026 0.112238
-0.041661 0.008888 0.110500
-0.041479 0.008961 0.111384
-0.044308 0.009695 0.120474
-0.043817 0.009712 0.120652
-0.043235 0.009708 0.120580
-0.042932 0.009769 0.121295
-0.042516 0.009805 0.121703
-0.042061 0.009833 0.122010
-0.041595 0.009859 0.122292
-0.041891 0.010068 0.124852
-0.042195 0.010286 0.127507
-0.042865 0.010601 0.131356
-0.042693 0.010713 0.132699
-0.042445 0.010810 0.133843
-0.042027 0.010865 0.134475
-0.042232 0.011086 0.137151
-0.042517 0.011335 0.140173
-0.042884 0.011614 0.143563
-0.042914 0.011809 0.145912
-0.042960 0.012015 0.148395
-0.042859 0.012186 0.150442
-0.042593 0.012316 0.151969
-0.042387 0.012467 0.153767
-0.042763 0.012798 0.157775
-0.043375 0.013212 0.162807
-0.043431 0.013469 0.165896
-0.043574 0.013764 0.169438
-0.043443 0.013981 0.172027
-0.043310 0.014205 0.174709
-0.043071 0.014403 0.177056
-0.043046 0.014683 0.180401
-0.043015 0.014971 0.183853
-0.042631 0.015146 0.185909
-0.042833 0.015540 0.190659
-0.042698 0.015828 0.194088
-0.042443 0.016082 0.197111
-0.042177 0.016344 0.200219
-0.041817 0.016580 0.203016
-0.041598 0.016885 0.206654
-0.041378 0.017205 0.210462
-0.041075 0.017505 0.214026
-0.040975 0.017909 0.218865
-0.040853 0.018324 0.223833
-0.040586 0.018695 0.228260
-0.040328 0.019091 0.232984
-0.040100 0.019525 0.238164
-0.040014 0.020054 0.244512
-0.041430 0.021391 0.260702
-0.040224 0.021416 0.260888
-0.039229 0.021558 0.262505
-0.038467 0.021842 0.265846
-0.037897 0.022258 0.270800
-0.036694 0.022319 0.271433
-0.035281 0.022252 0.270509
-0.034634 0.022681 0.275618
-0.032831 0.022358 0.271588
-0.029834 0.021161 0.256947
-0.028658 0.021207 0.257417
-0.027480 0.021257 0.257928
-0.026172 0.021205 0.257216
-0.025043 0.021302 0.258298
-0.023820 0.021323 0.258479
-0.022541 0.021295 0.258055
-0.021272 0.021273 0.257713
-0.019924 0.021164 0.256327
-0.018876 0.021382 0.258891
-0.017424 0.021139 0.255887
-0.016833 0.021983 0.266044
-0.015413 0.021797 0.263723
-0.013947 0.023640 0.285912
-0.011432 0.021514 0.260148
-0.010087 0.021335 0.257940
-0.008853 0.021373 0.258355
-0.007608 0.021393 0.258564
-0.006370 0.021446 0.259168
-0.005119 0.021466 0.259383
-0.003882 0.021582 0.260753
-0.002632 0.021704 0.262213
-0.001356 0.021638 0.261392
-0.000089 0.021942 0.265051
0.001197 0.021942 0.265048
0.002461 0.021755 0.262773
0.003952 0.023013 0.277966
0.005282 0.022931 0.276984
0.006415 0.022198 0.268130
0.007571 0.021780 0.263095
0.008727 0.021483 0.259521
0.010004 0.021522 0.260012
0.011230 0.021454 0.259206
0.012506 0.021484 0.259594
0.013796 0.021532 0.260210
0.015088 0.021574 0.260751
0.016385 0.021616 0.261287
0.017677 0.021646 0.261697
0.019093 0.021813 0.263758
0.020405 0.021848 0.264230
0.021617 0.021779 0.263441
0.024895 0.021304 0.257868
0.025847 0.021061 0.254988
0.027038 0.021027 0.254632
0.028331 0.021071 0.255234
0.029549 0.021058 0.255149
0.030753 0.021036 0.254958
0.032013 0.021053 0.255240
0.033258 0.021059 0.255394
0.034494 0.021059 0.255473
0.035682 0.021031 0.255215
0.036961 0.021056 0.255605
0.038312 0.021120 0.256468
0.041378 0.022095 0.268399
0.042629 0.022071 0.268205
0.044106 0.022162 0.269414
0.045106 0.022015 0.267725
0.046303 0.021970 0.267273
0.047656 0.021999 0.267733
0.048834 0.021947 0.267208
0.050102 0.021939 0.267205
0.051167 0.021843 0.266149
0.052401 0.021823 0.266004
0.053738 0.021845 0.266387
0.054672 0.021706 0.264803
0.055760 0.021634 0.264028
0.057357 0.021757 0.265644
0.058611 0.021749 0.265646
0.060856 0.022100 0.270045
0.062281 0.022145 0.270706
0.063557 0.022136 0.270710
0.064694 0.022080 0.270136
0.066053 0.022101 0.270502
0.067351 0.022100 0.270605
0.068526 0.022060 0.270229
0.069737 0.022033 0.270005
0.071090 0.022051 0.270331
0.072814 0.022181 0.272037
0.074162 0.022194 0.272303
0.075245 0.022129 0.271609
0.076279 0.022052 0.270763
0.077420 0.022007 0.270320
0.078321 0.021897 0.269071
0.079232 0.021794 0.267892
0.080293 0.021734 0.267252
0.081979 0.021842 0.268679
0.083150 0.021812 0.268403
0.084702 0.021882 0.269344
0.085542 0.021768 0.268026
0.087802 0.022013 0.271133
0.090522 0.022365 0.275549
0.096833 0.023581 0.290617
0.098812 0.023723 0.292444
0.099417 0.023536 0.290210
0.100704 0.023513 0.289998
0.102153 0.023528 0.290249
0.103671 0.023558 0.290685
0.104523 0.023438 0.289261
0.105962 0.023451 0.289477
0.107741 0.023538 0.290599
0.109154 0.023543 0.290713
0.110079 0.023445 0.289538
0.111854 0.023528 0.290595
0.112996 0.023477 0.289995
0.114140 0.023428 0.289412
0.115605 0.023445 0.289638
0.116776 0.023403 0.289127
0.118668 0.023504 0.290385
0.120167 0.023526 0.290658
0.121687 0.023552 0.290966
0.122797 0.023499 0.290290
0.124425 0.023545 0.290833
0.125906 0.023562 0.291016
0.127217 0.023547 0.290797
0.128511 0.023530 0.290533
0.130282 0.023599 0.291334
0.131619 0.023589 0.291147
0.133113 0.023607 0.291297
0.134556 0.023616 0.291323
0.135642 0.023562 0.290573
0.137241 0.023598 0.290912
0.138561 0.023586 0.290647
0.139774 0.023555 0.290153
0.141072 0.023540 0.289831
0.142648 0.023570 0.290066
0.145177 0.023756 0.292199
0.144747 0.023459 0.288379
0.147480 0.023675 0.290859
-0.041232 0.008372 0.098434
-0.041841 0.008592 0.101016
-0.041914 0.008706 0.102348
-0.041781 0.008779 0.103198
-0.040967 0.008709 0.102366
-0.042975 0.009244 0.108646
-0.042992 0.009359 0.109980
-0.042970 0.009468 0.111244
-0.042819 0.009552 0.112201
-0.042763 0.009658 0.113429
-0.042800 0.009789 0.114935
-0.042924 0.009943 0.116718
-0.042724 0.010025 0.117651
-0.042469 0.010096 0.118452
-0.042163 0.010157 0.119132
-0.041835 0.010213 0.119762
-0.041521 0.010275 0.120452
-0.041647 0.010450 0.122454
-0.041822 0.010641 0.124654
-0.042369 0.010934 0.128043
-0.043430 0.011370 0.133099
-0.043076 0.011443 0.133903
-0.042472 0.011451 0.133941
-0.042608 0.011661 0.136349
-0.042274 0.011747 0.137303
-0.042202 0.011910 0.139149
-0.042197 0.012098 0.141278
-0.042459 0.012369 0.144383
-0.042697 0.012642 0.147505
-0.042714 0.012857 0.149952
-0.042763 0.013090 0.152596
-0.042750 0.013311 0.155102
-0.042942 0.013605 0.158456
-0.043074 0.013890 0.161700
-0.043104 0.014152 0.164674
-0.042889 0.014341 0.166800
-0.043225 0.014726 0.171193
-0.043138 0.014979 0.174043
-0.042947 0.015204 0.176579
-0.042660 0.015404 0.178812
-0.042745 0.015749 0.182731
-0.042541 0.016000 0.185548
-0.042633 0.016375 0.189807
-0.042627 0.016728 0.193800
-0.042311 0.016972 0.196536
-0.042219 0.017319 0.200456
-0.041746 0.017522 0.202713
-0.041595 0.017874 0.206680
-0.041435 0.018239 0.210793
-0.041220 0.018596 0.214825
-0.041100 0.019017 0.219577
-0.040987 0.019462 0.224620
-0.040736 0.019865 0.229156
-0.040386 0.020240 0.233372
-0.040238 0.020740 0.239037
-0.041585 0.022064 0.254173
-0.040413 0.022090 0.254360
-0.040069 0.022584 0.259942
-0.039364 0.022900 0.263469
-0.038615 0.023212 0.266936
-0.037858 0.023539 0.270589
-0.037086 0.023880 0.274397
-0.035225 0.023519 0.270146
-0.034532 0.023941 0.274883
-0.033240 0.023964 0.275040
-0.029811 0.022384 0.256816
-0.028702 0.022486 0.257888
-0.027546 0.022557 0.258616
-0.026284 0.022546 0.258395
-0.025052 0.022559 0.258467
-0.023874 0.022625 0.259137
-0.022625 0.022627 0.259085
-0.021303 0.022553 0.258163
-0.020129 0.022636 0.259042
-0.018897 0.022660 0.259247
-0.017394 0.022340 0.255520
-0.016820 0.023256 0.265937
-0.015548 0.023278 0.266121
-0.015314 0.024998 0.285727
-0.013937 0.025009 0.285796
-0.011361 0.022634 0.258609
-0.010087 0.022588 0.258035
-0.008884 0.022708 0.259363
-0.007604 0.022637 0.258518
-0.006354 0.022648 0.258609
-0.005163 0.022926 0.261753
-0.003963 0.023333 0.266373
-0.002681 0.023410 0.267238
-0.001380 0.023324 0.266235
-0.000089 0.023325 0.266238
0.002486 0.023254 0.265406
0.003927 0.024200 0.276198
0.005280 0.024259 0.276871
0.006328 0.023178 0.264545
0.007545 0.022975 0.262232
0.008746 0.022790 0.260142
0.009985 0.022736 0.259544
0.011243 0.022735 0.259551
0.012536 0.022796 0.260269
0.013819 0.022831 0.260694
0.015086 0.022834 0.260765
0.016393 0.022893 0.261472
0.017683 0.022922 0.261840
0.019059 0.023050 0.263350
0.020319 0.023030 0.263167
0.021553 0.022986 0.262714
0.025211 0.024045 0.274931
0.025244 0.022868 0.261533
0.025815 0.022268 0.254732
0.027085 0.022297 0.255129
0.028330 0.022305 0.255285
0.029508 0.022260 0.254849
0.030768 0.022279 0.255138
0.031999 0.022277 0.255183
0.033271 0.022301 0.255540
0.034498 0.022295 0.255556
0.035715 0.022284 0.255504
0.036938 0.022276 0.255497
0.038265 0.022330 0.256203
0.040652 0.022979 0.263743
0.041881 0.022954 0.263553
0.043269 0.023015 0.264351
0.044526 0.023005 0.264332
0.045738 0.022973 0.264059
0.047019 0.022977 0.264201
0.048218 0.022940 0.263887
0.049493 0.022941 0.264002
0.050715 0.022919 0.263842
0.052053 0.022948 0.264284
0.053469 0.023009 0.265098
0.054656 0.022972 0.264770
0.055554 0.022817 0.263093
0.056992 0.022886 0.263996
0.058429 0.022951 0.264862
0.060371 0.023208 0.267935
0.062219 0.023419 0.270477
0.063461 0.023398 0.270344
0.064594 0.023338 0.269759
0.065900 0.023341 0.269911
0.067128 0.023318 0.269748
0.068390 0.023307 0.269729
0.069535 0.023256 0.269256
0.070862 0.023268 0.269500
0.072246 0.023298 0.269950
0.073541 0.023298 0.270058
0.074563 0.023213 0.269178
0.075613 0.023140 0.268429
0.076605 0.023052 0.267503
0.077601 0.022968 0.266625
0.078453 0.022844 0.265285
0.079355 0.022739 0.264154
0.080696 0.022761 0.264499
0.082135 0.022809 0.265151
0.083501 0.022836 0.265547
0.084440 0.022747 0.264597
0.085758 0.022761 0.264841
0.090484 0.023666 0.275453
0.097045 0.025018 0.291275
0.098272 0.024977 0.290867
0.099422 0.024917 0.290244
0.100830 0.024922 0.290378
0.101937 0.024854 0.289650
0.103232 0.024833 0.289468
0.104791 0.024875 0.290016
0.106178 0.024876 0.290078
0.107665 0.024900 0.290405
0.109147 0.024922 0.290703
0.110543 0.024924 0.290766
0.111976 0.024934 0.290917
0.113235 0.024906 0.290615
0.114542 0.024889 0.290434
0.115934 0.024890 0.290465
0.117440 0.024916 0.290772
0.118891 0.024929 0.290931
0.120269 0.024927 0.290903
0.121926 0.024982 0.291534
0.123271 0.024973 0.291407
0.124588 0.024958 0.291208
0.126127 0.024987 0.291520
0.127342 0.024953 0.291074
0.128755 0.024957 0.291075
0.130025 0.024934 0.290749
0.131343 0.024920 0.290523
0.133326 0.025032 0.291751
0.134633 0.025015 0.291475
0.136088 0.025026 0.291511
0.137385 0.025008 0.291199
0.138605 0.024977 0.290720
0.139940 0.024966 0.290476
0.141249 0.024952 0.290171
0.142435 0.024916 0.289606
0.143625 0.024881 0.289047
0.145374 0.024943 0.289599
0.147446 0.025058 0.290760
0.148635 0.025023 0.290157
-0.040917 0.008868 0.098788
-0.042104 0.009229 0.102813
-0.042376 0.009397 0.104671
-0.042829 0.009609 0.107021
-0.042827 0.009723 0.108276
-0.042886 0.009854 0.109715
-0.042660 0.009921 0.110446
-0.042507 0.010007 0.111388
-0.042311 0.010085 0.112234
-0.042176 0.010180 0.113266
-0.041852 0.010231 0.113808
-0.042075 0.010419 0.115870
-0.042125 0.010569 0.117501
-0.042019 0.010683 0.118733
-0.041653 0.010732 0.119251
-0.041507 0.010841 0.120423
-0.041133 0.010892 0.120953
-0.042425 0.011392 0.126463
-0.042501 0.011576 0.128455
-0.042952 0.011868 0.131648
-0.043020 0.012061 0.133744
-0.042946 0.012220 0.135451
-0.042568 0.012295 0.136235
-0.042307 0.012408 0.137427
-0.042198 0.012569 0.139153
-0.042034 0.012718 0.140750
-0.042302 0.013006 0.143869
-0.042407 0.013251 0.146523
-0.042747 0.013580 0.150088
-0.042665 0.013783 0.152268
-0.042935 0.014109 0.155798
-0.043037 0.014390 0.158831
-0.042983 0.014628 0.161382
-0.042966 0.014888 0.164170
-0.042814 0.015109 0.166537
-0.042998 0.015460 0.170323
-0.042969 0.015746 0.173393
-0.042728 0.015964 0.175708
-0.042488 0.016192 0.178124
-0.042496 0.016524 0.181697
-0.042485 0.016864 0.185339
-0.042417 0.017194 0.188880
-0.042619 0.017651 0.193803
-0.042447 0.017969 0.197204
-0.042027 0.018195 0.199587
-0.041871 0.018549 0.203364
-0.041430 0.018789 0.205904
-0.041201 0.019140 0.209650
-0.040977 0.019510 0.213606
-0.040944 0.019994 0.218792
-0.041005 0.020549 0.224765
-0.040826 0.021011 0.229714
-0.040489 0.021415 0.234022
-0.040132 0.021831 0.238464
-0.040014 0.022406 0.244627
-0.041227 0.023782 0.259547
-0.040027 0.023810 0.259732
-0.039233 0.024089 0.262664
-0.038457 0.024397 0.265914
-0.038083 0.024990 0.272268
-0.037260 0.025321 0.275764
-0.035291 0.024869 0.270725
-0.034705 0.025394 0.276335
-0.033406 0.025418 0.276493
-0.029923 0.023714 0.257859
-0.028585 0.023635 0.256911
-0.027535 0.023798 0.258594
-0.026247 0.023761 0.258104
-0.024961 0.023722 0.257605
-0.023815 0.023820 0.258582
-0.022509 0.023759 0.257844
-0.021259 0.023754 0.257716
-0.020148 0.023913 0.259369
-0.018723 0.023695 0.256939
-0.017332 0.023495 0.254700
-0.016808 0.024527 0.265823
-0.015499 0.024491 0.265376
-0.014222 0.024503 0.265446
0.001206 0.024670 0.266878
0.002490 0.024570 0.265793
0.003926 0.025521 0.276079
0.005264 0.025519 0.276057
0.006239 0.024113 0.260848
0.007419 0.023839 0.257899
0.008665 0.023826 0.257770
0.009945 0.023898 0.258561
0.011154 0.023800 0.257530
0.012390 0.023775 0.257283
0.013658 0.023812 0.257708
0.014951 0.023881 0.258485
0.016148 0.023797 0.257609
0.017469 0.023895 0.258716
0.018795 0.023988 0.259757
0.020325 0.024311 0.263301
0.021536 0.024237 0.262558
0.023878 0.025374 0.274930
0.025195 0.025358 0.274814
0.024747 0.023657 0.256437
0.025933 0.023606 0.255944
0.027130 0.023570 0.255615
0.028406 0.023601 0.256019
0.029609 0.023572 0.255775
0.030800 0.023536 0.255459
0.032077 0.023566 0.255857
0.033328 0.023575 0.256034
0.034549 0.023564 0.255988
0.035770 0.023552 0.255945
0.037000 0.023548 0.255982
0.038396 0.023646 0.257133
0.040325 0.024056 0.261677
0.041175 0.023816 0.259160
0.042194 0.023685 0.257834
0.043407 0.023668 0.257737
0.044551 0.023615 0.257260
0.045713 0.023575 0.256912
0.046769 0.023482 0.256005
0.048119 0.023539 0.256722
0.049305 0.023514 0.256553
0.050667 0.023573 0.257293
0.052136 0.023677 0.258535
0.053718 0.023827 0.260272
0.054834 0.023768 0.259729
0.056282 0.023852 0.260753
0.058301 0.024169 0.264323
0.060036 0.024357 0.266492
0.062108 0.024671 0.270038
0.063423 0.024678 0.270220
0.064601 0.024632 0.269828
0.065812 0.024600 0.269589
0.067112 0.024603 0.269723
0.068370 0.024590 0.269688
0.069519 0.024539 0.269234
0.070896 0.024568 0.269664
0.072372 0.024630 0.270453
0.073385 0.024536 0.269516
0.074262 0.024400 0.268125
0.075265 0.024309 0.267224
0.076356 0.024249 0.266665
0.077415 0.024181 0.266014
0.078166 0.024020 0.264341
0.079141 0.023933 0.263468
0.080337 0.023914 0.263349
0.081913 0.024007 0.264457
0.083367 0.024062 0.265146
0.084506 0.024025 0.264824
0.085755 0.024021 0.264855
0.087529 0.024161 0.266478
0.095966 0.026110 0.288055
0.097179 0.026067 0.287652
0.099978 0.026444 0.291887
0.100883 0.026316 0.290549
0.102296 0.026323 0.290687
0.103531 0.026284 0.290320
0.104816 0.026259 0.290098
0.106113 0.026238 0.289913
0.107776 0.026306 0.290714
0.108866 0.026234 0.289965
0.110225 0.026229 0.289937
0.111825 0.026280 0.290532
0.112803 0.026185 0.289510
0.116187 0.026326 0.291103
0.117815 0.026380 0.291702
0.118844 0.026299 0.290816
0.120259 0.026305 0.290877
0.121805 0.026339 0.291241
0.123264 0.026354 0.291386
0.124574 0.026337 0.291170
0.126056 0.026356 0.291346
0.127500 0.026367 0.291425
0.128835 0.026356 0.291246
0.130180 0.026346 0.291082
0.131331 0.026298 0.290485
0.133370 0.026427 0.291831
0.134650 0.026404 0.291494
0.135660 0.026330 0.290574
0.137239 0.026366 0.290869
0.138621 0.026364 0.290731
0.139894 0.026341 0.290356
0.141088 0.026304 0.289814
0.142456 0.026300 0.289623
0.143979 0.026324 0.289731
0.144870 0.026233 0.288564
0.146166 0.026217 0.288204
0.147231 0.026160 0.287383
0.149635 0.026340 0.289150
0.148625 0.025920 0.284330
-0.040754 0.009296 0.098394
-0.043169 0.009960 0.105415
-0.043046 0.010047 0.106329
-0.042851 0.010119 0.107078
-0.042405 0.010132 0.107212
-0.042380 0.010248 0.108424
-0.042002 0.010281 0.108748
-0.041576 0.010302 0.108953
-0.041478 0.010406 0.110032
-0.041484 0.010539 0.111414
-0.042523 0.010941 0.115641
-0.042795 0.011154 0.117860
-0.042685 0.011271 0.119070
-0.042451 0.011359 0.119962
-0.042295 0.011470 0.121100
-0.042242 0.011612 0.122563
-0.042186 0.011758 0.124060
-0.042075 0.011891 0.125432
-0.042189 0.012094 0.127522
-0.042573 0.012381 0.130500
-0.042707 0.012602 0.132785
-0.042634 0.012768 0.134482
-0.042518 0.012926 0.136092
-0.042283 0.013052 0.137365
-0.042179 0.013223 0.139108
-0.042039 0.013388 0.140786
-0.042255 0.013673 0.143728
-0.042566 0.013999 0.147091
-0.042777 0.014302 0.150215
-0.042864 0.014574 0.153001
-0.042979 0.014865 0.155980
-0.043051 0.015150 0.158906
-0.043108 0.015441 0.161880
-0.043031 0.015693 0.164448
-0.042936 0.015948 0.167041
-0.042881 0.016227 0.169886
-0.042809 0.016511 0.172776
-0.042592 0.016749 0.175181
-0.042555 0.017068 0.178438
-0.042412 0.017357 0.181374
-0.042268 0.017658 0.184430
-0.042083 0.017954 0.187430
-0.042333 0.018453 0.192543
-0.042404 0.018893 0.197046
-0.042115 0.019190 0.200048
-0.041765 0.019472 0.202891
-0.041315 0.019720 0.205375
-0.040895 0.019995 0.208138
-0.040597 0.020344 0.211675
-0.040504 0.020817 0.216494
-0.040879 0.021561 0.224129
-0.040917 0.022163 0.230282
-0.040666 0.022638 0.235106
-0.040176 0.023002 0.238786
-0.040066 0.023612 0.245011
-0.040213 0.024415 0.253228
-0.040018 0.025054 0.259743
-0.039253 0.025366 0.262867
-0.038670 0.025820 0.267461
-0.037937 0.026201 0.271298
-0.036963 0.026438 0.273641
-0.034859 0.025854 0.267487
-0.034394 0.026487 0.273938
-0.033408 0.026754 0.276591
-0.029778 0.024837 0.256682
-0.028637 0.024921 0.257454
-0.027460 0.024979 0.257966
-0.026187 0.024950 0.257587
-0.025011 0.025017 0.258194
-0.023794 0.025048 0.258431
-0.022466 0.024958 0.257427
-0.021169 0.024895 0.256700
-0.019875 0.024828 0.255942
-0.018651 0.024844 0.256038
-0.017363 0.024773 0.255242
-0.016613 0.025516 0.262833
-0.015350 0.025529 0.262909
-0.013993 0.025375 0.261269
0.001207 0.025945 0.266757
0.002503 0.025976 0.267074
0.003899 0.026669 0.274199
0.005228 0.026667 0.274177
0.006122 0.024897 0.255983
0.007392 0.024995 0.257000
0.008647 0.025020 0.257273
0.009910 0.025059 0.257685
0.011129 0.024991 0.257005
0.012376 0.024993 0.257059
0.013657 0.025057 0.257741
0.014894 0.025035 0.257545
0.016201 0.025126 0.258512
0.017479 0.025162 0.258921
0.018768 0.025208 0.259442
0.020131 0.025341 0.260854
0.021552 0.025527 0.262815
0.024003 0.026843 0.276424
0.025326 0.026826 0.276308
0.026646 0.026808 0.276185
0.025886 0.024799 0.255544
0.027153 0.024826 0.255884
0.028365 0.024803 0.255713
0.029580 0.024784 0.255585
0.030830 0.024794 0.255760
0.032081 0.024804 0.255944
0.033328 0.024812 0.256094
0.034582 0.024822 0.256284
0.035854 0.024846 0.256607
0.037107 0.024854 0.256779
0.038724 0.025098 0.259380
0.040562 0.025465 0.263268
0.041412 0.025209 0.260710
0.042289 0.024984 0.258469
0.043124 0.024747 0.256109
0.044459 0.024802 0.256779
0.045616 0.024758 0.256414
0.046664 0.024658 0.255479
0.047817 0.024618 0.255162
0.049111 0.024650 0.255593
0.050477 0.024716 0.256380
0.051931 0.024821 0.257569
0.053311 0.024886 0.258345
0.054804 0.025000 0.259631
0.056061 0.025004 0.259774
0.057577 0.025120 0.261089
0.059651 0.025470 0.264827
0.061897 0.025877 0.269163
0.063167 0.025867 0.269174
0.064470 0.025871 0.269325
0.065787 0.025881 0.269529
0.067130 0.025900 0.269837
0.068442 0.025906 0.270010
0.069580 0.025848 0.269506
0.070793 0.025819 0.269312
0.072026 0.025798 0.269198
0.072991 0.025684 0.268106
0.073954 0.025573 0.267046
0.075047 0.025510 0.266482
0.076023 0.025410 0.265535
0.076752 0.025231 0.263765
0.077649 0.025113 0.262624
0.078396 0.024951 0.261017
0.079449 0.024890 0.260464
0.080646 0.024875 0.260390
0.081898 0.024877 0.260496
0.083631 0.025024 0.262106
0.084035 0.024774 0.259564
0.085766 0.024916 0.261131
0.096488 0.027629 0.289646
0.097709 0.027584 0.289241
0.101632 0.028291 0.296733
0.100705 0.027648 0.290052
0.101523 0.027495 0.288507
0.103083 0.027544 0.289078
0.104963 0.027676 0.290520
0.106266 0.027654 0.290342
0.107463 0.027606 0.289881
0.108903 0.027620 0.290073
0.110319 0.027628 0.290192
0.111347 0.027540 0.289297
0.115921 0.027644 0.290439
0.117283 0.027638 0.290386
0.118620 0.027627 0.290266
0.119858 0.027593 0.289903
0.121636 0.027683 0.290833
0.122740 0.027620 0.290142
0.124474 0.027697 0.290929
0.125674 0.027655 0.290455
0.127246 0.027696 0.290835
0.128893 0.027751 0.291365
0.130045 0.027700 0.290767
0.131342 0.027681 0.290493
0.132989 0.027735 0.290980
0.134567 0.027773 0.291296
0.136054 0.027792 0.291398
0.137371 0.027776 0.291128
0.138631 0.027749 0.290728
0.140084 0.027761 0.290725
0.141423 0.027751 0.290476
0.142712 0.027730 0.290113
0.144236 0.027755 0.290218
0.145675 0.027764 0.290136
0.146777 0.027709 0.289374
0.148291 0.027731 0.289415
0.149701 0.027734 0.289237
0.151194 0.027753 0.289204
-0.042675 0.010220 0.103033
-0.042261 0.010237 0.103201
-0.042370 0.010382 0.104662
-0.042328 0.010494 0.105776
-0.042606 0.010688 0.107723
-0.042315 0.010743 0.108261
-0.042119 0.010823 0.109054
-0.042031 0.010934 0.110150
-0.042191 0.011113 0.111928
-0.042425 0.011316 0.113949
-0.042471 0.011473 0.115506
-0.042295 0.011573 0.116490
-0.042183 0.011695 0.117681
-0.041992 0.011796 0.118673
-0.042394 0.012070 0.121392
-0.042481 0.012260 0.123270
-0.042522 0.012442 0.125059
-0.042252 0.012537 0.125971
-0.042306 0.012732 0.127891
-0.042670 0.013028 0.130811
-0.042664 0.013217 0.132664
-0.042398 0.013330 0.133753
-0.042187 0.013465 0.135051
-0.042076 0.013635 0.136710
-0.042075 0.013848 0.138785
-0.042140 0.014089 0.141143
-0.042347 0.014386 0.144060
-0.042316 0.014611 0.146251
-0.042472 0.014909 0.149165
-0.042503 0.015172 0.151735
-0.042774 0.015532 0.155262
-0.042991 0.015884 0.158712
-0.042906 0.016135 0.161147
-0.042964 0.016450 0.164221
-0.042847 0.016708 0.166723
-0.042828 0.017015 0.169709
-0.042803 0.017332 0.172784
-0.042590 0.017583 0.175205
-0.042402 0.017855 0.177830
-0.042268 0.018161 0.180794
-0.042007 0.018424 0.183325
-0.041928 0.018780 0.186778
-0.042261 0.019340 0.192253
-0.042300 0.019787 0.196607
-0.042018 0.020101 0.199633
-0.041712 0.020417 0.202677
-0.041190 0.020641 0.204804
-0.040858 0.020973 0.208000
-0.040531 0.021324 0.211380
-0.040510 0.021858 0.216579
-0.041937 0.023222 0.229987
-0.040887 0.023251 0.230173
-0.040563 0.023706 0.234569
-0.040320 0.024236 0.239703
-0.041336 0.025576 0.252843
-0.040170 0.025605 0.253028
-0.039885 0.026216 0.258951
-0.039145 0.026558 0.262215
-0.038535 0.027013 0.266600
-0.037899 0.027481 0.271107
-0.037233 0.027959 0.275715
-0.035265 0.027459 0.270685
-0.034492 0.027887 0.274797
-0.033383 0.028067 0.276464
-0.029339 0.025691 0.252974
-0.028111 0.025683 0.252803
-0.027000 0.025785 0.253725
-0.025703 0.025712 0.252916
-0.024428 0.025654 0.252264
-0.023775 0.026277 0.258311
-0.021889 0.025531 0.250904
-0.020653 0.025500 0.250529
-0.019407 0.025452 0.249993
-0.018232 0.025499 0.250384
-0.017411 0.026081 0.256037
-0.016817 0.027118 0.266153
-0.015538 0.027132 0.266230
-0.014257 0.027144 0.266300
0.001216 0.027428 0.268704
0.002518 0.027428 0.268695
0.003893 0.027946 0.273773
0.005301 0.028378 0.278007
0.006252 0.026688 0.261453
0.007363 0.026132 0.256015
0.008602 0.026125 0.255962
0.009850 0.026146 0.256180
0.011099 0.026163 0.256366
0.012350 0.026180 0.256561
0.013596 0.026185 0.256635
0.014864 0.026228 0.257082
0.016147 0.026289 0.257714
0.017452 0.026373 0.258581
0.018728 0.026405 0.258936
0.020108 0.026571 0.260610
0.021489 0.026719 0.262108
0.023884 0.028041 0.275125
0.025201 0.028023 0.275009
0.026515 0.028004 0.274888
0.025828 0.025975 0.255030
0.027193 0.026101 0.256326
0.028356 0.026029 0.255687
0.029579 0.026017 0.255637
0.030825 0.026025 0.255785
0.032061 0.026024 0.255845
0.033450 0.026143 0.257090
0.034684 0.026136 0.257100
0.036101 0.026263 0.258431
0.037426 0.026316 0.259041
0.038599 0.026263 0.258604
0.039994 0.026359 0.259636
0.041217 0.026340 0.259535
0.042122 0.026125 0.257505
0.043134 0.025986 0.256225
0.044570 0.026103 0.257474
0.045454 0.025899 0.255556
0.046495 0.025793 0.254608
0.047515 0.025681 0.253602
0.048786 0.025707 0.253953
0.050136 0.025773 0.254698
0.051425 0.025804 0.255108
0.052775 0.025864 0.255800
0.054143 0.025929 0.256549
0.055788 0.026122 0.258556
0.057535 0.026353 0.260943
0.059470 0.026658 0.264067
0.061439 0.026965 0.267221
0.063003 0.027086 0.268522
0.064373 0.027120 0.268965
0.065683 0.027127 0.269147
0.067003 0.027139 0.269368
0.068276 0.027131 0.269394
0.069485 0.027099 0.269179
0.070638 0.027046 0.268759
0.071566 0.026911 0.267513
0.072749 0.026874 0.267251
0.073754 0.026775 0.266359
0.074792 0.026690 0.265612
0.075645 0.026543 0.264246
0.076517 0.026408 0.262990
0.077435 0.026292 0.261929
0.078149 0.026112 0.260222
0.079041 0.025996 0.259153
0.080038 0.025918 0.258456
0.081326 0.025935 0.258703
0.082241 0.025834 0.257772
0.083478 0.025836 0.257865
0.084708 0.025835 0.257930
0.085532 0.025713 0.256777
0.099042 0.029354 0.293207
0.100276 0.029305 0.292793
0.100837 0.029064 0.290450
0.102256 0.029074 0.290606
0.103626 0.029069 0.290618
0.105006 0.029067 0.290653
0.106167 0.029006 0.290084
0.107344 0.028950 0.289571
0.108799 0.028970 0.289805
0.110210 0.028977 0.289915
0.112020 0.029088 0.291053
0.113690 0.029160 0.291797
0.114861 0.029105 0.291254
0.116073 0.029060 0.290820
0.117546 0.029082 0.291038
0.118730 0.029032 0.290535
0.120406 0.029102 0.291228
0.121920 0.029131 0.291508
0.123152 0.029094 0.291110
0.124387 0.029058 0.290717
0.125679 0.029036 0.290458
0.127305 0.029090 0.290958
0.128815 0.029118 0.291177
0.130161 0.029107 0.291012
0.131344 0.029062 0.290482
0.132901 0.029098 0.290771
0.134441 0.029131 0.291004
0.135933 0.029152 0.291118
0.137223 0.029130 0.290790
0.138721 0.029152 0.290893
0.139952 0.029118 0.290426
0.141505 0.029151 0.290615
0.143180 0.029209 0.291034
0.144287 0.029150 0.290287
0.146723 0.029358 0.292187
0.147890 0.029311 0.291531
0.149094 0.029272 0.290942
0.150506 0.029274 0.290751
0.151599 0.029215 0.289935
-0.042263 0.010723 0.103206
-0.042124 0.010812 0.104055
-0.042366 0.011002 0.105872
-0.042456 0.011157 0.107348
-0.042300 0.011249 0.108226
-0.041981 0.011301 0.108703
-0.041725 0.011370 0.109354
-0.041766 0.011523 0.110807
-0.041927 0.011714 0.112617
-0.042156 0.011929 0.114658
-0.041840 0.011993 0.115245
-0.041614 0.012085 0.116102
-0.041707 0.012273 0.117879
-0.042300 0.012615 0.121133
-0.042635 0.012889 0.123726
-0.042712 0.013092 0.125631
-0.042551 0.013226 0.126878
-0.042512 0.013402 0.128527
-0.042640 0.013637 0.130734
-0.042643 0.013838 0.132616
-0.042407 0.013967 0.133798
-0.042302 0.014142 0.135433
-0.042137 0.014304 0.136926
-0.042241 0.014563 0.139350
-0.042133 0.014756 0.141139
-0.042294 0.015051 0.143901
-0.042078 0.015219 0.145450
-0.042328 0.015564 0.148683
-0.042551 0.015911 0.151931
-0.042743 0.016257 0.155175
-0.043073 0.016670 0.159041
-0.043090 0.016974 0.161869
-0.042951 0.017226 0.164198
-0.042887 0.017518 0.166911
-0.042696 0.017769 0.169218
-0.042643 0.018087 0.172170
-0.042377 0.018326 0.174366
-0.042234 0.018629 0.177164
-0.042286 0.019032 0.180908
-0.042387 0.019474 0.185023
-0.042259 0.019827 0.188292
-0.042345 0.020299 0.192679
-0.042198 0.020677 0.196175
-0.041873 0.020983 0.198989
-0.041485 0.021271 0.201623
-0.041098 0.021573 0.204391
-0.040638 0.021851 0.206931
-0.040270 0.022193 0.210073
-0.040428 0.022850 0.216191
-0.041963 0.024340 0.230188
-0.040912 0.024371 0.230373
-0.040610 0.024861 0.234906
-0.040446 0.025467 0.240520
-0.040190 0.026048 0.245900
-0.040165 0.026818 0.253066
-0.039861 0.027445 0.258870
-0.039364 0.027975 0.263760
-0.038524 0.028288 0.266602
-0.037996 0.028860 0.271878
-0.037213 0.029271 0.275649
-0.034816 0.028398 0.267319
-0.034223 0.028985 0.272740
-0.033356 0.029377 0.276331
0.002561 0.029202 0.273194
0.003885 0.029200 0.273179
0.005298 0.029702 0.277869
0.006643 0.029698 0.277840
0.007377 0.027419 0.256532
0.008632 0.027458 0.256909
0.009897 0.027513 0.257440
0.011089 0.027378 0.256190
0.012361 0.027445 0.256840
0.013626 0.027487 0.257263
0.014830 0.027408 0.256554
0.016105 0.027462 0.257094
0.017388 0.027522 0.257693
0.018644 0.027533 0.257839
0.019982 0.027658 0.259047
0.021466 0.027956 0.261887
0.022720 0.027939 0.261782
0.038621 0.028445 0.267376
0.039872 0.028417 0.267195
0.041260 0.028484 0.267922
0.042254 0.028284 0.266129
0.042771 0.027786 0.261529
0.043028 0.027152 0.255655
0.044283 0.027165 0.255875
0.045277 0.027022 0.254619
0.046381 0.026951 0.254038
0.047465 0.026871 0.253384
0.048724 0.026893 0.253683
0.049981 0.026912 0.253957
0.051162 0.026890 0.253854
0.052592 0.026997 0.254963
0.053876 0.027026 0.255334
0.055314 0.027129 0.256406
0.057105 0.027397 0.259043
0.059334 0.027859 0.263515
0.061433 0.028242 0.267240
0.063057 0.028395 0.268796
0.064378 0.028409 0.269028
0.065747 0.028443 0.269454
0.067055 0.028449 0.269618
0.068351 0.028450 0.269733
0.069664 0.028458 0.269914
0.070709 0.028359 0.269070
0.071693 0.028238 0.268027
0.072667 0.028118 0.266988
0.073847 0.028081 0.266732
0.074577 0.027877 0.264884
0.075436 0.027726 0.263548
0.076003 0.027476 0.261254
0.077038 0.027399 0.260615
0.077885 0.027260 0.259373
0.078744 0.027128 0.258208
0.079605 0.027002 0.257082
0.081220 0.027131 0.258390
0.082040 0.026994 0.257166
0.083155 0.026958 0.256889
0.084909 0.027126 0.258566
0.085567 0.026945 0.256901
0.097903 0.030394 0.289855
0.099122 0.030344 0.289446
0.100729 0.030412 0.290160
0.102304 0.030468 0.290761
0.103696 0.030470 0.290830
0.104986 0.030442 0.290611
0.106218 0.030398 0.290237
0.107539 0.030380 0.290107
0.108914 0.030377 0.290122
0.110336 0.030388 0.290253
0.111763 0.030399 0.290390
0.113198 0.030413 0.290539
0.114574 0.030410 0.290530
0.115923 0.030401 0.290446
0.117284 0.030395 0.290388
0.118536 0.030360 0.290057
0.119829 0.030338 0.289828
0.121357 0.030374 0.290158
0.122651 0.030352 0.289917
0.124102 0.030368 0.290044
0.125642 0.030406 0.290362
0.127131 0.030430 0.290549
0.128761 0.030488 0.291040
0.130235 0.030507 0.291163
0.131521 0.030483 0.290856
0.133218 0.030553 0.291445
0.134771 0.030589 0.291698
0.135922 0.030534 0.291071
0.137237 0.030517 0.290796
0.138732 0.030539 0.290889
0.139983 0.030508 0.290461
0.141311 0.030494 0.290186
0.143944 0.030759 0.292554
0.145205 0.030729 0.292099
0.146628 0.030733 0.291961
0.148034 0.030734 0.291775
0.149345 0.030715 0.291392
0.150463 0.030656 0.290624
0.151605 0.030604 0.289901
-0.043024 0.011282 0.103878
-0.042607 0.011301 0.104047
-0.042574 0.011423 0.105167
-0.042696 0.011591 0.106699
-0.042634 0.011712 0.107802
-0.042302 0.011760 0.108236
-0.041949 0.011804 0.108625
-0.041760 0.011896 0.109449
-0.041769 0.012047 0.110819
-0.042051 0.012281 0.112955
-0.042148 0.012467 0.114643
-0.041945 0.012568 0.115544
-0.041550 0.012613 0.115930
-0.041423 0.012742 0.117084
-0.041859 0.013050 0.119880
-0.042714 0.013499 0.123967
-0.043068 0.013799 0.126691
-0.042597 0.013840 0.127027
-0.042394 0.013971 0.128183
-0.042573 0.014233 0.130543
-0.042625 0.014459 0.132574
-0.042375 0.014589 0.133714
-0.042287 0.014779 0.135404
-0.042125 0.014948 0.136904
-0.042168 0.015197 0.139129
-0.042195 0.015447 0.141367
-0.042315 0.015741 0.143994
-0.042125 0.015927 0.145632
-0.042132 0.016194 0.148019
-0.042386 0.016568 0.151366
-0.043028 0.017108 0.156235
-0.043345 0.017536 0.160073
-0.043213 0.017794 0.162359
-0.043003 0.018029 0.164430
-0.042892 0.018315 0.166961
-0.042617 0.018540 0.168939
-0.042479 0.018835 0.171544
-0.042228 0.019090 0.173785
-0.042395 0.019548 0.177875
-0.042359 0.019929 0.181262
-0.042398 0.020362 0.185114
-0.042297 0.020745 0.188505
-0.042170 0.021131 0.191926
-0.042045 0.021536 0.195512
-0.041884 0.021940 0.199086
-0.041409 0.022195 0.201303
-0.041037 0.022518 0.204142
-0.040527 0.022779 0.206415
-0.040016 0.023053 0.208802
-0.040044 0.023660 0.214198
-0.042098 0.025526 0.230991
-0.041044 0.025558 0.231177
-0.040849 0.026142 0.236352
-0.040536 0.026681 0.241122
-0.040208 0.027242 0.246082
-0.040318 0.028142 0.254107
-0.039869 0.028696 0.258999
-0.039242 0.029153 0.263016
-0.038487 0.029543 0.266426
-0.038204 0.030334 0.273455
-0.037425 0.030774 0.277309
-0.035261 0.030065 0.270821
-0.034465 0.030513 0.274753
0.001203 0.029643 0.265395
0.002488 0.029643 0.265386
0.003871 0.030406 0.272219
0.005300 0.031051 0.277994
0.006266 0.029277 0.262116
0.007380 0.028669 0.256682
0.008629 0.028690 0.256875
0.009898 0.028760 0.257523
0.011119 0.028692 0.256935
0.012373 0.028715 0.257161
0.013658 0.028797 0.257920
0.014903 0.028790 0.257887
0.016199 0.028873 0.258669
0.017454 0.028876 0.258729
0.018748 0.028941 0.259350
0.020029 0.028977 0.259718
0.021365 0.029084 0.260722
0.022520 0.028946 0.259535
0.037919 0.029193 0.262582
0.038961 0.029025 0.261151
0.040470 0.029204 0.262851
0.042622 0.029822 0.268508
0.043166 0.029312 0.264004
0.043242 0.028523 0.256983
0.044047 0.028244 0.254564
0.045166 0.028177 0.254048
0.046411 0.028190 0.254258
0.047512 0.028117 0.253692
0.048817 0.028165 0.254222
0.050091 0.028193 0.254574
0.051385 0.028231 0.255011
0.052738 0.028299 0.255723
0.053943 0.028286 0.255702
0.055330 0.028366 0.256532
0.056628 0.028399 0.256926
0.059091 0.029002 0.262483
0.061599 0.029601 0.268011
0.063188 0.029744 0.269403
0.064382 0.029698 0.269094
0.065682 0.029702 0.269234
0.067086 0.029752 0.269790
0.068356 0.029742 0.269797
0.069700 0.029763 0.270095
0.070818 0.029689 0.269525
0.071877 0.029594 0.268755
0.072518 0.029332 0.266479
0.073825 0.029345 0.266688
0.074727 0.029198 0.265451
0.075115 0.028860 0.262461
0.075245 0.028434 0.258680
0.076602 0.028479 0.259173
0.077433 0.028329 0.257897
0.078171 0.028151 0.256357
0.079494 0.028186 0.256753
0.080682 0.028172 0.256703
0.082098 0.028238 0.257374
0.083074 0.028152 0.256663
0.084402 0.028186 0.257042
0.085994 0.028307 0.258205
0.098352 0.031917 0.291209
0.099579 0.031865 0.290798
0.100698 0.031780 0.290087
0.102168 0.031807 0.290390
0.103566 0.031811 0.290482
0.104797 0.031764 0.290102
0.106044 0.031723 0.289773
0.107237 0.031667 0.289302
0.108850 0.031735 0.289959
0.110415 0.031788 0.290468
0.112138 0.031884 0.291372
0.113316 0.031825 0.290847
0.114661 0.031813 0.290752
0.116002 0.031801 0.290645
0.117192 0.031748 0.290160
0.118587 0.031751 0.290181
0.119803 0.031706 0.289761
0.121233 0.031719 0.289855
0.122556 0.031703 0.289687
0.123483 0.031587 0.288588
0.125115 0.031651 0.289133
0.126781 0.031722 0.289737
0.128643 0.031841 0.290759
0.130345 0.031917 0.291391
0.131687 0.031905 0.291205
0.133020 0.031891 0.290990
0.134500 0.031912 0.291087
0.135852 0.031902 0.290898
0.137283 0.031911 0.290865
0.138625 0.031900 0.290636
0.139752 0.031839 0.289951
0.142432 0.032130 0.292453
0.143951 0.032156 0.292534
0.145428 0.032172 0.292511
0.146823 0.032170 0.292309
0.148003 0.032121 0.291671
0.149323 0.032103 0.291303
0.150603 0.032077 0.290849
0.151608 0.031993 0.289857
-0.040723 0.011142 0.098324
-0.042979 0.011894 0.104958
-0.042780 0.011977 0.105680
-0.042664 0.012085 0.106623
-0.042437 0.012163 0.107306
-0.042212 0.012244 0.108010
-0.041838 0.012284 0.108341
-0.041693 0.012392 0.109280
-0.041774 0.012571 0.110839
-0.041717 0.012712 0.112066
-0.042017 0.012968 0.114292
-0.040950 0.012802 0.112811
-0.040707 0.012894 0.113589
-0.041508 0.013322 0.117335
-0.042507 0.013827 0.121746
-0.042928 0.014155 0.124601
-0.042615 0.014247 0.125369
-0.042570 0.014432 0.126960
-0.042633 0.014659 0.128921
-0.042748 0.014911 0.131094
-0.042566 0.015066 0.132408
-0.042239 0.015173 0.133301
-0.042041 0.015330 0.134634
-0.042030 0.015562 0.136616
-0.042133 0.015843 0.139033
-0.042351 0.016177 0.141910
-0.042304 0.016420 0.143980
-0.042230 0.016659 0.146019
-0.042182 0.016917 0.148218
-0.042366 0.017278 0.151321
-0.042860 0.017781 0.155655
-0.043285 0.018271 0.159882
-0.043350 0.018625 0.162905
-0.043030 0.018823 0.164562
-0.042812 0.019074 0.166682
-0.042628 0.019349 0.169014
-0.042394 0.019613 0.171237
-0.042289 0.019947 0.174074
-0.042233 0.020318 0.177235
-0.042488 0.020857 0.181853
-0.042391 0.021242 0.185123
-0.042110 0.021549 0.187716
-0.042220 0.022075 0.192201
-0.042046 0.022471 0.195565
