ply
format ascii 1.0
element vertex 1744
property float x
property float y
property float z
end_header
0.065266 0.048692 0.268336
0.066662 0.048775 0.268869
0.068018 0.048827 0.269231
0.069188 0.048744 0.268853
0.070427 0.048714 0.268757
0.071593 0.048633 0.268387
0.072134 0.048140 0.265732
0.072884 0.047800 0.263925
0.073835 0.047600 0.262890
0.074800 0.047417 0.261944
0.075267 0.046929 0.259310
0.076001 0.046620 0.257662
0.077009 0.046487 0.256983
0.078000 0.046348 0.256267
0.079109 0.046283 0.255956
0.080160 0.046185 0.255465
0.081346 0.046167 0.255411
0.082584 0.046179 0.255519
0.083531 0.046030 0.254735
0.084716 0.046014 0.254685
0.086292 0.046208 0.255792
0.097364 0.051411 0.284628
0.101541 0.052880 0.292790
0.102129 0.052466 0.290523
0.103325 0.052371 0.290016
0.104814 0.052424 0.290328
0.106081 0.052367 0.290023
0.107276 0.052276 0.289525
0.108631 0.052265 0.289460
0.109952 0.052237 0.289303
0.111298 0.052222 0.289207
0.112573 0.052174 0.288925
0.114304 0.052336 0.289800
0.115539 0.052270 0.289403
0.117036 0.052322 0.289657
0.118633 0.052418 0.290143
0.119843 0.052342 0.289671
0.121304 0.052376 0.289802
0.122735 0.052397 0.289852
0.124003 0.052348 0.289509
0.125389 0.052349 0.289435
0.126885 0.052396 0.289605
0.128484 0.052484 0.289993
0.129975 0.052526 0.290118
0.131257 0.052484 0.289770
0.132641 0.052483 0.289638
0.134518 0.052675 0.290562
0.135777 0.052623 0.290130
0.137045 0.052576 0.289715
0.138656 0.052660 0.290011
0.140007 0.052645 0.289746
0.141356 0.052629 0.289469
0.143404 0.052871 0.290597
0.144817 0.052876 0.290412
0.146272 0.052897 0.290296
0.147784 0.052937 0.290276
0.149525 0.053058 0.290684
0.151422 0.053232 0.291363
0.152564 0.053139 0.290569
-0.043319 0.019032 0.103381
-0.042898 0.019061 0.103551
-0.043162 0.019399 0.105393
-0.042378 0.019267 0.104686
-0.040986 0.018853 0.102442
-0.041372 0.020736 0.112646
-0.040907 0.020769 0.112810
-0.040695 0.020933 0.113688
-0.039924 0.020809 0.113002
-0.039506 0.020869 0.113309
-0.041761 0.022362 0.121396
-0.041254 0.022397 0.121562
-0.040940 0.022539 0.122309
-0.040602 0.022671 0.123001
-0.040073 0.022700 0.123129
-0.039726 0.022834 0.123826
-0.039565 0.023080 0.125132
-0.042140 0.024954 0.135257
-0.041566 0.024992 0.135427
-0.041768 0.025506 0.138171
-0.041798 0.025929 0.140421
-0.042126 0.026553 0.143758
-0.042153 0.027005 0.146160
-0.042145 0.027449 0.148518
-0.042190 0.027943 0.151144
-0.041905 0.028232 0.152657
-0.041710 0.028593 0.154555
-0.041760 0.029137 0.157447
-0.041889 0.029758 0.160744
-0.042189 0.030525 0.164831
-0.042375 0.031237 0.168617
-0.042143 0.031663 0.170853
-0.042168 0.032301 0.174235
-0.042095 0.032890 0.177344
-0.041993 0.033478 0.180451
-0.041830 0.034042 0.183422
-0.041809 0.034748 0.187156
-0.041905 0.035583 0.191585
-0.041965 0.036425 0.196042
-0.042089 0.037361 0.201006
-0.041743 0.037914 0.203907
-0.041641 0.038721 0.208166
-0.045156 0.043012 0.231149
-0.044110 0.043063 0.231341
-0.043130 0.043184 0.231907
-0.042308 0.043474 0.233376
-0.042361 0.044703 0.239884
-0.041801 0.045336 0.243193
-0.040838 0.045554 0.244278
-0.039964 0.045888 0.245981
-0.039304 0.046495 0.249149
-0.038963 0.047529 0.254601
-0.039017 0.052509 0.280996
-0.038106 0.053110 0.284121
-0.036079 0.052144 0.278863
-0.034410 0.051641 0.276087
-0.033118 0.051684 0.276237
-0.029406 0.047800 0.255401
-0.028321 0.048032 0.256569
-0.027143 0.048123 0.256982
-0.026031 0.048343 0.258089
-0.024814 0.048382 0.258230
-0.025021 0.051347 0.273982
-0.023723 0.051380 0.274091
-0.022498 0.051585 0.275120
-0.021124 0.051452 0.274352
-0.019720 0.051224 0.273077
-0.018386 0.051160 0.272676
-0.017065 0.051124 0.272432
-0.015482 0.050231 0.267625
-0.014457 0.051153 0.272490
-0.013153 0.051173 0.272553
-0.011148 0.048168 0.256505
-0.009894 0.048065 0.255921
-0.008678 0.048139 0.256283
-0.007451 0.048176 0.256451
-0.006225 0.048229 0.256704
-0.004994 0.048265 0.256873
-0.003761 0.048298 0.257027
-0.002533 0.048443 0.257779
-0.001293 0.048474 0.257928
-0.000053 0.048514 0.258128
0.001193 0.048671 0.258954
0.002453 0.048945 0.260402
0.003709 0.048982 0.260594
0.007406 0.048550 0.258304
0.008586 0.048198 0.256438
0.009829 0.048240 0.256673
0.011043 0.048146 0.256189
0.012285 0.048180 0.256387
0.013528 0.048212 0.256578
0.014769 0.048234 0.256716
0.016018 0.048272 0.256945
0.017279 0.048341 0.257340
0.018552 0.048432 0.257855
0.019964 0.048852 0.260126
0.021270 0.048976 0.260819
0.023103 0.050235 0.267564
0.024294 0.050036 0.266547
0.025659 0.050197 0.267452
0.026592 0.049540 0.264000
0.027927 0.049656 0.264664
0.029156 0.049582 0.264320
0.030105 0.049059 0.261585
0.031226 0.048845 0.260502
0.032527 0.048919 0.260954
0.033912 0.049109 0.262023
0.035193 0.049139 0.262248
0.036466 0.049157 0.262406
0.037932 0.049426 0.263907
0.039185 0.049407 0.263874
0.040422 0.049372 0.263752
0.041533 0.049189 0.262842
0.042800 0.049195 0.262944
0.043871 0.048983 0.261883
0.044558 0.048365 0.258651
0.045159 0.047689 0.255108
0.046315 0.047620 0.254811
0.047424 0.047508 0.254281
0.048427 0.047297 0.253228
0.049614 0.047273 0.253170
0.050851 0.047295 0.253362
0.052233 0.047448 0.254259
0.053475 0.047471 0.254453
0.054809 0.047571 0.255067
0.056305 0.047805 0.256394
0.058195 0.048356 0.259428
0.060776 0.049447 0.265355
0.062647 0.049926 0.268006
0.063956 0.049948 0.268201
0.065316 0.050009 0.268601
0.066708 0.050090 0.269113
0.068026 0.050113 0.269314
0.069267 0.050081 0.269212
0.070508 0.050049 0.269113
0.071680 0.049970 0.268763
0.072305 0.049520 0.266409
0.073143 0.049228 0.264904
0.074105 0.049028 0.263895
0.075050 0.048825 0.262860
0.075145 0.048083 0.258926
0.075962 0.047820 0.257567
0.076793 0.047574 0.256297
0.077782 0.047432 0.255584
0.079020 0.047444 0.255695
0.080307 0.047484 0.255961
0.081621 0.047539 0.256301
0.083241 0.047768 0.257574
0.084479 0.047774 0.257647
0.086357 0.048137 0.259637
0.087463 0.048065 0.259280
0.099527 0.053933 0.290967
0.100761 0.053852 0.290557
0.102018 0.053785 0.290216
0.103613 0.053895 0.290831
0.104890 0.053840 0.290547
0.106129 0.053766 0.290157
0.107459 0.053740 0.290018
0.108762 0.053702 0.289808
0.110011 0.053638 0.289453
0.111738 0.053805 0.290342
0.112993 0.053744 0.289992
0.113943 0.053541 0.288871
0.115668 0.053702 0.289710
0.116934 0.053650 0.289387
0.118343 0.053663 0.289412
0.119755 0.053677 0.289435
0.120371 0.053338 0.287546
0.121696 0.053317 0.287368
0.124937 0.054127 0.291656
0.126424 0.054167 0.291788
0.127543 0.054051 0.291068
0.128800 0.053995 0.290663
0.130128 0.053969 0.290413
0.131426 0.053931 0.290092
0.132614 0.053850 0.289525
0.134353 0.053992 0.290148
0.135592 0.053932 0.289675
0.137102 0.053979 0.289772
0.138916 0.054145 0.290487
0.140395 0.054177 0.290479
0.141497 0.054065 0.289682
0.143338 0.054234 0.290384
0.145033 0.054346 0.290762
0.146178 0.054251 0.290022
0.147870 0.054359 0.290355
0.149779 0.054544 0.291083
0.151459 0.054643 0.291333
0.152985 0.054685 0.291268
-0.043077 0.019631 0.103977
-0.043035 0.019837 0.105079
-0.042165 0.019662 0.104158
-0.041739 0.019692 0.104323
-0.041243 0.020933 0.110889
-0.040785 0.020966 0.111052
-0.041341 0.021527 0.114014
-0.041016 0.021638 0.114591
-0.040871 0.021849 0.115689
-0.040506 0.021946 0.116187
-0.040685 0.022344 0.118279
-0.040703 0.022664 0.119951
-0.040446 0.022838 0.120847
-0.040265 0.023060 0.121996
-0.040069 0.023280 0.123133
-0.039813 0.023470 0.124115
-0.039419 0.023584 0.124686
-0.039643 0.024077 0.127261
-0.039895 0.024603 0.130004
-0.041126 0.025757 0.136070
-0.041576 0.026451 0.139698
-0.042375 0.027394 0.144633
-0.042293 0.027789 0.146675
-0.042285 0.028246 0.149041
-0.042226 0.028684 0.151304
-0.041943 0.028982 0.152829
-0.041859 0.029430 0.155144
-0.041777 0.029896 0.157546
-0.041751 0.030420 0.160253
-0.041841 0.031049 0.163512
-0.042305 0.031985 0.168383
-0.042166 0.032492 0.170993
-0.042090 0.033068 0.173963
-0.041900 0.033576 0.176573
-0.042108 0.034431 0.181000
-0.042082 0.035125 0.184583
-0.042056 0.035848 0.188316
-0.041974 0.036555 0.191958
-0.042066 0.037448 0.196577
-0.042253 0.038469 0.201859
-0.041084 0.038272 0.200755
-0.041381 0.039465 0.206938
-0.044906 0.043869 0.229947
-0.043308 0.043365 0.227220
-0.043391 0.044560 0.233396
-0.043098 0.045422 0.237827
-0.042340 0.045826 0.239857
-0.041613 0.046289 0.242194
-0.040746 0.046617 0.243826
-0.039941 0.047038 0.245938
-0.039308 0.047692 0.249275
-0.038810 0.048556 0.253705
-0.038421 0.049618 0.259166
-0.038949 0.053762 0.280626
-0.037845 0.054100 0.282302
-0.036155 0.053594 0.279573
-0.034981 0.053845 0.280798
-0.033667 0.053890 0.280949
-0.031024 0.051725 0.269585
-0.029779 0.051802 0.269911
-0.028448 0.051732 0.269468
-0.027119 0.051657 0.269006
-0.025841 0.051677 0.269044
-0.023770 0.052805 0.274782
-0.022467 0.052837 0.274885
-0.021095 0.052701 0.274117
-0.019692 0.052468 0.272843
-0.018360 0.052401 0.272442
-0.017041 0.052364 0.272198
-0.015451 0.051421 0.267247
-0.014524 0.052713 0.273911
-0.013214 0.052733 0.273973
-0.011145 0.049396 0.256595
-0.009909 0.049379 0.256472
-0.008698 0.049500 0.257068
-0.007460 0.049485 0.256957
-0.006225 0.049482 0.256916
-0.005000 0.049573 0.257366
-0.003766 0.049620 0.257588
-0.002531 0.049687 0.257917
-0.001292 0.049733 0.258139
-0.000051 0.049805 0.258499
0.001195 0.049897 0.258969
0.002453 0.050153 0.260289
0.003695 0.050014 0.259563
0.007395 0.049707 0.257978
0.008607 0.049539 0.257113
0.009837 0.049502 0.256931
0.011065 0.049466 0.256761
0.012311 0.049509 0.256999
0.013561 0.049561 0.257290
0.014813 0.049608 0.257554
0.016062 0.049639 0.257740
0.017341 0.049752 0.258352
0.018605 0.049810 0.258684
0.019921 0.049988 0.259641
0.021237 0.050148 0.260509
0.022862 0.050978 0.264861
0.024230 0.051178 0.265941
0.025416 0.050991 0.265015
0.026536 0.050696 0.263526
0.027637 0.050395 0.262010
0.028748 0.050136 0.260711
0.029949 0.050050 0.260319
0.031005 0.049738 0.258745
0.032252 0.049743 0.258829
0.033617 0.049924 0.259827
0.034986 0.050098 0.260793
0.036401 0.050323 0.262027
0.037762 0.050460 0.262805
0.039107 0.050570 0.263439
0.040354 0.050548 0.263391
0.041412 0.050298 0.262157
0.042762 0.050407 0.262796
0.043868 0.050231 0.261945
0.044533 0.049572 0.258581
0.045093 0.048837 0.254815
0.046301 0.048822 0.254808
0.047350 0.048645 0.253957
0.048355 0.048434 0.252926
0.049595 0.048462 0.253145
0.050851 0.048504 0.253432
0.052138 0.048573 0.253864
0.053468 0.048677 0.254484
0.054866 0.048838 0.255395
0.056190 0.048927 0.255937
0.058140 0.049545 0.259244
0.060550 0.050522 0.264432
0.062464 0.051054 0.267287
0.063822 0.051118 0.267699
0.065187 0.051186 0.268128
0.066599 0.051286 0.268727
0.067924 0.051317 0.268964
0.069230 0.051334 0.269120
0.070460 0.051294 0.268983
0.071573 0.051172 0.268411
0.072237 0.050738 0.266204
0.073202 0.050528 0.265165
0.074172 0.050328 0.264175
0.075036 0.050064 0.262850
0.075236 0.049373 0.259278
0.075821 0.048952 0.257123
0.076723 0.048746 0.256094
0.077781 0.048644 0.255611
0.078982 0.048633 0.255600
0.079917 0.048462 0.254746
0.081303 0.048565 0.255326
0.082626 0.048627 0.255693
0.083715 0.048553 0.255337
0.085113 0.048657 0.255915
0.086398 0.048694 0.256138
0.099895 0.055517 0.292058
0.101135 0.055434 0.291646
0.102137 0.055225 0.290567
0.103191 0.055049 0.289654
0.104839 0.055190 0.290409
0.105982 0.055065 0.289756
0.107275 0.055021 0.289522
0.108704 0.055046 0.289649
0.109951 0.054979 0.289288
0.111690 0.055158 0.290210
0.113071 0.055157 0.290182
0.114347 0.055105 0.289881
0.115680 0.055082 0.289723
0.117148 0.055123 0.289896
0.118721 0.055211 0.290311
0.120265 0.055285 0.290641
0.121771 0.055339 0.290862
0.123079 0.055303 0.290600
0.124573 0.055350 0.290770
0.126451 0.055565 0.291812
0.128253 0.055743 0.292645
0.129288 0.055586 0.291719
0.130599 0.055550 0.291417
0.132141 0.055612 0.291618
0.133386 0.055550 0.291156
0.134655 0.055498 0.290741
0.136082 0.055512 0.290659
0.137480 0.055513 0.290503
0.140299 0.056083 0.293308
0.140422 0.055574 0.290459
0.141995 0.055644 0.290624
0.143971 0.055868 0.291584
0.145004 0.055726 0.290618
0.146800 0.055876 0.291166
0.148167 0.055862 0.290843
0.149852 0.055967 0.291125
0.151372 0.056009 0.291062
0.153296 0.056198 0.291751
-0.042311 0.019764 0.102122
-0.042830 0.020236 0.104572
-0.041872 0.020013 0.103430
-0.041185 0.019916 0.102935
-0.040958 0.020042 0.103590
-0.039902 0.019760 0.102134
-0.039216 0.019656 0.101601
-0.040143 0.020369 0.105284
-0.039625 0.020357 0.105219
-0.040179 0.020903 0.108033
-0.041237 0.021727 0.112286
-0.040661 0.021702 0.112144
-0.041750 0.022576 0.116649
-0.041657 0.022825 0.117923
-0.041433 0.023009 0.118857
-0.041012 0.023087 0.119240
-0.040746 0.023255 0.120087
-0.040706 0.023559 0.121636
-0.040322 0.023669 0.122183
-0.040183 0.023929 0.123499
-0.039558 0.023903 0.123337
-0.039230 0.024058 0.124107
-0.039284 0.024455 0.126126
-0.039961 0.025259 0.130240
-0.041410 0.026583 0.137030
-0.041778 0.027245 0.140403
-0.042077 0.027881 0.143645
-0.041911 0.028226 0.145378
-0.042112 0.028833 0.148462
-0.042188 0.029374 0.151200
-0.041979 0.029732 0.152994
-0.041817 0.030136 0.155024
-0.041706 0.030592 0.157318
-0.041860 0.031262 0.160712
-0.042382 0.032237 0.165671
-0.042306 0.032785 0.168431
-0.042244 0.033365 0.171353
-0.041890 0.033734 0.173184
-0.042132 0.034606 0.177602
-0.042347 0.035491 0.182080
-0.042794 0.036612 0.187761
-0.042376 0.037025 0.189813
-0.042110 0.037590 0.192643
-0.041457 0.037828 0.193793
-0.041199 0.038446 0.196887
-0.041631 0.039752 0.203500
-0.046157 0.045121 0.230901
-0.044852 0.044913 0.229756
-0.044390 0.045559 0.232978
-0.043552 0.045844 0.234351
-0.042797 0.046232 0.236252
-0.042182 0.046798 0.239058
-0.041374 0.047174 0.240896
-0.040669 0.047693 0.243461
-0.039984 0.048266 0.246306
-0.039324 0.048905 0.249481
-0.038968 0.049974 0.254847
-0.038372 0.050794 0.258945
-0.040253 0.055058 0.280590
-0.038951 0.055109 0.280763
-0.037959 0.055620 0.283277
-0.036638 0.055669 0.283441
-0.034019 0.053674 0.273202
-0.032140 0.052734 0.268336
-0.030983 0.052948 0.269352
-0.029739 0.053027 0.269677
-0.028409 0.052955 0.269235
-0.027081 0.052878 0.268773
-0.025805 0.052899 0.268810
-0.024529 0.052924 0.268871
-0.023276 0.053002 0.269205
-0.021975 0.052975 0.269009
-0.020726 0.053080 0.269480
-0.019441 0.053098 0.269515
-0.018217 0.053297 0.270475
-0.016923 0.053309 0.270480
-0.015512 0.052920 0.268459
-0.014409 0.053609 0.271907
-0.013109 0.053629 0.271969
-0.011104 0.050453 0.255820
-0.009892 0.050533 0.256194
-0.008693 0.050716 0.257086
-0.007457 0.050714 0.257047
-0.006226 0.050740 0.257151
-0.005003 0.050866 0.257769
-0.003764 0.050862 0.257726
-0.002530 0.050953 0.258167
-0.001290 0.051003 0.258404
-0.000048 0.051043 0.258596
0.001197 0.051134 0.259048
0.002456 0.051430 0.260537
0.003710 0.051448 0.260625
0.007396 0.050940 0.258058
0.008587 0.050646 0.256579
0.009821 0.050647 0.256594
0.011055 0.050648 0.256609
0.012295 0.050673 0.256753
0.013539 0.050705 0.256934
0.014805 0.050809 0.257484
0.016059 0.050860 0.257768
0.017338 0.050976 0.258382
0.018608 0.051054 0.258807
0.019897 0.051170 0.259424
0.021233 0.051385 0.260551
0.022762 0.052016 0.263788
0.024130 0.052233 0.264931
0.025566 0.052567 0.266665
0.026339 0.051572 0.261665
0.026926 0.050321 0.255359
0.028242 0.050480 0.256216
0.029495 0.050517 0.256454
0.030538 0.050207 0.254930
0.031818 0.050295 0.255433
0.033086 0.050359 0.255811
0.034466 0.050582 0.257000
0.035799 0.050723 0.257778
0.037153 0.050883 0.258651
0.038533 0.051068 0.259655
0.039848 0.051157 0.260173
0.041023 0.051066 0.259773
0.042435 0.051267 0.260864
0.043594 0.051159 0.260383
0.044349 0.050598 0.257592
0.045043 0.049998 0.254606
0.046156 0.049882 0.254087
0.047309 0.049815 0.253814
0.048395 0.049682 0.253208
0.049579 0.049654 0.253133
0.050905 0.049765 0.253770
0.052173 0.049816 0.254103
0.053492 0.049912 0.254664
0.054862 0.050051 0.255443
0.056209 0.050163 0.256087
0.058145 0.050785 0.259331
0.060495 0.051734 0.264252
0.062336 0.052219 0.266799
0.063810 0.052382 0.267707
0.065179 0.052455 0.268152
0.066590 0.052558 0.268748
0.067938 0.052607 0.269073
0.069168 0.052566 0.268932
0.070409 0.052535 0.268839
0.071699 0.052540 0.268931
0.072232 0.052000 0.266231
0.073250 0.051821 0.265379
0.074303 0.051673 0.264682
0.075419 0.051574 0.264230
0.075623 0.050864 0.260649
0.075932 0.050246 0.257536
0.076699 0.049946 0.256048
0.077833 0.049891 0.255811
0.079322 0.050061 0.256729
0.080289 0.049902 0.255955
0.081929 0.050160 0.257318
0.083993 0.050665 0.259948
0.085104 0.050590 0.259594
0.086573 0.050726 0.260323
0.087683 0.050651 0.259965
0.100248 0.056318 0.289099
0.102246 0.056663 0.290886
0.103612 0.056652 0.290843
0.104864 0.056580 0.290480
0.106052 0.056476 0.289950
0.107436 0.056478 0.289954
0.108715 0.056425 0.289674
0.109962 0.056357 0.289311
0.111778 0.056578 0.290428
0.112993 0.056494 0.289968
0.114706 0.056657 0.290773
0.115911 0.056569 0.290282
0.117164 0.056505 0.289912
0.118663 0.056561 0.290146
0.120052 0.056564 0.290098
0.121467 0.056578 0.290103
0.122762 0.056536 0.289817
0.124983 0.056918 0.291688
0.126493 0.056970 0.291865
0.127925 0.056987 0.291851
0.129065 0.056874 0.291165
0.130799 0.057023 0.291811
0.132002 0.056940 0.291256
0.133452 0.056964 0.291239
0.134789 0.056939 0.290967
0.136219 0.056954 0.290886
0.137547 0.056926 0.290575
0.139227 0.057043 0.290991
0.141157 0.057259 0.291902
0.141982 0.057027 0.290515
0.143741 0.057170 0.291032
0.145390 0.057268 0.291301
0.146688 0.057227 0.290849
0.148033 0.057204 0.290481
0.150108 0.057462 0.291518
0.151619 0.057500 0.291428
0.153253 0.057584 0.291554
-0.042101 0.020146 0.101610
-0.042133 0.020392 0.102868
-0.041756 0.020444 0.103139
-0.041033 0.020326 0.102551
-0.040787 0.020444 0.103154
-0.040471 0.020530 0.103591
-0.040223 0.020653 0.104211
-0.039433 0.020497 0.103423
-0.039897 0.020996 0.105941
-0.039809 0.021215 0.107040
-0.040620 0.021924 0.110612
-0.041163 0.022506 0.113536
-0.040843 0.022624 0.114121
-0.039979 0.022440 0.113183
-0.040113 0.022819 0.115078
-0.040154 0.023155 0.116756
-0.040440 0.023643 0.119199
-0.040609 0.024076 0.121360
-0.040338 0.024256 0.122246
-0.039416 0.024045 0.121157
-0.039360 0.024363 0.122736
-0.039048 0.024530 0.123550
-0.039610 0.025259 0.127193
-0.042125 0.027276 0.137314
-0.041540 0.027317 0.137484
-0.041792 0.027918 0.140474
-0.041652 0.028273 0.142221
-0.041806 0.028841 0.145040
-0.041763 0.029292 0.147263
-0.042084 0.030016 0.150861
-0.042133 0.030568 0.153590
-0.042035 0.031032 0.155869
-0.041869 0.031460 0.157969
-0.041842 0.032010 0.160682
-0.041765 0.032542 0.163300
-0.042038 0.033372 0.167409
-0.041990 0.033974 0.170371
-0.041644 0.034353 0.172215
-0.041813 0.035181 0.176305
-0.042665 0.036630 0.183500
-0.042667 0.037394 0.187264
-0.042537 0.038072 0.190593
-0.041914 0.038328 0.191809
-0.041268 0.038575 0.192976
-0.049072 0.046910 0.234589
-0.048017 0.046968 0.234796
-0.045507 0.045570 0.227729
-0.045020 0.046180 0.230696
-0.044245 0.046518 0.232303
-0.043527 0.046935 0.234304
-0.042605 0.047148 0.235285
-0.041942 0.047667 0.237790
-0.041149 0.048062 0.239681
-0.040639 0.048820 0.243378
-0.040070 0.049550 0.246932
-0.039451 0.050261 0.250392
-0.038649 0.050774 0.252867
-0.038322 0.051966 0.258720
-0.039305 0.056968 0.283445
-0.037570 0.056395 0.280506
-0.036263 0.056444 0.280668
-0.034289 0.055421 0.275500
-0.033000 0.055467 0.275648
-0.031418 0.055003 0.273265
-0.030037 0.054868 0.272518
-0.028720 0.054842 0.272316
-0.027461 0.054930 0.272683
-0.026051 0.054708 0.271514
-0.024795 0.054806 0.271932
-0.023557 0.054954 0.272605
-0.022316 0.055114 0.273335
-0.021045 0.055213 0.273770
-0.019700 0.055121 0.273253
-0.018462 0.055337 0.274271
-0.017125 0.055265 0.273861
-0.015729 0.054975 0.272378
-0.014507 0.055299 0.273936
-0.013198 0.055320 0.273998
-0.011138 0.051851 0.256781
-0.009909 0.051867 0.256821
-0.008683 0.051909 0.257001
-0.007449 0.051902 0.256933
-0.006227 0.052004 0.257415
-0.004995 0.052043 0.257581
-0.003760 0.052072 0.257706
-0.002528 0.052205 0.258343
-0.001286 0.052168 0.258143
-0.000046 0.052239 0.258483
0.001197 0.052305 0.258801
0.002470 0.052925 0.261862
0.003704 0.052579 0.260145
0.007391 0.052125 0.257904
0.008584 0.051846 0.256530
0.009835 0.051943 0.257023
0.011065 0.051915 0.256895
0.012301 0.051921 0.256938
0.013545 0.051956 0.257134
0.014811 0.052062 0.257676
0.016081 0.052163 0.258200
0.017341 0.052222 0.258519
0.018625 0.052338 0.259122
0.019943 0.052531 0.260109
0.021270 0.052721 0.261083
0.022778 0.053316 0.264068
0.024006 0.053225 0.263658
0.025441 0.053579 0.265454
0.026363 0.052872 0.261995
0.027225 0.052114 0.258281
0.028287 0.051787 0.256708
0.029603 0.051933 0.257481
0.030678 0.051663 0.256192
0.031776 0.051449 0.255185
0.033124 0.051641 0.256190
0.034365 0.051659 0.256338
0.035700 0.051811 0.257150
0.036993 0.051895 0.257625
0.038307 0.052001 0.258211
0.039707 0.052214 0.259335
0.040927 0.052184 0.259249
0.042069 0.052060 0.258696
0.043444 0.052223 0.259569
0.044297 0.051766 0.257365
0.044962 0.051121 0.254226
0.046194 0.051137 0.254373
0.047389 0.051112 0.254315
0.048482 0.050981 0.253730
0.049772 0.051059 0.254187
0.051043 0.051114 0.254531
0.052297 0.051149 0.254776
0.053781 0.051402 0.256107
0.055025 0.051421 0.256269
0.056407 0.051564 0.257054
0.058561 0.052391 0.261248
0.060389 0.052900 0.263853
0.062278 0.053438 0.266612
0.063677 0.053544 0.267209
0.065022 0.053601 0.267563
0.066429 0.053706 0.268155
0.067763 0.053748 0.268436
0.069051 0.053754 0.268531
0.070314 0.053740 0.268525
0.071665 0.053792 0.268850
0.072510 0.053470 0.267303
0.073604 0.053339 0.266708
0.074823 0.053301 0.266576
0.075711 0.053033 0.265292
0.076546 0.052737 0.263866
0.076766 0.052033 0.260397
0.077496 0.051693 0.258741
0.079034 0.051893 0.259789
0.080396 0.051973 0.260234
0.081182 0.051684 0.258827
0.083681 0.052479 0.262843
0.085400 0.052767 0.264321
0.086764 0.052831 0.264675
0.088278 0.052983 0.265464
0.093995 0.055618 0.278693
0.100464 0.058618 0.293748
0.101713 0.058532 0.293335
0.102289 0.058066 0.291016
0.103617 0.058033 0.290862
0.104968 0.058014 0.290771
0.106210 0.057937 0.290380
0.107503 0.057888 0.290132
0.109081 0.057992 0.290642
0.110276 0.057893 0.290127
0.111642 0.057884 0.290062
0.113103 0.057925 0.290234
0.114429 0.057896 0.290054
0.115740 0.057860 0.289833
0.117145 0.057871 0.289840
0.118660 0.057936 0.290110
0.120171 0.057997 0.290353
0.121319 0.057884 0.289715
0.122716 0.057891 0.289672
0.124781 0.058209 0.291176
0.126281 0.058259 0.291332
0.128020 0.058417 0.292019
0.129294 0.058362 0.291630
0.130684 0.058360 0.291498
0.132163 0.058397 0.291552
0.133478 0.058361 0.291234
0.134692 0.058283 0.290693
0.136362 0.058401 0.291121
0.137737 0.058392 0.290903
0.138860 0.058277 0.290148
0.140681 0.058455 0.290835
0.142437 0.058602 0.291361
0.143678 0.058536 0.290814
0.145266 0.058612 0.290957
0.146631 0.058597 0.290637
0.148621 0.058829 0.291530
0.149992 0.058815 0.291183
0.151735 0.058945 0.291538
0.153184 0.058959 0.291305
-0.042344 0.020744 0.102189
-0.042109 0.020865 0.102801
-0.041795 0.020950 0.103230
-0.041288 0.020939 0.103185
-0.040917 0.020998 0.103480
-0.040560 0.021065 0.103816
-0.040149 0.021105 0.104017
-0.039274 0.020900 0.103007
-0.041608 0.022418 0.110487
-0.040561 0.022130 0.109064
-0.040578 0.022423 0.110503
-0.039949 0.022361 0.110191
-0.039245 0.022256 0.109662
-0.038727 0.022255 0.109645
-0.040837 0.023784 0.117164
-0.040347 0.023820 0.117326
-0.040544 0.024268 0.119518
-0.040193 0.024396 0.120127
-0.039895 0.024561 0.120916
-0.039557 0.024705 0.121606
-0.039439 0.024993 0.122998
-0.039637 0.025492 0.125429
-0.039378 0.025709 0.126467
-0.039655 0.026288 0.129283
-0.041220 0.027751 0.136448
-0.041511 0.028390 0.139555
-0.041943 0.029148 0.143242
-0.041857 0.029564 0.145246
-0.041885 0.030076 0.147721
-0.041756 0.030491 0.149717
-0.041601 0.030901 0.151683
-0.041933 0.031693 0.155527
-0.041816 0.032168 0.157807
-0.041899 0.032817 0.160942
-0.041505 0.033110 0.162326
-0.041816 0.033986 0.166569
-0.041689 0.034533 0.169194
-0.041568 0.035107 0.171948
-0.041582 0.035820 0.175382
-0.042352 0.037227 0.182209
-0.042485 0.038120 0.186519
-0.042084 0.038563 0.188620
-0.041039 0.038421 0.187863
-0.041219 0.039447 0.192810
-0.047117 0.046114 0.225321
-0.045681 0.045747 0.223450
-0.046239 0.047407 0.231476
-0.045223 0.047494 0.231824
-0.044379 0.047770 0.233092
-0.043415 0.047929 0.233786
-0.042636 0.048305 0.235542
-0.041810 0.048648 0.237133
-0.041088 0.049134 0.239420
-0.040649 0.049996 0.243538
-0.040554 0.051343 0.250019
-0.039246 0.051190 0.249194
-0.043687 0.058761 0.285955
-0.040608 0.058254 0.283309
-0.038876 0.057689 0.280475
-0.037708 0.057951 0.281665
-0.036396 0.058002 0.281827
-0.034467 0.057038 0.277062
-0.032931 0.056671 0.275203
-0.031455 0.056381 0.273720
-0.030057 0.056214 0.272835
-0.028769 0.056246 0.272918
-0.027356 0.056025 0.271776
-0.026009 0.055923 0.271217
-0.024677 0.055846 0.270776
-0.023327 0.055716 0.270083
-0.021989 0.055602 0.269471
-0.020650 0.055473 0.268792
-0.019461 0.055753 0.270091
-0.018170 0.055764 0.270090
-0.016932 0.055949 0.270937
-0.015368 0.055000 0.266295
-0.014366 0.056073 0.271445
-0.013070 0.056094 0.271506
-0.011161 0.053205 0.257484
-0.009898 0.053052 0.256711
-0.008693 0.053217 0.257477
-0.007450 0.053161 0.257175
-0.006216 0.053163 0.257158
-0.004992 0.053271 0.257659
-0.003758 0.053319 0.257870
-0.002524 0.053413 0.258306
-0.001285 0.053443 0.258434
-0.000044 0.053520 0.258797
0.001199 0.053509 0.258730
0.002483 0.054424 0.263147
0.003714 0.053937 0.260788
0.007386 0.053316 0.257793
0.008598 0.053153 0.257009
0.009847 0.053228 0.257385
0.011076 0.053193 0.257224
0.012335 0.053291 0.257714
0.013581 0.053324 0.257892
0.014843 0.053408 0.258318
0.016112 0.053498 0.258779
0.017367 0.053535 0.258984
0.018627 0.053580 0.259231
0.019913 0.053691 0.259799
0.021331 0.054123 0.261920
0.022716 0.054428 0.263432
0.024089 0.054674 0.264664
0.025212 0.054355 0.263158
0.026274 0.053941 0.261198
0.027303 0.053501 0.259108
0.028342 0.053116 0.257293
0.029518 0.053010 0.256827
0.030685 0.052899 0.256336
0.031789 0.052690 0.255375
0.033073 0.052784 0.255884
0.034342 0.052848 0.256250
0.035594 0.052883 0.256474
0.036976 0.053101 0.257593
0.038235 0.053135 0.257814
0.039625 0.053342 0.258881
0.040814 0.053274 0.258614
0.042063 0.053287 0.258737
0.043305 0.053290 0.258819
0.044247 0.052935 0.257157
0.044975 0.052349 0.254375
0.046135 0.052283 0.254120
0.047392 0.052328 0.254405
0.048511 0.052222 0.253955
0.049693 0.052187 0.253853
0.051014 0.052296 0.254452
0.052301 0.052366 0.254860
0.053606 0.052451 0.255343
0.054860 0.052483 0.255563
0.056338 0.052723 0.256799
0.058265 0.053364 0.259991
0.060283 0.054060 0.263450
0.062113 0.054563 0.265968
0.063512 0.054673 0.266577
0.065050 0.054897 0.267737
0.066391 0.054949 0.268056
0.067700 0.054973 0.268239
0.068969 0.054964 0.268260
0.070239 0.054957 0.268288
0.071530 0.054966 0.268393
0.072924 0.055052 0.268874
0.074225 0.055065 0.268999
0.075234 0.054866 0.268082
0.076266 0.054690 0.267276
0.077222 0.054465 0.266230
0.078293 0.054328 0.265611
0.079334 0.054175 0.264908
0.080485 0.054101 0.264588
0.081677 0.054055 0.264407
0.082962 0.054072 0.264528
0.084642 0.054342 0.265883
0.085938 0.054361 0.266009
0.087312 0.054427 0.266365
0.089058 0.054720 0.267825
0.093913 0.056889 0.278464
0.097874 0.058463 0.286188
0.100860 0.059420 0.290885
0.102201 0.059394 0.290770
0.103655 0.059434 0.290971
0.104987 0.059403 0.290825
0.106369 0.059402 0.290813
0.107555 0.059292 0.290266
0.108981 0.059315 0.290367
0.110448 0.059360 0.290568
0.111756 0.059320 0.290343
0.113018 0.059256 0.289999
0.114422 0.059267 0.290016
0.115985 0.059360 0.290423
0.116838 0.059091 0.289056
0.118660 0.059312 0.290078
0.120218 0.059398 0.290433
0.121853 0.059520 0.290953
0.123110 0.059456 0.290560
0.124228 0.059327 0.289842
0.125716 0.059376 0.289983
0.127278 0.059458 0.290276
0.129350 0.059774 0.291703
0.130507 0.059666 0.291047
0.132005 0.059713 0.291143
0.133241 0.059642 0.290651
0.134573 0.059615 0.290366
0.136498 0.059849 0.291338
0.138124 0.059948 0.291644
0.139778 0.060057 0.291985
0.141231 0.060078 0.291887
0.142468 0.060007 0.291333
0.143859 0.060003 0.291087
0.145495 0.060099 0.291318
0.146965 0.060126 0.291196
0.148829 0.060312 0.291830
0.150163 0.060281 0.291404
0.151416 0.060219 0.290809
0.153211 0.060371 0.291234
-0.042238 0.021173 0.101926
-0.041923 0.021256 0.102340
-0.041720 0.021399 0.103041
-0.041447 0.021508 0.103579
-0.041284 0.021678 0.104405
-0.041130 0.021857 0.105273
-0.040635 0.021857 0.105276
-0.040831 0.022233 0.107089
-0.040896 0.022547 0.108599
-0.040754 0.022752 0.109587
-0.040715 0.023022 0.110879
-0.039948 0.022881 0.110193
-0.039065 0.022669 0.109165
-0.038474 0.022623 0.108935
-0.040356 0.024050 0.115791
-0.040394 0.024402 0.117472
-0.040358 0.024718 0.118979
-0.040297 0.025028 0.120450
-0.039965 0.025176 0.121142
-0.040059 0.025600 0.123162
-0.039889 0.025866 0.124418
-0.040313 0.026531 0.127589
-0.039807 0.026593 0.127863
-0.039755 0.026967 0.129630
-0.042075 0.028986 0.139301
-0.041479 0.029028 0.139471
-0.041475 0.029493 0.141670
-0.041755 0.030178 0.144922
-0.041829 0.030735 0.147555
-0.042030 0.031405 0.150731
-0.041962 0.031894 0.153033
-0.041836 0.032355 0.155202
-0.042138 0.033170 0.159063
-0.041836 0.033530 0.160740
-0.041994 0.034279 0.164278
-0.041891 0.034839 0.166909
-0.041864 0.035485 0.169953
-0.041873 0.036188 0.173261
-0.041750 0.036802 0.176144
-0.042546 0.038267 0.183098
-0.042336 0.038871 0.185924
-0.041662 0.039064 0.186787
-0.049918 0.047821 0.228582
-0.048068 0.047071 0.224922
-0.047060 0.047129 0.225123
-0.046714 0.047870 0.228583
-0.045972 0.048229 0.230220
-0.045288 0.048668 0.232237
-0.044303 0.048799 0.232781
-0.043435 0.049068 0.233986
-0.042515 0.049290 0.234969
-0.041689 0.049637 0.236543
-0.041041 0.050220 0.239243
-0.040391 0.050834 0.242089
-0.040650 0.052662 0.250715
-0.039500 0.052721 0.250912
-0.043629 0.060048 0.285696
-0.042308 0.060106 0.285882
-0.040553 0.059529 0.283051
-0.038642 0.058678 0.278918
-0.037916 0.059628 0.283351
-0.036596 0.059680 0.283514
-0.034183 0.057885 0.274909
-0.032268 0.056824 0.269793
-0.030824 0.056538 0.268363
-0.029267 0.056012 0.265798
-0.028230 0.056477 0.267936
-0.026842 0.056252 0.266801
-0.025343 0.055762 0.264413
-0.024087 0.055781 0.264439
-0.022867 0.055891 0.264900
-0.021626 0.055959 0.265167
-0.020411 0.056110 0.265823
-0.019195 0.056277 0.266562
-0.018076 0.056771 0.268852
-0.016841 0.056950 0.269649
-0.015494 0.056746 0.268640
-0.014279 0.057037 0.269971
-0.012990 0.057059 0.270032
-0.011082 0.054066 0.255831
-0.009898 0.054297 0.256891
-0.008680 0.054382 0.257262
-0.007427 0.054246 0.256588
-0.006211 0.054379 0.257192
-0.004982 0.054428 0.257400
-0.003750 0.054467 0.257567
-0.002517 0.054545 0.257916
-0.001280 0.054576 0.258048
-0.000041 0.054646 0.258365
0.001201 0.054749 0.258844
0.002521 0.056483 0.267035
0.003724 0.055304 0.261455
0.007422 0.054805 0.259099
0.008607 0.054427 0.257320
0.009849 0.054464 0.257504
0.011098 0.054526 0.257810
0.012331 0.054502 0.257711
0.013581 0.054552 0.257963
0.014849 0.054661 0.258500
0.016111 0.054732 0.258857
0.017371 0.054785 0.259135
0.018649 0.054883 0.259624
0.019911 0.054926 0.259860
0.021312 0.055325 0.261780
0.022677 0.055591 0.263071
0.024137 0.056048 0.265272
0.025106 0.055378 0.262139
0.026155 0.054938 0.260102
0.027197 0.054525 0.258188
0.028238 0.054146 0.256438
0.029393 0.054008 0.255832
0.030582 0.053941 0.255562
0.031772 0.053881 0.255328
0.033014 0.053910 0.255515
0.034291 0.053992 0.255957
0.035562 0.054058 0.256325
0.036897 0.054214 0.257123
0.038165 0.054266 0.257426
0.039531 0.054448 0.258349
0.040664 0.054309 0.257748
0.041946 0.054370 0.258101
0.043093 0.054257 0.257629
0.044130 0.054017 0.256551
0.045023 0.053619 0.254722
0.046108 0.053464 0.254049
0.047333 0.053473 0.254159
0.048463 0.053379 0.253774
0.049653 0.053353 0.253717
0.050943 0.053434 0.254167
0.052144 0.053420 0.254166
0.053547 0.053608 0.255128
0.054635 0.053479 0.254579
0.055878 0.053505 0.254769
0.058373 0.054703 0.260538
0.060526 0.055536 0.264575
0.062182 0.055889 0.266321
0.063478 0.055911 0.266493
0.065035 0.056157 0.267732
0.066374 0.056208 0.268041
0.067721 0.056265 0.268374
0.068963 0.056234 0.268290
0.070263 0.056250 0.268428
0.071773 0.056431 0.269350
0.073180 0.056526 0.269862
0.074648 0.056664 0.270577
0.075352 0.056227 0.268543
0.076775 0.056331 0.269096
0.077773 0.056126 0.268166
0.079133 0.056185 0.268492
0.080226 0.056055 0.267918
0.081126 0.055796 0.266724
0.082859 0.056109 0.268260
0.084388 0.056277 0.269098
0.085680 0.056284 0.269166
0.087682 0.056750 0.271425
0.089328 0.056975 0.272531
0.090579 0.056946 0.272414
0.097807 0.060623 0.290023
0.098399 0.060140 0.287732
0.100778 0.060748 0.290655
0.102363 0.060868 0.291236
0.103707 0.060843 0.291120
0.105018 0.060799 0.290909
0.106271 0.060723 0.290540
0.107595 0.060690 0.290366
0.108944 0.060671 0.290260
0.110280 0.060645 0.290113
0.111633 0.060629 0.290007
0.112885 0.060560 0.289638
0.114720 0.060801 0.290749
0.116163 0.060830 0.290841
0.117203 0.060651 0.289929
0.118679 0.060699 0.290095
0.120217 0.060776 0.290395
0.121517 0.060733 0.290112
0.122764 0.060665 0.289701
0.124191 0.060686 0.289710
0.125494 0.060647 0.289420
0.127129 0.060767 0.289885
0.128888 0.060943 0.290604
0.130073 0.060847 0.290018
0.131777 0.060993 0.290574
0.133199 0.061007 0.290492
0.134078 0.060774 0.289226
0.136335 0.061165 0.290914
0.138098 0.061327 0.291506
0.139475 0.061317 0.291267
0.141132 0.061429 0.291594
0.142529 0.061426 0.291364
0.143857 0.061395 0.290986
0.145440 0.061471 0.291105
0.147037 0.061551 0.291231
0.148096 0.061408 0.290281
0.150127 0.061665 0.291215
0.151727 0.061743 0.291283
0.153273 0.061797 0.291225
-0.045554 0.018358 0.085260
-0.042854 0.021724 0.102225
-0.042061 0.021563 0.101490
-0.041882 0.021718 0.102234
-0.041312 0.021671 0.102027
-0.041428 0.021987 0.103527
-0.041615 0.022349 0.105239
-0.041443 0.022524 0.106071
-0.040825 0.022458 0.105766
-0.040580 0.022599 0.106431
-0.040271 0.022706 0.106938
-0.039785 0.022716 0.106983
-0.039541 0.022866 0.107685
-0.039116 0.022913 0.107901
-0.038729 0.022984 0.108230
-0.038433 0.023113 0.108824
-0.040555 0.024718 0.116370
-0.040490 0.025016 0.117762
-0.040652 0.025464 0.119856
-0.040755 0.025888 0.121833
-0.040429 0.026047 0.122563
-0.039423 0.025766 0.121223
-0.039834 0.026417 0.124260
-0.039473 0.026568 0.124944
-0.039412 0.026928 0.126615
-0.039149 0.027159 0.127673
-0.039556 0.027869 0.130983
-0.040901 0.029274 0.137551
-0.041218 0.029976 0.140815
-0.041373 0.030581 0.143622
-0.041819 0.031426 0.147549
-0.041981 0.032081 0.150586
-0.042052 0.032689 0.153396
-0.042071 0.033276 0.156108
-0.042197 0.033971 0.159321
-0.042141 0.034541 0.161949
-0.042083 0.035132 0.164670
-0.041832 0.035580 0.166718
-0.042062 0.036463 0.170802
-0.042197 0.037296 0.174648
-0.041678 0.037574 0.175892
-0.041802 0.038453 0.179949
-0.041686 0.039144 0.183124
-0.050875 0.048788 0.228166
-0.049857 0.048849 0.228378
-0.047740 0.047813 0.223459
-0.047106 0.048248 0.225420
-0.046278 0.048501 0.226527
-0.045975 0.049329 0.230317
-0.045082 0.049549 0.231269
-0.044479 0.050106 0.233792
-0.043406 0.050149 0.233916
-0.042509 0.050404 0.235026
-0.041601 0.050658 0.236134
-0.040746 0.050993 0.237617
-0.041811 0.053818 0.250702
-0.040622 0.053823 0.250646
-0.045220 0.061729 0.287374
-0.043895 0.061790 0.287566
-0.042040 0.061084 0.284196
-0.040901 0.061408 0.285614
-0.039641 0.061564 0.286255
-0.038019 0.061150 0.284249
-0.036695 0.061203 0.284412
-0.034353 0.059498 0.276411
-0.032173 0.057946 0.269126
-0.030643 0.057487 0.266923
-0.029253 0.057260 0.265800
-0.027927 0.057145 0.265198
-0.026461 0.056718 0.263153
-0.025052 0.056378 0.261516
-0.023715 0.056172 0.260498
-0.022439 0.056097 0.260092
-0.021193 0.056091 0.260006
-0.020066 0.056421 0.261482
-0.018818 0.056431 0.261477
-0.017580 0.056472 0.261619
-0.016749 0.057932 0.268336
-0.015269 0.057200 0.264902
-0.014161 0.057858 0.267902
-0.012882 0.057879 0.267962
-0.011057 0.055177 0.255415
-0.009858 0.055315 0.256022
-0.008674 0.055597 0.257293
-0.007409 0.055360 0.256168
-0.006198 0.055513 0.256850
-0.004979 0.055662 0.257517
-0.003744 0.055662 0.257497
-0.002512 0.055719 0.257742
-0.001278 0.055811 0.258155
-0.000039 0.055901 0.258559
0.001199 0.055764 0.257912
0.002504 0.057314 0.265074
0.003739 0.056751 0.262467
0.007397 0.055835 0.258236
0.008605 0.055635 0.257316
0.009861 0.055752 0.257864
0.011061 0.055565 0.257013
0.012334 0.055743 0.257849
0.013571 0.055740 0.257853
0.014829 0.055817 0.258230
0.016097 0.055916 0.258708
0.017339 0.055916 0.258735
0.018627 0.056055 0.259404
0.019904 0.056147 0.259858
0.021345 0.056660 0.262265
0.022722 0.056958 0.263678
0.024394 0.057926 0.268194
0.025495 0.057506 0.266288
0.026169 0.056210 0.260330
0.027258 0.055883 0.258855
0.028340 0.055571 0.257454
0.029466 0.055367 0.256557
0.030708 0.055387 0.256698
0.031915 0.055347 0.256559
0.033133 0.055327 0.256518
0.034376 0.055350 0.256674
0.035669 0.055447 0.257180
0.036977 0.055561 0.257764
0.038190 0.055529 0.257672
0.039528 0.055676 0.258409
0.040818 0.055747 0.258802
0.041961 0.055621 0.258275
0.043125 0.055528 0.257904
0.044232 0.055368 0.257224
0.045051 0.054866 0.254952
0.046163 0.054739 0.254426
0.047410 0.054774 0.254649
0.048501 0.054631 0.254046
0.049773 0.054694 0.254403
0.051100 0.054813 0.255021
0.052260 0.054751 0.254797
0.053680 0.054958 0.255825
0.054849 0.054905 0.255643
0.056150 0.054983 0.256068
0.058182 0.055759 0.259746
0.060403 0.056679 0.264099
0.062076 0.057058 0.265928
0.063391 0.057099 0.266185
0.064916 0.057324 0.267294
0.066414 0.057517 0.268256
0.067752 0.057566 0.268549
0.069099 0.057622 0.268868
0.070420 0.057653 0.269075
0.071844 0.057767 0.269663
0.073125 0.057763 0.269702
0.074132 0.057547 0.268746
0.075244 0.057418 0.268197
0.076484 0.057390 0.268114
0.077428 0.057144 0.267012
0.078533 0.057023 0.266491
0.079396 0.056732 0.265176
0.080593 0.056686 0.264998
0.082205 0.056928 0.266169
0.083820 0.057166 0.267312
0.085569 0.057485 0.268839
0.087106 0.057655 0.269660
0.089185 0.058174 0.272110
0.091044 0.058536 0.273828
0.097720 0.061941 0.289774
0.098360 0.061479 0.287627
0.100816 0.062149 0.290769
0.099875 0.060735 0.284160
0.103571 0.062141 0.290738
0.104855 0.062081 0.290453
0.106274 0.062102 0.290541
0.107792 0.062180 0.290889
0.109071 0.062119 0.290584
0.110227 0.061990 0.289956
0.111548 0.061957 0.289768
0.112911 0.061947 0.289683
0.114105 0.061846 0.289164
0.115418 0.061810 0.288948
0.116676 0.061747 0.288594
0.118501 0.061981 0.289622
0.120044 0.062065 0.289940
0.121396 0.062049 0.289782
0.122707 0.062012 0.289521
0.124076 0.062005 0.289392
0.125345 0.061949 0.289025
0.126941 0.062053 0.289399
0.128400 0.062089 0.289443
0.129958 0.062172 0.289698
0.131777 0.062376 0.290506
0.132239 0.061941 0.288327
0.134596 0.062392 0.290267
0.136434 0.062597 0.291045
0.138142 0.062738 0.291514
0.139568 0.062749 0.291371
0.140948 0.062740 0.291120
0.142358 0.062744 0.290918
0.143815 0.062768 0.290797
0.145066 0.062703 0.290249
0.146723 0.062813 0.290497
0.148737 0.063072 0.291421
0.150558 0.063245 0.291930
0.151895 0.063213 0.291478
0.153261 0.063194 0.291069
-0.045510 0.018748 0.085141
-0.042822 0.022190 0.102139
-0.042072 0.022048 0.101506
-0.041583 0.022042 0.101497
-0.041104 0.022041 0.101506
-0.041284 0.022397 0.103160
-0.042049 0.023084 0.106331
-0.041562 0.023091 0.106373
-0.040615 0.022840 0.105221
-0.040624 0.023126 0.106545
-0.040503 0.023345 0.107555
-0.040010 0.023352 0.107589
-0.039555 0.023382 0.107725
-0.039499 0.023652 0.108962
-0.039101 0.023721 0.109276
-0.041083 0.025255 0.116334
-0.040586 0.025286 0.116468
-0.040374 0.025499 0.117433
-0.040377 0.025854 0.119056
-0.039521 0.025662 0.118155
-0.039313 0.025891 0.119192
-0.040393 0.026987 0.124217
-0.039810 0.026988 0.124201
-0.039696 0.027312 0.125670
-0.039595 0.027655 0.127221
-0.039453 0.027979 0.128685
-0.039793 0.028660 0.131790
-0.040515 0.029642 0.136278
-0.040902 0.030408 0.139762
-0.041041 0.031010 0.142497
-0.041534 0.031905 0.146570
-0.042084 0.032874 0.150986
-0.042165 0.033505 0.153840
-0.042161 0.034089 0.156478
-0.042126 0.034667 0.159089
-0.042274 0.035421 0.162500
-0.041782 0.035656 0.163531
-0.041871 0.036406 0.166920
-0.042431 0.037600 0.172345
-0.042043 0.037986 0.174062
-0.041441 0.038190 0.174940
-0.041155 0.038699 0.177216
-0.048618 0.046668 0.213643
-0.050219 0.049229 0.225293
-0.049795 0.049873 0.228170
-0.048483 0.049637 0.227013
-0.047480 0.049713 0.227287
-0.046640 0.049967 0.228377
-0.045767 0.050197 0.229355
-0.045012 0.050573 0.230994
-0.044228 0.050932 0.232561
-0.043337 0.051183 0.233633
-0.042381 0.051370 0.234408
-0.041563 0.051737 0.236011
-0.044339 0.056724 0.258675
-0.042738 0.056236 0.256369
-0.045896 0.062165 0.283310
-0.044592 0.062227 0.283504
-0.043686 0.062864 0.286321
-0.042302 0.062833 0.286093
-0.040862 0.062714 0.285468
-0.039358 0.062486 0.284346
-0.038127 0.062689 0.285190
-0.036799 0.062743 0.285352
-0.034267 0.060669 0.275844
-0.032185 0.059258 0.269359
-0.030708 0.058891 0.267621
-0.028887 0.057804 0.262614
-0.027886 0.058332 0.264944
-0.025970 0.056906 0.258408
-0.024900 0.057283 0.260059
-0.023654 0.057277 0.259969
-0.022528 0.057575 0.261266
-0.021396 0.057892 0.262649
-0.020219 0.058118 0.263622
-0.018997 0.058238 0.264111
-0.017818 0.058515 0.265322
-0.016692 0.059024 0.267579
-0.015288 0.058551 0.265391
-0.014158 0.059137 0.268007
-0.012879 0.059159 0.268067
-0.011073 0.056497 0.255969
-0.009853 0.056531 0.256088
-0.008665 0.056788 0.257223
-0.007418 0.056671 0.256666
-0.006197 0.056762 0.257051
-0.004977 0.056892 0.257617
-0.003745 0.056949 0.257854
-0.002514 0.057055 0.258315
-0.001275 0.057066 0.258352
-0.000037 0.056966 0.257886
0.001201 0.057006 0.258056
0.002513 0.058748 0.265937
0.003745 0.058071 0.262869
0.007430 0.057316 0.259451
0.008610 0.056886 0.257511
0.009853 0.056927 0.257707
0.011081 0.056886 0.257531
0.012323 0.056915 0.257677
0.013577 0.056989 0.258030
0.014836 0.057073 0.258428
0.016094 0.057136 0.258735
0.017375 0.057269 0.259360
0.018629 0.057297 0.259513
0.019901 0.057376 0.259897
0.021226 0.057591 0.260902
0.022613 0.057938 0.262510
0.024381 0.059173 0.268140
0.025653 0.059140 0.268028
0.026099 0.057299 0.259724
0.027113 0.056814 0.257568
0.028277 0.056672 0.256964
0.029527 0.056709 0.257176
0.030711 0.056619 0.256815
0.031924 0.056587 0.256719
0.033171 0.056615 0.256896
0.034407 0.056624 0.256987
0.035673 0.056680 0.257295
0.036956 0.056759 0.257706
0.038129 0.056668 0.257348
0.039434 0.056773 0.257880
0.040566 0.056630 0.257289
0.041720 0.056526 0.256872
0.043032 0.056634 0.257425
0.044056 0.056368 0.256276
0.044939 0.055942 0.254398
0.046056 0.055821 0.253909
0.047356 0.055922 0.254429
0.048532 0.055876 0.254282
0.049750 0.055879 0.254356
0.051053 0.055974 0.254851
0.052348 0.056058 0.255293
0.053692 0.056188 0.255948
0.054960 0.056235 0.256225
0.056252 0.056303 0.256596
0.057954 0.056770 0.258788
0.060132 0.057674 0.262971
0.062122 0.058365 0.266185
0.063473 0.058439 0.266584
0.064908 0.058587 0.267319
0.066406 0.058784 0.268278
0.067808 0.058890 0.268824
0.069022 0.058833 0.268618
0.070389 0.058905 0.269006
0.071682 0.058913 0.269098
0.073053 0.058985 0.269479
0.073936 0.058667 0.268077
0.075238 0.058686 0.268214
0.076326 0.058540 0.267595
0.077253 0.058278 0.266442
0.078245 0.058073 0.265545
0.079231 0.057869 0.264652
0.080561 0.057919 0.264919
0.082309 0.058264 0.266530
0.083558 0.058249 0.266495
0.085625 0.058797 0.269031
0.086844 0.058756 0.268868
0.088952 0.059308 0.271414
0.091472 0.060115 0.275127
0.097631 0.063257 0.289520
0.097988 0.062604 0.286546
0.099180 0.062496 0.286056
0.101953 0.063373 0.290072
0.103333 0.063372 0.290066
0.104317 0.063132 0.288958
0.106147 0.063403 0.290186
0.107237 0.063231 0.289381
0.108396 0.063103 0.288772
0.110297 0.063405 0.290123
0.111536 0.063323 0.289715
0.112824 0.063271 0.289435
0.114255 0.063300 0.289517
0.115445 0.063196 0.288986
0.116986 0.063284 0.289326
0.118402 0.063303 0.289343
0.119939 0.063385 0.289643
0.121321 0.063385 0.289557
0.122685 0.063375 0.289420
0.123971 0.063326 0.289096
0.125276 0.063287 0.288810
0.126746 0.063332 0.288895
0.128316 0.063424 0.289191
0.130369 0.063751 0.290544
0.131557 0.063653 0.289950
0.133075 0.063714 0.290074
0.134613 0.063784 0.290225
0.135621 0.063604 0.289226
0.137991 0.064059 0.291107
0.139399 0.064063 0.290925
0.140909 0.064114 0.290941
0.142374 0.064143 0.290848
0.143839 0.064171 0.290740
0.145134 0.064124 0.290274
0.146753 0.064219 0.290441
0.148806 0.064501 0.291434
0.150649 0.064687 0.291979
0.151871 0.064605 0.291300
0.153273 0.064601 0.290954
-0.045892 0.019316 0.085818
-0.045486 0.019318 0.085914
-0.041681 0.022068 0.099405
-0.041975 0.022475 0.101263
-0.041619 0.022541 0.101576
-0.041223 0.022585 0.101792
-0.041110 0.022788 0.102720
-0.041238 0.023131 0.104276
-0.041038 0.023295 0.105026
-0.040446 0.023239 0.104780
-0.040417 0.023508 0.105999
-0.040266 0.023713 0.106926
-0.040015 0.023863 0.107601
-0.039741 0.024003 0.108232
-0.041080 0.025133 0.113326
-0.040607 0.025170 0.113488
-0.040151 0.025219 0.113701
-0.039341 0.025043 0.112900
-0.040608 0.026204 0.118120
-0.040112 0.026242 0.118281
-0.041234 0.027356 0.123287
-0.040820 0.027468 0.123773
-0.040521 0.027661 0.124626
-0.039967 0.027684 0.124708
-0.039410 0.027704 0.124778
-0.039384 0.028105 0.126561
-0.038804 0.028116 0.126586
-0.039745 0.029247 0.131652
-0.041628 0.031119 0.140045
-0.041027 0.031163 0.140212
-0.041005 0.031657 0.142399
-0.041473 0.032550 0.146384
-0.041671 0.033260 0.149536
-0.042149 0.034220 0.153814
-0.042291 0.034937 0.156996
-0.042025 0.035336 0.158745
-0.042983 0.036798 0.165265
-0.042920 0.037424 0.168028
-0.042907 0.038117 0.171093
-0.042283 0.038284 0.171791
-0.041608 0.038410 0.172306
-0.041194 0.038788 0.173946
-0.051623 0.049599 0.222362
-0.050635 0.049662 0.222575
-0.048625 0.048704 0.218213
-0.049133 0.050281 0.225209
-0.048400 0.050630 0.226700
-0.047508 0.050824 0.227499
-0.046422 0.050816 0.227391
-0.045571 0.051070 0.228453
-0.044887 0.051529 0.230435
-0.044243 0.052057 0.232722
-0.043450 0.052434 0.234333
-0.042651 0.052822 0.235995
-0.043742 0.055636 0.248486
-0.044279 0.057880 0.258430
-0.043241 0.058136 0.259495
-0.046422 0.064246 0.286679
-0.045103 0.064310 0.286876
-0.043577 0.064073 0.285733
-0.042339 0.064258 0.286473
-0.040952 0.064221 0.286226
-0.039513 0.064097 0.285593
-0.037947 0.063753 0.283979
-0.036625 0.063807 0.284141
-0.034290 0.062032 0.276163
-0.032044 0.060284 0.268310
-0.030515 0.059797 0.266075
-0.029091 0.059479 0.264595
-0.027729 0.059268 0.263587
-0.026280 0.058842 0.261632
-0.024874 0.058473 0.259933
-0.023617 0.058434 0.259699
-0.022340 0.058340 0.259229
-0.021156 0.058491 0.259846
-0.020003 0.058754 0.260958
-0.018839 0.059015 0.262071
-0.017655 0.059249 0.263059
-0.016591 0.059950 0.266129
-0.015209 0.059525 0.264196
-0.014103 0.060201 0.267154
-0.012829 0.060223 0.267214
-0.011023 0.057476 0.254988
-0.009835 0.057666 0.255800
-0.008652 0.057946 0.257012
-0.007396 0.057749 0.256111
-0.006183 0.057881 0.256672
-0.004964 0.058009 0.257217
-0.003735 0.058054 0.257396
-0.002506 0.058159 0.257841
-0.001272 0.058261 0.258282
-0.000034 0.058325 0.258553
0.001203 0.058235 0.258143
0.002497 0.059573 0.264067
0.003741 0.059221 0.262501
0.007370 0.058063 0.257369
0.008567 0.057817 0.256286
0.009816 0.057933 0.256807
0.011050 0.057946 0.256878
0.012294 0.058005 0.257153
0.013559 0.058142 0.257775
0.014834 0.058295 0.258471
0.016096 0.058376 0.258852
0.017392 0.058558 0.259683
0.018681 0.058697 0.260323
0.019910 0.058641 0.260104
0.021230 0.058844 0.261031
0.022582 0.059106 0.262229
0.025619 0.060338 0.267765
0.026032 0.058387 0.259143
0.027156 0.058134 0.258063
0.028310 0.057964 0.257351
0.029500 0.057881 0.257026
0.030704 0.057829 0.256837
0.031881 0.057733 0.256458
0.033150 0.057804 0.256821
0.034401 0.057840 0.257030
0.035659 0.057884 0.257277
0.036912 0.057917 0.257477
0.038145 0.057918 0.257535
0.039360 0.057893 0.257477
0.040602 0.057907 0.257598
0.041814 0.057879 0.257530
0.042959 0.057763 0.257068
0.043976 0.057485 0.255890
0.044954 0.057172 0.254554
0.046103 0.057088 0.254241
0.047293 0.057057 0.254163
0.048483 0.057028 0.254092
0.049687 0.057016 0.254100
