ply
format ascii 1.0
element vertex 1744
property float x
property float y
property float z
end_header
-0.042245 0.026952 0.101777
-0.039764 0.025661 0.096929
-0.040290 0.026302 0.099379
-0.040806 0.026952 0.101859
-0.041282 0.027591 0.104297
-0.041983 0.028396 0.107364
-0.041314 0.028284 0.106959
-0.040970 0.028395 0.107394
-0.038584 0.027417 0.103722
-0.040702 0.029292 0.110828
-0.040675 0.029652 0.112199
-0.041691 0.030792 0.116519
-0.041541 0.031090 0.117651
-0.040786 0.030937 0.117074
-0.039790 0.030594 0.115779
-0.040716 0.031740 0.120114
-0.041251 0.032610 0.123403
-0.041018 0.032888 0.124450
-0.040393 0.032856 0.124320
-0.039951 0.032974 0.124759
-0.040615 0.034022 0.128714
-0.040931 0.034805 0.131665
-0.040776 0.035206 0.133168
-0.040926 0.035887 0.135728
-0.040954 0.036481 0.137956
-0.040275 0.036454 0.137837
-0.040193 0.036976 0.139788
-0.040016 0.037425 0.141465
-0.039916 0.037964 0.143477
-0.056142 0.056254 0.212486
-0.055210 0.056324 0.212711
-0.054220 0.056338 0.212718
-0.053855 0.057013 0.215221
-0.053292 0.057501 0.217017
-0.052963 0.058265 0.219853
-0.052616 0.059040 0.222728
-0.053032 0.060720 0.229013
-0.051910 0.060671 0.228777
-0.050473 0.060246 0.227120
-0.049623 0.060518 0.228088
-0.048617 0.060607 0.228370
-0.047614 0.060705 0.228683
-0.046623 0.060823 0.229070
-0.045706 0.061044 0.229847
-0.044911 0.061444 0.231296
-0.044230 0.062024 0.233421
-0.044099 0.063424 0.238629
-0.043579 0.064324 0.241954
-0.042753 0.064810 0.243722
-0.042259 0.065838 0.247526
-0.047433 0.076008 0.285694
-0.046122 0.076079 0.285890
-0.044833 0.076192 0.286244
-0.043608 0.076425 0.287050
-0.042202 0.076343 0.286674
-0.040828 0.076318 0.286513
-0.039308 0.076009 0.285284
-0.037689 0.075479 0.283231
-0.036565 0.075938 0.284890
-0.035239 0.075995 0.285041
-0.033660 0.075492 0.283090
-0.029581 0.069105 0.259085
-0.027924 0.068069 0.255147
-0.026783 0.068253 0.255784
-0.025513 0.068110 0.255199
-0.024244 0.067956 0.254573
-0.023148 0.068295 0.255794
-0.021860 0.068076 0.254928
-0.020621 0.067992 0.254569
-0.019513 0.068357 0.255895
-0.018209 0.068037 0.254654
-0.017027 0.068161 0.255080
-0.015963 0.068815 0.257488
-0.015835 0.073944 0.276643
-0.014457 0.073639 0.275466
-0.013148 0.073664 0.275525
-0.010970 0.068286 0.255376
-0.009783 0.068495 0.256130
-0.008617 0.068944 0.257786
-0.007379 0.068858 0.257437
-0.006173 0.069112 0.258367
-0.004942 0.069127 0.258401
-0.003718 0.069302 0.259036
-0.002484 0.069354 0.259217
-0.001248 0.069428 0.259477
-0.000010 0.070059 0.261822
0.001234 0.069714 0.260525
0.002527 0.071118 0.265764
0.003792 0.071046 0.265490
0.005222 0.073324 0.273998
0.006442 0.072334 0.270295
0.007732 0.072325 0.270263
0.008731 0.069989 0.261537
0.009872 0.069230 0.258707
0.011132 0.069387 0.259300
0.012352 0.069282 0.258915
0.013578 0.069229 0.258728
0.014838 0.069344 0.259168
0.016087 0.069392 0.259365
0.017392 0.069660 0.260382
0.018717 0.069963 0.261532
0.020037 0.070214 0.262493
0.021383 0.070519 0.263654
0.022781 0.070953 0.265301
0.024578 0.072517 0.271175
0.025817 0.072361 0.270621
0.027095 0.072323 0.270507
0.026907 0.068554 0.256440
0.028079 0.068427 0.255996
0.029296 0.068415 0.255983
0.030516 0.068411 0.256002
0.031720 0.068374 0.255898
0.032959 0.068412 0.256073
0.034157 0.068362 0.255925
0.035603 0.068798 0.257593
0.037054 0.069213 0.259187
0.037966 0.068626 0.257028
0.040073 0.070169 0.262850
0.041353 0.070215 0.263062
0.042239 0.069606 0.260825
0.043733 0.070008 0.262374
0.045039 0.070094 0.262738
0.045783 0.069324 0.259895
0.046423 0.068440 0.256625
0.047561 0.068319 0.256215
0.048646 0.068128 0.255540
0.049778 0.068012 0.255148
0.051121 0.068182 0.255828
0.052305 0.068137 0.255700
0.053669 0.068322 0.256437
0.055039 0.068507 0.257174
0.056518 0.068817 0.258377
0.058037 0.069162 0.259711
0.059613 0.069558 0.261241
0.062168 0.071057 0.266908
0.064066 0.071759 0.269586
0.065460 0.071881 0.270082
0.066874 0.072019 0.270638
0.068318 0.072185 0.271295
0.069698 0.072277 0.271675
0.070991 0.072278 0.271711
0.072017 0.072011 0.270736
0.073152 0.071860 0.270198
0.073936 0.071377 0.268405
0.075727 0.071864 0.270262
0.076595 0.071475 0.268818
0.076584 0.070291 0.264384
0.075774 0.068424 0.257374
0.077377 0.068761 0.258654
0.078688 0.068831 0.258927
0.079787 0.068716 0.258503
0.081385 0.069029 0.259682
0.082912 0.069273 0.260599
0.084761 0.069774 0.262480
0.086511 0.070181 0.264001
0.088369 0.070662 0.265802
0.089651 0.070676 0.265837
0.098520 0.076587 0.288048
0.099762 0.076487 0.287646
0.101062 0.076435 0.287419
0.102995 0.076856 0.288964
0.104498 0.076949 0.289272
0.105833 0.076918 0.289106
0.107208 0.076916 0.289046
0.108513 0.076865 0.288792
0.109903 0.076874 0.288763
0.111209 0.076825 0.288505
0.112640 0.076862 0.288564
0.113848 0.076748 0.288050
0.115402 0.076867 0.288404
0.116651 0.076783 0.287986
0.118717 0.077232 0.289561
0.120080 0.077219 0.289393
0.121266 0.077092 0.288795
0.122796 0.077185 0.289010
0.124301 0.077261 0.289151
0.125739 0.077294 0.289121
0.127074 0.077263 0.288842
0.128624 0.077362 0.289041
0.129968 0.077336 0.288763
0.131553 0.077453 0.289007
0.133360 0.077696 0.289711
0.134901 0.077781 0.289811
0.136486 0.077889 0.289989
0.138146 0.078038 0.290301
0.139650 0.078096 0.290264
0.141141 0.078145 0.290181
0.142670 0.078215 0.290161
0.144122 0.078240 0.289964
0.145854 0.078416 0.290308
0.148196 0.078914 0.291825
0.150097 0.079169 0.292427
0.151136 0.078969 0.291332
0.152876 0.079135 0.291570
0.154404 0.079190 0.291379
-0.046083 0.023525 0.085694
-0.045663 0.023520 0.085786
-0.042320 0.027175 0.100760
-0.041240 0.026782 0.099336
-0.040238 0.026431 0.098066
-0.040243 0.026741 0.099246
-0.042228 0.028390 0.105392
-0.041787 0.028427 0.105557
-0.041162 0.029772 0.110644
-0.040697 0.029812 0.110806
-0.040786 0.030265 0.112499
-0.040720 0.030613 0.113801
-0.040581 0.030914 0.114928
-0.039996 0.030880 0.114803
-0.039716 0.031083 0.115563
-0.040951 0.032494 0.120809
-0.041104 0.033075 0.122965
-0.040910 0.033388 0.124128
-0.039957 0.033082 0.122986
-0.040748 0.034233 0.127256
-0.040739 0.034735 0.129113
-0.040538 0.035087 0.130411
-0.040330 0.035443 0.131723
-0.039803 0.035526 0.132016
-0.039829 0.036113 0.134183
-0.040487 0.037301 0.138579
-0.039940 0.037399 0.138926
-0.039619 0.037716 0.140082
-0.039867 0.038595 0.143322
-0.056987 0.057102 0.211979
-0.056058 0.057174 0.212207
-0.055334 0.057460 0.213231
-0.054449 0.057587 0.213659
-0.053632 0.057792 0.214378
-0.053084 0.058301 0.216221
-0.054224 0.060719 0.225142
-0.053661 0.061289 0.227208
-0.052538 0.061230 0.226938
-0.051224 0.060941 0.225817
-0.050419 0.061258 0.226939
-0.049490 0.061436 0.227546
-0.048401 0.061418 0.227427
-0.047445 0.061571 0.227941
-0.046510 0.061761 0.228588
-0.045642 0.062049 0.229600
-0.044845 0.062452 0.231036
-0.044096 0.062942 0.232791
-0.043719 0.064003 0.236659
-0.043304 0.065062 0.240516
-0.042652 0.065814 0.243237
-0.048067 0.076227 0.281655
-0.047643 0.077711 0.287070
-0.046114 0.077428 0.285957
-0.044777 0.077460 0.286004
-0.043297 0.077239 0.285123
-0.042207 0.077720 0.286832
-0.040802 0.077636 0.286456
-0.039267 0.077291 0.285116
-0.037679 0.076811 0.283285
-0.036370 0.076886 0.283497
-0.035050 0.076943 0.283647
-0.033533 0.076556 0.282160
-0.029670 0.070557 0.259996
-0.027879 0.069177 0.254860
-0.026667 0.069175 0.254802
-0.025512 0.069329 0.255319
-0.024290 0.069307 0.255189
-0.023134 0.069479 0.255777
-0.021961 0.069620 0.256250
-0.020737 0.069602 0.256141
-0.019641 0.070041 0.257714
-0.018423 0.070074 0.257795
-0.018473 0.075280 0.276905
-0.017044 0.074796 0.275083
-0.015558 0.073963 0.271982
-0.014361 0.074472 0.273820
-0.013061 0.074497 0.273878
-0.011149 0.070656 0.259728
-0.009874 0.070389 0.258717
-0.008800 0.071684 0.263452
-0.007458 0.070872 0.260441
-0.006238 0.071114 0.261310
-0.005019 0.071499 0.262703
-0.003756 0.071321 0.262030
-0.002527 0.071908 0.264170
-0.001278 0.072510 0.266370
-0.000007 0.072549 0.266500
0.001266 0.072657 0.266886
0.002570 0.073520 0.270049
0.003834 0.073044 0.268293
0.005144 0.073469 0.269852
0.006448 0.073658 0.270545
0.007642 0.072735 0.267155
0.008904 0.072624 0.266750
0.010119 0.072209 0.265228
0.011404 0.072332 0.265686
0.012664 0.072285 0.265524
0.013930 0.072274 0.265492
0.015290 0.072718 0.267134
0.016612 0.072921 0.267897
0.017938 0.073116 0.268627
0.019215 0.073096 0.268574
0.020605 0.073481 0.270009
0.021867 0.073390 0.269694
0.023042 0.073035 0.268413
0.024449 0.073414 0.269831
0.025814 0.073632 0.270661
0.026937 0.073174 0.269005
0.028025 0.072667 0.267170
0.028741 0.071282 0.262106
0.029827 0.070891 0.260702
0.031399 0.071640 0.263487
0.032450 0.071187 0.261858
0.033633 0.071047 0.261378
0.035112 0.071521 0.263158
0.036310 0.071409 0.262780
0.037721 0.071709 0.263923
0.039382 0.072450 0.266690
0.040485 0.072150 0.265627
0.041652 0.071978 0.265034
0.042585 0.071423 0.263031
0.044061 0.071785 0.264406
0.045228 0.071638 0.263904
0.046110 0.071059 0.261814
0.046678 0.070040 0.258102
0.047561 0.069533 0.256273
0.049023 0.069877 0.257580
0.050010 0.069543 0.256390
0.051400 0.069773 0.257280
0.052848 0.070068 0.258408
0.054122 0.070124 0.258654
0.055474 0.070277 0.259259
0.057171 0.070850 0.261413
0.058548 0.071011 0.262045
0.060335 0.071653 0.264450
0.062429 0.072624 0.268071
0.064120 0.073098 0.269858
0.065457 0.073157 0.270111
0.066926 0.073358 0.270887
0.068284 0.073433 0.271196
0.069709 0.073574 0.271751
0.071055 0.073630 0.271985
0.072141 0.073419 0.271232
0.073527 0.073514 0.271609
0.074569 0.073269 0.270724
0.075422 0.072849 0.269193
0.076953 0.073086 0.270090
0.077761 0.072642 0.268461
0.078080 0.071761 0.265220
0.078447 0.070952 0.262238
0.079875 0.071113 0.262841
0.081019 0.071020 0.262500
0.081965 0.070758 0.261532
0.083872 0.071323 0.263613
0.085597 0.071717 0.265063
0.086920 0.071768 0.265240
0.088520 0.072043 0.266243
0.090194 0.072370 0.267430
0.097385 0.077052 0.284706
0.100279 0.078253 0.289115
0.101297 0.077977 0.288059
0.103264 0.078428 0.289687
0.104612 0.078405 0.289555
0.105804 0.078266 0.288989
0.107136 0.078233 0.288809
0.108649 0.078332 0.289110
0.109943 0.078272 0.288817
0.111178 0.078171 0.288370
0.112623 0.078219 0.288462
0.113979 0.078205 0.288321
0.115324 0.078184 0.288144
0.116524 0.078066 0.287603
0.118072 0.078180 0.287912
0.119638 0.078305 0.288249
0.120875 0.078212 0.287779
0.122623 0.078450 0.288515
0.124252 0.078606 0.288941
0.125741 0.078672 0.289025
0.127408 0.078845 0.289497
0.128738 0.078809 0.289187
0.130211 0.078861 0.289190
0.131547 0.078829 0.288875
0.132993 0.078862 0.288789
0.134633 0.079009 0.289105
0.136334 0.079188 0.289528
0.138093 0.079397 0.290047
0.139607 0.079462 0.290027
0.141065 0.079494 0.289872
0.142614 0.079576 0.289887
0.144457 0.079819 0.290471
0.145887 0.079831 0.290201
0.148127 0.080282 0.291510
0.149701 0.080367 0.291468
0.151309 0.080468 0.291471
0.152686 0.080445 0.291008
0.154177 0.080482 0.290742
-0.046261 0.024031 0.085968
-0.046048 0.024135 0.086453
-0.041966 0.027421 0.099894
-0.042959 0.028388 0.103455
-0.042527 0.028425 0.103623
-0.040354 0.027286 0.099501
-0.042190 0.028862 0.105279
-0.040420 0.030129 0.110043
-0.040477 0.030563 0.111639
-0.040266 0.030803 0.112526
-0.039953 0.030970 0.113146
-0.039346 0.030911 0.112934
-0.040706 0.032417 0.118440
-0.040966 0.033077 0.120854
-0.040816 0.033419 0.122104
-0.040544 0.033670 0.123019
-0.040210 0.033876 0.123767
-0.040019 0.034211 0.124984
-0.040067 0.034762 0.126992
-0.040435 0.035612 0.130088
-0.040361 0.036093 0.131834
-0.041008 0.037244 0.136026
-0.041817 0.038581 0.140893
-0.040654 0.038113 0.139167
-0.040260 0.038361 0.140057
-0.039651 0.038410 0.140218
-0.056761 0.055915 0.204089
-0.055720 0.055835 0.203766
-0.056634 0.057746 0.210704
-0.056402 0.058535 0.213547
-0.055864 0.059029 0.215314
-0.054616 0.058779 0.214361
-0.054709 0.059989 0.218732
-0.055330 0.061834 0.225417
-0.054260 0.061827 0.225344
-0.052836 0.061408 0.223770
-0.051781 0.061408 0.223726
-0.051000 0.061741 0.224889
-0.050190 0.062051 0.225971
-0.049214 0.062166 0.226339
-0.048268 0.062325 0.226865
-0.047306 0.062470 0.227342
-0.046373 0.062661 0.227985
-0.045451 0.062876 0.228713
-0.044659 0.063286 0.230151
-0.043809 0.063632 0.231357
-0.043266 0.064454 0.234291
-0.042969 0.065695 0.238744
-0.049561 0.077818 0.282737
-0.048268 0.077893 0.282941
-0.047570 0.078957 0.286742
-0.046259 0.079038 0.286967
-0.044836 0.078927 0.286499
-0.043517 0.078997 0.286687
-0.042139 0.078961 0.286490
-0.040797 0.078994 0.286546
-0.039019 0.078155 0.283440
-0.037669 0.078142 0.283334
-0.036352 0.078202 0.283489
-0.034703 0.077525 0.280975
-0.033354 0.077490 0.280790
-0.032107 0.077698 0.281487
-0.030568 0.077189 0.279589
-0.029234 0.077174 0.279481
-0.027924 0.077222 0.279601
-0.025940 0.075322 0.272672
-0.024583 0.075137 0.271953
-0.023263 0.075049 0.271589
-0.021919 0.074870 0.270895
-0.020626 0.074854 0.270792
-0.019748 0.076443 0.276498
-0.018440 0.076476 0.276579
-0.017013 0.075984 0.274759
-0.015638 0.075658 0.273546
-0.014290 0.075420 0.272648
-0.013003 0.075486 0.272855
-0.011654 0.075170 0.271681
-0.010343 0.075046 0.271206
-0.009073 0.075234 0.271857
-0.007751 0.074978 0.270906
-0.006450 0.074858 0.270451
-0.005166 0.074931 0.270695
-0.003870 0.074828 0.270302
-0.002581 0.074808 0.270213
-0.001293 0.074855 0.270369
-0.000004 0.074753 0.269988
0.001284 0.074785 0.270094
0.002578 0.074944 0.270661
0.003859 0.074751 0.269956
0.005146 0.074736 0.269898
0.006428 0.074676 0.269681
0.007688 0.074416 0.268741
0.008976 0.074466 0.268923
0.010220 0.074186 0.267916
0.011512 0.074276 0.268246
0.012779 0.074200 0.267982
0.014066 0.074246 0.268157
0.015347 0.074252 0.268189
0.016645 0.074333 0.268498
0.017951 0.074435 0.268881
0.019217 0.074370 0.268663
0.020516 0.074433 0.268909
0.021815 0.074490 0.269136
0.023064 0.074376 0.268746
0.024345 0.074372 0.268757
0.025634 0.074393 0.268856
0.026940 0.074458 0.269120
0.028222 0.074452 0.269126
0.029491 0.074417 0.269030
0.030784 0.074441 0.269146
0.031974 0.074224 0.268394
0.033199 0.074101 0.267985
0.034503 0.074156 0.268216
0.035718 0.074025 0.267779
0.036924 0.073884 0.267303
0.038209 0.073904 0.267413
0.039477 0.073891 0.267403
0.040751 0.073891 0.267443
0.041953 0.073764 0.267020
0.043266 0.073832 0.267308
0.044558 0.073862 0.267456
0.045785 0.073787 0.267224
0.047143 0.073920 0.267747
0.048353 0.073820 0.267423
0.049517 0.073657 0.266873
0.050813 0.073694 0.267048
0.051922 0.073464 0.266255
0.053101 0.073340 0.265848
0.054351 0.073320 0.265813
0.055718 0.073453 0.266336
0.057030 0.073510 0.266579
0.058101 0.073260 0.265712
0.059735 0.073716 0.267403
0.061208 0.073960 0.268321
0.062541 0.074025 0.268594
0.064184 0.074449 0.270165
0.065583 0.074578 0.270666
0.066925 0.074639 0.270920
0.068343 0.074781 0.271464
0.069696 0.074846 0.271730
0.070902 0.074756 0.271428
0.072069 0.074628 0.270987
0.073272 0.074540 0.270691
0.074288 0.074268 0.269724
0.075399 0.074100 0.269129
0.076694 0.074114 0.269195
0.077717 0.073870 0.268320
0.078873 0.073757 0.267920
0.080037 0.073656 0.267559
0.081115 0.073480 0.266924
0.082312 0.073415 0.266687
0.083534 0.073374 0.266536
0.085288 0.073795 0.268056
0.086793 0.073990 0.268756
0.088166 0.074070 0.269032
0.090146 0.074650 0.271118
0.091222 0.074474 0.270458
0.097643 0.078607 0.285438
0.099681 0.079146 0.287362
0.101142 0.079219 0.287586
0.102958 0.079564 0.288796
0.104484 0.079679 0.289161
0.105875 0.079688 0.289140
0.107017 0.079513 0.288443
0.108441 0.079549 0.288505
0.109826 0.079556 0.288455
0.111041 0.079441 0.287957
0.112348 0.079393 0.287697
0.113773 0.079430 0.287733
0.115096 0.079394 0.287503
0.116738 0.079577 0.288055
0.118147 0.079599 0.288015
0.119670 0.079695 0.288240
0.121058 0.079701 0.288127
0.122533 0.079764 0.288209
0.124140 0.079909 0.288582
0.125575 0.079942 0.288540
0.127027 0.079985 0.288523
0.128556 0.080075 0.288666
0.129926 0.080065 0.288437
0.131593 0.080236 0.288851
0.132829 0.080144 0.288304
0.134277 0.080179 0.288206
0.135934 0.080338 0.288539
0.137702 0.080558 0.289079
0.139510 0.080797 0.289672
0.140951 0.080820 0.289479
0.142385 0.080839 0.289255
0.143980 0.080948 0.289341
0.145609 0.081073 0.289468
0.148482 0.081883 0.292019
0.149901 0.081882 0.291663
0.151349 0.081897 0.291345
0.152847 0.081939 0.291105
0.154434 0.082027 0.291009
-0.045849 0.024227 0.085142
-0.045352 0.024180 0.085088
-0.045096 0.024262 0.085485
-0.041709 0.027722 0.099256
-0.041675 0.028014 0.100338
-0.043024 0.029253 0.104811
-0.041123 0.028285 0.101375
-0.040206 0.030487 0.109452
-0.040411 0.031039 0.111449
-0.039616 0.030829 0.110703
-0.039952 0.031504 0.113135
-0.039928 0.031910 0.114601
-0.040711 0.032981 0.118454
-0.040276 0.033081 0.118817
-0.040912 0.034076 0.122393
-0.040596 0.034295 0.123178
-0.040433 0.034652 0.124459
-0.039854 0.034658 0.124474
-0.039737 0.035071 0.125952
-0.039188 0.035110 0.126086
-0.040590 0.036924 0.132592
-0.041878 0.038691 0.138923
-0.041179 0.038649 0.138759
-0.040160 0.038299 0.137490
-0.040211 0.038976 0.139902
-0.057757 0.056915 0.204270
-0.056690 0.056809 0.203862
-0.056850 0.057951 0.207930
-0.056314 0.058411 0.209548
-0.056193 0.059325 0.212794
-0.056012 0.060208 0.215926
-0.056550 0.061910 0.221993
-0.055922 0.062378 0.223627
-0.054648 0.062128 0.222691
-0.053303 0.061786 0.221422
-0.052245 0.061769 0.221319
-0.051445 0.062064 0.222329
-0.050694 0.062431 0.223598
-0.049965 0.062841 0.225021
-0.049073 0.063060 0.225756
-0.048051 0.063117 0.225911
-0.047133 0.063318 0.226581
-0.046193 0.063497 0.227171
-0.045268 0.063706 0.227868
-0.044450 0.064079 0.229152
-0.043708 0.064583 0.230902
-0.042971 0.065121 0.232775
-0.043076 0.066997 0.239425
-0.049738 0.079447 0.283853
-0.048440 0.079522 0.284056
-0.047325 0.079910 0.285376
-0.046215 0.080328 0.286807
-0.044778 0.080188 0.286242
-0.043436 0.080214 0.286271
-0.042257 0.080552 0.287414
-0.040771 0.080309 0.286485
-0.039104 0.079681 0.284182
-0.037488 0.079113 0.282099
-0.036177 0.079173 0.282253
-0.034397 0.078170 0.278622
-0.032798 0.077518 0.276240
-0.031487 0.077516 0.276181
-0.030191 0.077558 0.276276
-0.028716 0.077118 0.274657
-0.027335 0.076905 0.273848
-0.025896 0.076498 0.272349
-0.024541 0.076309 0.271631
-0.023223 0.076220 0.271266
-0.021881 0.076037 0.270573
-0.020589 0.076020 0.270470
-0.019289 0.075964 0.270230
-0.018021 0.076038 0.270452
-0.016720 0.075973 0.270184
-0.015447 0.076039 0.270382
-0.014163 0.076051 0.270393
-0.012873 0.076038 0.270313
-0.011587 0.076044 0.270307
-0.010296 0.076015 0.270174
-0.009010 0.076025 0.270184
-0.007722 0.076006 0.270092
-0.006426 0.075898 0.269686
-0.005148 0.076008 0.270056
-0.003858 0.075948 0.269824
-0.002576 0.076034 0.270113
-0.001289 0.076098 0.270326
-0.000001 0.075991 0.269933
0.001289 0.076176 0.270579
0.002579 0.076186 0.270609
0.003860 0.076000 0.269943
0.005146 0.075983 0.269875
0.006424 0.075875 0.269489
0.007699 0.075781 0.269157
0.008976 0.075729 0.268972
0.010250 0.075664 0.268746
0.011556 0.075819 0.269301
0.012836 0.075794 0.269221
0.014112 0.075751 0.269077
0.015398 0.075764 0.269135
0.016691 0.075809 0.269306
0.017953 0.075714 0.268985
0.019241 0.075736 0.269078
0.020524 0.075733 0.269087
0.021838 0.075840 0.269487
0.023076 0.075685 0.268959
0.024394 0.075796 0.269373
0.025695 0.075845 0.269573
0.026947 0.075750 0.269261
0.028232 0.075755 0.269305
0.029569 0.075889 0.269812
0.030840 0.075852 0.269709
0.032106 0.075806 0.269578
0.033393 0.075811 0.269624
0.034647 0.075741 0.269411
0.035911 0.075699 0.269294
0.037114 0.075536 0.268750
0.038376 0.075499 0.268654
0.039716 0.075612 0.269093
0.040943 0.075511 0.268770
0.042186 0.075444 0.268569
0.043429 0.075380 0.268379
0.044777 0.075499 0.268841
0.046018 0.075434 0.268645
0.047355 0.075525 0.269011
0.048708 0.075638 0.269450
0.049842 0.075412 0.268683
0.051122 0.075414 0.268729
0.052319 0.075295 0.268345
0.053522 0.075190 0.268009
0.054767 0.075149 0.267900
0.056067 0.075182 0.268055
0.057363 0.075209 0.268186
0.058592 0.075148 0.268005
0.059924 0.075220 0.268294
0.061392 0.075455 0.269166
0.062719 0.075511 0.269401
0.064212 0.075760 0.270320
0.065656 0.075944 0.271006
0.066960 0.075961 0.271095
0.068324 0.076043 0.271417
0.069626 0.076055 0.271485
0.070936 0.076076 0.271582
0.072073 0.075914 0.271024
0.073314 0.075864 0.270867
0.074476 0.075735 0.270423
0.075548 0.075522 0.269676
0.076758 0.075450 0.269433
0.078027 0.075439 0.269401
0.079139 0.075278 0.268832
0.080354 0.075218 0.268623
0.081551 0.075144 0.268358
0.082962 0.075266 0.268790
0.084410 0.075418 0.269326
0.085963 0.075657 0.270168
0.087733 0.076077 0.271655
0.089303 0.076314 0.272485
0.091378 0.076970 0.274804
0.097213 0.080730 0.288199
0.098461 0.080628 0.287803
0.099608 0.080448 0.287121
0.101381 0.080771 0.288231
0.102972 0.080942 0.288794
0.104200 0.080828 0.288331
0.105509 0.080778 0.288095
0.107012 0.080876 0.288378
0.108504 0.080964 0.288619
0.109893 0.080973 0.288573
0.111241 0.080952 0.288413
0.112581 0.080926 0.288227
0.114090 0.081020 0.288464
0.115424 0.080989 0.288245
0.116751 0.080954 0.288007
0.118260 0.081045 0.288207
0.119524 0.080967 0.287800
0.120958 0.081005 0.287796
0.122507 0.081118 0.288049
0.123857 0.081098 0.287822
0.125493 0.081264 0.288244
0.126745 0.081180 0.287770
0.128441 0.081379 0.288288
0.130057 0.081524 0.288604
0.131513 0.081566 0.288545
0.132977 0.081612 0.288488
0.134542 0.081718 0.288633
0.135968 0.081739 0.288463
0.137781 0.081990 0.289091
0.139421 0.082134 0.289328
0.140951 0.082209 0.289312
0.142376 0.082224 0.289065
0.143850 0.082266 0.288900
0.145545 0.082431 0.289155
0.148098 0.083075 0.291069
0.149799 0.083234 0.291262
0.151224 0.083237 0.290895
0.152929 0.083393 0.291045
0.154226 0.083325 0.290393
-0.046202 0.024828 0.085734
-0.045773 0.024818 0.085818
-0.045535 0.024914 0.086258
-0.041923 0.028338 0.099740
-0.041108 0.028102 0.098950
-0.042829 0.029614 0.104312
-0.041666 0.029145 0.102693
-0.041203 0.031371 0.110719
-0.040735 0.031412 0.110880
-0.040351 0.031519 0.111274
-0.039489 0.031251 0.110338
-0.039903 0.031999 0.112992
-0.041790 0.033965 0.119942
-0.041368 0.034081 0.120359
-0.040861 0.034131 0.120540
-0.040643 0.034427 0.121586
-0.040265 0.034593 0.122174
-0.040284 0.035110 0.124001
-0.040102 0.035465 0.125250
-0.040007 0.035909 0.126814
-0.040440 0.036846 0.130120
-0.040171 0.037164 0.131234
-0.041483 0.038977 0.137626
-0.041818 0.039914 0.140924
-0.041207 0.039965 0.141090
-0.058572 0.057736 0.203807
-0.057685 0.057809 0.204040
-0.057659 0.058761 0.207375
-0.056826 0.058909 0.207872
-0.056841 0.059958 0.211543
-0.056756 0.060937 0.214964
-0.057551 0.062912 0.221898
-0.057088 0.063561 0.224149
-0.055889 0.063399 0.223540
-0.054257 0.062730 0.221141
-0.053094 0.062588 0.220601
-0.051780 0.062259 0.219399
-0.051013 0.062587 0.220513
-0.050242 0.062924 0.221659
-0.049662 0.063521 0.223716
-0.048847 0.063835 0.224775
-0.047919 0.064013 0.225355
-0.046945 0.064136 0.225741
-0.045986 0.064286 0.226222
-0.045122 0.064578 0.227202
-0.044346 0.065015 0.228688
-0.043532 0.065417 0.230051
-0.042612 0.065675 0.230908
-0.042735 0.067595 0.237608
-0.048936 0.079494 0.279373
-0.048805 0.081482 0.286298
-0.047519 0.081601 0.286653
-0.046138 0.081559 0.286442
-0.044868 0.081715 0.286930
-0.043564 0.081819 0.287233
-0.042210 0.081832 0.287216
-0.040862 0.081858 0.287246
-0.039145 0.081121 0.284603
-0.037358 0.080182 0.281248
-0.036052 0.080242 0.281401
-0.033992 0.078566 0.275472
-0.032632 0.078437 0.274965
-0.031168 0.078039 0.273518
-0.029936 0.078212 0.274070
-0.028580 0.078064 0.273501
-0.027183 0.077782 0.272466
-0.025822 0.077579 0.271707
-0.024484 0.077431 0.271144
-0.023180 0.077379 0.270917
-0.021876 0.077319 0.270664
-0.020601 0.077363 0.270776
-0.019313 0.077361 0.270728
-0.018009 0.077288 0.270436
-0.016748 0.077404 0.270806
-0.015448 0.077346 0.270567
-0.014130 0.077178 0.269945
-0.012858 0.077256 0.270188
-0.011571 0.077248 0.270130
-0.010275 0.077170 0.269830
-0.008994 0.077196 0.269894
-0.007709 0.077197 0.269873
-0.006417 0.077113 0.269558
-0.005136 0.077165 0.269720
-0.003850 0.077128 0.269574
-0.002570 0.077242 0.269955
-0.001285 0.077347 0.270307
0.000002 0.077433 0.270597
0.001294 0.077549 0.270993
0.002588 0.077627 0.271257
0.003876 0.077542 0.270953
0.005163 0.077469 0.270694
0.006445 0.077371 0.270348
0.007715 0.077192 0.269720
0.008992 0.077118 0.269463
0.010297 0.077274 0.270013
0.011567 0.077158 0.269613
0.012861 0.077210 0.269802
0.014170 0.077333 0.270240
0.015438 0.077233 0.269899
0.016746 0.077329 0.270247
0.018051 0.077403 0.270521
0.019313 0.077292 0.270149
0.020609 0.077321 0.270267
0.021920 0.077401 0.270566
0.023206 0.077389 0.270545
0.024508 0.077430 0.270708
0.025795 0.077418 0.270689
0.027080 0.077403 0.270663
0.028345 0.077336 0.270454
0.029605 0.077261 0.270220
0.030925 0.077340 0.270522
0.032131 0.077141 0.269856
0.033368 0.077028 0.269492
0.034661 0.077049 0.269596
0.035806 0.076749 0.268578
0.037062 0.076700 0.268439
0.038377 0.076773 0.268731
0.039744 0.076941 0.269353
0.041089 0.077058 0.269796
0.042389 0.077086 0.269930
0.043718 0.077162 0.270232
0.045015 0.077180 0.270332
0.046284 0.077149 0.270260
0.047550 0.077115 0.270179
0.048801 0.077059 0.270021
0.050007 0.076938 0.269632
0.051196 0.076797 0.269174
0.052423 0.076717 0.268929
0.053748 0.076782 0.269195
0.054854 0.076537 0.268371
0.056117 0.076519 0.268342
0.057369 0.076486 0.268261
0.058655 0.076499 0.268338
0.060035 0.076630 0.268832
0.061384 0.076719 0.269174
0.062859 0.076957 0.270040
0.064316 0.077164 0.270793
0.065730 0.077313 0.271344
0.067029 0.077322 0.271403
0.068439 0.077457 0.271902
0.069715 0.077438 0.271858
0.071037 0.077470 0.271991
0.072322 0.077461 0.271977
0.073410 0.077246 0.271237
0.074677 0.077223 0.271170
0.075847 0.077101 0.270755
0.076956 0.076923 0.270137
0.078330 0.077011 0.270452
0.079436 0.076837 0.269845
0.080811 0.076924 0.270152
0.082139 0.076964 0.270290
0.083535 0.077067 0.270643
0.084980 0.077209 0.271134
0.086609 0.077513 0.272187
0.088297 0.077860 0.273387
0.090149 0.078339 0.275046
0.091923 0.078738 0.276421
0.097524 0.082356 0.289093
0.098777 0.082254 0.288696
0.099892 0.082040 0.287905
0.101551 0.082274 0.288677
0.102930 0.082277 0.288637
0.104455 0.082395 0.288992
0.105685 0.082280 0.288524
0.106975 0.082214 0.288225
0.108392 0.082247 0.288263
0.109734 0.082222 0.288093
0.110986 0.082131 0.287684
0.112285 0.082077 0.287399
0.113937 0.082279 0.288002
0.115212 0.082206 0.287636
0.117022 0.082513 0.288591
0.118264 0.082417 0.288128
0.119820 0.082539 0.288419
0.121182 0.082526 0.288230
0.122513 0.082493 0.287960
0.123988 0.082556 0.288017
0.125471 0.082623 0.288079
0.127093 0.082779 0.288442
0.128558 0.082830 0.288428
0.130075 0.082913 0.288513
0.131514 0.082945 0.288411
0.133051 0.083038 0.288508
0.134525 0.083090 0.288451
0.135783 0.083008 0.287919
0.137694 0.083323 0.288749
0.139324 0.083463 0.288959
0.140655 0.083424 0.288532
0.142350 0.083598 0.288832
0.144322 0.083931 0.289661
0.145754 0.083945 0.289377
0.147378 0.084069 0.289454
0.149356 0.084390 0.290192
0.151361 0.084721 0.290942
0.152726 0.084690 0.290432
0.154596 0.084937 0.290857
-0.046072 0.025171 0.085429
-0.045854 0.025277 0.085906
-0.045526 0.025324 0.086181
-0.041819 0.028739 0.099464
-0.042673 0.029658 0.102689
-0.042584 0.029936 0.103690
-0.041718 0.029668 0.102797
-0.040428 0.029088 0.100820
-0.040516 0.031363 0.108860
-0.040511 0.031760 0.110257
-0.040101 0.031846 0.110573
-0.039508 0.031788 0.110383
-0.042001 0.034243 0.118923
-0.041495 0.034288 0.119087
-0.041254 0.034555 0.120023
-0.040345 0.034263 0.119015
-0.040288 0.034696 0.120523
-0.039965 0.034908 0.121264
-0.041194 0.036503 0.126804
-0.040837 0.036718 0.127550
-0.041346 0.037729 0.131061
-0.040321 0.037351 0.129741
-0.039961 0.037586 0.130553
-0.041433 0.039580 0.137469
-0.057978 0.058105 0.201761
-0.057305 0.058387 0.202719
-0.057705 0.059790 0.207567
-0.057029 0.060107 0.208643
-0.056524 0.060619 0.210392
-0.055947 0.061070 0.211931
-0.056312 0.062586 0.217158
-0.055896 0.063272 0.219507
-0.054730 0.063121 0.218947
-0.053540 0.062935 0.218266
-0.052746 0.063216 0.219203
-0.051735 0.063243 0.219257
-0.050981 0.063593 0.220428
-0.050184 0.063901 0.221456
-0.049386 0.064222 0.222527
-0.048516 0.064461 0.223310
-0.047680 0.064758 0.224293
-0.046731 0.064910 0.224776
-0.045805 0.065103 0.225397
-0.044978 0.065448 0.226547
-0.044210 0.065899 0.228060
-0.043505 0.066467 0.229978
-0.042817 0.067094 0.232096
-0.050515 0.081237 0.280964
-0.049233 0.081314 0.281170
-0.048073 0.081603 0.282108
-0.047516 0.082960 0.286741
-0.046214 0.083058 0.287020
-0.044916 0.083171 0.287350
-0.043570 0.083198 0.287383
-0.042249 0.083278 0.287598
-0.040928 0.083361 0.287828
-0.038803 0.081757 0.282233
-0.037395 0.081605 0.281650
-0.036087 0.081665 0.281804
-0.034241 0.080466 0.277613
-0.032656 0.079810 0.275297
-0.031439 0.080037 0.276028
-0.030132 0.080044 0.276001
-0.028708 0.079728 0.274862
-0.027375 0.079644 0.274526
-0.026039 0.079544 0.274133
-0.024733 0.079529 0.274038
-0.023519 0.079828 0.275024
-0.022170 0.079676 0.274458
-0.020868 0.079684 0.274443
-0.019587 0.079776 0.274720
-0.018208 0.079456 0.273582
-0.016872 0.079291 0.272979
-0.015542 0.079130 0.272387
-0.014188 0.078801 0.271222
-0.012884 0.078718 0.270906
-0.011578 0.078599 0.270470
-0.010289 0.078584 0.270391
-0.009008 0.078634 0.270537
-0.007729 0.078722 0.270815
-0.006439 0.078710 0.270752
-0.005160 0.078865 0.271266
-0.003868 0.078841 0.271166
-0.002581 0.078971 0.271596
-0.001288 0.079020 0.271750
0.000006 0.079030 0.271774
0.001300 0.079047 0.271822
0.002596 0.079085 0.271944
0.003886 0.078972 0.271548
0.005168 0.078798 0.270944
0.006452 0.078705 0.270621
0.007727 0.078564 0.270138
0.009013 0.078558 0.270118
0.010297 0.078528 0.270017
0.011591 0.078585 0.270215
0.012884 0.078612 0.270315
0.014170 0.078604 0.270298
0.015475 0.078690 0.270600
0.016755 0.078643 0.270452
0.018045 0.078649 0.270484
0.019318 0.078584 0.270277
0.020596 0.078548 0.270169
0.021859 0.078461 0.269889
0.023156 0.078498 0.270034
0.024457 0.078543 0.270210
0.025713 0.078447 0.269901
0.026970 0.078363 0.269637
0.028204 0.078224 0.269181
0.029482 0.078212 0.269165
0.030827 0.078371 0.269742
0.032003 0.078104 0.268849
0.033295 0.078132 0.268974
0.034624 0.078240 0.269375
0.035804 0.078016 0.268635
0.037092 0.078034 0.268728
0.038384 0.078058 0.268842
0.039668 0.078066 0.268906
0.041151 0.078452 0.270266
0.042427 0.078432 0.270234
0.043832 0.078646 0.271003
0.045150 0.078694 0.271205
0.046281 0.078423 0.270306
0.047583 0.078448 0.270427
0.048926 0.078538 0.270770
0.050005 0.078211 0.269677
0.051299 0.078227 0.269768
0.052527 0.078145 0.269519
0.053787 0.078112 0.269438
0.054998 0.078012 0.269125
0.056258 0.077984 0.269063
0.057609 0.078080 0.269423
0.058955 0.078165 0.269750
0.060181 0.078092 0.269527
0.061589 0.078252 0.270107
0.062937 0.078331 0.270408
0.064330 0.078462 0.270887
0.065688 0.078546 0.271201
0.066945 0.078508 0.271093
0.068308 0.078593 0.271408
0.069561 0.078550 0.271279
0.070975 0.078688 0.271775
0.072232 0.078650 0.271659
0.073409 0.078527 0.271249
0.074749 0.078580 0.271441
0.075857 0.078391 0.270798
0.077283 0.078533 0.271292
0.078492 0.078451 0.271015
0.079844 0.078514 0.271230
0.081244 0.078620 0.271594
0.082500 0.078587 0.271473
0.083882 0.078672 0.271757
0.085241 0.078733 0.271955
0.087198 0.079337 0.274023
0.088955 0.079743 0.275405
0.090452 0.079908 0.275950
0.092514 0.080560 0.278170
0.097712 0.083886 0.289619
0.098969 0.083783 0.289222
0.099606 0.083164 0.287041
0.101341 0.083467 0.288038
0.103103 0.083784 0.289074
0.104426 0.083741 0.288862
0.105847 0.083775 0.288913
0.107241 0.083789 0.288885
0.108471 0.083675 0.288411
0.109954 0.083756 0.288604
0.111270 0.083710 0.288351
0.112583 0.083662 0.288085
0.113982 0.083679 0.288036
0.115271 0.083615 0.287700
0.116736 0.083679 0.287797
0.118453 0.083921 0.288494
0.119516 0.083698 0.287590
0.120971 0.083752 0.287624
0.122541 0.083883 0.287918
0.124000 0.083936 0.287932
0.125477 0.084000 0.287974
0.127109 0.084165 0.288352
0.128636 0.084258 0.288472
0.130127 0.084325 0.288493
0.131695 0.084440 0.288667
0.133334 0.084598 0.288975
0.134879 0.084693 0.289055
0.136103 0.084586 0.288437
0.137635 0.084672 0.288459
0.139299 0.084835 0.288735
0.141023 0.085032 0.289107
0.142271 0.084940 0.288486
0.144033 0.085155 0.288889
0.145797 0.085366 0.289262
0.148725 0.086247 0.291889
0.149633 0.085952 0.290513
0.151562 0.086244 0.291104
0.153157 0.086341 0.291019
0.154647 0.086377 0.290710
-0.045931 0.025506 0.085101
-0.045521 0.025505 0.085218
-0.045277 0.025599 0.085646
-0.044754 0.025535 0.085542
-0.042250 0.029512 0.100460
-0.042437 0.029978 0.102093
-0.042226 0.030172 0.102791
-0.041435 0.029950 0.102074
-0.040353 0.029511 0.100611
-0.040223 0.031251 0.106686
-0.040533 0.031891 0.108889
-0.041034 0.032698 0.111667
-0.040419 0.032626 0.111438
-0.039682 0.032452 0.110858
-0.041223 0.034161 0.116710
-0.040700 0.034183 0.116796
-0.041100 0.034991 0.119567
-0.040378 0.034853 0.119106
-0.040504 0.035454 0.121164
-0.040216 0.035704 0.122022
-0.040513 0.036488 0.124707
-0.040918 0.037395 0.127804
-0.041397 0.038396 0.131225
-0.040856 0.038468 0.131467
-0.045265 0.043274 0.147890
-0.060083 0.060217 0.205754
-0.059188 0.060291 0.205992
-0.058365 0.060443 0.206491
-0.057466 0.060519 0.206731
-0.056817 0.060867 0.207895
-0.056135 0.061190 0.208973
-0.055819 0.061932 0.211480
-0.055310 0.062482 0.213329
-0.054511 0.062719 0.214108
-0.053823 0.063094 0.215355
-0.053199 0.063562 0.216918
-0.052212 0.063604 0.217027
-0.051380 0.063842 0.217802
-0.050524 0.064058 0.218503
-0.049686 0.064307 0.219313
-0.048998 0.064765 0.220835
-0.048319 0.065255 0.222462
-0.047393 0.065426 0.223004
-0.046584 0.065769 0.224131
-0.045648 0.065946 0.224689
-0.044761 0.066204 0.225523
-0.044041 0.066726 0.227256
-0.043246 0.067158 0.228683
-0.042436 0.067589 0.230104
-0.051557 0.084276 0.286856
-0.050248 0.084355 0.287065
-0.048810 0.084216 0.286535
-0.047497 0.084291 0.286731
-0.046164 0.084333 0.286816
-0.044820 0.084358 0.286843
-0.043498 0.084429 0.287025
-0.042168 0.084485 0.287159
-0.040790 0.084448 0.286976
-0.039119 0.083781 0.284653
-0.037246 0.082618 0.280648
-0.035943 0.082678 0.280800
-0.034121 0.081505 0.276761
-0.032551 0.080865 0.274540
-0.031441 0.081360 0.276170
-0.030048 0.081136 0.275360
-0.028590 0.080708 0.273860
-0.027215 0.080486 0.273061
-0.025884 0.080374 0.272636
-0.024539 0.080209 0.272033
-0.023221 0.080119 0.271683
-0.021903 0.080016 0.271293
-0.020625 0.080059 0.271399
-0.019320 0.079994 0.271142
-0.018002 0.079860 0.270652
-0.016712 0.079841 0.270551
-0.015425 0.079836 0.270502
-0.014094 0.079582 0.269611
-0.012807 0.079552 0.269479
-0.011554 0.079744 0.270101
-0.010270 0.079750 0.270094
-0.008989 0.079786 0.270190
-0.007713 0.079882 0.270492
-0.006433 0.079963 0.270747
-0.005146 0.079981 0.270788
-0.003860 0.080045 0.270985
-0.002572 0.080092 0.271129
-0.001284 0.080220 0.271549
0.000009 0.080229 0.271567
0.001304 0.080335 0.271914
0.002598 0.080328 0.271882
0.003889 0.080260 0.271645
0.005182 0.080245 0.271589
0.006471 0.080191 0.271404
0.007749 0.080039 0.270887
0.009042 0.080070 0.270992
0.010325 0.080006 0.270779
0.011625 0.080077 0.271025
0.012919 0.080100 0.271107
0.014211 0.080105 0.271132
0.015497 0.080074 0.271037
0.016786 0.080066 0.271018
0.018060 0.079991 0.270777
0.019323 0.079880 0.270415
0.020614 0.079890 0.270467
0.021880 0.079808 0.270204
0.023186 0.079876 0.270453
0.024543 0.080098 0.271224
0.025795 0.079977 0.270836
0.027124 0.080092 0.271246
0.028394 0.080031 0.271064
0.029783 0.080294 0.271980
0.031010 0.080117 0.271407
0.032222 0.079919 0.270762
0.033403 0.079660 0.269913
0.034647 0.079566 0.269623
0.035855 0.079398 0.269080
0.037133 0.079392 0.269092
0.038407 0.079378 0.269075
0.039714 0.079430 0.269282
0.041099 0.079630 0.269989
0.042482 0.079814 0.270646
0.043760 0.079795 0.270613
0.045214 0.080089 0.271645
0.046566 0.080192 0.272028
0.047873 0.080213 0.272132
0.049233 0.080320 0.272526
0.050470 0.080225 0.272237
0.051680 0.080094 0.271824
0.052866 0.079931 0.271303
0.054026 0.079739 0.270684
0.055345 0.079785 0.270870
0.056629 0.079778 0.270876
0.058030 0.079934 0.271436
0.059190 0.079757 0.270864
0.060447 0.079716 0.270752
0.061643 0.079599 0.270381
0.062940 0.079613 0.270453
0.064385 0.079810 0.271146
0.065589 0.079707 0.270817
0.066781 0.079593 0.270452
0.068203 0.079753 0.271014
0.069408 0.079657 0.270705
0.070764 0.079735 0.270983
0.072130 0.079821 0.271289
0.073321 0.079714 0.270934
0.074942 0.080069 0.272151
0.076238 0.080072 0.272165
0.077683 0.080228 0.272700
0.078864 0.080111 0.272299
0.080293 0.080245 0.272751
0.081751 0.080403 0.273284
0.082997 0.080351 0.273096
0.084509 0.080555 0.273776
0.086106 0.080831 0.274698
0.087839 0.081225 0.276018
0.089948 0.081950 0.278455
0.091663 0.082301 0.279617
0.093626 0.082860 0.281484
0.099028 0.086404 0.293484
0.100303 0.086299 0.293082
0.099841 0.084723 0.287677
0.101798 0.085214 0.289290
0.103146 0.085189 0.289144
0.104559 0.085218 0.289176
0.105832 0.085133 0.288814
0.107117 0.085059 0.288486
0.108516 0.085077 0.288463
0.109871 0.085061 0.288315
0.111200 0.085024 0.288093
0.112564 0.085015 0.287956
0.114025 0.085078 0.288058
0.115565 0.085199 0.288345
0.117244 0.085417 0.288955
0.118313 0.085191 0.288054
0.119804 0.085271 0.288178
0.121386 0.085412 0.288501
0.122498 0.085224 0.287703
0.123859 0.085211 0.287485
0.125568 0.085435 0.288058
0.127237 0.085627 0.288512
0.128700 0.085677 0.288479
0.130383 0.085872 0.288919
0.131817 0.085900 0.288787
0.133311 0.085966 0.288771
0.134709 0.085969 0.288531
0.136145 0.085996 0.288360
0.137852 0.086192 0.288742
0.140237 0.086803 0.290499
0.141346 0.086620 0.289584
0.142563 0.086506 0.288885
0.144317 0.086718 0.289257
0.145691 0.086698 0.288844
0.147489 0.086929 0.289246
0.150620 0.087934 0.292203
0.152242 0.088047 0.292175
0.153340 0.087857 0.291124
0.154904 0.087935 0.290943
-0.045631 0.025748 0.084475
-0.045712 0.026026 0.085509
-0.045284 0.026016 0.085594
-0.042059 0.029853 0.099976
-0.041965 0.030123 0.100927
-0.041353 0.030025 0.100639
-0.040699 0.029893 0.100234
-0.040430 0.030044 0.100777
-0.041862 0.032642 0.109620
-0.041757 0.032967 0.110736
-0.041955 0.033542 0.112693
-0.041378 0.033504 0.112586
-0.040365 0.033108 0.111274
-0.041020 0.034087 0.114582
-0.040942 0.034476 0.115904
-0.040736 0.034765 0.116889
-0.040571 0.035098 0.118020
-0.040225 0.035282 0.118647
-0.040356 0.035895 0.120717
-0.043052 0.038839 0.130623
-0.041994 0.038433 0.129263
-0.042583 0.039544 0.133002
-0.041472 0.039087 0.131466
-0.044984 0.043039 0.144756
-0.045210 0.043920 0.147716
-0.060683 0.059872 0.201357
-0.059797 0.059932 0.201552
-0.059119 0.060208 0.202467
-0.058877 0.060944 0.204927
-0.057994 0.061029 0.205197
-0.057356 0.061380 0.206359
-0.056527 0.061535 0.206859
-0.055911 0.061931 0.208169
-0.055486 0.062557 0.210248
-0.055031 0.063171 0.212283
-0.054305 0.063491 0.213332
-0.053561 0.063802 0.214347
-0.052887 0.064210 0.215686
-0.051948 0.064305 0.215972
-0.051192 0.064636 0.217050
-0.050364 0.064888 0.217859
-0.049519 0.065127 0.218624
-0.048832 0.065589 0.220138
-0.048091 0.065996 0.221467
-0.047329 0.066393 0.222757
-0.046360 0.066512 0.223114
-0.045455 0.066729 0.223803
-0.044618 0.067059 0.224867
-0.044009 0.067756 0.227158
-0.043288 0.068311 0.228977
-0.042622 0.068983 0.231185
-0.051347 0.085291 0.285781
-0.050042 0.085370 0.285989
-0.048762 0.085495 0.286354
-0.047436 0.085545 0.286464
-0.046099 0.085579 0.286521
-0.044772 0.085633 0.286646
-0.043415 0.085632 0.286588
-0.042091 0.085697 0.286750
-0.040696 0.085618 0.286429
-0.039187 0.085285 0.285263
-0.037474 0.084469 0.282479
-0.036162 0.084530 0.282632
-0.034329 0.083333 0.278579
-0.032917 0.083100 0.277751
-0.032029 0.084228 0.281472
-0.030426 0.083492 0.278962
-0.029098 0.083477 0.278864
-0.027712 0.083285 0.278178
-0.026415 0.083358 0.278377
-0.025217 0.083766 0.279697
-0.023779 0.083376 0.278353
-0.022442 0.083319 0.278120
-0.021111 0.083277 0.277940
-0.019674 0.082786 0.276264
-0.018374 0.082838 0.276401
-0.016959 0.082345 0.274723
-0.015550 0.081795 0.272855
-0.014143 0.081163 0.270714
-0.012845 0.081091 0.270445
-0.011563 0.081116 0.270500
-0.010266 0.081027 0.270177
-0.008992 0.081126 0.270485
-0.007708 0.081152 0.270547
-0.006428 0.081232 0.270793
-0.005141 0.081255 0.270852
-0.003855 0.081294 0.270965
-0.002567 0.081328 0.271062
-0.001280 0.081495 0.271603
0.000012 0.081460 0.271477
0.001307 0.081600 0.271932
0.002600 0.081572 0.271828
0.003896 0.081631 0.272019
0.005187 0.081567 0.271800
0.006470 0.081426 0.271328
0.007766 0.081480 0.271505
0.009044 0.081342 0.271046
0.010330 0.081315 0.270956
0.011651 0.081529 0.271673
0.012940 0.081500 0.271582
0.014238 0.081528 0.271683
0.015523 0.081481 0.271535
0.016784 0.081327 0.271031
0.018071 0.081314 0.271001
0.019350 0.081267 0.270855
0.020658 0.081338 0.271107
0.021926 0.081252 0.270835
0.023249 0.081371 0.271250
0.025359 0.084083 0.280309
0.026681 0.084043 0.280198
0.027801 0.083404 0.278087
0.029110 0.083360 0.277965
0.030475 0.083476 0.278373
0.031427 0.082494 0.275125
0.032435 0.081734 0.272615
0.033731 0.081730 0.272628
0.034854 0.081324 0.271299
0.036077 0.081169 0.270810
0.037356 0.081149 0.270772
0.038513 0.080872 0.269879
0.039885 0.081050 0.270501
0.041264 0.081231 0.271133
0.042499 0.081127 0.270817
0.043902 0.081337 0.271551
0.045103 0.081174 0.271037
0.046389 0.081168 0.271047
0.047763 0.081313 0.271561
0.049005 0.081231 0.271317
0.050383 0.081372 0.271820
0.051555 0.081182 0.271215
0.052827 0.081154 0.271152
0.054307 0.081439 0.272134
0.055653 0.081516 0.272418
0.056970 0.081548 0.272552
0.058287 0.081577 0.272675
0.059499 0.081462 0.272318
0.060461 0.081015 0.270849
0.061778 0.081055 0.271005
0.063118 0.081120 0.271247
0.064396 0.081106 0.271220
0.065674 0.081092 0.271194
0.066902 0.081018 0.270963
0.068189 0.081017 0.270975
0.069442 0.080977 0.270855
0.070643 0.080877 0.270533
0.071945 0.080896 0.270605
0.073173 0.080831 0.270397
0.074497 0.080873 0.270541
0.075942 0.081043 0.271111
0.076933 0.080730 0.270065
0.077990 0.080495 0.269277
0.079195 0.080420 0.269017
0.080682 0.080627 0.269701
0.082198 0.080856 0.270456
0.083553 0.080923 0.270661
0.085313 0.081374 0.272151
0.087158 0.081891 0.273854
0.089182 0.082558 0.276057
0.091059 0.083072 0.277743
0.093401 0.083989 0.280772
0.097497 0.086436 0.288907
0.098754 0.086332 0.288511
0.099968 0.086194 0.287997
0.101728 0.086524 0.289040
0.103079 0.086502 0.288901
0.104350 0.086415 0.288539
0.105867 0.086530 0.288846
0.107078 0.086396 0.288316
0.108463 0.086403 0.288251
0.109908 0.086457 0.288335
0.111189 0.086383 0.287984
0.112602 0.086411 0.287970
0.114031 0.086451 0.287984
0.115680 0.086655 0.288538
0.116950 0.086573 0.288130
0.118479 0.086683 0.288354
0.119977 0.086767 0.288484
0.121206 0.086657 0.287959
0.122889 0.086871 0.288502
0.124404 0.086962 0.288625
0.125493 0.086757 0.287756
0.127338 0.087073 0.288606
0.128986 0.087248 0.288977
0.130629 0.087417 0.289315
0.132068 0.087447 0.289182
0.133477 0.087457 0.288970
0.134883 0.087464 0.288738
0.136403 0.087545 0.288734
0.137500 0.087354 0.287826
0.139920 0.088000 0.289655
0.141734 0.088255 0.290184
0.142891 0.088100 0.289348
0.144480 0.088211 0.289373
0.146207 0.088405 0.289650
0.148583 0.088982 0.291166
0.150365 0.089196 0.291474
0.152450 0.089585 0.292329
0.153496 0.089361 0.291169
0.155121 0.089475 0.291089
-0.045485 0.026074 0.084135
-0.045274 0.026186 0.084620
-0.044907 0.026209 0.084814
-0.043142 0.030762 0.101329
-0.042010 0.030292 0.099826
-0.041744 0.030441 0.100365
-0.041354 0.030503 0.100611
-0.040538 0.030248 0.099811
-0.040069 0.030249 0.099850
-0.039349 0.030059 0.099257
-0.042763 0.033060 0.109201
-0.042572 0.033313 0.110070
-0.041853 0.033154 0.109575
-0.041575 0.033345 0.110233
-0.041380 0.033609 0.111130
-0.040477 0.033296 0.110118
-0.040152 0.033457 0.110672
-0.040345 0.034059 0.112683
-0.041199 0.035244 0.116619
-0.041437 0.035926 0.118890
-0.041036 0.036065 0.119364
-0.040883 0.036429 0.120581
-0.043337 0.039159 0.129627
-0.042781 0.039208 0.129797
-0.042013 0.039062 0.129317
-0.041873 0.039503 0.130783
-0.045952 0.043998 0.145665
-0.045322 0.044052 0.145846
-0.061479 0.060674 0.200875
-0.060608 0.060749 0.201117
-0.059768 0.060857 0.201467
-0.058499 0.061515 0.203625
-0.057668 0.061651 0.204061
-0.057096 0.062074 0.205444
-0.056369 0.062339 0.206304
-0.055836 0.062831 0.207912
-0.055496 0.063563 0.210313
-0.054890 0.064011 0.211769
-0.054086 0.064241 0.212504
-0.053255 0.064446 0.213155
-0.052620 0.064902 0.214634
-0.052004 0.065398 0.216245
-0.051241 0.065728 0.217301
-0.050292 0.065825 0.217591
-0.049515 0.066158 0.218657
-0.048835 0.066636 0.220201
-0.048015 0.066942 0.221172
-0.047143 0.067186 0.221940
-0.046165 0.067286 0.222233
-0.045277 0.067526 0.222985
-0.044399 0.067792 0.223824
-0.043766 0.068455 0.225973
-0.043273 0.069375 0.228967
-0.052301 0.085997 0.283774
-0.051008 0.086077 0.283985
-0.050019 0.086689 0.285950
-0.048718 0.086779 0.286192
-0.047346 0.086743 0.286021
-0.046037 0.086826 0.286241
-0.044738 0.086931 0.286532
-0.043355 0.086877 0.286300
-0.042010 0.086896 0.286308
-0.040674 0.086937 0.286392
-0.039085 0.086421 0.284640
-0.037082 0.084920 0.279644
-0.035880 0.085211 0.280553
-0.034576 0.085270 0.280699
-0.033099 0.084895 0.279414
-0.031781 0.084911 0.279420
-0.030177 0.084131 0.276807
-0.028846 0.084076 0.276582
-0.027479 0.083905 0.275975
-0.026164 0.083885 0.275866
-0.024905 0.084052 0.276373
-0.023560 0.083931 0.275934
-0.022240 0.083892 0.275768
-0.020876 0.083671 0.275003
-0.019549 0.083579 0.274663
-0.018213 0.083433 0.274149
-0.016872 0.083240 0.273480
-0.015548 0.083101 0.272993
-0.014145 0.082482 0.270929
-0.012838 0.082356 0.270485
-0.011567 0.082455 0.270783
-0.010264 0.082322 0.270322
-0.008980 0.082333 0.270333
-0.007700 0.082386 0.270486
-0.006417 0.082425 0.270593
-0.005143 0.082617 0.271204
-0.003854 0.082632 0.271235
-0.002568 0.082747 0.271599
-0.001278 0.082882 0.272025
0.000016 0.082990 0.272368
0.001312 0.083007 0.272415
0.002608 0.083021 0.272451
0.003903 0.082984 0.272321
0.005192 0.082887 0.271999
0.006477 0.082764 0.271591
0.007763 0.082702 0.271386
0.009052 0.082673 0.271292
0.010354 0.082762 0.271585
0.011671 0.082935 0.272157
0.012980 0.083025 0.272455
0.014264 0.082949 0.272212
0.015552 0.082910 0.272090
0.016814 0.082750 0.271575
0.018104 0.082738 0.271547
0.019402 0.082759 0.271629
0.020714 0.082838 0.271902
0.021982 0.082741 0.271596
0.023333 0.082946 0.272288
0.025067 0.084422 0.277150
0.026347 0.084296 0.276756
0.027555 0.083963 0.275683
0.028836 0.083874 0.275411
0.029886 0.083149 0.273051
0.031036 0.082751 0.271767
0.032140 0.082266 0.270199
0.033160 0.081613 0.268078
0.034411 0.081554 0.267909
0.035615 0.081392 0.267403
0.036865 0.081345 0.267274
0.038103 0.081273 0.267064
0.039326 0.081175 0.266770
0.040800 0.081584 0.268141
0.041986 0.081411 0.267601
0.043354 0.081591 0.268220
0.044531 0.081410 0.267654
0.045536 0.080933 0.266115
0.046872 0.081056 0.266546
0.048074 0.080945 0.266210
0.049236 0.080775 0.265678
0.050668 0.081044 0.266591
0.051954 0.081073 0.266713
0.053481 0.081469 0.268040
0.055060 0.081922 0.269557
0.056378 0.081975 0.269756
0.057684 0.082008 0.269891
0.059152 0.082265 0.270761
0.060553 0.082421 0.271294
0.061647 0.082160 0.270458
0.062901 0.082119 0.270341
0.064309 0.082277 0.270878
0.065343 0.081959 0.269848
0.066775 0.082143 0.270469
0.068017 0.082089 0.270307
0.069357 0.082155 0.270535
0.070662 0.082178 0.270619
0.071839 0.082053 0.270214
0.072958 0.081868 0.269608
0.074216 0.081842 0.269523
0.075354 0.081686 0.269010
0.076374 0.081410 0.268099
0.077659 0.081421 0.268128
0.078881 0.081366 0.267938
0.080126 0.081337 0.267829
0.081748 0.081686 0.268961
0.083166 0.081822 0.269389
0.084463 0.081837 0.269414
0.086618 0.082670 0.272130
0.088581 0.083299 0.274169
0.090677 0.084032 0.276544
0.092943 0.084900 0.279360
0.099040 0.089193 0.293437
0.100318 0.089087 0.293035
0.098540 0.086307 0.283833
0.101650 0.087825 0.288764
0.103177 0.087954 0.289118
0.104455 0.087869 0.288764
0.105670 0.087735 0.288241
0.107122 0.087798 0.288361
0.108407 0.087724 0.288025
0.109814 0.087750 0.288009
0.111271 0.087814 0.288111
0.112596 0.087773 0.287862
0.113927 0.087739 0.287627
