ply
format ascii 1.0
element vertex 1745
property float x
property float y
property float z
end_header
-0.018053 0.067453 0.252471
-0.016812 0.067301 0.251863
-0.017264 0.074422 0.278471
-0.015944 0.074452 0.278542
-0.014491 0.073816 0.276126
-0.013180 0.073841 0.276185
-0.010981 0.068350 0.255618
-0.009786 0.068516 0.256212
-0.008577 0.068621 0.256578
-0.007357 0.068656 0.256683
-0.006139 0.068725 0.256920
-0.004933 0.069009 0.257960
-0.003718 0.069302 0.259035
-0.002496 0.069684 0.260447
-0.001263 0.070264 0.262603
-0.000010 0.070548 0.263650
0.001256 0.070952 0.265152
0.002572 0.072376 0.270465
0.003822 0.071603 0.267571
0.005253 0.073760 0.275627
0.006621 0.074338 0.277784
0.007946 0.074329 0.277751
0.008682 0.069597 0.260071
0.009941 0.069713 0.260511
0.011228 0.069986 0.261537
0.012422 0.069675 0.260382
0.013716 0.069933 0.261357
0.014984 0.070028 0.261727
0.016275 0.070205 0.262402
0.017590 0.070454 0.263351
0.018886 0.070597 0.263902
0.020231 0.070895 0.265037
0.021584 0.071182 0.266132
0.022836 0.071124 0.265939
0.024442 0.072117 0.269678
0.025818 0.072362 0.270624
0.027096 0.072325 0.270514
0.026549 0.067643 0.253032
0.027873 0.067925 0.254118
0.029146 0.068066 0.254677
0.030176 0.067649 0.253150
0.031705 0.068341 0.255773
0.032896 0.068280 0.255580
0.034128 0.068304 0.255708
0.035623 0.068836 0.257735
0.037165 0.069419 0.259960
0.038415 0.069439 0.260072
0.040094 0.070207 0.262989
0.041420 0.070328 0.263488
0.042852 0.070616 0.264610
0.044463 0.071176 0.266750
0.044884 0.069852 0.261831
0.046365 0.070205 0.263196
0.046178 0.068080 0.255274
0.047358 0.068027 0.255118
0.048595 0.068057 0.255273
0.049646 0.067831 0.254468
0.051248 0.068351 0.256460
0.052563 0.068472 0.256959
0.053984 0.068723 0.257942
0.055442 0.069010 0.259059
0.056818 0.069183 0.259750
0.058536 0.069757 0.261946
0.060561 0.070664 0.265395
0.062212 0.071107 0.267096
0.064025 0.071714 0.269416
0.065570 0.072002 0.270538
0.066824 0.071966 0.270438
0.068283 0.072148 0.271157
0.069800 0.072383 0.272074
0.071123 0.072412 0.272214
0.072436 0.072430 0.272311
0.073775 0.072473 0.272500
0.074747 0.072159 0.271348
0.076159 0.072274 0.271803
0.077236 0.072072 0.271066
0.077682 0.071299 0.268173
0.077137 0.069655 0.262007
0.077990 0.069305 0.260702
0.079400 0.069454 0.261271
0.080151 0.069030 0.259684
0.081551 0.069170 0.260213
0.083099 0.069429 0.261186
0.084611 0.069651 0.262015
0.085697 0.069521 0.261518
0.087580 0.070031 0.263426
0.089058 0.070208 0.264076
0.098576 0.076630 0.288210
0.099818 0.076530 0.287809
0.101142 0.076495 0.287646
0.101912 0.076048 0.285926
0.104695 0.077094 0.289817
0.105885 0.076956 0.289249
0.107366 0.077030 0.289472
0.108728 0.077017 0.289365
0.109961 0.076915 0.288915
0.111350 0.076923 0.288871
0.112722 0.076918 0.288775
0.114000 0.076851 0.288435
0.115402 0.076868 0.288405
0.116620 0.076763 0.287911
0.118294 0.076957 0.288530
0.119703 0.076976 0.288484
0.121032 0.076944 0.288239
0.122411 0.076944 0.288104
0.124438 0.077346 0.289469
0.125767 0.077311 0.289184
0.127104 0.077281 0.288910
0.128748 0.077437 0.289320
0.130088 0.077407 0.289029
0.131712 0.077546 0.289356
0.133081 0.077534 0.289105
0.134899 0.077780 0.289807
0.136603 0.077956 0.290237
0.137757 0.077818 0.289482
0.139522 0.078024 0.289997
0.141255 0.078208 0.290417
0.142744 0.078255 0.290310
0.145000 0.078717 0.291731
0.145873 0.078427 0.290347
0.148159 0.078894 0.291752
0.149833 0.079030 0.291913
0.151099 0.078950 0.291261
0.152742 0.079066 0.291316
0.154295 0.079134 0.291174
-0.045799 0.023380 0.085166
-0.045459 0.023415 0.085403
-0.042310 0.027168 0.100737
-0.041552 0.026984 0.100087
-0.040915 0.026876 0.099717
-0.040454 0.026881 0.099765
-0.041218 0.027711 0.102871
-0.041070 0.029705 0.110397
-0.040606 0.029745 0.110558
-0.040521 0.030068 0.111766
-0.040669 0.030574 0.113658
-0.040562 0.030900 0.114874
-0.040051 0.030922 0.114961
-0.039589 0.030984 0.115193
-0.041248 0.032730 0.121685
-0.041234 0.033179 0.123353
-0.040738 0.033248 0.123606
-0.039882 0.033020 0.122753
-0.041285 0.034683 0.128930
-0.040797 0.034785 0.129299
-0.040603 0.035143 0.130621
-0.040253 0.035375 0.131471
-0.039949 0.035656 0.132502
-0.040006 0.036274 0.134780
-0.040799 0.037588 0.139647
-0.039869 0.037333 0.138680
-0.039870 0.037955 0.140969
-0.039924 0.038650 0.143528
-0.056578 0.056692 0.210459
-0.055656 0.056764 0.210685
-0.055268 0.057391 0.212976
-0.054664 0.057814 0.214504
-0.053523 0.057675 0.213943
-0.052826 0.058017 0.215169
-0.053847 0.060297 0.223577
-0.053488 0.061091 0.226475
-0.052694 0.061412 0.227612
-0.051296 0.061027 0.226134
-0.050417 0.061256 0.226931
-0.049429 0.061360 0.227263
-0.048461 0.061494 0.227709
-0.047481 0.061618 0.228113
-0.046504 0.061752 0.228556
-0.045677 0.062097 0.229776
-0.044905 0.062535 0.231344
-0.044181 0.063064 0.233243
-0.043721 0.064007 0.236672
-0.043298 0.065053 0.240483
-0.042482 0.065551 0.242266
-0.047910 0.075978 0.280736
-0.047380 0.077282 0.285484
-0.046036 0.077297 0.285472
-0.044705 0.077335 0.285544
-0.043340 0.077316 0.285405
-0.042120 0.077560 0.286240
-0.040709 0.077460 0.285805
-0.039243 0.077242 0.284937
-0.037914 0.077290 0.285049
-0.036589 0.077349 0.285205
-0.034812 0.076422 0.281725
-0.033461 0.076392 0.281555
-0.032362 0.076959 0.283587
-0.028301 0.070225 0.258719
-0.026971 0.069966 0.257716
-0.027477 0.074669 0.274984
-0.026105 0.074486 0.274258
-0.024687 0.074143 0.272947
-0.023343 0.074000 0.272370
-0.022049 0.074007 0.272352
-0.020716 0.073875 0.271821
-0.019411 0.073835 0.271632
-0.018127 0.073870 0.271720
-0.017157 0.075291 0.276904
-0.015844 0.075320 0.276974
-0.014551 0.075460 0.277451
-0.013234 0.075485 0.277511
-0.011704 0.074170 0.272643
-0.010407 0.074190 0.272690
-0.008956 0.072959 0.268138
-0.007664 0.072827 0.267626
-0.006356 0.072456 0.266242
-0.005112 0.072830 0.267593
-0.003834 0.072791 0.267432
-0.002566 0.073015 0.268238
-0.001293 0.073350 0.269455
-0.000007 0.073091 0.268489
0.001285 0.073729 0.270824
0.002593 0.074188 0.272502
0.003866 0.073662 0.270563
0.005224 0.074610 0.274043
0.006550 0.074819 0.274808
0.007834 0.074553 0.273833
0.009178 0.074860 0.274960
0.010488 0.074845 0.274910
0.011745 0.074496 0.273634
0.013042 0.074443 0.273450
0.014309 0.074243 0.272723
0.015544 0.073923 0.271563
0.016807 0.073777 0.271040
0.018062 0.073620 0.270480
0.019315 0.073475 0.269967
0.020617 0.073523 0.270163
0.021892 0.073475 0.270008
0.023098 0.073212 0.269063
0.024463 0.073454 0.269979
0.025804 0.073607 0.270566
0.027056 0.073499 0.270201
0.028444 0.073755 0.271169
0.029744 0.073769 0.271253
0.031002 0.073684 0.270973
0.032272 0.073631 0.270813
0.033504 0.073499 0.270363
0.034661 0.073219 0.269368
0.035884 0.073095 0.268946
0.037113 0.072988 0.268593
0.038362 0.072929 0.268413
0.039663 0.072966 0.268590
0.040865 0.072828 0.268120
0.042054 0.072673 0.267591
0.043330 0.072673 0.267633
0.044527 0.072545 0.267204
0.045765 0.072490 0.267042
0.046973 0.072389 0.266714
0.047992 0.072012 0.265367
0.048819 0.071372 0.263050
0.050480 0.071954 0.265239
0.051596 0.071748 0.264521
0.052866 0.071763 0.264617
0.054254 0.071932 0.265283
0.055508 0.071921 0.265281
0.056846 0.072015 0.265669
0.058127 0.072035 0.265784
0.059651 0.072349 0.266980
0.060978 0.072416 0.267269
0.062375 0.072561 0.267840
0.063880 0.072824 0.268845
0.065328 0.073012 0.269578
0.066727 0.073140 0.270085
0.068189 0.073330 0.270818
0.069662 0.073525 0.271570
0.070978 0.073550 0.271689
0.072332 0.073613 0.271950
0.073687 0.073674 0.272201
0.074752 0.073448 0.271388
0.075938 0.073347 0.271037
0.077143 0.073267 0.270758
0.078328 0.073172 0.270419
0.079344 0.072923 0.269512
0.080236 0.072570 0.268218
0.081371 0.072445 0.267762
0.082606 0.072411 0.267641
0.083646 0.072210 0.266897
0.085123 0.072386 0.267545
0.086563 0.072526 0.268054
0.087721 0.072430 0.267686
0.090052 0.073290 0.270851
0.091298 0.073255 0.270703
0.097845 0.077416 0.286053
0.098877 0.077159 0.285072
0.101055 0.077791 0.287372
0.103401 0.078533 0.290072
0.104856 0.078588 0.290229
0.106050 0.078449 0.289662
0.107214 0.078290 0.289021
0.108728 0.078388 0.289318
0.110148 0.078418 0.289356
0.111323 0.078273 0.288745
0.112685 0.078262 0.288622
0.114152 0.078324 0.288757
0.115588 0.078363 0.288804
0.117002 0.078385 0.288781
0.118298 0.078330 0.288465
0.119798 0.078409 0.288634
0.121292 0.078482 0.288773
0.122809 0.078569 0.288952
0.124237 0.078597 0.288908
0.125843 0.078735 0.289260
0.127153 0.078688 0.288918
0.128847 0.078876 0.289434
0.130386 0.078967 0.289578
0.131586 0.078852 0.288959
0.132981 0.078855 0.288764
0.134420 0.078884 0.288649
0.136023 0.079007 0.288868
0.138287 0.079509 0.290455
0.139750 0.079544 0.290324
0.141078 0.079501 0.289898
0.142870 0.079719 0.290407
0.144405 0.079791 0.290368
0.146119 0.079959 0.290664
0.147612 0.080003 0.290496
0.149573 0.080298 0.291219
0.151203 0.080412 0.291267
0.152706 0.080456 0.291045
0.154013 0.080397 0.290433
-0.046053 0.023922 0.085580
-0.045781 0.023995 0.085953
-0.042380 0.027691 0.100880
-0.042383 0.028007 0.102067
-0.042111 0.028147 0.102611
-0.040337 0.027274 0.099459
-0.041046 0.030209 0.110322
-0.040581 0.030249 0.110483
-0.040278 0.030412 0.111089
-0.040144 0.030709 0.112184
-0.039888 0.030920 0.112962
-0.039310 0.030883 0.112832
-0.040996 0.032648 0.119285
-0.041148 0.033224 0.121390
-0.041036 0.033599 0.122762
-0.040616 0.033730 0.123239
-0.040131 0.033810 0.123526
-0.039829 0.034048 0.124392
-0.039962 0.034671 0.126660
-0.040190 0.035396 0.129299
-0.040227 0.035974 0.131399
-0.040364 0.036660 0.133891
-0.041787 0.038553 0.140792
-0.040926 0.038368 0.140099
-0.040554 0.038641 0.141079
-0.039941 0.038690 0.141240
-0.057163 0.057281 0.209044
-0.056249 0.057353 0.209272
-0.055977 0.058094 0.211940
-0.055765 0.058925 0.214933
-0.054410 0.058557 0.213551
-0.054330 0.059573 0.217214
-0.055040 0.061510 0.224236
-0.054443 0.062036 0.226105
-0.053257 0.061896 0.225551
-0.052049 0.061726 0.224884
-0.051101 0.061863 0.225335
-0.050229 0.062100 0.226147
-0.049249 0.062211 0.226501
-0.048345 0.062425 0.227230
-0.047375 0.062561 0.227674
-0.046423 0.062729 0.228233
-0.045497 0.062939 0.228945
-0.044697 0.063340 0.230350
-0.043824 0.063654 0.231438
-0.043287 0.064485 0.234401
-0.042827 0.065477 0.237954
-0.043153 0.067758 0.246185
-0.047837 0.077197 0.280415
-0.047307 0.078521 0.285158
-0.046047 0.078676 0.285655
-0.044644 0.078588 0.285269
-0.043296 0.078596 0.285231
-0.042021 0.078739 0.285688
-0.040629 0.078669 0.285368
-0.039143 0.078402 0.284339
-0.037637 0.078077 0.283095
-0.036321 0.078136 0.283251
-0.034414 0.076879 0.278634
-0.033039 0.076758 0.278138
-0.032010 0.077463 0.280635
-0.030291 0.076488 0.277049
-0.028816 0.076069 0.275479
-0.027431 0.075858 0.274663
-0.026061 0.075672 0.273937
-0.024644 0.075323 0.272628
-0.023303 0.075177 0.272051
-0.022011 0.075184 0.272033
-0.020680 0.075050 0.271502
-0.019377 0.075009 0.271313
-0.018095 0.075044 0.271400
-0.016790 0.074986 0.271153
-0.015524 0.075108 0.271556
-0.014214 0.075019 0.271201
-0.012927 0.075043 0.271254
-0.011628 0.075003 0.271077
-0.010318 0.074866 0.270553
-0.009023 0.074814 0.270340
-0.007715 0.074630 0.269648
-0.006412 0.074420 0.268870
-0.005125 0.074334 0.268538
-0.003836 0.074160 0.267890
-0.002560 0.074200 0.268017
-0.001284 0.074301 0.268367
-0.000004 0.074349 0.268529
0.001280 0.074512 0.269108
0.002569 0.074688 0.269736
0.003865 0.074874 0.270400
0.005161 0.074961 0.270711
0.006468 0.075136 0.271342
0.007765 0.075168 0.271456
0.009066 0.075215 0.271627
0.010378 0.075330 0.272048
0.011665 0.075259 0.271796
0.012924 0.075041 0.271019
0.014221 0.075062 0.271103
0.015459 0.074796 0.270155
0.016730 0.074715 0.269877
0.018016 0.074706 0.269858
0.019244 0.074477 0.269049
0.020541 0.074523 0.269235
0.021833 0.074549 0.269348
0.023094 0.074472 0.269092
0.024387 0.074502 0.269224
0.025713 0.074620 0.269679
0.027005 0.074638 0.269769
0.028328 0.074733 0.270140
0.029684 0.074903 0.270787
0.030906 0.074734 0.270207
0.032236 0.074831 0.270591
0.033479 0.074726 0.270245
0.034675 0.074526 0.269556
0.035902 0.074405 0.269153
0.037142 0.074319 0.268876
0.038349 0.074176 0.268396
0.039603 0.074128 0.268261
0.040823 0.074022 0.267915
0.042096 0.074014 0.267926
0.043332 0.073945 0.267718
0.044660 0.074032 0.268072
0.045964 0.074075 0.268266
0.047214 0.074032 0.268152
0.048491 0.074031 0.268189
0.049767 0.074029 0.268222
0.051009 0.073977 0.268075
0.052241 0.073914 0.267886
0.053556 0.073969 0.268128
0.054731 0.073832 0.267669
0.056105 0.073963 0.268185
0.057398 0.073984 0.268300
0.058535 0.073809 0.267700
0.059944 0.073975 0.268340
0.061330 0.074106 0.268853
0.062544 0.074030 0.268610
0.064034 0.074275 0.269535
0.065376 0.074343 0.269814
0.066714 0.074404 0.270066
0.068172 0.074594 0.270785
0.069558 0.074699 0.271194
0.070916 0.074770 0.271480
0.072192 0.074755 0.271449
0.073470 0.074741 0.271420
0.074659 0.074639 0.271072
0.075998 0.074689 0.271268
0.077166 0.074570 0.270852
0.078358 0.074479 0.270533
0.079532 0.074373 0.270160
0.080572 0.074149 0.269349
0.081866 0.074160 0.269393
0.083243 0.074245 0.269704
0.084467 0.074194 0.269514
0.085874 0.074302 0.269900
0.087345 0.074461 0.270467
0.088603 0.074437 0.270363
0.090324 0.074797 0.271653
0.097001 0.079192 0.287592
0.098245 0.079092 0.287198
0.099279 0.078827 0.286202
0.101651 0.079618 0.289035
0.103107 0.079679 0.289213
0.104492 0.079685 0.289183
0.105752 0.079596 0.288805
0.107115 0.079586 0.288706
0.108605 0.079670 0.288942
0.110033 0.079706 0.288999
0.111225 0.079572 0.288433
0.112569 0.079549 0.288262
0.114009 0.079594 0.288329
0.115402 0.079605 0.288267
0.116829 0.079639 0.288279
0.118137 0.079592 0.287992
0.119801 0.079783 0.288556
0.121193 0.079790 0.288448
0.122592 0.079802 0.288348
0.124092 0.079879 0.288472
0.125639 0.079983 0.288688
0.127146 0.080060 0.288793
0.128705 0.080168 0.289000
0.130086 0.080164 0.288793
0.131742 0.080327 0.289178
0.132850 0.080156 0.288350
0.134330 0.080211 0.288320
0.136782 0.080839 0.290339
0.137488 0.080432 0.288629
0.139672 0.080890 0.290009
0.141179 0.080950 0.289946
0.142462 0.080882 0.289411
0.144384 0.081175 0.290153
0.146331 0.081476 0.290905
0.148000 0.081617 0.291072
0.149737 0.081793 0.291345
0.151254 0.081846 0.291162
0.152781 0.081904 0.290980
0.154228 0.081918 0.290622
-0.045850 0.024228 0.085144
-0.045187 0.024092 0.084779
-0.044778 0.024091 0.084881
-0.042004 0.027919 0.099959
-0.041764 0.028074 0.100553
-0.042727 0.029051 0.104087
-0.041521 0.028559 0.102357
-0.038840 0.029078 0.104382
-0.040437 0.030662 0.110080
-0.040414 0.031041 0.111455
-0.039659 0.030862 0.110824
-0.040671 0.032071 0.115172
-0.040177 0.032109 0.115316
-0.041022 0.033233 0.119359
-0.040629 0.033371 0.119857
-0.040936 0.034096 0.122463
-0.040626 0.034321 0.123271
-0.040401 0.034625 0.124359
-0.039891 0.034690 0.124590
-0.039515 0.034875 0.125249
-0.039351 0.035256 0.126609
-0.040052 0.036435 0.130836
-0.041915 0.038726 0.139049
-0.041231 0.038697 0.138933
-0.040189 0.038327 0.137590
-0.040504 0.039260 0.140922
-0.057930 0.057086 0.204883
-0.056693 0.056813 0.203876
-0.056781 0.057881 0.207678
-0.056527 0.058632 0.210342
-0.056110 0.059238 0.212481
-0.055633 0.059801 0.214465
-0.055214 0.060448 0.216747
-0.055614 0.062033 0.222393
-0.055702 0.063325 0.226982
-0.053806 0.062368 0.223509
-0.052449 0.062011 0.222184
-0.051515 0.062148 0.222630
-0.050868 0.062645 0.224365
-0.049945 0.062816 0.224932
-0.049133 0.063136 0.226030
-0.048164 0.063266 0.226444
-0.047231 0.063448 0.227048
-0.046301 0.063645 0.227702
-0.045338 0.063804 0.228221
-0.044497 0.064146 0.229391
-0.043693 0.064560 0.230822
-0.042853 0.064942 0.232134
-0.041915 0.065190 0.232968
-0.049836 0.079604 0.284415
-0.048536 0.079680 0.284619
-0.047479 0.080169 0.286303
-0.046062 0.080063 0.285858
-0.044726 0.080095 0.285909
-0.043399 0.080145 0.286026
-0.042160 0.080367 0.286755
-0.040628 0.080028 0.285483
-0.039073 0.079616 0.283951
-0.037294 0.078704 0.280640
-0.035990 0.078764 0.280794
-0.034084 0.077461 0.276093
-0.032660 0.077191 0.275075
-0.031358 0.077200 0.275052
-0.030048 0.077189 0.274961
-0.028643 0.076924 0.273966
-0.027239 0.076636 0.272890
-0.025915 0.076555 0.272551
-0.024583 0.076438 0.272089
-0.023272 0.076383 0.271847
-0.021946 0.076266 0.271388
-0.020643 0.076219 0.271179
-0.019377 0.076310 0.271461
-0.018123 0.076468 0.271983
-0.016831 0.076478 0.271982
-0.015551 0.076549 0.272197
-0.014250 0.076520 0.272059
-0.012935 0.076404 0.271615
-0.011645 0.076424 0.271656
-0.010355 0.076450 0.271719
-0.009052 0.076379 0.271442
-0.007744 0.076231 0.270891
-0.006445 0.076129 0.270506
-0.005153 0.076070 0.270277
-0.003852 0.075821 0.269372
-0.002570 0.075864 0.269511
-0.001287 0.075944 0.269780
-0.000001 0.075948 0.269783
0.001287 0.076038 0.270092
0.002581 0.076223 0.270739
0.003879 0.076373 0.271265
0.005176 0.076432 0.271471
0.006491 0.076675 0.272331
0.007783 0.076605 0.272082
0.009081 0.076614 0.272117
0.010387 0.076676 0.272339
0.011663 0.076523 0.271804
0.012938 0.076398 0.271365
0.014214 0.076301 0.271032
0.015470 0.076120 0.270400
0.016745 0.076055 0.270182
0.017993 0.075883 0.269583
0.019248 0.075761 0.269169
0.020528 0.075748 0.269139
0.021852 0.075890 0.269666
0.023095 0.075748 0.269181
0.024420 0.075876 0.269657
0.025715 0.075903 0.269777
0.027013 0.075936 0.269923
0.028329 0.076014 0.270225
0.029642 0.076076 0.270475
0.030899 0.075997 0.270225
0.032190 0.076004 0.270281
0.033429 0.075891 0.269911
0.034624 0.075691 0.269231
0.035883 0.075640 0.269083
0.037128 0.075564 0.268848
0.038304 0.075356 0.268146
0.039657 0.075501 0.268695
0.040916 0.075462 0.268593
0.042173 0.075421 0.268485
0.043468 0.075450 0.268626
0.044775 0.075495 0.268827
0.046034 0.075460 0.268741
0.047350 0.075517 0.268983
0.048693 0.075615 0.269368
0.050001 0.075652 0.269540
0.051248 0.075599 0.269388
0.052646 0.075766 0.270022
0.053799 0.075580 0.269399
0.055003 0.075473 0.269054
0.056348 0.075558 0.269395
0.057474 0.075354 0.268704
0.058603 0.075163 0.268056
0.059959 0.075264 0.268453
0.061191 0.075208 0.268286
0.062539 0.075295 0.268629
0.063942 0.075441 0.269183
0.065288 0.075518 0.269488
0.066610 0.075563 0.269677
0.068085 0.075778 0.270469
0.069494 0.075912 0.270972
0.070696 0.075818 0.270662
0.072070 0.075910 0.271010
0.073421 0.075975 0.271261
0.074715 0.075979 0.271293
0.075920 0.075894 0.271004
0.076978 0.075667 0.270205
0.078192 0.075599 0.269971
0.079368 0.075496 0.269610
0.080600 0.075449 0.269446
0.081969 0.075529 0.269733
0.083259 0.075536 0.269753
0.084804 0.075770 0.270583
0.086120 0.075795 0.270663
0.087695 0.076045 0.271539
0.089237 0.076258 0.272282
0.090622 0.076333 0.272530
0.097308 0.080809 0.288480
0.098557 0.080707 0.288084
0.099661 0.080491 0.287274
0.101439 0.080817 0.288397
0.102962 0.080935 0.288769
0.104320 0.080921 0.288664
0.105570 0.080825 0.288262
0.107006 0.080872 0.288362
0.108478 0.080944 0.288550
0.109965 0.081026 0.288761
0.111363 0.081041 0.288729
0.112556 0.080908 0.288164
0.113975 0.080938 0.288172
0.115419 0.080985 0.288233
0.116643 0.080879 0.287742
0.117991 0.080860 0.287551
0.119522 0.080966 0.287795
0.120885 0.080956 0.287622
0.122185 0.080904 0.287291
0.123780 0.081048 0.287644
0.125633 0.081355 0.288566
0.126724 0.081167 0.287722
0.128698 0.081542 0.288866
0.130197 0.081612 0.288915
0.131811 0.081751 0.289199
0.133015 0.081636 0.288572
0.134381 0.081621 0.288289
0.136045 0.081786 0.288627
0.138591 0.082472 0.290790
0.139703 0.082300 0.289913
0.141293 0.082409 0.290015
0.142779 0.082456 0.289883
0.144370 0.082563 0.289945
0.145925 0.082647 0.289911
0.148338 0.083210 0.291542
0.149813 0.083242 0.291290
0.151305 0.083282 0.291052
0.152830 0.083339 0.290856
0.154303 0.083367 0.290538
-0.046164 0.024807 0.085664
-0.045703 0.024780 0.085686
-0.045571 0.024933 0.086325
-0.042222 0.028540 0.100451
-0.041797 0.028573 0.100608
-0.042197 0.029178 0.102773
-0.041500 0.029029 0.102284
-0.041219 0.031383 0.110763
-0.040751 0.031424 0.110924
-0.040254 0.031443 0.111005
-0.039380 0.031165 0.110034
-0.040209 0.032245 0.113859
-0.041990 0.034127 0.120514
-0.041535 0.034220 0.120847
-0.041052 0.034291 0.121103
-0.040844 0.034597 0.122188
-0.040439 0.034742 0.122703
-0.040224 0.035058 0.123817
-0.039901 0.035287 0.124622
-0.040216 0.036096 0.127476
-0.040503 0.036904 0.130323
-0.039789 0.036810 0.129984
-0.041188 0.038699 0.136645
-0.041377 0.039493 0.139437
-0.040772 0.039543 0.139601
-0.058748 0.057910 0.204419
-0.057858 0.057982 0.204652
-0.057560 0.058660 0.207019
-0.056696 0.058775 0.207398
-0.056519 0.059618 0.210343
-0.055555 0.059647 0.210413
-0.057925 0.063321 0.223340
-0.056941 0.063397 0.223572
-0.056175 0.063724 0.224684
-0.054905 0.063480 0.223786
-0.053077 0.062568 0.220532
-0.052032 0.062562 0.220469
-0.051216 0.062836 0.221392
-0.050286 0.062980 0.221855
-0.049563 0.063394 0.223268
-0.048825 0.063806 0.224675
-0.047982 0.064097 0.225651
-0.047004 0.064216 0.226025
-0.046037 0.064356 0.226469
-0.045147 0.064614 0.227327
-0.044359 0.065034 0.228755
-0.043544 0.065434 0.230112
-0.042529 0.065546 0.230455
-0.042190 0.066733 0.234579
-0.050042 0.081291 0.285689
-0.048736 0.081367 0.285893
-0.047421 0.081432 0.286060
-0.046047 0.081397 0.285874
-0.044761 0.081521 0.286248
-0.043297 0.081318 0.285473
-0.042123 0.081663 0.286623
-0.041114 0.082361 0.289013
-0.039162 0.081155 0.284721
-0.037585 0.080668 0.282954
-0.036270 0.080728 0.283109
-0.034218 0.079088 0.277300
-0.032671 0.078532 0.275297
-0.031592 0.079101 0.277237
-0.030140 0.078745 0.275939
-0.028651 0.078257 0.274180
-0.027293 0.078097 0.273570
-0.026026 0.078194 0.273862
-0.024667 0.078008 0.273164
-0.023404 0.078125 0.273527
-0.022089 0.078074 0.273305
-0.020749 0.077919 0.272723
-0.019502 0.078117 0.273376
-0.018214 0.078170 0.273521
-0.016909 0.078149 0.273412
-0.015629 0.078253 0.273738
-0.014302 0.078117 0.273229
-0.012959 0.077860 0.272299
-0.011678 0.077957 0.272609
-0.010380 0.077954 0.272572
-0.009041 0.077605 0.271324
-0.007751 0.077617 0.271344
-0.006430 0.077277 0.270133
-0.005149 0.077360 0.270403
-0.003855 0.077226 0.269915
-0.002569 0.077220 0.269880
-0.001285 0.077350 0.270318
0.000002 0.077385 0.270429
0.001295 0.077623 0.271250
0.002593 0.077791 0.271829
0.003896 0.077937 0.272333
0.005211 0.078191 0.273214
0.006526 0.078347 0.273756
0.007821 0.078255 0.273434
0.009133 0.078322 0.273671
0.010455 0.078455 0.274138
0.011749 0.078367 0.273838
0.013038 0.078274 0.273517
0.014327 0.078190 0.273235
0.015605 0.078067 0.272813
0.016876 0.077932 0.272355
0.018135 0.077762 0.271776
0.019395 0.077621 0.271297
0.020664 0.077529 0.270995
0.021929 0.077436 0.270686
0.023202 0.077378 0.270505
0.024501 0.077407 0.270628
0.025822 0.077501 0.270981
0.027104 0.077472 0.270904
0.028444 0.077607 0.271400
0.029824 0.077833 0.272219
0.031033 0.077610 0.271467
0.032253 0.077433 0.270879
0.033554 0.077458 0.270997
0.034787 0.077329 0.270576
0.036027 0.077223 0.270238
0.037261 0.077111 0.269881
0.038524 0.077066 0.269757
0.039844 0.077135 0.270031
0.041074 0.077029 0.269698
0.042308 0.076937 0.269410
0.043640 0.077025 0.269753
0.044842 0.076882 0.269290
0.046097 0.076838 0.269171
0.047408 0.076885 0.269373
0.048705 0.076908 0.269492
0.049880 0.076743 0.268948
0.051154 0.076733 0.268951
0.052398 0.076681 0.268803
0.053577 0.076537 0.268336
0.054995 0.076734 0.269061
0.056195 0.076625 0.268713
0.057456 0.076602 0.268667
0.058624 0.076458 0.268196
0.059904 0.076464 0.268248
0.061124 0.076394 0.268032
0.062554 0.076584 0.268729
0.063946 0.076720 0.269238
0.065274 0.076776 0.269462
0.066638 0.076872 0.269821
0.067996 0.076956 0.270141
0.069372 0.077058 0.270523
0.070652 0.077050 0.270516
0.071968 0.077082 0.270647
0.073276 0.077105 0.270743
0.074541 0.077081 0.270674
0.075968 0.077224 0.271187
0.077083 0.077050 0.270583
0.078357 0.077037 0.270545
0.079733 0.077124 0.270853
0.081096 0.077195 0.271104
0.082298 0.077113 0.270813
0.083971 0.077469 0.272055
0.085535 0.077713 0.272904
0.086962 0.077829 0.273297
0.088893 0.078385 0.275232
0.090264 0.078438 0.275397
0.092077 0.078869 0.276882
0.096891 0.081821 0.287215
0.098136 0.081719 0.286821
0.098910 0.081234 0.285075
0.101761 0.082443 0.289273
0.103144 0.082448 0.289236
0.104516 0.082443 0.289160
0.105874 0.082428 0.289042
0.107126 0.082330 0.288631
0.108448 0.082289 0.288411
0.109907 0.082352 0.288547
0.111196 0.082286 0.288228
0.112464 0.082208 0.287856
0.113841 0.082209 0.287757
0.115255 0.082237 0.287745
0.116780 0.082343 0.287996
0.118233 0.082395 0.288052
0.119650 0.082422 0.288010
0.121210 0.082546 0.288297
0.122791 0.082680 0.288614
0.124311 0.082771 0.288767
0.125789 0.082832 0.288810
0.127092 0.082778 0.288439
0.128595 0.082854 0.288511
0.130370 0.083101 0.289168
0.131797 0.083124 0.289033
0.133495 0.083315 0.289470
0.134839 0.083284 0.289124
0.136050 0.083171 0.288484
0.137931 0.083467 0.289246
0.139555 0.083602 0.289439
0.141027 0.083644 0.289296
0.142752 0.083834 0.289649
0.144331 0.083936 0.289680
0.146107 0.084149 0.290079
0.147714 0.084261 0.290115
0.149476 0.084459 0.290427
0.151169 0.084613 0.290573
0.152832 0.084749 0.290635
0.154212 0.084726 0.290135
-0.045895 0.025074 0.085100
-0.045618 0.025147 0.085464
-0.045461 0.025288 0.086056
-0.042145 0.028963 0.100239
-0.042813 0.029756 0.103027
-0.042176 0.029649 0.102696
-0.041780 0.029712 0.102949
-0.040201 0.028925 0.100254
-0.040781 0.031567 0.109571
-0.040528 0.031773 0.110303
-0.040191 0.031918 0.110820
-0.039645 0.031898 0.110766
-0.041087 0.033498 0.116336
-0.041516 0.034305 0.119147
-0.041373 0.034655 0.120371
-0.040504 0.034397 0.119481
-0.040428 0.034816 0.120940
-0.040024 0.034959 0.121442
-0.040854 0.036201 0.125755
-0.040757 0.036646 0.127301
-0.041563 0.037928 0.131751
-0.040377 0.037403 0.129924
-0.039665 0.037308 0.129587
-0.041138 0.039297 0.136489
-0.059179 0.058353 0.202641
-0.058298 0.058425 0.202875
-0.057623 0.058711 0.203844
-0.057485 0.059562 0.206777
-0.057004 0.060081 0.208554
-0.056511 0.060605 0.210346
-0.055975 0.061102 0.212039
-0.056199 0.062460 0.216722
-0.056572 0.064038 0.222164
-0.055190 0.063651 0.220786
-0.053450 0.062829 0.217898
-0.052917 0.063421 0.219914
-0.051937 0.063490 0.220114
-0.051019 0.063640 0.220594
-0.050194 0.063914 0.221501
-0.049375 0.064208 0.222479
-0.048497 0.064436 0.223225
-0.047641 0.064705 0.224109
-0.046744 0.064928 0.224837
-0.045835 0.065145 0.225543
-0.045004 0.065485 0.226676
-0.044173 0.065843 0.227867
-0.043335 0.066208 0.229080
-0.042540 0.066659 0.230595
-0.042125 0.067745 0.234300
-0.049988 0.082560 0.285480
-0.048682 0.082637 0.285683
-0.047450 0.082846 0.286345
-0.046243 0.083112 0.287205
-0.044906 0.083153 0.287287
-0.043494 0.083054 0.286886
-0.042309 0.083396 0.288007
-0.041047 0.083604 0.288666
-0.039137 0.082461 0.284661
-0.037477 0.081783 0.282266
-0.036166 0.081844 0.282419
-0.034500 0.081075 0.279713
-0.032756 0.080054 0.276138
-0.031698 0.080696 0.278299
-0.030301 0.080492 0.277546
-0.028670 0.079622 0.274497
-0.027302 0.079431 0.273789
-0.025964 0.079316 0.273346
-0.024579 0.079036 0.272339
-0.023274 0.078998 0.272162
-0.021926 0.078798 0.271434
-0.020654 0.078867 0.271630
-0.019376 0.078920 0.271773
-0.018074 0.078875 0.271580
-0.016772 0.078820 0.271355
-0.015490 0.078864 0.271471
-0.014196 0.078847 0.271381
-0.012906 0.078854 0.271376
-0.011624 0.078912 0.271544
-0.010321 0.078833 0.271246
-0.009023 0.078767 0.270996
-0.007729 0.078718 0.270803
-0.006442 0.078746 0.270875
-0.005151 0.078719 0.270765
-0.003859 0.078655 0.270524
-0.002564 0.078459 0.269834
-0.001281 0.078542 0.270107
0.000006 0.078592 0.270266
0.001294 0.078682 0.270564
0.002587 0.078802 0.270969
0.003883 0.078907 0.271323
0.005184 0.079032 0.271748
0.006487 0.079142 0.272126
0.007781 0.079111 0.272017
0.009087 0.079203 0.272334
0.010393 0.079264 0.272546
0.011695 0.079286 0.272628
0.012983 0.079220 0.272408
0.014259 0.079096 0.271986
0.015544 0.079041 0.271810
0.016830 0.078996 0.271665
0.018119 0.078974 0.271603
0.019368 0.078791 0.270988
0.020637 0.078704 0.270705
0.021898 0.078599 0.270360
0.023168 0.078539 0.270175
0.024488 0.078643 0.270555
0.025762 0.078596 0.270414
0.027109 0.078768 0.271030
0.028404 0.078776 0.271083
0.029731 0.078871 0.271434
0.031120 0.079116 0.272304
0.032293 0.078812 0.271286
0.033536 0.078696 0.270916
0.034823 0.078688 0.270921
0.036059 0.078572 0.270549
0.037213 0.078288 0.269604
0.038480 0.078254 0.269519
0.039749 0.078225 0.269452
0.040958 0.078084 0.269001
0.042185 0.077984 0.268690
0.043423 0.077911 0.268472
0.044760 0.078013 0.268858
0.046090 0.078099 0.269189
0.047457 0.078241 0.269712
0.048764 0.078278 0.269874
0.050023 0.078239 0.269776
0.051290 0.078213 0.269721
0.052487 0.078085 0.269312
0.053737 0.078040 0.269190
0.054956 0.077952 0.268919
0.056150 0.077833 0.268542
0.057425 0.077831 0.268567
0.058644 0.077753 0.268327
0.059936 0.077774 0.268431
0.061268 0.077844 0.268701
0.062515 0.077806 0.268594
0.063911 0.077951 0.269123
0.065205 0.077967 0.269204
0.066524 0.078014 0.269387
0.067941 0.078171 0.269950
0.069269 0.078221 0.270143
0.070665 0.078344 0.270588
0.072027 0.078426 0.270886
0.073315 0.078426 0.270900
0.074697 0.078525 0.271252
0.076085 0.078627 0.271611
0.077399 0.078650 0.271697
0.078673 0.078632 0.271638
0.080057 0.078723 0.271952
0.081276 0.078651 0.271700
0.082686 0.078764 0.272084
0.084342 0.079103 0.273248
0.085913 0.079353 0.274097
0.087762 0.079850 0.275795
0.089314 0.080065 0.276516
0.091028 0.080416 0.277705
0.092842 0.080846 0.279158
0.098123 0.084239 0.290837
0.099385 0.084135 0.290438
0.098903 0.082578 0.285017
0.101021 0.083204 0.287129
0.102973 0.083679 0.288710
0.104426 0.083741 0.288862
0.105579 0.083563 0.288182
0.107159 0.083724 0.288662
0.108533 0.083723 0.288576
0.109959 0.083760 0.288616
0.111328 0.083753 0.288500
0.112633 0.083699 0.288213
0.113955 0.083659 0.287965
0.115472 0.083762 0.288203
0.116768 0.083703 0.287877
0.118105 0.083674 0.287646
0.119713 0.083836 0.288062
0.121108 0.083846 0.287949
0.122550 0.083889 0.287939
0.123986 0.083926 0.287899
0.125492 0.084010 0.288009
0.126771 0.083941 0.287585
0.128601 0.084235 0.288393
0.130324 0.084452 0.288929
0.132051 0.084668 0.289447
0.133821 0.084906 0.290029
0.135201 0.084895 0.289747
0.136701 0.084958 0.289705
0.138166 0.084999 0.289573
0.139652 0.085051 0.289468
0.141212 0.085146 0.289496
0.142560 0.085113 0.289073
0.144232 0.085273 0.289288
0.145971 0.085467 0.289607
0.148246 0.085970 0.290948
0.149820 0.086060 0.290876
0.151484 0.086199 0.290953
0.152881 0.086185 0.290493
0.154387 0.086232 0.290221
-0.045978 0.025532 0.085188
-0.045415 0.025446 0.085021
-0.045262 0.025590 0.085618
-0.042574 0.029737 0.101229
-0.042656 0.030133 0.102620
-0.042419 0.030309 0.103260
-0.041742 0.030172 0.102830
-0.040253 0.029438 0.100362
-0.041924 0.032573 0.111198
-0.040686 0.032011 0.109301
-0.041048 0.032709 0.111705
-0.040404 0.032614 0.111396
-0.039603 0.032387 0.110638
-0.041272 0.034201 0.116848
-0.040671 0.034159 0.116714
-0.040924 0.034841 0.119056
-0.040390 0.034864 0.119141
-0.040512 0.035461 0.121188
-0.040350 0.035823 0.122428
-0.040482 0.036461 0.124611
-0.040953 0.037426 0.127912
-0.041327 0.038332 0.131005
-0.040655 0.038278 0.130820
-0.045556 0.043553 0.148841
-0.059432 0.058620 0.200312
-0.057477 0.057605 0.196830
-0.059210 0.060314 0.206068
-0.058346 0.060423 0.206424
-0.057553 0.060611 0.207045
-0.056829 0.060880 0.207938
-0.056227 0.061291 0.209318
-0.055872 0.061990 0.211680
-0.055458 0.062648 0.213898
-0.054747 0.062990 0.215035
-0.054088 0.063404 0.216416
-0.053237 0.063607 0.217072
-0.052286 0.063694 0.217334
-0.051522 0.064018 0.218404
-0.050703 0.064285 0.219277
-0.049876 0.064553 0.220153
-0.049090 0.064886 0.221246
-0.048378 0.065334 0.222733
-0.047408 0.065446 0.223073
-0.046575 0.065756 0.224087
-0.045654 0.065954 0.224717
-0.044810 0.066275 0.225767
-0.043942 0.066576 0.226747
-0.043105 0.066940 0.227938
-0.042359 0.067466 0.229684
-0.050656 0.082804 0.281843
-0.049370 0.082881 0.282049
-0.048703 0.084032 0.285907
-0.047471 0.084245 0.286574
-0.046164 0.084335 0.286821
-0.044833 0.084383 0.286926
-0.043525 0.084480 0.287199
-0.042220 0.084589 0.287513
-0.040875 0.084624 0.287575
-0.039518 0.084636 0.287557
-0.037339 0.082823 0.281346
-0.036032 0.082884 0.281499
-0.034319 0.081978 0.278368
-0.032561 0.080890 0.274623
-0.031299 0.080993 0.274923
-0.029994 0.080990 0.274865
-0.028571 0.080655 0.273680
-0.027174 0.080363 0.272643
-0.025766 0.080010 0.271401
-0.024485 0.080034 0.271437
-0.023204 0.080058 0.271478
-0.021917 0.080067 0.271465
-0.020590 0.079921 0.270932
-0.019323 0.080007 0.271184
-0.018022 0.079950 0.270956
-0.016724 0.079898 0.270744
-0.015457 0.080001 0.271061
-0.014187 0.080107 0.271387
-0.012906 0.080165 0.271554
-0.011614 0.080158 0.271503
-0.010318 0.080119 0.271345
-0.009032 0.080160 0.271459
-0.007740 0.080162 0.271441
-0.006447 0.080139 0.271341
-0.005151 0.080069 0.271085
-0.003858 0.079991 0.270803
-0.002565 0.079884 0.270426
-0.001278 0.079870 0.270365
0.000009 0.079971 0.270692
0.001300 0.080127 0.271209
0.002591 0.080100 0.271109
0.003883 0.080127 0.271196
0.005181 0.080226 0.271526
0.006476 0.080257 0.271627
0.007770 0.080261 0.271640
0.009064 0.080266 0.271657
0.010371 0.080362 0.271984
0.011671 0.080394 0.272097
0.012956 0.080329 0.271882
0.014243 0.080283 0.271735
0.015532 0.080256 0.271651
0.016808 0.080170 0.271370
0.018088 0.080113 0.271190
0.019356 0.080017 0.270878
0.020647 0.080020 0.270905
0.021954 0.080080 0.271127
0.023269 0.080161 0.271419
0.024932 0.081368 0.275523
0.026388 0.081815 0.277060
0.027738 0.081905 0.277389
0.029018 0.081789 0.277020
0.030347 0.081815 0.277130
0.031562 0.081545 0.276243
0.032785 0.081315 0.275491
0.033909 0.080867 0.274002
0.035053 0.080499 0.272783
0.036220 0.080207 0.271822
0.037278 0.079701 0.270138
0.038518 0.079607 0.269852
0.039814 0.079630 0.269958
0.041054 0.079542 0.269694
0.042291 0.079454 0.269427
0.043470 0.079268 0.268826
0.044870 0.079480 0.269580
0.046145 0.079468 0.269570
0.047616 0.079783 0.270673
0.048901 0.079777 0.270686
0.050270 0.079908 0.271160
0.051497 0.079810 0.270862
0.052643 0.079595 0.270162
0.053895 0.079546 0.270026
0.055008 0.079299 0.269219
0.056174 0.079138 0.268702
0.057381 0.079041 0.268401
0.058426 0.078729 0.267371
0.059734 0.078777 0.267561
0.061098 0.078895 0.267990
0.062498 0.079054 0.268555
0.063738 0.079009 0.268423
0.065188 0.079220 0.269164
0.066512 0.079273 0.269362
0.067862 0.079354 0.269659
0.069397 0.079644 0.270660
0.070733 0.079700 0.270865
0.072166 0.079860 0.271422
0.073709 0.080135 0.272368
0.075134 0.080275 0.272848
0.076527 0.080376 0.273197
0.077819 0.080368 0.273174
0.079004 0.080253 0.272784
0.080165 0.080116 0.272315
0.081427 0.080085 0.272202
0.082892 0.080250 0.272753
0.084444 0.080493 0.273566
0.086224 0.080942 0.275075
0.088257 0.081612 0.277330
0.089693 0.081718 0.277667
0.091590 0.082235 0.279394
0.093540 0.082784 0.281224
0.098202 0.085684 0.291035
0.099466 0.085579 0.290636
0.099221 0.084197 0.285892
0.101467 0.084937 0.288349
0.102958 0.085034 0.288618
0.104328 0.085029 0.288537
0.105838 0.085137 0.288830
0.107037 0.084996 0.288271
0.108417 0.085000 0.288200
0.109890 0.085075 0.288365
0.111250 0.085063 0.288223
0.112653 0.085082 0.288184
0.114072 0.085114 0.288178
0.115441 0.085108 0.288036
0.116875 0.085148 0.288045
0.118359 0.085224 0.288165
0.119703 0.085199 0.287935
0.121227 0.085301 0.288124
0.122602 0.085297 0.287947
0.124035 0.085332 0.287894
0.125680 0.085511 0.288314
0.127118 0.085547 0.288242
0.128538 0.085570 0.288116
0.130493 0.085944 0.289162
0.132202 0.086150 0.289630
0.133863 0.086321 0.289965
0.135113 0.086226 0.289396
0.136722 0.086360 0.289581
0.138315 0.086481 0.289712
0.139671 0.086453 0.289327
0.141207 0.086535 0.289299
0.142808 0.086655 0.289383
0.144431 0.086786 0.289486
0.146164 0.086980 0.289781
0.148230 0.087366 0.290700
0.150230 0.087706 0.291447
0.151651 0.087705 0.291039
0.153161 0.087754 0.290783
0.154581 0.087752 0.290336
-0.045772 0.025828 0.084737
-0.045594 0.025959 0.085289
-0.045370 0.026065 0.085756
-0.042324 0.030041 0.100605
-0.042257 0.030333 0.101630
-0.041351 0.030024 0.100634
-0.040679 0.029879 0.100185
-0.040235 0.029900 0.100292
-0.041799 0.032593 0.109455
-0.041882 0.033066 0.111069
-0.041810 0.033427 0.112304
-0.041129 0.033303 0.111908
-0.040470 0.033195 0.111565
-0.040731 0.033847 0.113775
-0.040685 0.034259 0.115175
-0.040807 0.034826 0.117093
-0.040812 0.035307 0.118723
-0.040624 0.035632 0.119824
-0.040752 0.036247 0.121902
-0.042899 0.038701 0.130160
-0.041997 0.038436 0.129272
-0.041468 0.038510 0.129522
-0.045932 0.043290 0.145603
-0.045198 0.043244 0.145445
-0.045501 0.044203 0.148666
-0.060875 0.060061 0.201994
-0.059359 0.059493 0.200076
-0.058573 0.059652 0.200597
-0.059028 0.061100 0.205452
-0.058268 0.061318 0.206169
-0.057480 0.061513 0.206805
-0.056529 0.061537 0.206866
-0.056062 0.062098 0.208730
-0.055423 0.062486 0.210008
-0.055375 0.063566 0.213612
-0.054557 0.063785 0.214320
-0.053627 0.063880 0.214609
-0.052816 0.064123 0.215394
-0.051970 0.064332 0.216063
-0.051228 0.064681 0.217202
-0.050443 0.064989 0.218199
-0.049600 0.065234 0.218985
-0.048754 0.065484 0.219784
-0.047946 0.065799 0.220802
-0.047177 0.066181 0.222044
-0.046440 0.066626 0.223497
-0.045538 0.066850 0.224209
-0.044633 0.067081 0.224940
-0.043868 0.067539 0.226433
-0.043029 0.067902 0.227606
-0.042331 0.068513 0.229607
-0.051195 0.085039 0.284936
-0.049894 0.085117 0.285143
-0.048689 0.085367 0.285923
-0.047410 0.085498 0.286306
-0.046107 0.085593 0.286570
-0.044769 0.085628 0.286628
-0.043473 0.085747 0.286971
-0.042099 0.085714 0.286807
-0.040771 0.085777 0.286963
-0.039444 0.085846 0.287138
-0.037366 0.084227 0.281669
-0.034637 0.084079 0.281073
-0.033327 0.084137 0.281215
-0.031737 0.083459 0.278901
-0.030188 0.082838 0.276779
-0.028970 0.083109 0.277637
-0.027360 0.082227 0.274646
-0.025941 0.081861 0.273379
-0.024607 0.081738 0.272925
-0.023329 0.081799 0.273088
-0.022128 0.082153 0.274229
-0.020746 0.081837 0.273136
-0.019439 0.081795 0.272958
-0.018114 0.081666 0.272490
-0.016844 0.081784 0.272851
-0.015534 0.081716 0.272590
-0.014183 0.081393 0.271483
-0.012912 0.081517 0.271867
-0.011605 0.081412 0.271490
-0.010302 0.081310 0.271122
-0.009017 0.081347 0.271220
-0.007733 0.081410 0.271409
-0.006430 0.081262 0.270894
-0.005140 0.081225 0.270751
-0.003854 0.081274 0.270896
-0.002563 0.081220 0.270700
-0.001276 0.081263 0.270830
0.000012 0.081288 0.270901
0.001304 0.081412 0.271303
0.002598 0.081500 0.271590
0.003885 0.081383 0.271193
0.005186 0.081556 0.271763
0.006480 0.081556 0.271759
0.007769 0.081509 0.271603
0.009066 0.081544 0.271720
0.010361 0.081556 0.271760
0.011670 0.081663 0.272122
0.012970 0.081687 0.272207
0.014249 0.081590 0.271890
0.015541 0.081580 0.271866
0.016827 0.081536 0.271729
0.018110 0.081490 0.271586
0.019409 0.081513 0.271675
0.020710 0.081542 0.271788
0.021985 0.081474 0.271575
0.023388 0.081856 0.272866
0.025089 0.083191 0.277334
0.026631 0.083888 0.279679
0.027668 0.083005 0.276756
0.028993 0.083024 0.276843
0.030358 0.083154 0.277301
0.031468 0.082603 0.275489
0.032751 0.082532 0.275277
0.033810 0.081923 0.273271
0.034923 0.081484 0.271835
0.036054 0.081119 0.270644
0.037214 0.080840 0.269741
0.038382 0.080598 0.268962
0.039755 0.080786 0.269619
0.041013 0.080738 0.269488
0.042232 0.080615 0.269110
0.043473 0.080543 0.268897
0.044677 0.080408 0.268478
0.046089 0.080644 0.269298
0.047269 0.080472 0.268753
0.048510 0.080410 0.268576
0.049685 0.080244 0.268051
0.051005 0.080315 0.268319
0.052127 0.080079 0.267557
0.053501 0.080231 0.268095
0.054603 0.079978 0.267279
0.055965 0.080108 0.267740
0.057153 0.079990 0.267371
0.058334 0.079866 0.266985
0.059787 0.080113 0.267832
0.060915 0.079922 0.267218
0.062263 0.080021 0.267573
0.063726 0.080263 0.268400
0.064884 0.080117 0.267933
0.066402 0.080413 0.268940
0.067839 0.080601 0.269585
0.069223 0.080721 0.269998
0.070705 0.080948 0.270772
0.072215 0.081199 0.271621
0.073767 0.081487 0.272592
0.075210 0.081647 0.273130
0.076428 0.081561 0.272846
0.077677 0.081511 0.272678
0.078912 0.081448 0.272463
0.080023 0.081260 0.271828
0.081123 0.081067 0.271174
0.082724 0.081373 0.272185
0.084314 0.081660 0.273127
0.086239 0.082257 0.275102
0.087977 0.082660 0.276428
0.089770 0.083103 0.277878
0.091781 0.083730 0.279945
0.093816 0.084363 0.282020
0.097501 0.086439 0.288918
0.098757 0.086335 0.288522
0.098384 0.084828 0.283433
0.101308 0.086167 0.287846
0.103108 0.086527 0.288984
0.104656 0.086667 0.289383
0.105975 0.086618 0.289141
0.107236 0.086523 0.288741
0.108577 0.086493 0.288552
0.109979 0.086513 0.288520
0.111348 0.086506 0.288395
0.112634 0.086436 0.288050
0.114020 0.086443 0.287956
0.115788 0.086736 0.288807
0.116998 0.086609 0.288249
0.118496 0.086695 0.288395
0.119877 0.086695 0.288244
0.121240 0.086682 0.288040
0.122776 0.086791 0.288235
0.124325 0.086907 0.288442
0.125833 0.086992 0.288535
0.127294 0.087043 0.288505
0.128787 0.087114 0.288532
0.130357 0.087235 0.288712
0.131970 0.087382 0.288966
0.133827 0.087686 0.289727
0.135363 0.087775 0.289764
0.136656 0.087707 0.289269
0.138108 0.087740 0.289096
0.139814 0.087933 0.289436
0.141370 0.088028 0.289438
0.142917 0.088116 0.289401
0.144665 0.088325 0.289745
0.146483 0.088572 0.290197
0.148192 0.088748 0.290401
0.149908 0.088926 0.290589
0.151752 0.089175 0.290992
0.153137 0.089152 0.290487
0.154668 0.089214 0.290240
-0.045629 0.026157 0.084401
-0.045335 0.026222 0.084735
-0.045065 0.026302 0.085114
-0.043261 0.030848 0.101609
-0.042025 0.030302 0.099861
-0.041847 0.030516 0.100613
-0.041249 0.030425 0.100354
-0.040464 0.030193 0.099627
-0.040054 0.030238 0.099815
-0.039786 0.030393 0.100359
-0.043393 0.033547 0.110809
-0.042924 0.033588 0.110979
-0.042127 0.033372 0.110294
-0.041549 0.033325 0.110166
-0.041347 0.033581 0.111039
-0.040523 0.033334 0.110243
-0.040177 0.033477 0.110739
-0.040710 0.034368 0.113704
-0.041313 0.035342 0.116942
-0.041522 0.035999 0.119133
-0.041447 0.036426 0.120559
-0.041374 0.036866 0.122027
-0.041406 0.037414 0.123849
-0.042459 0.038913 0.128819
-0.041567 0.038647 0.127945
-0.041420 0.039076 0.129368
-0.045877 0.043926 0.145429
-0.045167 0.043901 0.145346
-0.061673 0.060866 0.201510
-0.060800 0.060941 0.201753
-0.059771 0.060859 0.201475
-0.058641 0.061665 0.204120
-0.057827 0.061822 0.204626
-0.057260 0.062252 0.206033
-0.056376 0.062346 0.206328
-0.055646 0.062618 0.207207
-0.055219 0.063246 0.209262
-0.054792 0.063897 0.211393
-0.054005 0.064145 0.212188
-0.053161 0.064333 0.212780
-0.052443 0.064684 0.213912
-0.051794 0.065135 0.215373
-0.051098 0.065544 0.216695
-0.050264 0.065788 0.217469
-0.049490 0.066125 0.218546
-0.048706 0.066461 0.219623
-0.047908 0.066793 0.220680
-0.047100 0.067123 0.221735
-0.046158 0.067276 0.222201
-0.045310 0.067575 0.223149
-0.044514 0.067967 0.224403
-0.043717 0.068378 0.225717
-0.042933 0.068830 0.227168
-0.051905 0.085347 0.281628
-0.050622 0.085426 0.281837
-0.049934 0.086542 0.285466
-0.048650 0.086657 0.285791
-0.047379 0.086804 0.286222
-0.046055 0.086860 0.286351
-0.044716 0.086889 0.286393
-0.043386 0.086939 0.286505
-0.042071 0.087022 0.286725
-0.040724 0.087044 0.286746
-0.039301 0.086898 0.286210
-0.037071 0.084894 0.279558
-0.035772 0.084955 0.279709
-0.034417 0.084879 0.279411
-0.032780 0.084075 0.276716
-0.031438 0.083994 0.276401
-0.029696 0.082789 0.272391
-0.028372 0.082695 0.272036
-0.027014 0.082484 0.271302
-0.025632 0.082180 0.270258
-0.024211 0.081709 0.268669
-0.022965 0.081814 0.268973
-0.021665 0.081722 0.268633
-0.020386 0.081708 0.268551
-0.019087 0.081603 0.268169
-0.017850 0.081770 0.268684
-0.016647 0.082126 0.269819
-0.015373 0.082167 0.269923
-0.014101 0.082227 0.270092
-0.012844 0.082393 0.270608
-0.011572 0.082494 0.270912
-0.010282 0.082473 0.270818
-0.008997 0.082489 0.270846
-0.007709 0.082487 0.270816
-0.006416 0.082412 0.270549
-0.005125 0.082336 0.270281
-0.003848 0.082514 0.270849
-0.002560 0.082502 0.270793
-0.001271 0.082433 0.270553
0.000016 0.082491 0.270732
0.001305 0.082586 0.271032
0.002597 0.082650 0.271234
0.003888 0.082671 0.271296
0.005180 0.082685 0.271335
0.006473 0.082710 0.271416
0.007763 0.082700 0.271381
0.009049 0.082652 0.271223
0.010341 0.082659 0.271246
0.011652 0.082802 0.271720
0.012941 0.082775 0.271635
0.014222 0.082708 0.271421
0.015507 0.082672 0.271311
0.016785 0.082608 0.271110
0.018078 0.082620 0.271159
0.019373 0.082638 0.271230
0.020671 0.082665 0.271332
0.021948 0.082612 0.271175
0.023284 0.082773 0.271719
0.024724 0.083268 0.273360
0.026027 0.083272 0.273394
0.027164 0.082772 0.271771
0.028507 0.082917 0.272270
0.029720 0.082688 0.271539
0.030852 0.082261 0.270158
0.032016 0.081950 0.269161
0.033111 0.081491 0.267679
0.034188 0.081026 0.266176
0.035467 0.081055 0.266296
0.036642 0.080851 0.265652
0.037855 0.080744 0.265325
0.039113 0.080734 0.265322
0.040474 0.080933 0.266002
0.041669 0.080796 0.265578
0.043023 0.080968 0.266173
0.044200 0.080805 0.265665
0.045486 0.080844 0.265821
0.046692 0.080743 0.265519
0.047876 0.080612 0.265114
0.049054 0.080477 0.264697
0.050331 0.080505 0.264819
0.051401 0.080211 0.263876
0.052704 0.080285 0.264144
0.053882 0.080168 0.263786
0.055141 0.080176 0.263836
0.056483 0.080301 0.264271
0.057835 0.080433 0.264731
0.059199 0.080578 0.265228
0.060756 0.080972 0.266547
0.062161 0.081153 0.267161
0.063648 0.081431 0.268094
0.065013 0.081545 0.268485
0.066309 0.081569 0.268581
0.067819 0.081851 0.269523
0.069287 0.082072 0.270261
0.070576 0.082078 0.270289
0.072136 0.082392 0.271331
0.073577 0.082562 0.271894
0.074958 0.082660 0.272219
0.076061 0.082452 0.271534
0.077269 0.082365 0.271241
0.078468 0.082270 0.270923
0.079441 0.081944 0.269841
0.080500 0.081717 0.269080
0.081993 0.081930 0.269766
0.083319 0.081972 0.269883
0.085172 0.082524 0.271677
0.087049 0.083082 0.273486
0.088795 0.083500 0.274829
0.090574 0.083937 0.276232
0.093013 0.084963 0.279567
0.096026 0.086479 0.284507
0.099014 0.087929 0.289225
0.098644 0.086398 0.284134
0.101616 0.087797 0.288669
0.103228 0.087998 0.289261
0.104671 0.088051 0.289362
0.105854 0.087888 0.288744
0.107248 0.087902 0.288701
0.108686 0.087951 0.288767
0.110077 0.087960 0.288697
0.111374 0.087895 0.288377
0.112802 0.087934 0.288390
0.114186 0.087939 0.288282
0.115540 0.087920 0.288088
0.117015 0.087992 0.288187
0.118436 0.088022 0.288139
0.119857 0.088052 0.288082
0.121215 0.088035 0.287862
0.122765 0.088157 0.288085
0.124209 0.088200 0.288042
0.126136 0.088582 0.289093
0.127942 0.088870 0.289830
0.129467 0.088960 0.289906
0.130810 0.088924 0.289562
0.132439 0.089081 0.289832
0.133878 0.089108 0.289669
0.135297 0.089121 0.289450
0.136742 0.089151 0.289271
0.138204 0.089191 0.289110
0.139660 0.089226 0.288923
0.141144 0.089278 0.288773
0.143092 0.089620 0.289546
0.145378 0.090165 0.290955
0.146816 0.090178 0.290631
0.148534 0.090361 0.290836
0.150236 0.090531 0.290982
0.151834 0.090635 0.290896
0.153204 0.090602 0.290354
0.154720 0.090656 0.290067
-0.045627 0.026564 0.084323
-0.045307 0.026615 0.084610
-0.045138 0.026756 0.085181
-0.043224 0.031304 0.101486
-0.042620 0.031212 0.101240
-0.042370 0.031381 0.101836
-0.041340 0.030970 0.100546
-0.041971 0.031807 0.103308
-0.040810 0.031291 0.101670
-0.043251 0.033557 0.109071
-0.042789 0.033598 0.109241
-0.042387 0.033688 0.109568
-0.041989 0.033783 0.109909
-0.041630 0.033912 0.110357
-0.040962 0.033790 0.109987
-0.040728 0.034027 0.110784
-0.040878 0.034595 0.112656
-0.041448 0.035538 0.115748
-0.041305 0.035887 0.116904
-0.041187 0.036268 0.118161
-0.041470 0.037017 0.120615
-0.041215 0.037300 0.121550
-0.042035 0.038577 0.125722
-0.042060 0.039150 0.127601
-0.041692 0.039370 0.128325
-0.041371 0.039641 0.129212
-0.058810 0.062811 0.204722
-0.058156 0.063146 0.205803
-0.057414 0.063397 0.206606
-0.056508 0.063471 0.206831
-0.055772 0.063742 0.207698
-0.055037 0.064025 0.208598
-0.054391 0.064422 0.209872
-0.053628 0.064695 0.210736
-0.052881 0.064996 0.211691
-0.052233 0.065434 0.213092
-0.051637 0.065954 0.214757
-0.050927 0.066348 0.216010
-0.050182 0.066710 0.217159
-0.049338 0.066954 0.217921
-0.048550 0.067286 0.218965
-0.047786 0.067665 0.220166
-0.046915 0.067907 0.220918
-0.045964 0.068044 0.221324
-0.045148 0.068388 0.222406
-0.044362 0.068797 0.223698
