ply
format ascii 1.0
element vertex 1745
property float x
property float y
property float z
end_header
0.035590 0.045885 0.264946
0.036686 0.045663 0.263732
0.037961 0.045672 0.263851
0.039261 0.045710 0.264139
0.040469 0.045640 0.263807
0.041640 0.045535 0.263273
0.042984 0.045618 0.263829
0.043837 0.045191 0.261436
0.044652 0.044750 0.258962
0.045202 0.044074 0.255126
0.046277 0.043933 0.254382
0.047486 0.043922 0.254397
0.048538 0.043770 0.253594
0.049707 0.043729 0.253437
0.051038 0.043828 0.254089
0.052365 0.043920 0.254699
0.053633 0.043959 0.255007
0.054983 0.044062 0.255682
0.056292 0.044128 0.256147
0.057906 0.044425 0.257953
0.060212 0.045230 0.262707
0.062677 0.046119 0.267954
0.064234 0.046317 0.269189
0.065492 0.046296 0.269150
0.067029 0.046470 0.270238
0.068409 0.046529 0.270665
0.069668 0.046506 0.270613
0.070968 0.046511 0.270717
0.072241 0.046498 0.270719
0.072156 0.045626 0.265718
0.073305 0.045552 0.265359
0.074133 0.045284 0.263868
0.074756 0.044901 0.261706
0.075037 0.044330 0.258441
0.075579 0.043928 0.256162
0.076730 0.043887 0.255986
0.077737 0.043767 0.255341
0.078946 0.043762 0.255368
0.080173 0.043767 0.255451
0.081432 0.043789 0.255630
0.082823 0.043880 0.256211
0.084229 0.043977 0.256818
0.085695 0.044102 0.257588
0.086895 0.044088 0.257546
0.097214 0.048637 0.284155
0.100360 0.049521 0.289355
0.100795 0.049062 0.286703
0.101988 0.048978 0.286242
0.103640 0.049115 0.287062
0.106205 0.049675 0.290352
0.107524 0.049645 0.290188
0.108935 0.049659 0.290271
0.110036 0.049532 0.289529
0.111471 0.049556 0.289667
0.112786 0.049527 0.289486
0.114001 0.049456 0.289053
0.115857 0.049661 0.290225
0.117144 0.049620 0.289956
0.118485 0.049603 0.289818
0.119757 0.049557 0.289506
0.121087 0.049536 0.289333
0.122454 0.049531 0.289242
0.124085 0.049631 0.289761
0.125923 0.049811 0.290735
0.126834 0.049624 0.289562
0.128539 0.049749 0.290197
0.129699 0.049661 0.289587
0.131367 0.049769 0.290103
0.132682 0.049741 0.289825
0.134174 0.049780 0.289924
0.135660 0.049816 0.289992
0.137218 0.049877 0.290198
0.138539 0.049852 0.289892
0.139860 0.049827 0.289575
0.141736 0.049998 0.290387
0.143377 0.050084 0.290690
0.144736 0.050071 0.290404
0.146230 0.050104 0.290375
0.147748 0.050144 0.290376
0.149723 0.050337 0.291246
0.150974 0.050286 0.290686
0.152264 0.050248 0.290194
-0.042220 0.017599 0.100769
-0.041753 0.017602 0.100796
-0.041851 0.017845 0.102197
-0.041013 0.017691 0.101319
-0.039865 0.017398 0.099643
-0.040941 0.019468 0.111459
-0.040481 0.019499 0.111622
-0.039919 0.019481 0.111504
-0.039565 0.019565 0.111968
-0.038808 0.019450 0.111288
-0.038068 0.019340 0.110637
-0.041680 0.021468 0.122790
-0.041166 0.021502 0.122957
-0.041195 0.021824 0.124767
-0.040936 0.022001 0.125748
-0.040476 0.022072 0.126127
-0.040637 0.022490 0.128482
-0.040950 0.023007 0.131397
-0.041656 0.023763 0.135676
-0.041733 0.024178 0.138005
-0.041804 0.024603 0.140390
-0.041686 0.024929 0.142203
-0.042308 0.025715 0.146640
-0.042704 0.026387 0.150423
-0.042327 0.026597 0.151568
-0.042320 0.027050 0.154100
-0.042319 0.027523 0.156739
-0.042217 0.027947 0.159094
-0.042190 0.028436 0.161820
-0.041984 0.028820 0.163946
-0.041720 0.029178 0.165923
-0.041417 0.029522 0.167818
-0.041712 0.030315 0.172258
-0.041926 0.031079 0.176533
-0.041695 0.031537 0.179066
-0.041470 0.032019 0.181736
-0.041357 0.032610 0.185017
-0.041704 0.033597 0.190544
-0.041611 0.034265 0.194261
-0.041582 0.035019 0.198455
-0.041577 0.035827 0.202958
-0.041460 0.036576 0.207118
-0.040957 0.037011 0.209506
-0.040476 0.037490 0.212132
-0.040686 0.038649 0.218608
-0.043982 0.042876 0.242428
-0.042876 0.042926 0.242618
-0.041944 0.043157 0.243834
-0.041182 0.043582 0.246141
-0.040154 0.043741 0.246950
-0.039697 0.044551 0.251436
-0.039094 0.045243 0.255246
-0.042753 0.051070 0.288023
-0.040258 0.049689 0.280139
-0.038975 0.049761 0.280449
-0.037724 0.049880 0.281023
-0.035652 0.048882 0.275314
-0.034447 0.049043 0.276129
-0.033153 0.049085 0.276280
-0.029119 0.044905 0.252674
-0.028270 0.045486 0.255869
-0.026935 0.045302 0.254764
-0.025944 0.045708 0.256971
-0.024868 0.045997 0.258532
-0.023619 0.045980 0.258368
-0.023379 0.048034 0.269839
-0.022411 0.048746 0.273772
-0.020814 0.048092 0.270040
-0.019686 0.048508 0.272312
-0.018087 0.047739 0.267942
-0.016897 0.048018 0.269451
-0.015483 0.047651 0.267344
-0.014584 0.048945 0.274553
-0.013269 0.048965 0.274616
-0.011081 0.045411 0.254645
-0.009903 0.045626 0.255815
-0.008711 0.045829 0.256918
-0.007448 0.045664 0.255962
-0.006240 0.045840 0.256921
-0.005013 0.045932 0.257410
-0.003779 0.045986 0.257689
-0.002545 0.046103 0.258330
-0.001301 0.046100 0.258295
-0.000057 0.046157 0.258601
0.001197 0.046475 0.260373
0.002482 0.047061 0.263648
0.003749 0.047023 0.263431
0.007409 0.046109 0.258319
0.008598 0.045813 0.256670
0.009847 0.045872 0.257016
0.011071 0.045813 0.256699
0.012317 0.045850 0.256923
0.013587 0.045959 0.257553
0.014852 0.046032 0.257988
0.016132 0.046139 0.258612
0.017441 0.046308 0.259592
0.018713 0.046363 0.259931
0.020124 0.046732 0.262033
0.021463 0.046901 0.263020
0.023203 0.047877 0.268535
0.024532 0.047947 0.268976
0.025886 0.048057 0.269639
0.026965 0.047671 0.267523
0.028279 0.047715 0.267821
0.029431 0.047495 0.266640
0.030436 0.047065 0.264283
0.031638 0.046962 0.263759
0.032751 0.046740 0.262576
0.034080 0.046831 0.263150
0.035382 0.046880 0.263486
0.036488 0.046674 0.262395
0.037753 0.046680 0.262493
0.039040 0.046710 0.262733
0.040335 0.046748 0.263019
0.041462 0.046595 0.262228
0.042718 0.046591 0.262277
0.043834 0.046440 0.261502
0.044590 0.045925 0.258679
0.045052 0.045145 0.254356
0.046262 0.045134 0.254371
0.047401 0.045058 0.254016
0.048453 0.044904 0.253224
0.049714 0.044946 0.253539
0.050973 0.044985 0.253837
0.052364 0.045135 0.254762
0.053632 0.045175 0.255065
0.054981 0.045280 0.255737
0.056365 0.045409 0.256543
0.057943 0.045685 0.258182
0.060675 0.046840 0.264790
0.062905 0.047569 0.268990
0.064335 0.047675 0.269669
0.065640 0.047686 0.269813
0.067082 0.047794 0.270506
0.068467 0.047859 0.270953
0.069782 0.047873 0.271110
0.071092 0.047883 0.271240
0.072338 0.047850 0.271129
0.072973 0.047421 0.268775
0.073817 0.047140 0.267256
0.074704 0.046897 0.265943
0.075295 0.046478 0.263636
0.075335 0.045738 0.259504
0.075721 0.045230 0.256678
0.076720 0.045097 0.255984
0.077833 0.045035 0.255688
0.079059 0.045039 0.255765
0.080322 0.045064 0.255956
0.081903 0.045263 0.257135
0.083369 0.045394 0.257925
0.084660 0.045427 0.258156
0.086202 0.045592 0.259132
0.088208 0.045994 0.261456
0.099956 0.051394 0.292189
0.101194 0.051316 0.291777
0.102048 0.051048 0.290279
0.103096 0.050883 0.289362
0.104652 0.050969 0.289872
0.105754 0.050835 0.289123
0.107212 0.050873 0.289349
0.108455 0.050810 0.288993
0.109811 0.050800 0.288935
0.111303 0.050853 0.289226
0.112678 0.050852 0.289203
0.114566 0.051079 0.290475
0.115736 0.050984 0.289911
0.116996 0.050931 0.289577
0.118389 0.050937 0.289566
0.119666 0.050892 0.289267
0.120781 0.050781 0.288578
0.122062 0.050741 0.288290
0.123793 0.050887 0.289050
0.125812 0.051146 0.290447
0.127063 0.051092 0.290049
0.128223 0.051002 0.289444
0.129760 0.051062 0.289683
0.131000 0.051005 0.289248
0.132392 0.051009 0.289144
0.133947 0.051073 0.289380
0.135494 0.051134 0.289584
0.136759 0.051089 0.289171
0.138159 0.051093 0.289035
0.139923 0.051231 0.289640
0.141940 0.051458 0.290737
0.143146 0.051390 0.290149
0.144657 0.051431 0.290170
0.146246 0.051498 0.290328
0.147815 0.051558 0.290425
0.149916 0.051800 0.291535
0.151345 0.051807 0.291310
0.152505 0.051723 0.290556
-0.042192 0.018062 0.100698
-0.043379 0.018781 0.104716
-0.042983 0.018823 0.104961
-0.042686 0.018910 0.105451
-0.042256 0.018940 0.105619
-0.040747 0.020158 0.112364
-0.040116 0.020106 0.112060
-0.039318 0.019968 0.111278
-0.038823 0.019983 0.111341
-0.038396 0.020033 0.111601
-0.041115 0.021749 0.121139
-0.040845 0.021910 0.122010
-0.040602 0.022091 0.122989
-0.040280 0.022233 0.123750
-0.040207 0.022518 0.125309
-0.040151 0.022822 0.126967
-0.040051 0.023109 0.128529
-0.040929 0.023979 0.133329
-0.041781 0.024859 0.138187
-0.041909 0.025331 0.140768
-0.042095 0.025853 0.143624
-0.042265 0.026382 0.146519
-0.042426 0.026924 0.149476
-0.042328 0.027316 0.151604
-0.042277 0.027753 0.153978
-0.042247 0.028218 0.156508
-0.042239 0.028716 0.159212
-0.042213 0.029219 0.161947
-0.042038 0.029636 0.164199
-0.041621 0.029895 0.165574
-0.041418 0.030320 0.167866
-0.042095 0.031419 0.173888
-0.042131 0.032074 0.177444
-0.041816 0.032482 0.179637
-0.041492 0.032901 0.181884
-0.041263 0.033414 0.184652
-0.041285 0.034158 0.188691
-0.041362 0.034981 0.193163
-0.041467 0.035865 0.197969
-0.041689 0.036895 0.203576
-0.041125 0.037260 0.205513
-0.040448 0.037540 0.206977
-0.041124 0.039119 0.215603
-0.043890 0.042819 0.235909
-0.042817 0.042869 0.236097
-0.042463 0.043662 0.240373
-0.041778 0.044149 0.242964
-0.040905 0.044459 0.244582
-0.040124 0.044889 0.246863
-0.039424 0.045441 0.249805
-0.039067 0.046433 0.255173
-0.038582 0.047333 0.260030
-0.040353 0.051153 0.280920
-0.039048 0.051202 0.281096
-0.037358 0.050732 0.278424
-0.035766 0.050364 0.276315
-0.034904 0.051038 0.279923
-0.033593 0.051081 0.280076
-0.031333 0.049625 0.272008
-0.029922 0.049445 0.270944
-0.028503 0.049237 0.269726
-0.027089 0.049018 0.268451
-0.023679 0.049968 0.273445
-0.022381 0.049999 0.273549
-0.020930 0.049671 0.271691
-0.019659 0.049754 0.272089
-0.018062 0.048966 0.267723
-0.016874 0.049251 0.269229
-0.015534 0.049104 0.268375
-0.014586 0.050281 0.274755
-0.013271 0.050300 0.274818
-0.011070 0.046596 0.254543
-0.009883 0.046770 0.255453
-0.008699 0.047012 0.256739
-0.007446 0.046894 0.256068
-0.006235 0.047056 0.256924
-0.005012 0.047177 0.257561
-0.003782 0.047292 0.258165
-0.002542 0.047331 0.258361
-0.001298 0.047320 0.258281
-0.000055 0.047481 0.259146
0.001199 0.047739 0.260547
0.002467 0.048006 0.261995
0.003731 0.048039 0.262171
0.007369 0.047089 0.256995
0.008584 0.046961 0.256306
0.009833 0.047032 0.256707
0.011053 0.046966 0.256357
0.012327 0.047117 0.257200
0.013602 0.047243 0.257908
0.014884 0.047372 0.258634
0.016149 0.047430 0.258980
0.017481 0.047661 0.260269
0.018764 0.047736 0.260714
0.020127 0.047995 0.262162
0.021466 0.048169 0.263146
0.022977 0.048686 0.266012
0.024286 0.048743 0.266367
0.025508 0.048630 0.265796
0.026612 0.048311 0.264103
0.027870 0.048290 0.264039
0.028988 0.048039 0.262716
0.029954 0.047566 0.260185
0.031099 0.047405 0.259356
0.032349 0.047408 0.259435
0.033572 0.047375 0.259312
0.034829 0.047390 0.259455
0.035982 0.047267 0.258844
0.037421 0.047515 0.260269
0.038794 0.047666 0.261162
0.039978 0.047581 0.260768
0.041293 0.047655 0.261241
0.042674 0.047797 0.262089
0.043629 0.047467 0.260354
0.044539 0.047109 0.258463
0.045113 0.046423 0.254773
0.046227 0.046315 0.254254
0.047414 0.046284 0.254154
0.048488 0.046147 0.253477
0.049720 0.046163 0.253640
0.050985 0.046207 0.253962
0.052334 0.046325 0.254685
0.053612 0.046376 0.255039
0.054877 0.046412 0.255317
0.056220 0.046513 0.255946
0.057682 0.046705 0.257081
0.060427 0.047906 0.263769
0.062817 0.048782 0.268675
0.064138 0.048810 0.268904
0.065474 0.048847 0.269190
0.066985 0.049012 0.270173
0.068397 0.049099 0.270731
0.069667 0.049082 0.270715
0.071071 0.049159 0.271214
0.072224 0.049062 0.270753
0.073040 0.048744 0.269070
0.073807 0.048405 0.267266
0.075079 0.048403 0.267322
0.075821 0.048065 0.265519
0.075617 0.047147 0.260513
0.075495 0.046310 0.255947
0.076771 0.046344 0.256189
0.077918 0.046300 0.256000
0.078900 0.046160 0.255279
0.080232 0.046226 0.255694
0.081649 0.046339 0.256365
0.083313 0.046586 0.257775
0.084658 0.046651 0.258173
0.086501 0.046983 0.260051
0.089055 0.047688 0.263984
0.100915 0.052554 0.290987
0.102323 0.052566 0.291074
0.103364 0.052390 0.290124
0.105056 0.052546 0.291000
0.106131 0.052392 0.290158
0.107599 0.052434 0.290397
0.108844 0.052367 0.290028
0.109913 0.052219 0.289200
0.111635 0.052380 0.290081
0.112878 0.052315 0.289707
0.114339 0.052352 0.289887
0.115796 0.052386 0.290048
0.117141 0.052369 0.289916
0.118553 0.052382 0.289946
0.119777 0.052313 0.289511
0.121140 0.052305 0.289411
0.122570 0.052326 0.289463
0.124416 0.052522 0.290472
0.125959 0.052587 0.290750
0.127053 0.052465 0.289989
0.128394 0.052447 0.289789
0.129817 0.052462 0.289766
0.131034 0.052395 0.289276
0.132532 0.052440 0.289401
0.134267 0.052576 0.290019
0.135590 0.052551 0.289731
0.137106 0.052599 0.289843
0.138491 0.052597 0.289664
0.139306 0.052381 0.288295
0.141980 0.052861 0.290746
0.143413 0.052874 0.290615
0.144667 0.052822 0.290112
0.145984 0.052793 0.289724
0.147822 0.052951 0.290351
0.149546 0.053066 0.290725
0.151176 0.053145 0.290890
0.152734 0.053198 0.290894
-0.043550 0.019134 0.103933
-0.043127 0.019163 0.104104
-0.043157 0.019396 0.105381
-0.042358 0.019258 0.104638
-0.041334 0.019014 0.103313
-0.041184 0.020642 0.112132
-0.040720 0.020674 0.112296
-0.040660 0.020915 0.113590
-0.039643 0.020663 0.112206
-0.039332 0.020777 0.112810
-0.041643 0.022299 0.121051
-0.041137 0.022333 0.121217
-0.040820 0.022473 0.121948
-0.040519 0.022626 0.122752
-0.040017 0.022669 0.122958
-0.039603 0.022763 0.123442
-0.039371 0.022967 0.124518
-0.039961 0.023664 0.128260
-0.041481 0.024941 0.135149
-0.041595 0.025400 0.137598
-0.041331 0.025639 0.138852
-0.041258 0.026006 0.140795
-0.041793 0.026774 0.144911
-0.042426 0.027631 0.149506
-0.042351 0.028050 0.151720
-0.042024 0.028312 0.153088
-0.041929 0.028743 0.155368
-0.041979 0.029290 0.158272
-0.042083 0.029895 0.161487
-0.042123 0.030477 0.164573
-0.041879 0.030871 0.166642
-0.041631 0.031278 0.168776
-0.041922 0.032113 0.173221
-0.041950 0.032776 0.176732
-0.041765 0.033296 0.179472
-0.041594 0.033850 0.182386
-0.041468 0.034464 0.185628
-0.041511 0.035248 0.189782
-0.041597 0.036105 0.194323
-0.041755 0.037065 0.199414
-0.041540 0.037730 0.202915
-0.040781 0.037921 0.203868
-0.045997 0.043812 0.235450
-0.044931 0.043865 0.235646
-0.043424 0.043479 0.233487
-0.042400 0.043569 0.233887
-0.042255 0.044591 0.239286
-0.041602 0.045119 0.242031
-0.040720 0.045422 0.243570
-0.039873 0.045784 0.245422
-0.039075 0.046224 0.247698
-0.038944 0.047506 0.254476
-0.038534 0.048519 0.259818
-0.040240 0.052353 0.280252
-0.038938 0.052403 0.280427
-0.037843 0.052744 0.282161
-0.036527 0.052791 0.282326
-0.034073 0.051134 0.273377
-0.032598 0.050873 0.271900
-0.031292 0.050866 0.271783
-0.029883 0.050681 0.270720
-0.028466 0.050468 0.269503
-0.027054 0.050243 0.268228
-0.020902 0.050911 0.271464
-0.019077 0.049554 0.264170
-0.017819 0.049581 0.264260
-0.016584 0.049683 0.264754
-0.015316 0.049693 0.264758
-0.014563 0.051529 0.274489
-0.013250 0.051549 0.274552
-0.011133 0.048103 0.256163
-0.009945 0.048313 0.257243
-0.008709 0.048314 0.257212
-0.007461 0.048238 0.256781
-0.006242 0.048361 0.257405
-0.005007 0.048386 0.257512
-0.003775 0.048476 0.257970
-0.002538 0.048549 0.258341
-0.001296 0.048576 0.258468
-0.000053 0.048694 0.259085
0.001196 0.048775 0.259504
0.002468 0.049242 0.261982
0.003740 0.049384 0.262737
0.007376 0.048353 0.257259
0.008574 0.048126 0.256059
0.009826 0.048225 0.256594
0.011056 0.048205 0.256500
0.012309 0.048273 0.256883
0.013591 0.048438 0.257782
0.014861 0.048535 0.258316
0.016114 0.048562 0.258486
0.017462 0.048853 0.260065
0.018749 0.048945 0.260587
0.020061 0.049090 0.261389
0.021373 0.049213 0.262085
0.022918 0.049832 0.265417
0.024296 0.050040 0.266569
0.025732 0.050341 0.268219
0.026579 0.049516 0.263871
0.027362 0.048653 0.259317
0.028672 0.048758 0.259932
0.029755 0.048487 0.258539
0.030769 0.048131 0.256691
0.032041 0.048188 0.257052
0.033252 0.048152 0.256920
0.034424 0.048066 0.256519
0.035735 0.048172 0.257148
0.036944 0.048139 0.257033
0.038357 0.048364 0.258303
0.039838 0.048658 0.259937
0.040936 0.048482 0.259064
0.042329 0.048654 0.260053
0.043571 0.048647 0.260090
0.044422 0.048217 0.257858
0.045051 0.047575 0.254498
0.046148 0.047448 0.253892
0.047368 0.047452 0.253983
0.048520 0.047388 0.253713
0.049708 0.047362 0.253650
0.050970 0.047405 0.253955
0.052281 0.047492 0.254494
0.053685 0.047656 0.255450
0.054936 0.047681 0.255658
0.056346 0.047840 0.256583
0.057658 0.047910 0.257036
0.060151 0.048938 0.262626
0.062631 0.049914 0.267939
0.064067 0.050035 0.268667
0.065288 0.049987 0.268484
0.066880 0.050219 0.269805
0.068344 0.050348 0.270576
0.069538 0.050277 0.270268
0.070814 0.050266 0.270282
0.072108 0.050269 0.270367
0.072526 0.049671 0.267222
0.073142 0.049228 0.264902
0.074700 0.049422 0.266015
0.075392 0.049047 0.264056
0.075580 0.048362 0.260426
0.075921 0.047794 0.257428
0.076934 0.047661 0.256767
0.077912 0.047511 0.256009
0.079317 0.047622 0.256658
0.080523 0.047612 0.256650
0.081904 0.047704 0.257188
0.083456 0.047891 0.258241
0.084731 0.047917 0.258416
0.086260 0.048082 0.259345
0.088983 0.048900 0.263786
0.099000 0.053647 0.289426
0.100228 0.053567 0.289018
0.101981 0.053766 0.290113
0.103498 0.053836 0.290509
0.104643 0.053713 0.289862
0.105913 0.053657 0.289566
0.107335 0.053678 0.289684
0.108530 0.053587 0.289189
0.109725 0.053498 0.288700
0.111559 0.053719 0.289877
0.112744 0.053625 0.289353
0.114072 0.053601 0.289198
0.115565 0.053655 0.289453
0.116856 0.053614 0.289194
0.118029 0.053520 0.288644
0.119579 0.053598 0.289009
0.120395 0.053349 0.287604
0.121591 0.053271 0.287119
0.124036 0.053737 0.289553
0.126187 0.054066 0.291240
0.127560 0.054058 0.291106
0.128701 0.053953 0.290438
0.130130 0.053970 0.290419
0.131562 0.053987 0.290393
0.132688 0.053880 0.289687
0.134236 0.053945 0.289895
0.135793 0.054011 0.290104
0.137119 0.053986 0.289808
0.138595 0.054020 0.289816
0.139918 0.053993 0.289491
0.141993 0.054254 0.290698
0.143645 0.054351 0.291007
0.145018 0.054341 0.290733
0.146592 0.054405 0.290844
0.148195 0.054479 0.290993
0.150115 0.054667 0.291736
0.151648 0.054711 0.291697
0.152915 0.054660 0.291134
-0.041864 0.018864 0.099903
-0.043367 0.019763 0.104676
-0.043032 0.019836 0.105072
-0.042742 0.019931 0.105583
-0.042310 0.019961 0.105751
-0.039755 0.018979 0.100549
-0.040198 0.020402 0.108078
-0.040586 0.020863 0.110509
-0.041299 0.021505 0.113899
-0.041105 0.021685 0.114840
-0.041103 0.021973 0.116347
-0.040701 0.022051 0.116745
-0.040697 0.022351 0.118313
-0.040688 0.022655 0.119904
-0.040529 0.022885 0.121095
-0.040312 0.023087 0.122139
-0.040035 0.023260 0.123029
-0.039823 0.023476 0.124144
-0.039465 0.023612 0.124832
-0.039597 0.024049 0.127114
-0.039833 0.024564 0.129801
-0.041160 0.025778 0.136181
-0.041330 0.026295 0.138871
-0.041616 0.026903 0.142042
-0.042149 0.027694 0.146175
-0.042383 0.028311 0.149386
-0.042195 0.028662 0.151192
-0.041781 0.028870 0.152237
-0.041760 0.029360 0.154775
-0.041914 0.029994 0.158064
-0.041967 0.030577 0.161082
-0.042109 0.031248 0.164560
-0.042149 0.031867 0.167762
-0.042076 0.032423 0.170628
-0.042200 0.033154 0.174415
-0.041980 0.033641 0.176911
-0.041848 0.034218 0.179880
-0.041702 0.034808 0.182916
-0.041699 0.035545 0.186720
-0.041645 0.036269 0.190456
-0.041646 0.037075 0.194616
-0.041927 0.038172 0.200302
-0.041234 0.038412 0.201489
-0.041443 0.039524 0.207246
-0.044660 0.043630 0.228690
-0.043360 0.043417 0.227493
-0.043368 0.044536 0.233273
-0.042896 0.045209 0.236712
-0.042210 0.045686 0.239124
-0.041429 0.046084 0.241120
-0.040615 0.046467 0.243040
-0.039748 0.046810 0.244748
-0.039003 0.047322 0.247343
-0.038634 0.048336 0.252556
-0.038170 0.049293 0.257469
-0.040489 0.054028 0.282109
-0.039179 0.054079 0.282284
-0.037981 0.054295 0.283320
-0.036660 0.054343 0.283484
-0.034447 0.053023 0.276512
-0.032687 0.052322 0.272777
-0.031458 0.052448 0.273355
-0.030124 0.052403 0.273040
-0.028923 0.052595 0.273969
-0.027715 0.052792 0.274920
-0.026417 0.052829 0.275041
-0.019333 0.051510 0.267862
-0.018158 0.051825 0.269446
-0.016967 0.052138 0.271024
-0.015389 0.051215 0.266174
-0.014552 0.052816 0.274447
-0.013240 0.052836 0.274510
-0.011124 0.049304 0.256121
-0.009915 0.049407 0.256618
-0.008710 0.049569 0.257429
-0.007453 0.049436 0.256705
-0.006221 0.049452 0.256759
-0.004997 0.049545 0.257221
-0.003763 0.049589 0.257426
-0.002530 0.049675 0.257853
-0.001288 0.049598 0.257441
-0.000050 0.049779 0.258367
0.001194 0.049865 0.258802
0.002481 0.050715 0.263206
0.003741 0.050634 0.262784
0.007404 0.049767 0.258290
0.008593 0.049455 0.256680
0.009836 0.049496 0.256903
0.011076 0.049518 0.257030
0.012320 0.049547 0.257195
0.013566 0.049577 0.257371
0.014844 0.049713 0.258097
0.016088 0.049721 0.258164
0.017356 0.049793 0.258569
0.018639 0.049898 0.259144
0.019988 0.050157 0.260522
0.021328 0.050363 0.261625
0.022792 0.050821 0.264047
0.024145 0.050997 0.265000
0.025314 0.050787 0.263952
0.026395 0.050428 0.262132
0.027325 0.049826 0.259053
0.028492 0.049690 0.258395
0.029665 0.049574 0.257843
0.030744 0.049319 0.256567
0.031929 0.049245 0.256240
0.033185 0.049283 0.256494
0.034406 0.049267 0.256470
0.035728 0.049393 0.257183
0.036910 0.049323 0.256879
0.038173 0.049361 0.257144
0.039574 0.049571 0.258301
0.040772 0.049520 0.258102
0.042066 0.049586 0.258516
0.043383 0.049675 0.259049
0.044274 0.049284 0.257078
0.045066 0.048807 0.254661
0.046307 0.048829 0.254842
0.047449 0.048747 0.254489
0.048615 0.048695 0.254286
0.049912 0.048772 0.254763
0.051127 0.048767 0.254808
0.052355 0.048775 0.254923
0.053738 0.048923 0.255771
0.055071 0.049020 0.256350
0.056309 0.049031 0.256480
0.058084 0.049498 0.258995
0.060682 0.050632 0.265006
0.062501 0.051084 0.267446
0.064041 0.051294 0.268619
0.065384 0.051340 0.268937
0.066864 0.051490 0.269796
0.068189 0.051518 0.270016
0.069492 0.051528 0.270141
0.070726 0.051488 0.269999
0.071897 0.051403 0.269623
0.072835 0.051159 0.268409
0.073427 0.050683 0.265980
0.075113 0.050966 0.267528
0.075767 0.050551 0.265410
0.076359 0.050109 0.263147
0.076178 0.049182 0.258333
0.077845 0.049459 0.259839
0.078787 0.049273 0.258916
0.079826 0.049153 0.258332
0.081265 0.049280 0.259042
0.082844 0.049485 0.260165
0.084331 0.049631 0.260971
0.085706 0.049708 0.261409
0.087783 0.050183 0.263944
0.095994 0.054102 0.284587
0.097204 0.054021 0.284191
0.101301 0.055525 0.292127
0.102111 0.055211 0.290492
0.103333 0.055125 0.290054
0.104758 0.055148 0.290186
0.105934 0.055041 0.289627
0.107234 0.055000 0.289411
0.108639 0.055013 0.289476
0.109804 0.054906 0.288903
0.111300 0.054965 0.289196
0.112877 0.055062 0.289684
0.114247 0.055057 0.289628
0.115643 0.055064 0.289630
0.117188 0.055142 0.289994
0.118546 0.055130 0.289883
0.120153 0.055233 0.290370
0.121539 0.055233 0.290306
0.122723 0.055143 0.289760
0.124266 0.055214 0.290054
0.126105 0.055413 0.291011
0.127555 0.055439 0.291051
0.128977 0.055452 0.291015
0.130536 0.055524 0.291276
0.131825 0.055480 0.290921
0.133489 0.055592 0.291379
0.134766 0.055544 0.290981
0.135976 0.055469 0.290433
0.137727 0.055613 0.291026
0.139306 0.055686 0.291231
0.140521 0.055614 0.290666
0.141828 0.055578 0.290283
0.143314 0.055613 0.290255
0.144569 0.055558 0.289745
0.146797 0.055875 0.291160
0.148764 0.056087 0.292014
0.150434 0.056184 0.292254
0.151614 0.056099 0.291528
0.153095 0.056125 0.291367
-0.041620 0.019223 0.099314
-0.042350 0.019782 0.102216
-0.042844 0.020243 0.104607
-0.041932 0.020042 0.103580
-0.041140 0.019894 0.102823
-0.040701 0.019916 0.102938
-0.039948 0.019783 0.102254
-0.039424 0.019761 0.102141
-0.039626 0.020106 0.103926
-0.039353 0.020217 0.104496
-0.040683 0.021165 0.109388
-0.040380 0.021276 0.109954
-0.040144 0.021426 0.110720
-0.041985 0.022703 0.117305
-0.041954 0.022988 0.118765
-0.041719 0.023168 0.119676
-0.041047 0.023106 0.119342
-0.040734 0.023248 0.120053
-0.040502 0.023441 0.121026
-0.040090 0.023533 0.121480
-0.040151 0.023910 0.123401
-0.039359 0.023782 0.122714
-0.039069 0.023959 0.123599
-0.039414 0.024536 0.126546
-0.041836 0.026444 0.136350
-0.041255 0.026484 0.136519
-0.041417 0.027009 0.139188
-0.041420 0.027446 0.141402
-0.041706 0.028088 0.144667
-0.042212 0.028902 0.148814
-0.042163 0.029356 0.151110
-0.041887 0.029666 0.152658
-0.041806 0.030128 0.154983
-0.041832 0.030684 0.157793
-0.042017 0.031379 0.161317
-0.042087 0.032013 0.164517
-0.042106 0.032630 0.167635
-0.042248 0.033369 0.171369
-0.042167 0.033957 0.174329
-0.042162 0.034631 0.177726
-0.042056 0.035248 0.180831
-0.042468 0.036333 0.186333
-0.042138 0.036816 0.188744
-0.041755 0.037273 0.191018
-0.041206 0.037600 0.192621
-0.041122 0.038374 0.196519
-0.041485 0.039612 0.202786
-0.046553 0.045508 0.232885
-0.044607 0.044667 0.228500
-0.043987 0.045146 0.230865
-0.043254 0.045530 0.232749
-0.042507 0.045919 0.234652
-0.042044 0.046645 0.238276
-0.041239 0.047020 0.240111
-0.040522 0.047520 0.242579
-0.039857 0.048113 0.245521
-0.038996 0.048497 0.247399
-0.038730 0.049669 0.253294
-0.038185 0.050547 0.257685
-0.040669 0.055626 0.283487
-0.039353 0.055678 0.283662
-0.038082 0.055801 0.284201
-0.036757 0.055851 0.284365
-0.034210 0.053975 0.274735
-0.032531 0.053376 0.271603
-0.031112 0.053170 0.270477
-0.029812 0.053158 0.270343
-0.028440 0.053011 0.269522
-0.027175 0.053061 0.269706
-0.025682 0.052647 0.267531
-0.024422 0.052693 0.267700
-0.023237 0.052914 0.268759
-0.021872 0.052728 0.267751
-0.020555 0.052642 0.267256
-0.019305 0.052726 0.267627
-0.018132 0.053048 0.269209
-0.016942 0.053369 0.270786
-0.015354 0.052381 0.265724
-0.014437 0.053714 0.272442
-0.013135 0.053735 0.272504
-0.011118 0.050516 0.256143
-0.009890 0.050524 0.256148
-0.008686 0.050680 0.256905
-0.007441 0.050600 0.256470
-0.006218 0.050673 0.256813
-0.004995 0.050782 0.257342
-0.003762 0.050835 0.257589
-0.002530 0.050963 0.258219
-0.001290 0.050983 0.258302
-0.000048 0.051166 0.259219
0.001201 0.051299 0.259883
0.002475 0.051822 0.262522
0.003740 0.051863 0.262731
0.007361 0.050694 0.256814
0.008574 0.050569 0.256185
0.009837 0.050726 0.256992
0.011045 0.050602 0.256380
0.012302 0.050699 0.256883
0.013568 0.050814 0.257487
0.014837 0.050920 0.258044
0.016083 0.050937 0.258158
0.017359 0.051039 0.258702
0.018655 0.051182 0.259455
0.019984 0.051391 0.260547
0.021336 0.051632 0.261805
0.022735 0.051954 0.263471
0.024054 0.052069 0.264095
0.025159 0.051731 0.262422
0.026272 0.051441 0.260998
0.027233 0.050893 0.258262
0.028396 0.050755 0.257612
0.029579 0.050661 0.257185
0.030647 0.050386 0.255843
0.031820 0.050299 0.255451
0.033043 0.050294 0.255481
0.034368 0.050438 0.256272
0.035635 0.050491 0.256600
0.036825 0.050434 0.256372
0.038138 0.050544 0.256991
0.039566 0.050795 0.258329
0.040813 0.050805 0.258446
0.042053 0.050806 0.258519
0.043319 0.050837 0.258742
0.044366 0.050617 0.257692
0.045143 0.050109 0.255172
0.046300 0.050038 0.254882
0.047523 0.050040 0.254959
0.048649 0.049943 0.254535
0.049953 0.050028 0.255038
0.051110 0.049966 0.254793
0.052556 0.050182 0.255969
0.053632 0.050043 0.255332
0.055063 0.050235 0.256381
0.056991 0.050861 0.259647
0.057758 0.050447 0.257605
0.060559 0.051789 0.264533
0.062535 0.052386 0.267653
0.063954 0.052501 0.268314
0.065303 0.052555 0.268661
0.066801 0.052724 0.269600
0.068094 0.052729 0.269695
0.069379 0.052727 0.269754
0.070654 0.052717 0.269772
0.071784 0.052602 0.269251
0.073076 0.052607 0.269341
0.074396 0.052632 0.269531
0.075496 0.052503 0.268933
0.076373 0.052226 0.267572
0.077501 0.052127 0.267120
0.078568 0.051990 0.266474
0.079188 0.051567 0.264356
0.080060 0.051318 0.263130
0.081541 0.051461 0.263911
0.082421 0.051227 0.262753
0.083667 0.051223 0.262774
0.085242 0.051418 0.263813
0.086467 0.051400 0.263751
0.088231 0.051697 0.265308
0.096301 0.055629 0.285515
0.097516 0.055547 0.285118
0.100393 0.056400 0.289517
0.102144 0.056606 0.290594
0.103619 0.056656 0.290861
0.104815 0.056554 0.290345
0.105985 0.056440 0.289766
0.107556 0.056541 0.290278
0.108811 0.056474 0.289929
0.109865 0.056307 0.289055
0.111670 0.056524 0.290148
0.112935 0.056465 0.289819
0.114205 0.056409 0.289503
0.115659 0.056446 0.289651
0.117051 0.056451 0.289634
0.118204 0.056342 0.289023
0.119718 0.056406 0.289290
0.121095 0.056404 0.289214
0.123335 0.056800 0.291170
0.124620 0.056753 0.290842
0.126185 0.056832 0.291156
0.127510 0.056802 0.290905
0.128808 0.056761 0.290586
0.130648 0.056958 0.291473
0.132076 0.056972 0.291418
0.133590 0.057023 0.291542
0.135013 0.057034 0.291451
0.136434 0.057044 0.291343
0.137812 0.057036 0.291136
0.139575 0.057186 0.291720
0.141331 0.057329 0.292261
0.142828 0.057367 0.292247
0.144133 0.057326 0.291826
0.145542 0.057328 0.291605
0.147047 0.057367 0.291560
0.148699 0.057462 0.291787
0.150053 0.057441 0.291411
0.151591 0.057490 0.291375
0.153082 0.057520 0.291230
-0.041489 0.019630 0.098994
-0.042080 0.020135 0.101559
-0.041932 0.020295 0.102376
-0.041610 0.020373 0.102778
-0.041112 0.020365 0.102750
-0.040900 0.020501 0.103441
-0.040789 0.020691 0.104404
-0.040602 0.020847 0.105192
-0.039735 0.020653 0.104214
-0.039956 0.021027 0.106099
-0.039742 0.021179 0.106859
-0.040430 0.021822 0.110095
-0.040111 0.021930 0.110633
-0.041949 0.023237 0.117213
-0.040304 0.022623 0.114103
-0.040020 0.022766 0.114811
-0.039890 0.023002 0.115988
-0.040178 0.023490 0.118425
-0.040372 0.023935 0.120651
-0.040305 0.024236 0.122146
-0.039117 0.023862 0.120238
-0.039176 0.024249 0.122162
-0.038986 0.024491 0.123354
-0.039318 0.025073 0.126257
-0.042002 0.027196 0.136913
-0.041418 0.027237 0.137082
-0.041550 0.027756 0.139662
-0.041133 0.027920 0.140449
-0.041500 0.028630 0.143980
-0.042025 0.029475 0.148185
-0.042129 0.030048 0.151021
-0.042009 0.030478 0.153137
-0.041828 0.030878 0.155099
-0.041655 0.031299 0.157164
-0.041813 0.031988 0.160571
-0.041832 0.032594 0.163560
-0.041865 0.033234 0.166717
-0.041942 0.033935 0.170177
-0.042195 0.034808 0.174495
-0.041898 0.035253 0.176667
-0.041938 0.036006 0.180376
-0.041982 0.036794 0.184257
-0.042386 0.037937 0.189916
-0.041001 0.037493 0.187629
-0.040865 0.038198 0.191089
-0.049348 0.047174 0.235909
-0.048287 0.047232 0.236116
-0.045008 0.045071 0.225234
-0.044467 0.045613 0.227863
-0.043819 0.046071 0.230069
-0.043375 0.046771 0.233484
-0.042555 0.047093 0.235009
-0.041798 0.047503 0.236975
-0.040906 0.047778 0.238264
-0.040303 0.048417 0.241368
-0.039751 0.049156 0.244969
-0.039222 0.049969 0.248938
-0.038808 0.050983 0.253910
-0.038390 0.052059 0.259181
-0.040325 0.056502 0.281212
-0.039020 0.056554 0.281386
-0.037831 0.056786 0.282453
-0.036514 0.056836 0.282616
-0.034117 0.055143 0.274117
-0.032180 0.054089 0.268798
-0.030636 0.053634 0.266464
-0.029417 0.053736 0.266895
-0.028201 0.053851 0.267394
-0.026760 0.053527 0.265716
-0.025233 0.052990 0.262985
-0.023946 0.052928 0.262615
-0.022770 0.053119 0.263501
-0.021504 0.053107 0.263382
-0.020151 0.052869 0.262143
-0.018987 0.053127 0.263371
-0.017945 0.053787 0.266588
-0.016740 0.054023 0.267711
-0.015359 0.053684 0.265980
-0.014342 0.054670 0.270820
-0.013048 0.054691 0.270881
-0.011069 0.051528 0.255181
-0.009875 0.051689 0.255940
-0.008675 0.051860 0.256756
-0.007423 0.051722 0.256042
-0.006205 0.051818 0.256494
-0.004986 0.051955 0.257145
-0.003754 0.051997 0.257335
-0.002519 0.052024 0.257446
-0.001285 0.052111 0.257863
-0.000046 0.052227 0.258422
0.001199 0.052365 0.259095
0.002491 0.053376 0.264091
0.003738 0.053059 0.262521
0.007380 0.052054 0.257553
0.008573 0.051779 0.256201
0.009833 0.051929 0.256954
0.011050 0.051847 0.256559
0.012289 0.051872 0.256700
0.013546 0.051960 0.257153
0.014829 0.052125 0.257987
0.016078 0.052155 0.258161
0.017330 0.052189 0.258356
0.018643 0.052388 0.259371
0.019998 0.052675 0.260821
0.021351 0.052922 0.262081
0.022770 0.053296 0.263971
0.023998 0.053207 0.263567
0.025244 0.053164 0.263398
0.026262 0.052670 0.260992
0.027107 0.051888 0.257160
0.028326 0.051858 0.257060
0.029495 0.051744 0.256544
0.030559 0.051461 0.255194
0.031789 0.051470 0.255288
0.033022 0.051482 0.255401
0.034291 0.051548 0.255787
0.035562 0.051612 0.256159
0.036803 0.051629 0.256304
0.038075 0.051686 0.256650
0.039485 0.051923 0.257887
0.040731 0.051935 0.258009
0.042016 0.051994 0.258369
0.043257 0.051998 0.258454
0.044342 0.051819 0.257628
0.045131 0.051312 0.255178
0.046354 0.051314 0.255251
0.047500 0.051232 0.254913
0.048622 0.051128 0.254462
0.049878 0.051167 0.254728
0.051023 0.051094 0.254431
0.052263 0.051116 0.254610
0.053697 0.051322 0.255706
0.054924 0.051326 0.255796
0.056635 0.051772 0.258089
0.058759 0.052569 0.262133
0.060493 0.052990 0.264305
0.062080 0.053268 0.265763
0.063807 0.053654 0.267756
0.065153 0.053709 0.268101
0.066500 0.053763 0.268442
0.067871 0.053834 0.268865
0.069145 0.053826 0.268893
0.070308 0.053735 0.268500
0.071384 0.053581 0.267796
0.072500 0.053462 0.267265
0.073883 0.053541 0.267719
0.074762 0.053258 0.266361
0.076039 0.053263 0.266442
0.077344 0.053287 0.266617
0.078052 0.052905 0.264759
0.079431 0.052983 0.265199
0.080778 0.053038 0.265522
0.081652 0.052785 0.264300
0.082990 0.052835 0.264592
0.084302 0.052868 0.264793
0.085470 0.052810 0.264539
0.087182 0.053085 0.265949
0.089456 0.053690 0.269009
0.095173 0.056315 0.282185
0.096466 0.056285 0.282058
0.099779 0.057419 0.287758
0.101956 0.057877 0.290067
0.103450 0.057940 0.290392
0.104800 0.057922 0.290307
0.106246 0.057956 0.290479
0.107406 0.057836 0.289869
0.109086 0.057995 0.290656
0.110402 0.057959 0.290457
0.111679 0.057904 0.290158
0.113062 0.057904 0.290128
0.114289 0.057825 0.289699
0.115453 0.057716 0.289113
0.117406 0.058000 0.290485
0.118555 0.057885 0.289853
0.120259 0.058040 0.290567
0.121261 0.057856 0.289577
0.122669 0.057869 0.289561
0.124622 0.058135 0.290805
0.126042 0.058149 0.290780
0.127391 0.058130 0.290586
0.129295 0.058363 0.291634
0.130484 0.058271 0.291053
0.132017 0.058332 0.291230
0.133515 0.058378 0.291315
0.134688 0.058281 0.290682
0.136400 0.058418 0.291202
0.137858 0.058443 0.291158
0.139110 0.058382 0.290670
0.140590 0.058417 0.290647
0.142171 0.058493 0.290817
0.143835 0.058600 0.291132
0.145743 0.058805 0.291914
0.147279 0.058856 0.291922
0.148586 0.058816 0.291463
0.149869 0.058767 0.290945
0.151235 0.058751 0.290579
0.152738 0.058788 0.290457
-0.042867 0.020764 0.102274
-0.042449 0.020795 0.102442
-0.042228 0.020925 0.103093
-0.041951 0.021029 0.103617
-0.041567 0.021081 0.103883
-0.041136 0.021110 0.104035
-0.040948 0.021267 0.104811
-0.040888 0.021494 0.105934
-0.040037 0.021306 0.105007
-0.040906 0.022040 0.108625
-0.040637 0.022172 0.109269
-0.040269 0.022252 0.109661
-0.039932 0.022352 0.110144
-0.039332 0.022305 0.109904
-0.038873 0.022338 0.110057
-0.039275 0.022874 0.112683
-0.040023 0.023628 0.116383
-0.040038 0.023965 0.118026
-0.039773 0.024141 0.118872
-0.039671 0.024423 0.120238
-0.039645 0.024760 0.121875
-0.039255 0.024877 0.122425
-0.039965 0.025704 0.126469
-0.039399 0.025723 0.126535
-0.039770 0.026364 0.129658
-0.041170 0.027718 0.136282
-0.041248 0.028210 0.138671
-0.041609 0.028916 0.142100
-0.041917 0.029606 0.145455
-0.042180 0.030288 0.148764
-0.041879 0.030581 0.150158
-0.041567 0.030875 0.151559
-0.041673 0.031496 0.154561
-0.041534 0.031951 0.156743
-0.041593 0.032577 0.159766
-0.041504 0.033109 0.162321
-0.041738 0.033923 0.166258
-0.041661 0.034510 0.169080
-0.041737 0.035250 0.172651
-0.041901 0.036095 0.176730
-0.042001 0.036918 0.180698
-0.042861 0.038458 0.188173
-0.042354 0.038811 0.189832
-0.040960 0.038348 0.187504
-0.050275 0.048113 0.235169
-0.048229 0.048298 0.235912
-0.046187 0.047354 0.231217
-0.045213 0.047483 0.231769
-0.044034 0.047399 0.231281
-0.043299 0.047801 0.233164
-0.042570 0.048231 0.235178
-0.041698 0.048518 0.236498
-0.040868 0.048871 0.238139
-0.040484 0.049793 0.242550
-0.040008 0.050652 0.246651
-0.038895 0.050733 0.246969
-0.038834 0.052234 0.254191
-0.041963 0.058260 0.283427
-0.040695 0.058379 0.283918
-0.039213 0.058189 0.282907
-0.037940 0.058307 0.283397
-0.036619 0.058358 0.283560
-0.034357 0.056854 0.276172
-0.032135 0.055301 0.268549
-0.030622 0.054889 0.266475
-0.029318 0.054832 0.266128
-0.027976 0.054695 0.265393
-0.026404 0.054076 0.262320
-0.025069 0.053902 0.261415
-0.023779 0.053814 0.260925
-0.022489 0.053714 0.260382
-0.021328 0.053931 0.261375
-0.020088 0.053961 0.261464
-0.018852 0.054011 0.261650
-0.017786 0.054585 0.264383
-0.016877 0.055769 0.270065
-0.015322 0.054834 0.265491
-0.014316 0.055875 0.270488
-0.013024 0.055896 0.270549
-0.011040 0.052626 0.254682
-0.009855 0.052821 0.255592
-0.008668 0.053060 0.256716
-0.007411 0.052886 0.255845
-0.006199 0.053020 0.256466
-0.004982 0.053168 0.257159
-0.003756 0.053285 0.257703
-0.002521 0.053340 0.257954
-0.001284 0.053409 0.258269
-0.000044 0.053695 0.259640
0.001208 0.053914 0.260691
0.002486 0.054473 0.263386
0.003733 0.054211 0.262113
0.007372 0.053213 0.257295
0.008566 0.052955 0.256052
0.009837 0.053172 0.257112
0.011050 0.053066 0.256610
0.012301 0.053144 0.257005
0.013551 0.053204 0.257312
0.014847 0.053420 0.258376
0.016101 0.053463 0.258610
0.017327 0.053413 0.258395
0.018654 0.053658 0.259608
0.020007 0.053944 0.261021
0.021368 0.054217 0.262376
0.022733 0.054468 0.263628
0.024330 0.055219 0.267302
0.025310 0.054566 0.264177
0.026197 0.053784 0.260435
0.027078 0.053059 0.256967
0.028246 0.052938 0.256428
0.029461 0.052909 0.256338
0.030576 0.052710 0.255423
0.031814 0.052731 0.255574
0.033081 0.052797 0.255947
0.034305 0.052792 0.255976
0.035619 0.052920 0.256653
0.036834 0.052897 0.256600
0.038037 0.052859 0.256477
0.039456 0.053114 0.257773
0.040718 0.053150 0.258009
0.041859 0.053029 0.257484
0.043118 0.053060 0.257700
0.044165 0.052837 0.256681
0.044987 0.052363 0.254444
0.046247 0.052410 0.254738
0.047383 0.052317 0.254354
0.048498 0.052208 0.253890
0.049755 0.052252 0.254170
0.050999 0.052281 0.254380
0.052122 0.052188 0.253991
0.053608 0.052453 0.255351
0.054731 0.052360 0.254964
0.055961 0.052370 0.255081
0.058463 0.053545 0.260875
0.060706 0.054439 0.265298
0.062410 0.054823 0.267240
0.063739 0.054868 0.267527
0.065253 0.055068 0.268570
0.066607 0.055128 0.268929
0.067999 0.055216 0.269425
0.069293 0.055222 0.269521
0.070520 0.055176 0.269360
0.071835 0.055200 0.269538
0.073186 0.055249 0.269840
0.074322 0.055137 0.269351
0.075694 0.055202 0.269723
0.076767 0.055049 0.269030
0.078036 0.055040 0.269040
0.079289 0.055020 0.268990
0.080121 0.054713 0.267536
0.081450 0.054749 0.267759
0.082593 0.054661 0.267372
0.083743 0.054581 0.267019
0.084768 0.054422 0.266278
0.086232 0.054546 0.266918
0.087858 0.054767 0.268029
0.094692 0.058182 0.284768
0.095908 0.058098 0.284378
0.098935 0.059097 0.289289
0.100665 0.059305 0.290323
0.102014 0.059285 0.290239
0.103502 0.059346 0.290541
0.105189 0.059517 0.291383
0.106354 0.059393 0.290771
0.107775 0.059413 0.290860
0.109127 0.059395 0.290755
0.110374 0.059320 0.290372
0.111759 0.059322 0.290352
0.112972 0.059232 0.289880
0.114199 0.059152 0.289451
0.115547 0.059136 0.289326
0.116737 0.059040 0.288806
0.118883 0.059424 0.290624
0.120163 0.059371 0.290302
0.121487 0.059341 0.290081
0.122866 0.059339 0.289986
0.124401 0.059410 0.290245
0.125903 0.059464 0.290413
0.127404 0.059517 0.290565
0.128553 0.059406 0.289905
0.130412 0.059622 0.290834
0.131787 0.059614 0.290661
0.133175 0.059613 0.290509
0.134758 0.059697 0.290765
0.136279 0.059753 0.290871
0.137568 0.059706 0.290468
0.139503 0.059938 0.291410
0.140938 0.059953 0.291281
0.142499 0.060020 0.291397
0.143794 0.059975 0.290955
0.145332 0.060032 0.290991
0.146860 0.060083 0.290989
0.148505 0.060180 0.291194
0.149856 0.060158 0.290807
0.151140 0.060109 0.290279
0.152723 0.060179 0.290306
-0.042186 0.021147 0.101799
-0.041972 0.021281 0.102461
-0.041759 0.021419 0.103136
-0.041617 0.021597 0.104004
-0.041669 0.021881 0.105379
-0.041526 0.022068 0.106286
-0.040999 0.022053 0.106218
-0.040939 0.022292 0.107372
-0.040763 0.022473 0.108245
-0.040374 0.022540 0.108564
-0.040078 0.022661 0.109143
-0.039763 0.022775 0.109684
-0.039319 0.022816 0.109874
-0.039167 0.023031 0.110896
-0.039736 0.023680 0.114013
-0.040012 0.024171 0.116361
-0.039955 0.024471 0.117790
-0.039962 0.024820 0.119450
-0.039906 0.025139 0.120964
-0.040016 0.025572 0.123029
-0.039753 0.025778 0.123993
-0.040510 0.026660 0.128211
-0.039810 0.026596 0.127875
-0.039781 0.026985 0.129715
-0.042113 0.029012 0.139427
-0.041516 0.029054 0.139597
-0.041380 0.029425 0.141342
-0.041850 0.030247 0.145252
-0.042033 0.030885 0.148275
-0.042217 0.031545 0.151402
-0.042029 0.031945 0.153278
-0.041639 0.032203 0.154471
-0.041471 0.032644 0.156542
-0.041491 0.033253 0.159412
-0.041704 0.034042 0.163144
-0.041757 0.034727 0.166375
-0.041922 0.035534 0.170187
-0.041886 0.036199 0.173314
-0.041839 0.036880 0.176519
-0.041587 0.037404 0.178970
-0.042646 0.039155 0.187285
-0.041575 0.038983 0.186397
-0.051264 0.049111 0.234748
-0.050214 0.049173 0.234962
-0.046831 0.046900 0.224028
-0.046829 0.047987 0.229143
-0.045975 0.048232 0.230234
-0.045132 0.048501 0.231440
-0.043963 0.048424 0.230992
-0.043345 0.048965 0.233497
-0.042463 0.049229 0.234678
-0.041657 0.049598 0.236358
-0.040952 0.050111 0.238725
-0.040260 0.050670 0.241305
-0.039980 0.051794 0.246582
-0.039218 0.052345 0.249123
-0.044210 0.060848 0.289501
-0.041953 0.059601 0.283481
-0.040640 0.059657 0.283660
-0.038764 0.058862 0.279795
-0.037854 0.059530 0.282887
-0.036536 0.059582 0.283049
-0.034276 0.058043 0.275659
-0.032431 0.057110 0.271153
-0.030809 0.056510 0.268232
-0.029550 0.056553 0.268365
-0.027977 0.055971 0.265536
-0.026062 0.054620 0.259058
-0.024711 0.054371 0.257816
-0.023518 0.054463 0.258192
-0.022352 0.054633 0.258941
-0.021200 0.054859 0.259953
-0.020015 0.055020 0.260660
-0.018841 0.055237 0.261638
-0.017694 0.055572 0.263171
-0.016723 0.056551 0.267761
-0.015306 0.056060 0.265389
-0.014308 0.057152 0.270515
-0.013017 0.057174 0.270576
-0.011064 0.053975 0.255404
-0.009854 0.054058 0.255761
-0.008660 0.054260 0.256686
-0.007413 0.054140 0.256087
-0.006192 0.054208 0.256383
-0.004976 0.054357 0.257067
-0.003745 0.054398 0.257238
-0.002516 0.054515 0.257774
-0.001277 0.054464 0.257519
-0.000041 0.054717 0.258702
0.001206 0.054991 0.259988
0.002488 0.055738 0.263511
0.003745 0.055611 0.262908
0.007364 0.054370 0.257044
0.008565 0.054161 0.256062
0.009832 0.054369 0.257057
0.011054 0.054310 0.256785
0.012301 0.054368 0.257079
0.013570 0.054509 0.257761
0.014840 0.054628 0.258342
0.016109 0.054724 0.258819
0.017365 0.054765 0.259038
0.018619 0.054796 0.259212
0.020033 0.055262 0.261448
0.021373 0.055483 0.262528
0.022704 0.055657 0.263385
0.024656 0.057254 0.270979
0.025745 0.056786 0.268807
0.026204 0.055042 0.260590
0.026947 0.054024 0.255816
0.028217 0.054105 0.256245
0.029431 0.054078 0.256162
0.030595 0.053963 0.255667
0.031846 0.054006 0.255920
0.033068 0.053998 0.255934
0.034274 0.053964 0.255824
0.035580 0.054085 0.256453
0.036804 0.054078 0.256476
0.038050 0.054102 0.256650
0.039447 0.054333 0.257801
0.040697 0.054352 0.257955
0.041725 0.054084 0.256743
0.042950 0.054078 0.256776
0.044016 0.053878 0.255889
0.044902 0.053474 0.254036
0.046027 0.053369 0.253598
0.047204 0.053328 0.253468
0.048385 0.053293 0.253367
0.049633 0.053332 0.253617
0.050909 0.053398 0.253997
0.052185 0.053462 0.254366
0.053492 0.053553 0.254865
0.054729 0.053572 0.255019
0.056530 0.054130 0.257742
0.058242 0.054580 0.259952
0.060591 0.055595 0.264856
0.062487 0.056163 0.267629
0.063824 0.056215 0.267943
0.065233 0.056328 0.268544
0.066794 0.056565 0.269739
0.067998 0.056496 0.269474
0.069175 0.056407 0.269115
0.070471 0.056417 0.269223
0.071504 0.056220 0.268341
0.072657 0.056122 0.267934
0.074033 0.056197 0.268345
0.075251 0.056151 0.268184
0.076269 0.055961 0.267325
0.077093 0.055636 0.265823
0.078139 0.055479 0.265121
0.079435 0.055502 0.265275
0.080598 0.055433 0.264987
0.081878 0.055445 0.265084
0.083193 0.055480 0.265288
0.084432 0.055464 0.265245
0.085885 0.055587 0.265862
0.087752 0.055970 0.267723
0.089888 0.056512 0.270337
0.097760 0.060593 0.289882
0.098997 0.060505 0.289480
0.099971 0.060262 0.288329
0.101842 0.060558 0.289752
0.103264 0.060583 0.289875
0.104842 0.060697 0.290420
0.106350 0.060769 0.290756
0.107643 0.060717 0.290496
0.108927 0.060661 0.290213
0.110462 0.060745 0.290591
0.111544 0.060581 0.289777
0.112904 0.060570 0.289687
0.114375 0.060618 0.289874
0.115370 0.060415 0.288858
0.117025 0.060559 0.289489
0.118713 0.060716 0.290176
0.120002 0.060667 0.289876
0.121240 0.060595 0.289452
0.123103 0.060832 0.290501
0.124244 0.060712 0.289834
0.125525 0.060662 0.289493
0.126937 0.060675 0.289447
0.129133 0.061059 0.291157
0.129618 0.060634 0.289003
0.131817 0.061011 0.290662
0.133347 0.061074 0.290814
0.134667 0.061041 0.290495
0.136261 0.061131 0.290756
0.137805 0.061197 0.290889
0.139288 0.061235 0.290876
0.140853 0.061307 0.291016
0.142145 0.061261 0.290579
0.143784 0.061363 0.290837
0.145261 0.061395 0.290746
0.146703 0.061412 0.290570
0.148270 0.061480 0.290622
0.149679 0.061481 0.290346
0.150951 0.061427 0.289793
0.152504 0.061488 0.289764
-0.042521 0.021555 0.101430
-0.042105 0.021586 0.101597
-0.041839 0.021696 0.102129
-0.041395 0.021715 0.102231
-0.041555 0.022054 0.103843
-0.042039 0.022576 0.106310
-0.041958 0.022804 0.107390
-0.041361 0.022753 0.107155
-0.040929 0.022793 0.107345
-0.040668 0.022930 0.107993
-0.040117 0.022906 0.107875
-0.039827 0.023031 0.108462
-0.039516 0.023148 0.109006
-0.039038 0.023168 0.109094
-0.038755 0.023306 0.109737
-0.040577 0.024731 0.116436
-0.040857 0.025243 0.118829
-0.040856 0.025592 0.120457
-0.040820 0.025929 0.122027
-0.040444 0.026056 0.122607
-0.039655 0.025918 0.121936
-0.039820 0.026408 0.124216
-0.039654 0.026689 0.125517
-0.039814 0.027203 0.127907
-0.039317 0.027276 0.128220
-0.039618 0.027913 0.131188
-0.040607 0.029064 0.136563
-0.041420 0.030123 0.141506
-0.041190 0.030446 0.142986
-0.042044 0.031594 0.148342
-0.042299 0.032324 0.151725
-0.042272 0.032860 0.154198
-0.041885 0.033129 0.155420
-0.041609 0.033498 0.157103
-0.041521 0.034033 0.159567
-0.041754 0.034857 0.163381
-0.041809 0.035561 0.166626
-0.041868 0.036295 0.170013
-0.042211 0.037309 0.174710
-0.041735 0.037625 0.176130
-0.041592 0.038260 0.179048
-0.042595 0.039998 0.187118
-0.051141 0.049043 0.229358
-0.050117 0.049104 0.229571
-0.047435 0.047507 0.222031
-0.046913 0.048051 0.224499
-0.046183 0.048401 0.226059
-0.045895 0.049243 0.229917
-0.045082 0.049549 0.231269
-0.044407 0.050025 0.233412
-0.043354 0.050090 0.233639
-0.042386 0.050258 0.234346
-0.041500 0.050536 0.235564
-0.040581 0.050787 0.236657
-0.040521 0.052159 0.242972
-0.039935 0.052913 0.246407
-0.045483 0.062087 0.289040
-0.044150 0.062148 0.289234
-0.041855 0.060816 0.282948
-0.040651 0.061032 0.283869
-0.039364 0.061135 0.284259
-0.037903 0.060964 0.283384
-0.036583 0.061016 0.283546
-0.034349 0.059491 0.276377
-0.032230 0.058049 0.269609
-0.030606 0.057416 0.266596
-0.029205 0.057167 0.265370
-0.027936 0.057163 0.265286
-0.026500 0.056801 0.263539
-0.025003 0.056267 0.260999
-0.023720 0.056184 0.260552
-0.022451 0.056126 0.260226
-0.021294 0.056358 0.261247
-0.020168 0.056707 0.262810
-0.018894 0.056656 0.262523
-0.017755 0.057035 0.264225
-0.016690 0.057728 0.267391
-0.015339 0.057464 0.266124
-0.014430 0.058955 0.272984
-0.013127 0.058977 0.273045
-0.011030 0.055043 0.254796
-0.009837 0.055202 0.255495
-0.008632 0.055329 0.256053
-0.007398 0.055279 0.255795
-0.006177 0.055329 0.256001
-0.004962 0.055461 0.256590
-0.003738 0.055563 0.257038
-0.002507 0.055617 0.257269
-0.001275 0.055699 0.257635
-0.000039 0.055821 0.258189
0.001210 0.056282 0.260308
0.002493 0.057074 0.263963
0.003751 0.056933 0.263307
0.007348 0.055466 0.256527
0.008557 0.055322 0.255865
0.009818 0.055511 0.256752
0.011046 0.055487 0.256650
0.012303 0.055604 0.257205
0.013556 0.055679 0.257571
0.014834 0.055836 0.258317
0.016128 0.056023 0.259201
0.017368 0.056011 0.259172
0.018641 0.056097 0.259599
0.019992 0.056395 0.261003
0.021382 0.056760 0.262725
0.022787 0.057122 0.264435
0.024624 0.058472 0.270722
0.026019 0.058689 0.271768
0.026094 0.056049 0.259585
0.026945 0.055241 0.255884
0.028209 0.055314 0.256267
0.029387 0.055218 0.255867
0.030615 0.055220 0.255919
0.031875 0.055277 0.256235
0.033120 0.055305 0.256415
0.034361 0.055326 0.256563
0.035628 0.055384 0.256887
0.036843 0.055360 0.256830
0.038078 0.055367 0.256921
0.039387 0.055477 0.257488
0.040383 0.055154 0.256048
0.041681 0.055249 0.256549
0.042839 0.055160 0.256194
