ply
format ascii 1.0
element vertex 1680
property float x
property float y
property float z
end_header
-0.079613 -0.062193 0.305710
-0.078117 -0.062152 0.305414
-0.076769 -0.062229 0.305700
-0.075425 -0.062314 0.306017
-0.070220 -0.059149 0.290380
-0.068993 -0.059276 0.290906
-0.067667 -0.059320 0.291029
-0.066291 -0.059322 0.290943
-0.065013 -0.059414 0.291293
-0.063614 -0.059397 0.291114
-0.062213 -0.059378 0.290919
-0.060848 -0.059392 0.290890
-0.059425 -0.059349 0.290582
-0.058089 -0.059394 0.290701
-0.056709 -0.059395 0.290607
-0.055412 -0.059484 0.290945
-0.054054 -0.059512 0.290983
-0.052469 -0.059284 0.289773
-0.051341 -0.059574 0.291092
-0.049989 -0.059613 0.291188
-0.048531 -0.059526 0.290665
-0.047141 -0.059518 0.290531
-0.045769 -0.059534 0.290517
-0.044362 -0.059503 0.290272
-0.042752 -0.059190 0.288655
-0.041191 -0.058926 0.287279
-0.040629 -0.060122 0.293023
-0.039266 -0.060176 0.293198
-0.037400 -0.059436 0.289507
-0.036188 -0.059717 0.290792
-0.031387 -0.053862 0.262207
-0.030001 -0.053625 0.260982
-0.028675 -0.053478 0.260199
-0.027544 -0.053699 0.261207
-0.026283 -0.053674 0.261018
-0.025012 -0.053627 0.260725
-0.023794 -0.053694 0.260991
-0.022620 -0.053874 0.261804
-0.021452 -0.054090 0.262797
-0.020266 -0.054287 0.263697
-0.019187 -0.054814 0.266201
-0.018028 -0.055170 0.267883
-0.016796 -0.055341 0.268661
-0.015523 -0.055397 0.268885
-0.014260 -0.055498 0.269332
-0.012958 -0.055455 0.269085
-0.011668 -0.055459 0.269064
-0.010356 -0.055346 0.268478
-0.009048 -0.055232 0.267892
-0.007756 -0.055189 0.267653
-0.006475 -0.055223 0.267791
-0.005208 -0.055419 0.268716
-0.003934 -0.055655 0.269842
-0.002636 -0.055608 0.269596
-0.001344 -0.055741 0.270221
-0.000046 -0.055774 0.270368
0.001246 -0.055464 0.268858
0.002539 -0.055491 0.268980
0.003848 -0.055727 0.270119
0.005032 -0.054498 0.264159
0.006235 -0.053924 0.261379
0.007478 -0.053825 0.260906
0.008736 -0.053853 0.261048
0.009954 -0.053657 0.260108
0.011218 -0.053723 0.260440
0.012480 -0.053767 0.260664
0.013747 -0.053823 0.260954
0.015007 -0.053844 0.261077
0.016278 -0.053899 0.261369
0.017555 -0.053962 0.261697
0.018991 -0.054474 0.264210
0.020363 -0.054751 0.265586
0.021743 -0.055015 0.266897
0.022924 -0.054771 0.265752
0.024135 -0.054625 0.265078
0.025433 -0.054677 0.265375
0.026590 -0.054436 0.264245
0.027797 -0.054315 0.263703
0.028952 -0.054108 0.262745
0.030261 -0.054193 0.263204
0.031500 -0.054152 0.263057
0.032772 -0.054168 0.263186
0.034023 -0.054148 0.263143
0.035340 -0.054233 0.263610
0.036683 -0.054349 0.264229
0.037991 -0.054408 0.264576
0.039386 -0.054583 0.265486
0.040647 -0.054567 0.265471
0.041855 -0.054483 0.265126
0.043085 -0.054432 0.264939
0.042948 -0.052706 0.256601
0.044219 -0.052755 0.256906
0.045344 -0.052633 0.256376
0.046531 -0.052588 0.256220
0.047772 -0.052604 0.256362
0.048976 -0.052579 0.256305
0.050232 -0.052610 0.256525
0.051565 -0.052719 0.257120
0.052725 -0.052649 0.256845
0.053856 -0.052554 0.256448
0.055362 -0.052821 0.257819
0.058073 -0.054201 0.264625
0.060474 -0.055239 0.269761
0.061805 -0.055277 0.270014
0.063035 -0.055225 0.269828
0.064517 -0.055391 0.270708
0.065912 -0.055477 0.271195
0.067184 -0.055459 0.271172
0.068348 -0.055354 0.270721
0.069367 -0.055137 0.269724
0.070202 -0.054785 0.268064
0.070974 -0.054396 0.266221
0.072090 -0.054281 0.265717
0.073197 -0.054162 0.265191
0.074320 -0.054060 0.264743
0.075444 -0.053962 0.264313
0.076877 -0.054084 0.264962
0.078354 -0.054232 0.265735
0.079974 -0.054474 0.266964
0.081627 -0.054730 0.268261
0.083503 -0.055125 0.270238
0.084274 -0.054790 0.268630
0.085998 -0.055075 0.270062
0.093152 -0.058777 0.288251
0.094389 -0.058693 0.287866
0.097655 -0.059855 0.293591
0.098616 -0.059592 0.292320
0.100117 -0.059657 0.292658
0.101570 -0.059693 0.292846
0.102484 -0.059414 0.291489
0.104091 -0.059540 0.292110
0.105605 -0.059610 0.292449
0.107033 -0.059630 0.292541
0.108322 -0.059573 0.292250
0.109722 -0.059578 0.292254
0.111094 -0.059568 0.292180
0.112450 -0.059549 0.292059
0.113705 -0.059478 0.291676
0.114881 -0.059368 0.291093
0.116467 -0.059470 0.291542
0.118080 -0.059583 0.292041
0.119553 -0.059624 0.292176
0.120838 -0.059571 0.291847
0.122302 -0.059606 0.291939
0.123733 -0.059625 0.291945
0.124992 -0.059561 0.291538
0.126474 -0.059603 0.291643
0.127927 -0.059632 0.291670
0.129340 -0.059641 0.291596
0.130421 -0.059499 0.290768
0.132285 -0.059713 0.291674
0.133768 -0.059752 0.291714
0.135171 -0.059755 0.291570
0.136578 -0.059760 0.291422
0.138174 -0.059846 0.291660
0.139920 -0.059995 0.292193
0.141634 -0.060127 0.292631
0.143008 -0.060114 0.292349
0.144480 -0.060142 0.292254
0.146121 -0.060239 0.292482
0.147681 -0.060301 0.292525
0.149258 -0.060369 0.292582
0.150928 -0.060473 0.292797
0.152498 -0.060535 0.292795
0.153902 -0.060530 0.292455
-0.156211 -0.058646 0.292633
-0.154936 -0.058689 0.293140
-0.153332 -0.058607 0.293009
-0.151927 -0.058600 0.293239
-0.150555 -0.058606 0.293520
-0.148768 -0.058450 0.292971
-0.147228 -0.058388 0.292886
-0.145791 -0.058367 0.292989
-0.144583 -0.058438 0.293543
-0.143136 -0.058412 0.293602
-0.141843 -0.058450 0.293968
-0.139986 -0.058254 0.293144
-0.138692 -0.058290 0.293481
-0.137138 -0.058217 0.293259
-0.135515 -0.058113 0.292866
-0.140726 -0.062247 0.314065
-0.141803 -0.063388 0.319929
-0.140501 -0.063480 0.320485
-0.127983 -0.058450 0.295173
-0.124491 -0.057478 0.290333
-0.123044 -0.057439 0.290200
-0.121690 -0.057444 0.290277
-0.120601 -0.057575 0.290986
-0.118971 -0.057447 0.290383
-0.117530 -0.057410 0.290225
-0.116200 -0.057426 0.290332
-0.115027 -0.057521 0.290833
-0.113681 -0.057531 0.290899
-0.112310 -0.057528 0.290891
-0.111139 -0.057629 0.291405
-0.109780 -0.057634 0.291427
-0.108506 -0.057684 0.291671
-0.107063 -0.057645 0.291459
-0.105947 -0.057783 0.292136
-0.104684 -0.057843 0.292418
-0.103288 -0.057831 0.292327
-0.102175 -0.057979 0.293042
-0.101018 -0.058106 0.293644
-0.098549 -0.057471 0.290394
-0.095776 -0.056639 0.286142
-0.099151 -0.059470 0.300394
-0.097886 -0.059560 0.300792
-0.096615 -0.059650 0.301184
-0.094954 -0.059497 0.300351
-0.094516 -0.060118 0.303417
-0.093696 -0.060511 0.305328
-0.091778 -0.060196 0.303669
-0.090548 -0.060330 0.304266
-0.089189 -0.060381 0.304443
-0.087801 -0.060413 0.304524
-0.085995 -0.060155 0.303139
-0.084625 -0.060198 0.303267
-0.083094 -0.060126 0.302814
-0.081664 -0.060125 0.302720
-0.080444 -0.060283 0.303418
-0.079066 -0.060325 0.303536
-0.077510 -0.060231 0.302968
-0.076533 -0.060592 0.304683
-0.075195 -0.060674 0.304999
-0.069922 -0.057524 0.289069
-0.068997 -0.057896 0.290837
-0.067667 -0.057936 0.290943
-0.066304 -0.057950 0.290910
-0.065057 -0.058068 0.291403
-0.063687 -0.058078 0.291354
-0.062266 -0.058042 0.291073
-0.060914 -0.058069 0.291109
-0.059569 -0.058105 0.291189
-0.058129 -0.058048 0.290800
-0.056765 -0.058065 0.290787
-0.055401 -0.058085 0.290785
-0.054028 -0.058094 0.290732
-0.052666 -0.058118 0.290749
-0.051254 -0.058085 0.290488
-0.049912 -0.058132 0.290626
-0.048425 -0.058009 0.289913
-0.047073 -0.058045 0.289994
-0.045712 -0.058071 0.290031
-0.044277 -0.058003 0.289596
-0.042878 -0.057979 0.289385
-0.040892 -0.057132 0.285068
-0.040499 -0.058530 0.291953
-0.039140 -0.058583 0.292127
-0.037389 -0.058031 0.289289
-0.036165 -0.058285 0.290471
-0.031543 -0.052865 0.263384
-0.030126 -0.052589 0.261936
-0.028703 -0.052280 0.260326
-0.027596 -0.052543 0.261569
-0.026328 -0.052510 0.261339
-0.025021 -0.052394 0.260693
-0.023818 -0.052492 0.261117
-0.022622 -0.052620 0.261696
-0.021463 -0.052851 0.262787
-0.020248 -0.052968 0.263309
-0.019286 -0.053806 0.267420
-0.018120 -0.054152 0.269091
-0.016916 -0.054432 0.270432
-0.015621 -0.054437 0.270406
-0.014379 -0.054650 0.271421
-0.013089 -0.054701 0.271629
-0.011788 -0.054713 0.271653
-0.010486 -0.054725 0.271676
-0.009139 -0.054473 0.270390
-0.007837 -0.054450 0.270244
-0.006554 -0.054571 0.270817
-0.005253 -0.054575 0.270809
-0.003962 -0.054705 0.271433
-0.002657 -0.054698 0.271381
-0.001349 -0.054557 0.270666
-0.000048 -0.054518 0.270458
0.001238 -0.053944 0.267601
0.002541 -0.054285 0.269284
0.003842 -0.054384 0.269770
0.005049 -0.053435 0.265060
0.006287 -0.053125 0.263524
0.007523 -0.052903 0.262430
0.008809 -0.053053 0.263181
0.010005 -0.052684 0.261363
0.011250 -0.052633 0.261120
0.012541 -0.052780 0.261864
0.013793 -0.052753 0.261749
0.015103 -0.052934 0.262666
0.016386 -0.052999 0.263014
0.017644 -0.052981 0.262953
0.018981 -0.053184 0.263989
0.020303 -0.053324 0.264716
0.021742 -0.053735 0.266791
0.023030 -0.053748 0.266890
0.024162 -0.053416 0.265282
0.025591 -0.053741 0.266935
0.026816 -0.053626 0.266406
0.027893 -0.053238 0.264526
0.029144 -0.053202 0.264398
0.030377 -0.053138 0.264126
0.031664 -0.053169 0.264335
0.032926 -0.053159 0.264335
0.034176 -0.053128 0.264238
0.035445 -0.053130 0.264305
0.036716 -0.053134 0.264383
0.038014 -0.053175 0.264647
0.039345 -0.053259 0.265124
0.040635 -0.053283 0.265309
0.041858 -0.053221 0.265063
0.043040 -0.053112 0.264583
0.043224 -0.051812 0.258174
0.044180 -0.051484 0.256606
0.045387 -0.051459 0.256544
0.046655 -0.051502 0.256824
0.047785 -0.051394 0.256357
0.048940 -0.051319 0.256046
0.050194 -0.051348 0.256262
0.051597 -0.051525 0.257209
0.052654 -0.051355 0.256433
0.053844 -0.051320 0.256327
0.055892 -0.052087 0.260225
0.058911 -0.053705 0.268377
0.060657 -0.054118 0.270516
0.061556 -0.053774 0.268867
0.063227 -0.054105 0.270590
0.064643 -0.054209 0.271178
0.065974 -0.054238 0.271397
0.067335 -0.054291 0.271728
0.068425 -0.054127 0.270974
0.069377 -0.053862 0.269715
0.070188 -0.053500 0.267962
0.071061 -0.053196 0.266503
0.072139 -0.053054 0.265852
0.073278 -0.052961 0.265444
0.074630 -0.053023 0.265809
0.075561 -0.052789 0.264688
0.076997 -0.052908 0.265340
0.078582 -0.053125 0.266477
0.079996 -0.053221 0.267008
0.081449 -0.053340 0.267645
0.083231 -0.053667 0.269329
0.084228 -0.053486 0.268460
0.085779 -0.053656 0.269351
0.092351 -0.056916 0.285752
0.093576 -0.056834 0.285369
0.096432 -0.057730 0.289899
0.098672 -0.058238 0.292474
0.100255 -0.058350 0.293053
0.101529 -0.058280 0.292718
0.102844 -0.058236 0.292508
0.104315 -0.058280 0.292736
0.105646 -0.058246 0.292564
0.106972 -0.058210 0.292379
0.108497 -0.058281 0.292729
0.109848 -0.058259 0.292602
0.111195 -0.058235 0.292460
0.112523 -0.058202 0.292266
0.113884 -0.058186 0.292155
0.115248 -0.058172 0.292046
0.116410 -0.058058 0.291426
0.117891 -0.058104 0.291602
0.119610 -0.058264 0.292348
0.120739 -0.058137 0.291641
0.121997 -0.058074 0.291250
0.123722 -0.058233 0.291963
0.125124 -0.058237 0.291892
0.126778 -0.058357 0.292394
0.128220 -0.058378 0.292393
0.129401 -0.058281 0.291789
0.131068 -0.058403 0.292271
0.132500 -0.058418 0.292211
0.133799 -0.058375 0.291849
0.135269 -0.058407 0.291852
0.136920 -0.058515 0.292226
0.138581 -0.058626 0.292599
0.139710 -0.058511 0.291839
0.141386 -0.058626 0.292206
0.143066 -0.058740 0.292561
0.144691 -0.058829 0.292778
0.146118 -0.058837 0.292577
0.147694 -0.058903 0.292656
0.149567 -0.059087 0.293299
0.150704 -0.058978 0.292478
0.152595 -0.059164 0.293102
0.154079 -0.059190 0.292918
-0.156234 -0.057255 0.292786
-0.154988 -0.057308 0.293345
-0.153397 -0.057233 0.293234
-0.152042 -0.057246 0.293558
-0.150228 -0.057084 0.292974
-0.148828 -0.057078 0.293177
-0.147302 -0.057024 0.293116
-0.145772 -0.056967 0.293030
-0.144497 -0.057009 0.293443
-0.143187 -0.057039 0.293779
-0.141612 -0.056963 0.293558
-0.139915 -0.056835 0.293060
-0.138422 -0.056789 0.292971
-0.136878 -0.056721 0.292759
-0.135252 -0.056616 0.292351
-0.134065 -0.056696 0.292882
-0.140739 -0.060767 0.314140
-0.140506 -0.061310 0.317044
-0.139217 -0.061399 0.317595
-0.127486 -0.056834 0.294058
-0.124350 -0.056043 0.290034
-0.123152 -0.056118 0.290482
-0.121673 -0.056065 0.290260
-0.120606 -0.056203 0.291017
-0.119251 -0.056208 0.291082
-0.117768 -0.056153 0.290825
-0.116247 -0.056078 0.290462
-0.115125 -0.056196 0.291089
-0.113689 -0.056162 0.290923
-0.112261 -0.056131 0.290768
-0.110898 -0.056132 0.290773
-0.109619 -0.056176 0.290996
-0.108354 -0.056229 0.291257
-0.106987 -0.056229 0.291241
-0.105759 -0.056304 0.291606
-0.104489 -0.056358 0.291859
-0.103263 -0.056437 0.292238
-0.102038 -0.056520 0.292628
-0.100739 -0.056562 0.292808
-0.098039 -0.055809 0.288863
-0.095707 -0.055247 0.285907
-0.099896 -0.058487 0.302618
-0.098622 -0.058576 0.303018
-0.097494 -0.058755 0.303883
-0.096208 -0.058844 0.304276
-0.094634 -0.058756 0.303752
-0.093277 -0.058803 0.303918
-0.092233 -0.059050 0.305122
-0.090669 -0.058969 0.304620
-0.089094 -0.058877 0.304065
-0.087180 -0.058555 0.302316
-0.086085 -0.058781 0.303395
-0.084326 -0.058554 0.302133
-0.082620 -0.058356 0.301022
-0.081602 -0.058646 0.302425
-0.080462 -0.058857 0.303419
-0.079044 -0.058868 0.303380
-0.077564 -0.058834 0.303103
-0.076404 -0.059045 0.304092
-0.075069 -0.059127 0.304409
-0.070101 -0.056294 0.289728
-0.069051 -0.056558 0.290987
-0.067746 -0.056619 0.291201
-0.066335 -0.056593 0.290962
-0.065044 -0.056669 0.291254
-0.063680 -0.056685 0.291232
-0.062265 -0.056655 0.290973
-0.060892 -0.056662 0.290910
-0.059538 -0.056688 0.290937
-0.058125 -0.056658 0.290681
-0.056789 -0.056703 0.290812
-0.055409 -0.056705 0.290719
-0.054104 -0.056787 0.291038
-0.052749 -0.056819 0.291100
-0.051229 -0.056670 0.290236
-0.049999 -0.056843 0.291021
-0.048662 -0.056900 0.291213
-0.047127 -0.056723 0.290212
-0.045719 -0.056692 0.289958
-0.044341 -0.056698 0.289894
-0.042835 -0.056536 0.288970
-0.041267 -0.056279 0.287562
-0.040527 -0.057171 0.292031
-0.039168 -0.057223 0.292206
-0.037370 -0.056615 0.289011
-0.036247 -0.057020 0.290992
-0.031627 -0.051739 0.263967
-0.030118 -0.051318 0.261744
-0.028713 -0.051046 0.260286
-0.027584 -0.051262 0.261319
-0.026326 -0.051250 0.261189
-0.025030 -0.051157 0.260646
-0.023816 -0.051231 0.260961
-0.022598 -0.051305 0.261280
-0.021439 -0.051530 0.262361
-0.020270 -0.051756 0.263458
-0.019339 -0.052661 0.268008
-0.018184 -0.053042 0.269892
-0.016979 -0.053322 0.271270
-0.015703 -0.053410 0.271666
-0.014482 -0.053720 0.273199
-0.013176 -0.053741 0.273261
-0.011806 -0.053481 0.271897
-0.010503 -0.053493 0.271920
-0.009154 -0.053246 0.270634
-0.007850 -0.053224 0.270488
-0.006565 -0.053342 0.271061
-0.005263 -0.053346 0.271054
-0.003969 -0.053473 0.271678
-0.002663 -0.053467 0.271626
-0.001359 -0.053557 0.272071
-0.000051 -0.053561 0.272074
0.001248 -0.053151 0.269985
0.002541 -0.053049 0.269457
0.003832 -0.052979 0.269096
0.005050 -0.052191 0.265092
0.006320 -0.052148 0.264878
0.007552 -0.051856 0.263398
0.008803 -0.051762 0.262931
0.010030 -0.051568 0.261956
0.011273 -0.051492 0.261580
0.012558 -0.051603 0.262161
0.013830 -0.051641 0.262375
0.015133 -0.051782 0.263113
0.016413 -0.051827 0.263362
0.017729 -0.051972 0.264128
0.019007 -0.051994 0.264269
0.020309 -0.052073 0.264705
0.021699 -0.052357 0.266182
0.023013 -0.052434 0.266610
0.024400 -0.052660 0.267803
0.025652 -0.052589 0.267480
0.026952 -0.052617 0.267669
0.028178 -0.052503 0.267138
0.029307 -0.052229 0.265792
0.030593 -0.052244 0.265919
0.031879 -0.052259 0.266045
0.033196 -0.052319 0.266409
0.034388 -0.052187 0.265795
0.035609 -0.052106 0.265437
0.036883 -0.052107 0.265501
0.038118 -0.052052 0.265286
0.039449 -0.052130 0.265743
0.040732 -0.052140 0.265859
0.041818 -0.051905 0.264727
0.043001 -0.051800 0.264259
0.043639 -0.051064 0.260573
0.044411 -0.050521 0.257867
0.045715 -0.050597 0.258321
0.046950 -0.050595 0.258379
0.048148 -0.050552 0.258232
0.049404 -0.050572 0.258401
0.050805 -0.050736 0.259309
0.052239 -0.050924 0.260342
0.053592 -0.051026 0.260934
0.055253 -0.051409 0.262966
0.057188 -0.052026 0.266191
0.058810 -0.052336 0.267852
0.060198 -0.052430 0.268407
0.061847 -0.052742 0.270075
0.063289 -0.052868 0.270794
0.064626 -0.052904 0.271047
0.065831 -0.052832 0.270751
0.067134 -0.052840 0.270864
0.068335 -0.052769 0.270567
0.069301 -0.052523 0.269371
0.070148 -0.052196 0.267760
0.071015 -0.051896 0.266284
0.072219 -0.051849 0.266105
0.073194 -0.051641 0.265099
0.074435 -0.051625 0.265076
0.075629 -0.051578 0.264888
0.076969 -0.051630 0.265209
0.078425 -0.051756 0.265912
0.079911 -0.051898 0.266690
0.081660 -0.052204 0.268311
0.083195 -0.052366 0.269188
0.083973 -0.052054 0.267623
0.085841 -0.052417 0.269526
0.087872 -0.052866 0.271873
0.096501 -0.057214 0.294271
0.097758 -0.057131 0.293872
0.098938 -0.057004 0.293248
0.100162 -0.056907 0.292768
0.101545 -0.056901 0.292757
0.102872 -0.056864 0.292583
0.104223 -0.056842 0.292476
0.105459 -0.056758 0.292047
0.107063 -0.056871 0.292630
0.108469 -0.056878 0.292659
0.109664 -0.056776 0.292121
0.111035 -0.056766 0.292051
0.112277 -0.056691 0.291642
0.113505 -0.056611 0.291199
0.114902 -0.056616 0.291191
0.116161 -0.056554 0.290826
0.117481 -0.056522 0.290614
0.119393 -0.056773 0.291849
0.120764 -0.056764 0.291736
0.122146 -0.056760 0.291643
0.123441 -0.056716 0.291337
0.124867 -0.056733 0.291335
0.126195 -0.056705 0.291097
0.127659 -0.056738 0.291162
0.128810 -0.056633 0.290510
0.130173 -0.056622 0.290332
0.131766 -0.056711 0.290653
0.133585 -0.056894 0.291447
0.135028 -0.056914 0.291401
0.136631 -0.057001 0.291681
0.138351 -0.057134 0.292190
0.139784 -0.057148 0.292073
0.141233 -0.057168 0.291976
0.142776 -0.057224 0.292057
0.144359 -0.057296 0.292200
0.145927 -0.057360 0.292292
0.147330 -0.057359 0.292037
0.149036 -0.057475 0.292364
0.150520 -0.057503 0.292232
0.152170 -0.057594 0.292401
0.153639 -0.057615 0.292202
-0.156260 -0.055865 0.292941
-0.154847 -0.055857 0.293179
-0.153337 -0.055813 0.293217
-0.152085 -0.055863 0.293734
-0.150521 -0.055798 0.293636
-0.148821 -0.055681 0.293248
-0.147223 -0.055601 0.293041
-0.145781 -0.055578 0.293124
-0.144531 -0.055630 0.293587
-0.143031 -0.055584 0.293527
-0.141214 -0.055414 0.292797
-0.139876 -0.055431 0.293040
-0.138377 -0.055383 0.292935
-0.136929 -0.055355 0.292923
-0.135264 -0.055238 0.292429
-0.132803 -0.054790 0.290172
-0.142119 -0.059242 0.313865
-0.140846 -0.059327 0.314422
-0.141124 -0.060075 0.318479
-0.139831 -0.060162 0.319032
-0.127929 -0.055638 0.295113
-0.124330 -0.054665 0.290015
-0.123136 -0.054739 0.290467
-0.121824 -0.054763 0.290640
-0.120585 -0.054820 0.290985
-0.119237 -0.054828 0.291063
-0.117789 -0.054790 0.290890
-0.116375 -0.054767 0.290789
-0.114948 -0.054738 0.290647
-0.113671 -0.054780 0.290880
-0.112181 -0.054720 0.290560
-0.110615 -0.054620 0.290028
-0.109555 -0.054771 0.290821
-0.108182 -0.054768 0.290787
-0.106880 -0.054800 0.290940
-0.105747 -0.054922 0.291561
-0.104430 -0.054949 0.291676
-0.103217 -0.055033 0.292088
-0.101968 -0.055100 0.292405
-0.099402 -0.054447 0.288896
-0.097899 -0.054367 0.288423
-0.095915 -0.054013 0.286497
-0.100428 -0.057361 0.304195
-0.099148 -0.057449 0.304598
-0.097429 -0.057281 0.303641
-0.096530 -0.057597 0.305249
-0.095289 -0.057716 0.305808
-0.093595 -0.057560 0.304904
-0.092363 -0.057688 0.305502
-0.090827 -0.057627 0.305100
-0.089260 -0.057544 0.304574
-0.087630 -0.057417 0.303817
-0.085881 -0.057207 0.302615
-0.084400 -0.057171 0.302334
-0.082746 -0.057015 0.301415
-0.081078 -0.056844 0.300413
-0.079986 -0.057078 0.301553
-0.078702 -0.057180 0.301996
-0.077220 -0.057140 0.301683
-0.075873 -0.057201 0.301900
-0.074548 -0.057280 0.302215
-0.069846 -0.054718 0.288595
-0.068969 -0.055109 0.290558
-0.067705 -0.055201 0.290940
-0.066267 -0.055152 0.290579
-0.065027 -0.055269 0.291090
-0.063717 -0.055330 0.291311
-0.062226 -0.055233 0.290695
-0.060904 -0.055286 0.290870
-0.059559 -0.055320 0.290943
-0.058128 -0.055274 0.290595
-0.056739 -0.055267 0.290452
-0.055360 -0.055269 0.290358
-0.053976 -0.055266 0.290241
-0.052521 -0.055188 0.289731
-0.051223 -0.055276 0.290089
-0.049884 -0.055324 0.290239
-0.048421 -0.055232 0.289659
-0.047098 -0.055300 0.289912
-0.045811 -0.055415 0.290419
-0.044364 -0.055339 0.289921
-0.042929 -0.055273 0.289481
-0.040619 -0.054038 0.282920
-0.040322 -0.055489 0.290427
-0.038970 -0.055540 0.290602
-0.037331 -0.055170 0.288578
-0.036152 -0.055478 0.290099
-0.031646 -0.050501 0.263996
-0.030190 -0.050181 0.262248
-0.028727 -0.049820 0.260290
-0.027532 -0.049913 0.260703
-0.026271 -0.049889 0.260513
-0.025008 -0.049859 0.260287
-0.023784 -0.049907 0.260475
-0.022521 -0.049877 0.260256
-0.021353 -0.050064 0.261172
-0.020247 -0.050429 0.263016
-0.019411 -0.051558 0.268849
-0.018249 -0.051924 0.270701
-0.016896 -0.051759 0.269790
-0.015725 -0.052172 0.271893
-0.014504 -0.052477 0.273439
-0.012232 -0.048663 0.253521
-0.011062 -0.048878 0.254604
-0.009857 -0.048967 0.255034
-0.008627 -0.048940 0.254861
-0.007439 -0.049187 0.256115
-0.006228 -0.049348 0.256928
-0.005021 -0.049633 0.258388
-0.003776 -0.049601 0.258201
-0.002536 -0.049623 0.258293
-0.001297 -0.049785 0.259125
-0.000053 -0.052322 0.272315
0.001238 -0.051534 0.268203
0.002546 -0.051894 0.270069
0.003834 -0.051747 0.269298
0.005067 -0.051111 0.265991
0.006340 -0.051053 0.265689
0.007561 -0.050666 0.263681
0.008827 -0.050653 0.263618
0.010021 -0.050277 0.261675
0.011276 -0.050255 0.261574
0.012557 -0.050344 0.262055
0.013826 -0.050374 0.262226
0.015124 -0.050495 0.262880
0.016381 -0.050470 0.262777
0.017721 -0.050687 0.263932
0.019026 -0.050780 0.264447
0.020341 -0.050887 0.265039
0.021737 -0.051172 0.266557
0.023017 -0.051166 0.266563
0.024413 -0.051407 0.267861
0.025720 -0.051445 0.268102
0.027009 -0.051444 0.268143
0.028295 -0.051438 0.268162
0.029554 -0.051386 0.267940
0.030814 -0.051339 0.267746
0.032117 -0.051366 0.267942
0.033393 -0.051348 0.267906
0.034677 -0.051343 0.267938
0.035905 -0.051260 0.267563
0.037061 -0.051081 0.266693
0.038363 -0.051110 0.266906
0.039545 -0.050982 0.266302
0.040667 -0.050787 0.265348
0.041802 -0.050620 0.264541
0.042936 -0.050461 0.263781
0.043680 -0.049866 0.260737
0.044488 -0.049375 0.258237
0.045667 -0.049312 0.257977
0.046879 -0.049286 0.257911
0.047947 -0.049114 0.257082
0.049179 -0.049115 0.257157
0.050420 -0.049123 0.257272
0.051848 -0.049310 0.258324
0.053218 -0.049434 0.259046
0.054318 -0.049307 0.258453
0.056315 -0.049982 0.262065
0.058805 -0.051056 0.267767
0.060590 -0.051484 0.270090
0.061985 -0.051570 0.270616
0.063423 -0.051688 0.271310
0.064720 -0.051689 0.271387
0.065960 -0.051645 0.271227
0.067158 -0.051569 0.270903
0.068362 -0.051502 0.270620
0.069410 -0.051321 0.269740
0.070294 -0.051029 0.268271
0.071212 -0.050770 0.266978
0.072300 -0.050640 0.266357
0.073277 -0.050438 0.265358
0.074239 -0.050233 0.264339
0.075510 -0.050240 0.264434
0.076805 -0.050262 0.264607
0.077979 -0.050206 0.264366
0.079418 -0.050320 0.265015
0.081279 -0.050693 0.267030
0.082950 -0.050938 0.268366
0.083505 -0.050501 0.266107
0.085296 -0.050813 0.267791
0.087471 -0.051341 0.270611
0.097034 -0.056127 0.295877
0.098298 -0.056044 0.295475
0.098616 -0.055433 0.292281
0.100050 -0.055456 0.292429
0.101495 -0.055485 0.292603
0.103103 -0.055601 0.293232
0.103889 -0.055277 0.291534
0.105696 -0.055497 0.292701
0.107232 -0.055571 0.293094
0.108639 -0.055577 0.293122
0.109850 -0.055485 0.292623
0.111333 -0.055529 0.292843
0.112554 -0.055444 0.292373
0.114255 -0.055594 0.293139
0.115711 -0.055624 0.293259
0.116445 -0.055309 0.291558
0.118202 -0.055482 0.292424
0.119588 -0.055478 0.292351
0.120792 -0.055392 0.291835
0.122212 -0.055405 0.291835
0.123703 -0.055450 0.291995
0.124861 -0.055346 0.291361
0.126438 -0.055428 0.291700
0.127773 -0.055403 0.291469
0.129456 -0.055528 0.292018
0.130692 -0.055461 0.291542
0.132267 -0.055537 0.291815
0.133726 -0.055564 0.291817
0.135119 -0.055563 0.291662
0.136793 -0.055676 0.292097
0.138179 -0.055671 0.291900
0.139515 -0.055646 0.291587
0.141149 -0.055739 0.291882
0.142787 -0.055832 0.292164
0.144263 -0.055860 0.292093
0.145779 -0.055904 0.292089
0.147236 -0.055924 0.291948
0.148764 -0.055970 0.291931
0.150185 -0.055975 0.291688
0.151955 -0.056109 0.292099
0.153719 -0.056239 0.292469
-0.156112 -0.054415 0.292765
-0.154595 -0.054369 0.292799
-0.153097 -0.054330 0.292851
-0.151734 -0.054338 0.293146
-0.150110 -0.054252 0.292919
-0.149023 -0.054360 0.293727
-0.147034 -0.054139 0.292742
-0.145554 -0.054102 0.292742
-0.143954 -0.054020 0.292484
-0.142639 -0.054044 0.292789
-0.141065 -0.053969 0.292551
-0.139452 -0.053878 0.292210
-0.138153 -0.053908 0.292514
-0.136798 -0.053917 0.292693
-0.135397 -0.053907 0.292764
-0.132125 -0.053145 0.288734
-0.142786 -0.058029 0.315384
-0.141509 -0.058113 0.315944
-0.141050 -0.058539 0.318351
-0.139760 -0.058625 0.318904
-0.127615 -0.054111 0.294417
-0.124417 -0.053333 0.290244
-0.123089 -0.053348 0.290378
-0.121830 -0.053394 0.290674
-0.120740 -0.053515 0.291374
-0.119347 -0.053504 0.291345
-0.117805 -0.053425 0.290940
-0.116038 -0.053241 0.289956
-0.114845 -0.053319 0.290391
-0.113523 -0.053338 0.290503
-0.112087 -0.053304 0.290317
-0.110603 -0.053246 0.289992
-0.109401 -0.053324 0.290406
-0.108174 -0.053391 0.290755
-0.106831 -0.053402 0.290795
-0.105656 -0.053499 0.291295
-0.104419 -0.053567 0.291629
-0.103140 -0.053614 0.291852
-0.101981 -0.053726 0.292419
-0.100724 -0.053789 0.292713
-0.098143 -0.053137 0.289115
-0.095179 -0.052256 0.284269
-0.099604 -0.055465 0.301665
-0.098336 -0.055550 0.302065
-0.097764 -0.056037 0.304647
-0.096585 -0.056186 0.305381
-0.094609 -0.055868 0.303580
-0.093116 -0.055830 0.303296
-0.091827 -0.055916 0.303679
-0.090274 -0.055841 0.303188
-0.088714 -0.055759 0.302658
-0.086935 -0.055535 0.301351
-0.085416 -0.055471 0.300915
-0.083953 -0.055443 0.300670
-0.082303 -0.055289 0.299737
-0.080800 -0.055229 0.299319
-0.079511 -0.055316 0.299690
-0.078346 -0.055495 0.300558
-0.076790 -0.055398 0.299930
-0.075597 -0.055564 0.300726
-0.074277 -0.055642 0.301040
-0.069813 -0.053320 0.288379
-0.068906 -0.053678 0.290210
-0.067697 -0.053810 0.290822
-0.066254 -0.053758 0.290433
-0.064847 -0.053733 0.290195
-0.063608 -0.053850 0.290719
-0.062135 -0.053770 0.290178
-0.060823 -0.053828 0.290388
-0.059445 -0.053830 0.290289
-0.058107 -0.053869 0.290394
-0.056758 -0.053898 0.290446
-0.055371 -0.053893 0.290314
-0.054052 -0.053955 0.290544
-0.052686 -0.053974 0.290537
-0.051298 -0.053968 0.290403
-0.049947 -0.054004 0.290495
-0.048567 -0.054009 0.290418
-0.047171 -0.053997 0.290250
-0.045741 -0.053943 0.289862
-0.044348 -0.053931 0.289701
-0.042916 -0.053869 0.289271
-0.041252 -0.053503 0.287206
-0.040228 -0.053970 0.289621
-0.038879 -0.054020 0.289796
-0.037307 -0.053751 0.288265
-0.036198 -0.054154 0.290337
-0.031810 -0.049489 0.265248
-0.030223 -0.048974 0.262409
-0.028771 -0.048643 0.260562
-0.027573 -0.048732 0.260966
-0.026350 -0.048783 0.261170
-0.025041 -0.048671 0.260505
-0.023785 -0.048656 0.260359
-0.022580 -0.048749 0.260794
-0.021388 -0.048885 0.261457
-0.020265 -0.049205 0.263112
-0.019318 -0.050021 0.267418
-0.018172 -0.050404 0.269409
-0.016896 -0.050457 0.269642
-0.015728 -0.050867 0.271785
-0.014428 -0.050889 0.271853
-0.012351 -0.047900 0.255842
-0.011149 -0.048018 0.256435
-0.009924 -0.048055 0.256599
-0.008683 -0.048016 0.256356
-0.007485 -0.048237 0.257504
-0.006241 -0.048196 0.257261
-0.005010 -0.048257 0.257562
-0.003775 -0.048318 0.257866
-0.002537 -0.048363 0.258084
-0.001297 -0.048439 0.258477
-0.000053 -0.048802 0.260402
0.001238 -0.050359 0.268697
0.002545 -0.050626 0.270114
0.003840 -0.050551 0.269710
0.005073 -0.049914 0.266311
0.006367 -0.050003 0.266787
0.007589 -0.049593 0.264607
0.008866 -0.049613 0.264720
0.010074 -0.049285 0.262981
0.011333 -0.049255 0.262836
0.012605 -0.049281 0.262992
0.013856 -0.049228 0.262727
0.015148 -0.049315 0.263216
0.016397 -0.049261 0.262953
0.017714 -0.049403 0.263741
0.019102 -0.049712 0.265420
0.020510 -0.050030 0.267151
0.021809 -0.050061 0.267352
0.023176 -0.050235 0.268322
0.024486 -0.050273 0.268566
0.025775 -0.050267 0.268578
0.027177 -0.050471 0.269720
0.028328 -0.050212 0.268384
0.029466 -0.049953 0.267047
0.030767 -0.049981 0.267251
0.032085 -0.050033 0.267587
0.033263 -0.049870 0.266774
0.034517 -0.049830 0.266616
0.035865 -0.049922 0.267172
0.036996 -0.049718 0.266140
0.038185 -0.049601 0.265580
0.039639 -0.049826 0.266849
0.040678 -0.049531 0.265337
0.041553 -0.049060 0.262883
0.042783 -0.049025 0.262761
0.043762 -0.048712 0.261152
0.044615 -0.048279 0.258901
0.045631 -0.048041 0.257695
0.046797 -0.047970 0.257386
0.047914 -0.047853 0.256833
0.049185 -0.047892 0.257116
0.050495 -0.047967 0.257590
0.051893 -0.048119 0.258479
0.053306 -0.048277 0.259405
0.055133 -0.048795 0.262263
0.056830 -0.049178 0.264395
0.058834 -0.049803 0.267832
0.060597 -0.050202 0.270057
0.062096 -0.050370 0.271037
0.063450 -0.050417 0.271364
0.064818 -0.050472 0.271738
0.066013 -0.050394 0.271389
0.067198 -0.050310 0.271011
0.068339 -0.050197 0.270476
0.069457 -0.050072 0.269872
0.070007 -0.049549 0.267127
0.070968 -0.049331 0.266017
0.072127 -0.049255 0.265675
0.072894 -0.048919 0.263927
0.073815 -0.048697 0.262787
0.075221 -0.048796 0.263384
0.076083 -0.048545 0.262084
0.077032 -0.048356 0.261122
0.078641 -0.048581 0.262390
0.080168 -0.048750 0.263351
0.081697 -0.048914 0.264285
0.083017 -0.048950 0.264527
0.084269 -0.048945 0.264542
0.086258 -0.049362 0.266838
0.096615 -0.054487 0.294578
0.097872 -0.054406 0.294178
0.098046 -0.053733 0.290574
0.100142 -0.054119 0.292685
0.101656 -0.054183 0.293058
0.102667 -0.053981 0.291984
0.104243 -0.054078 0.292520
0.105625 -0.054073 0.292503
0.106975 -0.054052 0.292392
0.108269 -0.054003 0.292128
0.109578 -0.053963 0.291904
0.111013 -0.053985 0.292010
0.112097 -0.053838 0.291197
0.113436 -0.053815 0.291053
0.115205 -0.053995 0.291992
0.116379 -0.053895 0.291414
0.117737 -0.053881 0.291297
0.119482 -0.054043 0.292120
0.120774 -0.053998 0.291819
0.122138 -0.053986 0.291690
0.123516 -0.053981 0.291588
0.124835 -0.053950 0.291340
0.126204 -0.053941 0.291202
0.127696 -0.053985 0.291339
0.128913 -0.053912 0.290840
0.130435 -0.053967 0.291022
0.131866 -0.053984 0.290986
0.133270 -0.053989 0.290879
0.135024 -0.054135 0.291518
0.136887 -0.054321 0.292363
0.138509 -0.054408 0.292667
0.139682 -0.054319 0.292008
0.141197 -0.054363 0.292058
0.142908 -0.054482 0.292491
0.144531 -0.054565 0.292722
0.146004 -0.054589 0.292628
0.147468 -0.054611 0.292502
0.148943 -0.054636 0.292380
0.150381 -0.054646 0.292169
0.151863 -0.054673 0.292029
0.153422 -0.054726 0.292016
-0.155979 -0.052972 0.292613
-0.154758 -0.053028 0.293201
-0.153183 -0.052964 0.293105
-0.151764 -0.052952 0.293289
-0.150202 -0.052891 0.293180
-0.148725 -0.052858 0.293219
-0.147046 -0.052752 0.292839
-0.145459 -0.052678 0.292621
-0.143940 -0.052627 0.292521
-0.142553 -0.052624 0.292675
-0.140742 -0.052463 0.291940
-0.139370 -0.052463 0.292093
-0.138282 -0.052572 0.292840
-0.136677 -0.052485 0.292483
-0.135278 -0.052476 0.292552
-0.134095 -0.052551 0.293082
-0.142017 -0.056824 0.317118
-0.140888 -0.056969 0.318021
-0.139600 -0.057054 0.318573
-0.127248 -0.052569 0.293596
-0.124327 -0.051925 0.290056
-0.123166 -0.052010 0.290581
-0.121854 -0.052032 0.290749
-0.120659 -0.052105 0.291194
-0.119379 -0.052143 0.291435
-0.117685 -0.051999 0.290651
-0.116256 -0.051970 0.290506
-0.114866 -0.051958 0.290448
-0.113439 -0.051929 0.290289
-0.112178 -0.051976 0.290549
-0.110829 -0.051983 0.290580
-0.109523 -0.052011 0.290723
-0.108212 -0.052037 0.290847
-0.106901 -0.052064 0.290972
-0.105540 -0.052067 0.290958
-0.104289 -0.052125 0.291248
-0.103013 -0.052172 0.291471
-0.101745 -0.052224 0.291718
-0.100018 -0.052039 0.290637
-0.098654 -0.052041 0.290593
-0.096067 -0.051388 0.286892
-0.099671 -0.054076 0.301834
-0.098403 -0.054159 0.302235
-0.097056 -0.054201 0.302400
-0.096078 -0.054454 0.303737
-0.094685 -0.054476 0.303778
-0.093200 -0.054445 0.303524
-0.091755 -0.054436 0.303391
-0.090437 -0.054504 0.303683
-0.088939 -0.054463 0.303369
-0.087131 -0.054229 0.301972
-0.085512 -0.054106 0.301195
-0.084061 -0.054088 0.300996
-0.082379 -0.053917 0.299949
-0.080857 -0.053847 0.299462
-0.079634 -0.053978 0.300087
-0.078366 -0.054082 0.300561
-0.076931 -0.054073 0.300407
-0.075451 -0.054030 0.300066
-0.074134 -0.054106 0.300380
-0.069772 -0.051919 0.288132
-0.068950 -0.052331 0.290315
-0.067702 -0.052430 0.290758
-0.066259 -0.052380 0.290372
-0.064976 -0.052456 0.290685
-0.063693 -0.052536 0.291019
-0.062276 -0.052506 0.290748
-0.060859 -0.052475 0.290469
-0.059549 -0.052537 0.290703
-0.058131 -0.052505 0.290415
-0.056749 -0.052504 0.290303
-0.055385 -0.052520 0.290286
-0.054025 -0.052541 0.290294
-0.052613 -0.052512 0.290024
-0.051275 -0.052557 0.290170
-0.049894 -0.052559 0.290074
-0.048524 -0.052573 0.290047
-0.047122 -0.052552 0.289833
-0.045752 -0.052567 0.289812
-0.044393 -0.052596 0.289871
-0.042949 -0.052523 0.289371
-0.041269 -0.052148 0.287209
-0.040120 -0.052440 0.288724
-0.038776 -0.052489 0.288899
-0.037324 -0.052391 0.288268
-0.036290 -0.052894 0.290942
-0.031698 -0.048044 0.264187
-0.030249 -0.047754 0.262515
-0.028806 -0.047448 0.260757
-0.027648 -0.047606 0.261551
-0.026341 -0.047510 0.260953
-0.025071 -0.047474 0.260687
-0.023805 -0.047442 0.260447
-0.022527 -0.047383 0.260059
-0.021342 -0.047522 0.260759
-0.020272 -0.047951 0.263055
-0.019432 -0.049018 0.268851
-0.018203 -0.049187 0.269720
-0.016894 -0.049148 0.269454
-0.015784 -0.049730 0.272596
-0.014130 -0.048549 0.266072
-0.012375 -0.046753 0.256189
-0.011142 -0.046746 0.256113
-0.009929 -0.046834 0.256560
-0.008712 -0.046929 0.257046
-0.007522 -0.047221 0.258613
-0.006287 -0.047294 0.258984
-0.005046 -0.047340 0.259212
-0.003801 -0.047372 0.259366
-0.002551 -0.047349 0.259218
-0.001306 -0.047444 0.259724
-0.000056 -0.047705 0.261138
0.001233 -0.048927 0.267817
0.002532 -0.049110 0.268811
0.003830 -0.049160 0.269081
0.005093 -0.048838 0.267319
0.006355 -0.048644 0.266258
0.007644 -0.048688 0.266507
0.008906 -0.048569 0.265862
0.010119 -0.048246 0.264108
0.011388 -0.048233 0.264050
0.012633 -0.048128 0.263494
0.013920 -0.048192 0.263862
0.015178 -0.048150 0.263658
0.016413 -0.048049 0.263128
0.017726 -0.048172 0.263831
0.019123 -0.048494 0.265625
0.020555 -0.048857 0.267652
0.021897 -0.048976 0.268339
0.023241 -0.049086 0.268985
0.024574 -0.049162 0.269446
0.025980 -0.049369 0.270624
0.027340 -0.049474 0.271248
0.028626 -0.049442 0.271121
0.029500 -0.048730 0.267269
0.030803 -0.048757 0.267472
0.032123 -0.048808 0.267809
0.033302 -0.048649 0.266995
0.034557 -0.048609 0.266836
0.035906 -0.048699 0.267392
0.037330 -0.048881 0.268459
0.038586 -0.048838 0.268289
0.039728 -0.048658 0.267365
0.040695 -0.048282 0.265369
0.041735 -0.048012 0.263955
0.042780 -0.047764 0.262662
0.043987 -0.047706 0.262414
0.044904 -0.047346 0.260504
0.046035 -0.047224 0.259904
0.047087 -0.047029 0.258906
0.048194 -0.046898 0.258261
0.049517 -0.046979 0.258778
0.050807 -0.047026 0.259112
0.052175 -0.047140 0.259815
0.053669 -0.047360 0.261104
0.055163 -0.047570 0.262340
0.056744 -0.047844 0.263930
0.058762 -0.048466 0.267439
0.060646 -0.048954 0.270212
0.062107 -0.049087 0.271025
0.063362 -0.049056 0.270928
0.064781 -0.049149 0.271522
0.066035 -0.049117 0.271421
0.067160 -0.048991 0.270801
0.068310 -0.048889 0.270308
0.069343 -0.048707 0.269380
0.069867 -0.048182 0.266543
0.070525 -0.047766 0.264312
0.071605 -0.047645 0.263709
0.072568 -0.047452 0.262707
0.073078 -0.046974 0.260124
0.073776 -0.046630 0.258284
0.074857 -0.046537 0.257824
0.076131 -0.046564 0.258033
0.077326 -0.046543 0.257972
0.078948 -0.046776 0.259312
0.080516 -0.046970 0.260437
0.082125 -0.047181 0.261658
0.083053 -0.047001 0.260703
0.084816 -0.047292 0.262355
0.096046 -0.052776 0.292821
0.097295 -0.052697 0.292423
0.099681 -0.053228 0.295402
0.100151 -0.052735 0.292696
0.101651 -0.052790 0.293032
0.102736 -0.052632 0.292172
0.104004 -0.052569 0.291843
0.105631 -0.052688 0.292515
0.105852 -0.052112 0.289321
0.107247 -0.052120 0.289371
0.109564 -0.052571 0.291869
0.110763 -0.052481 0.291359
0.111962 -0.052393 0.290856
0.113628 -0.052523 0.291556
0.115185 -0.052600 0.291956
0.116596 -0.052610 0.291974
0.117833 -0.052541 0.291553
0.119322 -0.052585 0.291750
0.120736 -0.052596 0.291754
0.121883 -0.052491 0.291111
0.123497 -0.052588 0.291576
0.124945 -0.052612 0.291632
0.126467 -0.052667 0.291848
0.128168 -0.052794 0.292457
0.129672 -0.052838 0.292597
0.130453 -0.052590 0.291109
0.132304 -0.052773 0.292004
0.133881 -0.052845 0.292270
0.135240 -0.052830 0.292044
0.136919 -0.052939 0.292493
0.138589 -0.053043 0.292902
0.139958 -0.053030 0.292656
0.141146 -0.052950 0.292027
0.142775 -0.053035 0.292298
0.144319 -0.053087 0.292373
0.145973 -0.053178 0.292653
0.147538 -0.053235 0.292729
0.149013 -0.053259 0.292612
0.150508 -0.053289 0.292515
0.151957 -0.053303 0.292312
0.153509 -0.053352 0.292289
-0.155956 -0.051568 0.292665
-0.154601 -0.051578 0.292993
-0.153083 -0.051534 0.292999
-0.151598 -0.051500 0.293050
-0.150243 -0.051510 0.293339
-0.148660 -0.051442 0.293164
-0.147174 -0.051406 0.293164
-0.145555 -0.051323 0.292881
-0.143673 -0.051144 0.292042
-0.142225 -0.051118 0.292062
-0.140996 -0.051171 0.292523
-0.139291 -0.051051 0.291982
-0.137924 -0.051054 0.292133
-0.136743 -0.051126 0.292672
-0.131167 -0.049540 0.283703
-0.128971 -0.049211 0.281923
-0.142840 -0.055068 0.315584
-0.141565 -0.055149 0.316144
-0.141635 -0.055761 0.319742
-0.140342 -0.055845 0.320297
-0.128091 -0.051522 0.295566
-0.124073 -0.050452 0.289485
-0.122957 -0.050552 0.290107
-0.121682 -0.050588 0.290354
-0.120503 -0.050665 0.290830
-0.119312 -0.050739 0.291281
-0.117755 -0.050658 0.290833
-0.116389 -0.050658 0.290843
-0.115032 -0.050661 0.290870
-0.113703 -0.050677 0.290964
-0.112096 -0.050569 0.290333
-0.110762 -0.050582 0.290398
-0.109517 -0.050637 0.290696
-0.108193 -0.050656 0.290784
-0.106916 -0.050698 0.290999
-0.105572 -0.050709 0.291030
-0.104411 -0.050810 0.291569
-0.103083 -0.050831 0.291648
-0.101724 -0.050836 0.291635
-0.100598 -0.050960 0.292296
-0.098541 -0.050610 0.290231
-0.095196 -0.049579 0.284258
-0.100008 -0.052827 0.302817
-0.098736 -0.052909 0.303220
-0.096797 -0.052631 0.301553
-0.095666 -0.052790 0.302389
-0.094628 -0.053007 0.303550
-0.093150 -0.052980 0.303313
-0.091622 -0.052923 0.302902
-0.090117 -0.052878 0.302557
-0.088488 -0.052758 0.301775
-0.086960 -0.052694 0.301320
-0.085427 -0.052626 0.300835
-0.083797 -0.052495 0.299987
-0.082349 -0.052475 0.299776
-0.080712 -0.052332 0.298858
-0.079459 -0.052438 0.299357
-0.078174 -0.052526 0.299754
-0.076807 -0.052561 0.299848
-0.075666 -0.052755 0.300846
-0.074346 -0.052829 0.301161
-0.069777 -0.050552 0.288076
-0.068723 -0.050782 0.289280
-0.067479 -0.050879 0.289721
-0.066202 -0.050954 0.290037
-0.064812 -0.050943 0.289866
-0.063576 -0.051055 0.290395
-0.062275 -0.051119 0.290652
-0.060827 -0.051063 0.290221
-0.059545 -0.051147 0.290588
-0.058179 -0.051161 0.290558
-0.056796 -0.051160 0.290445
-0.055424 -0.051170 0.290389
-0.054025 -0.051155 0.290193
-0.052616 -0.051129 0.289939
-0.051274 -0.051168 0.290052
-0.049913 -0.051191 0.290078
-0.048505 -0.051164 0.289821
-0.047082 -0.051121 0.289474
-0.045774 -0.051204 0.289840
-0.044384 -0.051197 0.289699
-0.042936 -0.051121 0.289168
-0.041133 -0.050602 0.286138
-0.040165 -0.051112 0.288921
-0.038819 -0.051160 0.289097
-0.037365 -0.051063 0.288457
-0.036267 -0.051464 0.290633
-0.031591 -0.046617 0.263177
-0.030243 -0.046483 0.262346
-0.028842 -0.046251 0.260960
-0.027659 -0.046366 0.261535
-0.026397 -0.046352 0.261381
-0.025123 -0.046314 0.261095
-0.023836 -0.046248 0.260659
-0.022591 -0.046260 0.260664
-0.021429 -0.046453 0.261689
-0.020334 -0.046826 0.263728
-0.019331 -0.047473 0.267312
-0.018113 -0.047649 0.268246
-0.016819 -0.047635 0.268118
-0.015730 -0.048249 0.271522
-0.014188 -0.047456 0.267008
-0.012383 -0.045541 0.256192
-0.011273 -0.046043 0.258979
-0.009973 -0.045795 0.257547
-0.008770 -0.045981 0.258559
-0.007544 -0.046098 0.259183
-0.006281 -0.045987 0.258531
-0.005047 -0.046078 0.259018
-0.003806 -0.046155 0.259431
-0.002554 -0.046122 0.259222
-0.001307 -0.046149 0.259360
-0.000058 -0.046631 0.262054
0.001224 -0.047397 0.266348
0.002538 -0.047972 0.269572
0.003826 -0.047835 0.268798
0.005129 -0.047908 0.269211
0.006397 -0.047687 0.267972
0.007698 -0.047747 0.268316
0.008979 -0.047685 0.267972
0.010192 -0.047321 0.265941
0.011436 -0.047168 0.265093
0.012708 -0.047145 0.264982
0.013961 -0.047065 0.264555
0.015259 -0.047139 0.264995
0.016512 -0.047069 0.264631
0.017838 -0.047204 0.265417
0.019188 -0.047380 0.266442
0.020501 -0.047449 0.266863
0.021853 -0.047594 0.267717
0.023268 -0.047851 0.269205
0.024602 -0.047925 0.269666
0.025075 -0.046398 0.261116
0.026131 -0.046043 0.259167
0.027177 -0.045705 0.257312
0.028584 -0.045975 0.258883
0.029703 -0.045779 0.257836
0.030873 -0.045676 0.257308
0.032126 -0.045697 0.257483
0.033349 -0.045676 0.257427
0.034559 -0.045639 0.257279
0.035732 -0.045557 0.256880
0.037212 -0.045859 0.258650
0.039333 -0.046907 0.264628
0.040594 -0.046895 0.264627
0.041614 -0.046613 0.263110
0.042739 -0.046463 0.262330
0.044071 -0.046540 0.262839
0.044983 -0.046181 0.260884
0.046061 -0.046007 0.259977
0.047196 -0.045897 0.259433
0.048344 -0.045806 0.258992
0.049473 -0.045702 0.258481
0.050882 -0.045855 0.259424
0.052144 -0.045871 0.259590
0.053563 -0.046022 0.260524
0.054897 -0.046094 0.261010
0.056504 -0.046388 0.262750
0.058697 -0.047138 0.267080
0.060865 -0.047837 0.271123
0.062157 -0.047834 0.271182
0.063439 -0.047822 0.271197
0.064793 -0.047864 0.271515
0.066103 -0.047873 0.271641
0.067185 -0.047719 0.270847
0.068265 -0.047570 0.270077
0.069251 -0.047362 0.268973
0.069745 -0.046831 0.266028
0.070474 -0.046474 0.264072
0.071793 -0.046512 0.264356
0.072499 -0.046158 0.262413
0.072838 -0.045587 0.259229
0.073431 -0.045190 0.257039
0.074650 -0.045186 0.257077
0.075891 -0.045195 0.257187
0.077127 -0.045201 0.257275
0.078526 -0.045301 0.257895
0.080107 -0.045501 0.259085
0.081661 -0.045679 0.260152
0.082623 -0.045526 0.259327
0.084391 -0.045816 0.261018
0.094401 -0.050506 0.287783
0.095627 -0.050430 0.287391
0.100262 -0.052128 0.297106
0.100182 -0.051362 0.292773
0.101568 -0.051358 0.292778
0.102964 -0.051359 0.292809
0.104092 -0.051229 0.292083
0.105571 -0.051271 0.292342
0.107020 -0.051299 0.292510
0.108516 -0.051348 0.292794
0.109800 -0.051297 0.292502
0.111474 -0.051427 0.293235
0.112432 -0.051228 0.292085
0.113742 -0.051191 0.291859
0.115536 -0.051371 0.292860
0.116756 -0.051294 0.292391
0.117957 -0.051212 0.291881
0.119445 -0.051253 0.292073
0.120848 -0.051258 0.292050
0.122090 -0.051196 0.291633
0.123577 -0.051236 0.291795
0.124886 -0.051202 0.291527
0.126285 -0.051206 0.291464
0.127740 -0.051232 0.291522
0.128956 -0.051162 0.291025
0.131020 -0.051427 0.292421
0.132380 -0.051413 0.292222
0.133746 -0.051402 0.292028
0.135395 -0.051498 0.292436
0.137014 -0.051581 0.292757
0.138772 -0.051714 0.293351
0.140082 -0.051679 0.292983
0.141427 -0.051658 0.292678
0.142887 -0.051679 0.292601
0.144426 -0.051727 0.292668
0.145853 -0.051735 0.292493
0.147229 -0.051725 0.292203
0.148746 -0.051763 0.292177
0.150256 -0.051799 0.292119
0.151642 -0.051792 0.291805
0.153166 -0.051832 0.291739
-0.155805 -0.050123 0.292472
-0.154725 -0.050222 0.293315
-0.153156 -0.050162 0.293222
-0.151763 -0.050160 0.293448
-0.149923 -0.050009 0.292788
-0.148444 -0.049976 0.292810
-0.146778 -0.049880 0.292444
-0.145154 -0.049795 0.292138
-0.143628 -0.049744 0.292011
-0.142586 -0.049860 0.292860
-0.141045 -0.049803 0.292678
-0.139623 -0.049787 0.292727
-0.137814 -0.049632 0.291946
-0.136486 -0.049648 0.292165
-0.135091 -0.049640 0.292233
-0.129826 -0.048196 0.283829
-0.143454 -0.053807 0.316978
-0.142175 -0.053887 0.317541
-0.141578 -0.054229 0.319643
-0.138539 -0.053634 0.316209
-0.128675 -0.050355 0.296937
-0.124524 -0.049264 0.290558
-0.123376 -0.049351 0.291114
-0.121907 -0.049309 0.290905
-0.120701 -0.049374 0.291321
-0.119497 -0.049442 0.291742
-0.117323 -0.049105 0.289771
-0.116440 -0.049307 0.290973
-0.114888 -0.049227 0.290508
-0.113448 -0.049194 0.290309
-0.112299 -0.049288 0.290856
-0.110953 -0.049297 0.290894
-0.109549 -0.049280 0.290773
-0.108254 -0.049312 0.290937
-0.106916 -0.049325 0.290985
-0.105582 -0.049340 0.291041
-0.104234 -0.049349 0.291055
-0.102950 -0.049390 0.291249
-0.101660 -0.049428 0.291425
-0.100020 -0.049295 0.290590
-0.098708 -0.049322 0.290692
-0.095096 -0.048185 0.283929
-0.099400 -0.051083 0.300941
-0.098066 -0.051126 0.301123
-0.096877 -0.051248 0.301763
-0.095523 -0.051284 0.301896
-0.094331 -0.051409 0.302552
-0.092864 -0.051386 0.302333
-0.091284 -0.051299 0.301733
-0.089872 -0.051305 0.301681
-0.088514 -0.051343 0.301811
-0.086927 -0.051247 0.301149
-0.085122 -0.051017 0.299702
-0.083647 -0.050981 0.299388
-0.082221 -0.050974 0.299246
-0.080767 -0.050949 0.298998
-0.079305 -0.050918 0.298710
-0.078014 -0.050998 0.299069
-0.076492 -0.050926 0.298544
-0.075678 -0.051333 0.300819
-0.074359 -0.051406 0.301135
-0.069975 -0.049322 0.288816
-0.068842 -0.049491 0.289699
-0.067583 -0.049576 0.290083
-0.066234 -0.049596 0.290091
-0.064866 -0.049603 0.290023
-0.063555 -0.049655 0.290212
-0.062231 -0.049698 0.290354
-0.060860 -0.049706 0.290285
-0.059533 -0.049750 0.290433
-0.058160 -0.049758 0.290367
-0.056809 -0.049785 0.290413
-0.055452 -0.049807 0.290433
-0.054088 -0.049825 0.290428
-0.052721 -0.049841 0.290411
-0.051318 -0.049823 0.290195
-0.049986 -0.049875 0.290390
-0.048627 -0.049903 0.290443
-0.047163 -0.049820 0.289860
-0.045766 -0.049806 0.289671
-0.044389 -0.049813 0.289612
-0.042956 -0.049757 0.289183
-0.041427 -0.049581 0.288063
-0.040088 -0.049629 0.288244
-0.038554 -0.049432 0.287000
-0.037352 -0.049660 0.288231
-0.036283 -0.050090 0.290634
-0.031692 -0.045498 0.263907
-0.030297 -0.045301 0.262688
-0.028856 -0.045018 0.260967
-0.027731 -0.045225 0.262090
-0.026442 -0.045171 0.261706
-0.025125 -0.045060 0.260991
-0.023881 -0.045076 0.261019
-0.022642 -0.045106 0.261124
-0.021433 -0.045200 0.261604
-0.020314 -0.045509 0.263333
-0.019351 -0.046230 0.267448
-0.018295 -0.046820 0.270800
-0.016872 -0.046486 0.268818
-0.015757 -0.047015 0.271823
-0.014455 -0.047035 0.271892
-0.012454 -0.044555 0.257510
-0.011246 -0.044680 0.258193
-0.010025 -0.044779 0.258728
-0.008776 -0.044757 0.258566
-0.007540 -0.044813 0.258856
-0.006306 -0.044904 0.259355
-0.005065 -0.044974 0.259734
-0.003810 -0.044934 0.259481
-0.002557 -0.044879 0.259143
-0.001314 -0.045095 0.260377
-0.000060 -0.045445 0.262385
0.001222 -0.046083 0.266055
0.002530 -0.046557 0.268784
0.003850 -0.046857 0.270516
0.005150 -0.046819 0.270293
0.006424 -0.046609 0.269087
0.007739 -0.046719 0.269727
0.009012 -0.046574 0.268898
0.010253 -0.046325 0.267473
0.011505 -0.046175 0.266622
0.012772 -0.046108 0.266253
0.014040 -0.046058 0.265986
0.015331 -0.046084 0.266160
0.016589 -0.046015 0.265787
0.017902 -0.046096 0.266289
0.019243 -0.046234 0.267117
0.020502 -0.046171 0.266788
0.021941 -0.046496 0.268705
0.023223 -0.046470 0.268602
0.023210 -0.043994 0.254330
0.024487 -0.044087 0.254910
0.025840 -0.044302 0.256202
0.027052 -0.044266 0.256043
0.028321 -0.044321 0.256417
0.029603 -0.044393 0.256888
0.030905 -0.044488 0.257494
0.032146 -0.044490 0.257563
0.033380 -0.044484 0.257587
0.034610 -0.044472 0.257581
0.035818 -0.044433 0.257422
0.037166 -0.044565 0.258252
0.039773 -0.046150 0.267505
0.041020 -0.046106 0.267324
0.042262 -0.046060 0.267126
0.043322 -0.045823 0.265828
0.044525 -0.045747 0.265464
0.045568 -0.045516 0.264198
0.046541 -0.045230 0.262612
0.047584 -0.045024 0.261496
0.048689 -0.044886 0.260769
0.049742 -0.044708 0.259816
0.051121 -0.044825 0.260573
0.052347 -0.044805 0.260535
0.053660 -0.044859 0.260926
0.054881 -0.044835 0.260866
0.056637 -0.045239 0.263302
0.058969 -0.046077 0.268257
0.060977 -0.046630 0.271558
0.062300 -0.046647 0.271742
0.063539 -0.046603 0.271566
0.064854 -0.046614 0.271711
0.066094 -0.046572 0.271550
0.067240 -0.046467 0.271014
0.068312 -0.046316 0.270212
0.069193 -0.046043 0.268696
0.069536 -0.045428 0.265184
0.070275 -0.045089 0.263280
0.071472 -0.045052 0.263131
0.072222 -0.044738 0.261370
0.072721 -0.044282 0.258772
0.073654 -0.044102 0.257783
0.074898 -0.044110 0.257895
0.075960 -0.044013 0.257384
0.077088 -0.043956 0.257113
0.078245 -0.043918 0.256942
0.079584 -0.043981 0.257366
0.080930 -0.044046 0.257798
0.082198 -0.044067 0.257970
0.083631 -0.044175 0.258647
0.085014 -0.044254 0.259147
0.096695 -0.049614 0.290578
0.098655 -0.049905 0.292326
0.100148 -0.049956 0.292656
0.101543 -0.049957 0.292693
0.102975 -0.049975 0.292829
