ply
format ascii 1.0
element vertex 1679
property float x
property float y
property float z
end_header
-0.110158 -0.079928 0.292225
-0.108726 -0.079886 0.292114
-0.107423 -0.079938 0.292343
-0.106206 -0.080057 0.292811
-0.104230 -0.079599 0.291162
-0.102884 -0.079616 0.291248
-0.101986 -0.079986 0.292617
-0.100397 -0.079817 0.292009
-0.098175 -0.079132 0.289509
-0.094710 -0.077412 0.283222
-0.101210 -0.083904 0.306971
-0.099899 -0.084015 0.307370
-0.099218 -0.084668 0.309745
-0.097950 -0.084831 0.310328
-0.096438 -0.084785 0.310139
-0.095507 -0.085256 0.311840
-0.094122 -0.085331 0.312085
-0.093038 -0.085685 0.313349
-0.091664 -0.085778 0.313657
-0.090113 -0.085708 0.313362
-0.088780 -0.085844 0.313821
-0.087079 -0.085625 0.312975
-0.085727 -0.085747 0.313375
-0.084259 -0.085755 0.313355
-0.082943 -0.085921 0.313910
-0.081471 -0.085928 0.313884
-0.080059 -0.086000 0.314090
-0.070075 -0.079697 0.290906
-0.068822 -0.079836 0.291353
-0.067538 -0.079944 0.291686
-0.066158 -0.079940 0.291609
-0.064819 -0.079986 0.291717
-0.063525 -0.080091 0.292038
-0.062166 -0.080118 0.292069
-0.060756 -0.080077 0.291857
-0.059355 -0.080049 0.291686
-0.058034 -0.080129 0.291913
-0.056638 -0.080107 0.291765
-0.055201 -0.080024 0.291397
-0.053841 -0.080051 0.291429
-0.052511 -0.080126 0.291635
-0.051129 -0.080124 0.291560
-0.049777 -0.080170 0.291660
-0.048452 -0.080265 0.291936
-0.047124 -0.080359 0.292211
-0.045813 -0.080488 0.292616
-0.044449 -0.080531 0.292704
-0.042300 -0.079107 0.287466
-0.042047 -0.081252 0.295193
-0.040679 -0.081317 0.295367
-0.038608 -0.079931 0.290269
-0.037038 -0.079520 0.288714
-0.032525 -0.075413 0.273690
-0.030270 -0.073105 0.265261
-0.029255 -0.073724 0.267454
-0.027831 -0.073321 0.265942
-0.026342 -0.072701 0.263645
-0.025050 -0.072590 0.263194
-0.023878 -0.072832 0.264026
-0.022445 -0.072263 0.261919
-0.021343 -0.072755 0.263658
-0.020277 -0.073438 0.266089
-0.019200 -0.074172 0.268708
-0.017867 -0.073950 0.267864
-0.016736 -0.074596 0.270167
-0.015482 -0.074753 0.270697
-0.014262 -0.075117 0.271984
-0.012927 -0.074894 0.271141
-0.011626 -0.074835 0.270900
-0.010334 -0.074824 0.270831
-0.009031 -0.074725 0.270445
-0.007712 -0.074440 0.269387
-0.006439 -0.074581 0.269876
-0.005144 -0.074459 0.269415
-0.003856 -0.074399 0.269180
-0.002571 -0.074367 0.269048
-0.001293 -0.074692 0.270206
-0.000004 -0.074990 0.271274
0.001280 -0.074392 0.269099
0.002568 -0.074509 0.269516
0.003855 -0.074522 0.269556
0.005066 -0.073433 0.265611
0.006278 -0.072792 0.263293
0.007520 -0.072654 0.262794
0.008726 -0.072248 0.261326
0.009947 -0.072060 0.260650
0.011178 -0.071977 0.260355
0.012445 -0.072115 0.260860
0.013735 -0.072354 0.261734
0.014981 -0.072335 0.261676
0.016264 -0.072486 0.262236
0.017654 -0.073060 0.264330
0.018968 -0.073263 0.265080
0.020221 -0.073218 0.264935
0.021424 -0.073006 0.264188
0.022625 -0.072815 0.263518
0.023801 -0.072565 0.262637
0.024909 -0.072146 0.261144
0.026086 -0.071955 0.260479
0.027158 -0.071503 0.258869
0.028353 -0.071402 0.258534
0.029546 -0.071306 0.258212
0.030833 -0.071431 0.258698
0.032134 -0.071581 0.259273
0.033459 -0.071771 0.259991
0.034728 -0.071832 0.260245
0.035951 -0.071796 0.260149
0.037251 -0.071909 0.260595
0.038428 -0.071786 0.260186
0.039618 -0.071695 0.259892
0.040838 -0.071663 0.259814
0.041948 -0.071444 0.259056
0.042951 -0.071060 0.257701
0.044130 -0.070981 0.257454
0.045387 -0.071028 0.257664
0.046530 -0.070900 0.257235
0.047681 -0.070789 0.256871
0.048850 -0.070709 0.256620
0.050046 -0.070673 0.256527
0.051219 -0.070605 0.256319
0.052541 -0.070742 0.256851
0.053772 -0.070753 0.256929
0.055121 -0.070914 0.257549
0.058160 -0.073196 0.265873
0.059880 -0.073755 0.267941
0.061736 -0.074456 0.270522
0.063178 -0.074639 0.271221
0.064577 -0.074764 0.271709
0.065959 -0.074866 0.272109
0.067195 -0.074801 0.271902
0.068282 -0.074575 0.271109
0.069392 -0.074383 0.270437
0.070229 -0.073910 0.268742
0.071082 -0.073470 0.267165
0.072033 -0.073145 0.266004
0.073018 -0.072865 0.265005
0.073897 -0.072491 0.263660
0.074961 -0.072308 0.263006
0.076130 -0.072230 0.262734
0.077844 -0.072665 0.264321
0.079723 -0.073236 0.266404
0.081426 -0.073630 0.267839
0.083327 -0.074188 0.269868
0.084705 -0.074271 0.270165
0.086828 -0.074995 0.272788
0.094418 -0.080350 0.292252
0.095688 -0.080249 0.291867
0.096451 -0.079732 0.289963
0.098823 -0.080540 0.292877
0.100357 -0.080654 0.293256
0.101888 -0.080761 0.293608
0.103000 -0.080538 0.292755
0.104572 -0.080674 0.293204
0.105973 -0.080679 0.293166
0.107306 -0.080631 0.292934
0.108722 -0.080646 0.292923
0.110006 -0.080564 0.292552
0.111420 -0.080578 0.292526
0.112945 -0.080671 0.292778
0.114269 -0.080619 0.292498
0.115846 -0.080746 0.292858
0.117433 -0.080876 0.293222
0.118737 -0.080811 0.292872
0.120244 -0.080884 0.293012
0.121747 -0.080951 0.293125
0.123164 -0.080961 0.293022
0.124568 -0.080963 0.292879
0.126068 -0.081026 0.292947
0.127429 -0.080999 0.292682
0.129004 -0.081107 0.292895
0.130254 -0.081011 0.292360
0.131985 -0.081212 0.292888
0.133676 -0.081386 0.293303
0.135328 -0.081531 0.293605
0.136910 -0.081633 0.293736
0.138362 -0.081655 0.293571
0.140071 -0.081827 0.293929
0.141542 -0.081857 0.293767
0.143208 -0.081999 0.293989
0.144768 -0.082078 0.293973
0.146337 -0.082160 0.293950
0.148069 -0.082331 0.294232
0.149792 -0.082495 0.294468
0.151543 -0.082670 0.294729
0.152635 -0.082485 0.293691
0.154141 -0.082526 0.293438
0.155733 -0.082611 0.293326
-0.162338 -0.082765 0.301751
-0.157026 -0.080775 0.294878
-0.155312 -0.080617 0.294666
-0.153348 -0.080325 0.293945
-0.152473 -0.080603 0.295296
-0.151113 -0.080627 0.295704
-0.149203 -0.080357 0.295014
-0.147442 -0.080162 0.294585
-0.145743 -0.079997 0.294252
-0.144347 -0.079997 0.294514
-0.142911 -0.079975 0.294680
-0.141247 -0.079824 0.294359
-0.139692 -0.079732 0.294241
-0.137874 -0.079486 0.293545
-0.136864 -0.079707 0.294558
-0.135634 -0.079802 0.295100
-0.132439 -0.078732 0.291316
-0.144059 -0.086538 0.320385
-0.142724 -0.086646 0.320953
-0.141386 -0.086754 0.321515
-0.128007 -0.079396 0.294384
-0.125215 -0.078515 0.291248
-0.123686 -0.078416 0.290999
-0.122550 -0.078566 0.291668
-0.121288 -0.078638 0.292038
-0.119826 -0.078581 0.291921
-0.118552 -0.078647 0.292254
-0.117318 -0.078742 0.292688
-0.115819 -0.078660 0.292453
-0.114114 -0.078433 0.291676
-0.112752 -0.078440 0.291762
-0.111411 -0.078461 0.291894
-0.110030 -0.078455 0.291918
-0.108692 -0.078480 0.292050
-0.107317 -0.078478 0.292079
-0.106108 -0.078600 0.292560
-0.104630 -0.078523 0.292296
-0.103113 -0.078414 0.291911
-0.102121 -0.078707 0.293014
-0.099772 -0.077948 0.290196
-0.098480 -0.078005 0.290411
-0.097245 -0.078109 0.290799
-0.099184 -0.081972 0.305164
-0.098546 -0.082640 0.307635
-0.097316 -0.082824 0.308304
-0.095925 -0.082876 0.308471
-0.094997 -0.083334 0.310151
-0.093888 -0.083646 0.311281
-0.092527 -0.083739 0.311595
-0.091344 -0.084000 0.312529
-0.090111 -0.084223 0.313315
-0.088869 -0.084444 0.314096
-0.087136 -0.084198 0.313134
-0.085738 -0.084274 0.313364
-0.084394 -0.084406 0.313803
-0.082964 -0.084455 0.313932
-0.081251 -0.084213 0.312975
-0.079788 -0.084226 0.312968
-0.075843 -0.083136 0.308796
-0.070161 -0.078414 0.291196
-0.068882 -0.078523 0.291537
-0.067558 -0.078582 0.291696
-0.066157 -0.078554 0.291528
-0.064838 -0.078625 0.291725
-0.063422 -0.078577 0.291482
-0.062052 -0.078586 0.291449
-0.060712 -0.078635 0.291561
-0.059342 -0.078645 0.291531
-0.057983 -0.078672 0.291562
-0.056611 -0.078681 0.291528
-0.055247 -0.078703 0.291539
-0.053902 -0.078755 0.291661
-0.052530 -0.078767 0.291637
-0.051188 -0.078827 0.291790
-0.049834 -0.078872 0.291887
-0.048464 -0.078893 0.291896
-0.047055 -0.078850 0.291667
-0.045718 -0.078928 0.291889
-0.043766 -0.077917 0.288082
-0.042434 -0.077982 0.288255
-0.042207 -0.080147 0.296190
-0.040834 -0.080212 0.296365
-0.038630 -0.078589 0.290304
-0.037094 -0.078258 0.289020
-0.030296 -0.071899 0.265368
-0.029241 -0.072410 0.267200
-0.027832 -0.072052 0.265826
-0.026334 -0.071417 0.263432
-0.025012 -0.071221 0.262661
-0.023832 -0.071428 0.263378
-0.022500 -0.071181 0.262421
-0.021340 -0.071480 0.263478
-0.020228 -0.071987 0.265304
-0.019107 -0.072528 0.267254
-0.017918 -0.072867 0.268465
-0.016677 -0.073036 0.269048
-0.015460 -0.073340 0.270133
-0.014233 -0.073654 0.271255
-0.012908 -0.073474 0.270558
-0.011624 -0.073508 0.270653
-0.010352 -0.073640 0.271107
-0.009057 -0.073626 0.271030
-0.007741 -0.073405 0.270190
-0.006450 -0.073378 0.270069
-0.005171 -0.073511 0.270537
-0.003872 -0.073363 0.269972
-0.002593 -0.073608 0.270856
-0.001289 -0.072981 0.268535
-0.000007 -0.073748 0.271346
0.001280 -0.073295 0.269670
0.002542 -0.072578 0.267021
0.003845 -0.073105 0.268955
0.005056 -0.072068 0.265137
0.006265 -0.071425 0.262769
0.007515 -0.071374 0.262583
0.008718 -0.070966 0.261084
0.009947 -0.070837 0.260612
0.011175 -0.070732 0.260233
0.012435 -0.070830 0.260600
0.013780 -0.071350 0.262525
0.015042 -0.071389 0.262680
0.016340 -0.071582 0.263404
0.017666 -0.071861 0.264447
0.018889 -0.071708 0.263900
0.020170 -0.071784 0.264198
0.021413 -0.071720 0.263983
0.022629 -0.071582 0.263497
0.023816 -0.071367 0.262733
0.025032 -0.071258 0.262355
0.026204 -0.071040 0.261580
0.027312 -0.070676 0.260266
0.028631 -0.070865 0.260993
0.029761 -0.070591 0.260015
0.031027 -0.070649 0.260261
0.032398 -0.070931 0.261332
0.033644 -0.070928 0.261356
0.034887 -0.070921 0.261366
0.036089 -0.070831 0.261071
0.037477 -0.071103 0.262108
0.038529 -0.070739 0.260806
0.039605 -0.070441 0.259745
0.040855 -0.070460 0.259855
0.041970 -0.070253 0.259129
0.043102 -0.070084 0.258546
0.044276 -0.069992 0.258247
0.045504 -0.069987 0.258268
0.046676 -0.069899 0.257982
0.047803 -0.069749 0.257469
0.049011 -0.069722 0.257412
0.050249 -0.069739 0.257512
0.051532 -0.069815 0.257835
0.052699 -0.069734 0.257574
0.054078 -0.069931 0.258338
0.056019 -0.070829 0.261698
0.058371 -0.072197 0.266789
0.059881 -0.072488 0.267903
0.061432 -0.072815 0.269149
0.063147 -0.073319 0.271048
0.064599 -0.073502 0.271761
0.066046 -0.073674 0.272430
0.067273 -0.073598 0.272183
0.068376 -0.073392 0.271453
0.069193 -0.072892 0.269632
0.070204 -0.072611 0.268618
0.071003 -0.072125 0.266845
0.072001 -0.071854 0.265867
0.072741 -0.071339 0.263982
0.073904 -0.071250 0.263673
0.075016 -0.071115 0.263188
0.076335 -0.071178 0.263433
0.078031 -0.071584 0.264947
0.079642 -0.071901 0.266129
0.081235 -0.072193 0.267211
0.083173 -0.072776 0.269372
0.084174 -0.072535 0.268476
0.086807 -0.073685 0.272729
0.096558 -0.079584 0.294537
0.097835 -0.079483 0.294143
0.098979 -0.079279 0.293364
0.100147 -0.079098 0.292667
0.101610 -0.079153 0.292837
0.102988 -0.079140 0.292752
0.104210 -0.079011 0.292229
0.105916 -0.079246 0.293048
0.107192 -0.079158 0.292667
0.108489 -0.079087 0.292343
0.110029 -0.079193 0.292667
0.111391 -0.079169 0.292506
0.112724 -0.079126 0.292266
0.114086 -0.079104 0.292096
0.115786 -0.079314 0.292778
0.117074 -0.079240 0.292402
0.118617 -0.079338 0.292653
0.120151 -0.079429 0.292868
0.121516 -0.079406 0.292659
0.122967 -0.079439 0.292646
0.124597 -0.079587 0.293044
0.126052 -0.079619 0.293012
0.127505 -0.079651 0.292965
0.128912 -0.079653 0.292799
0.130388 -0.079697 0.292778
0.131930 -0.079780 0.292889
0.133470 -0.079860 0.292980
0.135101 -0.079992 0.293249
0.136747 -0.080130 0.293526
0.138269 -0.080194 0.293520
0.139989 -0.080370 0.293909
0.141577 -0.080467 0.293999
0.143264 -0.080618 0.294269
0.144751 -0.080654 0.294109
0.146457 -0.080811 0.294369
0.148006 -0.080879 0.294294
0.149716 -0.081032 0.294510
0.151263 -0.081095 0.294384
0.152531 -0.081009 0.293697
0.154034 -0.081048 0.293449
0.155475 -0.081054 0.293062
-0.160374 -0.080326 0.298299
-0.157226 -0.079456 0.295443
-0.155436 -0.079262 0.295081
-0.153210 -0.078841 0.293855
-0.151938 -0.078907 0.294427
-0.150643 -0.078963 0.294946
-0.149010 -0.078841 0.294787
-0.147294 -0.078673 0.294439
-0.145542 -0.078482 0.293990
-0.143811 -0.078298 0.293558
-0.142096 -0.078121 0.293131
-0.140664 -0.078097 0.293269
-0.139367 -0.078147 0.293676
-0.137936 -0.078124 0.293793
-0.136277 -0.077969 0.293405
-0.131109 -0.075783 0.285357
-0.131933 -0.077051 0.290302
-0.143591 -0.084740 0.319446
-0.142262 -0.084846 0.320012
-0.140930 -0.084953 0.320572
-0.127711 -0.077819 0.293784
-0.124689 -0.076810 0.290100
-0.123543 -0.076947 0.290732
-0.122413 -0.077098 0.291407
-0.121033 -0.077093 0.291486
-0.119798 -0.077181 0.291912
-0.118496 -0.077228 0.292171
-0.117172 -0.077261 0.292372
-0.115646 -0.077160 0.292061
-0.114172 -0.077092 0.291865
-0.112746 -0.077056 0.291782
-0.111473 -0.077124 0.292092
-0.110073 -0.077106 0.292063
-0.108700 -0.077105 0.292099
-0.107391 -0.077151 0.292303
-0.106065 -0.077186 0.292459
-0.104622 -0.077136 0.292290
-0.102844 -0.076833 0.291159
-0.101302 -0.076702 0.290670
-0.099819 -0.076612 0.290335
-0.098384 -0.076558 0.290127
-0.097151 -0.076661 0.290515
-0.100124 -0.081292 0.308042
-0.099599 -0.082053 0.310908
-0.098138 -0.082054 0.310890
-0.096314 -0.081747 0.309699
-0.094928 -0.081808 0.309900
-0.093612 -0.081932 0.310335
-0.092505 -0.082246 0.311487
-0.090790 -0.082021 0.310596
-0.089519 -0.082197 0.311216
-0.088156 -0.082292 0.311530
-0.086787 -0.082385 0.311834
-0.085635 -0.082691 0.312940
-0.084203 -0.082732 0.313039
-0.082776 -0.082780 0.313163
-0.081255 -0.082734 0.312930
-0.079905 -0.082864 0.313359
-0.078524 -0.082966 0.313681
-0.075943 -0.081780 0.309133
-0.069987 -0.076842 0.290406
-0.068623 -0.076849 0.290368
-0.067370 -0.076984 0.290812
-0.066023 -0.077014 0.290860
-0.064666 -0.077034 0.290868
-0.063459 -0.077238 0.291568
-0.062104 -0.077266 0.291606
-0.060730 -0.077272 0.291556
-0.059414 -0.077354 0.291796
-0.058003 -0.077313 0.291570
-0.056649 -0.077347 0.291626
-0.055271 -0.077350 0.291566
-0.053883 -0.077339 0.291456
-0.052480 -0.077305 0.291254
-0.051153 -0.077384 0.291482
-0.049830 -0.077475 0.291752
-0.048416 -0.077426 0.291495
-0.047047 -0.077446 0.291501
-0.045724 -0.077547 0.291811
-0.044257 -0.077402 0.291196
-0.042442 -0.076620 0.288184
-0.042088 -0.078511 0.295228
-0.040720 -0.078575 0.295402
-0.038637 -0.077217 0.290230
-0.037134 -0.076959 0.289198
-0.032247 -0.072173 0.271092
-0.030305 -0.070648 0.265311
-0.029317 -0.071314 0.267755
-0.027896 -0.070940 0.266297
-0.026393 -0.070312 0.263888
-0.025080 -0.070151 0.263233
-0.023852 -0.070226 0.263466
-0.022611 -0.070266 0.263570
-0.021406 -0.070433 0.264149
-0.020246 -0.070775 0.265390
-0.019120 -0.071290 0.267279
-0.017899 -0.071501 0.268027
-0.016653 -0.071634 0.268486
-0.015467 -0.072071 0.270087
-0.014259 -0.072477 0.271570
-0.012932 -0.072300 0.270874
-0.011646 -0.072333 0.270968
-0.010372 -0.072463 0.271423
-0.009075 -0.072450 0.271346
-0.007757 -0.072232 0.270506
-0.006464 -0.072206 0.270385
-0.005182 -0.072337 0.270853
-0.003882 -0.072191 0.270287
-0.002600 -0.072432 0.271173
-0.001301 -0.072194 0.270270
-0.000010 -0.072408 0.271059
0.001278 -0.072070 0.269780
0.002542 -0.071375 0.267173
0.003811 -0.071259 0.266732
0.005046 -0.070705 0.264653
0.006254 -0.070072 0.262283
0.007495 -0.069967 0.261889
0.008713 -0.069701 0.260898
0.009929 -0.069488 0.260103
0.011202 -0.069676 0.260813
0.012468 -0.069790 0.261251
0.013782 -0.070123 0.262508
0.015038 -0.070135 0.262564
0.016336 -0.070320 0.263272
0.017655 -0.070564 0.264201
0.018905 -0.070520 0.264055
0.020176 -0.070552 0.264194
0.021490 -0.070725 0.264864
0.022676 -0.070480 0.263970
0.023956 -0.070534 0.264199
0.025217 -0.070532 0.264216
0.026459 -0.070480 0.264051
0.027746 -0.070546 0.264328
0.028989 -0.070500 0.264186
0.030260 -0.070520 0.264295
0.031416 -0.070283 0.263440
0.032628 -0.070186 0.263110
0.033965 -0.070354 0.263777
0.035157 -0.070220 0.263312
0.036271 -0.069945 0.262320
0.037551 -0.069997 0.262554
0.038590 -0.069611 0.261144
0.039688 -0.069353 0.260217
0.040802 -0.069137 0.259448
0.042035 -0.069129 0.259459
0.043161 -0.068953 0.258837
0.044257 -0.068737 0.258068
0.045524 -0.068792 0.258319
0.046667 -0.068663 0.257874
0.047801 -0.068525 0.257401
0.049109 -0.068639 0.257869
0.050302 -0.068590 0.257727
0.051675 -0.068783 0.258496
0.053056 -0.068977 0.259266
0.054570 -0.069332 0.260640
0.056533 -0.070228 0.264049
0.058511 -0.071103 0.267384
0.059899 -0.071240 0.267936
0.061601 -0.071736 0.269843
0.063097 -0.071977 0.270790
0.064554 -0.072165 0.271534
0.066039 -0.072376 0.272365
0.067371 -0.072415 0.272545
0.068607 -0.072350 0.272335
0.069762 -0.072204 0.271817
0.070918 -0.072064 0.271321
0.071972 -0.071828 0.270460
0.072905 -0.071481 0.269181
0.073695 -0.071008 0.267425
0.074740 -0.070793 0.266635
0.075621 -0.070433 0.265296
0.076497 -0.070079 0.263979
0.078018 -0.070319 0.264896
0.079846 -0.070822 0.266803
0.081452 -0.071117 0.267921
0.083292 -0.071602 0.269754
0.084139 -0.071233 0.268365
0.086219 -0.071904 0.270888
0.098120 -0.078317 0.295016
0.098800 -0.077748 0.292851
0.100140 -0.077706 0.292671
0.101478 -0.077664 0.292483
0.102834 -0.077637 0.292344
0.104252 -0.077656 0.292378
0.105580 -0.077610 0.292156
0.107046 -0.077664 0.292309
0.108307 -0.077570 0.291899
0.109787 -0.077633 0.292073
0.111243 -0.077678 0.292171
0.112734 -0.077746 0.292349
0.114037 -0.077684 0.292033
0.115439 -0.077690 0.291966
0.116998 -0.077800 0.292282
0.118440 -0.077831 0.292291
0.119926 -0.077889 0.292397
0.121624 -0.078083 0.293000
0.123121 -0.078144 0.293100
0.124588 -0.078185 0.293115
0.125962 -0.078168 0.292901
0.127460 -0.078227 0.292963
0.128769 -0.078169 0.292581
0.130172 -0.078170 0.292406
0.131763 -0.078282 0.292638
0.133238 -0.078323 0.292592
0.134768 -0.078396 0.292654
0.136333 -0.078487 0.292771
0.137882 -0.078567 0.292837
0.139448 -0.078656 0.292919
0.141169 -0.078828 0.293302
0.142717 -0.078902 0.293304
0.144476 -0.079090 0.293715
0.146034 -0.079165 0.293691
0.147831 -0.079367 0.294123
0.149555 -0.079526 0.294380
0.151048 -0.079560 0.294156
0.152364 -0.079501 0.293574
0.153800 -0.079506 0.293209
0.155286 -0.079536 0.292918
-0.161363 -0.079375 0.300331
-0.156917 -0.077880 0.295045
-0.155279 -0.077765 0.294958
-0.153271 -0.077461 0.294140
-0.151977 -0.077515 0.294666
-0.150624 -0.077540 0.295065
-0.148987 -0.077418 0.294892
-0.147455 -0.077349 0.294904
-0.144997 -0.076789 0.293028
-0.143632 -0.076802 0.293325
-0.141428 -0.076362 0.291879
-0.140364 -0.076535 0.292765
-0.138812 -0.076443 0.292623
-0.137406 -0.076431 0.292774
-0.136383 -0.076633 0.293740
-0.134100 -0.076125 0.291967
-0.132240 -0.075848 0.291073
-0.143173 -0.082981 0.318616
-0.141850 -0.083086 0.319180
-0.140525 -0.083192 0.319738
-0.128329 -0.076796 0.295283
-0.124748 -0.075471 0.290308
-0.123296 -0.075419 0.290219
-0.122122 -0.075538 0.290777
-0.121026 -0.075708 0.291529
-0.119618 -0.075685 0.291526
-0.118344 -0.075748 0.291847
-0.117056 -0.075802 0.292129
-0.115595 -0.075745 0.291974
-0.114104 -0.075667 0.291730
-0.112723 -0.075661 0.291758
-0.111179 -0.075544 0.291351
-0.110014 -0.075684 0.291932
-0.108653 -0.075692 0.291994
-0.107187 -0.075626 0.291766
-0.105922 -0.075701 0.292080
-0.104516 -0.075677 0.292003
-0.102795 -0.075421 0.291027
-0.101578 -0.075533 0.291465
-0.099901 -0.075303 0.290576
-0.098255 -0.075088 0.289743
-0.095297 -0.073851 0.284964
-0.101157 -0.079510 0.306786
-0.099850 -0.079618 0.307185
-0.099165 -0.080232 0.309535
-0.097653 -0.080187 0.309332
-0.096210 -0.080196 0.309340
-0.094791 -0.080227 0.309423
-0.093634 -0.080483 0.310376
-0.092468 -0.080741 0.311329
-0.090982 -0.080722 0.311214
-0.089617 -0.080813 0.311515
-0.088175 -0.080836 0.311553
-0.086942 -0.081053 0.312340
-0.085490 -0.081071 0.312354
-0.084136 -0.081185 0.312734
-0.082736 -0.081258 0.312955
-0.080945 -0.080942 0.311676
-0.079523 -0.080990 0.311797
-0.078149 -0.081091 0.312118
-0.075019 -0.079338 0.305304
-0.069773 -0.075234 0.289446
-0.068587 -0.075433 0.290144
-0.067317 -0.075545 0.290509
-0.065989 -0.075595 0.290633
-0.064662 -0.075649 0.290771
-0.063362 -0.075738 0.291039
-0.062043 -0.075807 0.291234
-0.060639 -0.075773 0.291032
-0.059303 -0.075824 0.291154
-0.057906 -0.075799 0.290984
-0.056525 -0.075793 0.290889
-0.055181 -0.075839 0.290993
-0.053810 -0.075849 0.290956
-0.052450 -0.075875 0.290983
-0.051071 -0.075874 0.290907
-0.049775 -0.076001 0.291319
-0.048167 -0.075645 0.289883
-0.046771 -0.075610 0.289673
-0.045642 -0.076019 0.291170
-0.043898 -0.075397 0.288715
-0.042472 -0.075297 0.288265
-0.042219 -0.077342 0.296021
-0.040847 -0.077406 0.296196
-0.038765 -0.076080 0.291056
-0.037140 -0.075589 0.289109
-0.035793 -0.075646 0.289263
-0.032299 -0.070990 0.271398
-0.030258 -0.069271 0.264770
-0.029103 -0.069523 0.265677
-0.027762 -0.069329 0.264881
-0.026337 -0.068900 0.263190
-0.025046 -0.068795 0.262735
-0.023838 -0.068922 0.263172
-0.022642 -0.069097 0.263793
-0.021470 -0.069370 0.264787
-0.020284 -0.069628 0.265727
-0.019132 -0.070048 0.267285
-0.017831 -0.069943 0.266843
-0.016646 -0.070311 0.268207
-0.015440 -0.070646 0.269446
-0.014160 -0.070672 0.269510
-0.012225 -0.067107 0.255884
-0.011009 -0.067138 0.255970
-0.009801 -0.067236 0.256316
-0.008614 -0.067515 0.257351
-0.007382 -0.067484 0.257211
-0.006168 -0.067642 0.257790
-0.004959 -0.067939 0.258900
-0.003723 -0.067954 0.258938
-0.002485 -0.067918 0.258787
-0.001257 -0.068340 0.260381
-0.000013 -0.070216 0.267516
0.001267 -0.070334 0.267954
0.002519 -0.069560 0.264996
0.003782 -0.069495 0.264744
0.005031 -0.069272 0.263892
0.006259 -0.068906 0.262495
0.007479 -0.068594 0.261308
0.008709 -0.068444 0.260738
0.009954 -0.068440 0.260730
0.011186 -0.068353 0.260403
0.012479 -0.068617 0.261418
0.013762 -0.068785 0.262072
0.015056 -0.068974 0.262803
0.016360 -0.069176 0.263589
0.017604 -0.069116 0.263379
0.018942 -0.069405 0.264497
0.020260 -0.069589 0.265220
0.021569 -0.069723 0.265755
0.022924 -0.069983 0.266771
0.024190 -0.069958 0.266701
0.025538 -0.070161 0.267504
0.026803 -0.070126 0.267398
0.028136 -0.070265 0.267959
0.029513 -0.070496 0.268875
0.030744 -0.070374 0.268445
0.031952 -0.070212 0.267860
0.033018 -0.069761 0.266176
0.034376 -0.069938 0.266890
0.035588 -0.069816 0.266463
0.036610 -0.069342 0.264694
0.037825 -0.069253 0.264396
0.038802 -0.068748 0.262510
0.039720 -0.068173 0.260354
0.040749 -0.067817 0.259039
0.041974 -0.067800 0.259014
0.043080 -0.067596 0.258278
0.044128 -0.067316 0.257252
0.045315 -0.067256 0.257067
0.046624 -0.067376 0.257569
0.047702 -0.067166 0.256809
0.048906 -0.067137 0.256742
0.050159 -0.067176 0.256936
0.051571 -0.067421 0.257919
0.052867 -0.067507 0.258289
0.054204 -0.067638 0.258836
0.056308 -0.068701 0.262947
0.058679 -0.070036 0.268100
0.060405 -0.070561 0.270153
0.061700 -0.070570 0.270231
0.063142 -0.070744 0.270935
0.064587 -0.070914 0.271627
0.065771 -0.070797 0.271219
0.066999 -0.070730 0.271002
0.068100 -0.070534 0.270288
0.069328 -0.070475 0.270094
0.070347 -0.070209 0.269108
0.071540 -0.070123 0.268809
0.072588 -0.069901 0.267986
0.073461 -0.069520 0.266553
0.074434 -0.069245 0.265522
0.075434 -0.069005 0.264622
0.076227 -0.068586 0.263035
0.077341 -0.068465 0.262585
0.078919 -0.068751 0.263697
0.080721 -0.069221 0.265509
0.082154 -0.069364 0.266066
0.083388 -0.069338 0.265968
0.085476 -0.070012 0.268556
0.086641 -0.069922 0.268206
0.097483 -0.076421 0.293115
0.098973 -0.076494 0.293380
0.100297 -0.076439 0.293149
0.101630 -0.076392 0.292943
0.102899 -0.076300 0.292557
0.104191 -0.076226 0.292238
0.105609 -0.076245 0.292270
0.106928 -0.076194 0.292026
0.108267 -0.076158 0.291832
0.109696 -0.076185 0.291876
0.111088 -0.076185 0.291812
0.112468 -0.076178 0.291712
0.113859 -0.076178 0.291634
0.115597 -0.076408 0.292426
0.117064 -0.076455 0.292512
0.118677 -0.076595 0.292946
0.120189 -0.076667 0.293114
0.121083 -0.076348 0.291777
0.122830 -0.076568 0.292492
0.124627 -0.076814 0.293294
0.126083 -0.076846 0.293275
0.127497 -0.076853 0.293146
0.128916 -0.076862 0.293018
0.130353 -0.076882 0.292920
0.131824 -0.076921 0.292885
0.133235 -0.076924 0.292703
0.134727 -0.076974 0.292688
0.136263 -0.077047 0.292750
0.137791 -0.077114 0.292778
0.139504 -0.077283 0.293176
0.140948 -0.077300 0.292989
0.142727 -0.077499 0.293477
0.144423 -0.077650 0.293765
0.146053 -0.077762 0.293894
0.147596 -0.077826 0.293825
0.149300 -0.077973 0.294054
0.150704 -0.077962 0.293671
0.152220 -0.078009 0.293489
0.153643 -0.078007 0.293107
0.155113 -0.078029 0.292798
-0.158756 -0.076669 0.295662
-0.156565 -0.076290 0.294558
-0.154875 -0.076149 0.294360
-0.153257 -0.076042 0.294275
-0.151829 -0.076028 0.294535
-0.150478 -0.076053 0.294929
-0.148944 -0.075985 0.294950
-0.147106 -0.075760 0.294345
-0.145008 -0.075395 0.293181
-0.143448 -0.075305 0.293074
-0.141893 -0.075216 0.292959
-0.140388 -0.075153 0.292929
-0.139183 -0.075251 0.293516
-0.137671 -0.075183 0.293445
-0.135935 -0.074989 0.292874
-0.132685 -0.073949 0.288980
-0.131179 -0.073868 0.288826
-0.141273 -0.080387 0.314478
-0.140943 -0.081050 0.317226
-0.139628 -0.081155 0.317781
-0.128185 -0.075311 0.295025
-0.124888 -0.074178 0.290700
-0.123528 -0.074183 0.290827
-0.122142 -0.074173 0.290885
-0.121013 -0.074320 0.291552
-0.119721 -0.074370 0.291829
-0.118294 -0.074336 0.291771
-0.116969 -0.074365 0.291955
-0.115438 -0.074264 0.291617
-0.114063 -0.074261 0.291660
-0.112556 -0.074171 0.291356
-0.111226 -0.074197 0.291500
-0.109903 -0.074229 0.291659
-0.108634 -0.074299 0.291963
-0.107169 -0.074235 0.291735
-0.105829 -0.074256 0.291836
-0.104439 -0.074243 0.291798
-0.102949 -0.074157 0.291469
-0.101079 -0.073792 0.290035
-0.099589 -0.073699 0.289666
-0.098284 -0.073740 0.289824
-0.094587 -0.071965 0.282833
-0.101003 -0.077941 0.306306
-0.099699 -0.078048 0.306706
-0.097965 -0.077816 0.305769
-0.097156 -0.078323 0.307732
-0.095813 -0.078409 0.308036
-0.094185 -0.078260 0.307415
-0.093038 -0.078513 0.308368
-0.091790 -0.078687 0.309009
-0.090197 -0.078566 0.308486
-0.088757 -0.078577 0.308479
-0.087518 -0.078770 0.309183
-0.086170 -0.078868 0.309515
-0.084740 -0.078894 0.309560
-0.083333 -0.078944 0.309694
-0.082004 -0.079070 0.310124
-0.080461 -0.078990 0.309748
-0.079077 -0.079067 0.309983
-0.077712 -0.079166 0.310302
-0.076119 -0.079032 0.309706
-0.069824 -0.073916 0.289589
-0.068673 -0.074149 0.290435
-0.067393 -0.074250 0.290757
-0.066034 -0.074266 0.290751
-0.064790 -0.074415 0.291261
-0.063481 -0.074495 0.291500
-0.062110 -0.074503 0.291459
-0.060739 -0.074512 0.291419
-0.059425 -0.074593 0.291662
-0.057929 -0.074445 0.291006
-0.056560 -0.074455 0.290971
-0.055238 -0.074531 0.291190
-0.053893 -0.074578 0.291298
-0.052515 -0.074581 0.291234
-0.051193 -0.074666 0.291490
-0.049843 -0.074715 0.291607
-0.048378 -0.074588 0.291033
-0.046782 -0.074247 0.289629
-0.045490 -0.074381 0.290079
-0.044110 -0.074376 0.289985
-0.042533 -0.074027 0.288555
-0.041962 -0.075466 0.294091
-0.040599 -0.075529 0.294266
-0.038918 -0.074986 0.292078
-0.037154 -0.074234 0.289081
-0.035234 -0.073104 0.284616
-0.033906 -0.073158 0.284763
-0.030299 -0.068096 0.264999
-0.029008 -0.068027 0.264676
-0.027616 -0.067702 0.263353
-0.026275 -0.067479 0.262432
-0.024960 -0.067305 0.261704
-0.023748 -0.067402 0.262031
-0.022542 -0.067529 0.262477
-0.021351 -0.067719 0.263167
-0.020166 -0.067953 0.264030
-0.019043 -0.068445 0.265896
-0.017752 -0.068356 0.265510
-0.016629 -0.068950 0.267778
-0.015406 -0.069193 0.268679
-0.013806 -0.067636 0.262599
-0.012311 -0.066337 0.257523
-0.011129 -0.066616 0.258576
-0.009945 -0.066959 0.259876
-0.008682 -0.066791 0.259195
-0.007449 -0.066834 0.259338
-0.006217 -0.066906 0.259593
-0.004986 -0.067023 0.260027
-0.003739 -0.066951 0.259730
-0.002498 -0.066938 0.259661
-0.001261 -0.067160 0.260510
-0.000016 -0.068427 0.265410
0.001257 -0.068682 0.266391
0.002493 -0.067672 0.262465
0.003768 -0.068029 0.263843
0.005017 -0.067861 0.263190
0.006254 -0.067634 0.262308
0.007511 -0.067656 0.262394
0.008728 -0.067370 0.261289
0.009997 -0.067501 0.261803
0.011238 -0.067436 0.261556
0.012490 -0.067441 0.261587
0.013806 -0.067762 0.262845
0.015097 -0.067917 0.263457
0.016393 -0.068069 0.264063
0.017689 -0.068195 0.264569
0.019072 -0.068621 0.266245
0.020463 -0.069018 0.267805
0.021774 -0.069116 0.268208
0.023145 -0.069382 0.269267
0.024436 -0.069393 0.269339
0.025682 -0.069281 0.268934
0.026992 -0.069342 0.269203
0.028197 -0.069143 0.268463
0.029460 -0.069096 0.268311
0.030706 -0.069015 0.268035
0.031769 -0.068544 0.266243
0.032941 -0.068338 0.265478
0.034173 -0.068266 0.265237
0.035212 -0.067826 0.263570
0.036451 -0.067790 0.263469
0.037494 -0.067403 0.262009
0.038855 -0.067594 0.262792
0.039669 -0.066851 0.259948
0.040766 -0.066615 0.259074
0.042013 -0.066633 0.259187
0.043096 -0.066395 0.258310
0.044218 -0.066229 0.257707
0.045427 -0.066199 0.257635
0.046755 -0.066340 0.258229
0.047989 -0.066343 0.258289
0.049179 -0.066287 0.258117
0.050572 -0.066500 0.258994
0.051997 -0.066744 0.259990
0.053508 -0.067084 0.261360
0.055173 -0.067599 0.263411
0.056663 -0.067879 0.264549
0.058455 -0.068502 0.267023
0.060213 -0.069059 0.269239
0.061680 -0.069266 0.270092
0.063084 -0.069395 0.270640
0.064590 -0.069630 0.271597
0.065988 -0.069740 0.272069
0.067206 -0.069660 0.271799
0.068357 -0.069515 0.271271
0.069480 -0.069346 0.270649
0.070365 -0.068951 0.269142
0.071181 -0.068504 0.267429
0.072104 -0.068173 0.266171
0.073012 -0.067840 0.264899
0.073756 -0.067369 0.263084
0.074567 -0.066973 0.261562
0.075382 -0.066594 0.260102
0.076256 -0.066278 0.258887
0.077541 -0.066324 0.259082
0.079006 -0.066519 0.259857
0.080569 -0.066791 0.260929
0.082253 -0.067152 0.262348
0.083478 -0.067133 0.262278
0.085912 -0.068073 0.265950
0.096934 -0.075692 0.295710
0.098211 -0.075592 0.295313
0.099579 -0.075564 0.295191
0.100314 -0.075063 0.293214
0.101513 -0.074919 0.292628
0.102972 -0.074967 0.292789
0.104179 -0.074833 0.292233
0.105468 -0.074760 0.291912
0.106949 -0.074824 0.292116
0.108295 -0.074793 0.291944
0.109668 -0.074781 0.291842
0.111225 -0.074893 0.292217
0.112562 -0.074856 0.292005
0.113835 -0.074778 0.291626
0.115496 -0.074954 0.292228
0.117016 -0.075035 0.292455
0.118376 -0.075012 0.292269
0.119808 -0.075035 0.292254
0.121618 -0.075292 0.293141
0.122915 -0.075229 0.292773
0.124495 -0.075338 0.293069
0.126122 -0.075473 0.293453
0.127516 -0.075467 0.293282
0.128844 -0.075423 0.292952
0.130347 -0.075481 0.293009
0.131820 -0.075520 0.292983
0.133122 -0.075462 0.292568
0.134538 -0.075468 0.292394
0.136027 -0.075515 0.292365
0.137683 -0.075654 0.292677
0.139263 -0.075747 0.292803
0.141083 -0.075968 0.293410
0.142378 -0.075905 0.292905
0.143946 -0.075987 0.292946
0.145514 -0.076067 0.292967
0.147324 -0.076271 0.293449
0.148911 -0.076357 0.293458
0.150475 -0.076429 0.293403
0.151839 -0.076399 0.292937
0.153317 -0.076427 0.292678
0.154728 -0.076421 0.292270
-0.158532 -0.075140 0.295419
-0.156333 -0.074763 0.294290
-0.155058 -0.074824 0.294871
-0.153091 -0.074550 0.294113
-0.151748 -0.074577 0.294527
-0.150569 -0.074687 0.295252
-0.148734 -0.074470 0.294674
-0.147088 -0.074345 0.294441
-0.144618 -0.073797 0.292520
-0.143482 -0.073925 0.293265
-0.141724 -0.073733 0.292727
-0.140019 -0.073564 0.292271
-0.138711 -0.073603 0.292625
-0.137366 -0.073623 0.292894
-0.135786 -0.073517 0.292649
-0.134574 -0.073609 0.293185
-0.132176 -0.073048 0.291107
-0.140681 -0.078565 0.313249
-0.140756 -0.079440 0.316889
-0.139444 -0.079544 0.317442
-0.128092 -0.073860 0.294879
-0.124760 -0.072727 0.290466
-0.123378 -0.072718 0.290533
-0.122108 -0.072776 0.290859
-0.120935 -0.072894 0.291416
-0.119578 -0.072902 0.291528
-0.118277 -0.072945 0.291771
-0.116788 -0.072872 0.291544
-0.115440 -0.072886 0.291657
-0.114120 -0.072919 0.291838
-0.112599 -0.072822 0.291496
-0.111170 -0.072783 0.291377
-0.109943 -0.072878 0.291787
-0.108569 -0.072876 0.291806
-0.107219 -0.072890 0.291881
-0.105683 -0.072777 0.291445
-0.104140 -0.072656 0.290969
-0.102444 -0.072424 0.290042
-0.101024 -0.072383 0.289878
-0.099710 -0.072418 0.290013
-0.098224 -0.072328 0.289641
-0.095481 -0.071295 0.285494
-0.101435 -0.076821 0.307602
-0.100127 -0.076928 0.308003
-0.098483 -0.076775 0.307363
-0.097408 -0.077068 0.308504
-0.095881 -0.077007 0.308225
-0.094392 -0.076975 0.308056
-0.092800 -0.076858 0.307544
-0.091428 -0.076921 0.307750
-0.090157 -0.077072 0.308306
-0.088518 -0.076910 0.307605
-0.087027 -0.076872 0.307398
-0.085570 -0.076864 0.307307
-0.084291 -0.077018 0.307864
-0.082908 -0.077082 0.308055
-0.081400 -0.077029 0.307776
-0.079874 -0.076957 0.307424
-0.078735 -0.077262 0.308571
-0.077377 -0.077360 0.308890
-0.075448 -0.076880 0.306903
-0.069845 -0.072563 0.289601
-0.068646 -0.072743 0.290245
-0.067356 -0.072830 0.290521
-0.065981 -0.072827 0.290433
-0.064691 -0.072921 0.290733
-0.063344 -0.072952 0.290783
-0.062054 -0.073052 0.291106
-0.060707 -0.073088 0.291173
-0.059250 -0.072991 0.290708
-0.057884 -0.073004 0.290682
-0.056593 -0.073114 0.291044
-0.055170 -0.073055 0.290731
-0.053818 -0.073090 0.290790
-0.052485 -0.073152 0.290960
-0.051108 -0.073156 0.290898
-0.049773 -0.073222 0.291083
-0.048440 -0.073295 0.291294
-0.047001 -0.073205 0.290863
-0.045586 -0.073151 0.290572
-0.043566 -0.072092 0.286290
-0.042397 -0.072418 0.287511
-0.041346 -0.072974 0.289646
-0.040255 -0.073495 0.291642
-0.038901 -0.073556 0.291811
-0.037066 -0.072680 0.288269
-0.034992 -0.071249 0.282526
-0.032269 -0.068329 0.270885
-0.030247 -0.066712 0.264415
-0.029055 -0.066867 0.264971
-0.027721 -0.066693 0.264222
-0.026343 -0.066391 0.262973
-0.025050 -0.066286 0.262503
-0.023806 -0.066305 0.262527
-0.022554 -0.066304 0.262473
-0.021362 -0.066489 0.263156
-0.020167 -0.066689 0.263900
-0.019084 -0.067308 0.266305
-0.017829 -0.067369 0.266501
-0.016622 -0.067631 0.267497
-0.015412 -0.067924 0.268617
-0.013977 -0.067194 0.265693
-0.012463 -0.065893 0.260516
-0.011252 -0.066089 0.261255
-0.010048 -0.066382 0.262383
-0.008744 -0.065999 0.260843
-0.007502 -0.066036 0.260964
-0.006270 -0.066196 0.261571
-0.005022 -0.066220 0.261645
-0.003764 -0.066104 0.261168
-0.002520 -0.066206 0.261553
-0.001272 -0.066368 0.262178
-0.000019 -0.067125 0.265159
0.001251 -0.067233 0.265574
0.002506 -0.066840 0.264013
0.003775 -0.066949 0.264440
0.005043 -0.066992 0.264604
0.006319 -0.067097 0.265019
0.007589 -0.067121 0.265115
0.008846 -0.067039 0.264794
0.010090 -0.066887 0.264203
0.011359 -0.066917 0.264326
0.012626 -0.066929 0.264385
0.013922 -0.067078 0.264988
0.015217 -0.067199 0.265480
0.016510 -0.067292 0.265865
0.017814 -0.067416 0.266373
0.019164 -0.067683 0.267447
0.020553 -0.068047 0.268911
0.022003 -0.068557 0.270950
0.023308 -0.068584 0.271084
0.024572 -0.068492 0.270748
0.025853 -0.068456 0.270638
0.027030 -0.068160 0.269501
0.028237 -0.067964 0.268759
0.029501 -0.067917 0.268607
0.030813 -0.067977 0.268881
0.032077 -0.067932 0.268744
0.033339 -0.067886 0.268602
0.034098 -0.066858 0.264573
0.035328 -0.066792 0.264355
0.036563 -0.066742 0.264200
0.037546 -0.066249 0.262293
0.038700 -0.066081 0.261670
0.039675 -0.065627 0.259916
0.040685 -0.065256 0.258492
0.042023 -0.065417 0.259177
0.043171 -0.065282 0.258690
0.044260 -0.065068 0.257887
0.045492 -0.065069 0.257939
0.046880 -0.065288 0.258856
0.048182 -0.065379 0.259265
0.049674 -0.065716 0.260651
0.051067 -0.065909 0.261463
0.052472 -0.066108 0.262303
0.054137 -0.066618 0.264374
0.055634 -0.066903 0.265554
0.057223 -0.067283 0.267111
0.058775 -0.067604 0.268433
0.060553 -0.068165 0.270710
0.061954 -0.068287 0.271240
0.063199 -0.068237 0.271087
0.064636 -0.068390 0.271743
0.065924 -0.068384 0.271763
0.067123 -0.068288 0.271422
0.068388 -0.068260 0.271354
0.069564 -0.068146 0.270940
0.070675 -0.067974 0.270296
0.071709 -0.067735 0.269382
0.072846 -0.067601 0.268880
0.073659 -0.067176 0.267221
0.073629 -0.066008 0.262606
0.074296 -0.065495 0.260590
0.075225 -0.065225 0.259540
0.075948 -0.064788 0.257824
0.077119 -0.064742 0.257658
0.078654 -0.064998 0.258692
0.080195 -0.065250 0.259708
0.081648 -0.065425 0.260413
0.082634 -0.065225 0.259623
0.084769 -0.065925 0.262413
0.086569 -0.066347 0.264094
0.096795 -0.073123 0.291061
0.099121 -0.073824 0.293841
0.100333 -0.073688 0.293283
0.101663 -0.073640 0.293075
0.102972 -0.073579 0.292807
0.104257 -0.073503 0.292475
0.105682 -0.073525 0.292529
0.107059 -0.073514 0.292446
0.108328 -0.073431 0.292070
0.109636 -0.073375 0.291796
0.111040 -0.073384 0.291773
0.112392 -0.073360 0.291612
0.113838 -0.073396 0.291684
0.115224 -0.073393 0.291593
0.116743 -0.073474 0.291830
0.118468 -0.073681 0.292559
0.119918 -0.073714 0.292590
0.121144 -0.073610 0.292070
0.122618 -0.073658 0.292140
0.124357 -0.073862 0.292822
0.126071 -0.074046 0.293420
0.127524 -0.074075 0.293390
0.128804 -0.074004 0.292955
0.130227 -0.074016 0.292838
0.131688 -0.074048 0.292792
0.133147 -0.074079 0.292731
0.134462 -0.074030 0.292342
0.135934 -0.074067 0.292283
0.137574 -0.074194 0.292569
0.139187 -0.074305 0.292773
0.140563 -0.074287 0.292461
0.142082 -0.074345 0.292435
0.143564 -0.074382 0.292313
0.145477 -0.074640 0.293044
0.147225 -0.074809 0.293410
0.149065 -0.075021 0.293927
0.150510 -0.075032 0.293641
0.151697 -0.074915 0.292841
0.153180 -0.074945 0.292598
0.154736 -0.075011 0.292475
-0.157500 -0.073240 0.293666
-0.155942 -0.073165 0.293715
-0.154353 -0.073076 0.293687
-0.153004 -0.073099 0.294096
-0.151776 -0.073181 0.294726
-0.149800 -0.072900 0.293882
-0.148613 -0.073002 0.294566
-0.146679 -0.072736 0.293750
-0.145130 -0.072657 0.293676
-0.143636 -0.072605 0.293698
-0.141820 -0.072387 0.293037
-0.139964 -0.072145 0.292261
-0.138622 -0.072165 0.292539
-0.137072 -0.072077 0.292364
-0.135594 -0.072024 0.292326
-0.130187 -0.069863 0.283713
-0.140835 -0.076362 0.310266
-0.139553 -0.076461 0.310821
-0.139434 -0.077206 0.313993
-0.138137 -0.077308 0.314541
-0.128293 -0.072577 0.295408
-0.124673 -0.071301 0.290323
-0.123204 -0.071242 0.290181
-0.121935 -0.071299 0.290500
-0.120703 -0.071378 0.290905
-0.119388 -0.071410 0.291109
-0.118121 -0.071471 0.291426
-0.116505 -0.071321 0.290874
-0.115110 -0.071303 0.290855
-0.113983 -0.071453 0.291516
-0.112634 -0.071467 0.291609
-0.111160 -0.071400 0.291372
-0.109907 -0.071476 0.291710
-0.108705 -0.071587 0.292185
-0.107303 -0.071567 0.292122
-0.105778 -0.071464 0.291713
-0.104311 -0.071399 0.291450
-0.102850 -0.071335 0.291190
-0.101108 -0.071073 0.290116
-0.099623 -0.070986 0.289753
-0.098300 -0.071014 0.289855
-0.095774 -0.070161 0.286358
-0.101398 -0.075340 0.307470
-0.100092 -0.075445 0.307872
-0.098539 -0.075365 0.307514
-0.097029 -0.075316 0.307277
-0.095758 -0.075453 0.307797
-0.094160 -0.075333 0.307267
-0.092545 -0.075196 0.306660
-0.091294 -0.075355 0.307258
-0.089787 -0.075304 0.306997
-0.088402 -0.075355 0.307153
-0.086710 -0.075142 0.306227
-0.085480 -0.075330 0.306930
-0.084135 -0.075421 0.307237
-0.082768 -0.075495 0.307472
-0.081474 -0.075640 0.307995
-0.079849 -0.075477 0.307260
-0.078423 -0.075499 0.307280
-0.077810 -0.076320 0.310547
-0.076441 -0.076417 0.310864
-0.069845 -0.071189 0.289526
-0.068632 -0.071350 0.290106
-0.067368 -0.071464 0.290493
-0.066028 -0.071499 0.290560
-0.064732 -0.071585 0.290830
-0.063382 -0.071614 0.290871
-0.062069 -0.071685 0.291083
-0.060707 -0.071704 0.291081
-0.059314 -0.071686 0.290926
-0.057979 -0.071739 0.291060
-0.056650 -0.071801 0.291231
-0.055242 -0.071765 0.291005
-0.053885 -0.071793 0.291042
-0.052553 -0.071860 0.291231
-0.051102 -0.071761 0.290751
-0.049739 -0.071786 0.290771
-0.048359 -0.071785 0.290689
-0.046960 -0.071755 0.290490
-0.045591 -0.071772 0.290482
-0.044233 -0.071807 0.290546
-0.042057 -0.070475 0.285081
-0.040915 -0.070843 0.286495
-0.040422 -0.072400 0.292718
-0.039062 -0.072460 0.292888
-0.037211 -0.071579 0.289256
-0.035017 -0.069947 0.282594
-0.032123 -0.066728 0.269525
-0.030261 -0.065478 0.264412
-0.029041 -0.065567 0.264712
-0.027679 -0.065329 0.263693
-0.026344 -0.065133 0.262848
-0.025028 -0.064971 0.262138
-0.023764 -0.064931 0.261926
-0.022584 -0.065130 0.262675
-0.021399 -0.065339 0.263471
-0.020190 -0.065495 0.264052
-0.019088 -0.066039 0.266199
-0.017811 -0.066016 0.266061
-0.016588 -0.066205 0.266780
-0.015377 -0.066477 0.267838
-0.013995 -0.065993 0.265850
-0.012541 -0.065040 0.261974
-0.011275 -0.064955 0.261601
-0.010028 -0.064977 0.261656
-0.008749 -0.064767 0.260784
-0.007504 -0.064786 0.260833
-0.006266 -0.064878 0.261180
-0.005015 -0.064852 0.261055
-0.003764 -0.064806 0.260848
-0.002519 -0.064858 0.261041
-0.001275 -0.065127 0.262112
-0.000022 -0.065904 0.265225
0.001253 -0.066224 0.266500
0.002522 -0.066063 0.265845
0.003801 -0.066190 0.266351
0.005076 -0.066196 0.266371
0.006364 -0.066326 0.266896
0.007638 -0.066303 0.266805
0.008900 -0.066189 0.266348
0.010178 -0.066213 0.266454
0.011448 -0.066183 0.266343
0.012728 -0.066210 0.266460
0.014024 -0.066309 0.266872
0.015309 -0.066340 0.267010
0.016635 -0.066535 0.267813
0.017924 -0.066559 0.267931
0.019256 -0.066732 0.268651
0.020587 -0.066881 0.269271
0.021837 -0.066763 0.268826
0.023185 -0.066940 0.269566
0.024606 -0.067300 0.271044
0.024398 -0.063391 0.255330
0.025622 -0.063396 0.255383
0.026862 -0.063440 0.255594
0.028126 -0.063533 0.256002
0.029401 -0.063642 0.256480
0.030615 -0.063618 0.256419
0.031926 -0.063788 0.257143
0.033234 -0.063937 0.257788
0.034620 -0.064222 0.258979
0.035825 -0.064164 0.258789
0.037172 -0.064354 0.259600
0.038753 -0.064926 0.261951
0.039471 -0.064059 0.258501
0.040758 -0.064142 0.258881
0.042074 -0.064263 0.259418
0.043109 -0.063960 0.258243
0.044415 -0.064066 0.258719
0.045426 -0.063751 0.257497
0.046889 -0.064070 0.258834
0.048237 -0.064221 0.259494
0.049662 -0.064462 0.260520
0.051080 -0.064684 0.261467
0.052324 -0.064680 0.261503
0.053939 -0.065124 0.263347
0.055444 -0.065418 0.264588
0.056963 -0.065715 0.265837
0.058803 -0.066360 0.268501
0.060642 -0.066978 0.271050
0.062083 -0.067139 0.271753
0.063301 -0.067059 0.271475
0.064567 -0.067030 0.271405
0.065814 -0.066983 0.271261
0.066935 -0.066812 0.270615
0.068017 -0.066610 0.269841
0.069091 -0.066407 0.269059
0.070107 -0.066156 0.268086
0.071094 -0.065888 0.267037
0.072311 -0.065839 0.266873
0.073054 -0.065368 0.264996
0.073572 -0.064713 0.262376
0.074247 -0.064218 0.260395
0.075277 -0.064040 0.259700
0.076243 -0.063814 0.258810
0.077339 -0.063702 0.258378
0.078681 -0.063794 0.258767
0.080179 -0.064007 0.259648
0.081827 -0.064331 0.260976
0.082832 -0.064148 0.260241
0.084958 -0.064826 0.262996
0.095903 -0.072115 0.292570
0.097165 -0.072018 0.292177
0.097591 -0.071314 0.289314
0.100280 -0.072260 0.293140
0.101683 -0.072266 0.293147
0.102964 -0.072186 0.292804
0.104209 -0.072083 0.292361
0.105629 -0.072102 0.292408
0.106959 -0.072061 0.292203
0.108318 -0.072039 0.292073
0.109622 -0.071982 0.291795
0.111042 -0.072002 0.291818
0.112316 -0.071927 0.291457
0.113725 -0.071940 0.291439
0.115324 -0.072071 0.291897
0.116932 -0.072205 0.292357
0.118341 -0.072214 0.292303
0.119752 -0.072224 0.292247
0.120888 -0.072069 0.291517
0.122336 -0.072102 0.291539
0.124068 -0.072300 0.292217
0.124821 -0.071929 0.290589
0.127416 -0.072616 0.293226
0.128673 -0.072534 0.292744
0.130074 -0.072534 0.292587
0.131745 -0.072683 0.293017
0.133083 -0.072647 0.292693
0.134428 -0.072615 0.292377
0.135971 -0.072690 0.292477
0.137397 -0.072701 0.292310
0.138993 -0.072801 0.292487
0.140332 -0.072766 0.292109
0.141901 -0.072850 0.292197
0.143261 -0.072825 0.291835
0.145156 -0.073071 0.292543
0.146756 -0.073164 0.292626
0.148508 -0.073331 0.292987
0.149920 -0.073328 0.292654
0.151317 -0.073318 0.292278
0.152827 -0.073362 0.292101
0.154116 -0.073301 0.291487
-0.157713 -0.071925 0.294226
-0.155811 -0.071695 0.293626
-0.154413 -0.071695 0.293951
-0.152865 -0.071625 0.293973
-0.151455 -0.071619 0.294242
-0.149741 -0.071467 0.293901
-0.148113 -0.071354 0.293702
-0.146441 -0.071218 0.293395
-0.145228 -0.071305 0.293991
-0.143532 -0.071154 0.293596
-0.142082 -0.071123 0.293683
-0.139844 -0.070693 0.292111
-0.138611 -0.070768 0.292612
-0.136299 -0.070289 0.290807
-0.135115 -0.070387 0.291380
-0.133912 -0.070477 0.291913
-0.132114 -0.070252 0.291130
-0.139705 -0.075069 0.311238
-0.139146 -0.075561 0.313419
-0.137854 -0.075662 0.313965
-0.127577 -0.070781 0.293822
-0.124545 -0.069855 0.290083
-0.123281 -0.069913 0.290414
-0.121975 -0.069947 0.290642
-0.120610 -0.069948 0.290726
-0.119445 -0.070066 0.291288
-0.118080 -0.070069 0.291363
-0.116420 -0.069895 0.290695
-0.114840 -0.069764 0.290203
-0.113681 -0.069890 0.290770
-0.112419 -0.069955 0.291077
-0.110990 -0.069917 0.290946
-0.109763 -0.070006 0.291341
-0.108558 -0.070112 0.291801
-0.107232 -0.070141 0.291937
-0.105841 -0.070128 0.291891
-0.104430 -0.070102 0.291783
-0.103131 -0.070151 0.291985
-0.101648 -0.070074 0.291658
-0.100070 -0.069930 0.291045
-0.098517 -0.069798 0.290482
-0.095196 -0.068393 0.284613
-0.101133 -0.073695 0.306650
-0.099832 -0.073798 0.307051
-0.098116 -0.073595 0.306168
-0.096557 -0.073504 0.305751
-0.095373 -0.073700 0.306526
-0.093780 -0.073582 0.305991
-0.092181 -0.073455 0.305413
-0.090907 -0.073588 0.305912
-0.089338 -0.073482 0.305416
-0.088052 -0.073610 0.305890
-0.086606 -0.073605 0.305810
-0.085148 -0.073590 0.305683
-0.083951 -0.073804 0.306506
-0.082669 -0.073950 0.307043
-0.081045 -0.073790 0.306309
-0.079685 -0.073868 0.306561
-0.078264 -0.073892 0.306585
-0.078560 -0.075569 0.313466
-0.077179 -0.075666 0.313786
-0.069827 -0.069798 0.289378
-0.068692 -0.070035 0.290284
-0.067396 -0.070113 0.290530
-0.066088 -0.070183 0.290741
-0.064851 -0.070333 0.291281
-0.063431 -0.070285 0.291003
-0.062188 -0.070437 0.291552
-0.060878 -0.070518 0.291804
-0.059362 -0.070359 0.291064
-0.057942 -0.070308 0.290773
-0.056663 -0.070431 0.291197
-0.055282 -0.070429 0.291108
-0.053898 -0.070425 0.291010
-0.052574 -0.070501 0.291238
-0.051169 -0.070468 0.291023
-0.049792 -0.070474 0.290964
-0.048191 -0.070154 0.289564
-0.047015 -0.070453 0.290716
-0.045624 -0.070436 0.290569
-0.044145 -0.070281 0.289848
-0.042719 -0.070201 0.289443
-0.041223 -0.069996 0.288523
-0.040577 -0.071273 0.293707
-0.039212 -0.071332 0.293878
-0.037101 -0.069988 0.288267
-0.035822 -0.070172 0.288952
-0.032167 -0.065529 0.269768
-0.030303 -0.064300 0.264646
-0.028951 -0.064098 0.263757
-0.027652 -0.064000 0.263294
-0.026323 -0.063821 0.262500
-0.024989 -0.063612 0.261583
-0.023720 -0.063556 0.261301
-0.022546 -0.063760 0.262087
-0.021348 -0.063918 0.262686
-0.020174 -0.064175 0.263692
-0.019066 -0.064684 0.265738
-0.017756 -0.064538 0.265093
-0.016520 -0.064653 0.265523
-0.015328 -0.064980 0.266824
-0.013948 -0.064493 0.264787
-0.012596 -0.064055 0.262953
-0.011325 -0.063975 0.262592
-0.010052 -0.063861 0.262091
-0.008778 -0.063708 0.261435
-0.007536 -0.063786 0.261730
-0.006293 -0.063874 0.262065
-0.005041 -0.063894 0.262124
-0.003781 -0.063798 0.261711
-0.002512 -0.063361 0.259905
-0.001284 -0.064158 0.263159
-0.000025 -0.064897 0.266177
0.001252 -0.065043 0.266765
0.002534 -0.065173 0.267291
0.003825 -0.065367 0.268079
0.005116 -0.065458 0.268451
0.006382 -0.065262 0.267646
0.007676 -0.065375 0.268111
0.008933 -0.065177 0.267305
0.010214 -0.065184 0.267339
0.011501 -0.065224 0.267514
0.012791 -0.065269 0.267708
0.014064 -0.065227 0.267549
0.015348 -0.065243 0.267630
0.016681 -0.065443 0.268470
0.017992 -0.065537 0.268876
0.019295 -0.065590 0.269118
0.020592 -0.065616 0.269250
0.021855 -0.065538 0.268955
0.023246 -0.065831 0.270187
0.024527 -0.065798 0.270082
0.024667 -0.062861 0.258058
0.025843 -0.062719 0.257507
0.027054 -0.062669 0.257337
0.028372 -0.062861 0.258162
0.029602 -0.062850 0.258155
0.030894 -0.062966 0.258671
0.032150 -0.063003 0.258862
0.033334 -0.062900 0.258482
0.034645 -0.063036 0.259086
0.035939 -0.063134 0.259532
0.037264 -0.063277 0.260167
0.039023 -0.064123 0.263695
0.039929 -0.063559 0.261421
0.041163 -0.063536 0.261377
0.042528 -0.063710 0.262143
0.043519 -0.063329 0.260627
0.044781 -0.063354 0.260779
0.045945 -0.063241 0.260367
0.047330 -0.063431 0.261201
0.048778 -0.063694 0.262337
0.050256 -0.063981 0.263571
0.051589 -0.064074 0.264006
0.053049 -0.064317 0.265061
0.054442 -0.064469 0.265743
0.055790 -0.064562 0.266179
0.057316 -0.064852 0.267427
0.059080 -0.065392 0.269709
0.060615 -0.065663 0.270877
0.061966 -0.065726 0.271190
0.063176 -0.065640 0.270886
0.064466 -0.065639 0.270931
0.065685 -0.065567 0.270682
0.066965 -0.065558 0.270693
0.068109 -0.065418 0.270161
0.069166 -0.065202 0.269312
0.070175 -0.064948 0.268308
0.071083 -0.064612 0.266960
0.072316 -0.064579 0.266861
