ply
format ascii 1.0
element vertex 1745
property float x
property float y
property float z
end_header
-0.026796 0.065837 0.255651
-0.025606 0.065905 0.255860
-0.024384 0.065894 0.255767
-0.023162 0.065884 0.255676
-0.021952 0.065907 0.255717
-0.020734 0.065906 0.255669
-0.019539 0.065987 0.255937
-0.018298 0.065911 0.255600
-0.017065 0.065853 0.255333
-0.016001 0.066494 0.257779
-0.015874 0.071453 0.276965
-0.014558 0.071480 0.277030
-0.013241 0.071505 0.277090
-0.010987 0.065917 0.255406
-0.009743 0.065749 0.254725
-0.008577 0.066129 0.256169
-0.007353 0.066124 0.256126
-0.006128 0.066097 0.256000
-0.004919 0.066272 0.256657
-0.003704 0.066470 0.257406
-0.002478 0.066577 0.257803
-0.001248 0.066623 0.257965
-0.000016 0.067047 0.259594
0.001225 0.067078 0.259707
0.002531 0.068840 0.266519
0.003798 0.068727 0.266075
0.005261 0.071322 0.276122
0.006551 0.070997 0.274860
0.007740 0.069877 0.270527
0.008591 0.066458 0.257293
0.009821 0.066460 0.257306
0.011070 0.066572 0.257747
0.012311 0.066622 0.257951
0.013538 0.066593 0.257848
0.014805 0.066747 0.258459
0.016079 0.066910 0.259108
0.017379 0.067147 0.260043
0.018660 0.067283 0.260591
0.019842 0.067070 0.259787
0.021261 0.067635 0.261998
0.022693 0.068176 0.264120
0.025128 0.071513 0.277079
0.026358 0.071259 0.276122
0.027662 0.071220 0.276005
0.026648 0.065486 0.253814
0.028166 0.066204 0.256630
0.029430 0.066290 0.257001
0.030520 0.065992 0.255878
0.031862 0.066242 0.256888
0.033128 0.066321 0.257231
0.034411 0.066425 0.257677
0.035645 0.066432 0.257744
0.036860 0.066404 0.257678
0.038122 0.066460 0.257937
0.039583 0.066848 0.259487
0.041289 0.067615 0.262508
0.042622 0.067741 0.263045
0.044172 0.068197 0.264863
0.044728 0.067135 0.260784
0.045646 0.066659 0.258983
0.045944 0.065327 0.253853
0.047087 0.065234 0.253537
0.048351 0.065308 0.253870
0.049454 0.065166 0.253367
0.050662 0.065166 0.253413
0.051934 0.065247 0.253774
0.053229 0.065352 0.254228
0.054585 0.065525 0.254946
0.056013 0.065776 0.255966
0.057957 0.066609 0.259256
0.059835 0.067333 0.262116
0.062000 0.068343 0.266092
0.063598 0.068700 0.267527
0.065275 0.069128 0.269236
0.066768 0.069346 0.270128
0.068101 0.069395 0.270357
0.069522 0.069529 0.270918
0.070814 0.069531 0.270965
0.071854 0.069290 0.270061
0.072882 0.069047 0.269146
0.073624 0.068545 0.267220
0.075011 0.068651 0.267661
0.075813 0.068226 0.266032
0.075938 0.067217 0.262118
0.075761 0.065977 0.257304
0.076803 0.065820 0.256711
0.077831 0.065657 0.256089
0.078792 0.065444 0.255269
0.080077 0.065501 0.255502
0.081411 0.065596 0.255878
0.082962 0.065862 0.256916
0.084416 0.066043 0.257620
0.085483 0.065920 0.257135
0.087543 0.066556 0.259607
0.099272 0.074423 0.290277
0.100520 0.074324 0.289872
0.100758 0.073491 0.286598
0.103216 0.074278 0.289637
0.104835 0.074448 0.290266
0.105982 0.074283 0.289582
0.107145 0.074133 0.288951
0.108768 0.074301 0.289554
0.109978 0.074186 0.289048
0.111178 0.074068 0.288521
0.112821 0.074244 0.289134
0.114088 0.074171 0.288772
0.115473 0.074175 0.288705
0.117033 0.074290 0.289060
0.118313 0.074228 0.288715
0.120078 0.074466 0.289535
0.121389 0.074422 0.289246
0.122770 0.074420 0.289114
0.124458 0.074603 0.289691
0.126180 0.074802 0.290318
0.127732 0.074896 0.290532
0.129130 0.074899 0.290383
0.130838 0.075080 0.290909
0.132268 0.075099 0.290801
0.133593 0.075059 0.290450
0.135189 0.075170 0.290674
0.136861 0.075321 0.291041
0.138707 0.075563 0.291747
0.140193 0.075606 0.291670
0.141429 0.075514 0.291064
0.142929 0.075565 0.290990
0.144328 0.075561 0.290694
0.145789 0.075589 0.290506
0.147434 0.075711 0.290664
0.148834 0.075706 0.290320
0.150719 0.075946 0.290895
0.152443 0.076100 0.291127
0.153663 0.076002 0.290376
-0.042774 0.026502 0.101884
-0.042020 0.026330 0.101257
-0.042175 0.026731 0.102826
-0.042606 0.027317 0.105108
-0.042168 0.027354 0.105275
-0.040872 0.026828 0.103275
-0.040593 0.026966 0.103822
-0.040938 0.027526 0.105998
-0.039602 0.026956 0.103817
-0.040291 0.027767 0.106955
-0.039843 0.027805 0.107113
-0.041023 0.028996 0.111708
-0.039789 0.028488 0.109760
-0.040407 0.030514 0.117574
-0.039436 0.030193 0.116336
-0.040954 0.031796 0.122508
-0.041133 0.032391 0.124793
-0.040489 0.032346 0.124611
-0.040839 0.033104 0.127523
-0.040786 0.033554 0.129243
-0.040978 0.034223 0.131806
-0.040635 0.034457 0.132694
-0.040301 0.034708 0.133641
-0.040137 0.035114 0.135187
-0.040012 0.035569 0.136919
-0.040031 0.036168 0.139203
-0.040276 0.036995 0.142362
-0.040758 0.038072 0.146480
-0.040450 0.038434 0.147848
-0.041880 0.040491 0.155730
-0.053993 0.054098 0.207980
-0.054478 0.055593 0.213682
-0.053883 0.056023 0.215285
-0.052976 0.056137 0.215677
-0.052338 0.056548 0.217207
-0.052243 0.057573 0.221093
-0.051576 0.057996 0.222664
-0.052279 0.060011 0.230342
-0.051109 0.059914 0.229914
-0.049935 0.059809 0.229454
-0.048958 0.059941 0.229902
-0.047980 0.060078 0.230369
-0.046908 0.060100 0.230395
-0.046067 0.060426 0.231587
-0.045181 0.060708 0.232609
-0.044181 0.060846 0.233078
-0.044521 0.062885 0.240825
-0.043373 0.062874 0.240722
-0.042373 0.063083 0.241461
-0.047883 0.073264 0.280359
-0.046599 0.073335 0.280556
-0.045970 0.074472 0.284835
-0.044786 0.074750 0.285828
-0.043400 0.074698 0.285557
-0.042104 0.074803 0.285887
-0.040812 0.074922 0.286275
-0.039184 0.074412 0.284258
-0.037657 0.074063 0.282859
-0.036530 0.074506 0.284483
-0.035205 0.074562 0.284635
-0.033595 0.073996 0.282409
-0.031623 0.072551 0.276835
-0.027894 0.066775 0.254741
-0.026696 0.066810 0.254822
-0.025475 0.066788 0.254685
-0.024296 0.066880 0.254986
-0.023090 0.066903 0.255024
-0.021863 0.066863 0.254826
-0.020616 0.066754 0.254366
-0.019475 0.066996 0.255243
-0.018245 0.066945 0.255008
-0.016904 0.066450 0.253083
-0.016049 0.067937 0.258704
-0.015762 0.072278 0.275198
-0.014507 0.072561 0.276238
-0.013194 0.072586 0.276298
-0.010912 0.066690 0.253825
-0.009742 0.066977 0.254888
-0.008542 0.067101 0.255333
-0.007322 0.067086 0.255250
-0.006112 0.067174 0.255564
-0.004893 0.067183 0.255576
-0.003688 0.067464 0.256629
-0.002471 0.067688 0.257464
-0.001243 0.067735 0.257629
-0.000013 0.068037 0.258764
0.001225 0.068128 0.259100
0.002549 0.070530 0.268227
0.003840 0.070718 0.268937
0.005274 0.072768 0.276730
0.006553 0.072295 0.274931
0.007865 0.072287 0.274899
0.008672 0.068300 0.259742
0.009836 0.067769 0.257728
0.011091 0.067914 0.258287
0.012293 0.067738 0.257627
0.013562 0.067930 0.258368
0.014833 0.068098 0.259019
0.016094 0.068196 0.259406
0.017460 0.068697 0.261331
0.018868 0.069283 0.263577
0.020014 0.068892 0.262111
0.021396 0.069313 0.263736
0.022923 0.070129 0.266866
0.025267 0.073229 0.278693
0.026585 0.073192 0.278580
0.027900 0.073152 0.278462
0.026849 0.067194 0.255810
0.028128 0.067332 0.256369
0.029407 0.067456 0.256875
0.030545 0.067261 0.256167
0.031813 0.067358 0.256571
0.033161 0.067607 0.257560
0.034184 0.067202 0.256054
0.035431 0.067250 0.256274
0.037053 0.067981 0.259101
0.037890 0.067273 0.256443
0.039482 0.067906 0.258901
0.041347 0.068956 0.262947
0.042323 0.068506 0.261275
0.043972 0.069139 0.263734
0.044670 0.068284 0.260517
0.045628 0.067861 0.258949
0.046325 0.067083 0.256024
0.047406 0.066886 0.255316
0.048605 0.066861 0.255266
0.049915 0.066986 0.255787
0.051085 0.066922 0.255588
0.052360 0.066996 0.255914
0.053826 0.067304 0.257135
0.055285 0.067590 0.258273
0.056859 0.068001 0.259886
0.058432 0.068394 0.261430
0.060513 0.069352 0.265136
0.061995 0.069598 0.266120
0.063606 0.069977 0.267607
0.065135 0.070252 0.268700
0.066580 0.070427 0.269410
0.068070 0.070643 0.270275
0.069542 0.070832 0.271031
0.070858 0.070858 0.271168
0.072093 0.070804 0.270993
0.073114 0.070545 0.270031
0.073906 0.070078 0.268272
0.075447 0.070325 0.269242
0.076133 0.069779 0.267177
0.076567 0.069025 0.264310
0.076061 0.067460 0.258337
0.077235 0.067412 0.258167
0.078346 0.067312 0.257795
0.079484 0.067237 0.257516
0.081072 0.067540 0.258682
0.082587 0.067773 0.259578
0.084233 0.068105 0.260849
0.086034 0.068551 0.262554
0.087860 0.069004 0.264278
0.089819 0.069547 0.266347
0.099320 0.075834 0.290404
0.099143 0.074660 0.285884
0.101273 0.075231 0.288043
0.103347 0.075745 0.289980
0.104637 0.075680 0.289689
0.105517 0.075323 0.288279
0.107190 0.075534 0.289038
0.108504 0.075490 0.288812
0.109801 0.075435 0.288541
0.111393 0.075582 0.289033
0.112705 0.075537 0.288787
0.114150 0.075582 0.288875
0.115427 0.075515 0.288529
0.116892 0.075572 0.288650
0.118338 0.075614 0.288707
0.120353 0.076016 0.290128
0.121511 0.075872 0.289459
0.122931 0.075894 0.289413
0.124698 0.076128 0.290164
0.126139 0.076159 0.290134
0.127845 0.076347 0.290694
0.129024 0.076220 0.290044
0.130582 0.076317 0.290236
0.132125 0.076404 0.290376
0.133531 0.076410 0.290202
0.135030 0.076468 0.290213
0.136461 0.076488 0.290064
0.137998 0.076565 0.290124
0.140097 0.076950 0.291335
0.141862 0.077145 0.291813
0.142820 0.076902 0.290620
0.144389 0.076989 0.290661
0.146177 0.077190 0.291119
0.147529 0.077159 0.290684
0.149032 0.077207 0.290533
0.151397 0.077696 0.292022
0.152929 0.077753 0.291868
0.154161 0.077657 0.291123
-0.042201 0.026623 0.100499
-0.042100 0.026860 0.101428
-0.040178 0.025928 0.097938
-0.040457 0.026411 0.099792
-0.040284 0.026607 0.100556
-0.041214 0.027545 0.104124
-0.042091 0.028469 0.107640
-0.040932 0.028022 0.105969
-0.041250 0.028589 0.108128
-0.041120 0.029219 0.110538
-0.040655 0.029258 0.110699
-0.040714 0.029681 0.112307
-0.041746 0.030833 0.116673
-0.041327 0.030930 0.117043
-0.040882 0.031009 0.117348
-0.039922 0.030696 0.116162
-0.040571 0.031627 0.119685
-0.041108 0.032497 0.122975
-0.040800 0.032713 0.123788
-0.040185 0.032686 0.123680
-0.039732 0.032793 0.124075
-0.040229 0.033698 0.127489
-0.040730 0.034634 0.131018
-0.040815 0.035239 0.133294
-0.041007 0.035958 0.135997
-0.040421 0.036006 0.136160
-0.039986 0.036192 0.136846
-0.040200 0.036982 0.139811
-0.040014 0.037423 0.141458
-0.040275 0.038305 0.144768
-0.040400 0.039085 0.147691
-0.056131 0.056242 0.212442
-0.055102 0.056214 0.212296
-0.054368 0.056491 0.213298
-0.053642 0.056788 0.214372
-0.053581 0.057813 0.218195
-0.054067 0.059480 0.224437
-0.053920 0.060502 0.228245
-0.053081 0.060776 0.229223
-0.051794 0.060537 0.228269
-0.050554 0.060343 0.227484
-0.049582 0.060468 0.227900
-0.048617 0.060607 0.228371
-0.047591 0.060675 0.228572
-0.046645 0.060851 0.229178
-0.045841 0.061225 0.230529
-0.045024 0.061598 0.231877
-0.044108 0.061852 0.232774
-0.044344 0.063777 0.239957
-0.043594 0.064347 0.242041
-0.042911 0.065049 0.244622
-0.048553 0.075643 0.284392
-0.047171 0.075588 0.284115
-0.046019 0.075909 0.285250
-0.044775 0.076094 0.285877
-0.043505 0.076244 0.286371
-0.042125 0.076205 0.286154
-0.040812 0.076288 0.286401
-0.039420 0.076225 0.286098
-0.037962 0.076026 0.285282
-0.036636 0.076085 0.285440
-0.035029 0.075544 0.283348
-0.033421 0.074957 0.281084
-0.032138 0.075080 0.281485
-0.027746 0.067635 0.253522
-0.026462 0.067435 0.252720
-0.025262 0.067439 0.252686
-0.024071 0.067472 0.252759
-0.022868 0.067471 0.252709
-0.021618 0.067322 0.252104
-0.020427 0.067352 0.252173
-0.021140 0.074054 0.277222
-0.019740 0.073757 0.276063
-0.018375 0.073557 0.275273
-0.017074 0.073604 0.275409
-0.015654 0.073098 0.273475
-0.014410 0.073404 0.274584
-0.013106 0.073428 0.274642
-0.011142 0.069354 0.259374
-0.009783 0.068496 0.256134
-0.008587 0.068703 0.256882
-0.007404 0.069092 0.258313
-0.006157 0.068927 0.257673
-0.004935 0.069035 0.258057
-0.003750 0.069890 0.261236
-0.002502 0.069868 0.261136
-0.001262 0.070202 0.262368
-0.000010 0.070419 0.263170
0.001246 0.070422 0.263169
0.002565 0.072169 0.269691
0.003833 0.071816 0.268364
0.005210 0.073152 0.273354
0.006490 0.072876 0.272323
0.007738 0.072380 0.270469
0.008960 0.071823 0.268388
0.010246 0.071858 0.268527
0.011610 0.072363 0.270421
0.012783 0.071700 0.267951
0.014164 0.072218 0.269899
0.015545 0.072649 0.271524
0.016846 0.072668 0.271608
0.018200 0.072894 0.272470
0.019422 0.072598 0.271382
0.020939 0.073374 0.274305
0.022192 0.073188 0.273632
0.023014 0.071679 0.268014
0.024876 0.073396 0.274463
0.026242 0.073552 0.275075
0.027138 0.072438 0.270939
0.028350 0.072230 0.270190
0.029083 0.070874 0.265149
0.030359 0.070898 0.265272
0.031620 0.070887 0.265266
0.032771 0.070640 0.264377
0.034066 0.070707 0.264666
0.035340 0.070730 0.264789
0.036636 0.070793 0.265064
0.038076 0.071121 0.266332
0.039449 0.071306 0.267068
0.040725 0.071310 0.267124
0.041953 0.071232 0.266874
0.043149 0.071106 0.266446
0.044607 0.071407 0.267616
0.045747 0.071196 0.266869
0.046850 0.070940 0.265952
0.046501 0.068556 0.257059
0.047465 0.068181 0.255696
0.048838 0.068398 0.256553
0.050043 0.068373 0.256502
0.051447 0.068617 0.257459
0.052759 0.068728 0.257920
0.054023 0.068774 0.258132
0.055805 0.069461 0.260753
0.057679 0.070231 0.263685
0.059250 0.070607 0.265141
0.060891 0.071049 0.266840
0.062272 0.071176 0.267355
0.063666 0.071312 0.267906
0.065181 0.071575 0.268934
0.066663 0.071792 0.269785
0.068002 0.071851 0.270042
0.069486 0.072057 0.270849
0.070834 0.072118 0.271110
0.072075 0.072069 0.270954
0.073288 0.071994 0.270701
0.074177 0.071609 0.269278
0.075354 0.071510 0.268930
0.076523 0.071407 0.268564
0.077073 0.070740 0.266073
0.077030 0.069558 0.261642
0.077916 0.069239 0.260454
0.079181 0.069263 0.260552
0.080268 0.069131 0.260062
0.081826 0.069403 0.261088
0.083488 0.069754 0.262410
0.085551 0.070425 0.264927
0.086842 0.070450 0.265014
0.088692 0.070921 0.266773
0.090699 0.071502 0.268943
0.099221 0.077131 0.290096
0.100922 0.077377 0.290993
0.101354 0.076656 0.288248
0.102949 0.076822 0.288835
0.104665 0.077073 0.289736
0.105891 0.076961 0.289267
0.107153 0.076877 0.288898
0.108659 0.076968 0.289181
0.109933 0.076895 0.288842
0.111219 0.076832 0.288531
0.112632 0.076857 0.288544
0.113890 0.076776 0.288156
0.115216 0.076743 0.287939
0.116764 0.076857 0.288265
0.118293 0.076956 0.288527
0.119652 0.076943 0.288362
0.121100 0.076987 0.288402
0.122738 0.077149 0.288875
0.124447 0.077352 0.289490
0.126215 0.077586 0.290214
0.127790 0.077698 0.290470
0.129182 0.077697 0.290294
0.130633 0.077732 0.290241
0.132067 0.077756 0.290136
0.133518 0.077788 0.290053
0.134945 0.077806 0.289905
0.136542 0.077921 0.290107
0.138105 0.078014 0.290214
0.139701 0.078124 0.290368
0.141339 0.078255 0.290590
0.142864 0.078321 0.290554
0.144330 0.078354 0.290384
0.146093 0.078545 0.290783
0.147703 0.078651 0.290854
0.149221 0.078707 0.290721
0.151682 0.079255 0.292385
0.153124 0.079264 0.292044
0.154491 0.079235 0.291545
-0.045775 0.023368 0.085123
-0.042408 0.027231 0.100969
-0.041628 0.027034 0.100272
-0.040508 0.026608 0.098723
-0.040678 0.027030 0.100319
-0.041088 0.027623 0.102547
-0.041937 0.028529 0.105935
-0.040630 0.029763 0.110623
-0.040805 0.030278 0.112550
-0.040877 0.030730 0.114239
-0.040744 0.031039 0.115390
-0.040232 0.031062 0.115481
-0.039881 0.031212 0.116043
-0.040720 0.032311 0.120127
-0.040748 0.032788 0.121899
-0.040859 0.033347 0.123973
-0.039558 0.032752 0.121757
-0.041234 0.034641 0.128771
-0.040944 0.034910 0.129765
-0.040765 0.035283 0.131141
-0.040459 0.035556 0.132144
-0.039990 0.035693 0.132637
-0.039690 0.035986 0.133712
-0.040916 0.037696 0.140047
-0.040043 0.037496 0.139285
-0.040290 0.038355 0.142455
-0.040225 0.038942 0.144612
-0.056729 0.055865 0.207422
-0.055628 0.055741 0.206926
-0.056059 0.057175 0.212212
-0.055315 0.057441 0.213159
-0.054521 0.057664 0.213944
-0.054169 0.058370 0.216524
-0.054421 0.059769 0.221665
-0.054829 0.061397 0.227656
-0.053365 0.060951 0.225953
-0.052083 0.060699 0.224971
-0.051113 0.060809 0.225328
-0.050322 0.061140 0.226503
-0.049413 0.061340 0.227190
-0.048407 0.061425 0.227453
-0.047469 0.061603 0.228058
-0.046494 0.061739 0.228507
-0.045734 0.062175 0.230067
-0.044980 0.062639 0.231727
-0.044160 0.063033 0.233129
-0.044111 0.064576 0.238779
-0.043284 0.065032 0.240406
-0.049777 0.076807 0.283867
-0.048479 0.076881 0.284072
-0.047477 0.077442 0.286074
-0.046208 0.077586 0.286539
-0.044797 0.077494 0.286130
-0.043468 0.077544 0.286248
-0.042216 0.077737 0.286895
-0.040816 0.077663 0.286553
-0.039305 0.077364 0.285386
-0.037670 0.076793 0.283218
-0.036354 0.076852 0.283374
-0.034647 0.076058 0.280385
-0.033270 0.075956 0.279949
-0.032085 0.076301 0.281162
-0.030711 0.076204 0.280749
-0.029395 0.076254 0.280876
-0.027306 0.074204 0.273273
-0.025927 0.073977 0.272383
-0.024626 0.073960 0.272273
-0.023315 0.073913 0.272051
-0.022410 0.075218 0.276809
-0.021103 0.075256 0.276901
-0.019705 0.074953 0.275744
-0.018343 0.074750 0.274954
-0.017044 0.074797 0.275090
-0.015691 0.074592 0.274296
-0.014342 0.074375 0.273462
-0.013058 0.074484 0.273832
-0.011721 0.074276 0.273035
-0.010395 0.074101 0.272362
-0.009126 0.074342 0.273218
-0.007792 0.074043 0.272096
-0.006483 0.073911 0.271589
-0.005203 0.074126 0.272357
-0.003895 0.073955 0.271708
-0.002597 0.073895 0.271472
-0.001302 0.073870 0.271365
-0.000007 0.073613 0.270409
0.001284 0.073669 0.270604
0.002573 0.073594 0.270320
0.003856 0.073471 0.269862
0.005149 0.073550 0.270147
0.006447 0.073640 0.270476
0.007737 0.073633 0.270451
0.009014 0.073526 0.270060
0.010290 0.073427 0.269703
0.011577 0.073429 0.269717
0.012829 0.073225 0.268974
0.014113 0.073226 0.268991
0.015419 0.073330 0.269385
0.016689 0.073259 0.269137
0.017983 0.073298 0.269298
0.019267 0.073291 0.269290
0.020502 0.073114 0.268658
0.021770 0.073066 0.268504
0.023016 0.072953 0.268112
0.024273 0.072884 0.267882
0.025634 0.073120 0.268777
0.026916 0.073120 0.268805
0.028147 0.072984 0.268337
0.029503 0.073173 0.269060
0.030742 0.073065 0.268698
0.032004 0.073020 0.268565
0.033210 0.072855 0.267991
0.034449 0.072773 0.267726
0.035787 0.072897 0.268219
0.037078 0.072921 0.268344
0.038271 0.072755 0.267774
0.039656 0.072954 0.268545
0.040909 0.072906 0.268409
0.042114 0.072776 0.267971
0.043375 0.072749 0.267912
0.044689 0.072810 0.268179
0.045977 0.072824 0.268275
0.047152 0.072665 0.267731
0.048387 0.072605 0.267551
0.049631 0.072559 0.267426
0.050977 0.072662 0.267849
0.052036 0.072360 0.266777
0.053321 0.072380 0.266892
0.054689 0.072509 0.267410
0.055857 0.072372 0.266946
0.057096 0.072331 0.266837
0.058416 0.072394 0.267107
0.059722 0.072435 0.267299
0.061018 0.072464 0.267444
0.062358 0.072541 0.267767
0.063852 0.072792 0.268728
0.065207 0.072877 0.269080
0.066745 0.073160 0.270158
0.068079 0.073212 0.270381
0.069378 0.073226 0.270462
0.070690 0.073252 0.270588
0.071884 0.073157 0.270265
0.073094 0.073081 0.270009
0.074395 0.073097 0.270092
0.075493 0.072917 0.269446
0.076756 0.072900 0.269399
0.077839 0.072715 0.268731
0.078760 0.072386 0.267530
0.079975 0.072335 0.267348
0.081271 0.072356 0.267432
0.082401 0.072231 0.266976
0.083858 0.072393 0.267574
0.085461 0.072673 0.268605
0.087112 0.072986 0.269753
0.088593 0.073149 0.270346
0.090201 0.073411 0.271298
0.096703 0.077592 0.286729
0.097942 0.077492 0.286335
0.100247 0.078228 0.289022
0.101515 0.078145 0.288679
0.103472 0.078587 0.290271
0.104705 0.078475 0.289811
0.105925 0.078356 0.289319
0.107263 0.078326 0.289152
0.108749 0.078404 0.289374
0.110036 0.078337 0.289060
0.111264 0.078232 0.288592
0.112758 0.078313 0.288810
0.114050 0.078254 0.288499
0.115394 0.078231 0.288317
0.116850 0.078284 0.288407
0.118157 0.078236 0.288119
0.119464 0.078191 0.287829
0.120891 0.078223 0.287818
0.122696 0.078497 0.288687
0.124216 0.078584 0.288860
0.125745 0.078674 0.289034
0.127388 0.078833 0.289452
0.128954 0.078942 0.289673
0.130650 0.079127 0.290165
0.132019 0.079112 0.289911
0.133391 0.079099 0.289654
0.134790 0.079101 0.289442
0.136432 0.079245 0.289737
0.138347 0.079543 0.290581
0.140034 0.079705 0.290914
0.141476 0.079726 0.290716
0.142948 0.079763 0.290566
0.144479 0.079831 0.290516
0.145861 0.079817 0.290149
0.147420 0.079899 0.290117
0.149433 0.080223 0.290946
0.152111 0.080894 0.293015
0.153482 0.080864 0.292524
0.154562 0.080683 0.291470
-0.046074 0.023933 0.085620
-0.045840 0.024026 0.086062
-0.041941 0.027404 0.099834
-0.042182 0.027874 0.101583
-0.043688 0.029201 0.106452
-0.040494 0.027380 0.099847
-0.040382 0.027625 0.100767
-0.040484 0.030177 0.110218
-0.040408 0.030510 0.111448
-0.040311 0.030837 0.112652
-0.039899 0.030928 0.112992
-0.039374 0.030933 0.113016
-0.040788 0.032482 0.118679
-0.041109 0.033193 0.121276
-0.041038 0.033601 0.122770
-0.040823 0.033902 0.123867
-0.040330 0.033977 0.124138
-0.040013 0.034205 0.124965
-0.039862 0.034585 0.126344
-0.040312 0.035504 0.129695
-0.040504 0.036222 0.132304
-0.042013 0.038157 0.139360
-0.041411 0.038207 0.139527
-0.040932 0.038373 0.140118
-0.040263 0.038365 0.140069
-0.040240 0.038981 0.142299
-0.057561 0.056703 0.206965
-0.056658 0.056775 0.207195
-0.056080 0.057181 0.208644
-0.056193 0.058318 0.212756
-0.056146 0.059327 0.216400
-0.055651 0.059893 0.218422
-0.055686 0.061060 0.222636
-0.055533 0.062061 0.226245
-0.053724 0.061217 0.223120
-0.052654 0.061196 0.222998
-0.051676 0.061283 0.223271
-0.050885 0.061601 0.224380
-0.050007 0.061826 0.225150
-0.049152 0.062088 0.226054
-0.048324 0.062397 0.227128
-0.047370 0.062555 0.227652
-0.046376 0.062665 0.228000
-0.045494 0.062936 0.228933
-0.044775 0.063450 0.230748
-0.044099 0.064054 0.232890
-0.043493 0.064792 0.235519
-0.043832 0.067014 0.243537
-0.049501 0.077725 0.282398
-0.048589 0.078410 0.284821
-0.047417 0.078703 0.285818
-0.046099 0.078765 0.285978
-0.044708 0.078701 0.285679
-0.043440 0.078857 0.286179
-0.042147 0.078976 0.286546
-0.040804 0.079006 0.286592
-0.039195 0.078507 0.284717
-0.037603 0.078005 0.282836
-0.036288 0.078065 0.282991
-0.034123 0.076229 0.276280
-0.032678 0.075919 0.275100
-0.031380 0.075940 0.275118
-0.029993 0.075737 0.274328
-0.028640 0.075605 0.273798
-0.027260 0.075386 0.272954
-0.025883 0.075154 0.272065
-0.024584 0.075137 0.271955
-0.023275 0.075089 0.271732
-0.022001 0.075152 0.271915
-0.020700 0.075123 0.271767
-0.019415 0.075156 0.271844
-0.018143 0.075243 0.272120
-0.016842 0.075218 0.271991
-0.015550 0.075233 0.272009
-0.014247 0.075194 0.271832
-0.012948 0.075168 0.271704
-0.011642 0.075090 0.271392
-0.010352 0.075109 0.271432
-0.009072 0.075220 0.271805
-0.007770 0.075160 0.271566
-0.006474 0.075141 0.271472
-0.005189 0.075272 0.271925
-0.003892 0.075252 0.271834
-0.002593 0.075166 0.271508
-0.001296 0.075017 0.270956
-0.000004 0.074981 0.270812
0.001288 0.074989 0.270832
0.002577 0.074911 0.270540
0.003862 0.074815 0.270189
0.005157 0.074904 0.270504
0.006456 0.075006 0.270872
0.007743 0.074950 0.270669
0.009017 0.074812 0.270172
0.010290 0.074690 0.269736
0.011574 0.074675 0.269689
0.012845 0.074585 0.269372
0.014120 0.074529 0.269179
0.015392 0.074469 0.268974
0.016694 0.074554 0.269295
0.017990 0.074599 0.269472
0.019294 0.074670 0.269748
0.020608 0.074767 0.270117
0.021891 0.074749 0.270070
0.023172 0.074723 0.269999
0.024485 0.074799 0.270300
0.025725 0.074657 0.269811
0.027015 0.074664 0.269865
0.028316 0.074701 0.270025
0.029604 0.074701 0.270057
0.030860 0.074624 0.269807
0.032193 0.074732 0.270232
0.033423 0.074602 0.269793
0.034630 0.074430 0.269206
0.035944 0.074492 0.269467
0.037263 0.074561 0.269754
0.038386 0.074246 0.268650
0.039719 0.074344 0.269043
0.040987 0.074318 0.268987
0.042139 0.074091 0.268204
0.043369 0.074008 0.267945
0.044727 0.074142 0.268470
0.045990 0.074117 0.268421
0.047351 0.074246 0.268926
0.048630 0.074243 0.268956
0.049902 0.074229 0.268947
0.051249 0.074326 0.269339
0.052372 0.074099 0.268559
0.053635 0.074078 0.268521
0.054950 0.074128 0.268742
0.056147 0.074018 0.268384
0.057403 0.073992 0.268326
0.058577 0.073861 0.267890
0.059855 0.073865 0.267941
0.061140 0.073876 0.268019
0.062350 0.073799 0.267775
0.063737 0.073931 0.268286
0.065218 0.074163 0.269162
0.066610 0.074288 0.269644
0.067991 0.074396 0.270066
0.069338 0.074462 0.270335
0.070684 0.074525 0.270591
0.071929 0.074482 0.270459
0.073195 0.074461 0.270405
0.074337 0.074318 0.269904
0.075487 0.074186 0.269442
0.076721 0.074141 0.269292
0.077935 0.074077 0.269074
0.079273 0.074132 0.269281
0.080713 0.074278 0.269821
0.082012 0.074293 0.269876
0.083384 0.074371 0.270159
0.084875 0.074552 0.270814
0.086426 0.074780 0.271634
0.087773 0.074826 0.271793
0.089310 0.075031 0.272522
0.090941 0.075307 0.273507
0.097994 0.080003 0.290536
0.099250 0.079901 0.290137
0.100010 0.079408 0.288312
0.101534 0.079526 0.288702
0.103107 0.079679 0.289213
0.104536 0.079718 0.289305
0.105751 0.079596 0.288803
0.107024 0.079519 0.288462
0.108654 0.079705 0.289071
0.109936 0.079636 0.288745
0.111097 0.079481 0.288101
0.112568 0.079549 0.288259
0.113864 0.079493 0.287963
0.115254 0.079503 0.287898
0.116629 0.079503 0.287786
0.118095 0.079564 0.287889
0.119584 0.079638 0.288034
0.121019 0.079676 0.288034
0.122717 0.079883 0.288641
0.124262 0.079988 0.288866
0.125704 0.080025 0.288838
0.127467 0.080263 0.289524
0.128939 0.080314 0.289526
0.130340 0.080320 0.289356
0.131728 0.080318 0.289146
0.133209 0.080372 0.289127
0.134668 0.080412 0.289045
0.136017 0.080387 0.288715
0.137578 0.080485 0.288819
0.139643 0.080874 0.289948
0.141415 0.081086 0.290432
0.142823 0.081088 0.290146
0.144451 0.081213 0.290287
0.145953 0.081265 0.290153
0.148075 0.081658 0.291219
0.149552 0.081692 0.290983
0.151426 0.081940 0.291495
0.152959 0.081999 0.291318
0.154648 0.082141 0.291414
-0.045974 0.024294 0.085375
-0.045325 0.024165 0.085037
-0.044701 0.024049 0.084735
-0.042177 0.028033 0.100370
-0.042146 0.028331 0.101472
-0.043650 0.029678 0.106335
-0.041051 0.028236 0.101198
-0.040319 0.030572 0.109757
-0.040329 0.030976 0.111222
-0.039642 0.030849 0.110775
-0.040434 0.031884 0.114502
-0.040020 0.031983 0.114866
-0.041756 0.033827 0.121493
-0.040396 0.033179 0.119169
-0.041026 0.034171 0.122731
-0.040679 0.034366 0.123431
-0.040310 0.034547 0.124079
-0.039784 0.034596 0.124253
-0.039467 0.034832 0.125096
-0.039339 0.035245 0.126571
-0.040910 0.037216 0.133639
-0.041559 0.038396 0.137866
-0.041978 0.039398 0.141450
-0.041395 0.039477 0.141717
-0.040780 0.039527 0.141881
-0.058052 0.057205 0.205312
-0.057157 0.057277 0.205543
-0.056766 0.057865 0.207623
-0.056601 0.058709 0.210618
-0.056036 0.059159 0.212200
-0.057158 0.061440 0.220344
-0.056938 0.062335 0.223517
-0.055803 0.062245 0.223151
-0.054236 0.061659 0.221011
-0.053212 0.061680 0.221045
-0.052302 0.061837 0.221562
-0.051330 0.061924 0.221830
-0.050479 0.062166 0.222651
-0.049880 0.062733 0.224635
-0.049075 0.063062 0.225765
-0.048143 0.063238 0.226345
-0.047149 0.063339 0.226656
-0.046192 0.063495 0.227166
-0.045311 0.063765 0.228082
-0.044606 0.064304 0.229956
-0.043986 0.064993 0.232370
-0.043311 0.065636 0.234616
-0.043766 0.068069 0.243256
-0.049933 0.079759 0.284968
-0.048631 0.079834 0.285172
-0.047303 0.079872 0.285241
-0.046139 0.080196 0.286336
-0.044705 0.080058 0.285778
-0.043395 0.080138 0.285999
-0.042191 0.080426 0.286965
-0.040748 0.080263 0.286323
-0.039286 0.080050 0.285501
-0.037735 0.079636 0.283962
-0.036416 0.079696 0.284117
-0.034082 0.077455 0.276071
-0.032577 0.076995 0.274377
-0.031108 0.076583 0.272857
-0.029920 0.076862 0.273795
-0.028533 0.076627 0.272909
-0.027128 0.076323 0.271776
-0.025818 0.076266 0.271523
-0.024519 0.076241 0.271386
-0.023229 0.076241 0.271342
-0.021935 0.076228 0.271251
-0.020667 0.076306 0.271485
-0.019400 0.076401 0.271783
-0.018088 0.076320 0.271456
-0.016809 0.076381 0.271634
-0.015513 0.076362 0.271533
-0.014183 0.076160 0.270779
-0.012893 0.076157 0.270736
-0.011587 0.076045 0.270310
-0.010304 0.076073 0.270379
-0.009031 0.076198 0.270797
-0.007737 0.076160 0.270640
-0.006447 0.076151 0.270584
-0.005168 0.076299 0.271091
-0.003879 0.076351 0.271256
-0.002585 0.076327 0.271155
-0.001293 0.076303 0.271054
-0.000001 0.076357 0.271234
0.001290 0.076234 0.270786
0.002588 0.076447 0.271534
0.003880 0.076394 0.271339
0.005178 0.076461 0.271574
0.006479 0.076528 0.271810
0.007778 0.076559 0.271918
0.009059 0.076429 0.271458
0.010352 0.076414 0.271410
0.011654 0.076466 0.271600
0.012935 0.076380 0.271304
0.014224 0.076356 0.271225
0.015519 0.076363 0.271261
0.016842 0.076495 0.271745
0.018136 0.076487 0.271732
0.019425 0.076461 0.271653
0.020711 0.076425 0.271546
0.022029 0.076503 0.271843
0.023274 0.076335 0.271268
0.024524 0.076201 0.270814
0.025821 0.076216 0.270892
0.027042 0.076018 0.270213
0.028265 0.075843 0.269618
0.029588 0.075938 0.269985
0.030874 0.075936 0.270009
0.032177 0.075973 0.270170
0.033445 0.075927 0.270038
0.034611 0.075663 0.269132
0.035986 0.075858 0.269859
0.037347 0.076010 0.270434
0.038498 0.075738 0.269504
0.039843 0.075856 0.269958
0.041196 0.075979 0.270434
0.042340 0.075719 0.269547
0.043627 0.075724 0.269604
0.044901 0.075708 0.269585
0.046153 0.075655 0.269435
0.047521 0.075791 0.269955
0.048780 0.075750 0.269849
0.049917 0.075526 0.269090
0.051386 0.075802 0.270114
0.052542 0.075616 0.269487
0.053659 0.075384 0.268698
0.054984 0.075447 0.268960
0.056249 0.075427 0.268926
0.057482 0.075365 0.268743
0.058632 0.075199 0.268186
0.059938 0.075237 0.268356
0.061182 0.075197 0.268245
0.062530 0.075284 0.268588
0.063848 0.075331 0.268789
0.065145 0.075352 0.268894
0.066581 0.075530 0.269558
0.067893 0.075564 0.269706
0.069172 0.075559 0.269715
0.070577 0.075691 0.270210
0.071901 0.075732 0.270376
0.073271 0.075819 0.270706
0.074421 0.075679 0.270223
0.075698 0.075671 0.270209
0.076998 0.075687 0.270276
0.078406 0.075805 0.270707
0.079951 0.076050 0.271589
0.081261 0.076067 0.271655
0.082857 0.076348 0.272656
0.084117 0.076314 0.272532
0.085576 0.076460 0.273046
0.087101 0.076659 0.273746
0.088469 0.076716 0.273936
0.090107 0.077001 0.274938
0.091348 0.076945 0.274713
0.097864 0.081270 0.290128
0.099120 0.081168 0.289730
0.099925 0.080704 0.288035
0.101489 0.080857 0.288538
0.102849 0.080846 0.288450
0.104312 0.080915 0.288642
0.105604 0.080851 0.288356
0.106757 0.080683 0.287691
0.108658 0.081079 0.289028
0.109996 0.081049 0.288843
0.111288 0.080986 0.288535
0.112652 0.080977 0.288408
0.113952 0.080922 0.288113
0.115308 0.080908 0.287956
0.116722 0.080934 0.287936
0.118102 0.080936 0.287822
0.119458 0.080922 0.287641
0.121059 0.081073 0.288037
0.122691 0.081240 0.288482
0.124111 0.081265 0.288413
0.125808 0.081468 0.288966
0.126842 0.081242 0.287990
0.128900 0.081670 0.289318
0.130187 0.081605 0.288893
0.131773 0.081727 0.289116
0.133165 0.081728 0.288898
0.134384 0.081623 0.288295
0.136057 0.081793 0.288652
0.138353 0.082330 0.290292
0.139680 0.082286 0.289864
0.141339 0.082436 0.290110
0.142867 0.082507 0.290062
0.144258 0.082499 0.289719
0.146016 0.082698 0.290091
0.147700 0.082852 0.290288
0.149721 0.083191 0.291112
0.151157 0.083200 0.290767
0.153068 0.083469 0.291308
0.154596 0.083526 0.291091
-0.046132 0.024790 0.085604
-0.045783 0.024824 0.085837
-0.045468 0.024876 0.086130
-0.041619 0.028132 0.099017
-0.041586 0.028429 0.100099
-0.042812 0.029603 0.104272
-0.041419 0.028972 0.102083
-0.041169 0.031345 0.110628
-0.040702 0.031386 0.110789
-0.040359 0.031525 0.111294
-0.039250 0.031062 0.109672
-0.039571 0.031733 0.112052
-0.042092 0.034210 0.120806
-0.041711 0.034364 0.121358
-0.041122 0.034349 0.121308
-0.040850 0.034602 0.122205
-0.040523 0.034815 0.122959
-0.040353 0.035171 0.124214
-0.039940 0.035321 0.124744
-0.040060 0.035956 0.126982
-0.040927 0.037290 0.131688
-0.040573 0.037536 0.132547
-0.040715 0.038255 0.135076
-0.040938 0.039074 0.137958
-0.041344 0.040098 0.141558
-0.058827 0.057988 0.204697
-0.057937 0.058061 0.204930
-0.057477 0.058576 0.206723
-0.056533 0.058606 0.206799
-0.057138 0.060272 0.212649
-0.056249 0.060392 0.213041
-0.057718 0.063095 0.222541
-0.056872 0.063320 0.223299
-0.055089 0.062491 0.220339
-0.053993 0.062425 0.220066
-0.052979 0.062453 0.220124
-0.052014 0.062541 0.220392
-0.051067 0.062653 0.220747
-0.050182 0.062849 0.221395
-0.049501 0.063314 0.222988
-0.048842 0.063829 0.224753
-0.048034 0.064166 0.225894
-0.047026 0.064246 0.226129
-0.045991 0.064293 0.226245
-0.045169 0.064646 0.227441
-0.044478 0.065209 0.229370
-0.043968 0.066071 0.232354
-0.043517 0.067069 0.235810
-0.051126 0.080868 0.284266
-0.049829 0.080945 0.284474
-0.048443 0.080878 0.284175
-0.047536 0.081630 0.286756
-0.046196 0.081661 0.286801
-0.044808 0.081607 0.286549
-0.043535 0.081765 0.287042
-0.042229 0.081868 0.287342
-0.040840 0.081813 0.287089
-0.039179 0.081190 0.284844
-0.037595 0.080690 0.283030
-0.036280 0.080750 0.283185
-0.034296 0.079268 0.277933
-0.032730 0.078674 0.275794
-0.031606 0.079136 0.277361
-0.030130 0.078719 0.275848
-0.028738 0.078493 0.275006
-0.027344 0.078243 0.274079
-0.026045 0.078251 0.274061
-0.024782 0.078373 0.274441
-0.023484 0.078394 0.274469
-0.022212 0.078506 0.274818
-0.020915 0.078542 0.274902
-0.019582 0.078436 0.274492
-0.018275 0.078431 0.274434
-0.016938 0.078282 0.273877
-0.015618 0.078199 0.273552
-0.014276 0.077976 0.272736
-0.012958 0.077856 0.272285
-0.011641 0.077710 0.271745
-0.010349 0.077727 0.271778
-0.009058 0.077749 0.271829
-0.007774 0.077849 0.272153
-0.006477 0.077833 0.272076
-0.005193 0.078013 0.272683
-0.003895 0.078037 0.272749
-0.002596 0.078021 0.272678
-0.001298 0.078090 0.272904
0.000002 0.077958 0.272431
0.001302 0.078038 0.272699
0.002600 0.077993 0.272534
0.003900 0.078023 0.272634
0.005195 0.077958 0.272401
0.006491 0.077929 0.272298
0.007786 0.077902 0.272203
0.009086 0.077921 0.272268
0.010370 0.077821 0.271925
0.011666 0.077815 0.271907
0.012963 0.077822 0.271937
0.014242 0.077726 0.271613
0.015548 0.077781 0.271813
0.016839 0.077759 0.271749
0.018105 0.077633 0.271324
0.019382 0.077567 0.271110
0.020627 0.077390 0.270507
0.021884 0.077274 0.270120
0.023185 0.077321 0.270305
0.024460 0.077277 0.270172
0.025718 0.077189 0.269889
0.027011 0.077206 0.269975
0.028298 0.077207 0.270004
0.029576 0.077184 0.269949
0.030931 0.077356 0.270580
0.032131 0.077140 0.269855
0.033497 0.077325 0.270531
0.034687 0.077105 0.269794
0.035923 0.077000 0.269459
0.037238 0.077065 0.269717
0.038513 0.077046 0.269685
0.039851 0.077149 0.270081
0.041248 0.077356 0.270842
0.042506 0.077298 0.270674
0.043851 0.077397 0.271058
0.045109 0.077340 0.270894
0.046421 0.077378 0.271065
0.047695 0.077350 0.271004
0.048886 0.077194 0.270494
0.050038 0.076986 0.269801
0.051323 0.076987 0.269840
0.052478 0.076798 0.269213
0.053589 0.076554 0.268396
0.054885 0.076581 0.268525
0.056209 0.076644 0.268780
0.057313 0.076411 0.267998
0.058658 0.076502 0.268349
0.059913 0.076475 0.268285
0.061149 0.076425 0.268142
0.062518 0.076540 0.268575
0.063900 0.076666 0.269045
0.065185 0.076672 0.269094
0.066542 0.076761 0.269432
0.067947 0.076900 0.269946
0.069188 0.076853 0.269804
0.070531 0.076919 0.270055
0.071873 0.076981 0.270291
0.073147 0.076969 0.270267
0.074492 0.077031 0.270497
0.075862 0.077116 0.270808
0.077144 0.077110 0.270796
0.078604 0.077280 0.271399
0.080167 0.077544 0.272328
0.081439 0.077521 0.272250
0.083208 0.077966 0.273808
0.084421 0.077884 0.273513
0.086219 0.078335 0.275088
0.087786 0.078566 0.275885
0.089421 0.078851 0.276868
0.091030 0.079105 0.277736
0.092283 0.079046 0.277503
0.097733 0.082533 0.289712
0.098989 0.082430 0.289314
0.099715 0.081895 0.287395
0.101455 0.082196 0.288403
0.103070 0.082389 0.289027
0.104452 0.082393 0.288984
0.105796 0.082367 0.288829
0.107242 0.082420 0.288945
0.108549 0.082366 0.288680
0.109915 0.082358 0.288567
0.111290 0.082356 0.288472
0.112545 0.082267 0.288064
0.114022 0.082340 0.288216
0.115204 0.082201 0.287616
0.116684 0.082275 0.287759
0.118074 0.082285 0.287665
0.119482 0.082307 0.287606
0.120739 0.082225 0.287177
0.123238 0.082981 0.289664
0.124271 0.082744 0.288676
0.125870 0.082885 0.288995
0.127265 0.082890 0.288830
0.128867 0.083029 0.289120
0.130364 0.083097 0.289154
0.131783 0.083115 0.289002
0.133379 0.083243 0.289220
0.134823 0.083273 0.289089
0.136092 0.083197 0.288574
0.138151 0.083599 0.289706
0.139767 0.083729 0.289879
0.141331 0.083824 0.289919
0.142809 0.083868 0.289763
0.144412 0.083983 0.289842
0.145936 0.084050 0.289740
0.147376 0.084068 0.289451
0.149327 0.084374 0.290136
0.150957 0.084495 0.290166
0.152815 0.084739 0.290602
0.154619 0.084950 0.290900
-0.045867 0.025059 0.085048
-0.045657 0.025168 0.085537
-0.045429 0.025270 0.085995
-0.042540 0.029234 0.101179
-0.042734 0.029701 0.102836
-0.042823 0.030105 0.104273
-0.041481 0.029499 0.102211
-0.040371 0.029047 0.100678
-0.040674 0.031485 0.109285
-0.040459 0.031720 0.110117
-0.040056 0.031811 0.110450
-0.039520 0.031798 0.110417
-0.041678 0.033980 0.118009
-0.041526 0.034313 0.119175
-0.041250 0.034552 0.120012
-0.040494 0.034389 0.119454
-0.040452 0.034837 0.121013
-0.040301 0.035202 0.122284
-0.041338 0.036630 0.127246
-0.040863 0.036741 0.127631
-0.041333 0.037718 0.131021
-0.040694 0.037696 0.130942
-0.040003 0.037626 0.130690
-0.040666 0.038846 0.134922
-0.060241 0.059400 0.206277
-0.058615 0.058743 0.203978
-0.057915 0.059008 0.204878
-0.057475 0.059551 0.206740
-0.057067 0.060147 0.208782
-0.057008 0.061138 0.212194
-0.056434 0.061603 0.213778
-0.055893 0.062120 0.215542
-0.055326 0.062628 0.217270
-0.054459 0.062808 0.217860
-0.053503 0.062892 0.218115
-0.052703 0.063164 0.219023
-0.051839 0.063371 0.219701
-0.050952 0.063556 0.220303
-0.050111 0.063809 0.221136
-0.049325 0.064144 0.222254
-0.048475 0.064407 0.223124
-0.047607 0.064659 0.223952
-0.046736 0.064917 0.224800
-0.045802 0.065098 0.225383
-0.044991 0.065466 0.226610
-0.044296 0.066026 0.228500
-0.043982 0.067197 0.232503
-0.043384 0.067981 0.235167
-0.051343 0.082568 0.285567
-0.050039 0.082646 0.285776
-0.048846 0.082914 0.286642
-0.047467 0.082874 0.286443
-0.046208 0.083049 0.286987
-0.044904 0.083150 0.287275
-0.043490 0.083045 0.286855
-0.042314 0.083406 0.288042
-0.040924 0.083353 0.287801
-0.039274 0.082749 0.285657
-0.037769 0.082419 0.284461
-0.036447 0.082480 0.284616
-0.034415 0.080876 0.279026
-0.032696 0.079908 0.275632
-0.031634 0.080533 0.277738
-0.030067 0.079870 0.275402
-0.028546 0.079277 0.273307
-0.027159 0.079016 0.272361
-0.025806 0.078833 0.271682
-0.024488 0.078743 0.271330
-0.023171 0.078645 0.270948
-0.021872 0.078603 0.270759
-0.020652 0.078857 0.271594
-0.019356 0.078838 0.271491
-0.018057 0.078800 0.271323
-0.016793 0.078922 0.271706
-0.015505 0.078941 0.271738
-0.014196 0.078845 0.271376
-0.012911 0.078886 0.271486
-0.011619 0.078880 0.271435
-0.010325 0.078857 0.271328
-0.009032 0.078848 0.271272
-0.007759 0.079025 0.271859
-0.006466 0.079044 0.271902
-0.005178 0.079139 0.272210
-0.003889 0.079277 0.272665
-0.002589 0.079234 0.272499
-0.001293 0.079294 0.272694
0.000006 0.079231 0.272462
0.001306 0.079370 0.272931
0.002607 0.079410 0.273062
0.003903 0.079304 0.272688
0.005203 0.079327 0.272765
0.006501 0.079307 0.272690
0.007792 0.079222 0.272398
0.009102 0.079327 0.272761
0.010386 0.079209 0.272359
0.011681 0.079195 0.272313
0.012962 0.079090 0.271958
0.014242 0.079005 0.271675
0.015529 0.078964 0.271543
0.016825 0.078975 0.271593
0.018111 0.078937 0.271475
0.019385 0.078860 0.271226
0.020670 0.078831 0.271141
0.021958 0.078816 0.271108
0.023274 0.078899 0.271413
0.024575 0.078921 0.271511
0.025836 0.078822 0.271192
0.027151 0.078891 0.271451
0.028455 0.078919 0.271572
0.029747 0.078915 0.271585
0.031020 0.078861 0.271426
0.032321 0.078880 0.271522
0.033653 0.078972 0.271866
0.034862 0.078777 0.271225
0.036064 0.078582 0.270583
0.037359 0.078595 0.270662
0.038612 0.078522 0.270442
0.039960 0.078640 0.270881
0.041311 0.078758 0.271321
0.042589 0.078731 0.271263
0.043830 0.078641 0.270988
0.045018 0.078464 0.270411
0.046366 0.078566 0.270798
0.047466 0.078256 0.269764
0.048697 0.078170 0.269503
0.050014 0.078224 0.269723
0.051317 0.078255 0.269863
0.052451 0.078031 0.269125
0.053670 0.077942 0.268853
0.054917 0.077897 0.268729
0.056087 0.077746 0.268241
0.057440 0.077851 0.268634
0.058586 0.077677 0.268063
0.059794 0.077589 0.267792
0.061106 0.077638 0.267989
0.062468 0.077747 0.268393
0.063685 0.077675 0.268170
0.065127 0.077874 0.268883
0.066456 0.077934 0.269112
0.067741 0.077940 0.269154
0.069177 0.078116 0.269782
0.070508 0.078170 0.269985
0.071925 0.078316 0.270504
0.073310 0.078421 0.270882
0.074645 0.078471 0.271065
0.076107 0.078650 0.271692
0.077360 0.078610 0.271560
0.078994 0.078953 0.272748
0.080378 0.079039 0.273044
0.081882 0.079237 0.273727
0.083536 0.079573 0.274880
0.085103 0.079816 0.275711
0.086828 0.080199 0.277018
0.088495 0.080517 0.278098
0.090000 0.080679 0.278639
0.091343 0.080695 0.278668
0.092739 0.080755 0.278846
0.098136 0.084249 0.290874
0.099398 0.084146 0.290475
0.098859 0.082541 0.284890
0.101294 0.083429 0.287904
0.102935 0.083648 0.288603
0.104485 0.083788 0.289025
0.105722 0.083677 0.288572
0.107121 0.083695 0.288561
0.108477 0.083679 0.288426
0.109908 0.083721 0.288484
0.111215 0.083669 0.288208
0.112731 0.083772 0.288464
0.114120 0.083780 0.288384
0.115443 0.083740 0.288129
0.116844 0.083757 0.288063
0.118244 0.083772 0.287984
0.119780 0.083883 0.288224
0.121659 0.084228 0.289261
0.123087 0.084256 0.289199
0.124335 0.084163 0.288711
0.125857 0.084254 0.288845
0.127228 0.084244 0.288623
0.128725 0.084316 0.288671
0.130208 0.084377 0.288673
0.131642 0.084406 0.288550
0.133307 0.084580 0.288915
0.134797 0.084641 0.288880
0.136028 0.084540 0.288279
0.137797 0.084772 0.288800
0.139429 0.084915 0.289006
0.141140 0.085103 0.289347
0.142614 0.085145 0.289182
0.144273 0.085297 0.289370
0.146100 0.085543 0.289863
0.147817 0.085721 0.290108
0.149597 0.085932 0.290444
0.151642 0.086289 0.291257
0.153493 0.086530 0.291657
0.155195 0.086684 0.291741
-0.045854 0.025463 0.084958
-0.045463 0.025473 0.085111
-0.045203 0.025557 0.085505
-0.044577 0.025433 0.085202
-0.042519 0.029699 0.101099
-0.042567 0.030070 0.102405
-0.042481 0.030354 0.103411
-0.041414 0.029935 0.102022
-0.040323 0.029489 0.100535
-0.040371 0.031366 0.107079
-0.040579 0.031926 0.109012
-0.040753 0.032474 0.110903
-0.040376 0.032591 0.111319
-0.039550 0.032344 0.110489
-0.041230 0.034166 0.116729
-0.040290 0.033838 0.115620
-0.040797 0.034733 0.118687
-0.040157 0.034663 0.118455
-0.040536 0.035482 0.121259
-0.040410 0.035876 0.122612
-0.040763 0.036714 0.125476
-0.040934 0.037409 0.127855
-0.041059 0.038083 0.130155
-0.040760 0.038377 0.131158
-0.040193 0.038426 0.131319
-0.061059 0.060225 0.205797
-0.060166 0.060300 0.206038
-0.059112 0.060214 0.205726
-0.058278 0.060353 0.206184
-0.057437 0.060490 0.206629
-0.056641 0.060678 0.207251
-0.056069 0.061119 0.208729
-0.056217 0.062373 0.212987
-0.055503 0.062700 0.214073
-0.054715 0.062953 0.214906
-0.053962 0.063257 0.215913
-0.053092 0.063433 0.216480
-0.052318 0.063734 0.217470
-0.051509 0.064001 0.218346
-0.050621 0.064181 0.218923
-0.049823 0.064484 0.219918
-0.049078 0.064870 0.221193
-0.048429 0.065404 0.222970
-0.047500 0.065574 0.223508
-0.046598 0.065789 0.224197
-0.045675 0.065985 0.224822
-0.044909 0.066422 0.226266
-0.044315 0.067140 0.228668
-0.043805 0.068026 0.231639
-0.043518 0.069313 0.235973
-0.051363 0.083960 0.285780
-0.050059 0.084038 0.285988
-0.048809 0.084214 0.286527
-0.047445 0.084198 0.286415
-0.046132 0.084275 0.286618
-0.044837 0.084391 0.286954
-0.043470 0.084373 0.286836
-0.042186 0.084521 0.287282
-0.040813 0.084495 0.287137
-0.039368 0.084315 0.286467
-0.037592 0.083385 0.283253
-0.036276 0.083446 0.283407
-0.034658 0.082789 0.281121
-0.032827 0.081551 0.276866
-0.031715 0.082071 0.278581
-0.030249 0.081680 0.277207
-0.028801 0.081303 0.275880
-0.027385 0.080987 0.274759
-0.025998 0.080729 0.273840
-0.024659 0.080603 0.273367
-0.023361 0.080601 0.273318
-0.022063 0.080602 0.273280
-0.020778 0.080651 0.273407
-0.019418 0.080399 0.272516
-0.018158 0.080551 0.272992
-0.016855 0.080523 0.272863
-0.015540 0.080433 0.272523
-0.014189 0.080119 0.271430
-0.012899 0.080120 0.271402
-0.011596 0.080032 0.271076
-0.010297 0.079962 0.270813
-0.009010 0.079972 0.270819
-0.007725 0.080001 0.270894
-0.006450 0.080171 0.271448
-0.005157 0.080148 0.271352
-0.003875 0.080361 0.272055
-0.002583 0.080439 0.272303
-0.001288 0.080486 0.272448
0.000009 0.080589 0.272783
0.001308 0.080586 0.272765
0.002608 0.080634 0.272917
0.003904 0.080562 0.272667
0.005208 0.080647 0.272952
0.006504 0.080599 0.272784
0.007812 0.080695 0.273108
0.009117 0.080737 0.273249
0.010422 0.080760 0.273330
0.011709 0.080655 0.272981
0.013005 0.080630 0.272900
0.014277 0.080477 0.272391
0.015556 0.080380 0.272070
0.016849 0.080366 0.272035
0.018091 0.080129 0.271245
0.019383 0.080125 0.271247
0.020684 0.080163 0.271389
0.021940 0.080027 0.270946
0.023256 0.080116 0.271266
0.024741 0.080747 0.273420
0.026031 0.080708 0.273312
0.027178 0.080250 0.271783
0.028606 0.080629 0.273089
0.029791 0.080317 0.272056
0.031016 0.080135 0.271466
0.032245 0.079976 0.270955
0.033655 0.080261 0.271947
0.034916 0.080184 0.271715
0.036085 0.079907 0.270808
0.037400 0.079963 0.271026
0.038589 0.079754 0.270348
0.040047 0.080095 0.271536
0.041309 0.080036 0.271369
0.042533 0.079910 0.270973
0.043766 0.079807 0.270654
0.044733 0.079238 0.268757
0.045861 0.078977 0.267906
0.046910 0.078599 0.266656
0.048095 0.078463 0.266226
0.049247 0.078281 0.265641
0.050615 0.078443 0.266221
0.051983 0.078597 0.266775
0.053221 0.078550 0.266648
0.054640 0.078769 0.267420
0.055853 0.078685 0.267165
0.057355 0.079005 0.268280
0.058543 0.078886 0.267906
0.059861 0.078944 0.268129
0.061197 0.079023 0.268424
0.062566 0.079141 0.268848
0.063901 0.079211 0.269111
0.065310 0.079368 0.269665
0.066551 0.079319 0.269520
0.067773 0.079250 0.269303
0.069194 0.079411 0.269868
0.070454 0.079386 0.269798
0.071813 0.079471 0.270098
0.073083 0.079455 0.270056
0.074252 0.079332 0.269646
0.075632 0.079436 0.270002
0.076711 0.079224 0.269286
0.078237 0.079473 0.270134
0.079570 0.079522 0.270296
0.081232 0.079893 0.271550
0.082848 0.080207 0.272609
0.084717 0.080752 0.274448
0.086401 0.081108 0.275640
0.088015 0.081388 0.276572
0.089508 0.081549 0.277094
0.091129 0.081821 0.277988
0.092945 0.082257 0.279435
0.098374 0.085834 0.291546
0.099641 0.085730 0.291147
0.099569 0.084492 0.286895
0.101439 0.084913 0.288270
0.103154 0.085196 0.289168
0.104550 0.085210 0.289149
0.105726 0.085047 0.288526
0.107248 0.085163 0.288839
0.108597 0.085141 0.288678
0.109948 0.085120 0.288516
0.111349 0.085138 0.288478
0.112732 0.085142 0.288387
0.114127 0.085155 0.288317
0.115451 0.085115 0.288060
0.116794 0.085089 0.287846
0.118543 0.085357 0.288615
0.119990 0.085403 0.288625
0.121676 0.085617 0.289191
0.122982 0.085561 0.288839
0.124432 0.085605 0.288816
0.125966 0.085706 0.288972
0.127322 0.085684 0.288706
0.128794 0.085740 0.288689
0.130272 0.085798 0.288672
0.131877 0.085939 0.288918
0.133387 0.086014 0.288934
0.135130 0.086237 0.289432
0.136604 0.086285 0.289332
0.138400 0.086534 0.289889
0.139673 0.086454 0.289331
0.141191 0.086525 0.289266
0.142790 0.086644 0.289346
0.144786 0.086999 0.290197
0.146318 0.087071 0.290086
0.148390 0.087460 0.291014
0.150130 0.087648 0.291253
0.151533 0.087637 0.290814
0.153386 0.087884 0.291212
0.155064 0.088026 0.291243
-0.045659 0.025764 0.084527
-0.045524 0.025919 0.085156
-0.045301 0.026026 0.085625
-0.042214 0.029962 0.100343
-0.042275 0.030346 0.101674
-0.041757 0.030318 0.101621
-0.040788 0.029959 0.100454
-0.040422 0.030039 0.100758
-0.041641 0.032471 0.109043
-0.041670 0.032899 0.110507
-0.041627 0.033280 0.111810
-0.041057 0.033245 0.111714
-0.040231 0.032999 0.110905
-0.040660 0.033789 0.113579
-0.040729 0.034297 0.115302
-0.040911 0.034915 0.117392
-0.040685 0.035197 0.118353
-0.040467 0.035494 0.119360
-0.040581 0.036095 0.121389
-0.042808 0.038619 0.129883
-0.042426 0.038828 0.130591
-0.041513 0.038551 0.129660
-0.041204 0.038835 0.130616
-0.040711 0.038950 0.131004
-0.060942 0.060127 0.202216
-0.059441 0.059576 0.200353
-0.058535 0.059613 0.200467
-0.059080 0.061154 0.205633
-0.058263 0.061313 0.206151
-0.057484 0.061517 0.206819
-0.056526 0.061534 0.206855
-0.055833 0.061845 0.207877
-0.055180 0.062212 0.209088
-0.055233 0.063403 0.213064
-0.054417 0.063622 0.213772
-0.053591 0.063838 0.214468
-0.052884 0.064207 0.215674
-0.052072 0.064459 0.216489
-0.051336 0.064818 0.217661
-0.050495 0.065056 0.218425
-0.049733 0.065408 0.219570
-0.049070 0.065908 0.221210
-0.048269 0.066242 0.222289
-0.047397 0.066490 0.223082
-0.046521 0.066743 0.223890
-0.045563 0.066888 0.224334
