ply
format ascii 1.0
element vertex 1679
property float x
property float y
property float z
end_header
-0.105212 -0.012231 0.289577
-0.103718 -0.012216 0.289130
-0.102418 -0.012222 0.289214
-0.100973 -0.012212 0.288887
-0.099728 -0.012226 0.289130
-0.096869 -0.012040 0.284634
-0.097141 -0.012243 0.289342
-0.096793 -0.012373 0.292307
-0.095648 -0.012403 0.292913
-0.094441 -0.012425 0.293343
-0.093222 -0.012447 0.293751
-0.091874 -0.012452 0.293760
-0.090370 -0.012436 0.293262
-0.088814 -0.012412 0.292580
-0.086897 -0.012336 0.290670
-0.085431 -0.012323 0.290236
-0.084236 -0.012349 0.290722
-0.082548 -0.012303 0.289501
-0.081223 -0.012310 0.289534
-0.080299 -0.012379 0.291026
-0.078959 -0.012385 0.291040
-0.077709 -0.012406 0.291394
-0.076613 -0.012452 0.292353
-0.075742 -0.012538 0.294221
-0.074462 -0.012557 0.294547
-0.070899 -0.012186 0.285691
-0.070037 -0.012273 0.287593
-0.068782 -0.012293 0.287934
-0.067537 -0.012316 0.288332
-0.066191 -0.012321 0.288309
-0.064908 -0.012339 0.288576
-0.063623 -0.012356 0.288853
-0.062350 -0.012377 0.289199
-0.060979 -0.012379 0.289108
-0.059611 -0.012382 0.289033
-0.058350 -0.012408 0.289492
-0.056852 -0.012383 0.288780
-0.055523 -0.012395 0.288915
-0.054231 -0.012416 0.289269
-0.052823 -0.012411 0.289013
-0.051531 -0.012433 0.289402
-0.050201 -0.012448 0.289604
-0.048846 -0.012457 0.289683
-0.040090 -0.012331 0.286011
-0.038196 -0.012167 0.282085
-0.036845 -0.012169 0.282031
-0.036317 -0.012455 0.288532
-0.031382 -0.011191 0.259160
-0.029975 -0.011133 0.257717
-0.028953 -0.011219 0.259620
-0.027614 -0.011184 0.258729
-0.026535 -0.011257 0.260322
-0.025252 -0.011246 0.259987
-0.023914 -0.011208 0.259026
-0.022661 -0.011209 0.258953
-0.021536 -0.011275 0.260420
-0.020223 -0.011247 0.259682
-0.018731 -0.011107 0.256396
-0.018180 -0.011546 0.266461
-0.017068 -0.011669 0.269232
-0.015852 -0.011735 0.270685
-0.014547 -0.011741 0.270758
-0.012552 -0.011136 0.256763
-0.011400 -0.011229 0.258853
-0.010128 -0.011210 0.258385
-0.008867 -0.011202 0.258152
-0.007630 -0.011226 0.258672
-0.006376 -0.011229 0.258711
-0.005126 -0.011243 0.258999
-0.003874 -0.011261 0.259397
-0.002615 -0.011268 0.259522
-0.001360 -0.011316 0.260620
-0.000094 -0.011348 0.261330
0.001187 -0.011460 0.263899
0.002470 -0.011458 0.263847
0.003850 -0.011758 0.270755
0.005166 -0.011757 0.270733
0.006393 -0.011595 0.267019
0.007683 -0.011583 0.266756
0.008970 -0.011571 0.266485
0.010224 -0.011524 0.265420
0.011467 -0.011477 0.264365
0.012774 -0.011497 0.264853
0.014075 -0.011509 0.265146
0.015385 -0.011525 0.265542
0.016714 -0.011551 0.266188
0.018044 -0.011575 0.266780
0.019337 -0.011573 0.266776
0.020611 -0.011561 0.266547
0.021642 -0.011422 0.263390
0.022893 -0.011408 0.263123
0.035611 -0.011812 0.273104
0.035885 -0.011477 0.265431
0.037126 -0.011463 0.265197
0.038371 -0.011451 0.265013
0.039587 -0.011432 0.264659
0.040539 -0.011340 0.262624
0.041401 -0.011230 0.260154
0.042440 -0.011172 0.258915
0.043477 -0.011117 0.257741
0.044448 -0.011049 0.256257
0.045615 -0.011032 0.255954
0.046905 -0.011045 0.256352
0.048097 -0.011035 0.256213
0.049293 -0.011026 0.256108
0.050616 -0.011045 0.256654
0.051858 -0.011046 0.256782
0.053224 -0.011073 0.257509
0.054568 -0.011094 0.258104
0.055909 -0.011113 0.258665
0.058551 -0.011385 0.265096
0.060580 -0.011529 0.268545
0.062117 -0.011574 0.269722
0.063506 -0.011591 0.270229
0.064820 -0.011594 0.270406
0.066135 -0.011597 0.270582
0.067522 -0.011612 0.271043
0.068794 -0.011608 0.271041
0.070066 -0.011603 0.271042
0.071355 -0.011601 0.271110
0.072632 -0.011598 0.271132
0.073853 -0.011585 0.270949
0.075059 -0.011571 0.270722
0.076320 -0.011566 0.270700
0.077590 -0.011562 0.270711
0.078863 -0.011559 0.270736
0.080217 -0.011568 0.271033
0.081504 -0.011567 0.271098
0.082989 -0.011593 0.271813
0.084451 -0.011616 0.272431
0.086064 -0.011658 0.273510
0.087367 -0.011658 0.273586
0.088983 -0.011699 0.274626
0.090886 -0.011776 0.276511
0.096669 -0.012346 0.289979
0.100530 -0.012658 0.297387
0.101777 -0.012637 0.296963
0.103288 -0.012649 0.297310
0.104105 -0.012577 0.295674
0.105811 -0.012612 0.296571
0.104307 -0.012269 0.288560
0.106348 -0.012347 0.290435
0.107692 -0.012342 0.290377
0.109561 -0.012398 0.291717
0.110833 -0.012385 0.291447
0.111966 -0.012357 0.290821
0.113417 -0.012364 0.291017
0.114684 -0.012352 0.290739
0.116352 -0.012382 0.291468
0.117619 -0.012370 0.291181
0.118803 -0.012349 0.290690
0.120166 -0.012347 0.290637
0.121648 -0.012358 0.290862
0.123173 -0.012372 0.291178
0.124580 -0.012374 0.291201
0.125963 -0.012374 0.291161
0.127253 -0.012365 0.290902
0.128614 -0.012363 0.290798
0.130060 -0.012369 0.290879
0.131968 -0.012419 0.291969
0.133171 -0.012401 0.291483
0.134379 -0.012385 0.291008
0.136652 -0.012466 0.292814
0.138019 -0.012464 0.292650
0.139342 -0.012457 0.292382
0.140743 -0.012458 0.292271
0.142090 -0.012454 0.292037
0.143524 -0.012458 0.291972
0.145088 -0.012473 0.292155
0.146783 -0.012498 0.292581
0.148022 -0.012485 0.292084
0.149697 -0.012509 0.292431
0.151073 -0.012507 0.292176
0.151776 -0.012450 0.290621
-0.154253 -0.010978 0.290885
-0.152796 -0.010971 0.290923
-0.151639 -0.010986 0.291521
-0.150328 -0.010990 0.291815
-0.148806 -0.010979 0.291688
-0.146918 -0.010940 0.290819
-0.145361 -0.010925 0.290580
-0.143650 -0.010899 0.290012
-0.142548 -0.010918 0.290661
-0.141132 -0.010914 0.290665
-0.139860 -0.010921 0.290956
-0.138484 -0.010920 0.291024
-0.137211 -0.010926 0.291300
-0.135915 -0.010932 0.291523
-0.134291 -0.010911 0.291027
-0.131050 -0.010756 0.286972
-0.127425 -0.010567 0.281973
-0.136508 -0.011439 0.305277
-0.135301 -0.011457 0.305814
-0.137299 -0.011751 0.313678
-0.134597 -0.011644 0.310848
-0.123091 -0.010765 0.287393
-0.121689 -0.010760 0.287264
-0.120281 -0.010754 0.287110
-0.119360 -0.010792 0.288123
-0.118168 -0.010806 0.288490
-0.116861 -0.010810 0.288577
-0.115581 -0.010817 0.288728
-0.114340 -0.010828 0.288979
-0.113164 -0.010845 0.289395
-0.111771 -0.010841 0.289256
-0.110420 -0.010841 0.289218
-0.109166 -0.010852 0.289434
-0.107885 -0.010859 0.289581
-0.106462 -0.010853 0.289340
-0.105156 -0.010858 0.289416
-0.103817 -0.010860 0.289398
-0.102623 -0.010878 0.289787
-0.101298 -0.010882 0.289808
-0.099459 -0.010830 0.288338
-0.097286 -0.010740 0.285848
-0.097895 -0.010958 0.291574
-0.097624 -0.011083 0.294804
-0.096445 -0.011107 0.295339
-0.095229 -0.011128 0.295778
-0.093860 -0.011131 0.295748
-0.092514 -0.011137 0.295791
-0.091007 -0.011123 0.295313
-0.089124 -0.011063 0.293584
-0.087248 -0.011001 0.291827
-0.085819 -0.010995 0.291534
-0.084037 -0.010942 0.290019
-0.082717 -0.010949 0.290074
-0.081305 -0.010944 0.289807
-0.080028 -0.010957 0.290027
-0.078878 -0.010988 0.290720
-0.077532 -0.010993 0.290711
-0.076499 -0.011043 0.291895
-0.075341 -0.011076 0.292644
-0.074704 -0.011189 0.295484
-0.069682 -0.010637 0.280766
-0.069895 -0.010878 0.286991
-0.068760 -0.010914 0.287816
-0.067491 -0.010931 0.288111
-0.066160 -0.010938 0.288149
-0.064960 -0.010967 0.288785
-0.063674 -0.010983 0.289058
-0.062325 -0.010988 0.289060
-0.061054 -0.011008 0.289437
-0.059735 -0.011020 0.289606
-0.058234 -0.010998 0.288890
-0.056881 -0.011003 0.288898
-0.055550 -0.011013 0.289030
-0.054206 -0.011022 0.289106
-0.052877 -0.011033 0.289281
-0.051542 -0.011045 0.289437
-0.050235 -0.011062 0.289769
-0.040114 -0.010958 0.286151
-0.038130 -0.010786 0.281562
-0.036970 -0.010844 0.282957
-0.036353 -0.011072 0.288778
-0.031965 -0.010123 0.263938
-0.030020 -0.009902 0.258077
-0.028861 -0.009932 0.258758
-0.027682 -0.009957 0.259338
-0.026403 -0.009947 0.258991
-0.025194 -0.009965 0.259352
-0.023958 -0.009972 0.259470
-0.022727 -0.009983 0.259663
-0.021470 -0.009983 0.259592
-0.020227 -0.009989 0.259687
-0.018953 -0.009981 0.259396
-0.018061 -0.010187 0.264686
-0.017115 -0.010391 0.269930
-0.015949 -0.010485 0.272306
-0.014636 -0.010490 0.272379
-0.012646 -0.009963 0.258638
-0.011384 -0.009957 0.258431
-0.010115 -0.009943 0.258027
-0.008853 -0.009932 0.257699
-0.007612 -0.009946 0.258013
-0.006356 -0.009941 0.257852
-0.005104 -0.009941 0.257838
-0.003857 -0.009955 0.258176
-0.002601 -0.009950 0.258022
-0.001350 -0.009974 0.258618
-0.000094 -0.009994 0.259127
0.001188 -0.010189 0.264181
0.002468 -0.010170 0.263676
0.003866 -0.010486 0.271852
0.005187 -0.010485 0.271830
0.006473 -0.010428 0.270364
0.007796 -0.010440 0.270684
0.009122 -0.010450 0.270971
0.010386 -0.010398 0.269626
0.011650 -0.010356 0.268554
0.012972 -0.010369 0.268933
0.014298 -0.010383 0.269318
0.015577 -0.010363 0.268833
0.016889 -0.010366 0.268960
0.018231 -0.010386 0.269522
0.019779 -0.010513 0.272845
0.020765 -0.010344 0.268503
0.022133 -0.010374 0.269333
0.023872 -0.010565 0.274350
0.036126 -0.010261 0.267182
0.037457 -0.010271 0.267534
0.038713 -0.010261 0.267356
0.039732 -0.010190 0.265607
0.041007 -0.010188 0.265634
0.041646 -0.010032 0.261672
0.042664 -0.009975 0.260258
0.043702 -0.009925 0.259052
0.044439 -0.009811 0.256181
0.045640 -0.009803 0.256073
0.046842 -0.009796 0.255988
0.048050 -0.009791 0.255942
0.049308 -0.009795 0.256161
0.050595 -0.009805 0.256529
0.051926 -0.009823 0.257095
0.053381 -0.009863 0.258245
0.054819 -0.009898 0.259270
0.056165 -0.009916 0.259831
0.058267 -0.010063 0.263790
0.060568 -0.010237 0.268472
0.062249 -0.010302 0.270279
0.063357 -0.010271 0.269575
0.064822 -0.010298 0.270393
0.066179 -0.010307 0.270742
0.067481 -0.010307 0.270863
0.068761 -0.010304 0.270893
0.070102 -0.010310 0.271161
0.071343 -0.010302 0.271045
0.072627 -0.010300 0.271098
0.073922 -0.010299 0.271189
0.075140 -0.010288 0.271000
0.076321 -0.010273 0.270692
0.077742 -0.010290 0.271230
0.078900 -0.010271 0.270849
0.080249 -0.010278 0.271128
0.081714 -0.010300 0.271786
0.083119 -0.010313 0.272227
0.084570 -0.010332 0.272802
0.086077 -0.010356 0.273539
0.087911 -0.010419 0.275279
0.089061 -0.010400 0.274858
0.090993 -0.010471 0.276827
0.092914 -0.010540 0.278707
0.096994 -0.010847 0.286917
0.101797 -0.011226 0.297013
0.103308 -0.011237 0.297360
0.104242 -0.011185 0.296056
0.108093 -0.011444 0.302961
0.110853 -0.011582 0.306666
0.110715 -0.011417 0.302355
0.106828 -0.010875 0.288044
0.108301 -0.010885 0.288357
0.109729 -0.010891 0.288541
0.112030 -0.010982 0.290984
0.113358 -0.010977 0.290864
0.114949 -0.010997 0.291412
0.116774 -0.011038 0.292525
0.117833 -0.011008 0.291709
0.119144 -0.011001 0.291524
0.120434 -0.010992 0.291286
0.121614 -0.010974 0.290782
0.123042 -0.010978 0.290870
0.124496 -0.010984 0.291008
0.126189 -0.011011 0.291687
0.127536 -0.011008 0.291554
0.128988 -0.011014 0.291650
0.130737 -0.011044 0.292399
0.132147 -0.011046 0.292372
0.133274 -0.011025 0.291717
0.134862 -0.011041 0.292062
0.136502 -0.011061 0.292501
0.137844 -0.011057 0.292287
0.139059 -0.011044 0.291799
0.140530 -0.011050 0.291839
0.141872 -0.011046 0.291602
0.144084 -0.011110 0.293123
0.145288 -0.011095 0.292571
0.146604 -0.011089 0.292239
0.147824 -0.011076 0.291708
0.149292 -0.011082 0.291655
0.150460 -0.011065 0.291009
0.151603 -0.011047 0.290308
-0.154380 -0.009606 0.291138
-0.152933 -0.009601 0.291196
-0.151519 -0.009598 0.291304
-0.150324 -0.009608 0.291821
-0.148412 -0.009573 0.290927
-0.146682 -0.009549 0.290363
-0.145449 -0.009557 0.290766
-0.143854 -0.009542 0.290433
-0.142512 -0.009543 0.290597
-0.141289 -0.009552 0.290997
-0.139911 -0.009551 0.291070
-0.138517 -0.009549 0.291101
-0.137255 -0.009556 0.291401
-0.135417 -0.009522 0.290459
-0.133800 -0.009504 0.289969
-0.128332 -0.009208 0.281026
-0.129072 -0.009357 0.285621
-0.137286 -0.010057 0.307021
-0.136072 -0.010073 0.307561
-0.136812 -0.010236 0.312567
-0.133827 -0.010121 0.309071
-0.123220 -0.009420 0.287696
-0.122007 -0.009431 0.288014
-0.120845 -0.009445 0.288456
-0.119454 -0.009442 0.288349
-0.118418 -0.009467 0.289099
-0.117039 -0.009465 0.289016
-0.115411 -0.009442 0.288303
-0.114253 -0.009458 0.288754
-0.112997 -0.009466 0.288965
-0.111641 -0.009466 0.288914
-0.110310 -0.009468 0.288925
-0.109156 -0.009485 0.289402
-0.107868 -0.009491 0.289528
-0.106261 -0.009469 0.288789
-0.104682 -0.009449 0.288105
-0.103494 -0.009464 0.288488
-0.101591 -0.009413 0.286864
-0.100657 -0.009452 0.287966
-0.099415 -0.009462 0.288202
-0.097650 -0.009423 0.286909
-0.097756 -0.009565 0.291151
-0.097344 -0.009660 0.293947
-0.096172 -0.009682 0.294494
-0.095142 -0.009718 0.295498
-0.093833 -0.009727 0.295650
-0.092222 -0.009704 0.294846
-0.090929 -0.009714 0.295047
-0.089222 -0.009680 0.293895
-0.087454 -0.009638 0.292501
-0.086004 -0.009631 0.292148
-0.084520 -0.009619 0.291670
-0.082958 -0.009598 0.290904
-0.081517 -0.009591 0.290549
-0.080193 -0.009597 0.290607
-0.078938 -0.009612 0.290923
-0.077570 -0.009613 0.290832
-0.076342 -0.009632 0.291277
-0.075407 -0.009690 0.292879
-0.074721 -0.009782 0.295529
-0.071762 -0.009575 0.289128
-0.069893 -0.009507 0.286960
-0.068686 -0.009529 0.287485
-0.067589 -0.009568 0.288506
-0.066245 -0.009572 0.288501
-0.064931 -0.009581 0.288633
-0.063698 -0.009603 0.289142
-0.062408 -0.009617 0.289419
-0.061055 -0.009621 0.289419
-0.059736 -0.009632 0.289590
-0.058323 -0.009627 0.289305
-0.056902 -0.009621 0.288977
-0.055600 -0.009635 0.289262
-0.054273 -0.009645 0.289435
-0.052891 -0.009646 0.289327
-0.051559 -0.009656 0.289503
-0.050227 -0.009667 0.289700
-0.041344 -0.009543 0.285214
-0.040064 -0.009565 0.285767
-0.038263 -0.009460 0.282510
-0.036946 -0.009471 0.282738
-0.036363 -0.009679 0.288827
-0.032072 -0.008877 0.264796
-0.030083 -0.008672 0.258589
-0.028874 -0.008684 0.258850
-0.027652 -0.008693 0.259018
-0.026424 -0.008701 0.259172
-0.025190 -0.008707 0.259277
-0.023774 -0.008648 0.257438
-0.022635 -0.008689 0.258577
-0.021501 -0.008737 0.259930
-0.020209 -0.008723 0.259422
-0.018980 -0.008736 0.259740
-0.017905 -0.008826 0.262362
-0.017154 -0.009102 0.270503
-0.015934 -0.009155 0.272000
-0.014622 -0.009159 0.272074
-0.012604 -0.008679 0.257753
-0.011396 -0.008711 0.258664
-0.010125 -0.008698 0.258232
-0.008866 -0.008692 0.258024
-0.007619 -0.008700 0.258205
-0.006362 -0.008695 0.258029
-0.005109 -0.008696 0.258045
-0.003858 -0.008703 0.258202
-0.002603 -0.008702 0.258176
-0.001352 -0.008723 0.258783
-0.000094 -0.008726 0.258840
0.001177 -0.008821 0.261641
0.002452 -0.008832 0.261982
0.003883 -0.009206 0.273058
0.005210 -0.009205 0.273036
0.006507 -0.009162 0.271753
0.007849 -0.009186 0.272477
0.009173 -0.009185 0.272469
0.010511 -0.009196 0.272830
0.011806 -0.009172 0.272136
0.013144 -0.009183 0.272476
0.014487 -0.009194 0.272850
0.015785 -0.009178 0.272406
0.017108 -0.009178 0.272428
0.018488 -0.009205 0.273288
0.019874 -0.009232 0.274133
0.020823 -0.009066 0.269235
0.022314 -0.009141 0.271519
0.023879 -0.009236 0.274397
0.025670 -0.009404 0.279451
0.026577 -0.009248 0.274862
0.027891 -0.009241 0.274732
0.029160 -0.009221 0.274195
0.030466 -0.009213 0.274053
0.031769 -0.009206 0.273905
0.032883 -0.009146 0.272205
0.034136 -0.009128 0.271754
0.035420 -0.009120 0.271590
0.036135 -0.008971 0.267227
0.037449 -0.008975 0.267456
0.038272 -0.008866 0.264285
0.039527 -0.008861 0.264211
0.040795 -0.008858 0.264240
0.041847 -0.008811 0.262912
0.042629 -0.008711 0.260021
0.043816 -0.008697 0.259706
0.044659 -0.008618 0.257430
0.045785 -0.008596 0.256869
0.046969 -0.008585 0.256659
0.048141 -0.008573 0.256404
0.049507 -0.008596 0.257175
0.050907 -0.008623 0.258090
0.052337 -0.008654 0.259114
0.053880 -0.008701 0.260644
0.055268 -0.008722 0.261378
0.056841 -0.008771 0.262937
0.058395 -0.008814 0.264355
0.060753 -0.008975 0.269276
0.062341 -0.009017 0.270661
0.063572 -0.009008 0.270474
0.064839 -0.009003 0.270447
0.066207 -0.009013 0.270842
0.067499 -0.009012 0.270920
0.068813 -0.009013 0.271082
0.070070 -0.009008 0.271025
0.071322 -0.009002 0.270951
0.072600 -0.009000 0.270983
0.073810 -0.008989 0.270763
0.075073 -0.008985 0.270746
0.076263 -0.008972 0.270471
0.077525 -0.008969 0.270461
0.078749 -0.008961 0.270319
0.079980 -0.008954 0.270209
0.081331 -0.008961 0.270500
0.082691 -0.008968 0.270815
0.084102 -0.008981 0.271282
0.085678 -0.009010 0.272262
0.087248 -0.009039 0.273196
0.089137 -0.009098 0.275083
0.091221 -0.009176 0.277511
0.093984 -0.009319 0.281907
0.097010 -0.009484 0.286959
0.100086 -0.009648 0.292015
0.102620 -0.009757 0.295374
0.104259 -0.009779 0.296100
0.108111 -0.010005 0.303006
0.110872 -0.010126 0.306711
0.113486 -0.010230 0.309919
0.113557 -0.010105 0.306183
0.114820 -0.010088 0.305712
0.110506 -0.009588 0.290582
0.111701 -0.009572 0.290126
0.113083 -0.009572 0.290158
0.114575 -0.009582 0.290462
0.116068 -0.009591 0.290756
0.118006 -0.009637 0.292139
0.118968 -0.009602 0.291095
0.119862 -0.009563 0.289903
0.121860 -0.009613 0.291373
0.122772 -0.009576 0.290234
0.124656 -0.009615 0.291386
0.125988 -0.009611 0.291228
0.127370 -0.009611 0.291178
0.128944 -0.009625 0.291554
0.130440 -0.009633 0.291741
0.131987 -0.009645 0.292024
0.133426 -0.009649 0.292056
0.134685 -0.009640 0.291687
0.136358 -0.009660 0.292201
0.137823 -0.009666 0.292251
0.139049 -0.009654 0.291787
0.140540 -0.009661 0.291872
0.141884 -0.009658 0.291636
0.143477 -0.009672 0.291901
0.144915 -0.009675 0.291834
0.146252 -0.009672 0.291551
0.147792 -0.009682 0.291658
0.149034 -0.009672 0.291166
0.150311 -0.009665 0.290734
0.151756 -0.009669 0.290617
-0.154022 -0.008206 0.290476
-0.152623 -0.008204 0.290619
-0.151183 -0.008200 0.290668
-0.150100 -0.008215 0.291396
-0.148866 -0.008222 0.291828
-0.147065 -0.008198 0.291130
-0.145049 -0.008161 0.289976
-0.143883 -0.008171 0.290500
-0.142663 -0.008179 0.290914
-0.141119 -0.008169 0.290655
-0.139833 -0.008173 0.290916
-0.138376 -0.008167 0.290811
-0.136883 -0.008159 0.290617
-0.135247 -0.008142 0.290100
-0.133818 -0.008138 0.290014
-0.128793 -0.007912 0.282038
-0.127167 -0.007893 0.281408
-0.136158 -0.008539 0.304501
-0.134954 -0.008553 0.305036
-0.136015 -0.008712 0.310748
-0.134830 -0.008729 0.311389
-0.123091 -0.008056 0.287393
-0.122017 -0.008074 0.288039
-0.120693 -0.008076 0.288094
-0.119546 -0.008089 0.288571
-0.118321 -0.008098 0.288862
-0.116852 -0.008089 0.288551
-0.115666 -0.008101 0.288936
-0.114365 -0.008104 0.289036
-0.112956 -0.008100 0.288857
-0.111676 -0.008106 0.289001
-0.110392 -0.008111 0.289138
-0.109028 -0.008110 0.289059
-0.107854 -0.008124 0.289487
-0.106345 -0.008112 0.289011
-0.104926 -0.008107 0.288770
-0.103676 -0.008115 0.288991
-0.102264 -0.008111 0.288758
-0.100946 -0.008114 0.288785
-0.099590 -0.008114 0.288703
-0.098130 -0.008105 0.288310
-0.097552 -0.008171 0.290534
-0.097894 -0.008316 0.295598
-0.096628 -0.008327 0.295880
-0.095253 -0.008328 0.295833
-0.094022 -0.008343 0.296237
-0.092622 -0.008342 0.296112
-0.090534 -0.008279 0.293754
-0.087297 -0.008107 0.287540
-0.087128 -0.008219 0.291398
-0.085440 -0.008190 0.290222
-0.083864 -0.008170 0.289393
-0.082734 -0.008193 0.290105
-0.081243 -0.008181 0.289556
-0.079936 -0.008188 0.289660
-0.078809 -0.008213 0.290435
-0.077683 -0.008240 0.291243
-0.076321 -0.008242 0.291181
-0.075191 -0.008270 0.292026
-0.074619 -0.008361 0.295111
-0.072429 -0.008271 0.291799
-0.070192 -0.008172 0.288170
-0.068892 -0.008181 0.288332
-0.067629 -0.008194 0.288662
-0.066332 -0.008204 0.288861
-0.064993 -0.008208 0.288887
-0.063720 -0.008222 0.289224
-0.062401 -0.008230 0.289367
-0.061042 -0.008233 0.289338
-0.059670 -0.008234 0.289247
-0.058367 -0.008246 0.289504
-0.057011 -0.008250 0.289510
-0.055622 -0.008249 0.289357
-0.054287 -0.008257 0.289492
-0.052954 -0.008265 0.289649
-0.051561 -0.008265 0.289490
-0.050199 -0.008269 0.289514
-0.048878 -0.008281 0.289785
-0.047560 -0.008293 0.290107
-0.041789 -0.008255 0.288259
-0.039964 -0.008166 0.285021
-0.038161 -0.008075 0.281734
-0.036837 -0.008082 0.281877
-0.035953 -0.008190 0.285543
-0.031938 -0.007566 0.263668
-0.030147 -0.007438 0.259108
-0.028980 -0.007459 0.259768
-0.027750 -0.007466 0.259919
-0.026459 -0.007456 0.259480
-0.025235 -0.007465 0.259714
-0.023994 -0.007470 0.259801
-0.022705 -0.007460 0.259355
-0.021455 -0.007462 0.259349
-0.020232 -0.007474 0.259696
-0.018912 -0.007449 0.258781
-0.017744 -0.007485 0.259972
-0.017205 -0.007813 0.271276
-0.015915 -0.007825 0.271649
-0.014604 -0.007829 0.271722
-0.012522 -0.007379 0.256037
-0.011359 -0.007431 0.257806
-0.010112 -0.007434 0.257862
-0.008848 -0.007424 0.257483
-0.007614 -0.007440 0.257993
-0.006364 -0.007444 0.258101
-0.005113 -0.007448 0.258223
-0.003868 -0.007467 0.258833
-0.002614 -0.007477 0.259176
-0.001360 -0.007506 0.260158
-0.000095 -0.007506 0.260155
0.001182 -0.007584 0.262834
0.002467 -0.007607 0.263626
0.003749 -0.007607 0.263611
0.006559 -0.007904 0.273925
0.007890 -0.007903 0.273890
0.009149 -0.007840 0.271739
0.010357 -0.007756 0.268834
0.011665 -0.007756 0.268871
0.012908 -0.007718 0.267574
0.014119 -0.007669 0.265905
0.015438 -0.007682 0.266385
0.016741 -0.007686 0.266554
0.018113 -0.007719 0.267733
0.019411 -0.007717 0.267726
0.020776 -0.007741 0.268609
0.022092 -0.007745 0.268795
0.023651 -0.007829 0.271758
0.025676 -0.008050 0.279493
0.024928 -0.007423 0.257786
0.026157 -0.007417 0.257638
0.027523 -0.007448 0.258788
0.028653 -0.007416 0.257720
0.029931 -0.007423 0.258033
0.031283 -0.007447 0.258943
0.032622 -0.007466 0.259682
0.033830 -0.007455 0.259379
0.035214 -0.007482 0.260399
0.036614 -0.007510 0.261475
0.037926 -0.007519 0.261879
0.039420 -0.007563 0.263478
0.040810 -0.007584 0.264318
0.042059 -0.007579 0.264227
0.042850 -0.007494 0.261350
0.044232 -0.007514 0.262151
0.045053 -0.007441 0.259684
0.046115 -0.007410 0.258704
0.047238 -0.007390 0.258112
0.048542 -0.007399 0.258525
0.049907 -0.007416 0.259241
0.051312 -0.007439 0.260125
0.052678 -0.007455 0.260785
0.054100 -0.007478 0.261690
0.055343 -0.007475 0.261717
0.056600 -0.007475 0.261810
0.058713 -0.007585 0.265776
0.060987 -0.007711 0.270299
0.062439 -0.007730 0.271069
0.063521 -0.007703 0.270242
0.064878 -0.007710 0.270597
0.066198 -0.007713 0.270793
0.067429 -0.007705 0.270624
0.068676 -0.007699 0.270532
0.069955 -0.007697 0.270568
0.071145 -0.007686 0.270267
0.072351 -0.007677 0.270041
0.073644 -0.007677 0.270144
0.074878 -0.007671 0.270032
0.076085 -0.007662 0.269829
0.077335 -0.007658 0.269787
0.078641 -0.007660 0.269938
0.079878 -0.007655 0.269855
0.081183 -0.007656 0.269999
0.082531 -0.007662 0.270281
0.083880 -0.007667 0.270559
0.085329 -0.007681 0.271146
0.086917 -0.007707 0.272151
0.088592 -0.007740 0.273395
0.090730 -0.007812 0.276012
0.093326 -0.007921 0.279927
0.096410 -0.008068 0.285176
0.099095 -0.008177 0.289117
0.102031 -0.008304 0.293673
0.104826 -0.008417 0.297705
0.107181 -0.008491 0.300394
0.110036 -0.008602 0.304396
0.113502 -0.008758 0.309959
0.116971 -0.008910 0.315385
0.113098 -0.008195 0.290194
0.113705 -0.008140 0.288256
0.115341 -0.008159 0.288933
0.117077 -0.008185 0.289838
0.118624 -0.008197 0.290254
0.119774 -0.008181 0.289692
0.121107 -0.008178 0.289574
0.122857 -0.008203 0.290437
0.124499 -0.008221 0.291021
0.126378 -0.008254 0.292133
0.127645 -0.008246 0.291810
0.129028 -0.008246 0.291749
0.130194 -0.008232 0.291194
0.131618 -0.008235 0.291212
0.133241 -0.008249 0.291657
0.134597 -0.008248 0.291502
0.136025 -0.008250 0.291493
0.137464 -0.008254 0.291497
0.138890 -0.008256 0.291463
0.140479 -0.008268 0.291752
0.141684 -0.008258 0.291234
0.143325 -0.008272 0.291602
0.144803 -0.008278 0.291619
0.146470 -0.008294 0.291997
0.147821 -0.008291 0.291727
0.149290 -0.008296 0.291680
0.150768 -0.008301 0.291632
0.152401 -0.008314 0.291867
-0.154276 -0.006840 0.290966
-0.152966 -0.006842 0.291283
-0.151528 -0.006838 0.291341
-0.150353 -0.006847 0.291898
-0.149112 -0.006853 0.292319
-0.147338 -0.006834 0.291679
-0.145457 -0.006809 0.290800
-0.143925 -0.006801 0.290593
-0.142787 -0.006811 0.291173
-0.141379 -0.006809 0.291196
-0.140101 -0.006813 0.291478
-0.138323 -0.006792 0.290704
-0.137177 -0.006803 0.291244
-0.135048 -0.006764 0.289677
-0.133777 -0.006768 0.289928
-0.129320 -0.006610 0.283197
-0.127294 -0.006573 0.281693
-0.135837 -0.007087 0.303787
-0.134637 -0.007099 0.304320
-0.135448 -0.007218 0.309454
-0.134227 -0.007230 0.309998
-0.123013 -0.006698 0.287212
-0.121946 -0.006713 0.287871
-0.120614 -0.006714 0.287905
-0.119458 -0.006724 0.288358
-0.118369 -0.006739 0.288978
-0.117000 -0.006738 0.288917
-0.115602 -0.006735 0.288776
-0.114389 -0.006743 0.289094
-0.113171 -0.006751 0.289403
-0.111779 -0.006749 0.289266
-0.110416 -0.006748 0.289195
-0.109197 -0.006757 0.289503
-0.107879 -0.006759 0.289549
-0.106417 -0.006752 0.289201
-0.104938 -0.006744 0.288797
-0.103472 -0.006737 0.288418
-0.102312 -0.006750 0.288888
-0.101030 -0.006755 0.289018
-0.099374 -0.006734 0.288069
-0.097780 -0.006718 0.287276
-0.097932 -0.006822 0.291660
-0.097179 -0.006866 0.293432
-0.095894 -0.006873 0.293626
-0.094834 -0.006896 0.294522
-0.093541 -0.006903 0.294712
-0.092222 -0.006909 0.294825
-0.090723 -0.006900 0.294357
-0.089316 -0.006899 0.294182
-0.087347 -0.006853 0.292122
-0.085844 -0.006843 0.291582
-0.084496 -0.006846 0.291562
-0.082793 -0.006819 0.290300
-0.081334 -0.006812 0.289870
-0.080158 -0.006829 0.290453
-0.078860 -0.006835 0.290610
-0.077642 -0.006849 0.291076
-0.076319 -0.006855 0.291163
-0.075081 -0.006868 0.291586
-0.074139 -0.006909 0.293200
-0.070672 -0.006712 0.284705
-0.070170 -0.006794 0.288067
-0.068866 -0.006801 0.288206
-0.067611 -0.006812 0.288566
-0.066329 -0.006822 0.288832
-0.064982 -0.006825 0.288823
-0.063643 -0.006829 0.288857
-0.062333 -0.006837 0.289035
-0.061014 -0.006843 0.289187
-0.059665 -0.006847 0.289207
-0.058315 -0.006851 0.289225
-0.056960 -0.006854 0.289236
-0.055630 -0.006861 0.289380
-0.054263 -0.006863 0.289343
-0.052905 -0.006867 0.289364
-0.051593 -0.006877 0.289650
-0.050201 -0.006877 0.289502
-0.048856 -0.006883 0.289635
-0.047630 -0.006907 0.290509
-0.041426 -0.006805 0.285734
-0.039989 -0.006794 0.285179
-0.038013 -0.006688 0.280621
-0.036767 -0.006708 0.281322
-0.036030 -0.006825 0.286132
-0.034682 -0.006832 0.286298
-0.030250 -0.006206 0.259973
-0.028978 -0.006202 0.259728
-0.027780 -0.006215 0.260172
-0.026573 -0.006227 0.260581
-0.025297 -0.006223 0.260335
-0.024064 -0.006230 0.260529
-0.022797 -0.006228 0.260381
-0.021547 -0.006231 0.260427
-0.020257 -0.006222 0.259991
-0.018986 -0.006218 0.259759
-0.018090 -0.006346 0.265017
-0.017112 -0.006461 0.269788
-0.015894 -0.006498 0.271271
-0.014586 -0.006502 0.271345
-0.012611 -0.006179 0.257825
-0.011371 -0.006185 0.258054
-0.010115 -0.006183 0.257927
-0.008855 -0.006178 0.257647
-0.007622 -0.006193 0.258235
-0.006376 -0.006201 0.258541
-0.005122 -0.006204 0.258643
-0.003868 -0.006207 0.258755
-0.002618 -0.006227 0.259550
-0.001359 -0.006238 0.259975
-0.000095 -0.006219 0.259169
0.001172 -0.006258 0.260792
0.002459 -0.006305 0.262758
0.003688 -0.006223 0.259327
0.010359 -0.006451 0.268869
0.011459 -0.006336 0.264106
0.012757 -0.006343 0.264418
0.014046 -0.006344 0.264514
0.015346 -0.006350 0.264784
0.016747 -0.006393 0.266629
0.018048 -0.006395 0.266751
0.019428 -0.006423 0.267945
0.020795 -0.006443 0.268839
0.021903 -0.006385 0.266480
0.023378 -0.006435 0.268608
0.024667 -0.006431 0.268493
0.025003 -0.006191 0.258546
0.026148 -0.006166 0.257530
0.027447 -0.006176 0.258050
0.028628 -0.006161 0.257484
0.029879 -0.006162 0.257568
0.031138 -0.006164 0.257726
0.032435 -0.006173 0.258180
0.033736 -0.006182 0.258641
0.034959 -0.006177 0.258495
0.036191 -0.006173 0.258434
0.037701 -0.006216 0.260310
0.039400 -0.006286 0.263329
0.041170 -0.006363 0.266635
0.042405 -0.006354 0.266382
0.043047 -0.006260 0.262542
0.044590 -0.006299 0.264262
0.045678 -0.006273 0.263269
0.046831 -0.006257 0.262706
0.047959 -0.006239 0.262037
0.049293 -0.006248 0.262511
0.050523 -0.006244 0.262427
0.051837 -0.006250 0.262776
0.053185 -0.006259 0.263284
0.054309 -0.006243 0.262690
0.055658 -0.006252 0.263195
0.057084 -0.006270 0.264033
0.058704 -0.006307 0.265726
0.061022 -0.006417 0.270442
0.062466 -0.006431 0.271176
0.063659 -0.006420 0.270818
0.064988 -0.006423 0.271043
0.066273 -0.006422 0.271087
0.067510 -0.006416 0.270939
0.068755 -0.006411 0.270832
0.069955 -0.006402 0.270558
0.071107 -0.006389 0.270114
0.072316 -0.006381 0.269901
0.073540 -0.006375 0.269750
0.074796 -0.006372 0.269728
0.075984 -0.006364 0.269461
0.077272 -0.006364 0.269557
0.078589 -0.006366 0.269751
0.079847 -0.006364 0.269740
0.081205 -0.006369 0.270063
0.082656 -0.006382 0.270683
0.084228 -0.006403 0.271673
0.085820 -0.006426 0.272699
0.087335 -0.006441 0.273452
0.088934 -0.006463 0.274443
0.090347 -0.006471 0.274840
0.092431 -0.006525 0.277238
0.096716 -0.006732 0.286078
0.099107 -0.006802 0.289148
0.116985 -0.007413 0.315419
0.115353 -0.006788 0.288964
0.116214 -0.006759 0.287702
0.117969 -0.006781 0.288651
0.119736 -0.006804 0.289601
0.122200 -0.006865 0.292189
0.122585 -0.006809 0.289797
0.124253 -0.006826 0.290449
0.125877 -0.006839 0.290977
0.127414 -0.006848 0.291286
0.128615 -0.006838 0.290820
0.130089 -0.006843 0.290965
0.131599 -0.006850 0.291177
0.133173 -0.006860 0.291514
0.134568 -0.006861 0.291446
0.136006 -0.006863 0.291460
0.137571 -0.006872 0.291732
0.138941 -0.006872 0.291576
0.140211 -0.006866 0.291203
0.141734 -0.006873 0.291347
0.143492 -0.006891 0.291950
0.144904 -0.006892 0.291830
0.146178 -0.006887 0.291423
0.147778 -0.006897 0.291653
0.149066 -0.006892 0.291252
0.150766 -0.006907 0.291641
0.151731 -0.006888 0.290595
-0.153858 -0.005445 0.290187
-0.152481 -0.005444 0.290368
-0.150796 -0.005432 0.289942
-0.149940 -0.005450 0.291103
-0.148586 -0.005450 0.291296
-0.146866 -0.005437 0.290752
-0.145637 -0.005442 0.291166
-0.144316 -0.005443 0.291389
-0.142781 -0.005436 0.291167
-0.141394 -0.005435 0.291231
-0.139736 -0.005423 0.290724
-0.138258 -0.005418 0.290572
-0.136668 -0.005409 0.290168
-0.135065 -0.005399 0.289718
-0.133455 -0.005388 0.289232
-0.128195 -0.005229 0.280736
-0.127431 -0.005251 0.281999
-0.135498 -0.005642 0.303030
-0.134300 -0.005651 0.303562
-0.135459 -0.005760 0.309480
-0.134202 -0.005768 0.309941
-0.123181 -0.005352 0.287605
-0.121969 -0.005358 0.287926
-0.120806 -0.005366 0.288363
-0.119616 -0.005372 0.288738
-0.118373 -0.005377 0.288987
-0.116879 -0.005371 0.288618
-0.115640 -0.005376 0.288869
-0.114391 -0.005380 0.289099
-0.113116 -0.005384 0.289262
-0.111817 -0.005386 0.289362
-0.110460 -0.005386 0.289308
-0.109074 -0.005384 0.289174
-0.107879 -0.005392 0.289547
-0.106421 -0.005387 0.289211
-0.105000 -0.005384 0.288964
-0.103619 -0.005382 0.288823
-0.102164 -0.005377 0.288463
-0.100787 -0.005376 0.288320
-0.099187 -0.005362 0.287522
-0.097583 -0.005348 0.286693
-0.097331 -0.005409 0.289863
-0.096725 -0.005452 0.292055
-0.095660 -0.005469 0.292901
-0.094538 -0.005484 0.293594
-0.093294 -0.005492 0.293925
-0.092086 -0.005503 0.294381
-0.090729 -0.005505 0.294369
-0.089436 -0.005510 0.294567
-0.087733 -0.005491 0.293403
-0.086205 -0.005482 0.292802
-0.084412 -0.005455 0.291263
-0.082969 -0.005451 0.290908
-0.081732 -0.005460 0.291281
-0.080242 -0.005452 0.290748
-0.078942 -0.005458 0.290903
-0.077744 -0.005470 0.291449
-0.076403 -0.005473 0.291473
-0.075237 -0.005489 0.292179
-0.074378 -0.005528 0.294131
-0.072430 -0.005486 0.291777
-0.070147 -0.005417 0.287959
-0.068739 -0.005414 0.287665
-0.067504 -0.005425 0.288100
-0.066184 -0.005429 0.288185
-0.064868 -0.005434 0.288303
-0.063523 -0.005436 0.288302
-0.062224 -0.005443 0.288516
-0.060934 -0.005451 0.288793
-0.059598 -0.005454 0.288864
-0.058246 -0.005457 0.288873
-0.056906 -0.005461 0.288945
-0.055475 -0.005456 0.288559
-0.054110 -0.005458 0.288512
-0.052820 -0.005467 0.288885
-0.051478 -0.005472 0.288989
-0.039918 -0.005408 0.284658
-0.038027 -0.005335 0.280704
-0.036781 -0.005351 0.281414
-0.035439 -0.005353 0.281423
-0.034084 -0.005354 0.281341
-0.030195 -0.004940 0.259486
-0.028949 -0.004941 0.259459
-0.027725 -0.004946 0.259644
-0.026473 -0.004947 0.259581
-0.025227 -0.004948 0.259589
-0.023975 -0.004949 0.259551
-0.022681 -0.004941 0.259034
-0.021432 -0.004942 0.259023
-0.020170 -0.004940 0.258857
-0.018898 -0.004935 0.258545
-0.017693 -0.004949 0.259171
-0.017102 -0.005149 0.269609
-0.015881 -0.005177 0.271014
-0.014573 -0.005180 0.271088
-0.012818 -0.005008 0.262041
-0.011405 -0.004947 0.258804
-0.010150 -0.004947 0.258786
-0.008911 -0.004957 0.259256
-0.007639 -0.004949 0.258801
-0.006392 -0.004956 0.259148
-0.005139 -0.004963 0.259454
-0.003890 -0.004977 0.260192
-0.002629 -0.004986 0.260608
-0.001366 -0.004999 0.261264
-0.000097 -0.005026 0.262691
0.001189 -0.005063 0.264591
0.002480 -0.005072 0.265067
0.003769 -0.005072 0.265052
0.011473 -0.005058 0.264414
0.012759 -0.005058 0.264445
0.014048 -0.005060 0.264541
0.015348 -0.005064 0.264812
0.016749 -0.005099 0.266657
0.018051 -0.005100 0.266778
0.019452 -0.005128 0.268259
0.020744 -0.005125 0.268163
0.022051 -0.005126 0.268260
0.023537 -0.005166 0.270416
0.024834 -0.005163 0.270300
0.024874 -0.004912 0.257203
0.026117 -0.004911 0.257207
0.027403 -0.004917 0.257624
0.028616 -0.004911 0.257366
0.029861 -0.004911 0.257405
0.031110 -0.004911 0.257481
0.032397 -0.004917 0.257862
0.033657 -0.004918 0.258019
0.034915 -0.004919 0.258155
0.036108 -0.004912 0.257834
0.037483 -0.004928 0.258790
0.039329 -0.005004 0.262841
0.041810 -0.005153 0.270761
0.043107 -0.005151 0.270781
0.044262 -0.005133 0.269935
0.045555 -0.005132 0.269969
0.046764 -0.005122 0.269516
0.047879 -0.005102 0.268573
0.049032 -0.005087 0.267892
0.050292 -0.005084 0.267817
0.051572 -0.005083 0.267861
0.052524 -0.005050 0.266245
0.053579 -0.005029 0.265220
0.055071 -0.005048 0.266367
0.056162 -0.005031 0.265567
0.057229 -0.005013 0.264694
0.059473 -0.005096 0.269194
0.061269 -0.005138 0.271528
0.062521 -0.005134 0.271404
0.063711 -0.005125 0.271028
0.065051 -0.005128 0.271296
0.066316 -0.005125 0.271255
0.067550 -0.005120 0.271090
0.068783 -0.005115 0.270931
0.070024 -0.005111 0.270815
0.071259 -0.005107 0.270684
0.072417 -0.005097 0.270269
0.073616 -0.005090 0.270023
0.075101 -0.005104 0.270819
0.076289 -0.005096 0.270537
0.077535 -0.005093 0.270470
0.078891 -0.005098 0.270782
0.080218 -0.005100 0.270987
0.081420 -0.005094 0.270773
0.082834 -0.005102 0.271259
0.084403 -0.005118 0.272232
0.085985 -0.005135 0.273218
0.087515 -0.005149 0.274011
0.088873 -0.005152 0.274249
0.090707 -0.005182 0.275932
0.092441 -0.005206 0.277263
0.097003 -0.005386 0.286923
0.105289 -0.005392 0.287523
0.106477 -0.005383 0.287086
0.107661 -0.005374 0.286644
0.123427 -0.005727 0.305560
0.124673 -0.005718 0.305055
0.118955 -0.005393 0.287713
0.120047 -0.005381 0.287043
0.122338 -0.005423 0.289214
0.123049 -0.005394 0.287635
0.126119 -0.005468 0.291539
0.127210 -0.005455 0.290823
0.128527 -0.005453 0.290623
0.130062 -0.005460 0.290908
0.131822 -0.005476 0.291673
0.132761 -0.005457 0.290617
0.134282 -0.005463 0.290831
0.136086 -0.005481 0.291636
0.137399 -0.005478 0.291372
0.138898 -0.005483 0.291492
0.140411 -0.005488 0.291625
0.141581 -0.005480 0.291038
0.143409 -0.005497 0.291789
0.144715 -0.005494 0.291457
0.146114 -0.005495 0.291305
0.147856 -0.005508 0.291815
0.149282 -0.005510 0.291684
0.150944 -0.005520 0.291994
0.153141 -0.005549 0.293306
-0.153860 -0.004069 0.290198
-0.152443 -0.004067 0.290303
-0.151044 -0.004066 0.290427
-0.149635 -0.004064 0.290517
-0.148449 -0.004069 0.291032
-0.147244 -0.004073 0.291506
-0.145556 -0.004063 0.291009
-0.144222 -0.004064 0.291203
-0.142948 -0.004066 0.291511
-0.141704 -0.004069 0.291876
-0.140265 -0.004067 0.291829
-0.137298 -0.004019 0.288558
-0.136424 -0.004033 0.289654
-0.134576 -0.004018 0.288672
-0.133282 -0.004020 0.288861
-0.128437 -0.003913 0.281267
-0.127120 -0.003912 0.281314
-0.134931 -0.004196 0.301765
-0.133739 -0.004203 0.302295
-0.133929 -0.004253 0.305986
-0.134714 -0.004324 0.311125
-0.123243 -0.003999 0.287752
-0.122073 -0.004004 0.288172
-0.120792 -0.004006 0.288329
-0.119557 -0.004010 0.288596
-0.118444 -0.004018 0.289160
-0.117071 -0.004017 0.289091
-0.115517 -0.004010 0.288561
-0.114445 -0.004019 0.289234
-0.113059 -0.004018 0.289114
-0.111678 -0.004017 0.289001
-0.110205 -0.004012 0.288639
-0.108985 -0.004017 0.288936
-0.107690 -0.004019 0.289038
-0.106354 -0.004019 0.289026
-0.104957 -0.004018 0.288843
-0.103693 -0.004021 0.289024
-0.102440 -0.004025 0.289241
-0.101070 -0.004024 0.289126
-0.098451 -0.003973 0.285385
-0.097407 -0.003985 0.286171
-0.097393 -0.004040 0.290044
-0.097394 -0.004097 0.294069
-0.096133 -0.004103 0.294344
-0.094908 -0.004109 0.294739
-0.093527 -0.004110 0.294654
-0.092116 -0.004108 0.294473
-0.090917 -0.004117 0.294974
-0.089457 -0.004114 0.294631
-0.087438 -0.004084 0.292411
-0.085749 -0.004069 0.291245
-0.084406 -0.004071 0.291237
-0.082808 -0.004060 0.290339
-0.081494 -0.004063 0.290423
-0.080237 -0.004069 0.290723
-0.078924 -0.004072 0.290829
-0.077773 -0.004084 0.291549
-0.076541 -0.004092 0.291990
-0.075256 -0.004097 0.292244
-0.074068 -0.004108 0.292897
-0.071084 -0.004018 0.286345
-0.069945 -0.004030 0.287121
-0.068675 -0.004036 0.287386
-0.067461 -0.004045 0.287904
-0.066161 -0.004049 0.288076
-0.064878 -0.004055 0.288339
-0.063585 -0.004060 0.288571
-0.062267 -0.004064 0.288705
-0.060958 -0.004068 0.288894
-0.059594 -0.004069 0.288835
-0.058267 -0.004073 0.288964
-0.056923 -0.004076 0.289021
-0.055570 -0.004078 0.289043
-0.054244 -0.004082 0.289212
-0.052927 -0.004087 0.289457
-0.051594 -0.004091 0.289627
-0.039807 -0.004023 0.283850
-0.038149 -0.003993 0.281594
-0.036705 -0.003983 0.280819
-0.035555 -0.004006 0.282329
-0.034266 -0.004015 0.282826
-0.030307 -0.003698 0.260436
-0.028965 -0.003688 0.259582
-0.027720 -0.003689 0.259579
-0.026462 -0.003688 0.259461
-0.025200 -0.003687 0.259302
-0.023888 -0.003678 0.258594
-0.022612 -0.003674 0.258235
-0.021400 -0.003681 0.258618
-0.020104 -0.003673 0.257997
-0.018910 -0.003684 0.258688
-0.018253 -0.003808 0.267360
-0.017138 -0.003849 0.270160
-0.015795 -0.003841 0.269540
-0.014495 -0.003843 0.269613
-0.012873 -0.003751 0.263144
-0.011507 -0.003723 0.261086
-0.010188 -0.003704 0.259731
-0.008939 -0.003709 0.260058
-0.007668 -0.003705 0.259742
-0.006418 -0.003712 0.260216
-0.005160 -0.003717 0.260510
-0.003910 -0.003732 0.261553
-0.002643 -0.003738 0.261945
-0.001373 -0.003748 0.262585
-0.000098 -0.003784 0.265151
0.001198 -0.003804 0.266507
0.002489 -0.003796 0.265975
0.003949 -0.003964 0.277693
0.005299 -0.003963 0.277670
0.006648 -0.003963 0.277641
0.008877 -0.003763 0.263647
0.010157 -0.003762 0.263601
0.011474 -0.003773 0.264435
0.012730 -0.003765 0.263835
0.013987 -0.003758 0.263383
0.015280 -0.003761 0.263628
0.016583 -0.003766 0.263999
0.017875 -0.003767 0.264169
0.019168 -0.003769 0.264337
0.020517 -0.003781 0.265219
0.021883 -0.003795 0.266214
0.023179 -0.003795 0.266301
0.024457 -0.003793 0.266187
0.024844 -0.003659 0.256882
0.026081 -0.003658 0.256840
0.027344 -0.003660 0.257064
0.028527 -0.003652 0.256552
0.029765 -0.003651 0.256566
0.031011 -0.003652 0.256649
0.032255 -0.003652 0.256724
0.033543 -0.003656 0.257139
0.034726 -0.003650 0.256749
0.035981 -0.003651 0.256913
0.037291 -0.003658 0.257453
0.039036 -0.003705 0.260876
0.041814 -0.003844 0.270782
0.043554 -0.003883 0.273576
0.044827 -0.003879 0.273371
0.045890 -0.003857 0.271941
0.047202 -0.003857 0.272032
0.048316 -0.003841 0.271015
0.049140 -0.003804 0.268473
0.050302 -0.003794 0.267861
0.051273 -0.003770 0.266299
0.052358 -0.003756 0.265394
0.053728 -0.003762 0.265950
0.054871 -0.003753 0.265390
0.055955 -0.003740 0.264578
0.057506 -0.003758 0.265970
0.059780 -0.003822 0.270574
0.061285 -0.003835 0.271587
0.062470 -0.003828 0.271176
0.063704 -0.003824 0.270994
0.065019 -0.003824 0.271157
0.066296 -0.003823 0.271165
0.067437 -0.003814 0.270630
0.068718 -0.003813 0.270669
0.069857 -0.003805 0.270161
0.071010 -0.003797 0.269730
0.072215 -0.003793 0.269508
0.073373 -0.003786 0.269126
0.074720 -0.003789 0.269440
0.076004 -0.003789 0.269522
0.077295 -0.003789 0.269626
0.078773 -0.003799 0.270373
0.080081 -0.003800 0.270521
0.081344 -0.003798 0.270516
0.082951 -0.003813 0.271638
0.084346 -0.003818 0.272046
0.085950 -0.003831 0.273102
0.087301 -0.003834 0.273339
0.088657 -0.003836 0.273581
0.090346 -0.003853 0.274830
0.095804 -0.004027 0.287348
0.097011 -0.004021 0.286943
0.097201 -0.003973 0.283580
0.098455 -0.003969 0.283371
0.102606 -0.004081 0.291389
0.103789 -0.004073 0.290878
0.103402 -0.004005 0.286035
0.104966 -0.004013 0.286640
0.106394 -0.004015 0.286860
0.107510 -0.004006 0.286240
0.109182 -0.004018 0.287093
0.112509 -0.004090 0.292221
0.113742 -0.004084 0.291845
0.128464 -0.004451 0.318029
0.129760 -0.004444 0.317503
0.127314 -0.004310 0.307931
0.121310 -0.004061 0.290063
0.122655 -0.004060 0.289964
0.124229 -0.004067 0.290396
0.125682 -0.004069 0.290531
0.126764 -0.004060 0.289804
0.128268 -0.004064 0.290041
0.129797 -0.004069 0.290318
0.131145 -0.004069 0.290178
0.132578 -0.004071 0.290220
0.134004 -0.004072 0.290232
0.135340 -0.004071 0.290042
0.137570 -0.004097 0.291740
0.138996 -0.004098 0.291703
0.140331 -0.004097 0.291464
0.141958 -0.004104 0.291820
0.143240 -0.004102 0.291450
0.144628 -0.004102 0.291288
0.146224 -0.004108 0.291530
0.147747 -0.004112 0.291607
0.149280 -0.004117 0.291686
0.151157 -0.004130 0.292413
0.152153 -0.004120 0.291421
-0.153757 -0.002691 0.290010
-0.152472 -0.002692 0.290363
-0.151085 -0.002691 0.290510
-0.149910 -0.002694 0.291056
-0.148760 -0.002697 0.291646
-0.147164 -0.002693 0.291352
-0.145977 -0.002696 0.291854
-0.143999 -0.002684 0.290758
-0.142861 -0.002688 0.291338
-0.141672 -0.002691 0.291812
-0.139822 -0.002681 0.290910
-0.138175 -0.002675 0.290405
-0.136090 -0.002661 0.288946
-0.134990 -0.002665 0.289563
-0.133230 -0.002657 0.288752
-0.129661 -0.002612 0.283950
-0.126603 -0.002576 0.280170
-0.135429 -0.002784 0.302879
-0.134232 -0.002788 0.303411
-0.133675 -0.002806 0.305407
-0.134118 -0.002845 0.309750
-0.123302 -0.002644 0.287890
-0.122060 -0.002646 0.288142
-0.120776 -0.002647 0.288292
-0.119553 -0.002650 0.288587
-0.118349 -0.002653 0.288928
-0.117064 -0.002654 0.289073
-0.115636 -0.002652 0.288859
-0.114347 -0.002653 0.288985
-0.113140 -0.002656 0.289319
-0.111751 -0.002655 0.289187
-0.110344 -0.002654 0.289003
-0.108963 -0.002653 0.288878
-0.107711 -0.002655 0.289091
-0.106254 -0.002652 0.288753
-0.104971 -0.002654 0.288879
-0.103569 -0.002652 0.288678
-0.102245 -0.002653 0.288689
-0.101176 -0.002660 0.289426
-0.099644 -0.002656 0.288840
-0.097325 -0.002629 0.285929
-0.096776 -0.002651 0.288203
-0.097562 -0.002710 0.294574
-0.096316 -0.002714 0.294902
-0.095282 -0.002724 0.295898
-0.093932 -0.002725 0.295928
-0.093068 -0.002740 0.297512
-0.091297 -0.002729 0.296204
-0.089696 -0.002723 0.295414
-0.089118 -0.002748 0.298025
-0.086643 -0.002714 0.294278
-0.084652 -0.002695 0.292082
-0.083074 -0.002688 0.291264
-0.081792 -0.002691 0.291480
-0.080478 -0.002693 0.291592
-0.079090 -0.002693 0.291434
-0.077804 -0.002696 0.291660
-0.076604 -0.002702 0.292226
-0.075361 -0.002707 0.292649
-0.074085 -0.002711 0.292959
-0.072967 -0.002721 0.293923
-0.069750 -0.002652 0.286314
-0.068529 -0.002657 0.286770
-0.067129 -0.002656 0.286483
-0.065901 -0.002661 0.286938
-0.064685 -0.002667 0.287475
-0.063131 -0.002659 0.286503
-0.061788 -0.002660 0.286477
-0.060690 -0.002672 0.287618
-0.059113 -0.002663 0.286500
-0.057815 -0.002666 0.286715
-0.056571 -0.002672 0.287227
-0.055258 -0.002675 0.287409
-0.053883 -0.002675 0.287283
-0.052616 -0.002680 0.287749
-0.051375 -0.002687 0.288394
-0.045371 -0.002659 0.284922
-0.042749 -0.002667 0.285466
-0.039758 -0.002650 0.283496
-0.038302 -0.002644 0.282712
-0.036668 -0.002624 0.280527
-0.035631 -0.002648 0.282925
-0.034430 -0.002660 0.284173
-0.030158 -0.002427 0.259147
-0.028930 -0.002429 0.259261
-0.027664 -0.002428 0.259046
-0.026412 -0.002427 0.258958
-0.025188 -0.002430 0.259166
-0.023911 -0.002428 0.258828
-0.022656 -0.002428 0.258733
-0.021419 -0.002429 0.258844
-0.020156 -0.002428 0.258649
-0.018894 -0.002427 0.258462
-0.018588 -0.002557 0.272260
-0.017153 -0.002540 0.270387
-0.015794 -0.002532 0.269504
-0.014493 -0.002533 0.269577
-0.012778 -0.002455 0.261205
-0.011528 -0.002459 0.261560
-0.010180 -0.002440 0.259524
-0.008917 -0.002440 0.259415
-0.007675 -0.002445 0.259968
-0.006443 -0.002457 0.261210
-0.005207 -0.002473 0.262834
-0.003955 -0.002488 0.264492
-0.002678 -0.002497 0.265324
-0.001403 -0.002525 0.268298
-0.000100 -0.002560 0.272022
0.001222 -0.002560 0.272019
0.002479 -0.002494 0.264970
0.003941 -0.002608 0.277143
0.005288 -0.002608 0.277121
0.006182 -0.002430 0.258169
0.007438 -0.002430 0.258196
0.008675 -0.002425 0.257654
0.009932 -0.002425 0.257755
0.011191 -0.002427 0.257898
0.012466 -0.002431 0.258369
0.013758 -0.002437 0.259058
0.015050 -0.002442 0.259647
0.016332 -0.002445 0.259997
0.017780 -0.002471 0.262759
0.019132 -0.002481 0.263842
0.020481 -0.002489 0.264740
0.021747 -0.002487 0.264547
0.023289 -0.002514 0.267552
0.024573 -0.002513 0.267437
0.024927 -0.002421 0.257739
0.026114 -0.002415 0.257163
0.027344 -0.002414 0.257061
0.028526 -0.002408 0.256536
0.029793 -0.002410 0.256797
0.031042 -0.002410 0.256902
0.032279 -0.002410 0.256907
0.033557 -0.002412 0.257234
0.034806 -0.002413 0.257337
0.036074 -0.002414 0.257569
0.037379 -0.002418 0.258053
0.038817 -0.002430 0.259402
0.040083 -0.002431 0.259562
0.048320 -0.002534 0.271030
0.048150 -0.002458 0.263054
0.049458 -0.002460 0.263361
0.050823 -0.002465 0.263957
0.052178 -0.002469 0.264477
0.053680 -0.002480 0.265710
0.054947 -0.002479 0.265750
0.056097 -0.002474 0.265245
0.057798 -0.002492 0.267316
0.059850 -0.002525 0.270886
0.061424 -0.002536 0.272200
0.062701 -0.002535 0.272172
0.063951 -0.002533 0.272037
0.065260 -0.002533 0.272157
0.066567 -0.002533 0.272267
0.067817 -0.002531 0.272151
0.069011 -0.002527 0.271819
0.070244 -0.002525 0.271656
0.072209 -0.002548 0.274281
0.073603 -0.002551 0.274687
0.076084 -0.002591 0.279064
0.077298 -0.002587 0.278731
0.078280 -0.002576 0.277590
0.079631 -0.002577 0.277772
0.080890 -0.002575 0.277635
0.081697 -0.002559 0.275975
0.082908 -0.002556 0.275714
0.084288 -0.002558 0.276015
0.085429 -0.002553 0.275535
0.086397 -0.002543 0.274520
0.087742 -0.002544 0.274716
0.089123 -0.002546 0.275015
0.090432 -0.002546 0.275088
0.094419 -0.002621 0.283191
0.098163 -0.002687 0.290347
0.097966 -0.002644 0.285811
0.101259 -0.002696 0.291440
0.102611 -0.002695 0.291403
0.103794 -0.002690 0.290892
0.104958 -0.002685 0.290339
0.106114 -0.002679 0.289774
0.107276 -0.002674 0.289238
0.109095 -0.002686 0.290460
0.109129 -0.002653 0.286955
0.109846 -0.002638 0.285304
0.113747 -0.002699 0.291859
0.115119 -0.002698 0.291839
0.116312 -0.002694 0.291366
0.128470 -0.002941 0.318044
0.122244 -0.002704 0.292299
0.123431 -0.002700 0.291800
0.124218 -0.002688 0.290373
0.125570 -0.002687 0.290272
0.126712 -0.002683 0.289689
0.128095 -0.002683 0.289651
0.129677 -0.002688 0.290051
0.132612 -0.002720 0.293427
0.132214 -0.002684 0.289425
0.133741 -0.002687 0.289665
0.136139 -0.002708 0.291757
0.137537 -0.002709 0.291672
0.138992 -0.002710 0.291698
0.140540 -0.002714 0.291902
0.141681 -0.002709 0.291253
0.143045 -0.002709 0.291057
0.144584 -0.002713 0.291205
0.146308 -0.002719 0.291703
0.147515 -0.002716 0.291155
0.148983 -0.002718 0.291113
0.150330 -0.002718 0.290820
0.151808 -0.002720 0.290766
-0.153410 -0.001313 0.289359
-0.152219 -0.001314 0.289885
-0.150851 -0.001313 0.290063
-0.149609 -0.001314 0.290474
-0.148415 -0.001315 0.290972
-0.147040 -0.001314 0.291110
-0.145489 -0.001312 0.290882
-0.143976 -0.001310 0.290713
-0.142359 -0.001307 0.290316
-0.140996 -0.001307 0.290422
-0.139199 -0.001302 0.289615
-0.136892 -0.001293 0.287711
-0.136235 -0.001299 0.289258
-0.134198 -0.001292 0.287865
-0.132510 -0.001288 0.287191
-0.128567 -0.001262 0.281556
-0.126087 -0.001251 0.279029
-0.135432 -0.001357 0.302887
-0.134235 -0.001359 0.303420
-0.134682 -0.001377 0.307709
-0.134869 -0.001394 0.311486
-0.123102 -0.001286 0.287425
-0.121894 -0.001287 0.287751
-0.120475 -0.001286 0.287574
-0.118856 -0.001282 0.286905
-0.118078 -0.001288 0.288267
-0.116529 -0.001286 0.287753
-0.115216 -0.001286 0.287810
-0.114138 -0.001288 0.288458
-0.112778 -0.001288 0.288395
-0.111539 -0.001289 0.288639
-0.110305 -0.001290 0.288900
-0.108957 -0.001290 0.288860
-0.107661 -0.001290 0.288958
-0.106384 -0.001291 0.289105
-0.104889 -0.001289 0.288653
-0.103617 -0.001289 0.288811
-0.102371 -0.001291 0.289042
