ply
format ascii 1.0
element vertex 1681
property float x
property float y
property float z
end_header
0.056769 -0.026429 0.263056
0.058753 -0.026757 0.266422
0.060965 -0.027172 0.270661
0.062390 -0.027227 0.271312
0.063468 -0.027131 0.270459
0.064862 -0.027171 0.270963
0.066233 -0.027201 0.271356
0.067499 -0.027186 0.271317
0.068766 -0.027173 0.271286
0.069832 -0.027083 0.270481
0.070566 -0.026868 0.268441
0.071350 -0.026681 0.266665
0.072648 -0.026689 0.266839
0.073171 -0.026417 0.264210
0.073581 -0.026114 0.261269
0.074218 -0.025900 0.259220
0.075343 -0.025861 0.258914
0.076398 -0.025799 0.258379
0.077578 -0.025781 0.258280
0.078914 -0.025815 0.258695
0.080337 -0.025875 0.259381
0.081778 -0.025940 0.260100
0.082941 -0.025915 0.259926
0.084441 -0.025995 0.260798
0.085958 -0.026078 0.261697
0.094896 -0.028378 0.284845
0.100029 -0.029491 0.296084
0.099719 -0.028990 0.291123
0.101279 -0.029040 0.291679
0.102665 -0.029039 0.291726
0.103748 -0.028953 0.290915
0.105225 -0.028979 0.291216
0.106596 -0.028974 0.291213
0.108088 -0.029003 0.291535
0.109513 -0.029013 0.291665
0.110971 -0.029031 0.291872
0.112387 -0.029038 0.291963
0.113780 -0.029039 0.291986
0.115378 -0.029091 0.292522
0.116470 -0.029016 0.291773
0.117661 -0.028968 0.291280
0.119137 -0.028990 0.291488
0.120409 -0.028962 0.291192
0.121855 -0.028976 0.291311
0.123092 -0.028941 0.290925
0.124775 -0.029010 0.291583
0.126367 -0.029057 0.292006
0.128067 -0.029128 0.292659
0.129341 -0.029100 0.292322
0.130610 -0.029073 0.291975
0.132200 -0.029117 0.292333
0.133728 -0.029146 0.292537
0.135274 -0.029179 0.292764
0.136721 -0.029190 0.292764
0.137989 -0.029162 0.292372
0.139583 -0.029204 0.292657
0.140912 -0.029190 0.292375
0.142369 -0.029202 0.292346
0.144087 -0.029267 0.292835
0.145532 -0.029276 0.292749
0.147233 -0.029336 0.293160
0.148531 -0.029315 0.292751
0.150119 -0.029351 0.292900
0.151368 -0.029321 0.292373
0.152733 -0.029313 0.292061
-0.116183 -0.020740 0.218844
-0.115302 -0.020767 0.219297
-0.114691 -0.020844 0.220263
-0.114024 -0.020912 0.221129
-0.113273 -0.020965 0.221834
-0.112828 -0.021077 0.223148
-0.112324 -0.021180 0.224357
-0.111798 -0.021280 0.225537
-0.110902 -0.021312 0.225976
-0.133553 -0.027228 0.289314
-0.128294 -0.026425 0.280839
-0.144365 -0.030043 0.319361
-0.143095 -0.030091 0.319927
-0.141466 -0.030063 0.319681
-0.140193 -0.030112 0.320237
-0.127670 -0.027719 0.294815
-0.124348 -0.027293 0.290306
-0.123098 -0.027318 0.290579
-0.121879 -0.027350 0.290928
-0.120483 -0.027343 0.290851
-0.119246 -0.027372 0.291152
-0.117813 -0.027356 0.290972
-0.116523 -0.027374 0.291138
-0.114973 -0.027330 0.290645
-0.113543 -0.027314 0.290444
-0.112767 -0.027457 0.291925
-0.110900 -0.027334 0.290579
-0.109497 -0.027325 0.290427
-0.108345 -0.027378 0.290943
-0.106971 -0.027376 0.290865
-0.105604 -0.027376 0.290800
-0.104301 -0.027393 0.290912
-0.103107 -0.027439 0.291328
-0.101745 -0.027441 0.291275
-0.100365 -0.027439 0.291166
-0.109564 -0.030369 0.322160
-0.108230 -0.030420 0.322606
-0.106796 -0.030444 0.322761
-0.106121 -0.030689 0.325246
-0.105856 -0.031061 0.329078
-0.102853 -0.030629 0.324385
-0.100952 -0.030517 0.323083
-0.095341 -0.029263 0.309691
-0.094359 -0.029412 0.311156
-0.088052 -0.027881 0.294837
-0.087005 -0.027992 0.295897
-0.085621 -0.027997 0.295831
-0.085072 -0.028280 0.298693
-0.084384 -0.028525 0.301158
-0.082956 -0.028525 0.301021
-0.081583 -0.028543 0.301087
-0.080310 -0.028598 0.301537
-0.078992 -0.028639 0.301831
-0.077978 -0.028793 0.303323
-0.076231 -0.028678 0.301968
-0.072226 -0.027692 0.291457
-0.070234 -0.027455 0.288827
-0.069024 -0.027520 0.289380
-0.067868 -0.027610 0.290190
-0.066004 -0.027409 0.287948
-0.064986 -0.027559 0.289391
-0.058178 -0.026961 0.282581
-0.054727 -0.025963 0.272002
-0.053516 -0.026006 0.272329
-0.054462 -0.027126 0.283921
-0.054302 -0.027738 0.290192
-0.052988 -0.027777 0.290470
-0.051611 -0.027784 0.290417
-0.050315 -0.027837 0.290842
-0.048958 -0.027858 0.290932
-0.047473 -0.027805 0.290255
-0.046198 -0.027876 0.290872
-0.044604 -0.027752 0.289462
-0.043177 -0.027728 0.289091
-0.041723 -0.027685 0.288521
-0.040732 -0.027957 0.291238
-0.038073 -0.027062 0.281804
-0.037101 -0.027345 0.284641
-0.035976 -0.027532 0.286482
-0.033952 -0.027019 0.281044
-0.029922 -0.024801 0.257880
-0.028515 -0.024658 0.256306
-0.027247 -0.024629 0.255915
-0.026317 -0.024917 0.258823
-0.024914 -0.024764 0.257153
-0.023599 -0.024685 0.256263
-0.022618 -0.024969 0.259128
-0.021330 -0.024926 0.258612
-0.020361 -0.025273 0.262143
-0.019414 -0.025697 0.266466
-0.019057 -0.027016 0.280083
-0.016376 -0.027063 0.280437
-0.015026 -0.027075 0.280511
-0.012521 -0.024801 0.256902
-0.011353 -0.024967 0.258570
-0.010121 -0.025016 0.259031
-0.008853 -0.024977 0.258595
-0.007626 -0.025064 0.259451
-0.006380 -0.025106 0.259855
-0.005127 -0.025134 0.260123
-0.003880 -0.025222 0.261002
-0.002621 -0.025278 0.261569
-0.001357 -0.025355 0.262343
-0.000086 -0.025429 0.263090
0.001193 -0.025494 0.263760
0.002475 -0.025530 0.264128
0.003742 -0.025435 0.263140
0.019125 -0.025525 0.264330
0.020507 -0.025651 0.265674
0.022584 -0.026580 0.275352
0.023805 -0.026455 0.274106
0.025118 -0.026438 0.273990
0.024625 -0.024619 0.255191
0.025952 -0.024706 0.256152
0.027360 -0.024858 0.257789
0.028373 -0.024654 0.255739
0.029625 -0.024666 0.255927
0.030899 -0.024694 0.256295
0.032127 -0.024685 0.256271
0.033456 -0.024752 0.257035
0.034679 -0.024737 0.256964
0.035906 -0.024727 0.256937
0.037323 -0.024844 0.258231
0.039403 -0.025380 0.263890
0.041282 -0.025757 0.267900
0.042651 -0.025803 0.268462
0.043530 -0.025558 0.266007
0.044995 -0.025661 0.267177
0.046407 -0.025730 0.267984
0.047560 -0.025655 0.267302
0.048706 -0.025580 0.266619
0.049908 -0.025538 0.266277
0.051205 -0.025545 0.266449
0.052300 -0.025453 0.265593
0.053523 -0.025427 0.265419
0.054728 -0.025394 0.265174
0.055868 -0.025332 0.264631
0.057336 -0.025419 0.265640
0.059405 -0.025762 0.269333
0.061150 -0.025954 0.271439
0.062323 -0.025899 0.270976
0.063541 -0.025866 0.270726
0.064921 -0.025898 0.271166
0.066270 -0.025916 0.271465
0.067559 -0.025912 0.271519
0.068863 -0.025912 0.271630
0.069882 -0.025808 0.270635
0.070304 -0.025491 0.267408
0.071056 -0.025303 0.265532
0.072556 -0.025383 0.266468
0.073111 -0.025135 0.263961
0.073374 -0.024797 0.260505
0.073977 -0.024584 0.258348
0.074972 -0.024505 0.257609
0.076031 -0.024450 0.257110
0.077109 -0.024402 0.256695
0.078292 -0.024389 0.256632
0.079547 -0.024398 0.256806
0.080835 -0.024416 0.257077
0.082188 -0.024454 0.257546
0.083718 -0.024542 0.258546
0.085395 -0.024671 0.259965
0.097269 -0.027699 0.291946
0.098499 -0.027654 0.291537
0.099829 -0.027637 0.291427
0.101193 -0.027630 0.291418
0.102626 -0.027642 0.291599
0.103751 -0.027572 0.290912
0.105061 -0.027553 0.290750
0.106489 -0.027564 0.290912
0.108172 -0.027640 0.291752
0.109570 -0.027642 0.291809
0.110902 -0.027628 0.291685
0.112227 -0.027612 0.291543
0.113547 -0.027596 0.291386
0.114882 -0.027584 0.291263
0.116117 -0.027548 0.290889
0.117550 -0.027559 0.291007
0.119287 -0.027641 0.291860
0.120617 -0.027627 0.291700
0.121734 -0.027566 0.291028
0.123002 -0.027540 0.290720
0.124249 -0.027509 0.290363
0.125755 -0.027536 0.290603
0.126506 -0.027399 0.289103
0.126952 -0.027200 0.286937
0.130603 -0.027684 0.291976
0.132107 -0.027708 0.292146
0.133646 -0.027738 0.292378
0.135037 -0.027738 0.292275
0.136283 -0.027708 0.291850
0.137860 -0.027745 0.292124
0.139384 -0.027771 0.292268
0.140939 -0.027802 0.292460
0.142545 -0.027843 0.292739
0.143941 -0.027842 0.292572
0.145452 -0.027864 0.292625
0.146940 -0.027880 0.292615
0.148619 -0.027933 0.292965
0.149896 -0.027909 0.292506
0.151474 -0.027941 0.292622
0.152792 -0.027926 0.292219
-0.114832 -0.019472 0.216329
-0.114089 -0.019519 0.217017
-0.113606 -0.019612 0.218207
-0.112591 -0.019614 0.218374
-0.111857 -0.019666 0.219086
-0.111136 -0.019721 0.219825
-0.110431 -0.019779 0.220599
-0.109714 -0.019837 0.221353
-0.108858 -0.019871 0.221831
-0.107978 -0.019900 0.222258
-0.141021 -0.028168 0.315300
-0.140124 -0.028285 0.316657
-0.138864 -0.028331 0.317208
-0.127140 -0.026220 0.293594
-0.122569 -0.025554 0.286157
-0.122012 -0.025719 0.288020
-0.121085 -0.025809 0.289033
-0.119861 -0.025838 0.289348
-0.118629 -0.025865 0.289642
-0.117427 -0.025899 0.290014
-0.116167 -0.025922 0.290242
-0.114910 -0.025945 0.290479
-0.113434 -0.025919 0.290156
-0.112061 -0.025917 0.290088
-0.110838 -0.025949 0.290405
-0.109488 -0.025952 0.290391
-0.108097 -0.025946 0.290263
-0.106797 -0.025961 0.290377
-0.105500 -0.025978 0.290497
-0.104138 -0.025979 0.290439
-0.102923 -0.026017 0.290790
-0.101589 -0.026025 0.290809
-0.100135 -0.026003 0.290477
-0.099712 -0.026252 0.293166
-0.107520 -0.028705 0.320461
-0.106467 -0.028828 0.321737
-0.104764 -0.028777 0.321057
-0.103610 -0.028877 0.322065
-0.102616 -0.029026 0.323604
-0.101258 -0.029074 0.324027
-0.095389 -0.027809 0.309810
-0.088659 -0.026250 0.292325
-0.087111 -0.026199 0.291651
-0.088523 -0.027052 0.301023
-0.087042 -0.027034 0.300700
-0.085709 -0.027063 0.300890
-0.084524 -0.027140 0.301616
-0.082868 -0.027065 0.300658
-0.081426 -0.027059 0.300464
-0.080061 -0.027079 0.300554
-0.078447 -0.027014 0.299698
-0.077041 -0.027020 0.299629
-0.077036 -0.027527 0.305106
-0.072123 -0.026265 0.290992
-0.070471 -0.026165 0.289751
-0.069068 -0.026156 0.289512
-0.067872 -0.026226 0.290155
-0.066609 -0.026273 0.290534
-0.065025 -0.026192 0.289509
-0.063592 -0.026170 0.289130
-0.060813 -0.025581 0.282489
-0.059535 -0.025611 0.282688
-0.058215 -0.025624 0.282698
-0.057008 -0.025688 0.283278
-0.055619 -0.025672 0.282969
-0.055479 -0.026246 0.289161
-0.054187 -0.026290 0.289512
-0.052861 -0.026320 0.289710
-0.051551 -0.026359 0.290016
-0.050219 -0.026389 0.290214
-0.048836 -0.026393 0.290134
-0.047501 -0.026425 0.290353
-0.046145 -0.026446 0.290466
-0.044741 -0.026441 0.290279
-0.043247 -0.026380 0.289489
-0.041715 -0.026290 0.288391
-0.040445 -0.026366 0.289109
-0.038239 -0.025815 0.282957
-0.037047 -0.025935 0.284152
-0.036034 -0.026192 0.286864
-0.034284 -0.025913 0.283707
-0.032947 -0.025937 0.283864
-0.028809 -0.023662 0.258880
-0.027162 -0.023319 0.255043
-0.025871 -0.023265 0.254361
-0.024763 -0.023378 0.255515
-0.023556 -0.023404 0.255725
-0.022323 -0.023405 0.255661
-0.021133 -0.023455 0.256138
-0.020196 -0.023810 0.259937
-0.020222 -0.025423 0.277475
-0.019071 -0.025679 0.280207
-0.017726 -0.025693 0.280294
-0.016282 -0.025556 0.278736
-0.014958 -0.025597 0.279128
-0.012728 -0.023944 0.261047
-0.011410 -0.023831 0.259771
-0.010168 -0.023870 0.260147
-0.008897 -0.023841 0.259795
-0.007650 -0.023877 0.260148
-0.006401 -0.023919 0.260581
-0.005147 -0.023961 0.261002
-0.003889 -0.024004 0.261447
-0.002630 -0.024082 0.262274
-0.001367 -0.024243 0.264016
-0.000087 -0.024255 0.264125
0.001205 -0.024470 0.266456
0.002512 -0.024622 0.268108
0.003900 -0.025186 0.274241
0.006611 -0.025379 0.276359
0.019418 -0.024616 0.268311
0.020707 -0.024604 0.268216
0.022599 -0.025265 0.275474
0.023848 -0.025174 0.274542
0.025163 -0.025158 0.274426
0.024636 -0.023395 0.255249
0.025893 -0.023414 0.255513
0.027160 -0.023440 0.255855
0.028305 -0.023362 0.255067
0.029567 -0.023384 0.255376
0.030812 -0.023390 0.255519
0.032037 -0.023382 0.255501
0.033309 -0.023407 0.255851
0.034516 -0.023386 0.255698
0.035888 -0.023475 0.256749
0.037250 -0.023552 0.257669
0.039308 -0.024049 0.263194
0.041611 -0.024661 0.269978
0.043202 -0.024826 0.271875
0.044030 -0.024555 0.269010
0.045300 -0.024540 0.268938
0.046741 -0.024616 0.269861
0.047754 -0.024468 0.268340
0.049021 -0.024454 0.268290
0.050204 -0.024401 0.267802
0.051441 -0.024376 0.267630
0.052576 -0.024305 0.266949
0.053686 -0.024226 0.266181
0.054933 -0.024211 0.266119
0.056167 -0.024191 0.266003
0.057330 -0.024142 0.265567
0.059280 -0.024419 0.268720
0.061046 -0.024611 0.270935
0.062364 -0.024617 0.271110
0.063698 -0.024629 0.271353
0.065034 -0.024642 0.271599
0.066330 -0.024639 0.271674
0.067736 -0.024677 0.272189
0.068911 -0.024630 0.271781
0.070031 -0.024566 0.271177
0.070285 -0.024206 0.267301
0.071093 -0.024047 0.265637
0.072473 -0.024082 0.266128
0.072996 -0.023837 0.263514
0.073291 -0.023527 0.260178
0.074168 -0.023411 0.258987
0.075065 -0.023305 0.257902
0.076060 -0.023233 0.257182
0.077246 -0.023220 0.257123
0.078456 -0.023215 0.257146
0.079822 -0.023255 0.257671
0.081092 -0.023266 0.257875
0.082225 -0.023239 0.257641
0.083693 -0.023305 0.258448
0.085431 -0.023444 0.260054
0.098170 -0.026554 0.294631
0.099411 -0.026511 0.294218
0.099713 -0.026221 0.291071
0.101192 -0.026245 0.291399
0.102733 -0.026284 0.291889
0.103858 -0.026217 0.291200
0.105110 -0.026183 0.290874
0.106529 -0.026192 0.291010
0.107752 -0.026152 0.290610
0.109557 -0.026254 0.291767
0.111031 -0.026274 0.292018
0.112263 -0.026237 0.291632
0.113714 -0.026251 0.291810
0.115094 -0.026249 0.291800
0.116359 -0.026222 0.291496
0.117509 -0.026169 0.290907
0.118978 -0.026187 0.291106
0.120379 -0.026191 0.291128
0.121944 -0.026229 0.291535
0.123230 -0.026208 0.291268
0.124439 -0.026171 0.290816
0.126002 -0.026208 0.291185
0.127393 -0.026209 0.291143
0.129085 -0.026271 0.291773
0.130516 -0.026279 0.291797
0.132169 -0.026331 0.292299
0.133492 -0.026318 0.292060
0.135052 -0.026350 0.292326
0.136160 -0.026295 0.291607
0.137605 -0.026306 0.291607
0.139541 -0.026409 0.292623
0.141129 -0.026444 0.292881
0.142552 -0.026449 0.292782
0.143904 -0.026440 0.292528
0.145264 -0.026433 0.292279
0.146879 -0.026472 0.292529
0.148584 -0.026527 0.292933
0.150266 -0.026576 0.293268
0.151524 -0.026550 0.292761
0.152890 -0.026543 0.292451
-0.114301 -0.018359 0.215356
-0.113341 -0.018368 0.215620
-0.112607 -0.018414 0.216313
-0.111638 -0.018422 0.216549
-0.110804 -0.018452 0.217044
-0.109923 -0.018476 0.217446
-0.109055 -0.018502 0.217868
-0.108412 -0.018567 0.218745
-0.107490 -0.018585 0.219059
-0.106549 -0.018601 0.219332
-0.106809 -0.018828 0.222097
-0.105929 -0.018857 0.222516
-0.144194 -0.027282 0.322403
-0.143149 -0.027371 0.323503
-0.121127 -0.024455 0.289133
-0.119781 -0.024457 0.289152
-0.118599 -0.024493 0.289567
-0.117337 -0.024513 0.289788
-0.116291 -0.024580 0.290548
-0.114813 -0.024555 0.290226
-0.113451 -0.024555 0.290192
-0.112195 -0.024578 0.290424
-0.110833 -0.024578 0.290383
-0.109417 -0.024566 0.290192
-0.108087 -0.024574 0.290224
-0.106864 -0.024606 0.290544
-0.105569 -0.024622 0.290671
-0.104194 -0.024620 0.290577
-0.102957 -0.024651 0.290867
-0.101639 -0.024663 0.290930
-0.100030 -0.024604 0.290151
-0.099401 -0.024788 0.292230
-0.108252 -0.027374 0.322617
-0.106399 -0.027289 0.321506
-0.106053 -0.027593 0.324978
-0.104763 -0.027657 0.325616
-0.103401 -0.027703 0.326047
-0.089915 -0.024454 0.287700
-0.087994 -0.024298 0.285760
-0.088321 -0.024769 0.291176
-0.089490 -0.025494 0.299580
-0.088170 -0.025521 0.299784
-0.086849 -0.025550 0.299994
-0.085528 -0.025579 0.300216
-0.084149 -0.025592 0.300237
-0.082830 -0.025624 0.300481
-0.081450 -0.025638 0.300510
-0.079851 -0.025582 0.299720
-0.078545 -0.025620 0.300029
-0.077248 -0.025662 0.300385
-0.077307 -0.026165 0.306130
-0.071840 -0.024781 0.289802
-0.070618 -0.024835 0.290308
-0.069217 -0.024828 0.290086
-0.067878 -0.024843 0.290128
-0.066621 -0.024890 0.290533
-0.065189 -0.024871 0.290185
-0.063811 -0.024873 0.290071
-0.062418 -0.024870 0.289892
-0.061046 -0.024874 0.289808
-0.059606 -0.024851 0.289398
-0.058255 -0.024864 0.289415
-0.056886 -0.024870 0.289355
-0.055506 -0.024872 0.289239
-0.054143 -0.024881 0.289217
-0.052827 -0.024914 0.289461
-0.051553 -0.024968 0.289962
-0.050175 -0.024973 0.289894
-0.047453 -0.025004 0.289992
-0.046082 -0.025015 0.290000
-0.044721 -0.025033 0.290079
-0.043266 -0.024997 0.289542
-0.041677 -0.024879 0.288057
-0.041233 -0.025460 0.294667
-0.038038 -0.024323 0.281397
-0.036937 -0.024491 0.283230
-0.035991 -0.024779 0.286449
-0.034644 -0.024802 0.286613
-0.022042 -0.024613 0.283611
-0.020683 -0.024628 0.283712
-0.019323 -0.024642 0.283807
-0.017449 -0.023955 0.275824
-0.016122 -0.023967 0.275903
-0.014898 -0.024147 0.277920
-0.012833 -0.022865 0.263109
-0.011492 -0.022734 0.261557
-0.010223 -0.022728 0.261444
-0.008977 -0.022782 0.262027
-0.007672 -0.022677 0.260782
-0.006421 -0.022723 0.261276
-0.005170 -0.022792 0.262039
-0.003911 -0.022860 0.262801
-0.002644 -0.022926 0.263539
-0.001379 -0.023141 0.265994
-0.000089 -0.023220 0.266888
0.001204 -0.023190 0.266528
0.002524 -0.023442 0.269416
0.003902 -0.023872 0.274359
0.005351 -0.024412 0.280567
0.006712 -0.024409 0.280538
0.008072 -0.024405 0.280503
0.019172 -0.023023 0.264872
0.020446 -0.023011 0.264777
0.022468 -0.023793 0.273824
0.023676 -0.023674 0.272505
0.024264 -0.022980 0.264568
0.024647 -0.022171 0.255310
0.025920 -0.022201 0.255720
0.027172 -0.022213 0.255915
0.028397 -0.022201 0.255846
0.029604 -0.022177 0.255643
0.030821 -0.022162 0.255537
0.032119 -0.022205 0.256103
0.033306 -0.022170 0.255775
0.034483 -0.022131 0.255405
0.035915 -0.022253 0.256896
0.037518 -0.022469 0.259470
0.039545 -0.022917 0.264732
0.042182 -0.023680 0.273630
0.043458 -0.023654 0.273432
0.044362 -0.023435 0.270986
0.045659 -0.023429 0.271019
0.047147 -0.023519 0.272158
0.048417 -0.023498 0.272017
0.049426 -0.023355 0.270460
0.050645 -0.023316 0.270106
0.051842 -0.023269 0.269665
0.052800 -0.023120 0.268037
0.053917 -0.023045 0.267279
0.055139 -0.023019 0.267074
0.056345 -0.022987 0.266804
0.057846 -0.023073 0.267913
0.059756 -0.023316 0.270839
0.061130 -0.023344 0.271267
0.062458 -0.023353 0.271479
0.063703 -0.023331 0.271337
0.065085 -0.023360 0.271773
0.066339 -0.023342 0.271673
0.067636 -0.023340 0.271751
0.068979 -0.023353 0.272014
0.069946 -0.023241 0.270811
0.070590 -0.023028 0.268430
0.071025 -0.022756 0.265350
0.072447 -0.022803 0.266002
0.073343 -0.022687 0.264738
0.073627 -0.022388 0.261344
0.074212 -0.022189 0.259114
0.075230 -0.022124 0.258441
0.076210 -0.022050 0.257666
0.077280 -0.022004 0.257212
0.078391 -0.021971 0.256910
0.079638 -0.021977 0.257054
0.080897 -0.021985 0.257232
0.082206 -0.022007 0.257561
0.083877 -0.022124 0.258999
0.085279 -0.022167 0.259576
0.096977 -0.024847 0.291032
0.098203 -0.024806 0.290624
0.099905 -0.024885 0.291617
0.101326 -0.024893 0.291768
0.102662 -0.024880 0.291673
0.103847 -0.024831 0.291155
0.105161 -0.024814 0.291004
0.106463 -0.024794 0.290819
0.108712 -0.024993 0.293190
0.109659 -0.024891 0.292030
0.110509 -0.024770 0.290640
0.112463 -0.024896 0.292147
0.113864 -0.024899 0.292193
0.115490 -0.024950 0.292801
0.116770 -0.024926 0.292524
0.117904 -0.024871 0.291885
0.119423 -0.024898 0.292198
0.120657 -0.024866 0.291804
0.121904 -0.024837 0.291446
0.123290 -0.024837 0.291416
0.124458 -0.024793 0.290867
0.125869 -0.024799 0.290886
0.127310 -0.024810 0.290964
0.128765 -0.024823 0.291062
0.131035 -0.024992 0.292970
0.131651 -0.024844 0.291170
0.133767 -0.024981 0.292678
0.135220 -0.024991 0.292709
0.136563 -0.024982 0.292492
0.137898 -0.024971 0.292250
0.139445 -0.024998 0.292445
0.140912 -0.025011 0.292458
0.142368 -0.025021 0.292433
0.143884 -0.025042 0.292516
0.145453 -0.025071 0.292691
0.147001 -0.025097 0.292803
0.148493 -0.025112 0.292789
0.150056 -0.025139 0.292894
0.151778 -0.025192 0.293290
0.153008 -0.025163 0.292718
-0.113354 -0.017193 0.213597
-0.112523 -0.017220 0.214089
-0.111779 -0.017260 0.214745
-0.110784 -0.017263 0.214916
-0.109955 -0.017291 0.215403
-0.109329 -0.017353 0.216290
-0.108495 -0.017382 0.216770
-0.107760 -0.017427 0.217447
-0.107042 -0.017477 0.218163
-0.106387 -0.017538 0.219013
-0.105673 -0.017590 0.219749
-0.104828 -0.017621 0.220217
-0.103993 -0.017655 0.220705
-0.103118 -0.017682 0.221113
-0.117377 -0.023155 0.289883
-0.115916 -0.023135 0.289603
-0.114804 -0.023185 0.290198
-0.113299 -0.023155 0.289795
-0.111876 -0.023142 0.289590
-0.110694 -0.023179 0.290008
-0.109367 -0.023186 0.290046
-0.108006 -0.023187 0.289993
-0.106814 -0.023224 0.290393
-0.105443 -0.023222 0.290308
-0.104102 -0.023227 0.290302
-0.102841 -0.023251 0.290520
-0.101601 -0.023280 0.290802
-0.100150 -0.023261 0.290477
-0.100042 -0.023557 0.294091
-0.107113 -0.025576 0.319196
-0.106192 -0.025717 0.320852
-0.102736 -0.025240 0.314788
-0.104808 -0.026126 0.325728
-0.091458 -0.023138 0.288361
-0.091199 -0.023421 0.291778
-0.090197 -0.023519 0.292886
-0.090517 -0.023969 0.298384
-0.089454 -0.024063 0.299426
-0.088301 -0.024134 0.300195
-0.086555 -0.024044 0.298945
-0.085354 -0.024104 0.299565
-0.084277 -0.024202 0.300655
-0.082560 -0.024117 0.299462
-0.081221 -0.024141 0.299625
-0.079875 -0.024163 0.299771
-0.078478 -0.024171 0.299728
-0.077167 -0.024206 0.300026
-0.076508 -0.024450 0.302919
-0.071974 -0.023443 0.290299
-0.070644 -0.023459 0.290366
-0.069222 -0.023445 0.290060
-0.067898 -0.023465 0.290167
-0.066660 -0.023516 0.290656
-0.065234 -0.023501 0.290332
-0.063905 -0.023521 0.290445
-0.062541 -0.023529 0.290410
-0.061068 -0.023495 0.289856
-0.059435 -0.023397 0.288512
-0.058081 -0.023407 0.288497
-0.056808 -0.023451 0.288901
-0.055458 -0.023465 0.288933
-0.054179 -0.023509 0.289347
-0.052840 -0.023530 0.289472
-0.051541 -0.023570 0.289832
-0.050226 -0.023604 0.290126
-0.048881 -0.023627 0.290272
-0.047456 -0.023611 0.289949
-0.046094 -0.023626 0.290005
-0.044827 -0.023692 0.290698
-0.043178 -0.023555 0.288887
-0.041885 -0.023608 0.289425
-0.040568 -0.023652 0.289843
-0.037847 -0.022851 0.279920
-0.036733 -0.022997 0.281597
-0.036014 -0.023411 0.286561
-0.020698 -0.023270 0.283826
-0.018271 -0.022000 0.268275
-0.016982 -0.022012 0.268359
-0.015986 -0.022438 0.273485
-0.014783 -0.022623 0.275686
-0.012907 -0.021714 0.264559
-0.011655 -0.021769 0.265176
-0.010298 -0.021617 0.263278
-0.009012 -0.021593 0.262950
-0.007732 -0.021578 0.262724
-0.006465 -0.021599 0.262957
-0.005200 -0.021644 0.263474
-0.003936 -0.021720 0.264370
-0.002665 -0.021809 0.265435
-0.001383 -0.021906 0.266596
-0.000090 -0.021985 0.267547
0.001213 -0.022084 0.268737
0.002512 -0.022036 0.268148
0.003834 -0.022158 0.269622
0.005142 -0.022156 0.269601
0.006185 -0.021243 0.258502
0.007421 -0.021189 0.257857
0.008705 -0.021268 0.258826
0.009926 -0.021193 0.257927
0.011198 -0.021233 0.258434
0.012475 -0.021271 0.258921
0.013768 -0.021328 0.259647
0.015046 -0.021353 0.259979
0.016353 -0.021412 0.260736
0.017656 -0.021459 0.261344
0.019014 -0.021561 0.262626
0.020333 -0.021609 0.263264
0.022482 -0.022481 0.273934
0.023255 -0.021957 0.267607
0.024537 -0.021944 0.267494
0.024806 -0.021070 0.256903
0.026018 -0.021044 0.256644
0.027279 -0.021057 0.256866
0.028482 -0.021027 0.256561
0.029720 -0.021023 0.256587
0.030976 -0.021032 0.256771
0.032278 -0.021071 0.257316
0.033553 -0.021090 0.257623
0.034836 -0.021112 0.257968
0.036218 -0.021190 0.259013
0.037670 -0.021303 0.260475
0.039279 -0.021494 0.262901
0.040511 -0.021474 0.262737
0.041816 -0.021492 0.263056
0.043158 -0.021528 0.263583
0.044425 -0.021525 0.263646
0.045809 -0.021578 0.264388
0.046944 -0.021513 0.263690
0.048039 -0.021435 0.262823
0.049317 -0.021439 0.262979
0.050489 -0.021399 0.262584
0.051481 -0.021286 0.261303
0.052778 -0.021301 0.261591
0.053963 -0.021272 0.261337
0.055510 -0.021383 0.262805
0.057664 -0.021719 0.267033
0.059490 -0.021918 0.269592
0.060952 -0.021978 0.270435
0.062272 -0.021986 0.270631
0.063676 -0.022021 0.271180
0.064927 -0.022004 0.271075
0.066189 -0.021991 0.271022
0.067515 -0.022000 0.271231
0.068841 -0.022008 0.271435
0.069884 -0.021927 0.270539
0.070336 -0.021667 0.267431
0.070986 -0.021476 0.265173
0.072168 -0.021449 0.264949
0.073196 -0.021379 0.264179
0.073865 -0.021208 0.262160
0.074369 -0.020997 0.259634
0.075213 -0.020886 0.258360
0.076231 -0.020827 0.257711
0.077173 -0.020749 0.256835
0.078154 -0.020684 0.256110
0.079271 -0.020656 0.255848
0.080612 -0.020687 0.256307
0.081923 -0.020709 0.256656
0.083514 -0.020800 0.257859
0.084958 -0.020853 0.258581
0.097744 -0.023648 0.293315
0.098979 -0.023609 0.292903
0.099971 -0.023514 0.291791
0.101191 -0.023475 0.291366
0.102542 -0.023466 0.291319
0.103832 -0.023444 0.291101
0.105030 -0.023402 0.290630
0.106342 -0.023386 0.290479
0.107736 -0.023388 0.290549
0.110077 -0.023594 0.293137
0.111463 -0.023592 0.293142
0.112588 -0.023536 0.292466
0.113788 -0.023496 0.291993
0.115152 -0.023491 0.291944
0.116686 -0.023520 0.292313
0.118225 -0.023549 0.292680
0.119567 -0.023540 0.292552
0.120798 -0.023508 0.292148
0.122039 -0.023480 0.291773
0.123049 -0.023407 0.290851
0.124543 -0.023428 0.291074
0.125888 -0.023421 0.290939
0.126500 -0.023278 0.289122
0.128472 -0.023387 0.290411
0.129810 -0.023379 0.290244
0.131518 -0.023437 0.290890
0.133244 -0.023497 0.291552
0.134798 -0.023526 0.291813
0.136225 -0.023532 0.291787
0.137592 -0.023528 0.291622
0.139136 -0.023554 0.291820
0.140663 -0.023576 0.291966
0.142128 -0.023588 0.291965
0.143806 -0.023634 0.292385
0.145198 -0.023634 0.292207
0.146531 -0.023623 0.291899
0.148077 -0.023647 0.292001
0.149626 -0.023671 0.292091
0.151507 -0.023746 0.292803
0.152965 -0.023755 0.292673
-0.112839 -0.016105 0.212651
-0.112098 -0.016143 0.213303
-0.111254 -0.016166 0.213759
-0.110180 -0.016156 0.213763
-0.109348 -0.016181 0.214233
-0.108461 -0.016199 0.214592
-0.107484 -0.016204 0.214765
-0.106521 -0.016211 0.214962
-0.105615 -0.016227 0.215269
-0.104834 -0.016262 0.215829
-0.103967 -0.016285 0.216214
-0.103175 -0.016320 0.216757
-0.102355 -0.016351 0.217241
-0.101966 -0.016453 0.218652
-0.101794 -0.016592 0.220553
-0.100921 -0.016618 0.220952
-0.115954 -0.021777 0.289694
-0.111062 -0.021105 0.280733
-0.109639 -0.021085 0.280425
-0.111582 -0.021719 0.288819
-0.110422 -0.021758 0.289284
-0.109248 -0.021794 0.289721
-0.107859 -0.021789 0.289586
-0.106642 -0.021818 0.289913
-0.105427 -0.021848 0.290250
-0.103966 -0.021828 0.289907
-0.102729 -0.021855 0.290189
-0.101558 -0.021897 0.290661
-0.100042 -0.021864 0.290145
-0.098281 -0.021777 0.288896
-0.101016 -0.022697 0.301006
-0.106390 -0.024245 0.321426
-0.096885 -0.022397 0.296836
-0.093859 -0.022016 0.291674
-0.091861 -0.021868 0.289606
-0.092640 -0.022386 0.296360
-0.092075 -0.022591 0.298954
-0.090846 -0.022636 0.299438
-0.089678 -0.022699 0.300144
-0.087284 -0.022448 0.296707
-0.086486 -0.022606 0.298673
-0.085208 -0.022642 0.299019
-0.083729 -0.022625 0.298663
-0.082268 -0.022613 0.298364
-0.080959 -0.022642 0.298617
-0.079615 -0.022662 0.298754
-0.078355 -0.022708 0.299221
-0.076912 -0.022701 0.298994
-0.077050 -0.023170 0.305022
-0.072285 -0.022154 0.291511
-0.070661 -0.022079 0.290393
-0.069298 -0.022085 0.290335
-0.067873 -0.022071 0.290011
-0.066634 -0.022118 0.290494
-0.065314 -0.022140 0.290643
-0.063888 -0.022126 0.290319
-0.062525 -0.022134 0.290285
-0.061223 -0.022164 0.290542
-0.059442 -0.022018 0.288491
-0.058109 -0.022035 0.288580
-0.056840 -0.022079 0.289010
-0.055542 -0.022112 0.289311
-0.054225 -0.022140 0.289540
-0.052874 -0.022154 0.289597
-0.051593 -0.022200 0.290063
-0.050237 -0.022215 0.290129
-0.048860 -0.022222 0.290088
-0.047476 -0.022226 0.290007
-0.046133 -0.022249 0.290193
-0.044804 -0.022282 0.290487
-0.043410 -0.022282 0.290374
-0.041656 -0.022092 0.287777
-0.041410 -0.022717 0.295793
-0.037875 -0.021517 0.280062
-0.036574 -0.021545 0.280315
-0.033809 -0.020680 0.268954
-0.032356 -0.020580 0.267552
-0.031084 -0.020592 0.267609
-0.029867 -0.020643 0.268174
-0.028538 -0.020617 0.267751
-0.027220 -0.020598 0.267408
-0.025859 -0.020543 0.266608
-0.024587 -0.020556 0.266696
-0.023311 -0.020567 0.266761
-0.022048 -0.020592 0.267005
-0.020716 -0.020551 0.266402
-0.019494 -0.020621 0.267246
-0.018167 -0.020582 0.266674
-0.016922 -0.020639 0.267344
-0.015903 -0.021002 0.271983
-0.014931 -0.021500 0.278371
-0.013589 -0.021509 0.278439
-0.011651 -0.020474 0.264994
-0.010407 -0.020555 0.265993
-0.009054 -0.020411 0.264092
-0.007773 -0.020409 0.264025
-0.006538 -0.020550 0.265818
-0.005262 -0.020604 0.266487
-0.003986 -0.020688 0.267548
-0.002698 -0.020770 0.268591
-0.001396 -0.020787 0.268793
-0.000092 -0.020865 0.269787
0.001215 -0.020820 0.269190
0.002526 -0.020859 0.269685
0.003855 -0.020969 0.271103
0.005171 -0.020967 0.271081
0.006155 -0.019895 0.257230
0.007413 -0.019919 0.257548
0.008677 -0.019950 0.257966
0.009915 -0.019922 0.257617
0.011175 -0.019939 0.257850
0.012438 -0.019957 0.258108
0.013700 -0.019971 0.258317
0.014975 -0.019999 0.258712
0.016276 -0.020055 0.259472
0.017499 -0.020013 0.258975
0.018831 -0.020094 0.260055
0.020247 -0.020248 0.262094
0.021875 -0.020584 0.266496
0.023154 -0.020572 0.266389
0.024238 -0.020397 0.264182
0.025109 -0.020069 0.259997
0.026070 -0.019841 0.257102
0.027293 -0.019825 0.256951
0.028555 -0.019836 0.257166
0.029716 -0.019780 0.256508
0.030914 -0.019752 0.256211
0.032224 -0.019794 0.256836
0.033381 -0.019743 0.256254
0.034508 -0.019679 0.255498
0.036086 -0.019867 0.258023
0.038103 -0.020276 0.263422
0.039887 -0.020539 0.266922
0.041402 -0.020651 0.268471
0.042799 -0.020699 0.269193
0.044028 -0.020666 0.268850
0.045130 -0.020576 0.267782
0.046808 -0.020747 0.270107
0.047770 -0.020600 0.268288
0.048730 -0.020460 0.266562
0.050285 -0.020570 0.268099
0.051439 -0.020515 0.267483
0.052661 -0.020489 0.267247
0.053794 -0.020430 0.266589
0.054860 -0.020349 0.265639
0.056200 -0.020372 0.266034
0.057355 -0.020328 0.265564
0.059285 -0.020554 0.268626
0.061055 -0.020716 0.270856
0.062367 -0.020720 0.271009
0.063662 -0.020717 0.271084
0.064935 -0.020708 0.271072
0.066198 -0.020696 0.271024
0.067546 -0.020711 0.271320
0.068813 -0.020700 0.271292
0.069908 -0.020640 0.270600
0.070709 -0.020496 0.268818
0.071225 -0.020276 0.266038
0.072112 -0.020168 0.264714
0.073404 -0.020175 0.264902
0.073998 -0.019993 0.262607
0.074740 -0.019856 0.260906
0.075556 -0.019743 0.259514
0.076576 -0.019686 0.258856
0.077608 -0.019635 0.258259
0.078579 -0.019569 0.257482
0.079859 -0.019581 0.257725
0.081357 -0.019646 0.258656
0.082547 -0.019635 0.258592
0.084176 -0.019728 0.259887
0.085276 -0.019696 0.259531
0.097879 -0.022283 0.293702
0.099115 -0.022246 0.293290
0.100164 -0.022169 0.292340
0.101421 -0.022139 0.292013
0.102752 -0.022127 0.291904
0.104078 -0.022113 0.291779
0.105319 -0.022082 0.291419
0.106632 -0.022066 0.291263
0.108029 -0.022068 0.291332
0.109514 -0.022088 0.291630
0.110801 -0.022068 0.291397
0.112203 -0.022071 0.291461
0.113679 -0.022089 0.291711
0.114859 -0.022049 0.291198
0.116680 -0.022131 0.292296
0.117624 -0.022047 0.291193
0.119623 -0.022161 0.292691
0.120839 -0.022129 0.292250
0.122118 -0.022109 0.291966
0.123296 -0.022071 0.291440
0.124483 -0.022035 0.290940
0.125539 -0.021978 0.290141
0.127213 -0.022029 0.290763
0.128975 -0.022094 0.291561
0.130417 -0.022103 0.291615
0.131723 -0.022089 0.291357
0.133327 -0.022125 0.291748
0.134729 -0.022127 0.291680
0.136157 -0.022133 0.291660
0.137487 -0.022123 0.291419
0.138919 -0.022130 0.291387
0.140464 -0.022154 0.291574
0.141919 -0.022164 0.291561
0.143690 -0.022223 0.292175
0.145095 -0.022224 0.292027
0.146638 -0.022246 0.292141
0.148176 -0.022267 0.292227
0.150124 -0.022349 0.293096
0.151791 -0.022388 0.293386
0.153291 -0.022402 0.293334
-0.112238 -0.015015 0.211540
-0.111487 -0.015048 0.212162
-0.110870 -0.015100 0.213041
-0.109261 -0.015017 0.211999
-0.108386 -0.015034 0.212366
-0.107592 -0.015062 0.212888
-0.106353 -0.015028 0.212521
-0.105435 -0.015040 0.212785
-0.104528 -0.015053 0.213068
-0.103668 -0.015073 0.213443
-0.102793 -0.015092 0.213784
-0.101789 -0.015091 0.213855
-0.100989 -0.015122 0.214350
-0.100288 -0.015168 0.215061
-0.100228 -0.015313 0.217169
-0.099327 -0.015330 0.217471
-0.097732 -0.015241 0.216235
-0.097048 -0.015292 0.217006
-0.096573 -0.015379 0.218259
-0.095634 -0.015392 0.218472
-0.095554 -0.015546 0.220666
-0.095302 -0.015674 0.222504
-0.094416 -0.015700 0.222879
-0.134888 -0.024025 0.340951
-0.109300 -0.019701 0.279552
-0.108769 -0.019844 0.281530
-0.108834 -0.020100 0.285116
-0.108119 -0.020216 0.286715
-0.107425 -0.020340 0.288409
-0.105942 -0.020315 0.287996
-0.104712 -0.020339 0.288267
-0.103747 -0.020416 0.289281
-0.102547 -0.020448 0.289656
-0.100989 -0.020408 0.289015
-0.099786 -0.020440 0.289386
-0.098696 -0.020497 0.290094
-0.102949 -0.021680 0.306742
-0.100086 -0.021377 0.302356
-0.095379 -0.020666 0.292196
-0.093955 -0.020656 0.291948
-0.094815 -0.021155 0.298891
-0.093681 -0.021218 0.299664
-0.092127 -0.021185 0.299095
-0.091002 -0.021253 0.299924
-0.089618 -0.021261 0.299913
-0.088128 -0.021243 0.299542
-0.086780 -0.021260 0.299654
-0.085382 -0.021265 0.299595
-0.083848 -0.021236 0.299055
-0.082354 -0.021216 0.298642
-0.081051 -0.021245 0.298921
-0.079590 -0.021234 0.298621
-0.078234 -0.021250 0.298720
-0.076979 -0.021295 0.299213
-0.077085 -0.021726 0.305119
-0.072139 -0.020722 0.290880
-0.070657 -0.020693 0.290336
-0.069293 -0.020698 0.290270
-0.067913 -0.020698 0.290140
-0.066656 -0.020737 0.290548
-0.065266 -0.020736 0.290384
-0.063761 -0.020696 0.289695
-0.062456 -0.020722 0.289914
-0.061085 -0.020726 0.289837
-0.059709 -0.020729 0.289738
-0.058322 -0.020728 0.289591
-0.056979 -0.020743 0.289663
-0.055660 -0.020768 0.289873
-0.054292 -0.020776 0.289842
-0.052945 -0.020792 0.289936
-0.051611 -0.020814 0.290111
-0.050271 -0.020835 0.290270
-0.048897 -0.020843 0.290250
-0.047518 -0.020849 0.290207
-0.046156 -0.020863 0.290275
-0.044821 -0.020891 0.290537
-0.043160 -0.020763 0.288641
-0.041493 -0.020625 0.286592
-0.041014 -0.021088 0.292904
-0.037974 -0.020219 0.280732
-0.036714 -0.020270 0.281323
-0.034589 -0.019829 0.275096
-0.032705 -0.019496 0.270377
-0.031523 -0.019572 0.271326
-0.030267 -0.019605 0.271698
-0.028876 -0.019552 0.270860
-0.027581 -0.019561 0.270893
-0.026338 -0.019609 0.271478
-0.025080 -0.019651 0.271974
-0.023847 -0.019718 0.272821
-0.022517 -0.019709 0.272614
-0.021141 -0.019656 0.271798
-0.019839 -0.019668 0.271896
-0.018338 -0.019472 0.269122
-0.017045 -0.019483 0.269206
-0.015951 -0.019743 0.272736
-0.014834 -0.020018 0.276477
-0.013296 -0.019723 0.272349
-0.011962 -0.019700 0.271988
-0.010703 -0.019811 0.273474
-0.009358 -0.019770 0.272857
-0.008045 -0.019796 0.273183
-0.006691 -0.019709 0.271950
-0.005370 -0.019702 0.271826
-0.004046 -0.019678 0.271470
-0.002731 -0.019700 0.271747
-0.001413 -0.019704 0.271774
-0.000093 -0.019657 0.271123
0.001224 -0.019671 0.271300
0.002518 -0.019491 0.268810
0.003847 -0.019616 0.270536
0.005160 -0.019615 0.270515
0.006161 -0.018667 0.257457
0.007409 -0.018661 0.257376
0.008665 -0.018674 0.257573
0.009906 -0.018656 0.257336
0.011167 -0.018676 0.257629
0.012446 -0.018717 0.258229
0.013728 -0.018757 0.258799
0.015009 -0.018787 0.259246
0.016305 -0.018830 0.259881
0.017591 -0.018857 0.260291
0.018873 -0.018875 0.260585
0.020235 -0.018967 0.261895
0.021796 -0.019223 0.265489
0.023155 -0.019282 0.266356
0.024014 -0.018941 0.261694
0.025269 -0.018930 0.261603
0.026144 -0.018650 0.257791
0.027410 -0.018661 0.258011
0.028672 -0.018668 0.258181
0.029884 -0.018644 0.257915
0.031137 -0.018646 0.258018
0.032504 -0.018714 0.259028
0.033961 -0.018826 0.260663
0.035453 -0.018950 0.262447
0.036918 -0.019050 0.263923
0.038480 -0.019193 0.265985
0.039964 -0.019288 0.267391
0.041407 -0.019358 0.268457
0.042700 -0.019356 0.268528
0.043949 -0.019335 0.268324
0.044971 -0.019218 0.266800
0.046003 -0.019111 0.265416
0.047098 -0.019036 0.264472
0.047216 -0.018580 0.258238
0.048790 -0.018706 0.260088
0.049963 -0.018676 0.259771
0.050978 -0.018590 0.258671
0.052294 -0.018615 0.259119
0.053515 -0.018605 0.259089
0.055009 -0.018689 0.260361
0.056782 -0.018862 0.262874
0.058643 -0.019056 0.265678
0.060598 -0.019271 0.268793
0.062210 -0.019371 0.270293
0.063479 -0.019362 0.270274
0.064814 -0.019373 0.270534
0.066156 -0.019386 0.270821
0.067433 -0.019379 0.270836
0.068787 -0.019395 0.271160
0.069848 -0.019329 0.270339
0.070701 -0.019208 0.268760
0.071325 -0.019031 0.266384
0.072105 -0.018901 0.264662
0.073407 -0.018910 0.264885
0.074306 -0.018817 0.263674
0.075123 -0.018706 0.262219
0.075847 -0.018576 0.260491
0.076859 -0.018520 0.259790
0.078016 -0.018500 0.259595
0.079165 -0.018479 0.259384
0.080534 -0.018508 0.259884
0.082062 -0.018573 0.260878
0.083493 -0.018615 0.261539
0.085472 -0.018776 0.263872
0.094365 -0.020428 0.287176
0.095576 -0.020394 0.286777
0.098709 -0.020766 0.292074
0.100080 -0.020762 0.292082
0.101365 -0.020740 0.291838
0.102672 -0.020723 0.291663
0.103999 -0.020710 0.291546
0.105322 -0.020697 0.291416
0.106748 -0.020705 0.291571
0.108317 -0.020740 0.292102
0.109626 -0.020724 0.291921
0.110970 -0.020716 0.291836
0.112272 -0.020700 0.291637
0.113637 -0.020696 0.291599
0.115089 -0.020708 0.291780
0.116768 -0.020759 0.292517
0.118136 -0.020755 0.292461
0.119251 -0.020707 0.291782
0.120714 -0.020720 0.291953
0.122090 -0.020718 0.291903
0.122989 -0.020636 0.290719
0.124526 -0.020661 0.291047
0.125759 -0.020636 0.290657
0.127635 -0.020716 0.291735
0.129190 -0.020743 0.292056
0.130506 -0.020731 0.291824
0.131589 -0.020683 0.291073
0.133231 -0.020723 0.291552
0.134831 -0.020755 0.291918
0.136157 -0.020745 0.291676
0.137606 -0.020754 0.291689
0.139143 -0.020776 0.291876
0.140409 -0.020757 0.291481
0.142005 -0.020787 0.291759
0.143435 -0.020793 0.291682
0.145136 -0.020837 0.292134
0.146553 -0.020840 0.291998
0.147948 -0.020840 0.291806
0.149432 -0.020852 0.291774
0.151241 -0.020909 0.292354
0.152866 -0.020940 0.292554
-0.111058 -0.013864 0.209336
-0.110184 -0.013878 0.209702
-0.109459 -0.013911 0.210347
-0.108553 -0.013922 0.210644
-0.107713 -0.013941 0.211064
-0.106897 -0.013964 0.211530
-0.105982 -0.013974 0.211795
-0.105095 -0.013989 0.212113
-0.104183 -0.014000 0.212377
-0.103181 -0.013999 0.212452
-0.102262 -0.014010 0.212692
-0.101299 -0.014014 0.212836
-0.100286 -0.014012 0.212869
-0.099338 -0.014019 0.213033
-0.098276 -0.014010 0.212947
-0.097270 -0.014009 0.212974
-0.096323 -0.014016 0.213125
-0.095589 -0.014055 0.213749
-0.094711 -0.014073 0.214054
-0.093927 -0.014106 0.214575
-0.093519 -0.014197 0.215970
-0.092623 -0.014214 0.216250
-0.092350 -0.014329 0.218004
-0.091737 -0.014393 0.218977
-0.090863 -0.014418 0.219340
-0.137256 -0.022283 0.338964
-0.135898 -0.022321 0.339508
-0.134928 -0.022424 0.341044
-0.133556 -0.022463 0.341581
-0.110696 -0.018844 0.286511
-0.107998 -0.018611 0.282917
-0.107343 -0.018728 0.284649
-0.107055 -0.018913 0.287405
-0.106153 -0.018994 0.288558
-0.105068 -0.019042 0.289233
-0.103706 -0.019042 0.289152
-0.102551 -0.019080 0.289652
-0.101383 -0.019117 0.290128
-0.100047 -0.019122 0.290126
-0.097641 -0.018921 0.286977
-0.101850 -0.020013 0.303447
-0.100620 -0.020053 0.303948
-0.102595 -0.020742 0.314281
-0.099681 -0.020448 0.309717
-0.097897 -0.020381 0.308585
-0.095017 -0.020080 0.303912
-0.092444 -0.019836 0.300098
-0.091276 -0.019890 0.300800
-0.089714 -0.019859 0.300206
-0.088178 -0.019833 0.299685
-0.086717 -0.019823 0.299407
-0.085079 -0.019771 0.298503
-0.084048 -0.019862 0.299734
-0.082513 -0.019834 0.299185
-0.080889 -0.019784 0.298290
-0.079702 -0.019840 0.299008
-0.078417 -0.019874 0.299383
-0.077172 -0.019920 0.299926
-0.076614 -0.020148 0.303218
-0.071651 -0.019204 0.288875
-0.070546 -0.019277 0.289840
-0.069242 -0.019298 0.290018
-0.067733 -0.019262 0.289332
-0.066517 -0.019309 0.289900
-0.065199 -0.019327 0.290041
-0.063786 -0.019318 0.289765
-0.062440 -0.019330 0.289796
-0.061072 -0.019334 0.289729
-0.059689 -0.019335 0.289596
-0.058370 -0.019356 0.289779
-0.057008 -0.019364 0.289762
-0.055640 -0.019371 0.289721
-0.054325 -0.019396 0.289971
-0.052998 -0.019419 0.290172
-0.051619 -0.019423 0.290104
-0.050300 -0.019451 0.290389
-0.048955 -0.019470 0.290544
-0.047571 -0.019474 0.290473
-0.046158 -0.019467 0.290236
-0.044831 -0.019496 0.290547
-0.043482 -0.019517 0.290737
-0.041697 -0.019338 0.287945
-0.040750 -0.019549 0.290959
-0.038178 -0.018966 0.282178
-0.036809 -0.018961 0.281991
-0.035959 -0.019233 0.285929
-0.034936 -0.019431 0.288761
-0.030283 -0.018302 0.271787
-0.028892 -0.018252 0.270949
-0.027597 -0.018261 0.270982
-0.026353 -0.018306 0.271568
-0.025094 -0.018345 0.272064
-0.023861 -0.018408 0.272912
-0.022530 -0.018399 0.272704
-0.021153 -0.018349 0.271889
-0.017154 -0.018293 0.270853
-0.016338 -0.018866 0.279273
-0.015119 -0.019035 0.281706
-0.013474 -0.018648 0.275931
-0.012042 -0.018503 0.273739
-0.010781 -0.018617 0.275365
-0.009442 -0.018610 0.275222
-0.008071 -0.018527 0.273961
-0.006720 -0.018467 0.273034
-0.005380 -0.018416 0.272254
-0.004048 -0.018365 0.271471
-0.002746 -0.018472 0.273030
-0.001418 -0.018443 0.272585
-0.000095 -0.018434 0.272436
0.001211 -0.018173 0.268568
0.002500 -0.018063 0.266941
0.003849 -0.018313 0.270628
0.006156 -0.017406 0.257226
0.007408 -0.017412 0.257335
0.008677 -0.017451 0.257918
0.009908 -0.017412 0.257367
0.011175 -0.017440 0.257789
0.012441 -0.017458 0.258093
0.013722 -0.017494 0.258651
0.014978 -0.017494 0.258675
0.016257 -0.017519 0.259077
0.017504 -0.017509 0.258966
0.018902 -0.017640 0.260951
0.020287 -0.017743 0.262528
0.021892 -0.018016 0.266607
0.023123 -0.017967 0.265944
0.024053 -0.017702 0.262069
0.025356 -0.017724 0.262461
0.026337 -0.017530 0.259650
0.027551 -0.017501 0.259291
0.028776 -0.017482 0.259073
0.030039 -0.017487 0.259208
0.031383 -0.017536 0.260010
0.032792 -0.017616 0.261279
0.034320 -0.017752 0.263370
0.035746 -0.017827 0.264573
0.037173 -0.017898 0.265707
0.038618 -0.017972 0.266892
0.039833 -0.017938 0.266475
0.041056 -0.017909 0.266139
0.042472 -0.017964 0.267047
0.043251 -0.017754 0.264024
0.043332 -0.017278 0.257035
0.044231 -0.017145 0.255155
0.045546 -0.017177 0.255720
0.046540 -0.017089 0.254507
0.047841 -0.017115 0.254997
0.049063 -0.017112 0.255053
0.050387 -0.017145 0.255637
0.051695 -0.017170 0.256114
0.053200 -0.017258 0.257528
0.054602 -0.017309 0.258399
0.056125 -0.017396 0.259797
0.058305 -0.017678 0.264118
0.060551 -0.017968 0.268552
0.062096 -0.018041 0.269762
0.063328 -0.018023 0.269599
0.064730 -0.018053 0.270151
0.066110 -0.018076 0.270600
0.067344 -0.018058 0.270449
0.068705 -0.018075 0.270805
0.069897 -0.018047 0.270498
0.070733 -0.017931 0.268853
0.071465 -0.017792 0.266880
0.072572 -0.017750 0.266351
0.073843 -0.017749 0.266436
0.074786 -0.017671 0.265354
0.075461 -0.017533 0.263375
0.076272 -0.017430 0.261927
0.077509 -0.017427 0.261966
0.078838 -0.017444 0.262312
0.080239 -0.017476 0.262881
0.081530 -0.017484 0.263080
0.083068 -0.017543 0.264059
0.084581 -0.017596 0.264931
0.086711 -0.017773 0.267678
0.094405 -0.019069 0.287283
0.095617 -0.019038 0.286884
0.098700 -0.019375 0.292031
0.100005 -0.019358 0.291848
0.101259 -0.019332 0.291521
0.102710 -0.019343 0.291760
0.103953 -0.019316 0.291405
0.105281 -0.019305 0.291296
0.106522 -0.019279 0.290944
0.107867 -0.019272 0.290879
0.109329 -0.019285 0.291124
0.110711 -0.019285 0.291148
0.112533 -0.019360 0.292311
0.113621 -0.019309 0.291555
0.114996 -0.019307 0.291541
0.116786 -0.019373 0.292560
0.117914 -0.019330 0.291910
0.119198 -0.019313 0.291652
0.120368 -0.019279 0.291116
0.121566 -0.019249 0.290655
0.122778 -0.019222 0.290226
0.123899 -0.019182 0.289587
0.125198 -0.019170 0.289367
0.127616 -0.019328 0.291701
0.129291 -0.019371 0.292294
0.130562 -0.019353 0.291961
0.131841 -0.019337 0.291642
0.133188 -0.019331 0.291471
0.134595 -0.019333 0.291421
0.136188 -0.019362 0.291757
0.137555 -0.019359 0.291598
0.138980 -0.019364 0.291551
0.140483 -0.019380 0.291654
0.141661 -0.019350 0.291074
0.143834 -0.019456 0.292515
0.145166 -0.019448 0.292219
0.146685 -0.019464 0.292286
0.148105 -0.019467 0.292142
0.149693 -0.019492 0.292313
0.151244 -0.019511 0.292390
0.152709 -0.019520 0.292284
-0.110631 -0.012821 0.208551
-0.109822 -0.012841 0.209030
-0.109087 -0.012870 0.209650
-0.108292 -0.012893 0.210154
-0.107524 -0.012919 0.210708
-0.106650 -0.012933 0.211054
-0.105868 -0.012959 0.211580
-0.105121 -0.012989 0.212179
-0.104128 -0.012989 0.212276
-0.103189 -0.012997 0.212479
-0.102181 -0.012995 0.212533
-0.101155 -0.012991 0.212542
-0.099958 -0.012965 0.212180
-0.098995 -0.012969 0.212305
-0.097840 -0.012948 0.212009
-0.096988 -0.012967 0.212361
-0.096117 -0.012984 0.212674
-0.095298 -0.013008 0.213103
-0.094498 -0.013035 0.213576
-0.093555 -0.013043 0.213729
-0.092765 -0.013073 0.214230
-0.092026 -0.013110 0.214859
-0.091058 -0.013116 0.214953
-0.090074 -0.013119 0.215008
-0.089191 -0.013138 0.215303
-0.088642 -0.013206 0.216414
-0.087979 -0.013259 0.217266
-0.087934 -0.013407 0.219680
-0.134965 -0.020822 0.341131
-0.107408 -0.017615 0.288342
-0.106237 -0.017645 0.288774
-0.105021 -0.017669 0.289092
-0.103790 -0.017691 0.289373
-0.102575 -0.017716 0.289707
-0.101439 -0.017755 0.290271
-0.100018 -0.017746 0.290022
-0.098063 -0.017639 0.288198
-0.103450 -0.018870 0.308198
-0.103008 -0.019056 0.311141
-0.102629 -0.019260 0.314364
-0.101016 -0.019235 0.313842
-0.099238 -0.019178 0.312788
-0.097795 -0.019184 0.312772
-0.094143 -0.018751 0.305588
-0.092920 -0.018796 0.306190
-0.090765 -0.018650 0.303697
-0.088648 -0.018508 0.301255
-0.086899 -0.018439 0.300008
-0.085604 -0.018466 0.300314
-0.083839 -0.018391 0.298960
-0.082215 -0.018344 0.298071
-0.080784 -0.018340 0.297870
-0.079390 -0.018345 0.297803
-0.077719 -0.018284 0.296682
-0.076822 -0.018407 0.298530
-0.076645 -0.018710 0.303302
-0.072080 -0.017932 0.290567
-0.070594 -0.017906 0.290002
-0.069317 -0.017933 0.290296
-0.067944 -0.017935 0.290193
-0.066589 -0.017943 0.290174
-0.065286 -0.017964 0.290387
-0.063924 -0.017971 0.290353
-0.062517 -0.017965 0.290112
-0.061229 -0.017993 0.290432
-0.059865 -0.018000 0.290406
-0.058463 -0.017996 0.290199
-0.057146 -0.018018 0.290421
-0.055723 -0.018008 0.290111
-0.054405 -0.018031 0.290348
-0.053072 -0.018051 0.290529
-0.051663 -0.018045 0.290305
-0.050304 -0.018057 0.290358
-0.048924 -0.018062 0.290309
-0.047603 -0.018089 0.290618
-0.046218 -0.018093 0.290561
-0.044858 -0.018108 0.290668
-0.040604 -0.018080 0.289860
-0.038568 -0.017785 0.285010
-0.037234 -0.017803 0.285192
-0.035977 -0.017862 0.286016
-0.034954 -0.018046 0.288849
-0.033592 -0.018062 0.289010
-0.029152 -0.016354 0.261577
-0.028025 -0.016433 0.262760
-0.026844 -0.016487 0.263535
-0.025667 -0.016549 0.264440
-0.024306 -0.016493 0.263460
-0.023115 -0.016553 0.264327
-0.021914 -0.016611 0.265183
-0.020577 -0.016568 0.264417
-0.019342 -0.016606 0.264963
-0.018603 -0.017107 0.272878
-0.017291 -0.017116 0.272964
-0.016347 -0.017521 0.279360
-0.004138 -0.017423 0.277402
-0.002791 -0.017425 0.277418
-0.001436 -0.017325 0.275803
-0.000097 -0.017326 0.275807
0.001204 -0.016792 0.267293
0.002499 -0.016767 0.266894
0.005201 -0.017126 0.272601
0.006192 -0.016252 0.258702
0.007418 -0.016186 0.257660
0.008704 -0.016250 0.258691
0.009939 -0.016215 0.258141
0.011210 -0.016240 0.258558
0.012499 -0.016283 0.259274
0.013783 -0.016312 0.259763
0.015033 -0.016299 0.259589
0.016362 -0.016367 0.260712
0.017707 -0.016441 0.261927
0.018991 -0.016452 0.262142
0.020349 -0.016521 0.263285
0.021902 -0.016731 0.266690
0.023248 -0.016768 0.267333
0.024297 -0.016599 0.264694
0.025552 -0.016580 0.264450
0.026607 -0.016439 0.262267
0.027812 -0.016400 0.261705
0.029068 -0.016392 0.261655
0.030349 -0.016399 0.261836
0.031731 -0.016458 0.262854
0.033199 -0.016555 0.264477
0.034648 -0.016636 0.265850
0.035964 -0.016649 0.266142
0.037264 -0.016654 0.266311
0.038549 -0.016653 0.266373
0.039916 -0.016686 0.266994
0.041016 -0.016608 0.265846
0.042247 -0.016587 0.265597
0.043660 -0.016637 0.266485
0.043096 -0.015951 0.255598
0.044022 -0.015840 0.253917
0.045225 -0.015832 0.253886
0.046406 -0.015817 0.253738
0.047619 -0.015814 0.253780
0.048838 -0.015812 0.253851
0.050160 -0.015843 0.254453
0.051421 -0.015854 0.254725
0.053079 -0.015983 0.256911
0.054526 -0.016045 0.258010
0.056327 -0.016206 0.260700
0.058230 -0.016389 0.263747
0.060355 -0.016625 0.267651
0.062028 -0.016729 0.269437
0.063387 -0.016746 0.269818
0.064671 -0.016743 0.269876
0.066082 -0.016772 0.270459
0.067414 -0.016781 0.270702
0.068668 -0.016770 0.270634
0.069920 -0.016759 0.270561
0.071184 -0.016751 0.270540
0.072310 -0.016711 0.270009
0.073557 -0.016701 0.269943
0.074633 -0.016653 0.269264
0.075880 -0.016643 0.269214
0.076961 -0.016599 0.268589
0.078064 -0.016560 0.268059
0.079339 -0.016559 0.268134
0.080860 -0.016608 0.269020
0.082227 -0.016625 0.269378
0.083703 -0.016662 0.270074
0.085161 -0.016695 0.270697
0.086778 -0.016758 0.271795
0.088325 -0.016806 0.272648
0.094221 -0.017667 0.286707
0.095430 -0.017638 0.286309
