ply
format ascii 1.0
element vertex 1679
property float x
property float y
property float z
end_header
-0.110960 -0.016918 0.277204
-0.112046 -0.017286 0.283201
-0.111806 -0.017456 0.285947
-0.109848 -0.017359 0.284307
-0.108322 -0.017328 0.283756
-0.107103 -0.017346 0.284002
-0.105953 -0.017376 0.284436
-0.104755 -0.017399 0.284747
-0.107835 -0.018142 0.296840
-0.106624 -0.018174 0.297275
-0.105018 -0.018138 0.296608
-0.103883 -0.018183 0.297265
-0.102037 -0.018104 0.295879
-0.099579 -0.017912 0.292654
-0.097986 -0.017873 0.291917
-0.096709 -0.017891 0.292115
-0.095143 -0.017856 0.291434
-0.093460 -0.017797 0.290368
-0.092925 -0.017958 0.292889
-0.092492 -0.018144 0.295812
-0.091083 -0.018142 0.295655
-0.089150 -0.018033 0.293768
-0.087904 -0.018062 0.294124
-0.086337 -0.018025 0.293400
-0.084842 -0.018003 0.292907
-0.083428 -0.017997 0.292681
-0.082044 -0.017997 0.292560
-0.080843 -0.018038 0.293097
-0.079478 -0.018044 0.293056
-0.078271 -0.018086 0.293607
-0.077032 -0.018122 0.294058
-0.075827 -0.018168 0.294664
-0.074488 -0.018183 0.294769
-0.073325 -0.018242 0.295587
-0.072229 -0.018321 0.296718
-0.071566 -0.018515 0.299712
-0.067619 -0.017849 0.288804
-0.066263 -0.017855 0.288751
-0.064936 -0.017868 0.288833
-0.063670 -0.017900 0.289199
-0.062322 -0.017909 0.289206
-0.061005 -0.017928 0.289371
-0.059698 -0.017950 0.289597
-0.058298 -0.017945 0.289379
-0.056940 -0.017953 0.289374
-0.055567 -0.017957 0.289295
-0.054190 -0.017960 0.289200
-0.052816 -0.017964 0.289130
-0.051484 -0.017982 0.289299
-0.050119 -0.017990 0.289295
-0.048666 -0.017966 0.288777
-0.047268 -0.017962 0.288574
-0.045946 -0.017987 0.288847
-0.044619 -0.018011 0.289120
-0.043263 -0.018025 0.289218
-0.041899 -0.018037 0.289288
-0.040414 -0.017996 0.288506
-0.038888 -0.017933 0.287373
-0.037493 -0.017927 0.287177
-0.036632 -0.018187 0.291220
-0.035261 -0.018204 0.291389
-0.030052 -0.016159 0.258553
-0.028878 -0.016200 0.259120
-0.027636 -0.016205 0.259115
-0.026403 -0.016216 0.259204
-0.025257 -0.016285 0.260216
-0.024007 -0.016290 0.260217
-0.022686 -0.016245 0.259418
-0.021464 -0.016270 0.259745
-0.020122 -0.016202 0.258575
-0.018804 -0.016144 0.257594
-0.018179 -0.016717 0.266657
-0.017025 -0.016852 0.268755
-0.016579 -0.017771 0.283334
-0.012606 -0.016194 0.258087
-0.011310 -0.016129 0.257012
-0.010064 -0.016131 0.257000
-0.008835 -0.016163 0.257470
-0.007587 -0.016165 0.257461
-0.006348 -0.016192 0.257857
-0.005096 -0.016188 0.257770
-0.003849 -0.016208 0.258055
-0.002602 -0.016243 0.258600
-0.001346 -0.016241 0.258541
-0.000091 -0.016266 0.258922
0.001228 -0.017126 0.272612
0.002554 -0.017137 0.272773
0.006167 -0.016188 0.257673
0.007413 -0.016175 0.257481
0.008664 -0.016175 0.257494
0.009925 -0.016192 0.257780
0.011177 -0.016191 0.257788
0.012436 -0.016200 0.257950
0.013703 -0.016217 0.258250
0.014986 -0.016248 0.258778
0.016270 -0.016276 0.259255
0.017513 -0.016261 0.259061
0.018824 -0.016307 0.259827
0.020305 -0.016485 0.262714
0.023130 -0.017669 0.281638
0.024482 -0.017658 0.281524
0.025831 -0.017647 0.281404
0.024816 -0.016102 0.256830
0.025987 -0.016056 0.256159
0.027221 -0.016051 0.256145
0.028577 -0.016116 0.257237
0.029877 -0.016144 0.257765
0.031062 -0.016111 0.257310
0.032359 -0.016137 0.257791
0.033611 -0.016138 0.257892
0.034833 -0.016126 0.257773
0.036022 -0.016099 0.257436
0.037414 -0.016163 0.258535
0.039597 -0.016552 0.264854
0.041730 -0.016897 0.270471
0.043362 -0.017025 0.272605
0.042248 -0.016098 0.257865
0.043131 -0.015964 0.255808
0.044368 -0.015965 0.255909
0.045571 -0.015953 0.255826
0.046655 -0.015902 0.255102
0.047907 -0.015909 0.255314
0.049154 -0.015914 0.255492
0.050370 -0.015909 0.255517
0.051601 -0.015909 0.255618
0.052919 -0.015935 0.256136
0.054572 -0.016059 0.258227
0.056368 -0.016218 0.260889
0.058500 -0.016465 0.264967
0.060257 -0.016598 0.267216
0.061843 -0.016679 0.268635
0.063189 -0.016694 0.268978
0.064709 -0.016753 0.270036
0.066256 -0.016816 0.271171
0.067600 -0.016827 0.271447
0.068991 -0.016849 0.271907
0.070293 -0.016848 0.272005
0.071594 -0.016847 0.272099
0.072543 -0.016765 0.270879
0.073597 -0.016710 0.270088
0.074355 -0.016591 0.268260
0.074508 -0.016343 0.264347
0.075153 -0.016209 0.262279
0.076389 -0.016205 0.262310
0.077260 -0.016125 0.261106
0.078399 -0.016103 0.260833
0.079309 -0.016035 0.259819
0.080800 -0.016084 0.260707
0.082149 -0.016105 0.261123
0.083214 -0.016070 0.260632
0.084570 -0.016091 0.261056
0.085709 -0.016071 0.260805
0.098375 -0.018182 0.295144
0.099616 -0.018152 0.294729
0.099788 -0.017931 0.291202
0.101235 -0.017941 0.291441
0.102653 -0.017947 0.291589
0.103787 -0.017902 0.290930
0.105182 -0.017904 0.291013
0.106630 -0.017915 0.291233
0.107794 -0.017878 0.290677
0.109133 -0.017871 0.290597
0.110742 -0.017907 0.291225
0.111938 -0.017877 0.290760
0.114023 -0.017988 0.292584
0.115281 -0.017967 0.292262
0.116690 -0.017970 0.292320
0.118103 -0.017973 0.292380
0.119384 -0.017957 0.292108
0.120600 -0.017931 0.291679
0.121943 -0.017925 0.291558
0.123489 -0.017948 0.291911
0.124764 -0.017931 0.291615
0.126185 -0.017936 0.291654
0.127405 -0.017913 0.291226
0.129279 -0.017981 0.292275
0.130479 -0.017954 0.291785
0.131615 -0.017920 0.291153
0.133212 -0.017948 0.291535
0.134913 -0.017990 0.292122
0.136573 -0.018026 0.292597
0.138088 -0.018041 0.292744
0.139237 -0.018010 0.292107
0.140664 -0.018014 0.292049
0.142106 -0.018020 0.292008
0.143411 -0.018009 0.291676
0.144695 -0.017996 0.291293
0.146125 -0.018000 0.291194
0.147903 -0.018047 0.291769
0.149321 -0.018050 0.291612
0.151317 -0.018122 0.292558
0.152082 -0.018047 0.291113
-0.131564 -0.014070 0.248032
-0.130838 -0.014118 0.249051
-0.130023 -0.014156 0.249904
-0.128704 -0.014141 0.249784
-0.127850 -0.014176 0.250556
-0.126960 -0.014208 0.251263
-0.125753 -0.014205 0.251336
-0.124801 -0.014231 0.251915
-0.123831 -0.014255 0.252455
-0.122799 -0.014272 0.252870
-0.121770 -0.014291 0.253288
-0.120934 -0.014332 0.254110
-0.120179 -0.014384 0.255112
-0.119320 -0.014425 0.255901
-0.118616 -0.014485 0.257035
-0.117921 -0.014548 0.258202
-0.117231 -0.014613 0.259396
-0.116516 -0.014676 0.260554
-0.115932 -0.014757 0.262024
-0.115396 -0.014846 0.263628
-0.114691 -0.014914 0.264869
-0.113886 -0.014972 0.265897
-0.113101 -0.015033 0.266989
-0.112212 -0.015081 0.267852
-0.111322 -0.015131 0.268725
-0.110886 -0.015244 0.270719
-0.110234 -0.015330 0.272224
-0.110190 -0.015503 0.275275
-0.110853 -0.015781 0.280183
-0.111132 -0.016011 0.284218
-0.109802 -0.016011 0.284183
-0.108388 -0.015999 0.283921
-0.106940 -0.015982 0.283562
-0.106006 -0.016042 0.284567
-0.105084 -0.016106 0.285631
-0.104102 -0.016161 0.286550
-0.103748 -0.016317 0.289245
-0.103216 -0.016449 0.291503
-0.102267 -0.016517 0.292626
-0.101115 -0.016554 0.293189
-0.099816 -0.016568 0.293335
-0.098372 -0.016557 0.293049
-0.096397 -0.016455 0.291155
-0.095251 -0.016495 0.291745
-0.093783 -0.016478 0.291352
-0.092340 -0.016466 0.291024
-0.091159 -0.016501 0.291528
-0.090210 -0.016579 0.292799
-0.088519 -0.016522 0.291665
-0.086762 -0.016450 0.290277
-0.085896 -0.016548 0.291877
-0.084568 -0.016558 0.291933
-0.083013 -0.016523 0.291197
-0.081939 -0.016585 0.292158
-0.080665 -0.016608 0.292423
-0.079351 -0.016623 0.292558
-0.078175 -0.016668 0.293217
-0.076958 -0.016706 0.293746
-0.075859 -0.016771 0.294757
-0.074508 -0.016782 0.294812
-0.073377 -0.016844 0.295764
-0.072288 -0.016919 0.296927
-0.071313 -0.017023 0.298617
-0.067765 -0.016505 0.289391
-0.066309 -0.016486 0.288917
-0.064973 -0.016496 0.288959
-0.063607 -0.016500 0.288875
-0.062310 -0.016521 0.289112
-0.060994 -0.016539 0.289279
-0.059619 -0.016541 0.289171
-0.058281 -0.016553 0.289254
-0.056957 -0.016570 0.289418
-0.055553 -0.016565 0.289183
-0.054214 -0.016579 0.289289
-0.052892 -0.016599 0.289503
-0.051491 -0.016594 0.289290
-0.050120 -0.016600 0.289253
-0.048776 -0.016615 0.289382
-0.047376 -0.016611 0.289187
-0.046003 -0.016617 0.289157
-0.044715 -0.016655 0.289694
-0.043319 -0.016653 0.289543
-0.041909 -0.016647 0.289308
-0.040334 -0.016571 0.287879
-0.039238 -0.016695 0.289911
-0.037705 -0.016635 0.288745
-0.036684 -0.016805 0.291582
-0.023942 -0.014990 0.259464
-0.022718 -0.015010 0.259734
-0.021433 -0.014990 0.259308
-0.020346 -0.015115 0.261401
-0.018842 -0.014926 0.258060
-0.017949 -0.015229 0.263226
-0.017316 -0.015815 0.273290
-0.016588 -0.016404 0.283416
-0.015222 -0.016412 0.283492
-0.012513 -0.014831 0.256122
-0.011293 -0.014859 0.256564
-0.010036 -0.014841 0.256198
-0.008802 -0.014856 0.256422
-0.007582 -0.014905 0.257236
-0.006325 -0.014884 0.256848
-0.005083 -0.014898 0.257056
-0.003847 -0.014943 0.257803
-0.002597 -0.014957 0.258021
-0.001345 -0.014962 0.258095
-0.000091 -0.014992 0.258603
0.001209 -0.015564 0.268458
0.002522 -0.015616 0.269340
0.006196 -0.015007 0.258849
0.007427 -0.014953 0.257930
0.008696 -0.014981 0.258414
0.009941 -0.014965 0.258159
0.011203 -0.014975 0.258354
0.012471 -0.014991 0.258658
0.013732 -0.014996 0.258772
0.015015 -0.015022 0.259250
0.016286 -0.015033 0.259473
0.017554 -0.015039 0.259618
0.018830 -0.015052 0.259877
0.020300 -0.015208 0.262620
0.022595 -0.015926 0.275082
0.024019 -0.015986 0.276168
0.025343 -0.015976 0.276050
0.024825 -0.014863 0.256885
0.026026 -0.014837 0.256500
0.027328 -0.014869 0.257118
0.028586 -0.014875 0.257282
0.029956 -0.014936 0.258410
0.031098 -0.014883 0.257570
0.032348 -0.014884 0.257662
0.033633 -0.014901 0.258027
0.034880 -0.014900 0.258088
0.035999 -0.014846 0.257235
0.037173 -0.014818 0.256836
0.038681 -0.014920 0.258697
0.042107 -0.015732 0.272879
0.043380 -0.015715 0.272680
0.042265 -0.014860 0.257936
0.042928 -0.014661 0.254570
0.044161 -0.014662 0.254686
0.045395 -0.014663 0.254803
0.046545 -0.014638 0.254465
0.047782 -0.014641 0.254614
0.049022 -0.014645 0.254777
0.050352 -0.014674 0.255391
0.051566 -0.014670 0.255410
0.052996 -0.014725 0.256481
0.054247 -0.014730 0.256661
0.055687 -0.014784 0.257709
0.057825 -0.015017 0.261880
0.060417 -0.015356 0.267898
0.061886 -0.015401 0.268792
0.063137 -0.015391 0.268728
0.064810 -0.015482 0.270432
0.066279 -0.015522 0.271236
0.067670 -0.015543 0.271703
0.069071 -0.015565 0.272194
0.070442 -0.015579 0.272559
0.071833 -0.015597 0.272985
0.072599 -0.015482 0.271066
0.073805 -0.015463 0.270832
0.074478 -0.015334 0.268683
0.074256 -0.015029 0.263432
0.074481 -0.014823 0.259913
0.075920 -0.014861 0.260678
0.076930 -0.014816 0.259971
0.077972 -0.014778 0.259394
0.079215 -0.014778 0.259491
0.080584 -0.014802 0.259995
0.082105 -0.014853 0.260967
0.083166 -0.014820 0.260469
0.084535 -0.014842 0.260935
0.085756 -0.014838 0.260935
0.096723 -0.016496 0.290176
0.097944 -0.016469 0.289768
0.099608 -0.016516 0.290666
0.101341 -0.016573 0.291735
0.102758 -0.016577 0.291876
0.103867 -0.016532 0.291147
0.105186 -0.016522 0.291015
0.106532 -0.016516 0.290957
0.107722 -0.016486 0.290475
0.109306 -0.016517 0.291053
0.110631 -0.016508 0.290929
0.112364 -0.016559 0.291864
0.113540 -0.016528 0.291341
0.114957 -0.016533 0.291437
0.116424 -0.016544 0.291650
0.117957 -0.016565 0.292019
0.119141 -0.016536 0.291514
0.120603 -0.016547 0.291688
0.121788 -0.016519 0.291190
0.123292 -0.016535 0.291449
0.124784 -0.016549 0.291667
0.126481 -0.016590 0.292344
0.127639 -0.016560 0.291767
0.128822 -0.016534 0.291249
0.130312 -0.016547 0.291421
0.131991 -0.016584 0.291996
0.133432 -0.016590 0.292028
0.135395 -0.016660 0.293178
0.136395 -0.016612 0.292230
0.137996 -0.016637 0.292563
0.139451 -0.016645 0.292571
0.140766 -0.016635 0.292277
0.142120 -0.016631 0.292054
0.143482 -0.016627 0.291839
0.145490 -0.016698 0.292914
0.146487 -0.016652 0.291936
0.148193 -0.016687 0.292364
0.149594 -0.016687 0.292168
0.150977 -0.016686 0.291928
0.152333 -0.016681 0.291620
-0.131687 -0.012905 0.248283
-0.130648 -0.012918 0.248707
-0.129836 -0.012954 0.249563
-0.128694 -0.012957 0.249779
-0.127668 -0.012972 0.250216
-0.126702 -0.012993 0.250766
-0.125556 -0.012996 0.250957
-0.124519 -0.013011 0.251358
-0.123532 -0.013031 0.251858
-0.122488 -0.013045 0.252240
-0.121579 -0.013074 0.252901
-0.120681 -0.013106 0.253588
-0.119906 -0.013151 0.254541
-0.119188 -0.013203 0.255626
-0.118450 -0.013255 0.256682
-0.117830 -0.013320 0.258009
-0.117111 -0.013376 0.259136
-0.116596 -0.013457 0.260736
-0.115753 -0.013501 0.261621
-0.115220 -0.013582 0.263227
-0.114470 -0.013640 0.264359
-0.113784 -0.013706 0.265659
-0.112991 -0.013761 0.266730
-0.112170 -0.013814 0.267750
-0.111394 -0.013873 0.268897
-0.110611 -0.013934 0.270048
-0.109873 -0.014001 0.271329
-0.109188 -0.014076 0.272769
-0.110453 -0.014408 0.279167
-0.109878 -0.014505 0.281005
-0.109001 -0.014564 0.282103
-0.107658 -0.014561 0.282002
-0.106585 -0.014595 0.282613
-0.105660 -0.014651 0.283632
-0.104532 -0.014680 0.284121
-0.103636 -0.014742 0.285258
-0.102944 -0.014835 0.286993
-0.102273 -0.014934 0.288828
-0.101349 -0.014999 0.289987
-0.100094 -0.015015 0.290216
-0.098770 -0.015021 0.290246
-0.097537 -0.015042 0.290547
-0.096135 -0.015037 0.290347
-0.094687 -0.015024 0.290000
-0.093421 -0.015040 0.290207
-0.092112 -0.015050 0.290288
-0.090812 -0.015061 0.290398
-0.089489 -0.015069 0.290437
-0.087838 -0.015022 0.289402
-0.086473 -0.015022 0.289289
-0.085503 -0.015092 0.290518
-0.084230 -0.015111 0.290743
-0.082782 -0.015097 0.290364
-0.081776 -0.015166 0.291550
-0.080593 -0.015203 0.292136
-0.079376 -0.015235 0.292625
-0.078186 -0.015274 0.293228
-0.076937 -0.015302 0.293638
-0.075839 -0.015362 0.294649
-0.074394 -0.015353 0.294331
-0.073248 -0.015406 0.295212
-0.072360 -0.015517 0.297192
-0.070883 -0.015503 0.296783
-0.067809 -0.015132 0.289548
-0.066228 -0.015087 0.288530
-0.065020 -0.015126 0.289135
-0.063748 -0.015151 0.289481
-0.062358 -0.015149 0.289299
-0.061091 -0.015177 0.289702
-0.059755 -0.015190 0.289797
-0.058442 -0.015208 0.290017
-0.057007 -0.015196 0.289635
-0.055553 -0.015177 0.289143
-0.054274 -0.015207 0.289567
-0.052851 -0.015196 0.289238
-0.051498 -0.015206 0.289287
-0.050150 -0.015218 0.289386
-0.048807 -0.015232 0.289521
-0.047426 -0.015235 0.289447
-0.046056 -0.015242 0.289446
-0.044703 -0.015255 0.289569
-0.043321 -0.015259 0.289511
-0.041949 -0.015266 0.289537
-0.040044 -0.015074 0.285767
-0.038521 -0.015017 0.284568
-0.037645 -0.015217 0.288242
-0.036846 -0.015465 0.292825
-0.035468 -0.015480 0.292994
-0.022630 -0.013699 0.258677
-0.021416 -0.013723 0.259061
-0.020066 -0.013658 0.257748
-0.019129 -0.013883 0.261938
-0.017955 -0.013957 0.263258
-0.017216 -0.014405 0.271652
-0.016351 -0.014814 0.279305
-0.015004 -0.014822 0.279380
-0.012544 -0.013621 0.256694
-0.011331 -0.013660 0.257386
-0.010083 -0.013660 0.257342
-0.008830 -0.013653 0.257175
-0.007606 -0.013697 0.257967
-0.006351 -0.013692 0.257840
-0.005105 -0.013706 0.258075
-0.003859 -0.013733 0.258549
-0.002612 -0.013781 0.259426
-0.001356 -0.013816 0.260066
-0.000094 -0.013972 0.262990
0.001201 -0.014176 0.266830
0.002534 -0.014379 0.270633
0.006186 -0.013729 0.258414
0.007434 -0.013716 0.258170
0.008702 -0.013737 0.258580
0.009936 -0.013706 0.258012
0.011204 -0.013723 0.258363
0.012465 -0.013729 0.258496
0.013723 -0.013731 0.258564
0.015006 -0.013755 0.259049
0.016278 -0.013767 0.259315
0.017512 -0.013747 0.258967
0.018835 -0.013795 0.259915
0.020187 -0.013856 0.261120
0.022944 -0.014818 0.279295
0.024285 -0.014809 0.279182
0.025623 -0.014799 0.279063
0.024776 -0.013591 0.256343
0.026066 -0.013616 0.256860
0.027337 -0.013628 0.257164
0.028574 -0.013623 0.257143
0.029869 -0.013645 0.257626
0.031119 -0.013646 0.257712
0.032339 -0.013634 0.257558
0.033647 -0.013658 0.258095
0.034860 -0.013644 0.257901
0.036044 -0.013619 0.257522
0.037254 -0.013606 0.257361
0.038309 -0.013539 0.256175
0.043396 -0.014405 0.272750
0.041933 -0.013509 0.255878
0.043014 -0.013460 0.255049
0.044320 -0.013483 0.255572
0.045521 -0.013473 0.255484
0.046678 -0.013451 0.255165
0.048011 -0.013479 0.255805
0.049260 -0.013484 0.255987
0.050625 -0.013518 0.256747
0.051813 -0.013505 0.256605
0.053220 -0.013549 0.257536
0.054562 -0.013574 0.258123
0.056313 -0.013698 0.260578
0.058284 -0.013869 0.263932
0.060262 -0.014034 0.267183
0.061910 -0.014117 0.268872
0.063213 -0.014119 0.269026
0.064794 -0.014182 0.270338
0.066341 -0.014236 0.271465
0.067725 -0.014253 0.271900
0.069116 -0.014270 0.272350
0.070418 -0.014270 0.272441
0.071694 -0.014264 0.272433
0.072505 -0.014167 0.270694
0.073518 -0.014113 0.269756
0.074309 -0.014018 0.268052
0.074524 -0.013820 0.264364
0.074941 -0.013666 0.261503
0.076139 -0.013656 0.261416
0.077052 -0.013597 0.260367
0.078118 -0.013566 0.259863
0.079481 -0.013586 0.260348
0.080881 -0.013613 0.260939
0.082317 -0.013644 0.261625
0.083311 -0.013603 0.260908
0.084879 -0.013655 0.261983
0.086745 -0.013752 0.263931
0.098689 -0.015422 0.296060
0.099934 -0.015397 0.295643
0.099647 -0.015139 0.290769
0.101235 -0.015169 0.291419
0.102590 -0.015165 0.291390
0.103758 -0.015133 0.290833
0.105083 -0.015124 0.290723
0.106348 -0.015107 0.290448
0.107753 -0.015110 0.290554
0.109133 -0.015110 0.290586
0.110454 -0.015102 0.290460
0.111712 -0.015085 0.290167
0.113218 -0.015102 0.290513
0.115191 -0.015180 0.292029
0.116304 -0.015144 0.291349
0.118110 -0.015198 0.292396
0.119211 -0.015161 0.291686
0.120697 -0.015174 0.291918
0.122033 -0.015167 0.291779
0.123172 -0.015137 0.291169
0.124633 -0.015146 0.291318
0.125887 -0.015130 0.290977
0.127213 -0.015124 0.290799
0.128830 -0.015151 0.291274
0.130173 -0.015146 0.291118
0.131414 -0.015130 0.290727
0.132913 -0.015143 0.290901
0.134452 -0.015160 0.291147
0.136641 -0.015250 0.292770
0.137978 -0.015244 0.292538
0.139364 -0.015243 0.292404
0.140739 -0.015241 0.292235
0.142108 -0.015238 0.292047
0.143493 -0.015237 0.291878
0.144959 -0.015245 0.291863
0.146276 -0.015237 0.291536
0.148261 -0.015298 0.292518
0.149682 -0.015301 0.292363
0.151065 -0.015299 0.292120
0.152630 -0.015316 0.292214
-0.131934 -0.011750 0.248767
-0.130904 -0.011762 0.249212
-0.129882 -0.011775 0.249666
-0.128923 -0.011795 0.250240
-0.127883 -0.011807 0.250651
-0.126798 -0.011816 0.250970
-0.125718 -0.011825 0.251291
-0.124626 -0.011833 0.251585
-0.123648 -0.011852 0.252105
-0.122658 -0.011871 0.252601
-0.121696 -0.011892 0.253154
-0.120854 -0.011926 0.253960
-0.120118 -0.011971 0.254999
-0.119295 -0.012008 0.255863
-0.118624 -0.012062 0.257064
-0.117906 -0.012112 0.258181
-0.117218 -0.012166 0.259378
-0.116530 -0.012221 0.260594
-0.115855 -0.012279 0.261857
-0.114976 -0.012316 0.262673
-0.114205 -0.012365 0.263749
-0.113500 -0.012423 0.264998
-0.112838 -0.012487 0.266369
-0.111986 -0.012532 0.267310
-0.111119 -0.012575 0.268232
-0.110608 -0.012660 0.270037
-0.109837 -0.012718 0.271236
-0.109132 -0.012784 0.272626
-0.108768 -0.012892 0.274903
-0.109233 -0.013102 0.279351
-0.108870 -0.013217 0.281757
-0.107436 -0.013203 0.281413
-0.106231 -0.013218 0.281666
-0.105179 -0.013252 0.282330
-0.104103 -0.013284 0.282945
-0.102998 -0.013313 0.283493
-0.101766 -0.013326 0.283697
-0.100776 -0.013371 0.284589
-0.100207 -0.013475 0.286707
-0.099752 -0.013596 0.289209
-0.098394 -0.013597 0.289126
-0.096988 -0.013590 0.288898
-0.095808 -0.013616 0.289343
-0.094611 -0.013640 0.289752
-0.093219 -0.013636 0.289564
-0.091825 -0.013632 0.289364
-0.090696 -0.013667 0.290009
-0.089353 -0.013671 0.289978
-0.088084 -0.013687 0.290192
-0.086865 -0.013711 0.290581
-0.085329 -0.013685 0.289905
-0.084104 -0.013709 0.290287
-0.082946 -0.013745 0.290915
-0.081554 -0.013742 0.290735
-0.080462 -0.013791 0.291638
-0.079252 -0.013821 0.292142
-0.078055 -0.013855 0.292714
-0.076845 -0.013887 0.293261
-0.075585 -0.013911 0.293636
-0.074380 -0.013947 0.294249
-0.073397 -0.014026 0.295785
-0.071819 -0.013993 0.294940
-0.071005 -0.014110 0.297263
-0.068045 -0.013797 0.290527
-0.066321 -0.013727 0.288904
-0.064958 -0.013730 0.288829
-0.063602 -0.013734 0.288783
-0.062333 -0.013758 0.289150
-0.061046 -0.013780 0.289458
-0.059756 -0.013801 0.289767
-0.058405 -0.013809 0.289798
-0.057097 -0.013828 0.290056
-0.055685 -0.013822 0.289793
-0.054299 -0.013823 0.289667
-0.052961 -0.013836 0.289801
-0.051577 -0.013837 0.289698
-0.050197 -0.013840 0.289619
-0.048833 -0.013847 0.289636
-0.047484 -0.013859 0.289760
-0.046050 -0.013846 0.289370
-0.044750 -0.013875 0.289835
-0.043368 -0.013878 0.289786
-0.041975 -0.013879 0.289672
-0.040212 -0.013753 0.286920
-0.039085 -0.013843 0.288686
-0.038345 -0.014082 0.293560
-0.036967 -0.014096 0.293736
-0.031369 -0.012438 0.259093
-0.024060 -0.012539 0.260645
-0.022775 -0.012526 0.260290
-0.021454 -0.012490 0.259466
-0.020563 -0.012716 0.264087
-0.018826 -0.012413 0.257738
-0.017865 -0.012617 0.261895
-0.017064 -0.012972 0.269203
-0.016195 -0.013331 0.276586
-0.014861 -0.013337 0.276661
-0.012470 -0.012302 0.255127
-0.011318 -0.012396 0.257040
-0.010102 -0.012434 0.257783
-0.008810 -0.012376 0.256547
-0.007595 -0.012426 0.257532
-0.006359 -0.012454 0.258090
-0.005110 -0.012464 0.258262
-0.003852 -0.012452 0.257992
-0.002606 -0.012487 0.258685
-0.001350 -0.012495 0.258831
-0.000093 -0.012578 0.260541
0.001179 -0.012648 0.261991
0.002505 -0.012918 0.267568
0.006169 -0.012440 0.257686
0.007426 -0.012448 0.257854
0.008700 -0.012479 0.258500
0.009931 -0.012447 0.257853
0.011193 -0.012457 0.258082
0.012468 -0.012477 0.258524
0.013733 -0.012485 0.258719
0.014987 -0.012483 0.258705
0.016253 -0.012489 0.258883
0.017500 -0.012481 0.258755
0.018795 -0.012507 0.259323
0.020113 -0.012543 0.260130
0.022763 -0.013357 0.277065
0.024191 -0.013403 0.278070
0.025524 -0.013395 0.277951
0.024845 -0.012383 0.257025
0.026068 -0.012372 0.256853
0.027344 -0.012385 0.257198
0.028586 -0.012383 0.257217
0.029985 -0.012446 0.258596
0.031197 -0.012430 0.258326
0.032382 -0.012404 0.257865
0.033687 -0.012424 0.258373
0.034925 -0.012420 0.258355
0.036071 -0.012384 0.257690
0.037279 -0.012371 0.257504
0.038525 -0.012370 0.257586
0.041042 -0.012766 0.265911
0.042586 -0.012843 0.267628
0.042329 -0.012390 0.258265
0.043339 -0.012322 0.256945
0.044537 -0.012310 0.256791
0.045858 -0.012332 0.257346
0.047023 -0.012312 0.257024
0.048259 -0.012310 0.257100
0.049594 -0.012334 0.257695
0.050819 -0.012330 0.257709
0.052112 -0.012342 0.258065
0.053439 -0.012361 0.258570
0.054751 -0.012376 0.258993
0.056351 -0.012454 0.260733
0.058313 -0.012607 0.264039
0.060213 -0.012740 0.266940
0.062027 -0.012851 0.269356
0.063312 -0.012848 0.269423
0.064900 -0.012907 0.270760
0.066312 -0.012929 0.271324
0.067606 -0.012927 0.271399
0.068980 -0.012941 0.271793
0.070245 -0.012934 0.271752
0.071253 -0.012880 0.270738
0.072192 -0.012817 0.269504
0.073051 -0.012741 0.268025
0.073951 -0.012676 0.266743
0.074363 -0.012530 0.263777
0.075222 -0.012463 0.262465
0.076072 -0.012397 0.261169
0.076946 -0.012337 0.259993
0.078192 -0.012338 0.260097
0.079351 -0.012325 0.259908
0.080636 -0.012331 0.260137
0.081985 -0.012347 0.260558
0.083217 -0.012346 0.260601
0.084438 -0.012343 0.260610
0.085657 -0.012339 0.260611
0.098292 -0.013957 0.294857
0.099531 -0.013934 0.294442
0.099782 -0.013774 0.291153
0.101417 -0.013808 0.291933
0.102797 -0.013807 0.291967
0.103921 -0.013772 0.291281
0.105113 -0.013746 0.290797
0.106542 -0.013752 0.290971
0.107928 -0.013752 0.291018
0.109121 -0.013728 0.290549
0.110479 -0.013725 0.290521
0.111874 -0.013727 0.290584
0.113206 -0.013721 0.290478
0.114904 -0.013759 0.291300
0.116250 -0.013754 0.291214
0.117757 -0.013769 0.291521
0.119232 -0.013779 0.291737
0.121491 -0.013879 0.293839
0.121783 -0.013754 0.291184
0.123557 -0.013797 0.292081
0.124786 -0.013780 0.291681
0.126172 -0.013780 0.291640
0.127377 -0.013760 0.291181
0.129034 -0.013789 0.291742
0.130497 -0.013797 0.291850
0.132076 -0.013817 0.292202
0.133275 -0.013798 0.291703
0.134786 -0.013810 0.291881
0.136370 -0.013830 0.292199
0.137758 -0.013830 0.292085
0.139211 -0.013836 0.292097
0.140633 -0.013839 0.292029
0.141990 -0.013836 0.291818
0.143363 -0.013834 0.291630
0.144638 -0.013823 0.291234
0.145989 -0.013819 0.290983
0.148038 -0.013881 0.292098
0.149389 -0.013877 0.291810
0.150827 -0.013881 0.291681
0.152180 -0.013877 0.291375
-0.131958 -0.010571 0.248828
-0.130972 -0.010586 0.249356
-0.129977 -0.010600 0.249864
-0.128935 -0.010611 0.250276
-0.127928 -0.010625 0.250752
-0.126939 -0.010640 0.251260
-0.125839 -0.010647 0.251545
-0.124790 -0.010658 0.251927
-0.123825 -0.010677 0.252477
-0.122911 -0.010700 0.253130
-0.122016 -0.010725 0.253827
-0.121111 -0.010750 0.254508
-0.120324 -0.010787 0.255442
-0.119648 -0.010834 0.256625
-0.118917 -0.010877 0.257704
-0.118188 -0.010921 0.258803
-0.117555 -0.010975 0.260129
-0.116926 -0.011030 0.261483
-0.116130 -0.011071 0.262481
-0.115268 -0.011106 0.263343
-0.114447 -0.011146 0.264309
-0.113655 -0.011190 0.265361
-0.112891 -0.011237 0.266493
-0.111984 -0.011272 0.267306
-0.111333 -0.011333 0.268746
-0.110585 -0.011385 0.269979
-0.109864 -0.011442 0.271300
-0.109049 -0.011490 0.272415
-0.108589 -0.011577 0.274446
-0.109093 -0.011770 0.278988
-0.108656 -0.011865 0.281200
-0.107238 -0.011854 0.280889
-0.105762 -0.011836 0.280417
-0.104466 -0.011839 0.280410
-0.103558 -0.011885 0.281457
-0.102399 -0.011904 0.281834
-0.101362 -0.011938 0.282562
-0.100330 -0.011973 0.283318
-0.099394 -0.012021 0.284370
-0.098825 -0.012115 0.286511
-0.097557 -0.012125 0.286657
-0.096632 -0.012179 0.287826
-0.095505 -0.012208 0.288415
-0.094239 -0.012220 0.288598
-0.093206 -0.012263 0.289510
-0.091850 -0.012264 0.289428
-0.090662 -0.012288 0.289885
-0.089441 -0.012308 0.290246
-0.088149 -0.012319 0.290388
-0.086791 -0.012321 0.290316
-0.085667 -0.012357 0.291038
-0.084412 -0.012375 0.291329
-0.082757 -0.012334 0.290233
-0.081575 -0.012363 0.290791
-0.080410 -0.012396 0.291429
-0.078967 -0.012386 0.291070
-0.077677 -0.012400 0.291274
-0.076339 -0.012408 0.291304
-0.075304 -0.012465 0.292522
-0.074067 -0.012491 0.292988
-0.071776 -0.012337 0.289226
-0.072009 -0.012618 0.295693
-0.070512 -0.012602 0.295174
-0.067477 -0.012305 0.288073
-0.066199 -0.012323 0.288348
-0.065048 -0.012365 0.289202
-0.063671 -0.012366 0.289068
-0.062399 -0.012387 0.289430
-0.061104 -0.012405 0.289700
-0.059618 -0.012384 0.289066
-0.058458 -0.012431 0.290030
-0.056775 -0.012366 0.288390
-0.055500 -0.012390 0.288796
-0.054237 -0.012417 0.289299
-0.052780 -0.012401 0.288776
-0.051464 -0.012417 0.289025
-0.050092 -0.012421 0.288978
-0.048754 -0.012433 0.289132
-0.047369 -0.012434 0.289028
-0.046008 -0.012441 0.289068
-0.044601 -0.012437 0.288832
-0.043175 -0.012426 0.288457
-0.041811 -0.012433 0.288501
-0.040126 -0.012342 0.286270
-0.038263 -0.012188 0.282579
-0.037099 -0.012253 0.283981
-0.036980 -0.012682 0.293799
-0.031250 -0.011144 0.258069
-0.030683 -0.011396 0.263809
-0.029294 -0.011351 0.262681
-0.028090 -0.011377 0.263194
-0.026631 -0.011298 0.261261
-0.025057 -0.011160 0.257980
-0.023617 -0.011069 0.255806
-0.022450 -0.011104 0.256532
-0.022064 -0.011552 0.266805
-0.020055 -0.011153 0.257515
-0.018895 -0.011205 0.258646
-0.017895 -0.011366 0.262289
-0.017227 -0.011778 0.271731
-0.016510 -0.012222 0.281916
-0.015150 -0.012228 0.281992
-0.012545 -0.011130 0.256633
-0.011338 -0.011167 0.257429
-0.010099 -0.011178 0.257642
-0.008844 -0.011173 0.257493
-0.007619 -0.011210 0.258302
-0.006366 -0.011211 0.258301
-0.005113 -0.011215 0.258358
-0.003861 -0.011224 0.258531
-0.002605 -0.011225 0.258542
-0.001350 -0.011228 0.258587
-0.000094 -0.011338 0.261101
0.001186 -0.011442 0.263491
0.002500 -0.011601 0.267149
0.006183 -0.011215 0.258262
0.007437 -0.011213 0.258221
0.008705 -0.011229 0.258604
0.009937 -0.011201 0.257993
0.011201 -0.011211 0.258231
0.012476 -0.011229 0.258673
0.013735 -0.011231 0.258738
0.014997 -0.011234 0.258841
0.016273 -0.011247 0.259177
0.017533 -0.011247 0.259221
0.018832 -0.011271 0.259809
0.020160 -0.011308 0.260713
0.022772 -0.012018 0.277138
0.024103 -0.012011 0.277025
0.025431 -0.012003 0.276907
0.024869 -0.011148 0.257249
0.026089 -0.011136 0.257028
0.027398 -0.011161 0.257676
0.028609 -0.011146 0.257396
0.029958 -0.011184 0.258338
0.031218 -0.011186 0.258467
0.032422 -0.011170 0.258162
0.033707 -0.011181 0.258500
0.034970 -0.011184 0.258658
0.036185 -0.011173 0.258475
0.037343 -0.011145 0.257918
0.038927 -0.011242 0.260251
0.041055 -0.011485 0.265968
0.042599 -0.011555 0.267685
0.042751 -0.011254 0.260813
0.043677 -0.011169 0.258927
0.044756 -0.011126 0.258031
0.045978 -0.011120 0.257992
0.047161 -0.011105 0.257752
0.048382 -0.011100 0.257732
0.049628 -0.011101 0.257848
0.050943 -0.011116 0.258311
0.052239 -0.011127 0.258669
0.053633 -0.011158 0.259485
0.054877 -0.011157 0.259567
0.056215 -0.011174 0.260080
0.058389 -0.011354 0.264362
0.060751 -0.011561 0.269305
0.062083 -0.011568 0.269578
0.063394 -0.011571 0.269750
0.064982 -0.011623 0.271080
0.066411 -0.011646 0.271711
0.067690 -0.011641 0.271718
0.069019 -0.011645 0.271926
0.070352 -0.011650 0.272146
0.071168 -0.011571 0.270396
0.071976 -0.011493 0.268682
0.072870 -0.011431 0.267342
0.073795 -0.011377 0.266163
0.074380 -0.011272 0.263819
0.075008 -0.011178 0.261703
0.076035 -0.011145 0.261028
0.076825 -0.011079 0.259571
0.077948 -0.011062 0.259272
0.079342 -0.011084 0.259868
0.080753 -0.011107 0.260499
0.082136 -0.011126 0.261026
0.083388 -0.011127 0.261126
0.084612 -0.011124 0.261136
0.085892 -0.011129 0.261317
0.097511 -0.012454 0.292506
0.098741 -0.012433 0.292094
0.100110 -0.012430 0.292099
0.101249 -0.012399 0.291441
0.102647 -0.012400 0.291534
0.103902 -0.012385 0.291221
0.105072 -0.012359 0.290678
0.106439 -0.012357 0.290683
0.107780 -0.012353 0.290616
0.109266 -0.012364 0.290931
0.110583 -0.012357 0.290790
0.111940 -0.012354 0.290751
0.113349 -0.012357 0.290843
0.114709 -0.012355 0.290804
0.115883 -0.012333 0.290294
0.117522 -0.012360 0.290941
0.118796 -0.012349 0.290672
0.121424 -0.012477 0.293680
0.122075 -0.012401 0.291884
0.123056 -0.012360 0.290902
0.124784 -0.012395 0.291678
0.126023 -0.012380 0.291301
0.127565 -0.012396 0.291616
0.128939 -0.012394 0.291534
0.130575 -0.012418 0.292031
0.131992 -0.012421 0.292022
0.133433 -0.012426 0.292058
0.135142 -0.012455 0.292661
0.136458 -0.012448 0.292399
0.137814 -0.012445 0.292214
0.139219 -0.012446 0.292125
0.140679 -0.012453 0.292139
0.142093 -0.012455 0.292044
0.143540 -0.012459 0.292005
0.144874 -0.012454 0.291724
0.146576 -0.012481 0.292169
0.147895 -0.012475 0.291832
0.149305 -0.012476 0.291665
0.150809 -0.012485 0.291665
0.152238 -0.012488 0.291505
-0.132354 -0.009419 0.249588
-0.131186 -0.009419 0.249777
-0.130171 -0.009431 0.250249
-0.129222 -0.009447 0.250845
-0.128166 -0.009456 0.251230
-0.127128 -0.009466 0.251646
-0.126014 -0.009471 0.251905
-0.124953 -0.009480 0.252266
-0.123998 -0.009497 0.252838
-0.123020 -0.009513 0.253363
-0.122145 -0.009537 0.254104
-0.121288 -0.009564 0.254887
-0.120469 -0.009593 0.255757
-0.119737 -0.009631 0.256823
-0.119156 -0.009681 0.258229
-0.118377 -0.009716 0.259221
-0.117563 -0.009749 0.260151
-0.116968 -0.009801 0.261579
-0.116258 -0.009845 0.262773
-0.115359 -0.009873 0.263553
-0.114476 -0.009903 0.264380
-0.113715 -0.009945 0.265502
-0.112847 -0.009978 0.266391
-0.112004 -0.010014 0.267353
-0.111206 -0.010055 0.268439
-0.110740 -0.010127 0.270356
-0.110068 -0.010182 0.271804
-0.109399 -0.010238 0.273285
-0.108927 -0.010315 0.275298
-0.108282 -0.010377 0.276910
-0.107581 -0.010435 0.278413
-0.106506 -0.010457 0.278968
-0.105386 -0.010476 0.279413
-0.104307 -0.010499 0.279977
-0.103284 -0.010529 0.280703
-0.102049 -0.010537 0.280864
-0.100843 -0.010549 0.281107
-0.099871 -0.010586 0.282015
-0.098775 -0.010611 0.282589
-0.097630 -0.010631 0.283036
-0.096784 -0.010684 0.284373
-0.095903 -0.010735 0.285642
-0.095163 -0.010804 0.287372
-0.094130 -0.010841 0.288252
-0.093055 -0.010874 0.289027
-0.091805 -0.010887 0.289273
-0.090634 -0.010911 0.289780
-0.089360 -0.010922 0.289970
-0.088161 -0.010943 0.290413
-0.086889 -0.010956 0.290626
-0.085819 -0.010995 0.291534
-0.084077 -0.010947 0.290158
-0.082688 -0.010945 0.289973
-0.081458 -0.010964 0.290352
-0.080206 -0.010981 0.290672
-0.078905 -0.010992 0.290822
-0.077703 -0.011017 0.291351
-0.076414 -0.011030 0.291570
-0.074828 -0.011001 0.290652
-0.073748 -0.011046 0.291700
-0.070957 -0.010831 0.285903
-0.070792 -0.011017 0.290670
-0.070587 -0.011204 0.295463
-0.067451 -0.010924 0.287939
-0.066201 -0.010945 0.288331
-0.064974 -0.010969 0.288844
-0.063714 -0.010990 0.289238
-0.062373 -0.010997 0.289280
-0.061115 -0.011019 0.289724
-0.059764 -0.011025 0.289747
-0.058376 -0.011024 0.289592
-0.057180 -0.011061 0.290415
-0.055648 -0.011033 0.289540
-0.054174 -0.011015 0.288934
-0.052761 -0.011009 0.288642
-0.051478 -0.011031 0.289075
-0.050048 -0.011021 0.288690
-0.048749 -0.011041 0.289075
-0.047424 -0.011055 0.289326
-0.046039 -0.011057 0.289229
-0.044700 -0.011069 0.289435
-0.043331 -0.011075 0.289468
-0.041974 -0.011085 0.289592
-0.040283 -0.011004 0.287355
-0.038536 -0.010901 0.284558
-0.037521 -0.011006 0.287171
-0.036885 -0.011234 0.293009
-0.031820 -0.010077 0.262742
-0.030498 -0.010059 0.262180
-0.029163 -0.010036 0.261472
-0.028038 -0.010085 0.262669
-0.026746 -0.010077 0.262360
-0.025434 -0.010060 0.261822
-0.024258 -0.010097 0.262719
-0.022887 -0.010053 0.261499
-0.021656 -0.010069 0.261841
-0.020400 -0.010075 0.261911
-0.019140 -0.010079 0.261955
-0.017945 -0.010122 0.262983
-0.017092 -0.010377 0.269566
-0.016132 -0.010606 0.275430
-0.014804 -0.010611 0.275504
-0.012546 -0.009884 0.256594
-0.011359 -0.009935 0.257869
-0.010120 -0.009948 0.258149
-0.008846 -0.009924 0.257499
-0.007619 -0.009954 0.258229
-0.006375 -0.009970 0.258605
-0.005118 -0.009969 0.258559
-0.003870 -0.009990 0.259068
-0.002614 -0.010000 0.259315
-0.001357 -0.010022 0.259866
-0.000095 -0.010114 0.262242
0.001197 -0.010265 0.266155
0.002499 -0.010297 0.266972
0.006169 -0.009938 0.257675
0.007415 -0.009929 0.257452
0.008684 -0.009949 0.257981
0.009924 -0.009935 0.257620
0.011181 -0.009939 0.257760
0.012452 -0.009953 0.258149
0.013723 -0.009965 0.258487
0.014997 -0.009977 0.258814
0.016289 -0.009998 0.259395
0.017532 -0.009988 0.259183
0.018856 -0.010022 0.260110
0.020250 -0.010087 0.261843
0.022918 -0.010742 0.278890
0.024258 -0.010735 0.278776
0.025595 -0.010728 0.278657
0.024879 -0.009905 0.257327
0.026123 -0.009903 0.257340
0.027435 -0.009926 0.258001
0.028661 -0.009917 0.257836
0.029924 -0.009921 0.258012
0.031188 -0.009925 0.258201
0.032412 -0.009917 0.258051
0.033642 -0.009911 0.257978
0.034908 -0.009915 0.258178
0.036150 -0.009913 0.258198
0.037417 -0.009917 0.258400
0.039157 -0.010043 0.261763
0.040768 -0.010129 0.264087
0.042253 -0.010178 0.265481
0.042854 -0.010019 0.261418
0.043707 -0.009926 0.259079
0.044954 -0.009925 0.259151
0.046127 -0.009908 0.258806
0.047117 -0.009854 0.257489
0.048346 -0.009851 0.257515
0.049675 -0.009868 0.258068
0.051084 -0.009900 0.259008
0.052395 -0.009912 0.259422
0.053830 -0.009946 0.260420
0.055223 -0.009971 0.261182
0.056603 -0.009993 0.261857
0.058940 -0.010179 0.266837
0.060802 -0.010277 0.269511
0.062324 -0.010314 0.270605
0.063604 -0.010311 0.270628
0.064974 -0.010322 0.271026
0.066286 -0.010323 0.271179
0.067625 -0.010329 0.271441
0.068913 -0.010327 0.271491
0.070136 -0.010315 0.271296
0.071234 -0.010286 0.270632
0.072080 -0.010222 0.269055
0.072763 -0.010138 0.266935
0.073958 -0.010127 0.266738
0.074508 -0.010029 0.264259
0.075119 -0.009942 0.262077
0.076142 -0.009912 0.261380
0.076794 -0.009836 0.259456
0.077942 -0.009824 0.259241
0.079214 -0.009829 0.259438
0.080785 -0.009869 0.260594
0.082290 -0.009901 0.261506
0.083464 -0.009892 0.261355
0.085041 -0.009930 0.262451
0.086487 -0.009953 0.263117
0.097755 -0.011089 0.293227
0.098987 -0.011070 0.292814
0.099992 -0.011027 0.291748
0.100950 -0.010981 0.290575
0.102589 -0.011008 0.291363
0.103265 -0.010933 0.289430
0.104752 -0.010944 0.289788
0.106360 -0.010968 0.290464
0.107872 -0.010981 0.290859
0.109207 -0.010976 0.290770
0.110656 -0.010983 0.290979
0.111937 -0.010973 0.290741
0.113275 -0.010969 0.290651
0.114631 -0.010966 0.290604
0.116282 -0.010992 0.291292
0.117979 -0.011021 0.292072
0.119931 -0.011073 0.293450
0.120313 -0.010981 0.290994
0.122173 -0.011024 0.292119
0.123444 -0.011014 0.291821
0.124408 -0.010977 0.290804
0.126256 -0.011017 0.291844
0.127490 -0.011004 0.291448
0.129136 -0.011026 0.291985
0.130590 -0.011032 0.292071
0.132148 -0.011046 0.292374
0.133401 -0.011035 0.291994
0.134855 -0.011040 0.292048
0.136368 -0.011051 0.292214
0.137695 -0.011045 0.291970
0.139001 -0.011039 0.291677
0.140615 -0.011057 0.292017
0.141989 -0.011055 0.291842
0.143372 -0.011055 0.291676
0.144825 -0.011060 0.291639
0.146282 -0.011065 0.291597
0.147884 -0.011081 0.291827
0.149361 -0.011087 0.291790
0.150617 -0.011077 0.291312
0.151896 -0.011069 0.290868
-0.132796 -0.008263 0.250434
-0.131644 -0.008264 0.250662
-0.130636 -0.008275 0.251155
-0.129666 -0.008288 0.251718
-0.128611 -0.008296 0.252111
-0.127634 -0.008309 0.252656
-0.126577 -0.008317 0.253039
-0.125564 -0.008329 0.253508
-0.124609 -0.008344 0.254092
-0.123661 -0.008360 0.254692
-0.122680 -0.008375 0.255224
-0.121693 -0.008389 0.255744
-0.120857 -0.008414 0.256586
-0.120099 -0.008445 0.257605
-0.119188 -0.008466 0.258301
-0.118562 -0.008507 0.259632
-0.117833 -0.008543 0.260750
-0.117155 -0.008582 0.262001
-0.116556 -0.008628 0.263449
-0.115624 -0.008651 0.264161
-0.114704 -0.008675 0.264908
-0.114016 -0.008717 0.266204
-0.113122 -0.008744 0.267040
-0.112439 -0.008788 0.268390
-0.111794 -0.008836 0.269858
-0.111136 -0.008885 0.271322
-0.110576 -0.008942 0.273055
-0.109556 -0.008963 0.273676
-0.108668 -0.008996 0.274640
-0.107871 -0.009036 0.275854
-0.106909 -0.009064 0.276668
-0.105932 -0.009092 0.277458
-0.104980 -0.009122 0.278331
-0.103947 -0.009146 0.279004
-0.102923 -0.009171 0.279716
-0.101808 -0.009189 0.280193
-0.100679 -0.009206 0.280642
-0.099643 -0.009232 0.281362
-0.098744 -0.009272 0.282492
-0.097544 -0.009284 0.282778
-0.096483 -0.009310 0.283479
-0.095744 -0.009368 0.285159
-0.094836 -0.009411 0.286375
-0.094052 -0.009468 0.288003
-0.093015 -0.009501 0.288891
-0.091785 -0.009515 0.289197
-0.090643 -0.009538 0.289795
-0.089462 -0.009558 0.290286
-0.088296 -0.009580 0.290844
-0.087166 -0.009607 0.291539
-0.086094 -0.009641 0.292454
-0.084626 -0.009631 0.292035
-0.082735 -0.009572 0.290122
-0.081223 -0.009556 0.289502
-0.080119 -0.009588 0.290338
-0.078904 -0.009608 0.290801
-0.077610 -0.009618 0.290985
-0.076338 -0.009632 0.291263
-0.075203 -0.009664 0.292089
-0.074111 -0.009702 0.293119
-0.073037 -0.009745 0.294266
-0.071987 -0.009792 0.295560
-0.070442 -0.009773 0.294835
-0.067497 -0.009555 0.288112
-0.066292 -0.009579 0.288705
-0.065033 -0.009596 0.289084
-0.063722 -0.009607 0.289255
-0.062413 -0.009618 0.289445
-0.061080 -0.009625 0.289537
-0.059793 -0.009641 0.289865
-0.058397 -0.009639 0.289674
-0.056791 -0.009602 0.288415
-0.055520 -0.009621 0.288845
-0.054198 -0.009632 0.289040
-0.052776 -0.009625 0.288698
-0.051434 -0.009633 0.288803
-0.050035 -0.009630 0.288590
-0.048557 -0.009612 0.287909
-0.047128 -0.009602 0.287497
-0.045595 -0.009570 0.286415
-0.044296 -0.009587 0.286795
-0.042949 -0.009595 0.286888
-0.041630 -0.009609 0.287187
-0.040281 -0.009617 0.287313
-0.038766 -0.009584 0.286226
-0.037529 -0.009621 0.287204
-0.036895 -0.009821 0.293059
-0.032481 -0.008990 0.268174
-0.030176 -0.008699 0.259387
-0.029018 -0.008727 0.260137
-0.027818 -0.008745 0.260582
-0.026562 -0.008746 0.260520
-0.025333 -0.008757 0.260753
-0.024080 -0.008760 0.260753
-0.022852 -0.008773 0.261062
-0.021607 -0.008781 0.261216
-0.020340 -0.008780 0.261115
-0.019092 -0.008787 0.261262
-0.017964 -0.008855 0.263228
-0.017145 -0.009097 0.270357
-0.016479 -0.009468 0.281304
-0.015122 -0.009472 0.281380
-0.012595 -0.008673 0.257574
-0.011360 -0.008684 0.257850
-0.010122 -0.008696 0.258168
-0.008856 -0.008683 0.257750
-0.007619 -0.008699 0.258191
-0.006362 -0.008696 0.258055
-0.005111 -0.008700 0.258162
-0.003862 -0.008711 0.258455
-0.002605 -0.008708 0.258345
-0.001351 -0.008717 0.258584
-0.000095 -0.008761 0.259879
0.001185 -0.008882 0.263459
0.002476 -0.008920 0.264591
0.006193 -0.008721 0.258671
0.007433 -0.008699 0.258034
0.008701 -0.008713 0.258466
0.009929 -0.008687 0.257724
0.011203 -0.008704 0.258248
0.012465 -0.008709 0.258407
0.013733 -0.008716 0.258646
0.015008 -0.008727 0.258996
0.016296 -0.008742 0.259490
0.017580 -0.008753 0.259865
0.018885 -0.008773 0.260497
0.020257 -0.008820 0.261920
0.022459 -0.009200 0.273276
0.023771 -0.009195 0.273166
0.025082 -0.009189 0.273049
0.024931 -0.008675 0.257845
0.026201 -0.008681 0.258090
0.027566 -0.008717 0.259209
0.028704 -0.008681 0.258206
0.029997 -0.008692 0.258623
0.031264 -0.008696 0.258801
0.032481 -0.008686 0.258579
0.033738 -0.008687 0.258692
0.035015 -0.008693 0.258943
0.036250 -0.008688 0.258893
0.037488 -0.008684 0.258870
0.039368 -0.008825 0.263154
0.041152 -0.008936 0.266548
0.042489 -0.008946 0.266947
0.043101 -0.008807 0.262905
0.044088 -0.008751 0.261315
0.044983 -0.008680 0.259297
0.046350 -0.008702 0.260038
0.047361 -0.008657 0.258802
0.048538 -0.008644 0.258519
0.050071 -0.008694 0.260109
0.051508 -0.008725 0.261136
0.052921 -0.008750 0.262004
0.054601 -0.008818 0.264132
0.055996 -0.008837 0.264821
0.057241 -0.008832 0.264787
0.059335 -0.008956 0.268611
0.061275 -0.009052 0.271589
0.062548 -0.009047 0.271560
0.063809 -0.009041 0.271481
0.065202 -0.009054 0.271963
0.066460 -0.009047 0.271876
0.067644 -0.009031 0.271500
0.069019 -0.009040 0.271895
0.070261 -0.009032 0.271762
0.071062 -0.008969 0.269965
0.072046 -0.008931 0.268913
0.072993 -0.008889 0.267767
0.074058 -0.008863 0.267086
0.075105 -0.008836 0.266365
0.075529 -0.008738 0.263495
0.076587 -0.008715 0.262898
0.077839 -0.008714 0.262974
0.078741 -0.008675 0.261887
0.080045 -0.008681 0.262147
0.081774 -0.008732 0.263774
0.083031 -0.008732 0.263852
0.084686 -0.008773 0.265172
0.085837 -0.008762 0.264900
0.086578 -0.008709 0.263386
0.096552 -0.009574 0.289611
0.097769 -0.009558 0.289203
0.100466 -0.009685 0.293125
0.101243 -0.009626 0.291411
0.102737 -0.009636 0.291777
0.103944 -0.009620 0.291327
0.105038 -0.009593 0.290574
0.106474 -0.009598 0.290768
0.107894 -0.009601 0.290915
0.109253 -0.009599 0.290889
0.110564 -0.009593 0.290733
0.112034 -0.009601 0.290993
0.113272 -0.009588 0.290642
0.114582 -0.009582 0.290478
0.116072 -0.009592 0.290766
0.117710 -0.009613 0.291406
0.118800 -0.009589 0.290683
0.120065 -0.009580 0.290394
0.121608 -0.009593 0.290770
0.123067 -0.009599 0.290931
0.124808 -0.009627 0.291741
0.126177 -0.009625 0.291663
0.127516 -0.009622 0.291513
0.128882 -0.009621 0.291416
0.130649 -0.009649 0.292208
0.131897 -0.009639 0.291825
0.133732 -0.009671 0.292726
0.134890 -0.009655 0.292132
0.136211 -0.009650 0.291886
0.137655 -0.009654 0.291895
0.138870 -0.009642 0.291411
0.140369 -0.009650 0.291515
0.141764 -0.009650 0.291390
0.143287 -0.009659 0.291514
0.144696 -0.009661 0.291392
0.146025 -0.009657 0.291097
0.147559 -0.009666 0.291198
0.149349 -0.009693 0.291781
0.150390 -0.009670 0.290888
0.152117 -0.009692 0.291309
-0.133002 -0.007086 0.250833
-0.131984 -0.007095 0.251319
-0.130961 -0.007103 0.251789
-0.129995 -0.007114 0.252366
-0.128851 -0.007116 0.252592
-0.127777 -0.007122 0.252948
-0.126662 -0.007126 0.253217
-0.125702 -0.007139 0.253792
-0.124675 -0.007148 0.254233
-0.123596 -0.007154 0.254564
-0.122821 -0.007178 0.255522
-0.121993 -0.007200 0.256380
-0.121139 -0.007220 0.257190
-0.120529 -0.007256 0.258530
-0.119775 -0.007284 0.259579
-0.119060 -0.007314 0.260724
-0.118157 -0.007334 0.261471
-0.117455 -0.007366 0.262674
-0.116643 -0.007392 0.263647
-0.115869 -0.007422 0.264722
-0.115008 -0.007446 0.265609
-0.114130 -0.007470 0.266471
-0.113357 -0.007501 0.267595
-0.112472 -0.007525 0.268469
-0.111786 -0.007564 0.269837
-0.111892 -0.007658 0.273166
-0.110732 -0.007666 0.273439
-0.109754 -0.007687 0.274168
-0.109110 -0.007732 0.275754
-0.107985 -0.007744 0.276144
-0.107012 -0.007767 0.276932
-0.106039 -0.007791 0.277735
-0.104918 -0.007804 0.278163
-0.103932 -0.007828 0.278960
-0.102831 -0.007844 0.279462
-0.101749 -0.007862 0.280025
-0.100654 -0.007879 0.280566
-0.099687 -0.007907 0.281480
-0.099232 -0.007976 0.283880
-0.098478 -0.008023 0.285479
-0.097249 -0.008033 0.285721
-0.096325 -0.008068 0.286881
-0.095223 -0.008089 0.287533
-0.093935 -0.008095 0.287634
-0.092721 -0.008107 0.287967
-0.091697 -0.008136 0.288910
-0.090486 -0.008150 0.289285
-0.089238 -0.008161 0.289548
-0.088142 -0.008186 0.290323
-0.086946 -0.008202 0.290791
-0.085408 -0.008186 0.290114
-0.083807 -0.008164 0.289198
-0.082631 -0.008183 0.289745
-0.081329 -0.008190 0.289864
-0.079956 -0.008190 0.289734
-0.078709 -0.008203 0.290068
-0.077460 -0.008216 0.290408
-0.076158 -0.008224 0.290559
-0.074924 -0.008241 0.290990
-0.073650 -0.008253 0.291280
-0.072447 -0.008273 0.291871
-0.071815 -0.008361 0.294833
-0.069720 -0.008279 0.291794
-0.067590 -0.008189 0.288494
-0.066193 -0.008186 0.288254
-0.064942 -0.008202 0.288664
-0.063702 -0.008219 0.289142
-0.062273 -0.008213 0.288776
-0.060998 -0.008227 0.289129
-0.059652 -0.008232 0.289160
-0.058264 -0.008231 0.288994
-0.056810 -0.008221 0.288490
-0.055509 -0.008232 0.288767
-0.054197 -0.008243 0.289008
-0.052817 -0.008244 0.288902
-0.051455 -0.008248 0.288894
-0.050113 -0.008255 0.289016
-0.048771 -0.008262 0.289151
-0.047382 -0.008262 0.289019
-0.046024 -0.008268 0.289084
-0.044653 -0.008271 0.289077
-0.043261 -0.008271 0.288946
-0.041645 -0.008227 0.287270
-0.040090 -0.008191 0.285926
-0.038525 -0.008152 0.284425
-0.037042 -0.008127 0.283451
-0.035598 -0.008109 0.282725
-0.034362 -0.008140 0.283678
-0.030117 -0.007430 0.258854
-0.028929 -0.007446 0.259315
-0.027773 -0.007472 0.260132
-0.026518 -0.007473 0.260065
-0.025295 -0.007483 0.260328
-0.024138 -0.007515 0.261353
-0.022909 -0.007526 0.261679
-0.021658 -0.007532 0.261796
-0.020472 -0.007562 0.262770
-0.019225 -0.007572 0.263057
-0.017987 -0.007588 0.263534
-0.017112 -0.007771 0.269816
-0.016224 -0.007977 0.276931
-0.014888 -0.007981 0.277006
-0.012510 -0.007372 0.255790
-0.011381 -0.007446 0.258311
-0.010135 -0.007451 0.258461
-0.008862 -0.007436 0.257877
-0.007632 -0.007458 0.258611
-0.006383 -0.007466 0.258853
-0.005124 -0.007464 0.258763
-0.003874 -0.007478 0.259208
-0.002615 -0.007481 0.259302
-0.001359 -0.007503 0.260046
-0.000096 -0.007576 0.262570
0.001189 -0.007633 0.264530
0.002484 -0.007659 0.265446
0.006149 -0.007409 0.256787
0.007403 -0.007415 0.257004
0.008682 -0.007441 0.257885
0.009912 -0.007422 0.257271
0.011183 -0.007436 0.257752
0.012465 -0.007453 0.258375
0.013733 -0.007460 0.258642
0.015023 -0.007476 0.259238
0.016321 -0.007493 0.259869
0.017600 -0.007500 0.260148
0.018890 -0.007510 0.260545
0.020217 -0.007533 0.261381
0.022255 -0.007802 0.270778
0.023967 -0.007934 0.275393
0.025288 -0.007929 0.275275
0.024944 -0.007428 0.257959
0.026186 -0.007425 0.257917
0.027521 -0.007448 0.258766
0.028702 -0.007429 0.258168
0.029957 -0.007429 0.258262
0.031229 -0.007434 0.258496
0.032488 -0.007435 0.258615
0.033712 -0.007429 0.258472
0.034920 -0.007419 0.258226
0.036205 -0.007426 0.258549
0.037674 -0.007470 0.260140
0.039393 -0.007558 0.263296
0.040894 -0.007600 0.264863
0.042352 -0.007632 0.266069
0.043061 -0.007531 0.262643
0.044141 -0.007499 0.261614
0.045008 -0.007433 0.259426
0.046342 -0.007446 0.259976
0.047685 -0.007460 0.260556
0.049014 -0.007471 0.261041
0.050404 -0.007490 0.261822
0.052048 -0.007546 0.263858
0.053426 -0.007561 0.264489
0.055007 -0.007603 0.266079
0.056444 -0.007624 0.266920
0.057619 -0.007610 0.266523
0.059442 -0.007680 0.269079
0.061302 -0.007751 0.271697
0.062613 -0.007752 0.271826
0.063850 -0.007743 0.271644
0.065217 -0.007751 0.272013
0.066530 -0.007752 0.272148
0.067793 -0.007747 0.272085
0.069079 -0.007745 0.272117
0.070508 -0.007758 0.272707
0.071557 -0.007730 0.271834
0.072400 -0.007682 0.270223
0.073301 -0.007641 0.268885
0.074596 -0.007642 0.269014
0.075476 -0.007601 0.267671
0.076037 -0.007529 0.265260
0.077151 -0.007514 0.264824
0.078193 -0.007493 0.264162
0.079479 -0.007495 0.264331
0.080839 -0.007504 0.264739
0.082420 -0.007534 0.265851
0.084372 -0.007595 0.268104
0.085835 -0.007611 0.268761
0.087408 -0.007637 0.269742
0.088547 -0.007624 0.269370
0.098274 -0.008341 0.294767
0.099512 -0.008327 0.294352
0.100029 -0.008254 0.291842
0.101255 -0.008241 0.291439
0.102352 -0.008218 0.290678
