ply
format ascii 1.0
element vertex 1680
property float x
property float y
property float z
end_header
-0.093180 -0.105502 0.324254
-0.091741 -0.105603 0.324561
-0.090208 -0.105595 0.324534
-0.088510 -0.105393 0.323902
-0.087044 -0.105464 0.324111
-0.085690 -0.105675 0.324744
-0.084253 -0.105791 0.325082
-0.074513 -0.095292 0.292802
-0.073239 -0.095429 0.293200
-0.072097 -0.095746 0.294151
-0.070581 -0.095570 0.293585
-0.069308 -0.095721 0.294024
-0.068013 -0.095849 0.294385
-0.066503 -0.095671 0.293809
-0.065199 -0.095791 0.294144
-0.063750 -0.095697 0.293821
-0.062279 -0.095566 0.293383
-0.060821 -0.095448 0.292985
-0.059476 -0.095507 0.293127
-0.058039 -0.095417 0.292814
-0.056710 -0.095506 0.293048
-0.055305 -0.095467 0.292886
-0.053924 -0.095469 0.292852
-0.052626 -0.095624 0.293284
-0.051244 -0.095629 0.293257
-0.049826 -0.095564 0.293013
-0.048449 -0.095579 0.293018
-0.047100 -0.095649 0.293190
-0.045638 -0.095490 0.292656
-0.044137 -0.095234 0.291829
-0.042427 -0.094499 0.289534
-0.042695 -0.098265 0.301027
-0.041301 -0.098336 0.301199
-0.038634 -0.095273 0.291775
-0.037611 -0.096187 0.294530
-0.036242 -0.096250 0.294681
-0.032419 -0.089544 0.274111
-0.030947 -0.089043 0.272537
-0.029436 -0.088380 0.270470
-0.027961 -0.087768 0.268561
-0.026605 -0.087491 0.267679
-0.025316 -0.087418 0.267420
-0.024019 -0.087311 0.267058
-0.022550 -0.086529 0.264635
-0.021573 -0.087656 0.268048
-0.020433 -0.088216 0.269729
-0.019407 -0.089381 0.273258
-0.017809 -0.087888 0.268666
-0.016729 -0.088919 0.271789
-0.015454 -0.089001 0.272012
-0.013742 -0.086351 0.263885
-0.012359 -0.085444 0.261089
-0.011177 -0.085884 0.262412
-0.009898 -0.085597 0.261511
-0.008649 -0.085515 0.261240
-0.007432 -0.085774 0.262014
-0.006198 -0.085917 0.262432
-0.004958 -0.086022 0.262735
-0.003724 -0.086331 0.263663
-0.002474 -0.086427 0.263942
-0.001233 -0.087286 0.266552
0.000034 -0.088890 0.271439
0.001328 -0.089243 0.272506
0.002614 -0.088961 0.271636
0.003900 -0.088847 0.271281
0.005159 -0.088334 0.269706
0.006393 -0.087684 0.267717
0.007606 -0.087014 0.265668
0.008785 -0.086188 0.263142
0.009997 -0.085861 0.262145
0.011244 -0.085868 0.262166
0.012522 -0.086090 0.262844
0.013784 -0.086169 0.263089
0.015020 -0.086087 0.262842
0.016271 -0.086094 0.262869
0.017547 -0.086223 0.263267
0.018991 -0.087106 0.265972
0.020395 -0.087711 0.267827
0.021880 -0.088568 0.270453
0.023344 -0.089250 0.272546
0.024641 -0.089256 0.272574
0.026087 -0.089771 0.274159
0.027377 -0.089729 0.274046
0.028452 -0.089015 0.271879
0.029493 -0.088263 0.269597
0.030899 -0.088622 0.270709
0.032227 -0.088735 0.271069
0.033236 -0.087995 0.268824
0.034318 -0.087498 0.267321
0.035382 -0.086989 0.265784
0.036492 -0.086626 0.264692
0.037444 -0.085924 0.262563
0.038469 -0.085428 0.261065
0.039809 -0.085641 0.261734
0.040757 -0.085026 0.259870
0.041937 -0.084913 0.259542
0.043060 -0.084696 0.258897
0.044045 -0.084228 0.257483
0.045358 -0.084394 0.258004
0.046446 -0.084145 0.257258
0.047703 -0.084206 0.257461
0.049082 -0.084474 0.258293
0.050541 -0.084862 0.259496
0.051909 -0.085084 0.260187
0.053362 -0.085431 0.261261
0.054924 -0.085933 0.262807
0.056604 -0.086593 0.264837
0.058359 -0.087336 0.267116
0.059998 -0.087878 0.268781
0.061381 -0.088031 0.269256
0.062943 -0.088427 0.270472
0.064471 -0.088762 0.271499
0.065708 -0.088691 0.271283
0.066778 -0.088401 0.270395
0.068172 -0.088542 0.270824
0.069128 -0.088120 0.269527
0.070312 -0.087999 0.269151
0.071565 -0.087967 0.269043
0.072340 -0.087359 0.267169
0.073303 -0.086994 0.266038
0.074237 -0.086609 0.264842
0.074858 -0.085877 0.262582
0.076001 -0.085757 0.262192
0.076934 -0.085409 0.261100
0.078317 -0.085563 0.261540
0.080060 -0.086100 0.263146
0.081733 -0.086545 0.264469
0.083536 -0.087113 0.266161
0.084753 -0.087063 0.265959
0.097697 -0.096054 0.293241
0.099392 -0.096342 0.294049
0.100877 -0.096422 0.294215
0.102318 -0.096459 0.294243
0.103611 -0.096356 0.293842
0.105000 -0.096344 0.293709
0.106387 -0.096331 0.293568
0.107981 -0.096504 0.293985
0.109335 -0.096460 0.293734
0.110668 -0.096398 0.293424
0.112192 -0.096502 0.293610
0.113740 -0.096625 0.293845
0.115194 -0.096665 0.293821
0.116647 -0.096703 0.293783
0.118138 -0.096772 0.293829
0.119711 -0.096905 0.294059
0.121237 -0.096998 0.294161
0.122771 -0.097094 0.294261
0.124162 -0.097077 0.294008
0.125669 -0.097149 0.294015
0.127161 -0.097208 0.293975
0.128592 -0.097221 0.293779
0.130119 -0.097304 0.293786
0.132013 -0.097657 0.294596
0.133608 -0.097783 0.294708
0.135261 -0.097949 0.294927
0.136728 -0.097978 0.294720
0.138235 -0.098035 0.294581
0.139793 -0.098126 0.294533
0.141266 -0.098156 0.294286
0.143099 -0.098434 0.294765
0.144693 -0.098543 0.294723
0.146310 -0.098665 0.294701
0.147818 -0.098712 0.294440
0.149402 -0.098808 0.294305
0.151030 -0.098931 0.294233
0.152573 -0.098996 0.293969
0.153747 -0.098823 0.292977
0.155356 -0.098930 0.292797
0.157097 -0.099119 0.292834
-0.160909 -0.098794 0.299518
-0.156764 -0.097120 0.294899
-0.155010 -0.096911 0.294701
-0.154058 -0.097204 0.296011
-0.152516 -0.097127 0.296178
-0.150836 -0.096960 0.296053
-0.149427 -0.096966 0.296441
-0.147838 -0.096854 0.296451
-0.146215 -0.096717 0.296369
-0.144724 -0.096667 0.296535
-0.143173 -0.096574 0.296559
-0.141692 -0.096528 0.296711
-0.140206 -0.096477 0.296836
-0.138697 -0.096410 0.296897
-0.132711 -0.093198 0.287251
-0.133390 -0.094647 0.291957
-0.146305 -0.104901 0.323840
-0.144923 -0.105013 0.324424
-0.143540 -0.105126 0.325002
-0.127379 -0.094301 0.291733
-0.126076 -0.094360 0.292100
-0.124823 -0.094457 0.292578
-0.123538 -0.094533 0.292978
-0.122354 -0.094688 0.293617
-0.120867 -0.094611 0.293525
-0.119594 -0.094700 0.293943
-0.118483 -0.094921 0.294762
-0.116791 -0.094678 0.294129
-0.115402 -0.094676 0.294240
-0.114329 -0.094937 0.295162
-0.112740 -0.094771 0.294748
-0.111150 -0.094600 0.294310
-0.109881 -0.094702 0.294715
-0.107897 -0.094182 0.293176
-0.106719 -0.094362 0.293810
-0.105460 -0.094473 0.294224
-0.103777 -0.094203 0.293446
-0.104397 -0.096045 0.299241
-0.111375 -0.103865 0.323663
-0.109831 -0.103845 0.323651
-0.108043 -0.103592 0.322906
-0.106402 -0.103474 0.322578
-0.104738 -0.103330 0.322162
-0.103371 -0.103478 0.322654
-0.101853 -0.103478 0.322678
-0.100356 -0.103500 0.322765
-0.098942 -0.103610 0.323121
-0.097556 -0.103753 0.323578
-0.096153 -0.103882 0.323987
-0.094610 -0.103862 0.323927
-0.093156 -0.103940 0.324167
-0.091541 -0.103839 0.323847
-0.089954 -0.103765 0.323610
-0.088426 -0.103760 0.323582
-0.086919 -0.103779 0.323624
-0.085446 -0.103840 0.323797
-0.084014 -0.103955 0.324135
-0.074651 -0.094079 0.293317
-0.073458 -0.094320 0.294045
-0.072113 -0.094373 0.294184
-0.070652 -0.094272 0.293841
-0.069380 -0.094426 0.294289
-0.068020 -0.094462 0.294370
-0.066558 -0.094356 0.294006
-0.065205 -0.094403 0.294118
-0.063820 -0.094406 0.294090
-0.062389 -0.094340 0.293844
-0.060909 -0.094193 0.293349
-0.059541 -0.094217 0.293383
-0.058208 -0.094300 0.293600
-0.056763 -0.094201 0.293248
-0.055352 -0.094156 0.293064
-0.053992 -0.094197 0.293148
-0.052582 -0.094150 0.292957
-0.051245 -0.094236 0.293180
-0.049799 -0.094119 0.292771
-0.048410 -0.094109 0.292693
-0.047091 -0.094236 0.293043
-0.045636 -0.094092 0.292550
-0.043651 -0.092812 0.288525
-0.042390 -0.093039 0.289185
-0.042723 -0.096894 0.301120
-0.041328 -0.096964 0.301292
-0.038588 -0.093769 0.291318
-0.037669 -0.094927 0.294871
-0.036298 -0.094990 0.295023
-0.032386 -0.088145 0.273721
-0.030756 -0.087196 0.270737
-0.029489 -0.087243 0.270842
-0.027972 -0.086519 0.268557
-0.026566 -0.086085 0.267173
-0.025321 -0.086156 0.267357
-0.023989 -0.085923 0.266599
-0.022471 -0.084960 0.263576
-0.021582 -0.086404 0.268021
-0.020359 -0.086607 0.268620
-0.019233 -0.087281 0.270677
-0.017847 -0.086781 0.269098
-0.016621 -0.087045 0.269886
-0.015349 -0.087093 0.270006
-0.013863 -0.085827 0.266056
-0.012498 -0.085127 0.263861
-0.011225 -0.084972 0.263357
-0.009960 -0.084852 0.262960
-0.008680 -0.084536 0.261962
-0.007448 -0.084678 0.262379
-0.006213 -0.084832 0.262839
-0.004966 -0.084856 0.262895
-0.003737 -0.085306 0.264273
-0.002490 -0.085586 0.265127
-0.001237 -0.086023 0.266468
0.000030 -0.087904 0.272283
0.001328 -0.088209 0.273217
0.002619 -0.087964 0.272450
0.003912 -0.087903 0.272253
0.005212 -0.088009 0.272573
0.006435 -0.087030 0.269536
0.007675 -0.086567 0.268101
0.008903 -0.086120 0.266713
0.010086 -0.085397 0.264472
0.011316 -0.085192 0.263838
0.012584 -0.085287 0.264134
0.013898 -0.085640 0.265233
0.015109 -0.085357 0.264360
0.016387 -0.085468 0.264710
0.017676 -0.085615 0.265170
0.018956 -0.085701 0.265446
0.020382 -0.086398 0.267612
0.021539 -0.085935 0.266189
0.022896 -0.086282 0.267276
0.024186 -0.086348 0.267492
0.024842 -0.084260 0.261038
0.025890 -0.083635 0.259116
0.027197 -0.083867 0.259848
0.028258 -0.083352 0.258268
0.029463 -0.083286 0.258078
0.030683 -0.083269 0.258042
0.031933 -0.083328 0.258240
0.033289 -0.083652 0.259263
0.034489 -0.083571 0.259029
0.035828 -0.083823 0.259829
0.037148 -0.084015 0.260442
0.038660 -0.084614 0.262320
0.040083 -0.084988 0.263497
0.041178 -0.084665 0.262516
0.042466 -0.084745 0.262782
0.043431 -0.084194 0.261093
0.044459 -0.083793 0.259869
0.045565 -0.083557 0.259155
0.046538 -0.083095 0.257739
0.047717 -0.083014 0.257505
0.049105 -0.083293 0.258388
0.050617 -0.083763 0.259862
0.052059 -0.084099 0.260918
0.053484 -0.084390 0.261837
0.055024 -0.084847 0.263268
0.056648 -0.085409 0.265027
0.058449 -0.086207 0.267515
0.060116 -0.086779 0.269298
0.061462 -0.086874 0.269602
0.062869 -0.087047 0.270147
0.064316 -0.087269 0.270842
0.065517 -0.087155 0.270493
0.066750 -0.087086 0.270280
0.067840 -0.086837 0.269508
0.069095 -0.086805 0.269406
0.070236 -0.086634 0.268869
0.071181 -0.086231 0.267611
0.072088 -0.085796 0.266254
0.073074 -0.085469 0.265225
0.073631 -0.084660 0.262699
0.074210 -0.083902 0.260331
0.075456 -0.083912 0.260340
0.076391 -0.083581 0.259288
0.077680 -0.083640 0.259445
0.079521 -0.084284 0.261411
0.081002 -0.084532 0.262146
0.082978 -0.085280 0.264428
0.084188 -0.085231 0.264234
0.085350 -0.085136 0.263891
0.098514 -0.095456 0.295759
0.099389 -0.094946 0.294112
0.100830 -0.094984 0.294154
0.102279 -0.095027 0.294209
0.103462 -0.094826 0.293504
0.104908 -0.094868 0.293542
0.106303 -0.094863 0.293429
0.107781 -0.094931 0.293537
0.109281 -0.095017 0.293690
0.110616 -0.094959 0.293393
0.112078 -0.095010 0.293426
0.113536 -0.095056 0.293436
0.115004 -0.095109 0.293459
0.116537 -0.095214 0.293633
0.117963 -0.095231 0.293527
0.119393 -0.095249 0.293417
0.121099 -0.095485 0.293970
0.122661 -0.095603 0.294149
0.124053 -0.095588 0.293907
0.125567 -0.095666 0.293941
0.127024 -0.095698 0.293827
0.128536 -0.095772 0.293827
0.130167 -0.095931 0.294077
0.131923 -0.096178 0.294586
0.133452 -0.096256 0.294562
0.135135 -0.096442 0.294856
0.136579 -0.096455 0.294610
0.138224 -0.096609 0.294778
0.139660 -0.096614 0.294479
0.141274 -0.096741 0.294537
0.143058 -0.096981 0.294924
0.144621 -0.097069 0.294828
0.146383 -0.097285 0.295109
0.147925 -0.097354 0.294921
0.149458 -0.097415 0.294696
0.151143 -0.097573 0.294742
0.152654 -0.097616 0.294424
0.153796 -0.097425 0.293379
0.155258 -0.097438 0.292931
0.156915 -0.097572 0.292825
-0.159560 -0.096521 0.297289
-0.156216 -0.095353 0.294139
-0.154956 -0.095448 0.294860
-0.153826 -0.095626 0.295821
-0.152180 -0.095484 0.295773
-0.150713 -0.095452 0.296051
-0.149301 -0.095455 0.296419
-0.147751 -0.095369 0.296498
-0.146105 -0.095219 0.296360
-0.144519 -0.095106 0.296322
-0.143132 -0.095123 0.296674
-0.141588 -0.095035 0.296686
-0.140115 -0.094993 0.296829
-0.138796 -0.095056 0.297287
-0.132780 -0.091870 0.287566
-0.131859 -0.092181 0.288768
-0.147290 -0.104049 0.326194
-0.145901 -0.104162 0.326781
-0.144511 -0.104275 0.327362
-0.127415 -0.092937 0.291954
-0.126120 -0.093000 0.292334
-0.124797 -0.093044 0.292643
-0.123570 -0.093162 0.293174
-0.122233 -0.093199 0.293442
-0.120936 -0.093267 0.293801
-0.119565 -0.093280 0.293976
-0.118287 -0.093366 0.294374
-0.116991 -0.093441 0.294728
-0.115458 -0.093324 0.294472
-0.114276 -0.093493 0.295109
-0.112901 -0.093506 0.295248
-0.111367 -0.093387 0.294961
-0.109989 -0.093397 0.295075
-0.108310 -0.093148 0.294365
-0.106923 -0.093146 0.294431
-0.105679 -0.093272 0.294892
-0.103897 -0.092920 0.293837
-0.102517 -0.092922 0.293898
-0.111113 -0.102091 0.322948
-0.109594 -0.102092 0.322997
-0.107907 -0.101934 0.322537
-0.106411 -0.101955 0.322637
-0.104834 -0.101897 0.322485
-0.103403 -0.101983 0.322779
-0.101965 -0.102063 0.323053
-0.100593 -0.102213 0.323543
-0.099117 -0.102261 0.323704
-0.097736 -0.102409 0.324180
-0.096357 -0.102565 0.324675
-0.094662 -0.102384 0.324101
-0.093076 -0.102317 0.323882
-0.091617 -0.102390 0.324105
-0.089915 -0.102189 0.323456
-0.088456 -0.102263 0.323673
-0.086821 -0.102131 0.323238
-0.085357 -0.102200 0.323434
-0.083928 -0.102315 0.323772
-0.074546 -0.092559 0.292874
-0.073362 -0.092805 0.293626
-0.072061 -0.092911 0.293933
-0.070607 -0.092820 0.293612
-0.069291 -0.092911 0.293866
-0.067914 -0.092922 0.293866
-0.066521 -0.092910 0.293792
-0.065114 -0.092879 0.293655
-0.063750 -0.092908 0.293709
-0.062372 -0.092920 0.293704
-0.061021 -0.092971 0.293822
-0.059586 -0.092895 0.293540
-0.058219 -0.092924 0.293588
-0.056858 -0.092964 0.293668
-0.055406 -0.092853 0.293273
-0.054010 -0.092834 0.293165
-0.052583 -0.092759 0.292882
-0.051214 -0.092784 0.292914
-0.049789 -0.092708 0.292626
-0.048324 -0.092551 0.292084
-0.046985 -0.092632 0.292290
-0.045603 -0.092632 0.292243
-0.044056 -0.092286 0.291104
-0.042107 -0.091048 0.287153
-0.042522 -0.095010 0.299598
-0.041135 -0.095080 0.299770
-0.038630 -0.092480 0.291525
-0.037734 -0.093681 0.295266
-0.036361 -0.093744 0.295418
-0.032139 -0.086175 0.271522
-0.030582 -0.085418 0.269097
-0.029327 -0.085475 0.269237
-0.027834 -0.084814 0.267114
-0.026382 -0.084217 0.265198
-0.025116 -0.084187 0.265066
-0.023926 -0.084422 0.265768
-0.022306 -0.083083 0.261520
-0.021475 -0.084694 0.266556
-0.020344 -0.085254 0.268283
-0.019275 -0.086166 0.271120
-0.017792 -0.085224 0.268126
-0.016610 -0.085692 0.269567
-0.015338 -0.085732 0.269665
-0.013877 -0.084625 0.266154
-0.012532 -0.084079 0.264412
-0.011262 -0.083976 0.264065
-0.009948 -0.083470 0.262448
-0.008697 -0.083428 0.262294
-0.007459 -0.083518 0.262557
-0.006213 -0.083537 0.262598
-0.004971 -0.083627 0.262864
-0.003720 -0.083588 0.262724
-0.002479 -0.083835 0.263488
-0.001241 -0.084776 0.266430
0.000026 -0.086268 0.271108
0.001313 -0.086163 0.270767
0.002596 -0.086015 0.270293
0.003894 -0.086296 0.271169
0.005184 -0.086312 0.271213
0.006467 -0.086219 0.270917
0.007709 -0.085712 0.269320
0.008923 -0.085077 0.267323
0.010148 -0.084687 0.266099
0.011378 -0.084425 0.265275
0.012643 -0.084449 0.265352
0.013955 -0.084752 0.266311
0.015277 -0.085057 0.267274
0.016495 -0.084782 0.266415
0.017785 -0.084893 0.266770
0.019130 -0.085230 0.267841
0.020283 -0.084727 0.266269
0.021702 -0.085328 0.268169
0.023039 -0.085555 0.268896
0.023775 -0.083645 0.262905
0.024538 -0.082015 0.257794
0.025727 -0.081895 0.257435
0.027130 -0.082441 0.259164
0.028239 -0.082081 0.258050
0.029498 -0.082168 0.258342
0.030728 -0.082171 0.258368
0.032007 -0.082301 0.258796
0.033281 -0.082409 0.259154
0.034508 -0.082394 0.259127
0.035845 -0.082637 0.259912
0.037159 -0.082810 0.260476
0.038896 -0.083886 0.263879
0.040200 -0.083990 0.264228
0.041292 -0.083656 0.263200
0.042631 -0.083829 0.263766
0.043597 -0.083278 0.262053
0.044608 -0.082843 0.260703
0.045645 -0.082477 0.259574
0.046737 -0.082227 0.258807
0.048022 -0.082321 0.259121
0.049300 -0.082399 0.259385
0.051172 -0.083441 0.262685
0.052655 -0.083814 0.263878
0.054002 -0.083959 0.264351
0.055480 -0.084296 0.265428
0.057018 -0.084706 0.266735
0.058634 -0.085212 0.268342
0.060220 -0.085654 0.269748
0.061671 -0.085890 0.270502
0.062986 -0.085931 0.270641
0.064353 -0.086039 0.270990
0.065599 -0.085984 0.270825
0.066708 -0.085755 0.270107
0.067927 -0.085674 0.269855
0.068673 -0.085010 0.267764
0.069852 -0.084897 0.267405
0.070736 -0.084434 0.265946
0.071653 -0.084027 0.264656
0.072600 -0.083668 0.263518
0.073249 -0.082985 0.261354
0.074252 -0.082718 0.260499
0.075207 -0.082407 0.259503
0.076139 -0.082082 0.258457
0.077139 -0.081839 0.257669
0.078549 -0.082031 0.258247
0.080011 -0.082271 0.258972
0.081619 -0.082652 0.260137
0.082847 -0.082643 0.260068
0.084643 -0.083191 0.261751
0.096046 -0.093029 0.292650
0.097328 -0.092923 0.292260
0.099327 -0.093494 0.293992
0.100908 -0.093662 0.294451
0.102363 -0.093709 0.294525
0.103403 -0.093380 0.293412
0.104922 -0.093487 0.293661
0.106346 -0.093508 0.293634
0.107729 -0.093492 0.293485
0.109205 -0.093557 0.293584
0.110621 -0.093569 0.293507
0.112029 -0.093574 0.293404
0.113442 -0.093583 0.293304
0.114869 -0.093603 0.293232
0.116377 -0.093688 0.293354
0.117830 -0.093727 0.293324
0.119360 -0.093825 0.293471
0.120983 -0.093993 0.293827
0.122690 -0.094222 0.294363
0.124088 -0.094211 0.294140
0.125566 -0.094260 0.294096
0.127018 -0.094289 0.293976
0.128523 -0.094356 0.293966
0.130072 -0.094453 0.294038
0.131529 -0.094483 0.293888
0.133151 -0.094629 0.294087
0.134828 -0.094810 0.294383
0.136338 -0.094871 0.294293
0.137806 -0.094902 0.294096
0.139390 -0.095012 0.294129
0.140871 -0.095049 0.293925
0.142758 -0.095357 0.294539
0.144407 -0.095502 0.294633
0.146298 -0.095801 0.295189
0.148050 -0.096006 0.295433
0.149567 -0.096054 0.295179
0.151079 -0.096099 0.294896
0.152639 -0.096173 0.294684
0.153874 -0.096043 0.293826
0.155173 -0.095955 0.293078
0.156817 -0.096079 0.292960
-0.159634 -0.095120 0.297701
-0.156146 -0.093884 0.294268
-0.154657 -0.093838 0.294543
-0.153194 -0.093807 0.294848
-0.151877 -0.093867 0.295419
-0.150324 -0.093781 0.295514
-0.148703 -0.093650 0.295453
-0.147364 -0.093695 0.295933
-0.145444 -0.093369 0.295223
-0.143804 -0.093218 0.295052
-0.142327 -0.093171 0.295195
-0.141180 -0.093342 0.296015
-0.139533 -0.093182 0.295772
-0.138022 -0.093111 0.295800
-0.131917 -0.089907 0.285856
-0.133900 -0.092206 0.293393
-0.144530 -0.100571 0.320245
-0.144402 -0.101548 0.323582
-0.143029 -0.101661 0.324157
-0.127074 -0.091300 0.291304
-0.126039 -0.091549 0.292271
-0.124627 -0.091527 0.292365
-0.123418 -0.091655 0.292929
-0.122154 -0.091744 0.293361
-0.120742 -0.091724 0.293435
-0.119506 -0.091838 0.293931
-0.118301 -0.091979 0.294504
-0.116755 -0.091855 0.294221
-0.115111 -0.091651 0.293673
-0.114142 -0.091985 0.294843
-0.112447 -0.091736 0.294137
-0.110871 -0.091578 0.293715
-0.109652 -0.091716 0.294235
-0.108270 -0.091718 0.294315
-0.106848 -0.091688 0.294282
-0.105563 -0.091774 0.294621
-0.103482 -0.091163 0.292710
-0.102139 -0.091193 0.292856
-0.112472 -0.101792 0.326940
-0.110630 -0.101514 0.326088
-0.107864 -0.100368 0.322442
-0.106432 -0.100448 0.322730
-0.104897 -0.100431 0.322702
-0.103488 -0.100537 0.323063
-0.101893 -0.100463 0.322839
-0.100604 -0.100693 0.323588
-0.099383 -0.100999 0.324580
-0.097850 -0.100993 0.324561
-0.096301 -0.100970 0.324485
-0.094675 -0.100864 0.324139
-0.093138 -0.100851 0.324090
-0.091563 -0.100796 0.323898
-0.089912 -0.100654 0.323426
-0.088344 -0.100602 0.323240
-0.086857 -0.100643 0.323347
-0.085219 -0.100506 0.322884
-0.083794 -0.100620 0.323221
-0.074316 -0.090890 0.291936
-0.073165 -0.091169 0.292803
-0.072016 -0.091461 0.293708
-0.070462 -0.091241 0.292968
-0.069217 -0.091419 0.293504
-0.067995 -0.091637 0.294165
-0.066539 -0.091541 0.293818
-0.065163 -0.091555 0.293820
-0.063849 -0.091657 0.294106
-0.062407 -0.091577 0.293805
-0.060989 -0.091529 0.293604
-0.059636 -0.091578 0.293716
-0.058202 -0.091503 0.293430
-0.056742 -0.091381 0.292992
-0.055355 -0.091376 0.292928
-0.053862 -0.091190 0.292281
-0.052525 -0.091265 0.292472
-0.051235 -0.091429 0.292948
-0.049677 -0.091111 0.291880
-0.048381 -0.091268 0.292333
-0.046985 -0.091241 0.292195
-0.045489 -0.091011 0.291410
-0.044073 -0.090933 0.291112
-0.042246 -0.089976 0.287998
-0.042635 -0.093831 0.300286
-0.041245 -0.093901 0.300459
-0.038612 -0.091047 0.291279
-0.037657 -0.092084 0.294549
-0.036287 -0.092147 0.294702
-0.032216 -0.085082 0.272062
-0.030533 -0.083996 0.268549
-0.029270 -0.084024 0.268596
-0.027778 -0.083368 0.266458
-0.026330 -0.082784 0.264552
-0.025093 -0.082842 0.264699
-0.023881 -0.082994 0.265146
-0.022372 -0.082072 0.262165
-0.021461 -0.083361 0.266248
-0.020352 -0.083999 0.268249
-0.019308 -0.085006 0.271431
-0.017835 -0.084136 0.268623
-0.016640 -0.084546 0.269898
-0.015379 -0.084656 0.270222
-0.013986 -0.083996 0.268085
-0.012621 -0.083389 0.266123
-0.011320 -0.083121 0.265241
-0.010010 -0.082707 0.263897
-0.008727 -0.082427 0.262982
-0.007491 -0.082581 0.263451
-0.006250 -0.082721 0.263879
-0.005005 -0.082886 0.264387
-0.003742 -0.082739 0.263902
-0.002503 -0.083276 0.265599
-0.001250 -0.083904 0.267589
0.000022 -0.084379 0.269094
0.001304 -0.084512 0.269507
0.002586 -0.084502 0.269466
0.003874 -0.084645 0.269914
0.005174 -0.084919 0.270781
0.006455 -0.084829 0.270491
0.007710 -0.084476 0.269361
0.008980 -0.084372 0.269027
0.010190 -0.083796 0.267191
0.011430 -0.083570 0.266473
0.012719 -0.083710 0.266923
0.014058 -0.084124 0.268246
0.015345 -0.084179 0.268429
0.016629 -0.084215 0.268551
0.017857 -0.083980 0.267810
0.019089 -0.083795 0.267230
0.020328 -0.083660 0.266811
0.021687 -0.084008 0.267932
0.022959 -0.083996 0.267907
0.023812 -0.082536 0.263265
0.024825 -0.081744 0.260756
0.026083 -0.081801 0.260952
0.027293 -0.081704 0.260662
0.028433 -0.081419 0.259770
0.029693 -0.081484 0.259995
0.030871 -0.081329 0.259519
0.032174 -0.081504 0.260098
0.033417 -0.081517 0.260159
0.034641 -0.081485 0.260079
0.036000 -0.081762 0.260984
0.037401 -0.082112 0.262125
0.039028 -0.082920 0.264728
0.040150 -0.082639 0.263853
0.041227 -0.082284 0.262743
0.042494 -0.082318 0.262874
0.043845 -0.082507 0.263502
0.044782 -0.081929 0.261678
0.046004 -0.081890 0.261577
0.047259 -0.081909 0.261658
0.048571 -0.082024 0.262047
0.050079 -0.082456 0.263451
0.051850 -0.083290 0.266135
0.053260 -0.083517 0.266882
0.054604 -0.083632 0.267269
0.056034 -0.083871 0.268052
0.057372 -0.083964 0.268366
0.058953 -0.084401 0.269781
0.060532 -0.084817 0.271127
0.061844 -0.084849 0.271243
0.063158 -0.084883 0.271366
0.064481 -0.084927 0.271517
0.065758 -0.084909 0.271469
0.066811 -0.084609 0.270518
0.067950 -0.084426 0.269940
0.068756 -0.083845 0.268086
0.069611 -0.083343 0.266482
0.070630 -0.083052 0.265550
0.071568 -0.082677 0.264349
0.072298 -0.082079 0.262431
0.073187 -0.081680 0.261144
0.074300 -0.081539 0.260684
0.075086 -0.081050 0.259105
0.076024 -0.080738 0.258090
0.077045 -0.080521 0.257378
0.078250 -0.080502 0.257294
0.079557 -0.080586 0.257535
0.081045 -0.080848 0.258342
0.082440 -0.081011 0.258827
0.083887 -0.081220 0.259454
0.096833 -0.092394 0.295102
0.098125 -0.092288 0.294708
0.099363 -0.092135 0.294160
0.100902 -0.092261 0.294498
0.102291 -0.092248 0.294388
0.103436 -0.092019 0.293579
0.104955 -0.092124 0.293833
0.106279 -0.092057 0.293532
0.107635 -0.092019 0.293315
0.109143 -0.092111 0.293508
0.110477 -0.092055 0.293222
0.111948 -0.092113 0.293292
0.113310 -0.092081 0.293067
0.114740 -0.092104 0.293011
0.116234 -0.092178 0.293108
0.117664 -0.092199 0.293030
0.119220 -0.092318 0.293253
0.120716 -0.092388 0.293311
0.122480 -0.092659 0.293998
0.124055 -0.092782 0.294207
0.125525 -0.092825 0.294149
0.126950 -0.092834 0.293975
0.128524 -0.092950 0.294129
0.129943 -0.092954 0.293916
0.131429 -0.093004 0.293839
0.133038 -0.093139 0.294017
0.134610 -0.093246 0.294096
0.136103 -0.093296 0.293981
0.137623 -0.093364 0.293908
0.139043 -0.093363 0.293607
0.140680 -0.093505 0.293742
0.142326 -0.093651 0.293873
0.144304 -0.094011 0.294657
0.146268 -0.094354 0.295371
0.147922 -0.094493 0.295428
0.149386 -0.094508 0.295082
0.150879 -0.094542 0.294774
0.152466 -0.094632 0.294626
0.153868 -0.094608 0.294101
0.155183 -0.094530 0.293393
0.156614 -0.094525 0.292887
-0.157655 -0.092513 0.294271
-0.156149 -0.092459 0.294526
-0.154614 -0.092387 0.294706
-0.153353 -0.092478 0.295391
-0.151856 -0.092428 0.295606
-0.150157 -0.092253 0.295405
-0.148581 -0.092151 0.295422
-0.147023 -0.092058 0.295453
-0.145388 -0.091915 0.295307
-0.143678 -0.091722 0.294985
-0.142293 -0.091734 0.295308
-0.140891 -0.091736 0.295585
-0.139281 -0.091600 0.295408
-0.137931 -0.091635 0.295768
-0.136674 -0.091734 0.296321
-0.145733 -0.098830 0.319483
-0.144378 -0.098938 0.320064
-0.144818 -0.100293 0.324667
-0.143443 -0.100406 0.325242
-0.126971 -0.089839 0.291192
-0.125825 -0.090004 0.291894
-0.124509 -0.090050 0.292202
-0.123056 -0.089996 0.292177
-0.121896 -0.090159 0.292847
-0.120585 -0.090212 0.293152
-0.119298 -0.090285 0.293513
-0.118024 -0.090369 0.293904
-0.116428 -0.090206 0.293481
-0.115144 -0.090284 0.293836
-0.113880 -0.090379 0.294242
-0.112299 -0.090222 0.293818
-0.110925 -0.090231 0.293925
-0.109532 -0.090222 0.293973
-0.108201 -0.090267 0.294185
-0.106850 -0.090295 0.294337
-0.105503 -0.090327 0.294499
-0.102637 -0.089044 0.290364
-0.101688 -0.089411 0.291603
-0.112403 -0.100183 0.326779
-0.109969 -0.099373 0.324172
-0.107781 -0.098765 0.322221
-0.106649 -0.099122 0.323411
-0.104944 -0.098949 0.322867
-0.103687 -0.099199 0.323701
-0.101957 -0.098997 0.323054
-0.101000 -0.099552 0.324869
-0.099932 -0.100012 0.326375
-0.098039 -0.099649 0.325186
-0.095977 -0.099100 0.323389
-0.094028 -0.098651 0.321916
-0.093017 -0.099188 0.323653
-0.091312 -0.098990 0.322992
-0.089701 -0.098890 0.322646
-0.088346 -0.099074 0.323221
-0.086640 -0.098863 0.322507
-0.085207 -0.098963 0.322804
-0.083783 -0.099076 0.323142
-0.074349 -0.089546 0.292027
-0.073226 -0.089856 0.293004
-0.072016 -0.090069 0.293663
-0.070549 -0.089963 0.293280
-0.069270 -0.090097 0.293679
-0.068009 -0.090261 0.294171
-0.066636 -0.090279 0.294189
-0.065235 -0.090260 0.294082
-0.063895 -0.090326 0.294251
-0.062469 -0.090272 0.294029
-0.061081 -0.090271 0.293977
-0.059629 -0.090172 0.293608
-0.058216 -0.090130 0.293422
-0.056724 -0.089962 0.292823
-0.055321 -0.089929 0.292665
-0.053930 -0.089914 0.292566
-0.052498 -0.089829 0.292238
-0.051127 -0.089847 0.292244
-0.049739 -0.089834 0.292151
-0.048301 -0.089728 0.291755
-0.046911 -0.089707 0.291635
-0.045477 -0.089601 0.291238
-0.044111 -0.089624 0.291259
-0.042268 -0.088649 0.288040
-0.042578 -0.092275 0.299768
-0.041189 -0.092344 0.299941
-0.038670 -0.089792 0.291600
-0.037578 -0.090488 0.293810
-0.034142 -0.085375 0.277164
-0.032174 -0.083672 0.271589
-0.030439 -0.082459 0.267606
-0.029220 -0.082597 0.268015
-0.027746 -0.081996 0.266022
-0.026312 -0.081462 0.264249
-0.025071 -0.081502 0.264339
-0.023839 -0.081579 0.264548
-0.022314 -0.080604 0.261351
-0.021459 -0.082077 0.266089
-0.020343 -0.082673 0.267985
-0.019313 -0.083724 0.271358
-0.017858 -0.082949 0.268812
-0.016681 -0.083451 0.270408
-0.015374 -0.083324 0.269966
-0.013983 -0.082686 0.267869
-0.012665 -0.082386 0.266869
-0.011346 -0.082024 0.265673
-0.010034 -0.081616 0.264326
-0.008736 -0.081235 0.263068
-0.007498 -0.081365 0.263468
-0.006252 -0.081456 0.263746
-0.005004 -0.081544 0.264011
-0.003752 -0.081638 0.264299
-0.002506 -0.081977 0.265380
-0.001251 -0.082461 0.266934
0.000019 -0.082813 0.268062
0.001300 -0.083192 0.269279
0.002590 -0.083472 0.270174
0.003860 -0.083133 0.269071
0.005147 -0.083251 0.269448
0.006491 -0.084044 0.272010
0.007716 -0.083298 0.269593
0.008982 -0.083139 0.269078
0.010302 -0.083461 0.270121
0.011542 -0.083136 0.269070
0.012793 -0.082941 0.268443
0.014095 -0.083081 0.268902
0.015295 -0.082654 0.267527
0.016367 -0.081649 0.264280
0.017741 -0.082185 0.266027
0.019032 -0.082293 0.266385
0.020254 -0.082106 0.265794
0.021475 -0.081938 0.265263
0.022685 -0.081749 0.264663
0.023784 -0.081198 0.262896
0.024806 -0.080456 0.260510
0.025968 -0.080215 0.259748
0.027243 -0.080329 0.260134
0.028361 -0.079991 0.259060
0.029551 -0.079873 0.258698
0.030765 -0.079830 0.258577
0.031999 -0.079838 0.258627
0.033274 -0.079946 0.258996
0.034593 -0.080145 0.259667
0.035847 -0.080186 0.259822
0.037451 -0.080983 0.262427
0.039230 -0.082092 0.266047
0.040279 -0.081654 0.264651
0.041355 -0.081294 0.263510
0.042929 -0.081905 0.265514
0.044296 -0.082098 0.266166
0.045474 -0.081940 0.265679
0.046953 -0.082318 0.266929
0.048320 -0.082483 0.267491
0.049588 -0.082477 0.267495
0.051095 -0.082858 0.268757
0.052657 -0.083308 0.270239
0.054017 -0.083423 0.270636
0.055337 -0.083475 0.270826
0.056451 -0.083218 0.270015
0.057856 -0.083393 0.270603
0.059273 -0.083577 0.271221
0.060613 -0.083647 0.271467
0.062018 -0.083803 0.271988
0.063264 -0.083740 0.271801
0.064494 -0.083660 0.271554
0.065540 -0.083348 0.270556
0.066854 -0.083384 0.270681
0.067846 -0.083023 0.269520
0.068902 -0.082753 0.268650
0.069918 -0.082446 0.267657
0.070709 -0.081888 0.265848
0.071500 -0.081350 0.264103
0.072451 -0.081010 0.262993
0.073022 -0.080264 0.260567
0.073970 -0.079950 0.259539
0.074795 -0.079514 0.258113
0.075626 -0.079100 0.256754
0.076618 -0.078865 0.255975
0.078077 -0.079109 0.256748
0.079613 -0.079423 0.257744
0.081038 -0.079619 0.258351
0.082683 -0.080021 0.259624
0.084488 -0.080565 0.261351
0.096539 -0.090721 0.294253
0.097826 -0.090615 0.293860
0.099199 -0.090592 0.293730
0.100738 -0.090718 0.294078
0.102160 -0.090737 0.294074
0.103278 -0.090488 0.293198
0.104748 -0.090551 0.293324
0.106094 -0.090507 0.293097
0.107446 -0.090468 0.292882
0.108911 -0.090525 0.292969
0.110378 -0.090581 0.293049
0.111764 -0.090570 0.292903
0.113130 -0.090544 0.292702
0.114707 -0.090685 0.293032
0.116221 -0.090773 0.293184
0.117760 -0.090879 0.293385
0.119206 -0.090911 0.293338
0.120673 -0.090958 0.293332
0.122393 -0.091192 0.293919
0.124103 -0.091414 0.294458
0.125573 -0.091456 0.294405
0.127012 -0.091474 0.294266
0.128525 -0.091545 0.294286
0.129938 -0.091544 0.294065
0.131441 -0.091605 0.294032
0.132871 -0.091614 0.293821
0.134352 -0.091659 0.293711
0.135873 -0.091729 0.293670
0.137420 -0.091815 0.293669
0.138824 -0.091805 0.293344
0.140403 -0.091910 0.293373
0.141950 -0.091991 0.293312
0.143870 -0.092310 0.293995
0.145755 -0.092600 0.294568
0.147658 -0.092897 0.295142
0.149330 -0.093043 0.295221
0.150805 -0.093066 0.294889
0.152443 -0.093187 0.294851
0.153883 -0.093186 0.294408
0.155238 -0.093133 0.293784
0.156728 -0.093162 0.293395
-0.157407 -0.090942 0.294059
-0.155527 -0.090669 0.293595
-0.153990 -0.090594 0.293751
-0.152708 -0.090668 0.294375
-0.151354 -0.090701 0.294848
-0.149232 -0.090270 0.293797
-0.147720 -0.090203 0.293913
-0.146303 -0.090194 0.294203
-0.144743 -0.090095 0.294186
-0.143200 -0.090006 0.294184
-0.141938 -0.090093 0.294747
-0.140345 -0.089970 0.294608
-0.139014 -0.090014 0.295004
-0.137602 -0.090006 0.295219
-0.136350 -0.090104 0.295769
-0.146157 -0.098612 0.324160
-0.145410 -0.099149 0.326140
-0.144032 -0.099262 0.326716
-0.126964 -0.088448 0.291295
-0.125524 -0.088403 0.291309
-0.124181 -0.088427 0.291541
-0.122959 -0.088538 0.292053
-0.121722 -0.088641 0.292528
-0.120354 -0.088650 0.292683
-0.118947 -0.088630 0.292738
-0.117790 -0.088798 0.293403
-0.116350 -0.088754 0.293365
-0.114872 -0.088680 0.293217
-0.113662 -0.088814 0.293747
-0.112469 -0.088964 0.294328
-0.111002 -0.088899 0.294190
-0.109659 -0.088933 0.294371
-0.108425 -0.089057 0.294844
-0.107011 -0.089035 0.294829
-0.104677 -0.088237 0.292238
-0.104110 -0.088927 0.294568
-0.100477 -0.086981 0.288162
-0.112527 -0.098746 0.327174
-0.109154 -0.097113 0.321797
-0.107393 -0.096890 0.321084
-0.106184 -0.097166 0.322020
-0.104859 -0.097342 0.322621
-0.103181 -0.097190 0.322129
-0.101669 -0.097193 0.322147
-0.100383 -0.097416 0.322887
-0.098696 -0.097251 0.322338
-0.097315 -0.097385 0.322779
-0.095875 -0.097465 0.323033
-0.094186 -0.097291 0.322442
-0.092669 -0.097291 0.322426
-0.091172 -0.097312 0.322475
-0.089575 -0.097227 0.322168
-0.087960 -0.097117 0.321779
-0.086285 -0.096938 0.321155
-0.084716 -0.096872 0.320904
-0.083301 -0.096984 0.321240
-0.074424 -0.088252 0.292283
-0.073243 -0.088489 0.293032
-0.072020 -0.088682 0.293634
-0.070604 -0.088642 0.293461
-0.069313 -0.088760 0.293808
-0.068003 -0.088857 0.294086
-0.066640 -0.088889 0.294145
-0.065251 -0.088886 0.294090
-0.063842 -0.088856 0.293942
-0.062438 -0.088832 0.293812
-0.060945 -0.088677 0.293250
-0.059462 -0.088530 0.292712
-0.058085 -0.088536 0.292682
-0.056741 -0.088596 0.292826
-0.055368 -0.088612 0.292828
-0.053943 -0.088545 0.292551
-0.052622 -0.088647 0.292835
-0.051209 -0.088598 0.292618
-0.049768 -0.088496 0.292228
-0.048343 -0.088416 0.291910
-0.046939 -0.088373 0.291712
-0.045504 -0.088265 0.291303
-0.043975 -0.087965 0.290257
-0.042255 -0.087249 0.287842
-0.042339 -0.090337 0.297975
-0.040959 -0.090405 0.298147
-0.038805 -0.088710 0.292503
-0.037773 -0.089548 0.295215
-0.036400 -0.089610 0.295369
-0.031982 -0.081884 0.269854
-0.030214 -0.080579 0.265509
-0.029112 -0.081018 0.266911
-0.027682 -0.080538 0.265288
-0.026265 -0.080055 0.263656
-0.024978 -0.079941 0.263238
-0.023780 -0.080111 0.263758
-0.022369 -0.079544 0.261855
-0.021367 -0.080453 0.264809
-0.020292 -0.081183 0.267177
-0.019294 -0.082338 0.270941
-0.017863 -0.081679 0.268739
-0.016634 -0.081914 0.269479
-0.015374 -0.082024 0.269808
-0.014017 -0.081586 0.268340
-0.012657 -0.081044 0.266529
-0.011367 -0.080885 0.265979
-0.010042 -0.080397 0.264347
-0.008735 -0.079944 0.262834
-0.007479 -0.079875 0.262588
-0.006235 -0.079941 0.262785
-0.004996 -0.080117 0.263344
-0.003756 -0.080390 0.264226
-0.002510 -0.080741 0.265363
-0.001251 -0.080976 0.266123
0.000015 -0.081333 0.267282
0.001293 -0.081694 0.268460
0.002578 -0.081918 0.269186
0.003863 -0.081998 0.269442
0.005147 -0.082027 0.269531
0.006451 -0.082290 0.270393
0.007688 -0.081756 0.268637
0.008956 -0.081654 0.268300
0.010316 -0.082315 0.270472
0.011454 -0.081252 0.266984
0.012755 -0.081445 0.267622
0.014115 -0.081939 0.269251
0.015196 -0.080871 0.265749
0.016400 -0.080569 0.264766
0.017786 -0.081139 0.266650
0.019010 -0.080945 0.266021
0.020184 -0.080575 0.264819
0.021401 -0.080408 0.264285
0.022616 -0.080256 0.263799
0.023764 -0.079892 0.262622
0.024850 -0.079367 0.260913
0.026025 -0.079163 0.260259
0.027191 -0.078950 0.259580
0.028341 -0.078712 0.258817
0.029541 -0.078626 0.258556
0.030716 -0.078483 0.258107
0.031980 -0.078569 0.258415
0.033297 -0.078775 0.259115
0.034504 -0.078715 0.258942
0.035849 -0.078964 0.259785
0.037343 -0.079514 0.261619
0.038805 -0.079960 0.263113
0.040083 -0.080012 0.263313
0.041278 -0.079899 0.262966
0.042986 -0.080758 0.265821
0.044337 -0.080916 0.266367
0.045861 -0.081370 0.267890
0.047465 -0.081940 0.269796
0.048926 -0.082238 0.270803
0.050246 -0.082291 0.271005
0.051550 -0.082315 0.271111
0.053102 -0.082723 0.272483
0.054468 -0.082830 0.272860
0.055638 -0.082641 0.272263
0.056704 -0.082309 0.271194
0.057959 -0.082260 0.271053
0.059328 -0.082372 0.271446
0.060644 -0.082406 0.271580
0.061893 -0.082350 0.271416
0.063146 -0.082302 0.271274
0.064394 -0.082248 0.271114
0.065388 -0.081879 0.269913
0.066646 -0.081848 0.269825
0.067862 -0.081768 0.269572
0.069026 -0.081630 0.269125
0.069770 -0.081008 0.267082
0.070756 -0.080684 0.266021
0.071586 -0.080197 0.264418
0.072394 -0.079704 0.262791
0.072885 -0.078883 0.260082
0.073917 -0.078665 0.259360
0.074827 -0.078327 0.258238
0.075598 -0.077856 0.256674
0.076883 -0.077922 0.256878
0.077869 -0.077687 0.256085
0.079471 -0.078065 0.257309
0.081310 -0.078659 0.259245
0.082679 -0.078788 0.259642
0.084432 -0.079275 0.261213
0.097149 -0.089891 0.296154
0.098442 -0.089785 0.295758
0.098999 -0.089019 0.293185
0.100492 -0.089105 0.293412
0.102070 -0.089264 0.293874
0.103276 -0.089097 0.293255
0.104610 -0.089042 0.293004
0.106014 -0.089049 0.292947
0.107423 -0.089059 0.292894
0.108844 -0.089079 0.292869
0.110316 -0.089139 0.292967
0.111717 -0.089141 0.292870
0.113096 -0.089126 0.292708
0.114570 -0.089185 0.292781
0.116027 -0.089229 0.292799
0.117530 -0.089307 0.292920
0.119054 -0.089399 0.293078
0.120491 -0.089425 0.293009
0.122240 -0.089679 0.293678
0.124081 -0.089993 0.294536
0.125395 -0.089922 0.294123
0.126780 -0.089904 0.293871
0.128401 -0.090051 0.294151
0.129710 -0.089979 0.293703
0.131164 -0.090007 0.293572
0.132717 -0.090103 0.293649
0.134216 -0.090159 0.293586
0.135714 -0.090214 0.293508
0.137275 -0.090309 0.293545
0.138804 -0.090381 0.293495
0.140303 -0.090433 0.293364
0.141851 -0.090514 0.293316
0.143694 -0.090780 0.293850
0.145611 -0.091088 0.294502
0.147355 -0.091282 0.294769
0.149158 -0.091508 0.295122
0.150872 -0.091676 0.295269
0.152501 -0.091789 0.295221
0.154014 -0.091831 0.294924
0.155485 -0.091848 0.294528
0.156944 -0.091857 0.294086
-0.157233 -0.089419 0.293978
-0.155690 -0.089343 0.294139
-0.153958 -0.089156 0.293917
-0.152820 -0.089313 0.294810
-0.151346 -0.089275 0.295045
-0.149678 -0.089121 0.294879
-0.147841 -0.088863 0.294350
-0.146325 -0.088794 0.294436
-0.144673 -0.088641 0.294226
-0.143152 -0.088566 0.294262
-0.141718 -0.088544 0.294459
-0.140432 -0.088615 0.294953
-0.138774 -0.088451 0.294652
-0.137316 -0.088412 0.294756
-0.132152 -0.085962 0.286803
-0.145575 -0.095676 0.319441
-0.144226 -0.095784 0.320020
-0.144874 -0.097236 0.325077
-0.143503 -0.097348 0.325651
-0.126866 -0.086995 0.291183
-0.125835 -0.087234 0.292141
-0.124356 -0.087164 0.292055
-0.123176 -0.087304 0.292666
-0.121885 -0.087369 0.293012
-0.120392 -0.087288 0.292864
-0.119264 -0.087473 0.293601
-0.117985 -0.087551 0.293969
-0.116097 -0.087173 0.292799
-0.114603 -0.087086 0.292600
-0.113490 -0.087289 0.293367
-0.112075 -0.087263 0.293357
-0.110686 -0.087256 0.293407
-0.109437 -0.087362 0.293826
-0.108133 -0.087426 0.294099
-0.106761 -0.087435 0.294184
-0.105459 -0.087503 0.294460
-0.102506 -0.086185 0.290065
-0.100832 -0.085920 0.289210
-0.109275 -0.095697 0.322180
-0.106824 -0.094866 0.319404
-0.106305 -0.095751 0.322403
-0.100668 -0.091986 0.309737
-0.099540 -0.092291 0.310771
-0.098512 -0.092699 0.312147
-0.098063 -0.093673 0.315425
-0.097297 -0.094368 0.317763
-0.097212 -0.095757 0.322428
-0.094670 -0.094731 0.318962
-0.093542 -0.095110 0.320220
-0.092782 -0.095882 0.322798
-0.090853 -0.095451 0.321322
-0.089374 -0.095486 0.321415
-0.087971 -0.095606 0.321789
-0.086146 -0.095263 0.320601
-0.084655 -0.095284 0.320634
-0.080554 -0.092315 0.310605
-0.074208 -0.086616 0.291393
-0.073133 -0.086970 0.292544
-0.072137 -0.087433 0.294061
-0.070657 -0.087316 0.293626
-0.069169 -0.087186 0.293141
-0.068038 -0.087509 0.294180
-0.066665 -0.087527 0.294193
-0.065151 -0.087357 0.293574
-0.063660 -0.087212 0.293036
-0.062269 -0.087200 0.292943
-0.060934 -0.087268 0.293120
-0.059458 -0.087133 0.292613
-0.058080 -0.087140 0.292581
-0.056719 -0.087171 0.292631
-0.055316 -0.087138 0.292465
-0.053930 -0.087133 0.292390
-0.052533 -0.087108 0.292250
-0.051185 -0.087165 0.292386
-0.049710 -0.087003 0.291785
-0.048364 -0.087065 0.291939
-0.047003 -0.087102 0.292005
-0.045613 -0.087087 0.291898
-0.043965 -0.086562 0.290084
-0.042320 -0.086009 0.288176
-0.042641 -0.089551 0.299984
-0.041252 -0.089619 0.300158
-0.038988 -0.087726 0.293762
-0.037817 -0.088240 0.295430
-0.034073 -0.082560 0.276365
-0.032080 -0.080842 0.270565
-0.030294 -0.079520 0.266093
-0.029099 -0.079704 0.266665
-0.027675 -0.079251 0.265103
-0.026306 -0.078918 0.263946
-0.024972 -0.078658 0.263037
-0.023784 -0.078861 0.263673
-0.022403 -0.078410 0.262126
-0.021354 -0.079133 0.264506
-0.020312 -0.079981 0.267301
-0.019295 -0.081041 0.270806
-0.017826 -0.080221 0.268033
-0.016628 -0.080587 0.269220
-0.015365 -0.080675 0.269483
-0.014022 -0.080323 0.268277
-0.012685 -0.079932 0.266941
-0.011351 -0.079483 0.265415
-0.010027 -0.078996 0.263765
-0.008733 -0.078643 0.262564
-0.007458 -0.078373 0.261638
-0.006230 -0.078581 0.262312
-0.005003 -0.078916 0.263413
-0.003765 -0.079253 0.264520
-0.002511 -0.079409 0.265025
-0.001255 -0.079768 0.266210
0.000012 -0.079775 0.266222
0.001282 -0.079927 0.266718
0.002570 -0.080503 0.268631
0.003850 -0.080523 0.268691
0.005061 -0.079440 0.265072
0.006173 -0.077551 0.258768
0.007407 -0.077575 0.258845
0.008661 -0.077761 0.259464
0.009844 -0.077344 0.258076
0.011065 -0.077290 0.257899
0.012295 -0.077301 0.257939
0.013570 -0.077565 0.258826
0.014766 -0.077372 0.258191
0.016032 -0.077547 0.258783
0.017414 -0.078216 0.261027
0.018846 -0.079006 0.263676
0.020153 -0.079205 0.264353
0.021366 -0.079034 0.263799
0.022618 -0.079018 0.263761
0.023835 -0.078890 0.263352
0.024981 -0.078549 0.262233
0.026167 -0.078360 0.261620
0.027308 -0.078060 0.260641
0.028473 -0.077849 0.259959
0.029674 -0.077754 0.259663
0.030829 -0.077549 0.259003
0.032060 -0.077542 0.259004
0.033362 -0.077702 0.259564
0.034561 -0.077621 0.259318
0.035920 -0.077889 0.260241
0.037476 -0.078555 0.262493
0.039001 -0.079113 0.264387
0.040404 -0.079398 0.265366
0.041814 -0.079678 0.266331
0.043169 -0.079839 0.266899
0.044770 -0.080434 0.268916
0.046394 -0.081034 0.270954
0.047672 -0.081015 0.270919
0.048894 -0.080905 0.270580
0.050287 -0.081075 0.271178
0.051913 -0.081604 0.272976
0.053213 -0.081605 0.273011
0.054745 -0.081955 0.274209
0.055578 -0.081265 0.271928
0.056600 -0.080878 0.270661
0.057766 -0.080709 0.270120
0.058927 -0.080539 0.269577
0.060325 -0.080695 0.270122
0.061859 -0.081022 0.271237
0.063297 -0.081213 0.271898
0.064549 -0.081162 0.271747
0.065790 -0.081099 0.271555
0.067020 -0.081024 0.271322
0.068293 -0.081005 0.271271
0.069324 -0.080703 0.270273
0.070207 -0.080244 0.268746
0.070875 -0.079560 0.266463
0.071864 -0.079254 0.265443
0.072444 -0.078515 0.262972
0.072821 -0.077584 0.259856
0.073785 -0.077300 0.258900
0.074772 -0.077049 0.258057
0.075790 -0.076837 0.257338
0.077087 -0.076910 0.257572
0.078348 -0.076945 0.257676
0.080015 -0.077372 0.259089
0.082039 -0.078126 0.261592
0.083654 -0.078474 0.262733
0.085423 -0.078953 0.264308
0.096523 -0.087919 0.294285
0.097807 -0.087814 0.293892
0.099057 -0.087682 0.293404
0.100423 -0.087655 0.293261
0.101974 -0.087789 0.293651
0.103333 -0.087755 0.293474
0.104622 -0.087663 0.293099
0.106005 -0.087652 0.292989
0.107516 -0.087745 0.293219
0.108993 -0.087809 0.293345
0.110420 -0.087830 0.293323
0.111660 -0.087706 0.292806
0.113093 -0.087733 0.292789
0.114446 -0.087698 0.292557
0.116015 -0.087828 0.292868
0.117427 -0.087836 0.292766
0.118781 -0.087803 0.292515
0.120424 -0.087980 0.292959
0.122046 -0.088139 0.293331
0.123911 -0.088467 0.294258
0.125449 -0.088557 0.294381
0.126771 -0.088495 0.293987
0.128324 -0.088593 0.294117
0.129796 -0.088634 0.294046
0.131176 -0.088611 0.293754
0.132673 -0.088667 0.293711
0.134210 -0.088748 0.293740
0.135712 -0.088805 0.293676
0.137439 -0.089006 0.294075
0.138930 -0.089052 0.293948
0.140405 -0.089086 0.293769
0.142130 -0.089277 0.294094
0.143743 -0.089394 0.294160
0.145470 -0.089579 0.294433
0.147388 -0.089877 0.295059
0.149071 -0.090028 0.295183
0.150754 -0.090175 0.295279
0.152345 -0.090265 0.295168
0.153848 -0.090301 0.294866
0.155478 -0.090411 0.294781
0.156999 -0.090455 0.294466
-0.157250 -0.088005 0.294244
-0.155490 -0.087808 0.293987
-0.153872 -0.087688 0.293970
-0.152934 -0.087957 0.295241
-0.151317 -0.087837 0.295191
-0.149722 -0.087729 0.295162
-0.148080 -0.087590 0.295015
-0.146379 -0.087413 0.294727
-0.144589 -0.087180 0.294230
-0.143329 -0.087264 0.294793
-0.141786 -0.087177 0.294762
-0.139828 -0.086829 0.293839
-0.138939 -0.087146 0.295152
-0.136331 -0.086380 0.292784
-0.132714 -0.084953 0.288155
-0.147739 -0.095553 0.324337
-0.146373 -0.095663 0.324923
-0.145166 -0.095880 0.325865
-0.143794 -0.095993 0.326439
-0.126986 -0.085691 0.291567
-0.125430 -0.085569 0.291303
-0.124259 -0.085709 0.291924
-0.122740 -0.085610 0.291722
-0.121327 -0.085584 0.291759
-0.120109 -0.085697 0.292261
-0.118555 -0.085569 0.291935
-0.117181 -0.085570 0.292041
-0.115984 -0.085702 0.292585
-0.114644 -0.085730 0.292769
-0.113449 -0.085869 0.293322
-0.112115 -0.085904 0.293518
-0.110804 -0.085959 0.293773
-0.109393 -0.085936 0.293755
-0.108070 -0.085983 0.293969
-0.106809 -0.086081 0.294354
-0.105338 -0.086011 0.294156
-0.103883 -0.085952 0.293992
-0.100480 -0.084257 0.288226
-0.110033 -0.093529 0.319974
-0.108667 -0.093649 0.320406
-0.107316 -0.093785 0.320892
-0.105285 -0.093322 0.319321
-0.103539 -0.093103 0.318578
-0.101665 -0.092760 0.317409
-0.100325 -0.092901 0.317892
-0.098362 -0.092461 0.316381
-0.096808 -0.092399 0.316157
-0.095619 -0.092687 0.317130
-0.093147 -0.091722 0.313813
-0.094259 -0.094312 0.322654
-0.089965 -0.094587 0.323510
-0.086635 -0.094277 0.322378
-0.083030 -0.091966 0.314438
-0.081119 -0.091481 0.312739
-0.074315 -0.085358 0.291767
-0.073080 -0.085521 0.292282
-0.071967 -0.085836 0.293314
-0.070528 -0.085767 0.293033
-0.069183 -0.085812 0.293139
-0.067951 -0.086003 0.293740
-0.066544 -0.085975 0.293593
-0.065176 -0.085998 0.293619
-0.063759 -0.085955 0.293420
-0.062325 -0.085887 0.293132
-0.060911 -0.085844 0.292933
-0.059556 -0.085886 0.293018
-0.058111 -0.085795 0.292653
-0.056725 -0.085790 0.292576
-0.055338 -0.085782 0.292492
-0.053957 -0.085785 0.292445
-0.052562 -0.085765 0.292316
-0.051197 -0.085794 0.292358
-0.049825 -0.085813 0.292364
-0.048383 -0.085709 0.291950
-0.047012 -0.085728 0.291957
-0.045603 -0.085676 0.291721
-0.044063 -0.085369 0.290617
-0.042283 -0.084561 0.287812
-0.042149 -0.087103 0.296404
-0.040776 -0.087170 0.296576
-0.039017 -0.086388 0.293857
-0.037792 -0.086772 0.295109
-0.034041 -0.081166 0.275990
-0.032172 -0.079775 0.271213
-0.030331 -0.078343 0.266297
-0.029136 -0.078528 0.266876
-0.027760 -0.078220 0.265784
-0.026370 -0.077842 0.264456
-0.025047 -0.077632 0.263701
-0.023817 -0.077705 0.263906
-0.022335 -0.076917 0.261188
-0.021378 -0.077952 0.264664
-0.020285 -0.078592 0.266797
-0.019364 -0.080026 0.271630
-0.017880 -0.079168 0.268683
-0.016686 -0.079569 0.270006
-0.015460 -0.079869 0.270992
-0.014115 -0.079549 0.269876
-0.012767 -0.079150 0.268493
-0.011393 -0.078485 0.266209
-0.010082 -0.078140 0.265012
-0.008732 -0.077351 0.262311
-0.007467 -0.077187 0.261732
-0.006234 -0.077345 0.262249
-0.005000 -0.077565 0.262977
-0.003775 -0.078135 0.264890
-0.002515 -0.078163 0.264972
-0.001261 -0.078672 0.266682
0.000009 -0.078675 0.266680
0.001277 -0.078549 0.266244
0.002561 -0.079038 0.267891
0.003842 -0.079132 0.268203
0.005035 -0.077837 0.263810
0.006220 -0.076939 0.260762
0.007451 -0.076819 0.260355
0.008671 -0.076638 0.259742
0.009879 -0.076410 0.258970
0.011102 -0.076336 0.258724
0.012345 -0.076397 0.258937
0.013577 -0.076388 0.258912
0.014800 -0.076330 0.258725
0.016098 -0.076640 0.259785
0.017378 -0.076829 0.260435
0.018786 -0.077516 0.262779
0.020165 -0.078006 0.264454
0.021369 -0.077802 0.263780
0.022590 -0.077680 0.263384
0.023863 -0.077739 0.263601
0.024961 -0.077248 0.261956
0.026114 -0.076967 0.261024
0.027248 -0.076658 0.260000
0.028491 -0.076670 0.260063
0.029706 -0.076610 0.259883
0.030891 -0.076477 0.259456
0.032124 -0.076471 0.259461
0.033369 -0.076491 0.259559
0.034705 -0.076711 0.260332
0.036054 -0.076946 0.261157
0.037511 -0.077385 0.262676
0.039041 -0.077942 0.264598
0.040294 -0.077930 0.264585
0.041943 -0.078659 0.267092
0.043499 -0.079176 0.268881
0.045303 -0.080104 0.272061
0.046560 -0.080037 0.271868
0.047740 -0.079847 0.271254
0.048963 -0.079737 0.270913
0.050358 -0.079904 0.271512
0.051986 -0.080425 0.273312
0.053287 -0.080426 0.273346
0.054821 -0.080769 0.274545
0.055654 -0.080089 0.272261
0.056678 -0.079707 0.270992
0.057880 -0.079587 0.270613
0.059469 -0.079994 0.272024
0.060668 -0.079869 0.271627
0.061979 -0.079894 0.271737
0.063354 -0.079999 0.272115
0.064650 -0.080001 0.272146
0.065941 -0.079997 0.272153
0.066927 -0.079631 0.270927
0.068208 -0.079622 0.270913
0.069174 -0.079254 0.269676
0.070227 -0.078996 0.268812
0.070646 -0.078047 0.265593
0.071699 -0.077819 0.264828
0.072393 -0.077216 0.262782
0.072707 -0.076236 0.259450
0.073479 -0.075759 0.257829
0.074529 -0.075581 0.257220
0.075690 -0.075519 0.257004
0.077030 -0.075636 0.257394
0.078457 -0.075832 0.258050
0.080586 -0.076690 0.260955
0.082786 -0.077589 0.263996
0.084061 -0.077606 0.264035
0.086589 -0.078763 0.267943
0.097040 -0.086989 0.295894
0.098329 -0.086884 0.295498
0.098969 -0.086216 0.293186
0.100457 -0.086295 0.293407
0.101980 -0.086402 0.293718
0.103191 -0.086245 0.293123
0.104666 -0.086310 0.293281
0.106048 -0.086297 0.293169
0.107459 -0.086308 0.293129
0.108927 -0.086364 0.293237
0.110358 -0.086390 0.293235
