ply
format ascii 1.0
element vertex 1680
property float x
property float y
property float z
end_header
0.073539 -0.119825 0.297021
0.074842 -0.119648 0.296519
0.076342 -0.119788 0.296798
0.077771 -0.119811 0.296787
0.079127 -0.119723 0.296495
0.080604 -0.119819 0.296653
0.081989 -0.119777 0.296468
0.083460 -0.119860 0.296585
0.084842 -0.119814 0.296380
0.086319 -0.119901 0.296498
0.087856 -0.120068 0.296809
0.089300 -0.120104 0.296791
0.090878 -0.120316 0.297203
0.092354 -0.120389 0.297266
0.093842 -0.120475 0.297353
0.095315 -0.120538 0.297380
0.096742 -0.120543 0.297256
0.098119 -0.120487 0.296974
0.099594 -0.120550 0.296981
0.101085 -0.120631 0.297023
0.102466 -0.120581 0.296736
0.104096 -0.120819 0.297152
0.105729 -0.121056 0.297554
0.107201 -0.121104 0.297484
0.108637 -0.121110 0.297303
0.110295 -0.121360 0.297713
0.111732 -0.121363 0.297507
0.113168 -0.121367 0.297292
0.114760 -0.121534 0.297469
0.116283 -0.121625 0.297448
0.117846 -0.121755 0.297512
0.119391 -0.121864 0.297515
0.120964 -0.121997 0.297565
0.122592 -0.122183 0.297731
0.124029 -0.122176 0.297415
0.125551 -0.122252 0.297288
0.127186 -0.122435 0.297407
0.128757 -0.122553 0.297355
0.130228 -0.122574 0.297053
0.131852 -0.122737 0.297081
0.133401 -0.122827 0.296918
0.135021 -0.122980 0.296889
0.136742 -0.123220 0.297054
0.138228 -0.123245 0.296684
0.139721 -0.123276 0.296310
0.141256 -0.123343 0.296005
0.142775 -0.123395 0.295644
0.144251 -0.123408 0.295171
0.145715 -0.123411 0.294653
0.147296 -0.123513 0.294349
0.148970 -0.123689 0.294200
0.150634 -0.123852 0.293997
0.152603 -0.124262 0.294350
0.154261 -0.124413 0.294064
0.155821 -0.124481 0.293556
0.157596 -0.124719 0.293418
0.159248 -0.124856 0.293013
0.160489 -0.124671 0.291822
-0.155008 -0.123188 0.298874
-0.153274 -0.122966 0.298877
-0.152283 -0.123341 0.300312
-0.150311 -0.122921 0.299791
-0.148633 -0.122737 0.299822
-0.147121 -0.122687 0.300164
-0.145373 -0.122438 0.299999
-0.143429 -0.122018 0.299394
-0.141719 -0.121790 0.299243
-0.140096 -0.121633 0.299249
-0.138229 -0.121259 0.298704
-0.136625 -0.121110 0.298697
-0.135028 -0.120963 0.298683
-0.133407 -0.120794 0.298595
-0.131610 -0.120459 0.298085
-0.129938 -0.120232 0.297828
-0.128474 -0.120196 0.298029
-0.126551 -0.119724 0.297138
-0.124951 -0.119551 0.296975
-0.123500 -0.119519 0.297150
-0.121984 -0.119422 0.297153
-0.120420 -0.119274 0.297020
-0.118945 -0.119214 0.297092
-0.117480 -0.119162 0.297177
-0.115982 -0.119075 0.297163
-0.114455 -0.118956 0.297063
-0.112929 -0.118834 0.296945
-0.111370 -0.118676 0.296726
-0.109729 -0.118424 0.296265
-0.108040 -0.118113 0.295647
-0.106713 -0.118197 0.296008
-0.105242 -0.118119 0.295958
-0.103707 -0.117968 0.295717
-0.102352 -0.118020 0.295978
-0.100840 -0.117890 0.295777
-0.099608 -0.118087 0.296389
-0.098100 -0.117960 0.296181
-0.096482 -0.117695 0.295620
-0.095317 -0.117982 0.296441
-0.093690 -0.117698 0.295819
-0.092225 -0.117612 0.295691
-0.090837 -0.117622 0.295800
-0.089332 -0.117481 0.295521
-0.087925 -0.117464 0.295551
-0.086506 -0.117432 0.295537
-0.085152 -0.117489 0.295744
-0.083613 -0.117287 0.295294
-0.082208 -0.117270 0.295305
-0.080957 -0.117476 0.295875
-0.079361 -0.117180 0.295176
-0.077994 -0.117218 0.295314
-0.076747 -0.117442 0.295917
-0.075250 -0.117283 0.295552
-0.073876 -0.117315 0.295663
-0.072476 -0.117305 0.295667
-0.071024 -0.117209 0.295451
-0.069657 -0.117254 0.295585
-0.068134 -0.117031 0.295045
-0.066747 -0.117037 0.295078
-0.065358 -0.117041 0.295102
-0.063911 -0.116939 0.294857
-0.062594 -0.117076 0.295212
-0.061225 -0.117119 0.295328
-0.059850 -0.117154 0.295420
-0.058458 -0.117156 0.295431
-0.057003 -0.117028 0.295108
-0.055617 -0.117040 0.295139
-0.054163 -0.116907 0.294802
-0.052760 -0.116879 0.294728
-0.051394 -0.116932 0.294857
-0.050005 -0.116937 0.294863
-0.048632 -0.116979 0.294962
-0.047235 -0.116965 0.294918
-0.045839 -0.116954 0.294882
-0.044431 -0.116909 0.294757
-0.043016 -0.116841 0.294575
-0.041576 -0.116702 0.294211
-0.040189 -0.116706 0.294208
-0.038804 -0.116718 0.294224
-0.037358 -0.116540 0.293761
-0.035966 -0.116520 0.293697
-0.034589 -0.116551 0.293760
-0.033220 -0.116615 0.293905
-0.031822 -0.116580 0.293799
-0.030434 -0.116577 0.293775
-0.029012 -0.116438 0.293411
-0.027639 -0.116493 0.293531
-0.026259 -0.116518 0.293577
-0.024843 -0.116384 0.293223
-0.023471 -0.116450 0.293370
-0.022103 -0.116545 0.293594
-0.020720 -0.116572 0.293646
-0.019333 -0.116573 0.293631
-0.017953 -0.116625 0.293746
-0.016564 -0.116625 0.293730
-0.015162 -0.116518 0.293443
-0.013779 -0.116556 0.293522
-0.012382 -0.116474 0.293300
-0.010989 -0.116407 0.293116
-0.009604 -0.116423 0.293142
-0.008216 -0.116409 0.293091
-0.006831 -0.116431 0.293132
-0.005452 -0.116589 0.293515
-0.004064 -0.116614 0.293566
-0.002678 -0.116736 0.293858
-0.001289 -0.116852 0.294138
0.000103 -0.116903 0.294253
0.001496 -0.116913 0.294267
0.002890 -0.116959 0.294370
0.004284 -0.116971 0.294389
0.005678 -0.116992 0.294431
0.007068 -0.116916 0.294229
0.008464 -0.116962 0.294335
0.009861 -0.116995 0.294408
0.011246 -0.116908 0.294179
0.012642 -0.116935 0.294239
0.014055 -0.117091 0.294622
0.015450 -0.117088 0.294605
0.016838 -0.117040 0.294476
0.018248 -0.117136 0.294709
0.019644 -0.117133 0.294692
0.021034 -0.117100 0.294603
0.022449 -0.117198 0.294840
0.023844 -0.117190 0.294813
0.025238 -0.117178 0.294773
0.026624 -0.117128 0.294641
0.028037 -0.117197 0.294806
0.029437 -0.117208 0.294826
0.030836 -0.117214 0.294832
0.032253 -0.117283 0.294997
0.033634 -0.117224 0.294838
0.035047 -0.117274 0.294956
0.036473 -0.117362 0.295168
0.037885 -0.117401 0.295254
0.039268 -0.117351 0.295117
0.040674 -0.117367 0.295147
0.042083 -0.117395 0.295204
0.043478 -0.117380 0.295154
0.044890 -0.117411 0.295215
0.046334 -0.117521 0.295477
0.047745 -0.117543 0.295516
0.049127 -0.117496 0.295381
0.050574 -0.117601 0.295626
0.051959 -0.117561 0.295504
0.053393 -0.117630 0.295655
0.054724 -0.117475 0.295242
0.056115 -0.117452 0.295158
0.057632 -0.117688 0.295726
0.058957 -0.117530 0.295300
0.060371 -0.117552 0.295322
0.061917 -0.117825 0.295977
0.063340 -0.117856 0.296018
0.064821 -0.117991 0.296319
0.066294 -0.118108 0.296572
0.067753 -0.118193 0.296743
0.069238 -0.118319 0.297014
0.070689 -0.118385 0.297129
0.072045 -0.118290 0.296838
0.073531 -0.118410 0.297085
0.074970 -0.118450 0.297127
0.076366 -0.118422 0.296994
0.077773 -0.118412 0.296902
0.079218 -0.118458 0.296948
0.080690 -0.118543 0.297087
0.082049 -0.118462 0.296805
0.083527 -0.118552 0.296948
0.084964 -0.118580 0.296933
0.086349 -0.118537 0.296734
0.087892 -0.118710 0.297068
0.089367 -0.118785 0.297156
0.090849 -0.118868 0.297256
0.092408 -0.119048 0.297592
0.093846 -0.119068 0.297525
0.095286 -0.119091 0.297456
0.096722 -0.119107 0.297367
0.098150 -0.119113 0.297244
0.099620 -0.119169 0.297240
0.101067 -0.119196 0.297157
0.102553 -0.119268 0.297179
0.104177 -0.119497 0.297583
0.105510 -0.119389 0.297143
0.107194 -0.119676 0.297676
0.108662 -0.119717 0.297589
0.109966 -0.119579 0.297048
0.111655 -0.119858 0.297534
0.113078 -0.119848 0.297293
0.114349 -0.119679 0.296649
0.116122 -0.120032 0.297290
0.117643 -0.120120 0.297261
0.119211 -0.120254 0.297336
0.120872 -0.120475 0.297616
0.122465 -0.120626 0.297710
0.124015 -0.120730 0.297676
0.125627 -0.120892 0.297772
0.127134 -0.120950 0.297600
0.128779 -0.121137 0.297729
0.130391 -0.121288 0.297757
0.131926 -0.121366 0.297590
0.133426 -0.121409 0.297324
0.135093 -0.121602 0.297409
0.136662 -0.121704 0.297254
0.138169 -0.121748 0.296942
0.139697 -0.121810 0.296655
0.141187 -0.121838 0.296268
0.142849 -0.122011 0.296216
0.144341 -0.122037 0.295787
0.145627 -0.121891 0.294921
0.147337 -0.122099 0.294890
0.148945 -0.122218 0.294622
0.150471 -0.122268 0.294166
0.152320 -0.122577 0.294308
0.154235 -0.122933 0.294534
0.155782 -0.122991 0.294019
0.157316 -0.123038 0.293451
0.159112 -0.123287 0.293334
0.160711 -0.123380 0.292815
-0.157530 -0.122543 0.300789
-0.154571 -0.121371 0.298462
-0.153159 -0.121403 0.299070
-0.151679 -0.121382 0.299526
-0.150047 -0.121238 0.299659
-0.148243 -0.120950 0.299417
-0.146714 -0.120885 0.299705
-0.145135 -0.120776 0.299868
-0.143246 -0.120404 0.299359
-0.141882 -0.120471 0.299923
-0.140055 -0.120143 0.299489
-0.138111 -0.119706 0.298765
-0.136320 -0.119394 0.298336
-0.134720 -0.119245 0.298300
-0.132794 -0.118801 0.297510
-0.130928 -0.118402 0.296818
-0.129364 -0.118270 0.296782
-0.127718 -0.118059 0.296534
-0.126266 -0.118026 0.296721
-0.124688 -0.117872 0.296594
-0.123141 -0.117746 0.296522
-0.121566 -0.117588 0.296362
-0.120070 -0.117506 0.296380
-0.118561 -0.117407 0.296347
-0.117011 -0.117267 0.296199
-0.115638 -0.117301 0.296482
-0.114170 -0.117240 0.296514
-0.112532 -0.117001 0.296088
-0.111137 -0.117010 0.296282
-0.109665 -0.116939 0.296266
-0.108102 -0.116768 0.295985
-0.106603 -0.116662 0.295862
-0.105149 -0.116603 0.295853
-0.103647 -0.116489 0.295696
-0.102164 -0.116393 0.295576
-0.100614 -0.116217 0.295249
-0.099349 -0.116372 0.295752
-0.097918 -0.116332 0.295758
-0.096263 -0.116022 0.295070
-0.095052 -0.116246 0.295732
-0.093759 -0.116375 0.296148
-0.092135 -0.116091 0.295508
-0.090862 -0.116247 0.295982
-0.089401 -0.116164 0.295843
-0.088042 -0.116213 0.296036
-0.086613 -0.116170 0.295989
-0.085115 -0.116031 0.295696
-0.083650 -0.115934 0.295502
-0.082283 -0.115972 0.295647
-0.080845 -0.115908 0.295531
-0.079394 -0.115825 0.295360
-0.078024 -0.115859 0.295485
-0.076626 -0.115851 0.295500
-0.075340 -0.116017 0.295954
-0.073866 -0.115893 0.295667
-0.072544 -0.116008 0.295986
-0.071082 -0.115899 0.295729
-0.069473 -0.115541 0.294835
-0.068289 -0.115891 0.295743
-0.066621 -0.115417 0.294547
-0.065195 -0.115350 0.294389
-0.063904 -0.115524 0.294841
-0.062483 -0.115467 0.294703
-0.061105 -0.115489 0.294763
-0.059730 -0.115516 0.294833
-0.058398 -0.115631 0.295128
-0.056965 -0.115548 0.294915
-0.055548 -0.115492 0.294769
-0.054157 -0.115490 0.294759
-0.052769 -0.115493 0.294761
-0.051420 -0.115585 0.294989
-0.050010 -0.115544 0.294874
-0.048631 -0.115570 0.294932
-0.047236 -0.115562 0.294900
-0.045813 -0.115480 0.294680
-0.044417 -0.115467 0.294633
-0.042953 -0.115268 0.294110
-0.041586 -0.115325 0.294243
-0.040181 -0.115280 0.294111
-0.038779 -0.115237 0.293986
-0.037446 -0.115407 0.294404
-0.035989 -0.115190 0.293834
-0.034648 -0.115346 0.294213
-0.033263 -0.115358 0.294227
-0.031847 -0.115263 0.293966
-0.030468 -0.115298 0.294037
-0.029054 -0.115195 0.293757
-0.027678 -0.115247 0.293870
-0.026294 -0.115264 0.293895
-0.024883 -0.115159 0.293611
-0.023493 -0.115146 0.293560
-0.022111 -0.115175 0.293614
-0.020733 -0.115227 0.293728
-0.019333 -0.115159 0.293538
-0.017943 -0.115141 0.293474
-0.016559 -0.115168 0.293526
-0.015161 -0.115086 0.293299
-0.013766 -0.115016 0.293103
-0.012382 -0.115037 0.293141
-0.010991 -0.114993 0.293012
-0.009606 -0.114999 0.293013
-0.008226 -0.115093 0.293237
-0.006838 -0.115079 0.293185
-0.005457 -0.115212 0.293512
-0.004072 -0.115320 0.293770
-0.002681 -0.115260 0.293606
-0.001293 -0.115420 0.293999
0.000098 -0.115537 0.294285
0.001490 -0.115470 0.294103
0.002883 -0.115501 0.294171
0.004279 -0.115572 0.294340
0.005671 -0.115539 0.294245
0.007064 -0.115538 0.294232
0.008454 -0.115503 0.294133
0.009845 -0.115476 0.294055
0.011230 -0.115397 0.293843
0.012615 -0.115335 0.293678
0.014011 -0.115378 0.293779
0.015402 -0.115372 0.293757
0.016796 -0.115387 0.293786
0.018188 -0.115389 0.293784
0.019596 -0.115486 0.294023
0.021012 -0.115611 0.294335
0.022405 -0.115603 0.294308
0.023819 -0.115697 0.294541
0.025226 -0.115746 0.294659
0.026628 -0.115772 0.294720
0.028035 -0.115813 0.294817
0.029431 -0.115807 0.294794
0.030843 -0.115861 0.294924
0.032254 -0.115910 0.295042
0.033632 -0.115836 0.294847
0.035058 -0.115930 0.295078
0.036490 -0.116035 0.295339
0.037868 -0.115966 0.295154
0.039272 -0.115977 0.295173
0.040692 -0.116034 0.295309
0.042092 -0.116035 0.295301
0.043500 -0.116055 0.295339
0.044900 -0.116050 0.295316
0.046334 -0.116133 0.295514
0.047733 -0.116127 0.295484
0.049126 -0.116105 0.295413
0.050560 -0.116179 0.295586
0.051959 -0.116171 0.295547
0.053336 -0.116116 0.295388
0.054743 -0.116125 0.295389
0.056107 -0.116046 0.295168
0.057484 -0.115998 0.295021
0.058901 -0.116030 0.295076
0.060366 -0.116152 0.295359
0.061775 -0.116162 0.295355
0.063290 -0.116370 0.295851
0.064812 -0.116579 0.296347
0.066206 -0.116554 0.296247
0.067570 -0.116478 0.296016
0.069192 -0.116841 0.296896
0.070449 -0.116586 0.296202
0.071836 -0.116551 0.296064
0.073426 -0.116840 0.296748
0.074755 -0.116711 0.296366
0.076329 -0.116961 0.296943
0.077712 -0.116916 0.296766
0.079171 -0.116984 0.296874
0.080663 -0.117099 0.297096
0.082061 -0.117075 0.296960
0.083481 -0.117082 0.296899
0.084918 -0.117112 0.296895
0.086348 -0.117131 0.296856
0.087816 -0.117201 0.296942
0.089348 -0.117353 0.297230
0.090856 -0.117469 0.297421
0.092288 -0.117484 0.297351
0.093712 -0.117489 0.297250
0.095149 -0.117509 0.297182
0.096599 -0.117545 0.297148
0.097961 -0.117474 0.296837
0.099390 -0.117484 0.296725
0.100832 -0.117509 0.296644
0.102283 -0.117543 0.296578
0.103901 -0.117766 0.296982
0.105451 -0.117906 0.297169
0.106994 -0.118036 0.297321
0.108514 -0.118137 0.297393
0.110048 -0.118249 0.297484
0.111618 -0.118397 0.297657
0.113043 -0.118390 0.297430
0.114517 -0.118433 0.297321
0.116113 -0.118599 0.297510
0.117665 -0.118717 0.297568
0.119128 -0.118744 0.297386
0.120707 -0.118884 0.297478
0.122322 -0.119055 0.297636
0.123747 -0.119040 0.297316
0.125416 -0.119257 0.297563
0.127117 -0.119500 0.297861
0.128725 -0.119649 0.297913
0.130228 -0.119699 0.297704
0.131743 -0.119759 0.297506
0.133347 -0.119897 0.297487
0.134932 -0.120016 0.297403
0.136445 -0.120068 0.297140
0.138033 -0.120185 0.297021
0.139768 -0.120425 0.297187
0.141354 -0.120534 0.297012
0.142932 -0.120633 0.296793
0.144684 -0.120876 0.296908
0.146274 -0.120980 0.296662
0.147840 -0.121062 0.296340
0.149624 -0.121318 0.296423
0.151085 -0.121310 0.295839
0.152990 -0.121656 0.296090
0.154818 -0.121934 0.296151
0.156125 -0.121800 0.295185
0.157807 -0.121959 0.294903
0.159355 -0.122011 0.294334
0.160833 -0.122009 0.293608
-0.157591 -0.121107 0.301338
-0.154182 -0.119600 0.298125
-0.152417 -0.119353 0.298023
-0.151361 -0.119661 0.299289
-0.149491 -0.119327 0.298927
-0.147658 -0.119015 0.298603
-0.146009 -0.118848 0.298620
-0.144085 -0.118451 0.298042
-0.142392 -0.118238 0.297909
-0.140699 -0.118020 0.297745
-0.139149 -0.117921 0.297864
-0.137586 -0.117807 0.297932
-0.135942 -0.117621 0.297802
-0.134360 -0.117486 0.297786
-0.133029 -0.117570 0.298312
-0.130728 -0.116790 0.296630
-0.129093 -0.116594 0.296418
-0.127605 -0.116527 0.296522
-0.125979 -0.116333 0.296289
-0.124503 -0.116273 0.296387
-0.122913 -0.116105 0.296198
-0.121472 -0.116075 0.296352
-0.119864 -0.115884 0.296082
-0.118381 -0.115810 0.296102
-0.116748 -0.115586 0.295727
-0.115489 -0.115732 0.296292
-0.114056 -0.115705 0.296401
-0.112424 -0.115473 0.295980
-0.111089 -0.115544 0.296326
-0.109714 -0.115575 0.296561
-0.108160 -0.115415 0.296301
-0.106649 -0.115299 0.296143
-0.105204 -0.115251 0.296153
-0.103679 -0.115114 0.295927
-0.102218 -0.115044 0.295867
-0.100761 -0.114978 0.295810
-0.099298 -0.114902 0.295721
-0.097816 -0.114803 0.295567
-0.096430 -0.114815 0.295692
-0.094835 -0.114575 0.295162
-0.093490 -0.114636 0.295401
-0.092109 -0.114652 0.295522
-0.090639 -0.114557 0.295349
-0.089347 -0.114688 0.295753
-0.087926 -0.114653 0.295728
-0.086524 -0.114644 0.295763
-0.085148 -0.114670 0.295884
-0.083640 -0.114516 0.295536
-0.082263 -0.114538 0.295640
-0.080908 -0.114593 0.295823
-0.079472 -0.114534 0.295707
-0.078020 -0.114448 0.295520
-0.076673 -0.114517 0.295730
-0.075294 -0.114541 0.295817
-0.073833 -0.114436 0.295572
-0.072460 -0.114469 0.295677
-0.070972 -0.114316 0.295301
-0.069422 -0.114056 0.294644
-0.067954 -0.113924 0.294316
-0.066622 -0.114018 0.294570
-0.065184 -0.113931 0.294353
-0.063784 -0.113908 0.294297
-0.062425 -0.113961 0.294438
-0.061045 -0.113974 0.294474
-0.059690 -0.114038 0.294638
-0.058266 -0.113970 0.294459
-0.056901 -0.114016 0.294575
-0.055535 -0.114063 0.294691
-0.054178 -0.114130 0.294857
-0.052797 -0.114150 0.294900
-0.051364 -0.114056 0.294647
-0.050035 -0.114196 0.294996
-0.048634 -0.114173 0.294926
-0.047172 -0.114003 0.294472
-0.045779 -0.113992 0.294428
-0.044381 -0.113970 0.294357
-0.042993 -0.113971 0.294343
-0.041531 -0.113772 0.293814
-0.040171 -0.113846 0.293988
-0.038808 -0.113920 0.294160
-0.037405 -0.113873 0.294021
-0.036006 -0.113840 0.293918
-0.034650 -0.113945 0.294170
-0.033254 -0.113920 0.294084
-0.031879 -0.113970 0.294194
-0.030500 -0.114007 0.294269
-0.029073 -0.113864 0.293880
-0.027691 -0.113889 0.293926
-0.026306 -0.113907 0.293951
-0.024903 -0.113841 0.293763
-0.023520 -0.113864 0.293802
-0.022128 -0.113848 0.293741
-0.020726 -0.113770 0.293521
-0.019334 -0.113746 0.293440
-0.017942 -0.113714 0.293339
-0.016547 -0.113662 0.293187
-0.015151 -0.113592 0.292988
-0.013763 -0.113565 0.292901
-0.012379 -0.113583 0.292930
-0.010992 -0.113568 0.292875
-0.009612 -0.113635 0.293030
-0.008234 -0.113747 0.293303
-0.006854 -0.113869 0.293602
-0.005469 -0.113970 0.293847
-0.004079 -0.113986 0.293874
-0.002690 -0.114042 0.294006
-0.001299 -0.114111 0.294170
0.000093 -0.114086 0.294093
0.001485 -0.114070 0.294042
0.002876 -0.114016 0.293891
0.004267 -0.114009 0.293861
0.005657 -0.113969 0.293748
0.007047 -0.113960 0.293713
0.008441 -0.113989 0.293781
0.009830 -0.113963 0.293702
0.011223 -0.113981 0.293742
0.012594 -0.113798 0.293261
0.013992 -0.113869 0.293438
0.015396 -0.113969 0.293688
0.016777 -0.113902 0.293509
0.018180 -0.113978 0.293698
0.019574 -0.113990 0.293723
0.021009 -0.114225 0.294323
0.022397 -0.114190 0.294227
0.023812 -0.114290 0.294479
0.025233 -0.114406 0.294772
0.026617 -0.114346 0.294614
0.028028 -0.114407 0.294766
0.029413 -0.114359 0.294636
0.030815 -0.114380 0.294685
0.032217 -0.114396 0.294720
0.033614 -0.114397 0.294717
0.035027 -0.114446 0.294840
0.036420 -0.114430 0.294792
0.037830 -0.114467 0.294881
0.039203 -0.114394 0.294684
0.040638 -0.114497 0.294943
0.042045 -0.114520 0.294993
0.043418 -0.114452 0.294810
0.044856 -0.114553 0.295061
0.046278 -0.114607 0.295189
0.047660 -0.114562 0.295062
0.049092 -0.114638 0.295245
0.050540 -0.114745 0.295506
0.051919 -0.114693 0.295358
0.053315 -0.114680 0.295308
0.054722 -0.114691 0.295319
0.056109 -0.114661 0.295222
0.057529 -0.114698 0.295296
0.058956 -0.114746 0.295399
0.060357 -0.114743 0.295365
0.061765 -0.114753 0.295366
0.063259 -0.114919 0.295764
0.064737 -0.115049 0.296065
0.066211 -0.115166 0.296334
0.067611 -0.115152 0.296262
0.069111 -0.115305 0.296616
0.070537 -0.115332 0.296646
0.071874 -0.115214 0.296296
0.073354 -0.115326 0.296538
0.074802 -0.115384 0.296636
0.076170 -0.115318 0.296413
0.077654 -0.115428 0.296637
0.079115 -0.115500 0.296762
0.080557 -0.115542 0.296803
0.081976 -0.115550 0.296757
0.083427 -0.115602 0.296816
0.084892 -0.115671 0.296916
0.086327 -0.115698 0.296901
0.087785 -0.115754 0.296959
0.089360 -0.115960 0.297395
0.090884 -0.116095 0.297643
0.092332 -0.116130 0.297631
0.093724 -0.116094 0.297430
0.095195 -0.116154 0.297471
0.096586 -0.116118 0.297260
0.098001 -0.116112 0.297117
0.099390 -0.116074 0.296888
0.100800 -0.116062 0.296719
0.102266 -0.116113 0.296704
0.103718 -0.116147 0.296638
0.105436 -0.116474 0.297314
0.107134 -0.116771 0.297902
0.108727 -0.116947 0.298174
0.110194 -0.116984 0.298084
0.111795 -0.117161 0.298342
0.113265 -0.117197 0.298232
0.114784 -0.117283 0.298239
0.116256 -0.117320 0.298111
0.117651 -0.117278 0.297774
0.119181 -0.117370 0.297766
0.120591 -0.117344 0.297448
0.122269 -0.117575 0.297771
0.123880 -0.117737 0.297908
0.125412 -0.117821 0.297834
0.127138 -0.118084 0.298199
0.128869 -0.118344 0.298544
0.130400 -0.118418 0.298404
0.131839 -0.118407 0.298038
0.133559 -0.118646 0.298286
0.135074 -0.118699 0.298052
0.136616 -0.118775 0.297860
0.138185 -0.118872 0.297705
0.139787 -0.118996 0.297597
0.141350 -0.119083 0.297382
0.142942 -0.119193 0.297206
0.144598 -0.119353 0.297135
0.146086 -0.119373 0.296696
0.147789 -0.119566 0.296666
0.149432 -0.119707 0.296485
0.151113 -0.119876 0.296349
0.153036 -0.120231 0.296650
0.154799 -0.120455 0.296600
0.156499 -0.120626 0.296395
0.157991 -0.120634 0.295763
0.159648 -0.120768 0.295410
0.161287 -0.120885 0.294988
-0.157295 -0.119398 0.301189
-0.153851 -0.117882 0.297885
-0.151674 -0.117317 0.296957
-0.150790 -0.117750 0.298537
-0.149081 -0.117542 0.298471
-0.147074 -0.117093 0.297774
-0.145555 -0.117027 0.298033
-0.143815 -0.116781 0.297815
-0.142030 -0.116493 0.297470
-0.140234 -0.116190 0.297072
-0.138694 -0.116095 0.297190
-0.136887 -0.115773 0.296710
-0.135174 -0.115525 0.296402
-0.133500 -0.115305 0.296153
-0.131931 -0.115172 0.296114
-0.130338 -0.115015 0.296000
-0.128863 -0.114960 0.296136
-0.127266 -0.114794 0.295974
-0.125892 -0.114827 0.296314
-0.124455 -0.114804 0.296497
-0.122921 -0.114690 0.296433
-0.121534 -0.114712 0.296712
-0.120026 -0.114619 0.296684
-0.118498 -0.114505 0.296590
-0.116973 -0.114391 0.296487
-0.115491 -0.114316 0.296478
-0.114043 -0.114275 0.296545
-0.112470 -0.114105 0.296271
-0.110977 -0.114013 0.296190
-0.109489 -0.113924 0.296109
-0.107878 -0.113704 0.295678
-0.106348 -0.113564 0.295449
-0.104988 -0.113605 0.295683
-0.103537 -0.113547 0.295653
-0.102024 -0.113418 0.295432
-0.100577 -0.113361 0.295389
-0.099184 -0.113364 0.295498
-0.097741 -0.113309 0.295451
-0.096326 -0.113286 0.295478
-0.094878 -0.113222 0.295397
-0.093406 -0.113128 0.295230
-0.092120 -0.113259 0.295645
-0.090692 -0.113218 0.295606
-0.089266 -0.113179 0.295566
-0.087908 -0.113225 0.295744
-0.086517 -0.113229 0.295811
-0.085146 -0.113260 0.295941
-0.083733 -0.113236 0.295923
-0.082166 -0.113000 0.295348
-0.080849 -0.113105 0.295661
-0.079531 -0.113212 0.295975
-0.077920 -0.112900 0.295188
-0.076613 -0.113024 0.295540
-0.075241 -0.113055 0.295643
-0.073752 -0.112908 0.295281
-0.072476 -0.113089 0.295770
-0.070852 -0.112723 0.294827
-0.069373 -0.112577 0.294458
-0.067949 -0.112517 0.294310
-0.066621 -0.112616 0.294577
-0.065211 -0.112578 0.294483
-0.063761 -0.112469 0.294200
-0.062429 -0.112567 0.294454
-0.061081 -0.112642 0.294649
-0.059668 -0.112596 0.294526
-0.058293 -0.112620 0.294584
-0.056936 -0.112684 0.294742
-0.055539 -0.112668 0.294693
-0.054179 -0.112730 0.294845
-0.052802 -0.112758 0.294907
-0.051449 -0.112842 0.295112
-0.050052 -0.112830 0.295067
-0.048654 -0.112813 0.295010
-0.047206 -0.112679 0.294643
-0.045871 -0.112816 0.294983
-0.044446 -0.112731 0.294745
-0.043022 -0.112645 0.294500
-0.041752 -0.112967 0.295323
-0.040242 -0.112643 0.294457
-0.038895 -0.112767 0.294762
-0.037597 -0.113047 0.295472
-0.036057 -0.112596 0.294273
-0.034713 -0.112743 0.294636
-0.033336 -0.112790 0.294739
-0.031904 -0.112651 0.294352
-0.030512 -0.112645 0.294315
-0.029103 -0.112570 0.294100
-0.027692 -0.112484 0.293852
-0.026298 -0.112460 0.293769
-0.024897 -0.112400 0.293592
-0.023510 -0.112407 0.293587
-0.022107 -0.112328 0.293361
-0.020708 -0.112261 0.293165
-0.019318 -0.112240 0.293091
-0.017933 -0.112243 0.293079
-0.016552 -0.112275 0.293144
-0.015164 -0.112267 0.293103
-0.013780 -0.112281 0.293122
-0.012400 -0.112340 0.293258
-0.011006 -0.112276 0.293074
-0.009630 -0.112395 0.293368
-0.008247 -0.112470 0.293548
-0.006858 -0.112470 0.293533
-0.005473 -0.112561 0.293754
-0.004084 -0.112588 0.293811
-0.002695 -0.112659 0.293982
-0.001304 -0.112713 0.294109
0.000089 -0.112749 0.294192
0.001482 -0.112788 0.294281
0.002874 -0.112724 0.294102
0.004267 -0.112723 0.294089
0.005658 -0.112693 0.294001
0.007045 -0.112607 0.293767
0.008435 -0.112581 0.293689
0.009824 -0.112559 0.293623
0.011207 -0.112483 0.293419
0.012585 -0.112372 0.293122
0.013972 -0.112361 0.293085
0.015367 -0.112406 0.293197
0.016780 -0.112564 0.293604
0.018177 -0.112601 0.293693
0.019556 -0.112525 0.293491
0.020984 -0.112723 0.294002
0.022393 -0.112803 0.294206
0.023786 -0.112793 0.294178
0.025201 -0.112888 0.294419
0.026613 -0.112957 0.294598
0.028020 -0.112998 0.294699
0.029425 -0.113028 0.294774
0.030844 -0.113105 0.294973
0.032254 -0.113147 0.295078
0.033673 -0.113214 0.295249
0.035072 -0.113209 0.295233
0.036459 -0.113170 0.295126
0.037864 -0.113187 0.295164
0.039264 -0.113186 0.295157
0.040654 -0.113160 0.295084
0.042041 -0.113125 0.294988
0.043458 -0.113171 0.295100
0.044882 -0.113231 0.295249
0.046305 -0.113286 0.295385
0.047722 -0.113323 0.295472
0.049131 -0.113338 0.295502
0.050555 -0.113387 0.295620
0.051925 -0.113316 0.295421
0.053337 -0.113337 0.295463
0.054737 -0.113332 0.295435
0.056102 -0.113257 0.295224
0.057525 -0.113300 0.295317
0.058966 -0.113375 0.295493
0.060398 -0.113430 0.295614
0.061786 -0.113400 0.295514
0.063258 -0.113522 0.295806
0.064656 -0.113511 0.295749
0.066044 -0.113481 0.295641
0.067488 -0.113548 0.295783
0.068958 -0.113654 0.296024
0.070341 -0.113615 0.295886
0.071761 -0.113636 0.295901
0.073282 -0.113814 0.296320
0.074761 -0.113921 0.296551
0.076176 -0.113928 0.296519
0.077641 -0.114008 0.296674
0.079070 -0.114033 0.296681
0.080528 -0.114098 0.296790
0.081965 -0.114132 0.296813
0.083422 -0.114191 0.296897
0.084842 -0.114198 0.296845
0.086283 -0.114235 0.296861
0.087809 -0.114379 0.297153
0.089384 -0.114582 0.297594
0.090898 -0.114702 0.297814
0.092325 -0.114709 0.297734
0.093797 -0.114772 0.297794
0.095174 -0.114719 0.297547
0.096604 -0.114729 0.297459
0.098012 -0.114712 0.297296
0.099388 -0.114661 0.297035
0.100844 -0.114701 0.297005
0.102302 -0.114742 0.296973
0.103775 -0.114799 0.296972
0.105255 -0.114862 0.296981
0.106868 -0.115065 0.297346
0.108401 -0.115179 0.297471
0.109816 -0.115166 0.297258
0.111573 -0.115508 0.297953
0.113136 -0.115641 0.298102
0.114555 -0.115627 0.297861
0.116056 -0.115694 0.297821
0.117639 -0.115840 0.297972
0.118991 -0.115758 0.297528
0.120483 -0.115813 0.297425
0.122078 -0.115964 0.297557
0.123638 -0.116078 0.297584
0.125309 -0.116293 0.297858
0.127194 -0.116700 0.298609
0.128789 -0.116833 0.298647
0.130371 -0.116952 0.298633
0.131960 -0.117075 0.298617
0.133528 -0.117176 0.298532
0.135174 -0.117343 0.298597
0.136715 -0.117416 0.298410
0.138247 -0.117480 0.298182
0.139932 -0.117671 0.298260
0.141483 -0.117746 0.298029
0.142939 -0.117741 0.297576
0.144640 -0.117937 0.297611
0.146156 -0.117978 0.297237
0.147754 -0.118085 0.297009
0.149453 -0.118268 0.296952
0.151145 -0.118444 0.296852
0.152720 -0.118524 0.296492
0.154634 -0.118864 0.296753
0.156510 -0.119167 0.296899
0.157934 -0.119125 0.296156
0.159571 -0.119242 0.295782
0.161681 -0.119707 0.296242
-0.155868 -0.116848 0.298854
-0.153253 -0.115968 0.297112
-0.151561 -0.115775 0.297106
-0.150406 -0.115994 0.298139
-0.148468 -0.115607 0.297594
-0.146722 -0.115364 0.297401
-0.144941 -0.115088 0.297104
-0.143201 -0.114840 0.296860
-0.141554 -0.114662 0.296780
-0.139888 -0.114466 0.296636
-0.138166 -0.114219 0.296346
-0.136647 -0.114137 0.296469
-0.135078 -0.114011 0.296461
-0.133342 -0.113740 0.296065
-0.131900 -0.113717 0.296297
-0.130234 -0.113498 0.296010
-0.128808 -0.113486 0.296247
-0.127372 -0.113465 0.296449
-0.125830 -0.113348 0.296390
-0.124407 -0.113337 0.296598
-0.122909 -0.113257 0.296612
-0.121405 -0.113169 0.296597
-0.119906 -0.113084 0.296579
-0.118386 -0.112978 0.296496
-0.116767 -0.112773 0.296144
-0.115304 -0.112716 0.296171
-0.113904 -0.112719 0.296349
-0.112372 -0.112592 0.296173
-0.110844 -0.112464 0.295989
-0.109424 -0.112444 0.296081
-0.107892 -0.112308 0.295857
-0.106457 -0.112271 0.295889
-0.105057 -0.112269 0.296007
-0.103574 -0.112178 0.295883
-0.102112 -0.112108 0.295806
-0.100713 -0.112106 0.295904
-0.099337 -0.112131 0.296064
-0.097916 -0.112104 0.296085
-0.096432 -0.112003 0.295902
-0.094978 -0.111936 0.295803
-0.093640 -0.112004 0.296057
-0.092203 -0.111955 0.295996
-0.090786 -0.111929 0.295990
-0.089415 -0.111960 0.296132
-0.087955 -0.111878 0.295970
-0.086579 -0.111904 0.296086
-0.085174 -0.111891 0.296099
-0.083737 -0.111836 0.295995
-0.082280 -0.111752 0.295809
-0.080872 -0.111732 0.295790
-0.079484 -0.111741 0.295843
-0.078036 -0.111664 0.295666
-0.076559 -0.111542 0.295365
-0.075183 -0.111564 0.295445
-0.073807 -0.111589 0.295527
-0.072346 -0.111483 0.295262
-0.070926 -0.111437 0.295150
-0.069462 -0.111321 0.294852
-0.068031 -0.111252 0.294675
-0.066631 -0.111233 0.294626
-0.065228 -0.111208 0.294562
-0.063820 -0.111174 0.294472
-0.062421 -0.111153 0.294414
-0.061070 -0.111220 0.294585
-0.059685 -0.111227 0.294598
-0.058311 -0.111254 0.294661
-0.056900 -0.111211 0.294536
-0.055450 -0.111089 0.294201
-0.054145 -0.111257 0.294633
-0.052670 -0.111076 0.294141
-0.051180 -0.110854 0.293536
-0.049825 -0.110919 0.293692
-0.048452 -0.110948 0.293752
-0.047059 -0.110931 0.293688
-0.045704 -0.111005 0.293865
-0.044331 -0.111037 0.293930
-0.042990 -0.111156 0.294225
-0.041575 -0.111086 0.294017
-0.040210 -0.111149 0.294163
-0.038810 -0.111115 0.294052
-0.037376 -0.110980 0.293673
-0.035967 -0.110910 0.293465
-0.034593 -0.110949 0.293545
-0.033188 -0.110886 0.293355
-0.031805 -0.110895 0.293357
-0.030457 -0.111034 0.293702
-0.029072 -0.111045 0.293706
-0.027691 -0.111072 0.293757
-0.026317 -0.111131 0.293890
-0.024924 -0.111111 0.293813
-0.023522 -0.111049 0.293628
-0.022125 -0.111007 0.293495
-0.020725 -0.110941 0.293300
-0.019340 -0.110951 0.293304
-0.017944 -0.110895 0.293136
-0.016570 -0.110974 0.293325
-0.015185 -0.110999 0.293370
-0.013793 -0.110958 0.293243
-0.012415 -0.111049 0.293465
-0.011036 -0.111139 0.293684
-0.009651 -0.111196 0.293817
-0.008264 -0.111250 0.293944
-0.006878 -0.111322 0.294118
-0.005487 -0.111356 0.294193
-0.004095 -0.111384 0.294253
-0.002702 -0.111389 0.294251
-0.001309 -0.111390 0.294241
0.000084 -0.111453 0.294393
0.001477 -0.111367 0.294156
0.002872 -0.111429 0.294307
0.004264 -0.111380 0.294168
0.005661 -0.111459 0.294366
0.007054 -0.111433 0.294288
0.008431 -0.111198 0.293660
0.009829 -0.111279 0.293865
0.011203 -0.111095 0.293372
0.012599 -0.111150 0.293511
0.013996 -0.111195 0.293623
0.015367 -0.111052 0.293241
0.016817 -0.111451 0.294288
0.018210 -0.111437 0.294246
0.019587 -0.111335 0.293973
0.021035 -0.111626 0.294738
0.022421 -0.111573 0.294595
0.023818 -0.111574 0.294595
0.025224 -0.111615 0.294701
0.026612 -0.111575 0.294593
0.028020 -0.111621 0.294711
0.029403 -0.111565 0.294562
0.030837 -0.111702 0.294923
0.032248 -0.111743 0.295028
0.033656 -0.111775 0.295110
0.035095 -0.111900 0.295439
0.036497 -0.111904 0.295446
0.037909 -0.111933 0.295521
0.039331 -0.111991 0.295672
0.040732 -0.111988 0.295660
0.042108 -0.111917 0.295470
0.043563 -0.112053 0.295825
0.044963 -0.112046 0.295799
0.046339 -0.111980 0.295621
0.047729 -0.111951 0.295537
0.049146 -0.111985 0.295619
0.050522 -0.111924 0.295450
0.051891 -0.111854 0.295256
0.053302 -0.111874 0.295299
0.054726 -0.111920 0.295408
0.056066 -0.111795 0.295064
0.057471 -0.111803 0.295071
0.058891 -0.111840 0.295152
0.060352 -0.111951 0.295427
0.061681 -0.111817 0.295052
0.063097 -0.111844 0.295102
0.064573 -0.111973 0.295416
0.066060 -0.112114 0.295764
0.067444 -0.112079 0.295641
0.068853 -0.112087 0.295632
0.070323 -0.112191 0.295871
0.071799 -0.112300 0.296121
0.073228 -0.112333 0.296170
0.074640 -0.112339 0.296142
0.076078 -0.112383 0.296212
0.077550 -0.112474 0.296401
0.078921 -0.112418 0.296203
0.080344 -0.112437 0.296195
0.081833 -0.112547 0.296424
0.083204 -0.112493 0.296217
0.084645 -0.112532 0.296253
0.086063 -0.112542 0.296206
0.087521 -0.112602 0.296286
0.089011 -0.112700 0.296462
0.090510 -0.112808 0.296658
0.092033 -0.112941 0.296915
0.093547 -0.113059 0.297127
0.094971 -0.113066 0.297042
0.096430 -0.113113 0.297057
0.097854 -0.113119 0.296959
0.099305 -0.113156 0.296934
0.100706 -0.113135 0.296751
0.102106 -0.113113 0.296560
0.103633 -0.113231 0.296728
0.105271 -0.113465 0.297194
0.106795 -0.113572 0.297317
0.108270 -0.113625 0.297292
0.109927 -0.113863 0.297744
0.111621 -0.114134 0.298273
0.113168 -0.114250 0.298385
0.114562 -0.114211 0.298086
0.116059 -0.114273 0.298040
0.117579 -0.114356 0.298040
0.118994 -0.114337 0.297764
0.120414 -0.114322 0.297490
0.121915 -0.114383 0.297402
0.123498 -0.114520 0.297499
0.125298 -0.114852 0.298091
0.126911 -0.115006 0.298209
0.128547 -0.115178 0.298360
0.130096 -0.115269 0.298289
0.131772 -0.115469 0.298485
0.133247 -0.115491 0.298206
0.134872 -0.115639 0.298241
0.136599 -0.115872 0.298477
0.138083 -0.115896 0.298159
0.139820 -0.116129 0.298364
0.141472 -0.116287 0.298357
0.143020 -0.116358 0.298108
0.144751 -0.116574 0.298214
0.146370 -0.116697 0.298060
0.148051 -0.116865 0.298005
0.149784 -0.117071 0.298022
0.151466 -0.117234 0.297907
0.153127 -0.117378 0.297721
0.155084 -0.117742 0.298070
0.156648 -0.117805 0.297630
0.158049 -0.117744 0.296853
0.159864 -0.117990 0.296823
0.161745 -0.118280 0.296874
-0.155387 -0.115025 0.298316
-0.153097 -0.114396 0.297180
-0.151289 -0.114117 0.296933
-0.150101 -0.114305 0.297882
-0.148420 -0.114120 0.297837
-0.146507 -0.113749 0.297291
-0.144685 -0.113443 0.296895
-0.143010 -0.113247 0.296769
-0.141090 -0.112853 0.296105
-0.139619 -0.112812 0.296352
-0.137900 -0.112568 0.296053
-0.136257 -0.112383 0.295891
-0.134539 -0.112130 0.295537
-0.133185 -0.112180 0.295967
-0.131345 -0.111817 0.295293
-0.130057 -0.111921 0.295840
-0.128729 -0.111993 0.296292
-0.127149 -0.111845 0.296150
-0.125785 -0.111885 0.296497
-0.124464 -0.111966 0.296939
-0.122994 -0.111912 0.297016
-0.121474 -0.111812 0.296957
-0.119844 -0.111607 0.296611
-0.118301 -0.111479 0.296460
-0.116678 -0.111272 0.296089
-0.115097 -0.111101 0.295804
-0.113763 -0.111167 0.296141
-0.112293 -0.111099 0.296115
-0.110888 -0.111096 0.296252
-0.109527 -0.111138 0.296502
-0.108015 -0.111025 0.296331
-0.106643 -0.111054 0.296534
-0.105198 -0.111009 0.296530
-0.103642 -0.110842 0.296195
-0.102251 -0.110851 0.296323
-0.100844 -0.110842 0.296394
-0.099333 -0.110717 0.296152
-0.098016 -0.110809 0.296483
-0.096472 -0.110642 0.296116
-0.094821 -0.110346 0.295398
-0.093511 -0.110445 0.295731
-0.092020 -0.110329 0.295484
-0.090588 -0.110281 0.295416
-0.089225 -0.110318 0.295568
-0.087874 -0.110371 0.295761
-0.086407 -0.110278 0.295556
-0.085126 -0.110423 0.295986
-0.083726 -0.110416 0.296006
-0.082117 -0.110128 0.295266
-0.080744 -0.110153 0.295363
-0.079377 -0.110188 0.295483
-0.077872 -0.110028 0.295076
-0.076466 -0.110005 0.295032
-0.075078 -0.110008 0.295057
-0.073639 -0.109936 0.294876
-0.072250 -0.109936 0.294887
-0.070860 -0.109934 0.294890
-0.069448 -0.109898 0.294798
-0.067998 -0.109800 0.294538
-0.066642 -0.109852 0.294678
-0.065276 -0.109889 0.294776
-0.063839 -0.109807 0.294552
-0.062436 -0.109781 0.294474
-0.061071 -0.109823 0.294579
-0.059671 -0.109800 0.294508
-0.058257 -0.109753 0.294371
-0.056799 -0.109616 0.293990
-0.055413 -0.109616 0.293977
-0.054000 -0.109563 0.293817
-0.052603 -0.109537 0.293732
-0.051222 -0.109547 0.293742
-0.049830 -0.109533 0.293685
-0.048479 -0.109610 0.293872
-0.047092 -0.109608 0.293844
-0.045730 -0.109667 0.293983
-0.044327 -0.109628 0.293854
-0.042968 -0.109699 0.294023
-0.041627 -0.109821 0.294326
-0.040208 -0.109741 0.294089
-0.038826 -0.109759 0.294112
-0.037453 -0.109805 0.294212
-0.036034 -0.109712 0.293939
-0.034643 -0.109706 0.293897
-0.033244 -0.109669 0.293773
-0.031838 -0.109606 0.293579
-0.030465 -0.109658 0.293694
-0.029082 -0.109673 0.293710
-0.027708 -0.109731 0.293841
-0.026326 -0.109757 0.293887
-0.024936 -0.109755 0.293857
-0.023553 -0.109785 0.293916
-0.022152 -0.109727 0.293737
-0.020760 -0.109711 0.293672
-0.019372 -0.109714 0.293658
-0.017976 -0.109675 0.293531
-0.016596 -0.109727 0.293649
-0.015203 -0.109705 0.293571
-0.013814 -0.109704 0.293547
-0.012428 -0.109726 0.293587
-0.011038 -0.109724 0.293564
-0.009651 -0.109755 0.293628
-0.008261 -0.109757 0.293616
-0.006874 -0.109795 0.293701
-0.005487 -0.109868 0.293880
-0.004094 -0.109836 0.293780
-0.002704 -0.109880 0.293884
-0.001313 -0.109954 0.294068
0.000079 -0.109954 0.294056
0.001473 -0.109994 0.294150
0.002864 -0.109927 0.293960
0.004261 -0.110023 0.294208
0.005652 -0.109972 0.294061
0.007037 -0.109847 0.293718
0.008427 -0.109820 0.293638
0.009814 -0.109776 0.293511
0.011203 -0.109756 0.293453
0.012589 -0.109714 0.293333
0.013986 -0.109761 0.293455
0.015365 -0.109681 0.293235
0.016790 -0.109911 0.293846
0.018202 -0.110025 0.294147
0.019572 -0.109888 0.293778
0.021007 -0.110106 0.294358
0.022419 -0.110188 0.294576
0.023823 -0.110222 0.294666
0.025243 -0.110322 0.294930
0.026627 -0.110261 0.294766
0.028058 -0.110391 0.295114
0.029475 -0.110456 0.295288
0.030857 -0.110391 0.295112
0.032273 -0.110447 0.295262
0.033679 -0.110466 0.295312
0.035077 -0.110457 0.295288
0.036488 -0.110488 0.295371
0.037901 -0.110523 0.295463
0.039310 -0.110545 0.295522
0.040714 -0.110550 0.295535
0.042123 -0.110570 0.295586
0.043525 -0.110569 0.295582
0.044900 -0.110500 0.295393
0.046304 -0.110506 0.295407
0.047697 -0.110487 0.295353
0.049075 -0.110433 0.295203
0.050449 -0.110374 0.295039
0.051829 -0.110331 0.294917
0.053229 -0.110332 0.294911
0.054582 -0.110237 0.294649
0.056084 -0.110442 0.295186
0.057429 -0.110334 0.294885
0.058811 -0.110299 0.294779
0.060320 -0.110501 0.295304
0.061614 -0.110306 0.294766
0.062998 -0.110279 0.294675
0.064455 -0.110377 0.294915
0.065841 -0.110353 0.294827
0.067283 -0.110422 0.294986
0.068890 -0.110751 0.295838
0.070376 -0.110878 0.296146
0.071768 -0.110855 0.296052
0.073272 -0.111001 0.296407
0.074663 -0.110974 0.296295
0.076075 -0.110979 0.296264
0.077504 -0.111008 0.296297
0.078927 -0.111027 0.296300
0.080382 -0.111090 0.296416
0.081821 -0.111129 0.296464
0.083229 -0.111124 0.296391
0.084678 -0.111175 0.296462
0.086085 -0.111168 0.296375
0.087513 -0.111190 0.296359
0.089018 -0.111305 0.296589
0.090509 -0.111402 0.296763
0.092073 -0.111582 0.297155
0.093593 -0.111705 0.297390
0.095069 -0.111771 0.297469
0.096505 -0.111791 0.297417
0.097925 -0.111790 0.297305
0.099400 -0.111852 0.297354
0.100801 -0.111830 0.297172
0.102224 -0.111833 0.297053
0.103837 -0.112040 0.297467
0.105323 -0.112106 0.297499
0.106857 -0.112222 0.297655
0.108322 -0.112262 0.297604
0.109926 -0.112444 0.297922
0.111578 -0.112669 0.298343
0.113233 -0.112891 0.298748
0.114554 -0.112779 0.298260
0.116120 -0.112908 0.298402
0.117523 -0.112877 0.298111
0.118935 -0.112855 0.297832
0.120470 -0.112949 0.297852
0.121945 -0.112986 0.297708
0.123562 -0.113151 0.297892
0.125293 -0.113416 0.298327
0.126730 -0.113411 0.298041
0.128440 -0.113648 0.298377
0.130026 -0.113771 0.298401
0.131393 -0.113702 0.297908
0.133070 -0.113899 0.298099
0.134768 -0.114110 0.298311
0.136352 -0.114221 0.298247
0.138015 -0.114394 0.298330
0.139676 -0.114563 0.298385
0.141302 -0.114700 0.298338
0.143012 -0.114901 0.298442
0.144731 -0.115105 0.298535
0.146384 -0.115253 0.298462
0.148024 -0.115387 0.298335
0.149815 -0.115636 0.298481
0.151465 -0.115772 0.298316
0.153255 -0.116011 0.298392
0.155045 -0.116246 0.298434
0.156769 -0.116426 0.298311
0.158049 -0.116277 0.297320
0.159967 -0.116595 0.297496
0.161464 -0.116603 0.296855
-0.154920 -0.113222 0.297789
-0.152723 -0.112665 0.296810
-0.151016 -0.112463 0.296741
-0.149565 -0.112450 0.297154
-0.148026 -0.112370 0.297370
-0.146190 -0.112060 0.296961
-0.144049 -0.111509 0.295894
-0.142457 -0.111376 0.295916
-0.140887 -0.111258 0.295963
-0.139158 -0.111010 0.295650
-0.137777 -0.111038 0.296055
-0.136050 -0.110786 0.295697
-0.134702 -0.110840 0.296145
-0.133199 -0.110766 0.296239
-0.131551 -0.110569 0.295990
-0.130132 -0.110563 0.296238
-0.128692 -0.110538 0.296426
-0.127118 -0.110396 0.296288
-0.125651 -0.110345 0.296384
-0.124194 -0.110303 0.296491
-0.122676 -0.110204 0.296437
-0.121222 -0.110162 0.296524
-0.119960 -0.110295 0.297075
-0.118330 -0.110089 0.296702
-0.116545 -0.109732 0.295913
-0.115330 -0.109910 0.296559
-0.114020 -0.110001 0.296961
-0.112294 -0.109688 0.296263
-0.110903 -0.109699 0.296432
-0.109454 -0.109651 0.296436
-0.107875 -0.109471 0.296074
-0.106416 -0.109409 0.296025
-0.104982 -0.109372 0.296035
-0.103570 -0.109357 0.296099
-0.102140 -0.109323 0.296107
-0.100689 -0.109265 0.296041
-0.099455 -0.109444 0.296614
-0.098074 -0.109464 0.296747
-0.096454 -0.109215 0.296148
-0.094976 -0.109120 0.295961
-0.093482 -0.109006 0.295715
-0.092032 -0.108940 0.295595
-0.090569 -0.108856 0.295421
-0.089216 -0.108903 0.295599
-0.087806 -0.108883 0.295589
-0.086444 -0.108922 0.295736
-0.085089 -0.108970 0.295906
-0.083670 -0.108939 0.295852
-0.082183 -0.108815 0.295546
-0.080720 -0.108719 0.295311
-0.079365 -0.108769 0.295467
-0.077894 -0.108658 0.295186
-0.076453 -0.108586 0.295005
-0.075083 -0.108614 0.295095
-0.073647 -0.108547 0.294921
-0.072249 -0.108533 0.294891
-0.070862 -0.108538 0.294907
-0.069432 -0.108473 0.294734
-0.068044 -0.108475 0.294736
-0.066627 -0.108429 0.294609
-0.065287 -0.108507 0.294817
-0.063864 -0.108451 0.294655
-0.062461 -0.108425 0.294577
-0.061095 -0.108465 0.294673
-0.059698 -0.108450 0.294620
-0.058268 -0.108373 0.294398
-0.056819 -0.108257 0.294068
-0.055436 -0.108263 0.294067
-0.054038 -0.108240 0.293986
-0.052647 -0.108230 0.293939
-0.051280 -0.108271 0.294028
-0.049923 -0.108337 0.294187
-0.048498 -0.108252 0.293935
-0.047116 -0.108264 0.293945
-0.045733 -0.108273 0.293944
-0.044346 -0.108272 0.293918
-0.042950 -0.108250 0.293834
-0.041541 -0.108195 0.293658
-0.040181 -0.108266 0.293824
-0.038796 -0.108270 0.293811
-0.037406 -0.108264 0.293767
-0.035970 -0.108119 0.293346
-0.034621 -0.108230 0.293623
-0.033262 -0.108322 0.293846
-0.031850 -0.108243 0.293606
-0.030480 -0.108303 0.293741
-0.029112 -0.108378 0.293919
-0.027717 -0.108358 0.293839
-0.026352 -0.108455 0.294078
-0.024972 -0.108499 0.294171
-0.023574 -0.108469 0.294066
-0.022187 -0.108485 0.294085
-0.020795 -0.108481 0.294051
-0.019392 -0.108411 0.293837
-0.018001 -0.108409 0.293809
-0.016605 -0.108368 0.293676
-0.015215 -0.108369 0.293656
-0.013830 -0.108406 0.293737
-0.012449 -0.108483 0.293925
-0.011065 -0.108557 0.294107
-0.009670 -0.108529 0.294013
-0.008278 -0.108527 0.293989
-0.006888 -0.108549 0.294032
-0.005499 -0.108628 0.294229
-0.004105 -0.108597 0.294131
-0.002709 -0.108510 0.293880
-0.001320 -0.108697 0.294372
0.000075 -0.108618 0.294146
0.001469 -0.108647 0.294214
0.002866 -0.108759 0.294504
0.004255 -0.108608 0.294087
0.005654 -0.108707 0.294344
0.007048 -0.108692 0.294297
0.008432 -0.108548 0.293898
0.009830 -0.108606 0.294048
0.011216 -0.108535 0.293850
0.012614 -0.108575 0.293954
0.014011 -0.108600 0.294017
0.015408 -0.108628 0.294087
0.016824 -0.108767 0.294461
0.018222 -0.108774 0.294477
0.019629 -0.108838 0.294648
0.021017 -0.108786 0.294506
0.022405 -0.108748 0.294403
0.023814 -0.108805 0.294556
0.025192 -0.108723 0.294334
0.026580 -0.108691 0.294248
0.028013 -0.108835 0.294640
0.029414 -0.108850 0.294679
0.030812 -0.108851 0.294685
0.032251 -0.108990 0.295063
0.033651 -0.108992 0.295069
0.035077 -0.109073 0.295291
0.036484 -0.109092 0.295342
0.037883 -0.109084 0.295321
0.039312 -0.109164 0.295540
0.040711 -0.109153 0.295512
0.042083 -0.109077 0.295306
0.043503 -0.109123 0.295431
0.044897 -0.109104 0.295379
0.046248 -0.108986 0.295059
0.047694 -0.109091 0.295342
0.049055 -0.109000 0.295093
0.050466 -0.109023 0.295153
0.051836 -0.108958 0.294972
0.053187 -0.108859 0.294698
0.054600 -0.108887 0.294768
0.056082 -0.109049 0.295197
0.057480 -0.109041 0.295167
0.058797 -0.108885 0.294734
0.060264 -0.109008 0.295055
0.061648 -0.108977 0.294959
0.062938 -0.108786 0.294425
0.064381 -0.108861 0.294611
0.065808 -0.108907 0.294716
0.067105 -0.108742 0.294246
0.068591 -0.108881 0.294599
0.070128 -0.109095 0.295149
0.071665 -0.109300 0.295676
0.073064 -0.109291 0.295619
0.074546 -0.109404 0.295890
0.076066 -0.109567 0.296293
0.077500 -0.109603 0.296348
0.078962 -0.109676 0.296500
0.080362 -0.109662 0.296414
0.081809 -0.109711 0.296494
0.083232 -0.109727 0.296481
0.084655 -0.109743 0.296464
0.086098 -0.109783 0.296508
0.087490 -0.109759 0.296374
0.088978 -0.109852 0.296552
0.090565 -0.110064 0.297047
0.092023 -0.110114 0.297100
0.093529 -0.110220 0.297298
0.094952 -0.110225 0.297218
0.096359 -0.110213 0.297086
0.097791 -0.110229 0.297025
0.099262 -0.110287 0.297072
0.100580 -0.110177 0.296657
0.102046 -0.110229 0.296675
0.103660 -0.110438 0.297105
0.105180 -0.110542 0.297249
0.106711 -0.110654 0.297406
0.108118 -0.110636 0.297207
0.109675 -0.110771 0.297408
0.111238 -0.110907 0.297608
0.112964 -0.111201 0.298221
0.114432 -0.111237 0.298131
0.115934 -0.111304 0.298118
0.117384 -0.111321 0.297959
0.118900 -0.111398 0.297954
0.120292 -0.111359 0.297627
0.121830 -0.111454 0.297649
0.123382 -0.111560 0.297688
0.124823 -0.111564 0.297444
0.126551 -0.111821 0.297864
0.128179 -0.111985 0.298024
0.129637 -0.111998 0.297769
0.131427 -0.112295 0.298255
0.132828 -0.112256 0.297834
0.134413 -0.112373 0.297813
0.136127 -0.112592 0.298051
0.137778 -0.112756 0.298124
0.139451 -0.112935 0.298221
0.141046 -0.113047 0.298125
0.142785 -0.113270 0.298305
0.144637 -0.113578 0.298688
0.146156 -0.113621 0.298356
0.147817 -0.113772 0.298290
0.149529 -0.113958 0.298294
0.151161 -0.114081 0.298111
0.152830 -0.114229 0.297973
0.154510 -0.114382 0.297824
0.156273 -0.114593 0.297803
0.157596 -0.114480 0.296915
0.159367 -0.114692 0.296844
0.161225 -0.114961 0.296894
-0.154448 -0.111424 0.297237
-0.152543 -0.111084 0.296803
-0.150583 -0.110697 0.296223
-0.149540 -0.110984 0.297427
-0.147743 -0.110711 0.297115
-0.145858 -0.110367 0.296590
-0.144230 -0.110212 0.296556
-0.142270 -0.109798 0.295810
-0.140642 -0.109634 0.295720
-0.139144 -0.109570 0.295884
-0.137511 -0.109398 0.295739
-0.136011 -0.109328 0.295860
-0.134549 -0.109289 0.296048
-0.133078 -0.109241 0.296201
-0.131558 -0.109151 0.296228
-0.130113 -0.109123 0.296411
-0.128620 -0.109054 0.296469
-0.127118 -0.108974 0.296489
-0.125658 -0.108931 0.296595
-0.124070 -0.108774 0.296382
-0.122561 -0.108684 0.296340
-0.121230 -0.108750 0.296717
-0.119413 -0.108379 0.295889
-0.118057 -0.108421 0.296179
-0.116651 -0.108418 0.296338
-0.115171 -0.108345 0.296299
-0.113785 -0.108361 0.296492
-0.112365 -0.108344 0.296587
-0.110902 -0.108285 0.296560
-0.109374 -0.108159 0.296344
-0.107808 -0.107993 0.296008
-0.106319 -0.107902 0.295870
-0.104948 -0.107929 0.296049
-0.103404 -0.107775 0.295729
-0.102228 -0.108008 0.296460
-0.100712 -0.107882 0.296201
-0.099084 -0.107631 0.295594
-0.098100 -0.108083 0.296912
-0.096182 -0.107504 0.295391
-0.094565 -0.107249 0.294755
-0.093259 -0.107345 0.295078
-0.091790 -0.107253 0.294880
-0.090374 -0.107222 0.294846
-0.089062 -0.107316 0.295147
-0.087666 -0.107308 0.295168
-0.086337 -0.107385 0.295415
-0.084944 -0.107384 0.295445
-0.083566 -0.107400 0.295519
-0.082189 -0.107420 0.295600
-0.080739 -0.107343 0.295408
-0.079345 -0.107339 0.295417
-0.077932 -0.107309 0.295350
-0.076489 -0.107237 0.295163
-0.075065 -0.107188 0.295036
-0.073647 -0.107147 0.294931
-0.072269 -0.107165 0.294981
-0.070842 -0.107108 0.294825
-0.069458 -0.107114 0.294841
-0.068012 -0.107025 0.294593
-0.066619 -0.107017 0.294563
-0.065248 -0.107044 0.294630
-0.063833 -0.106999 0.294495
-0.062417 -0.106950 0.294348
-0.060993 -0.106886 0.294158
-0.059572 -0.106825 0.293975
-0.058137 -0.106733 0.293705
-0.056821 -0.106862 0.294041
-0.055390 -0.106777 0.293787
-0.054012 -0.106792 0.293806
-0.052664 -0.106866 0.293990
-0.051242 -0.106794 0.293767
-0.049847 -0.106773 0.293685
-0.048445 -0.106738 0.293565
-0.047063 -0.106744 0.293557
-0.045707 -0.106812 0.293717
-0.044317 -0.106804 0.293668
-0.042972 -0.106905 0.293920
-0.041582 -0.106900 0.293877
-0.040196 -0.106904 0.293862
-0.038862 -0.107052 0.294241
-0.037456 -0.107003 0.294078
-0.036046 -0.106941 0.293879
-0.034654 -0.106932 0.293825
-0.033269 -0.106941 0.293822
-0.031871 -0.106910 0.293709
-0.030486 -0.106920 0.293710
-0.029111 -0.106970 0.293819
-0.027723 -0.106973 0.293801
-0.026354 -0.107053 0.293993
-0.024960 -0.107036 0.293919
-0.023556 -0.106973 0.293722
-0.022174 -0.107008 0.293790
-0.020772 -0.106945 0.293595
-0.019381 -0.106936 0.293544
-0.018005 -0.107013 0.293732
-0.016616 -0.107016 0.293719
-0.015231 -0.107057 0.293807
-0.013849 -0.107125 0.293973
-0.012458 -0.107127 0.293957
-0.011069 -0.107158 0.294025
-0.009685 -0.107250 0.294256
-0.008282 -0.107123 0.293890
-0.006899 -0.107259 0.294247
-0.005510 -0.107357 0.294500
