ply
format ascii 1.0
element vertex 1681
property float x
property float y
property float z
end_header
-0.063013 -0.057060 0.307711
-0.060101 -0.055717 0.300359
-0.058849 -0.055884 0.301149
-0.057672 -0.056133 0.302378
-0.056168 -0.056068 0.301920
-0.054878 -0.056219 0.302624
-0.053650 -0.056443 0.303723
-0.052192 -0.056432 0.303551
-0.050794 -0.056486 0.303737
-0.049310 -0.056445 0.303409
-0.047892 -0.056479 0.303490
-0.046404 -0.056432 0.303132
-0.044948 -0.056420 0.302966
-0.043392 -0.056278 0.302107
-0.041802 -0.056082 0.300956
-0.040405 -0.056140 0.301170
-0.039007 -0.056199 0.301394
-0.037642 -0.056314 0.301919
-0.036337 -0.056532 0.302995
-0.034906 -0.056563 0.303071
-0.033488 -0.056618 0.303282
-0.032115 -0.056759 0.303955
-0.030707 -0.056848 0.304347
-0.029277 -0.056904 0.304571
-0.027782 -0.056833 0.304115
-0.026476 -0.057161 0.305796
-0.025070 -0.057300 0.306466
-0.023390 -0.056793 0.303687
-0.022028 -0.057040 0.304940
-0.020638 -0.057245 0.305976
-0.019092 -0.057016 0.304694
-0.017623 -0.056997 0.304535
-0.016204 -0.057154 0.305320
-0.014723 -0.057098 0.304975
-0.013286 -0.057223 0.305594
-0.011824 -0.057257 0.305733
-0.010355 -0.057260 0.305711
-0.008885 -0.057263 0.305688
-0.007413 -0.057247 0.305572
-0.005922 -0.057050 0.304493
-0.004399 -0.056307 0.300500
-0.002944 -0.056117 0.299464
-0.001502 -0.056102 0.299364
-0.000061 -0.055998 0.298797
0.001371 -0.055745 0.297437
0.002798 -0.055648 0.296909
0.004186 -0.055113 0.294053
0.005588 -0.054972 0.293296
0.007009 -0.055048 0.293705
0.008357 -0.054614 0.291395
0.009729 -0.054442 0.290487
0.011089 -0.054251 0.289479
0.012472 -0.054205 0.289249
0.013857 -0.054175 0.289106
0.015232 -0.054114 0.288807
0.016631 -0.054144 0.288990
0.018159 -0.054554 0.291204
0.019521 -0.054442 0.290638
0.020897 -0.054383 0.290361
0.022403 -0.054648 0.291811
0.023861 -0.054770 0.292502
0.025275 -0.054783 0.292617
0.026699 -0.054816 0.292838
0.028198 -0.054993 0.293833
0.029600 -0.054971 0.293763
0.030999 -0.054947 0.293693
0.032401 -0.054929 0.293653
0.033737 -0.054806 0.293053
0.035172 -0.054847 0.293331
0.036518 -0.054750 0.292878
0.037765 -0.054518 0.291702
0.038790 -0.053994 0.288965
0.039820 -0.053513 0.286454
0.041365 -0.053732 0.287697
0.042827 -0.053834 0.288316
0.044034 -0.053618 0.287229
0.045447 -0.053658 0.287519
0.046937 -0.053785 0.288273
0.048248 -0.053705 0.287921
0.049695 -0.053775 0.288379
0.051165 -0.053867 0.288949
0.052725 -0.054046 0.289990
0.053989 -0.053921 0.289397
0.055285 -0.053832 0.289004
0.056660 -0.053823 0.289035
0.057804 -0.053600 0.287923
0.059012 -0.053446 0.287174
0.060221 -0.053299 0.286468
0.061318 -0.053061 0.285274
0.062690 -0.053068 0.285389
0.063975 -0.053001 0.285113
0.065131 -0.052833 0.284286
0.066657 -0.052965 0.285079
0.068771 -0.053550 0.288309
0.070046 -0.053472 0.287967
0.071278 -0.053364 0.287466
0.072665 -0.053375 0.287598
0.073915 -0.053285 0.287193
0.075245 -0.053257 0.287115
0.076512 -0.053185 0.286799
0.077452 -0.052892 0.285292
0.079134 -0.053107 0.286522
0.080982 -0.053425 0.288301
0.082287 -0.053379 0.288123
0.083536 -0.053300 0.287757
0.084968 -0.053338 0.288024
0.086297 -0.053311 0.287936
0.087467 -0.053188 0.287328
0.088758 -0.053141 0.287127
0.090149 -0.053155 0.287250
0.091409 -0.053092 0.286959
0.092737 -0.053070 0.286881
0.094061 -0.053047 0.286792
0.095761 -0.053232 0.287833
0.097207 -0.053273 0.288086
0.098867 -0.053430 0.288958
0.099955 -0.053276 0.288153
0.101267 -0.053245 0.288004
0.102650 -0.053251 0.288050
0.103898 -0.053188 0.287719
0.105107 -0.053108 0.287286
0.106299 -0.053020 0.286811
0.107706 -0.053041 0.286917
0.109225 -0.053115 0.287307
0.109987 -0.052824 0.285715
0.111518 -0.052905 0.286130
0.112795 -0.052865 0.285885
0.114054 -0.052818 0.285591
0.115575 -0.052891 0.285946
0.117222 -0.053020 0.286593
0.118672 -0.053058 0.286741
0.120282 -0.053166 0.287258
0.121591 -0.053139 0.287043
0.122923 -0.053124 0.286877
0.124238 -0.053101 0.286667
0.125557 -0.053080 0.286459
0.126919 -0.053078 0.286341
0.128205 -0.053044 0.286045
0.130109 -0.053265 0.287109
0.132021 -0.053483 0.288154
0.133443 -0.053501 0.288106
0.135031 -0.053584 0.288398
0.136384 -0.053574 0.288177
0.137918 -0.053633 0.288321
0.139373 -0.053661 0.288287
0.140542 -0.053580 0.287649
0.141757 -0.053517 0.287103
0.143014 -0.053471 0.286635
0.144921 -0.053668 0.287450
0.147344 -0.054049 0.289241
0.150950 -0.054853 0.293275
0.162775 -0.058601 0.313013
-0.152500 -0.052728 0.291798
-0.150970 -0.052675 0.291755
-0.148987 -0.052463 0.290809
-0.148074 -0.052626 0.291934
-0.146719 -0.052635 0.292188
-0.145232 -0.052595 0.292165
-0.143430 -0.052440 0.291485
-0.141754 -0.052329 0.291036
-0.139859 -0.052133 0.290107
-0.138781 -0.052242 0.290859
-0.137343 -0.052216 0.290853
-0.135915 -0.052193 0.290853
-0.134685 -0.052246 0.291271
-0.133169 -0.052189 0.291059
-0.130950 -0.051851 0.289278
-0.139676 -0.057085 0.318746
-0.137993 -0.057008 0.318389
-0.137094 -0.057257 0.319842
-0.135800 -0.057344 0.320388
-0.134499 -0.057431 0.320920
-0.129722 -0.056661 0.316684
-0.118818 -0.052500 0.293451
-0.113982 -0.050954 0.284823
-0.113402 -0.051296 0.286748
-0.111808 -0.051183 0.286115
-0.110538 -0.051217 0.286302
-0.109273 -0.051254 0.286502
-0.108012 -0.051294 0.286711
-0.106810 -0.051363 0.287079
-0.105483 -0.051374 0.287113
-0.104278 -0.051444 0.287479
-0.103031 -0.051496 0.287733
-0.101741 -0.051528 0.287871
-0.100452 -0.051561 0.288012
-0.099087 -0.051555 0.287932
-0.098055 -0.051725 0.288828
-0.096531 -0.051636 0.288276
-0.095168 -0.051632 0.288196
-0.093815 -0.051634 0.288143
-0.092443 -0.051626 0.288029
-0.091234 -0.051709 0.288422
-0.089699 -0.051607 0.287784
-0.088424 -0.051654 0.287969
-0.087647 -0.051998 0.289807
-0.085343 -0.051433 0.286577
-0.084258 -0.051597 0.287404
-0.083124 -0.051735 0.288085
-0.081607 -0.051635 0.287441
-0.080364 -0.051709 0.287758
-0.079130 -0.051790 0.288118
-0.077739 -0.051770 0.287912
-0.076552 -0.051889 0.288473
-0.075066 -0.051804 0.287905
-0.073565 -0.051707 0.287263
-0.072038 -0.051586 0.286492
-0.070735 -0.051625 0.286607
-0.069417 -0.051655 0.286666
-0.068102 -0.051688 0.286745
-0.066861 -0.051779 0.287147
-0.065597 -0.051856 0.287469
-0.064319 -0.051925 0.287745
-0.063006 -0.051969 0.287879
-0.061703 -0.052023 0.288070
-0.060316 -0.052006 0.287873
-0.059046 -0.052093 0.288247
-0.057694 -0.052110 0.288229
-0.056068 -0.051874 0.286818
-0.054362 -0.051550 0.284925
-0.053088 -0.051630 0.285259
-0.051795 -0.051696 0.285518
-0.050487 -0.051749 0.285708
-0.049298 -0.051931 0.286610
-0.047765 -0.051750 0.285509
-0.046501 -0.051860 0.286013
-0.045120 -0.051841 0.285810
-0.043712 -0.051790 0.285428
-0.042382 -0.051830 0.285554
-0.041024 -0.051838 0.285499
-0.039697 -0.051887 0.285679
-0.038398 -0.051978 0.286086
-0.037077 -0.052044 0.286357
-0.035777 -0.052145 0.286827
-0.034469 -0.052245 0.287286
-0.033106 -0.052264 0.287308
-0.031752 -0.052301 0.287430
-0.030386 -0.052320 0.287454
-0.029008 -0.052319 0.287371
-0.027518 -0.052106 0.286125
-0.026176 -0.052168 0.286392
-0.024808 -0.052180 0.286386
-0.023410 -0.052126 0.286024
-0.022037 -0.052126 0.285958
-0.020706 -0.052234 0.286489
-0.019300 -0.052152 0.285978
-0.017904 -0.052087 0.285569
-0.016520 -0.052051 0.285317
-0.015154 -0.052067 0.285354
-0.013780 -0.052061 0.285277
-0.012425 -0.052131 0.285615
-0.011063 -0.052187 0.285879
-0.009704 -0.052272 0.286307
-0.008332 -0.052305 0.286456
-0.006954 -0.052309 0.286447
-0.005584 -0.052391 0.286866
-0.004205 -0.052414 0.286968
-0.002826 -0.052445 0.287121
-0.001444 -0.052462 0.287195
-0.000061 -0.052473 0.287240
0.001324 -0.052540 0.287596
0.002708 -0.052529 0.287525
0.004093 -0.052535 0.287555
0.005483 -0.052575 0.287776
0.006865 -0.052545 0.287611
0.008258 -0.052598 0.287909
0.009649 -0.052621 0.288042
0.011042 -0.052644 0.288180
0.012445 -0.052707 0.288544
0.013836 -0.052713 0.288593
0.015227 -0.052715 0.288630
0.016602 -0.052667 0.288393
0.017727 -0.051894 0.284186
0.019217 -0.052224 0.286027
0.020716 -0.052534 0.287756
0.022115 -0.052565 0.287967
0.023482 -0.052521 0.287764
0.024852 -0.052488 0.287625
0.026270 -0.052555 0.288041
0.027631 -0.052508 0.287830
0.029025 -0.052523 0.287964
0.030415 -0.052531 0.288065
0.031772 -0.052484 0.287859
0.033155 -0.052480 0.287898
0.034542 -0.052484 0.287982
0.035879 -0.052414 0.287658
0.037219 -0.052353 0.287392
0.038614 -0.052372 0.287560
0.040008 -0.052387 0.287714
0.041359 -0.052348 0.287571
0.042759 -0.052370 0.287764
0.044184 -0.052421 0.288119
0.045540 -0.052390 0.288021
0.047001 -0.052477 0.288579
0.048379 -0.052469 0.288615
0.050129 -0.052854 0.290810
0.051477 -0.052806 0.290626
0.052778 -0.052713 0.290198
0.054120 -0.052666 0.290019
0.055370 -0.052532 0.289368
0.056687 -0.052468 0.289097
0.058012 -0.052413 0.288882
0.059304 -0.052332 0.288518
0.060730 -0.052371 0.288816
0.062347 -0.052568 0.289989
0.063710 -0.052548 0.289962
0.065000 -0.052469 0.289612
0.066508 -0.052566 0.290229
0.067796 -0.052489 0.289887
0.069089 -0.052418 0.289582
0.070496 -0.052435 0.289756
0.071797 -0.052374 0.289499
0.073085 -0.052306 0.289202
0.074469 -0.052307 0.289291
0.075835 -0.052297 0.289312
0.077183 -0.052275 0.289264
0.078442 -0.052194 0.288890
0.080118 -0.052388 0.290038
0.081123 -0.052145 0.288760
0.083132 -0.052544 0.291040
0.084398 -0.052469 0.290688
0.085780 -0.052466 0.290739
0.087152 -0.052458 0.290753
0.088473 -0.052419 0.290598
0.089782 -0.052375 0.290409
0.091162 -0.052373 0.290449
0.092484 -0.052338 0.290304
0.093761 -0.052279 0.290023
0.095252 -0.052340 0.290400
0.096805 -0.052432 0.290950
0.098307 -0.052494 0.291332
0.099650 -0.052471 0.291233
0.100904 -0.052402 0.290877
0.102210 -0.052362 0.290676
0.103611 -0.052371 0.290740
0.105004 -0.052375 0.290777
0.106200 -0.052283 0.290272
0.107772 -0.052376 0.290787
0.109181 -0.052388 0.290850
0.110510 -0.052361 0.290695
0.112013 -0.052417 0.290989
0.113339 -0.052389 0.290814
0.114809 -0.052429 0.291005
0.116142 -0.052405 0.290837
0.117484 -0.052386 0.290691
0.118795 -0.052353 0.290463
0.120161 -0.052346 0.290365
0.121519 -0.052335 0.290241
0.123222 -0.052471 0.290927
0.124568 -0.052453 0.290752
0.125709 -0.052351 0.290099
0.127199 -0.052395 0.290246
0.128864 -0.052509 0.290774
0.129668 -0.052273 0.289359
0.131957 -0.052635 0.291238
0.133130 -0.052549 0.290629
0.135060 -0.052760 0.291654
0.136528 -0.052788 0.291659
0.138204 -0.052895 0.292087
0.139436 -0.052832 0.291566
0.140904 -0.052859 0.291525
0.142267 -0.052846 0.291256
0.143592 -0.052819 0.290901
0.144921 -0.052794 0.290542
0.146414 -0.052829 0.290499
0.148036 -0.052910 0.290693
0.149348 -0.052879 0.290260
0.150183 -0.052681 0.288900
0.151568 -0.052678 0.288593
-0.152583 -0.051365 0.292043
-0.150461 -0.051114 0.290851
-0.149082 -0.051112 0.291070
-0.148013 -0.051218 0.291890
-0.146545 -0.051186 0.291912
-0.145201 -0.051198 0.292169
-0.143875 -0.051216 0.292453
-0.141350 -0.050804 0.290265
-0.139964 -0.050797 0.290382
-0.138444 -0.050741 0.290205
-0.136889 -0.050671 0.289940
-0.135919 -0.050818 0.290907
-0.134360 -0.050746 0.290609
-0.133084 -0.050780 0.290914
-0.131909 -0.050854 0.291435
-0.139371 -0.054870 0.314630
-0.138099 -0.054952 0.315176
-0.137193 -0.055183 0.316569
-0.137179 -0.055782 0.320065
-0.132316 -0.054400 0.312189
-0.129198 -0.053713 0.308289
-0.127947 -0.053795 0.308796
-0.119031 -0.050620 0.290597
-0.116981 -0.050325 0.288920
-0.115847 -0.050421 0.289488
-0.114334 -0.050354 0.289106
-0.113091 -0.050405 0.289398
-0.111706 -0.050393 0.289324
-0.110290 -0.050366 0.289162
-0.108888 -0.050346 0.289027
-0.107470 -0.050317 0.288841
-0.106189 -0.050353 0.289020
-0.104806 -0.050341 0.288918
-0.103548 -0.050390 0.289159
-0.102320 -0.050454 0.289487
-0.100957 -0.050453 0.289436
-0.099688 -0.050499 0.289651
-0.098274 -0.050473 0.289443
-0.096963 -0.050499 0.289536
-0.095661 -0.050531 0.289655
-0.094354 -0.050561 0.289764
-0.093045 -0.050591 0.289865
-0.091649 -0.050574 0.289692
-0.090529 -0.050711 0.290401
-0.089207 -0.050737 0.290475
-0.087810 -0.050721 0.290300
-0.086623 -0.050828 0.290825
-0.085221 -0.050810 0.290635
-0.083964 -0.050879 0.290940
-0.082573 -0.050868 0.290786
-0.081017 -0.050753 0.290034
-0.079794 -0.050847 0.290473
-0.078489 -0.050891 0.290626
-0.077038 -0.050840 0.290235
-0.075727 -0.050882 0.290372
-0.074374 -0.050896 0.290348
-0.072990 -0.050889 0.290205
-0.071534 -0.050831 0.289771
-0.070073 -0.050767 0.289300
-0.068664 -0.050739 0.289030
-0.067302 -0.050745 0.288961
-0.066039 -0.050828 0.289321
-0.064605 -0.050780 0.288938
-0.063258 -0.050800 0.288943
-0.061906 -0.050816 0.288928
-0.060569 -0.050846 0.288988
-0.059223 -0.050871 0.289017
-0.057852 -0.050873 0.288921
-0.056453 -0.050851 0.288691
-0.055021 -0.050798 0.288276
-0.053575 -0.050728 0.287773
-0.052255 -0.050778 0.287949
-0.050963 -0.050858 0.288295
-0.049543 -0.050811 0.287924
-0.048195 -0.050838 0.287973
-0.046863 -0.050883 0.288125
-0.045508 -0.050906 0.288154
-0.044116 -0.050888 0.287947
-0.042767 -0.050919 0.288028
-0.041442 -0.050983 0.288289
-0.040013 -0.050918 0.287827
-0.038684 -0.050981 0.288088
-0.037355 -0.051048 0.288377
-0.035956 -0.051023 0.288141
-0.034577 -0.051023 0.288055
-0.033235 -0.051081 0.288295
-0.031890 -0.051141 0.288546
-0.030511 -0.051147 0.288502
-0.029147 -0.051180 0.288610
-0.027796 -0.051243 0.288884
-0.026420 -0.051261 0.288914
-0.025033 -0.051260 0.288833
-0.023652 -0.051274 0.288843
-0.022256 -0.051252 0.288653
-0.020864 -0.051238 0.288513
-0.019479 -0.051243 0.288481
-0.018094 -0.051247 0.288444
-0.016725 -0.051299 0.288682
-0.015339 -0.051306 0.288673
-0.013960 -0.051339 0.288813
-0.012585 -0.051399 0.289105
-0.011188 -0.051375 0.288924
-0.009807 -0.051423 0.289156
-0.008411 -0.051397 0.288976
-0.007017 -0.051374 0.288819
-0.005632 -0.051420 0.289046
-0.004238 -0.051404 0.288930
-0.002845 -0.051365 0.288693
-0.001455 -0.051390 0.288812
-0.000064 -0.051361 0.288636
0.001327 -0.051351 0.288567
0.002716 -0.051337 0.288483
0.004105 -0.051325 0.288410
0.005495 -0.051331 0.288446
0.006884 -0.051320 0.288386
0.008273 -0.051318 0.288379
0.009663 -0.051316 0.288377
0.011044 -0.051277 0.288173
0.012439 -0.051305 0.288346
0.013830 -0.051308 0.288384
0.015233 -0.051354 0.288665
0.016633 -0.051381 0.288842
0.018032 -0.051402 0.288990
0.019432 -0.051424 0.289144
0.020822 -0.051415 0.289129
0.022201 -0.051384 0.288994
0.023595 -0.051388 0.289060
0.024981 -0.051375 0.289032
0.026356 -0.051343 0.288894
0.027739 -0.051326 0.288853
0.029139 -0.051344 0.289003
0.030532 -0.051347 0.289075
0.031917 -0.051336 0.289075
0.033293 -0.051314 0.289006
0.034663 -0.051283 0.288895
0.036078 -0.051319 0.289163
0.037430 -0.051265 0.288928
0.038754 -0.051180 0.288514
0.040182 -0.051232 0.288877
0.041546 -0.051200 0.288774
0.042927 -0.051193 0.288806
0.044301 -0.051177 0.288790
0.045752 -0.051249 0.289275
0.047244 -0.051361 0.289987
0.048759 -0.051490 0.290798
0.050131 -0.051465 0.290737
0.051516 -0.051455 0.290765
0.052872 -0.051418 0.290637
0.054227 -0.051381 0.290512
0.055534 -0.051301 0.290146
0.056834 -0.051219 0.289770
0.058178 -0.051179 0.289630
0.059413 -0.051049 0.288977
0.060813 -0.051062 0.289137
0.062281 -0.051130 0.289609
0.063724 -0.051175 0.289953
0.065175 -0.051225 0.290324
0.066502 -0.051177 0.290136
0.067940 -0.051215 0.290438
0.069268 -0.051170 0.290267
0.070615 -0.051140 0.290182
0.071870 -0.051047 0.289734
0.073304 -0.051082 0.290015
0.074550 -0.050986 0.289552
0.076119 -0.051111 0.290342
0.077324 -0.050991 0.289739
0.078544 -0.050885 0.289214
0.080211 -0.051068 0.290328
0.081828 -0.051213 0.291226
0.083127 -0.051158 0.290981
0.084326 -0.051043 0.290399
0.085839 -0.051120 0.290899
0.087208 -0.051109 0.290902
0.088506 -0.051058 0.290671
0.089905 -0.051066 0.290776
0.091443 -0.051151 0.291315
0.093113 -0.051307 0.292253
0.094353 -0.051224 0.291831
0.095886 -0.051301 0.292312
0.097199 -0.051259 0.292115
0.098793 -0.051365 0.292754
0.100084 -0.051312 0.292487
0.101348 -0.051247 0.292144
0.102760 -0.051257 0.292228
0.104325 -0.051343 0.292737
0.105554 -0.051263 0.292295
0.106834 -0.051210 0.292003
0.108225 -0.051211 0.292009
0.109416 -0.051118 0.291478
0.110835 -0.051132 0.291554
0.112260 -0.051149 0.291639
0.113586 -0.051121 0.291459
0.115081 -0.051169 0.291706
0.116417 -0.051145 0.291541
0.117777 -0.051133 0.291433
0.118977 -0.051053 0.290929
0.120385 -0.051062 0.290931
0.121764 -0.051059 0.290854
0.121953 -0.050563 0.287960
0.124757 -0.051149 0.291226
0.126172 -0.051160 0.291203
0.127581 -0.051168 0.291158
0.128890 -0.051136 0.290877
0.130355 -0.051166 0.290937
0.132005 -0.051268 0.291394
0.133530 -0.051319 0.291555
0.135133 -0.051398 0.291869
0.136626 -0.051435 0.291927
0.138048 -0.051444 0.291821
0.139485 -0.051459 0.291735
0.140891 -0.051462 0.291569
0.142319 -0.051473 0.291437
0.143620 -0.051438 0.291035
0.144920 -0.051404 0.290623
0.146414 -0.051438 0.290586
0.148025 -0.051513 0.290761
0.149301 -0.051470 0.290262
0.150592 -0.051433 0.289784
0.151628 -0.051311 0.288808
-0.153974 -0.050430 0.294787
-0.151292 -0.050004 0.292536
-0.149101 -0.049734 0.291182
-0.147925 -0.049801 0.291785
-0.146801 -0.049887 0.292489
-0.145255 -0.049830 0.292342
-0.143864 -0.049826 0.292491
-0.142805 -0.049937 0.293310
-0.140678 -0.049673 0.291916
-0.138281 -0.049309 0.289914
-0.137456 -0.049503 0.291188
-0.135751 -0.049381 0.290592
-0.134225 -0.049322 0.290359
-0.132701 -0.049263 0.290112
-0.140086 -0.053095 0.312875
-0.138515 -0.053056 0.312728
-0.138029 -0.053437 0.315045
-0.137276 -0.053721 0.316785
-0.132398 -0.052960 0.312402
-0.121339 -0.049079 0.289550
-0.119825 -0.049016 0.289205
-0.118685 -0.049106 0.289759
-0.117060 -0.048995 0.289123
-0.116092 -0.049160 0.290105
-0.114809 -0.049194 0.290308
-0.113125 -0.049054 0.289484
-0.112184 -0.049238 0.290559
-0.110794 -0.049226 0.290477
-0.109140 -0.049095 0.289686
-0.107952 -0.049174 0.290126
-0.106572 -0.049166 0.290047
-0.105146 -0.049137 0.289839
-0.103832 -0.049159 0.289933
-0.102558 -0.049202 0.290141
-0.101178 -0.049193 0.290043
-0.099859 -0.049216 0.290122
-0.098591 -0.049264 0.290347
-0.097239 -0.049271 0.290327
-0.095950 -0.049310 0.290496
-0.094638 -0.049339 0.290598
-0.093306 -0.049358 0.290637
-0.091712 -0.049238 0.289852
-0.090376 -0.049254 0.289869
-0.089362 -0.049448 0.290931
-0.087834 -0.049360 0.290330
-0.086490 -0.049374 0.290327
-0.085293 -0.049474 0.290825
-0.083944 -0.049488 0.290814
-0.082605 -0.049509 0.290841
-0.081264 -0.049529 0.290860
-0.079875 -0.049520 0.290709
-0.078597 -0.049580 0.290964
-0.077237 -0.049591 0.290921
-0.075747 -0.049516 0.290380
-0.074527 -0.049618 0.290876
-0.073196 -0.049649 0.290950
-0.071698 -0.049567 0.290358
-0.070323 -0.049567 0.290254
-0.069052 -0.049642 0.290583
-0.067486 -0.049505 0.289670
-0.066212 -0.049580 0.289998
-0.065365 -0.049985 0.292253
-0.063355 -0.049498 0.289298
-0.062010 -0.049522 0.289323
-0.060674 -0.049554 0.289401
-0.059348 -0.049595 0.289530
-0.057979 -0.049603 0.289461
-0.056623 -0.049622 0.289461
-0.055307 -0.049678 0.289677
-0.053921 -0.049671 0.289530
-0.052510 -0.049642 0.289252
-0.051152 -0.049662 0.289257
-0.049832 -0.049721 0.289495
-0.048410 -0.049680 0.289147
-0.047041 -0.049691 0.289107
-0.045647 -0.049677 0.288922
-0.044298 -0.049712 0.289022
-0.042944 -0.049743 0.289102
-0.041523 -0.049697 0.288733
-0.040149 -0.049705 0.288685
-0.038800 -0.049747 0.288832
-0.037438 -0.049774 0.288895
-0.036081 -0.049811 0.289014
-0.034714 -0.049836 0.289072
-0.033333 -0.049842 0.289018
-0.031980 -0.049892 0.289225
-0.030608 -0.049917 0.289281
-0.029202 -0.049885 0.289015
-0.027835 -0.049920 0.289145
-0.026452 -0.049930 0.289126
-0.025051 -0.049904 0.288904
-0.023697 -0.049974 0.289239
-0.022319 -0.050001 0.289327
-0.020917 -0.049972 0.289093
-0.019550 -0.050031 0.289373
-0.018162 -0.050041 0.289373
-0.016765 -0.050024 0.289220
-0.015381 -0.050046 0.289296
-0.013983 -0.050027 0.289139
-0.012590 -0.050019 0.289047
-0.011194 -0.049997 0.288875
-0.009800 -0.049981 0.288744
-0.008415 -0.050015 0.288907
-0.007013 -0.049936 0.288418
-0.005627 -0.049966 0.288565
-0.004242 -0.050024 0.288877
-0.002847 -0.049984 0.288619
-0.001458 -0.050038 0.288918
-0.000066 -0.050040 0.288911
0.001327 -0.050057 0.289000
0.002720 -0.050062 0.289019
0.004114 -0.050068 0.289054
0.005509 -0.050080 0.289123
0.006901 -0.050071 0.289069
0.008291 -0.050048 0.288947
0.009681 -0.050036 0.288883
0.011075 -0.050039 0.288916
0.012466 -0.050032 0.288893
0.013863 -0.050046 0.288993
0.015279 -0.050121 0.289449
0.016687 -0.050160 0.289701
0.018117 -0.050254 0.290274
0.019481 -0.050161 0.289771
0.020891 -0.050194 0.289998
0.022295 -0.050209 0.290122
0.023661 -0.050140 0.289768
0.025046 -0.050117 0.289682
0.026417 -0.050071 0.289463
0.027817 -0.050081 0.289571
0.029246 -0.050140 0.289965
0.030643 -0.050142 0.290031
0.032006 -0.050090 0.289789
0.033426 -0.050127 0.290066
0.034793 -0.050085 0.289885
0.036175 -0.050066 0.289844
0.037510 -0.049987 0.289453
0.038868 -0.049943 0.289267
0.040291 -0.049983 0.289571
0.041606 -0.049890 0.289106
0.043026 -0.049924 0.289381
0.044463 -0.049976 0.289758
0.045896 -0.050021 0.290098
0.047377 -0.050113 0.290714
0.048773 -0.050113 0.290796
0.050151 -0.050094 0.290771
0.051549 -0.050096 0.290868
0.052927 -0.050079 0.290854
0.054281 -0.050041 0.290719
0.055630 -0.050001 0.290571
0.056975 -0.049958 0.290411
0.058344 -0.049938 0.290381
0.059744 -0.049945 0.290511
0.061150 -0.049956 0.290665
0.062854 -0.050206 0.292206
0.063984 -0.049995 0.291068
0.065565 -0.050139 0.291994
0.066962 -0.050138 0.292080
0.068258 -0.050064 0.291734
0.069548 -0.049988 0.291380
0.070995 -0.050025 0.291683
0.072319 -0.049977 0.291486
0.073569 -0.049880 0.291005
0.075091 -0.049967 0.291600
0.076429 -0.049931 0.291471
0.077729 -0.049872 0.291207
0.079115 -0.049870 0.291271
0.080511 -0.049873 0.291368
0.081825 -0.049826 0.291169
0.083234 -0.049838 0.291310
0.084616 -0.049833 0.291356
0.086014 -0.049839 0.291454
0.087335 -0.049799 0.291289
0.088628 -0.049746 0.291040
0.090023 -0.049750 0.291126
0.091392 -0.049740 0.291124
0.092733 -0.049715 0.291034
0.094369 -0.049847 0.291855
0.095820 -0.049879 0.292088
0.097154 -0.049849 0.291958
0.098620 -0.049888 0.292222
0.100103 -0.049934 0.292526
0.101335 -0.049854 0.292093
0.102713 -0.049848 0.292084
0.104192 -0.049891 0.292355
0.105533 -0.049867 0.292232
0.106841 -0.049828 0.292017
0.108134 -0.049783 0.291761
0.109561 -0.049801 0.291866
0.110852 -0.049757 0.291604
0.112326 -0.049795 0.291816
0.113680 -0.049779 0.291709
0.114967 -0.049735 0.291429
0.116476 -0.049787 0.291705
0.117948 -0.049822 0.291875
0.119266 -0.049793 0.291657
0.120759 -0.049835 0.291856
0.122125 -0.049825 0.291743
0.123657 -0.049882 0.292011
0.124790 -0.049779 0.291335
0.126272 -0.049816 0.291469
0.127578 -0.049783 0.291189
0.129012 -0.049800 0.291191
0.130475 -0.049828 0.291248
0.132149 -0.049935 0.291760
0.134362 -0.050242 0.293423
0.135389 -0.050103 0.292475
0.136959 -0.050166 0.292697
0.138527 -0.050227 0.292894
0.139772 -0.050170 0.292399
0.141237 -0.050193 0.292352
0.142586 -0.050175 0.292056
0.143906 -0.050147 0.291689
0.145292 -0.050142 0.291445
0.146682 -0.050139 0.291199
0.148089 -0.050141 0.290972
0.149551 -0.050162 0.290839
0.150903 -0.050146 0.290476
0.152110 -0.050082 0.289825
-0.152730 -0.048631 0.292484
-0.150877 -0.048479 0.291809
-0.149297 -0.048414 0.291636
-0.148227 -0.048514 0.292450
-0.146624 -0.048440 0.292200
-0.145245 -0.048440 0.292381
-0.143906 -0.048453 0.292634
-0.142500 -0.048443 0.292738
-0.141112 -0.048440 0.292868
-0.138750 -0.048099 0.290946
-0.137263 -0.048057 0.290823
-0.135429 -0.047892 0.289945
-0.134454 -0.048031 0.290892
-0.133282 -0.048101 0.291419
-0.140164 -0.051646 0.313082
-0.139858 -0.052080 0.315790
-0.138162 -0.051999 0.315374
-0.134450 -0.051151 0.310288
-0.133197 -0.051229 0.310815
-0.120788 -0.046971 0.285022
-0.120793 -0.047498 0.288259
-0.120312 -0.047845 0.290391
-0.118954 -0.047847 0.290425
-0.117388 -0.047765 0.289938
-0.116313 -0.047882 0.290659
-0.114703 -0.047780 0.290040
-0.113637 -0.047905 0.290792
-0.112068 -0.047817 0.290251
-0.110681 -0.047807 0.290173
-0.109311 -0.047804 0.290132
-0.107854 -0.047762 0.289850
-0.106556 -0.047790 0.289989
-0.105178 -0.047783 0.289910
-0.103860 -0.047803 0.289991
-0.102580 -0.047842 0.290180
-0.101241 -0.047854 0.290200
-0.099936 -0.047882 0.290318
-0.098560 -0.047877 0.290226
-0.097235 -0.047897 0.290286
-0.095914 -0.047919 0.290354
-0.094620 -0.047956 0.290507
-0.093323 -0.047993 0.290652
-0.091734 -0.047878 0.289881
-0.090562 -0.047981 0.290422
-0.089087 -0.047923 0.289991
-0.087785 -0.047959 0.290119
-0.086513 -0.048012 0.290354
-0.085171 -0.048028 0.290357
-0.083870 -0.048068 0.290504
-0.082555 -0.048101 0.290607
-0.081235 -0.048132 0.290696
-0.079907 -0.048160 0.290762
-0.078566 -0.048181 0.290785
-0.077133 -0.048144 0.290463
-0.075755 -0.048142 0.290341
-0.074298 -0.048088 0.289912
-0.072974 -0.048120 0.289998
-0.071632 -0.048141 0.290015
-0.070293 -0.048166 0.290052
-0.068911 -0.048162 0.289915
-0.067604 -0.048210 0.290093
-0.066190 -0.048183 0.289817
-0.064737 -0.048126 0.289361
-0.063402 -0.048155 0.289425
-0.062022 -0.048151 0.289291
-0.060653 -0.048157 0.289210
-0.059356 -0.048221 0.289480
-0.058064 -0.048291 0.289789
-0.056665 -0.048274 0.289576
-0.055347 -0.048328 0.289786
-0.053981 -0.048341 0.289754
-0.052628 -0.048367 0.289796
-0.051296 -0.048414 0.289970
-0.049873 -0.048376 0.289629
-0.048575 -0.048460 0.290024
-0.047169 -0.048438 0.289788
-0.045787 -0.048441 0.289696
-0.044272 -0.048298 0.288739
-0.042968 -0.048384 0.289150
-0.041682 -0.048496 0.289722
-0.040167 -0.048341 0.288694
-0.038836 -0.048405 0.288980
-0.037550 -0.048531 0.289633
-0.036126 -0.048483 0.289252
-0.034740 -0.048482 0.289157
-0.033380 -0.048519 0.289291
-0.032031 -0.048578 0.289554
-0.030653 -0.048596 0.289577
-0.029247 -0.048568 0.289330
-0.027881 -0.048608 0.289486
-0.026509 -0.048641 0.289610
-0.025110 -0.048625 0.289438
-0.023722 -0.048631 0.289406
-0.022328 -0.048625 0.289298
-0.020945 -0.048641 0.289333
-0.019544 -0.048618 0.289131
-0.018163 -0.048645 0.289235
-0.016806 -0.048743 0.289759
-0.015392 -0.048681 0.289340
-0.013988 -0.048644 0.289067
-0.012596 -0.048644 0.289023
-0.011214 -0.048685 0.289226
-0.009812 -0.048639 0.288914
-0.008415 -0.048607 0.288689
-0.007025 -0.048618 0.288719
-0.005632 -0.048598 0.288575
-0.004238 -0.048565 0.288353
-0.002847 -0.048553 0.288259
-0.001458 -0.048576 0.288376
-0.000068 -0.048480 0.287792
0.001322 -0.048564 0.288281
0.002713 -0.048573 0.288328
0.004102 -0.048565 0.288276
0.005498 -0.048610 0.288545
0.006889 -0.048608 0.288536
0.008286 -0.048641 0.288735
0.009682 -0.048659 0.288852
0.011078 -0.048669 0.288927
0.012480 -0.048704 0.289149
0.013886 -0.048741 0.289391
0.015300 -0.048800 0.289767
0.016705 -0.048821 0.289919
0.018119 -0.048864 0.290205
0.019519 -0.048867 0.290252
0.020905 -0.048836 0.290109
0.022304 -0.048835 0.290145
0.023679 -0.048788 0.289905
0.025058 -0.048752 0.289738
0.026424 -0.048695 0.289447
0.027815 -0.048688 0.289458
0.029210 -0.048688 0.289514
0.030547 -0.048598 0.289032
0.031981 -0.048660 0.289465
0.033380 -0.048668 0.289575
0.034691 -0.048551 0.288943
0.036178 -0.048680 0.289779
0.037531 -0.048626 0.289524
0.038869 -0.048556 0.289181
0.040302 -0.048607 0.289555
0.041680 -0.048590 0.289528
0.043039 -0.048552 0.289379
0.044487 -0.048614 0.289828
0.045918 -0.048654 0.290150
0.047433 -0.048778 0.290971
0.048806 -0.048753 0.290905
0.050205 -0.048754 0.290999
0.051605 -0.048757 0.291100
0.052951 -0.048710 0.290906
0.054298 -0.048666 0.290732
0.055676 -0.048651 0.290733
0.057033 -0.048619 0.290628
0.058354 -0.048558 0.290356
0.059773 -0.048580 0.290579
0.061231 -0.048632 0.290977
0.062545 -0.048570 0.290697
0.063898 -0.048540 0.290607
0.065315 -0.048559 0.290813
0.066845 -0.048659 0.291501
0.067928 -0.048436 0.290257
0.069452 -0.048531 0.290914
0.070864 -0.048545 0.291087
0.072150 -0.048474 0.290747
0.073651 -0.048547 0.291273
0.074923 -0.048469 0.290890
0.076376 -0.048510 0.291217
0.077813 -0.048538 0.291470
0.079142 -0.048500 0.291321
0.080488 -0.048472 0.291236
0.081874 -0.048470 0.291298
0.083256 -0.048465 0.291346
0.084645 -0.048465 0.291416
0.085961 -0.048423 0.291236
0.087325 -0.048409 0.291221
0.088617 -0.048357 0.290968
0.089918 -0.048310 0.290751
0.091264 -0.048290 0.290686
0.092591 -0.048259 0.290558
0.093895 -0.048218 0.290364
0.095252 -0.048204 0.290330
0.097040 -0.048407 0.291596
0.098307 -0.048347 0.291275
0.099767 -0.048382 0.291526
0.101332 -0.048467 0.292071
0.102598 -0.048408 0.291744
0.103927 -0.048380 0.291600
0.105312 -0.048379 0.291611
0.106611 -0.048339 0.291384
0.107912 -0.048300 0.291161
0.109222 -0.048267 0.290963
0.110490 -0.048216 0.290654
0.112169 -0.048343 0.291412
0.113764 -0.048431 0.291932
0.115413 -0.048540 0.292570
0.116663 -0.048481 0.292187
0.117905 -0.048420 0.291785
0.119362 -0.048447 0.291909
0.120658 -0.048409 0.291634
0.121793 -0.048308 0.290972
0.123534 -0.048447 0.291749
0.125025 -0.048486 0.291914
0.126225 -0.048413 0.291393
0.127619 -0.048414 0.291317
0.129078 -0.048441 0.291380
0.130377 -0.048406 0.291071
0.131868 -0.048444 0.291184
0.133443 -0.048511 0.291462
0.135313 -0.048683 0.292363
0.136673 -0.048669 0.292140
0.138005 -0.048646 0.291849
0.139538 -0.048694 0.291968
0.140983 -0.048710 0.291891
0.142491 -0.048748 0.291928
0.143858 -0.048737 0.291663
0.145208 -0.048720 0.291353
0.146949 -0.048834 0.291808
0.148338 -0.048829 0.291544
0.149841 -0.048862 0.291488
0.151352 -0.048897 0.291431
0.152127 -0.048695 0.289951
-0.152448 -0.047151 0.292019
-0.150734 -0.047047 0.291605
-0.149159 -0.046985 0.291436
-0.147943 -0.047035 0.291953
-0.146599 -0.047046 0.292213
-0.145108 -0.047009 0.292165
-0.143551 -0.046950 0.291967
-0.142513 -0.047061 0.292817
-0.140796 -0.046948 0.292262
-0.139076 -0.046832 0.291674
-0.136858 -0.046544 0.290008
-0.135381 -0.046505 0.289880
-0.134006 -0.046500 0.289959
-0.130082 -0.045602 0.284454
-0.141361 -0.050071 0.312423
-0.140104 -0.050146 0.312977
-0.138467 -0.050085 0.312675
-0.138240 -0.050539 0.315577
-0.134528 -0.049715 0.310488
-0.124640 -0.046565 0.290865
-0.122719 -0.046355 0.289592
-0.121404 -0.046372 0.289729
-0.119985 -0.046349 0.289611
-0.118988 -0.046491 0.290514
-0.117469 -0.046429 0.290142
-0.116266 -0.046493 0.290544
-0.115075 -0.046562 0.290979
-0.112028 -0.045874 0.286669
-0.112545 -0.046646 0.291482
-0.110852 -0.046510 0.290612
-0.108913 -0.046266 0.289063
-0.107896 -0.046412 0.289950
-0.106590 -0.046437 0.290068
-0.105204 -0.046426 0.289962
-0.103898 -0.046451 0.290077
-0.102599 -0.046480 0.290209
-0.101280 -0.046501 0.290286
-0.099985 -0.046534 0.290432
-0.098742 -0.046592 0.290735
-0.097331 -0.046571 0.290538
-0.096025 -0.046601 0.290656
-0.094750 -0.046647 0.290867
-0.093342 -0.046628 0.290672
-0.091979 -0.046631 0.290614
-0.090609 -0.046631 0.290529
-0.089379 -0.046703 0.290896
-0.087883 -0.046637 0.290396
-0.086566 -0.046666 0.290481
-0.085288 -0.046717 0.290704
-0.083894 -0.046705 0.290533
-0.082633 -0.046767 0.290825
-0.081326 -0.046806 0.290965
-0.079973 -0.046819 0.290943
-0.078722 -0.046893 0.291298
-0.077402 -0.046928 0.291410
-0.075986 -0.046905 0.291161
-0.074610 -0.046907 0.291059
-0.073307 -0.046955 0.291248
-0.071838 -0.046897 0.290779
-0.070440 -0.046884 0.290584
-0.069070 -0.046889 0.290503
-0.067650 -0.046861 0.290212
-0.066373 -0.046932 0.290537
-0.065001 -0.046937 0.290459
-0.063611 -0.046930 0.290298
-0.062251 -0.046944 0.290271
-0.060876 -0.046949 0.290185
-0.059555 -0.046995 0.290356
-0.058147 -0.046974 0.290110
-0.056721 -0.046938 0.289772
-0.055290 -0.046895 0.289390
-0.053960 -0.046938 0.289541
-0.052483 -0.046851 0.288895
-0.051219 -0.046956 0.289433
-0.049911 -0.047025 0.289745
-0.048467 -0.046966 0.289270
-0.047185 -0.047065 0.289773
-0.045828 -0.047093 0.289840
-0.044392 -0.047041 0.289411
-0.043015 -0.047048 0.289351
-0.041677 -0.047100 0.289572
-0.040296 -0.047106 0.289508
-0.038921 -0.047119 0.289488
-0.037571 -0.047165 0.289674
-0.036238 -0.047237 0.290019
-0.034865 -0.047261 0.290075
-0.033413 -0.047175 0.289456
-0.032077 -0.047252 0.289840
-0.030672 -0.047230 0.289620
-0.029227 -0.047143 0.289001
-0.027902 -0.047249 0.289573
-0.026511 -0.047248 0.289491
-0.025103 -0.047217 0.289224
-0.023754 -0.047299 0.289655
-0.022375 -0.047328 0.289763
-0.020962 -0.047282 0.289418
-0.019578 -0.047304 0.289490
-0.018193 -0.047325 0.289555
-0.016793 -0.047308 0.289395
-0.015400 -0.047307 0.289338
-0.014007 -0.047307 0.289291
-0.012621 -0.047336 0.289422
-0.011227 -0.047336 0.289375
-0.009831 -0.047329 0.289291
-0.008438 -0.047333 0.289286
-0.007039 -0.047308 0.289098
-0.005644 -0.047291 0.288965
-0.004250 -0.047290 0.288934
-0.002857 -0.047287 0.288892
-0.001463 -0.047275 0.288804
-0.000070 -0.047291 0.288884
0.001323 -0.047275 0.288775
0.002715 -0.047265 0.288710
0.004108 -0.047263 0.288693
0.005503 -0.047280 0.288795
0.006898 -0.047291 0.288869
0.008290 -0.047282 0.288817
0.009689 -0.047306 0.288975
0.011084 -0.047309 0.289010
0.012477 -0.047304 0.288995
0.013897 -0.047390 0.289543
0.015284 -0.047362 0.289394
0.016737 -0.047521 0.290395
0.018132 -0.047505 0.290326
0.019484 -0.047389 0.289651
0.020906 -0.047445 0.290033
0.022293 -0.047419 0.289917
0.023650 -0.047337 0.289458
0.025047 -0.047338 0.289509
0.026426 -0.047309 0.289380
0.027817 -0.047302 0.289389
0.029188 -0.047263 0.289209
0.030563 -0.047234 0.289087
0.031939 -0.047209 0.288998
0.033325 -0.047199 0.288999
0.034730 -0.047217 0.289176
0.036128 -0.047224 0.289287
0.037530 -0.047235 0.289424
0.038903 -0.047210 0.289345
0.040299 -0.047215 0.289449
0.041703 -0.047227 0.289597
0.043090 -0.047220 0.289636
0.044524 -0.047263 0.289981
0.045933 -0.047279 0.290160
0.047374 -0.047325 0.290525
0.048843 -0.047396 0.291046
0.050252 -0.047406 0.291192
0.051630 -0.047387 0.291163
0.053016 -0.047375 0.291182
0.054375 -0.047342 0.291067
0.055758 -0.047330 0.291082
0.057112 -0.047294 0.290956
0.058446 -0.047244 0.290740
0.059849 -0.047252 0.290875
0.061678 -0.047586 0.293030
0.062926 -0.047469 0.292399
0.063860 -0.047124 0.290368
0.065537 -0.047331 0.291733
0.066741 -0.047194 0.290983
0.067882 -0.047020 0.290000
0.069311 -0.047048 0.290263
0.070894 -0.047177 0.291149
0.072224 -0.047136 0.290988
0.073623 -0.047141 0.291106
0.074960 -0.047107 0.290980
0.076444 -0.047164 0.291420
0.077803 -0.047144 0.291380
0.079044 -0.047054 0.290909
0.080507 -0.047098 0.291259
0.081883 -0.047089 0.291287
0.083296 -0.047102 0.291443
0.084595 -0.047051 0.291201
0.085928 -0.047020 0.291085
0.087287 -0.047004 0.291057
0.088606 -0.046968 0.290898
0.089978 -0.046960 0.290913
0.091333 -0.046944 0.290874
0.092717 -0.046943 0.290926
0.094064 -0.046923 0.290858
0.095493 -0.046944 0.291042
0.096795 -0.046903 0.290836
0.098155 -0.046891 0.290804
0.099880 -0.047052 0.291838
0.100805 -0.046836 0.290536
0.102512 -0.046984 0.291487
0.104062 -0.047058 0.291970
0.105469 -0.047065 0.292039
0.106738 -0.047012 0.291724
0.108042 -0.046975 0.291509
0.109513 -0.047011 0.291737
0.110829 -0.046980 0.291546
0.112401 -0.047058 0.292021
0.113709 -0.047024 0.291800
0.115211 -0.047069 0.292066
0.116686 -0.047104 0.292256
0.117954 -0.047054 0.291920
0.119326 -0.047047 0.291838
0.120795 -0.047078 0.291985
0.122101 -0.047045 0.291730
0.123619 -0.047094 0.291974
0.124890 -0.047049 0.291625
0.126394 -0.047091 0.291814
0.127814 -0.047102 0.291796
0.129174 -0.047090 0.291633
0.130628 -0.047113 0.291671
0.132066 -0.047129 0.291662
0.133497 -0.047143 0.291626
0.135037 -0.047194 0.291814
0.136496 -0.047216 0.291812
0.138106 -0.047290 0.292115
0.139526 -0.047297 0.292003
0.140973 -0.047314 0.291931
0.142467 -0.047346 0.291944
0.143909 -0.047360 0.291834
0.145477 -0.047414 0.291963
0.146766 -0.047378 0.291519
0.148429 -0.047462 0.291801
0.149933 -0.047494 0.291750
0.151331 -0.047492 0.291476
0.152452 -0.047404 0.290659
-0.152289 -0.045714 0.291787
-0.150904 -0.045712 0.292001
-0.149099 -0.045582 0.291382
-0.147851 -0.045621 0.291833
-0.146429 -0.045606 0.291931
-0.145094 -0.045619 0.292192
-0.143428 -0.045527 0.291768
-0.142290 -0.045603 0.292407
-0.141197 -0.045694 0.293139
-0.139079 -0.045453 0.291724
-0.137507 -0.045387 0.291424
-0.135348 -0.045123 0.289846
-0.132945 -0.044773 0.287698
-0.131789 -0.044839 0.288219
-0.142581 -0.049529 0.318540
-0.139332 -0.048913 0.314655
-0.135482 -0.048071 0.309303
-0.126122 -0.045235 0.291106
-0.124408 -0.045109 0.290338
-0.122897 -0.045054 0.290025
-0.121404 -0.045005 0.289739
-0.120311 -0.045105 0.290405
-0.119206 -0.045203 0.291051
-0.117913 -0.045231 0.291242
-0.116643 -0.045269 0.291487
-0.115527 -0.045367 0.292120
-0.114300 -0.045424 0.292478
-0.112044 -0.045069 0.290176
-0.110842 -0.045135 0.290576
-0.109469 -0.045131 0.290528
-0.108013 -0.045093 0.290250
-0.106800 -0.045157 0.290623
-0.105326 -0.045110 0.290282
-0.103945 -0.045103 0.290188
-0.102680 -0.045146 0.290417
-0.101356 -0.045165 0.290480
-0.100005 -0.045171 0.290462
-0.098784 -0.045238 0.290826
-0.097462 -0.045259 0.290898
-0.096019 -0.045224 0.290603
-0.094836 -0.045313 0.291095
-0.093543 -0.045350 0.291258
-0.091922 -0.045228 0.290391
-0.090622 -0.045262 0.290527
-0.089376 -0.045325 0.290842
-0.087887 -0.045264 0.290362
-0.086574 -0.045294 0.290459
-0.085282 -0.045336 0.290632
-0.083938 -0.045351 0.290633
-0.082639 -0.045391 0.290789
-0.081406 -0.045470 0.291191
-0.080054 -0.045484 0.291175
-0.078732 -0.045516 0.291272
-0.077510 -0.045608 0.291753
-0.076146 -0.045618 0.291704
-0.074694 -0.045575 0.291318
-0.073412 -0.045636 0.291595
-0.072025 -0.045632 0.291461
-0.070621 -0.045618 0.291256
-0.069189 -0.045585 0.290928
-0.067888 -0.045638 0.291152
-0.066122 -0.045375 0.289359
-0.064786 -0.045402 0.289414
-0.063585 -0.045527 0.290092
-0.062210 -0.045530 0.289993
-0.060833 -0.045532 0.289890
-0.059571 -0.045622 0.290345
-0.058295 -0.045705 0.290757
-0.056882 -0.045682 0.290498
-0.055549 -0.045725 0.290651
-0.054208 -0.045762 0.290775
-0.052816 -0.045758 0.290633
-0.051420 -0.045749 0.290465
-0.050040 -0.045755 0.290388
-0.048705 -0.045804 0.290586
-0.047230 -0.045720 0.289944
-0.045860 -0.045736 0.289940
-0.044457 -0.045719 0.289720
-0.043095 -0.045744 0.289778
-0.041729 -0.045768 0.289821
-0.040363 -0.045792 0.289874
-0.039002 -0.045823 0.289972
-0.037640 -0.045857 0.290086
-0.036267 -0.045880 0.290136
-0.034898 -0.045909 0.290225
-0.033508 -0.045912 0.290154
-0.032097 -0.045885 0.289890
-0.030710 -0.045892 0.289853
-0.029322 -0.045898 0.289806
-0.027932 -0.045902 0.289749
-0.026550 -0.045920 0.289781
-0.025159 -0.045923 0.289727
-0.023763 -0.045918 0.289625
-0.022406 -0.045992 0.290019
-0.021015 -0.046001 0.290011
-0.019588 -0.045927 0.289483
-0.018179 -0.045888 0.289175
-0.016801 -0.045928 0.289368
-0.015418 -0.045959 0.289511
-0.014009 -0.045915 0.289186
-0.012609 -0.045890 0.288981
-0.011223 -0.045917 0.289104
-0.009823 -0.045889 0.288890
-0.008429 -0.045878 0.288786
-0.007036 -0.045880 0.288762
-0.005645 -0.045895 0.288827
-0.004251 -0.045887 0.288751
-0.002860 -0.045909 0.288870
-0.001466 -0.045907 0.288842
-0.000072 -0.045931 0.288977
0.001323 -0.045945 0.289053
0.002717 -0.045936 0.288989
0.004114 -0.045956 0.289111
0.005513 -0.045988 0.289309
0.006909 -0.045982 0.289277
0.008305 -0.045984 0.289298
0.009716 -0.046050 0.289724
0.011102 -0.046000 0.289423
0.012510 -0.046041 0.289701
0.013933 -0.046123 0.290234
0.015356 -0.046189 0.290677
0.016757 -0.046182 0.290661
0.018146 -0.046146 0.290465
0.019542 -0.046132 0.290416
0.020932 -0.046107 0.290295
0.022325 -0.046092 0.290241
0.023692 -0.046027 0.289875
0.025088 -0.046023 0.289899
0.026471 -0.045996 0.289783
0.027843 -0.045953 0.289565
0.029249 -0.045969 0.289721
0.030608 -0.045912 0.289418
0.031985 -0.045886 0.289317
0.033391 -0.045902 0.289483
0.034733 -0.045832 0.289111
0.036148 -0.045860 0.289355
0.037561 -0.045884 0.289579
0.038998 -0.045934 0.289967
0.040346 -0.045879 0.289693
0.041739 -0.045878 0.289764
0.043205 -0.045953 0.290323
0.044564 -0.045914 0.290159
0.045982 -0.045937 0.290384
0.047426 -0.045983 0.290761
0.048840 -0.045998 0.290940
0.050224 -0.045985 0.290947
0.051613 -0.045977 0.290987
0.053003 -0.045970 0.291030
0.054377 -0.045950 0.290999
0.055782 -0.045956 0.291130
0.057105 -0.045897 0.290845
0.058536 -0.045924 0.291113
0.059914 -0.045910 0.291118
0.061181 -0.045814 0.290599
0.062645 -0.045866 0.291022
0.064018 -0.045850 0.291020
0.065384 -0.045830 0.290987
0.066813 -0.045854 0.291231
0.068118 -0.045794 0.290945
0.069405 -0.045724 0.290593
0.070841 -0.045754 0.290873
0.072377 -0.045846 0.291547
0.073563 -0.045716 0.290811
0.075220 -0.045878 0.291936
0.076536 -0.045831 0.291719
0.077894 -0.045810 0.291672
0.079285 -0.045808 0.291747
0.080610 -0.045769 0.291584
0.082019 -0.045779 0.291726
0.083331 -0.045734 0.291522
0.084704 -0.045724 0.291536
0.086137 -0.045747 0.291753
0.087520 -0.045742 0.291795
0.088806 -0.045688 0.291519
0.090199 -0.045689 0.291594
0.091543 -0.045666 0.291511
0.092871 -0.045636 0.291381
0.094208 -0.045612 0.291279
0.095610 -0.045618 0.291373
0.096975 -0.045607 0.291355
0.098345 -0.045599 0.291347
0.099893 -0.045672 0.291859
0.101288 -0.045675 0.291912
0.102568 -0.045626 0.291634
0.103951 -0.045624 0.291648
0.105377 -0.045640 0.291775
0.106750 -0.045633 0.291751
0.108188 -0.045654 0.291897
0.109755 -0.045728 0.292379
0.111059 -0.045692 0.292152
0.112416 -0.045678 0.292061
0.113774 -0.045665 0.291970
0.115099 -0.045639 0.291791
0.116599 -0.045683 0.292049
0.117981 -0.045680 0.292000
0.119419 -0.045698 0.292081
0.120853 -0.045714 0.292143
0.122195 -0.045696 0.291977
0.123515 -0.045669 0.291753
0.124876 -0.045659 0.291620
0.126186 -0.045630 0.291362
0.128017 -0.045788 0.292291
0.129274 -0.045739 0.291891
0.130748 -0.045768 0.291976
0.132251 -0.045806 0.292111
0.133936 -0.045905 0.292627
0.135537 -0.045974 0.292941
0.136906 -0.045964 0.292738
0.138494 -0.046026 0.292988
0.139845 -0.046010 0.292725
0.141201 -0.045995 0.292462
0.142664 -0.046015 0.292408
0.144135 -0.046037 0.292357
0.145650 -0.046073 0.292380
0.147106 -0.046090 0.292266
0.148603 -0.046119 0.292219
0.150003 -0.046117 0.291965
0.151357 -0.046102 0.291608
0.152814 -0.046118 0.291436
-0.156293 -0.045084 0.296602
-0.151665 -0.044145 0.290661
-0.150136 -0.044099 0.290580
-0.148719 -0.044085 0.290701
-0.147036 -0.043992 0.290284
-0.146040 -0.044104 0.291213
-0.144579 -0.044077 0.291207
-0.143056 -0.044030 0.291061
-0.141732 -0.044045 0.291308
-0.140062 -0.043951 0.290828
-0.138482 -0.043884 0.290514
-0.136663 -0.043738 0.289673
-0.135556 -0.043820 0.290327
-0.132946 -0.043414 0.287732
-0.143136 -0.047711 0.316407
-0.141555 -0.047679 0.316274
-0.137101 -0.046668 0.309639
-0.137591 -0.047337 0.314139
-0.125190 -0.043537 0.288970
-0.123993 -0.043593 0.289383
-0.122480 -0.043538 0.289052
-0.121159 -0.043550 0.289164
-0.119661 -0.043499 0.288844
-0.118258 -0.043482 0.288741
-0.117676 -0.043769 0.290658
-0.116133 -0.043702 0.290211
-0.114394 -0.043558 0.289252
-0.114777 -0.044229 0.293695
-0.112227 -0.043772 0.290644
-0.110716 -0.043714 0.290236
-0.109401 -0.043733 0.290334
-0.108138 -0.043774 0.290572
-0.106722 -0.043753 0.290392
-0.105400 -0.043771 0.290466
-0.104065 -0.043783 0.290502
-0.102757 -0.043807 0.290609
-0.101414 -0.043817 0.290619
-0.100067 -0.043826 0.290614
-0.098790 -0.043866 0.290814
-0.097322 -0.043821 0.290446
-0.095941 -0.043815 0.290333
-0.094632 -0.043842 0.290432
-0.093325 -0.043871 0.290544
-0.091882 -0.043835 0.290224
-0.090543 -0.043849 0.290230
-0.089189 -0.043856 0.290188
-0.087807 -0.043849 0.290049
-0.086528 -0.043895 0.290257
-0.085283 -0.043959 0.290586
-0.083950 -0.043980 0.290619
-0.082692 -0.044041 0.290920
-0.081443 -0.044109 0.291265
-0.080135 -0.044147 0.291411
-0.078808 -0.044176 0.291491
-0.077522 -0.044229 0.291734
-0.075845 -0.044057 0.290487
-0.074552 -0.044106 0.290699
-0.073213 -0.044129 0.290737
-0.071821 -0.044121 0.290566
-0.070548 -0.044186 0.290880
-0.069189 -0.044200 0.290852
-0.067826 -0.044211 0.290812
-0.066572 -0.044295 0.291247
-0.065170 -0.044284 0.291049
-0.063759 -0.044264 0.290803
-0.062422 -0.044297 0.290899
-0.061016 -0.044281 0.290677
-0.059617 -0.044269 0.290482
-0.058271 -0.044298 0.290550
-0.056892 -0.044301 0.290455
-0.055485 -0.044284 0.290223
-0.054072 -0.044260 0.289947
-0.052707 -0.044276 0.289936
-0.051356 -0.044303 0.290002
-0.049958 -0.044292 0.289816
-0.048596 -0.044312 0.289834
-0.047238 -0.044338 0.289892
-0.045905 -0.044389 0.290118
-0.044502 -0.044373 0.289905
-0.043151 -0.044411 0.290044
-0.041803 -0.044455 0.290222
-0.040428 -0.044471 0.290225
-0.039065 -0.044502 0.290325
-0.037666 -0.044493 0.290168
-0.036336 -0.044568 0.290563
-0.034950 -0.044579 0.290539
-0.033444 -0.044431 0.289477
-0.032129 -0.044534 0.290061
-0.030704 -0.044487 0.289666
-0.029304 -0.044474 0.289500
-0.027949 -0.044532 0.289794
-0.026560 -0.044538 0.289755
-0.025175 -0.044554 0.289782
-0.023786 -0.044562 0.289761
-0.022412 -0.044603 0.289957
-0.021016 -0.044602 0.289881
-0.019631 -0.044626 0.289976
-0.018235 -0.044629 0.289932
-0.016840 -0.044633 0.289897
-0.015461 -0.044682 0.290165
-0.014057 -0.044665 0.290000
-0.012658 -0.044661 0.289929
-0.011257 -0.044649 0.289810
-0.009848 -0.044599 0.289440
-0.008450 -0.044586 0.289324
-0.007053 -0.044579 0.289245
-0.005656 -0.044568 0.289141
-0.004262 -0.044578 0.289181
-0.002865 -0.044567 0.289087
-0.001470 -0.044581 0.289163
-0.000074 -0.044583 0.289160
0.001321 -0.044566 0.289040
0.002716 -0.044564 0.289016
0.004109 -0.044530 0.288795
0.005503 -0.044531 0.288797
0.006901 -0.044548 0.288912
0.008291 -0.044524 0.288768
0.009691 -0.044547 0.288928
0.011092 -0.044572 0.289104
0.012480 -0.044542 0.288926
0.013906 -0.044642 0.289595
0.015288 -0.044593 0.289306
0.016663 -0.044533 0.288942
0.018102 -0.044642 0.289684
0.019457 -0.044543 0.289073
0.020880 -0.044602 0.289496
0.022282 -0.044610 0.289593
0.023676 -0.044604 0.289596
0.025078 -0.044610 0.289687
0.026465 -0.044593 0.289626
0.027857 -0.044584 0.289622
0.029257 -0.044589 0.289714
0.030626 -0.044547 0.289497
0.031988 -0.044499 0.289251
0.033398 -0.044520 0.289455
0.034810 -0.044542 0.289660
0.036243 -0.044586 0.290023
0.037689 -0.044645 0.290475
0.039015 -0.044561 0.290006
0.040428 -0.044579 0.290200
0.041816 -0.044569 0.290213
0.043194 -0.044549 0.290165
0.044611 -0.044569 0.290379
0.045999 -0.044560 0.290404
0.047417 -0.044580 0.290621
0.048818 -0.044583 0.290731
0.050167 -0.044540 0.290536
0.051591 -0.044563 0.290780
0.052982 -0.044558 0.290837
0.054325 -0.044514 0.290645
0.055682 -0.044483 0.290534
0.057134 -0.044527 0.290916
0.058533 -0.044529 0.291025
0.059832 -0.044457 0.290651
0.061376 -0.044566 0.291456
0.062700 -0.044513 0.291209
0.064057 -0.044486 0.291126
0.065505 -0.044522 0.291458
0.066955 -0.044558 0.291790
0.068127 -0.044411 0.290920
0.069465 -0.044376 0.290786
0.070999 -0.044465 0.291462
0.072429 -0.044487 0.291697
0.073792 -0.044467 0.291662
0.075147 -0.044443 0.291596
0.076553 -0.044451 0.291734
0.077935 -0.044443 0.291775
0.079279 -0.044415 0.291676
0.080615 -0.044384 0.291556
0.081994 -0.044376 0.291590
0.083335 -0.044349 0.291495
0.084668 -0.044319 0.291371
0.086066 -0.044322 0.291473
0.087388 -0.044288 0.291320
0.088789 -0.044294 0.291429
0.090086 -0.044248 0.291196
0.091411 -0.044217 0.291062
0.092734 -0.044186 0.290920
0.094063 -0.044159 0.290802
0.095467 -0.044168 0.290914
0.096807 -0.044147 0.290829
0.098493 -0.044282 0.291766
0.099781 -0.044237 0.291513
0.101130 -0.044220 0.291441
0.102525 -0.044223 0.291497
0.103809 -0.044179 0.291236
0.105134 -0.044153 0.291092
0.106595 -0.044184 0.291320
0.107935 -0.044165 0.291211
0.109503 -0.044239 0.291705
0.110972 -0.044271 0.291921
0.112091 -0.044164 0.291219
0.113822 -0.044298 0.292097
0.115432 -0.044383 0.292641
0.116906 -0.044414 0.292827
0.118094 -0.044336 0.292291
0.119581 -0.044372 0.292491
0.121067 -0.044406 0.292676
0.122362 -0.044370 0.292395
0.123783 -0.044380 0.292405
0.125317 -0.044430 0.292673
0.126688 -0.044421 0.292547
0.127946 -0.044374 0.292157
0.129247 -0.044343 0.291864
0.130654 -0.044347 0.291800
0.132424 -0.044474 0.292531
0.133869 -0.044490 0.292522
0.135373 -0.044526 0.292630
0.136878 -0.044560 0.292725
0.138259 -0.044554 0.292541
0.139681 -0.044562 0.292433
0.141032 -0.044547 0.292168
0.142520 -0.044574 0.292172
0.144213 -0.044665 0.292578
0.145655 -0.044677 0.292454
0.147139 -0.044702 0.292401
0.148360 -0.044647 0.291812
