ply
format ascii 1.0
element vertex 1744
property float x
property float y
property float z
end_header
-0.043867 0.019925 0.144866
-0.044144 0.020368 0.148038
-0.044627 0.020923 0.152011
-0.044689 0.021294 0.154654
-0.044631 0.021621 0.156965
-0.044589 0.021966 0.159406
-0.044728 0.022414 0.162593
-0.044971 0.022930 0.166272
-0.045088 0.023399 0.169605
-0.045435 0.024008 0.173942
-0.045724 0.024607 0.178208
-0.045464 0.024928 0.180457
-0.045226 0.025273 0.182880
-0.045005 0.025642 0.185470
-0.045049 0.026179 0.189273
-0.045209 0.026808 0.193732
-0.045625 0.027617 0.199495
-0.045483 0.028116 0.203009
-0.045165 0.028525 0.205874
-0.044679 0.028844 0.208086
-0.044359 0.029287 0.211189
-0.043946 0.029687 0.213983
-0.043465 0.030060 0.216577
-0.042941 0.030421 0.219083
-0.042535 0.030885 0.222330
-0.042650 0.031760 0.228534
-0.042432 0.032428 0.233240
-0.041985 0.032952 0.236908
-0.041315 0.033324 0.239487
-0.040737 0.033795 0.242772
-0.040183 0.034313 0.246395
-0.039629 0.034863 0.250245
-0.039234 0.035592 0.255377
-0.038736 0.036271 0.260148
-0.038739 0.037480 0.268717
-0.038998 0.039029 0.279714
-0.036692 0.038029 0.272450
-0.035380 0.038023 0.272309
-0.034105 0.038059 0.272467
-0.030790 0.035730 0.255709
-0.029221 0.035319 0.252681
-0.028558 0.036013 0.257562
-0.027343 0.036044 0.257699
-0.026075 0.036004 0.257339
-0.024853 0.036027 0.257424
-0.023638 0.036063 0.257611
-0.022414 0.036089 0.257724
-0.021155 0.036057 0.257428
-0.019942 0.036106 0.257710
-0.018739 0.036181 0.258184
-0.018191 0.037621 0.268395
-0.016887 0.037598 0.268171
-0.015695 0.037842 0.269856
-0.014377 0.037799 0.269498
-0.012740 0.036823 0.262492
-0.011425 0.036667 0.261338
-0.010131 0.036549 0.260452
-0.008888 0.036609 0.260842
-0.007579 0.036369 0.259103
-0.006344 0.036461 0.259725
-0.005121 0.036685 0.261292
-0.003866 0.036752 0.261749
-0.002611 0.036884 0.262667
-0.001345 0.036990 0.263401
-0.000074 0.037634 0.267977
0.001224 0.037744 0.268745
0.002506 0.037482 0.266877
0.003895 0.038466 0.273879
0.005247 0.038674 0.275359
0.006115 0.035952 0.255987
0.007375 0.036062 0.256772
0.008630 0.036118 0.257187
0.009852 0.036041 0.256647
0.011116 0.036119 0.257227
0.012395 0.036223 0.257983
0.013648 0.036239 0.258126
0.014913 0.036281 0.258450
0.016179 0.036319 0.258749
0.017479 0.036422 0.259520
0.018781 0.036515 0.260221
0.020139 0.036700 0.261577
0.021513 0.036887 0.262959
0.022993 0.037228 0.265437
0.031601 0.036800 0.262788
0.032789 0.036711 0.262218
0.034051 0.036708 0.262269
0.035468 0.036866 0.263471
0.036702 0.036830 0.263288
0.037918 0.036778 0.262992
0.039422 0.037000 0.264660
0.040539 0.036856 0.263711
0.041882 0.036921 0.264258
0.042508 0.036368 0.260380
0.043574 0.036212 0.259351
0.044186 0.035698 0.255754
0.045265 0.035579 0.254984
0.046436 0.035536 0.254765
0.047495 0.035413 0.253966
0.048728 0.035421 0.254117
0.050056 0.035497 0.254750
0.051440 0.035608 0.255634
0.052716 0.035640 0.255957
0.054187 0.035800 0.257194
0.055887 0.036101 0.259449
0.057927 0.036603 0.263152
0.059722 0.036932 0.265612
0.061406 0.037181 0.267493
0.062784 0.037238 0.267999
0.064247 0.037341 0.268840
0.065621 0.037390 0.269285
0.066917 0.037393 0.269403
0.068232 0.037407 0.269595
0.069495 0.037392 0.269578
0.070703 0.037349 0.269359
0.071212 0.036944 0.266528
0.071947 0.036669 0.264629
0.072897 0.036511 0.263574
0.073715 0.036294 0.262088
0.074263 0.035952 0.259705
0.074936 0.035682 0.257829
0.076084 0.035643 0.257622
0.076963 0.035481 0.256524
0.078117 0.035448 0.256361
0.079656 0.035589 0.257450
0.080861 0.035579 0.257442
0.082641 0.035818 0.259235
0.083912 0.035832 0.259403
0.085817 0.036113 0.261494
0.097396 0.040399 0.292589
0.098635 0.040334 0.292183
0.101009 0.040730 0.295105
0.100445 0.039946 0.289476
0.101945 0.039993 0.289863
0.103330 0.039995 0.289914
0.104466 0.039900 0.289269
0.105771 0.039872 0.289099
0.107021 0.039825 0.288782
0.109358 0.040178 0.291364
0.109777 0.039826 0.288829
0.111716 0.040028 0.290303
0.113195 0.040061 0.290553
0.114345 0.039979 0.289957
0.115651 0.039953 0.289761
0.117140 0.039990 0.290014
0.118774 0.040074 0.290609
0.120073 0.040045 0.290371
0.121094 0.039925 0.289470
0.123274 0.040186 0.291317
0.124541 0.040146 0.290981
0.125822 0.040112 0.290676
0.127347 0.040155 0.290925
0.128771 0.040166 0.290930
0.130015 0.040121 0.290524
0.131381 0.040114 0.290384
0.132854 0.040139 0.290470
0.134287 0.040152 0.290457
0.135560 0.040118 0.290088
0.137123 0.040168 0.290328
0.138471 0.040156 0.290100
0.139713 0.040114 0.289644
0.140996 0.040083 0.289265
0.142316 0.040064 0.288955
0.144149 0.040188 0.289667
0.146083 0.040337 0.290547
0.147520 0.040348 0.290417
0.149169 0.040416 0.290683
0.150696 0.040450 0.290690
0.151891 0.040395 0.290044
-0.046286 0.012439 0.087043
-0.045853 0.012433 0.087075
-0.043971 0.015033 0.106164
-0.043542 0.015057 0.106337
-0.043456 0.015202 0.107358
-0.043155 0.015274 0.107862
-0.042442 0.015200 0.107336
-0.042388 0.015364 0.108482
-0.042344 0.015534 0.109678
-0.042127 0.015645 0.110447
-0.042502 0.015982 0.112808
-0.042710 0.016263 0.114775
-0.042334 0.016326 0.115202
-0.041886 0.016363 0.115441
-0.041668 0.016491 0.116326
-0.041285 0.016557 0.116764
-0.040692 0.016540 0.116615
-0.040356 0.016627 0.117205
-0.040511 0.016923 0.119256
-0.041479 0.017570 0.123788
-0.043393 0.018643 0.131310
-0.043483 0.018953 0.133449
-0.043454 0.019218 0.135275
-0.043429 0.019493 0.137170
-0.043295 0.019727 0.138769
-0.043945 0.020330 0.142968
-0.043929 0.020640 0.145096
-0.044008 0.021005 0.147606
-0.044527 0.021595 0.151697
-0.044721 0.022044 0.154796
-0.044571 0.022335 0.156782
-0.044632 0.022744 0.159590
-0.044636 0.023138 0.162289
-0.044677 0.023564 0.165217
-0.044567 0.023926 0.167682
-0.044879 0.024530 0.171849
-0.044817 0.024949 0.174712
-0.045325 0.025707 0.179948
-0.045035 0.026033 0.182150
-0.044906 0.026467 0.185108
-0.044899 0.026991 0.188694
-0.044978 0.027589 0.192791
-0.045289 0.028358 0.198079
-0.045289 0.028960 0.202197
-0.044991 0.029393 0.205138
-0.044492 0.029712 0.207273
-0.044082 0.030106 0.209928
-0.043753 0.030575 0.213110
-0.043280 0.030963 0.215723
-0.042766 0.031340 0.218254
-0.042361 0.031818 0.221489
-0.042476 0.032720 0.227677
-0.042146 0.033319 0.231745
-0.041682 0.033841 0.235277
-0.041248 0.034416 0.239180
-0.040690 0.034919 0.242574
-0.039842 0.035195 0.244394
-0.039669 0.036101 0.250588
-0.039195 0.036782 0.255215
-0.041046 0.039758 0.275758
-0.039766 0.039799 0.275939
-0.038408 0.039762 0.275583
-0.036770 0.039422 0.273128
-0.035380 0.039334 0.272417
-0.034105 0.039370 0.272574
-0.030621 0.036759 0.254407
-0.029326 0.036667 0.253691
-0.028053 0.036596 0.253115
-0.027055 0.036893 0.255090
-0.025809 0.036865 0.254817
-0.024610 0.036905 0.255017
-0.023320 0.036805 0.254255
-0.022155 0.036902 0.254860
-0.020928 0.036900 0.254780
-0.019585 0.036683 0.253217
-0.018343 0.036639 0.252849
-0.018218 0.038977 0.268921
-0.016931 0.038997 0.269003
-0.015587 0.038877 0.268121
-0.014208 0.038642 0.266449
-0.012727 0.038056 0.262361
-0.011442 0.037991 0.261871
-0.010153 0.037896 0.261174
-0.008879 0.037835 0.260717
-0.007583 0.037650 0.259403
-0.006347 0.037746 0.260037
-0.005112 0.037896 0.261046
-0.003883 0.038202 0.263127
-0.002620 0.038311 0.263856
-0.001343 0.038253 0.263438
-0.000072 0.038799 0.267187
0.001227 0.039069 0.269034
0.002489 0.038492 0.265055
0.003899 0.039806 0.274104
0.005243 0.039962 0.275175
0.006132 0.037279 0.256704
0.007356 0.037199 0.256161
0.008625 0.037334 0.257104
0.009857 0.037296 0.256854
0.011092 0.037274 0.256717
0.012352 0.037333 0.257150
0.013637 0.037451 0.257987
0.014929 0.037566 0.258806
0.016194 0.037599 0.259060
0.017642 0.038023 0.262014
0.018831 0.037869 0.260995
0.020114 0.037912 0.261328
0.021819 0.038698 0.266789
0.023469 0.039303 0.271011
0.024907 0.039509 0.272481
0.026114 0.039346 0.271407
0.027381 0.039284 0.271038
0.028669 0.039257 0.270909
0.032250 0.038846 0.268264
0.033389 0.038666 0.267094
0.034647 0.038634 0.266938
0.035880 0.038575 0.266610
0.037104 0.038512 0.266244
0.038142 0.038267 0.264625
0.039540 0.038386 0.265532
0.040443 0.038033 0.263164
0.041670 0.037996 0.262995
0.042805 0.037880 0.262270
0.043324 0.037241 0.257932
0.043945 0.036723 0.254426
0.045219 0.036764 0.254791
0.046377 0.036711 0.254508
0.047447 0.036592 0.253771
0.048720 0.036633 0.254137
0.050011 0.036684 0.254584
0.051356 0.036772 0.255278
0.052695 0.036851 0.255918
0.054052 0.036939 0.256615
0.055660 0.037190 0.258454
0.057553 0.037617 0.261511
0.059773 0.038235 0.265901
0.061376 0.038441 0.267424
0.062778 0.038514 0.268030
0.064268 0.038638 0.268983
0.065679 0.038710 0.269578
0.067002 0.038728 0.269797
0.068519 0.038856 0.270781
0.069749 0.038819 0.270615
0.070827 0.038701 0.269880
0.071359 0.038293 0.267124
0.072032 0.037975 0.264988
0.073030 0.037836 0.264100
0.073947 0.037660 0.262953
0.074577 0.037346 0.260841
0.075301 0.037089 0.259122
0.076280 0.036963 0.258320
0.077306 0.036864 0.257701
0.078473 0.036835 0.257563
0.079633 0.036802 0.257405
0.080681 0.036720 0.256895
0.081719 0.036636 0.256368
0.082846 0.036594 0.256132
0.083825 0.036488 0.255448
0.084615 0.036304 0.254214
0.096919 0.040996 0.287125
0.098882 0.041244 0.288912
0.100462 0.041327 0.289542
0.101734 0.041283 0.289280
0.103130 0.041290 0.289367
0.104339 0.041223 0.288930
0.105600 0.041178 0.288644
0.107062 0.041211 0.288902
0.108510 0.041238 0.289113
0.110566 0.041492 0.290912
0.111657 0.041383 0.290153
0.113152 0.041424 0.290444
0.114598 0.041446 0.290597
0.115824 0.041389 0.290190
0.117167 0.041375 0.290074
0.118515 0.041363 0.289968
0.119875 0.041355 0.289884
0.121086 0.041296 0.289437
0.122700 0.041375 0.289944
0.123989 0.041343 0.289674
0.125618 0.041424 0.290184
0.126920 0.041397 0.289929
0.128689 0.041521 0.290721
0.129913 0.041468 0.290269
0.131341 0.041481 0.290268
0.132779 0.041497 0.290275
0.134037 0.041457 0.289882
0.135854 0.041588 0.290679
0.137527 0.041673 0.291143
0.139132 0.041736 0.291442
0.140558 0.041745 0.291348
0.141819 0.041705 0.290905
0.143458 0.041775 0.291222
0.145008 0.041819 0.291337
0.146373 0.041808 0.291067
0.147754 0.041803 0.290817
0.151537 0.042471 0.295232
0.150779 0.041865 0.290782
0.152422 0.041931 0.290987
-0.046254 0.012844 0.086964
-0.045794 0.012831 0.086944
-0.042526 0.015023 0.102674
-0.043660 0.015601 0.106626
-0.043490 0.015720 0.107442
-0.043014 0.015731 0.107513
-0.042312 0.015658 0.107010
-0.041877 0.015684 0.107177
-0.041332 0.015668 0.107061
-0.041910 0.016083 0.109885
-0.042380 0.016466 0.112489
-0.042528 0.016733 0.114294
-0.041890 0.016692 0.114000
-0.041528 0.016763 0.114461
-0.041285 0.016884 0.115265
-0.040926 0.016960 0.115760
-0.040523 0.017019 0.116140
-0.040138 0.017088 0.116584
-0.040576 0.017514 0.119460
-0.040941 0.017920 0.122197
-0.041257 0.018316 0.124862
-0.042756 0.019256 0.131234
-0.043255 0.019767 0.134676
-0.043368 0.020114 0.136996
-0.043080 0.020282 0.138100
-0.043532 0.020810 0.141646
-0.043807 0.021268 0.144715
-0.044142 0.021770 0.148082
-0.044548 0.022324 0.151794
-0.044703 0.022769 0.154762
-0.044595 0.023091 0.156897
-0.044624 0.023497 0.159594
-0.044652 0.023917 0.162382
-0.044385 0.024190 0.164173
-0.044320 0.024585 0.166790
-0.044395 0.025074 0.170037
-0.045280 0.026046 0.176558
-0.045189 0.026483 0.179450
-0.044940 0.026843 0.181810
-0.044801 0.027284 0.184721
-0.044808 0.027833 0.188357
-0.044939 0.028483 0.192674
-0.045221 0.029258 0.197834
-0.045194 0.029861 0.201828
-0.044866 0.030287 0.204624
-0.044469 0.030685 0.207223
-0.044089 0.031113 0.210026
-0.043660 0.031526 0.212719
-0.043204 0.031938 0.215410
-0.042810 0.032416 0.218547
-0.042509 0.032992 0.222335
-0.042421 0.033766 0.227454
-0.042118 0.034405 0.231665
-0.041767 0.035038 0.235833
-0.041316 0.035621 0.239660
-0.040395 0.035819 0.240897
-0.039804 0.036332 0.244244
-0.039629 0.037265 0.250424
-0.040362 0.041741 0.280183
-0.039059 0.041783 0.280361
-0.036941 0.040925 0.274505
-0.035404 0.040672 0.272711
-0.029482 0.041543 0.278098
-0.028168 0.041575 0.278230
-0.026850 0.041606 0.278355
-0.016827 0.040051 0.267485
-0.015706 0.040483 0.270317
-0.014440 0.040584 0.270941
-0.012709 0.039271 0.262124
-0.011483 0.039401 0.262953
-0.010177 0.039257 0.261947
-0.008883 0.039119 0.260991
-0.007599 0.038994 0.260125
-0.006343 0.038985 0.260032
-0.005113 0.039177 0.261288
-0.003870 0.039356 0.262453
-0.002611 0.039474 0.263222
-0.001342 0.039517 0.263495
-0.000070 0.039893 0.265985
0.001218 0.040025 0.266859
0.002507 0.040020 0.266813
0.003868 0.040788 0.271931
0.005209 0.041009 0.273410
0.006378 0.040056 0.267057
0.007561 0.039498 0.263344
0.008932 0.039942 0.266318
0.010242 0.040034 0.266942
0.011587 0.040229 0.268260
0.012919 0.040342 0.269034
0.014211 0.040322 0.268925
0.015559 0.040447 0.269791
0.016817 0.040341 0.269114
0.018154 0.040425 0.269710
0.019401 0.040309 0.268972
0.020373 0.039673 0.264770
0.021937 0.040197 0.268310
0.023552 0.040751 0.272050
0.024883 0.040780 0.272296
0.026049 0.040550 0.270814
0.027331 0.040513 0.270625
0.028591 0.040449 0.270254
0.029681 0.040160 0.268384
0.031041 0.040245 0.269015
0.032219 0.040096 0.268084
0.033254 0.039789 0.266098
0.034593 0.039854 0.266598
0.035784 0.039750 0.265978
0.037018 0.039699 0.265706
0.038270 0.039670 0.265592
0.039511 0.039632 0.265411
0.040747 0.039591 0.265219
0.042054 0.039620 0.265490
0.042986 0.039304 0.263454
0.043255 0.038417 0.257592
0.043792 0.037811 0.253607
0.045013 0.037812 0.253700
0.046297 0.037865 0.254136
0.047387 0.037761 0.253522
0.048608 0.037763 0.253619
0.049918 0.037833 0.254174
0.051145 0.037838 0.254294
0.052452 0.037900 0.254800
0.053908 0.038064 0.255992
0.055516 0.038327 0.257844
0.057740 0.038993 0.262420
0.059733 0.039479 0.265782
0.061275 0.039653 0.267043
0.062650 0.039713 0.267541
0.064098 0.039816 0.268325
0.065482 0.039877 0.268823
0.067009 0.040020 0.269881
0.068248 0.039989 0.269762
0.069659 0.040058 0.270316
0.071044 0.040110 0.270753
0.071518 0.039655 0.267768
0.072411 0.039444 0.266428
0.073312 0.039245 0.265163
0.074006 0.038943 0.263203
0.074377 0.038484 0.260182
0.075147 0.038244 0.258630
0.076128 0.038116 0.257841
0.077166 0.038021 0.257267
0.078439 0.038043 0.257484
0.079686 0.038051 0.257608
0.081032 0.038106 0.258043
0.082260 0.038105 0.258096
0.083049 0.037903 0.256785
0.084718 0.038103 0.258193
0.085814 0.038043 0.257839
0.098815 0.043188 0.292763
0.100053 0.043120 0.292352
0.100389 0.042670 0.289351
0.101819 0.042691 0.289537
0.103435 0.042789 0.290238
0.104396 0.042617 0.289103
0.105522 0.042515 0.288440
0.107120 0.042604 0.289066
0.108295 0.042525 0.288547
0.109298 0.042380 0.287579
0.111593 0.042734 0.289988
0.112811 0.042672 0.289568
0.114432 0.042762 0.290175
0.115653 0.042702 0.289756
0.116993 0.042688 0.289637
0.118392 0.042694 0.289656
0.119739 0.042682 0.289543
0.121074 0.042665 0.289394
0.122565 0.042704 0.289611
0.123956 0.042707 0.289578
0.125589 0.042792 0.290097
0.127125 0.042843 0.290372
0.128564 0.042861 0.290413
0.129992 0.042874 0.290417
0.131626 0.042954 0.290865
0.133498 0.043109 0.291812
0.134828 0.043088 0.291555
0.136071 0.043040 0.291104
0.137652 0.043099 0.291366
0.138964 0.043072 0.291044
0.140351 0.043070 0.290871
0.141981 0.043141 0.291187
0.143263 0.043106 0.290771
0.145219 0.043273 0.291705
0.146456 0.043224 0.291171
0.147706 0.043180 0.290658
0.149575 0.043316 0.291344
0.150996 0.043320 0.291133
0.152245 0.043276 0.290577
-0.046018 0.013190 0.086499
-0.045647 0.013202 0.086645
-0.042757 0.015592 0.103232
-0.043653 0.016101 0.106608
-0.043701 0.016306 0.107963
-0.043157 0.016292 0.107870
-0.042352 0.016178 0.107114
-0.041812 0.016164 0.107014
-0.041448 0.016218 0.107364
-0.041292 0.016356 0.108269
-0.042190 0.016920 0.111990
-0.042046 0.017076 0.113005
-0.041325 0.016998 0.112471
-0.041048 0.017103 0.113147
-0.040788 0.017218 0.113886
-0.040873 0.017483 0.115621
-0.041035 0.017790 0.117620
-0.040596 0.017840 0.117925
-0.039955 0.017802 0.117645
-0.040296 0.018206 0.120286
-0.043912 0.020123 0.132915
-0.043356 0.020155 0.133093
-0.043471 0.020505 0.135366
-0.043494 0.020822 0.137414
-0.042901 0.020849 0.137549
-0.043618 0.021523 0.141951
-0.043503 0.021801 0.143735
-0.043234 0.022009 0.145060
-0.043307 0.022401 0.147593
-0.044046 0.023157 0.152516
-0.044215 0.023632 0.155592
-0.044710 0.024301 0.159937
-0.044489 0.024597 0.161822
-0.044447 0.025004 0.164438
-0.044465 0.025460 0.167371
-0.044855 0.026150 0.171837
-0.044938 0.026683 0.175269
-0.044853 0.027134 0.178160
-0.044588 0.027491 0.180431
-0.044490 0.027967 0.183485
-0.044460 0.028506 0.186944
-0.044560 0.029152 0.191102
-0.044801 0.029920 0.196050
-0.044771 0.030535 0.199996
-0.044458 0.030979 0.202823
-0.044260 0.031525 0.206313
-0.043860 0.031949 0.208997
-0.043482 0.032409 0.211919
-0.043089 0.032879 0.214902
-0.042755 0.033419 0.218339
-0.042425 0.033987 0.221964
-0.042383 0.034823 0.227325
-0.042110 0.035507 0.231698
-0.041867 0.036255 0.236482
-0.041084 0.036562 0.238395
-0.040435 0.037011 0.241227
-0.039490 0.037207 0.242407
-0.043868 0.042581 0.277311
-0.042587 0.042627 0.277504
-0.040609 0.041955 0.273030
-0.039358 0.042014 0.273315
-0.037709 0.041640 0.270779
-0.036825 0.042112 0.273754
-0.035662 0.042289 0.274807
-0.018129 0.041374 0.267866
-0.016848 0.041395 0.267946
-0.015689 0.041744 0.270154
-0.014478 0.042007 0.271799
-0.012659 0.040382 0.261241
-0.011282 0.039964 0.258493
-0.010025 0.039921 0.258178
-0.008744 0.039755 0.257070
-0.007510 0.039783 0.257214
-0.006275 0.039821 0.257432
-0.005036 0.039841 0.257533
-0.003807 0.039983 0.258429
-0.002576 0.040228 0.259995
-0.001317 0.040101 0.259156
-0.000067 0.040483 0.261608
0.001213 0.041078 0.265444
0.002487 0.040965 0.264708
0.003790 0.041237 0.266463
0.005133 0.041694 0.269417
0.006387 0.041394 0.267484
0.007687 0.041439 0.267778
0.009001 0.041537 0.268425
0.010307 0.041577 0.268697
0.011615 0.041615 0.268960
0.012950 0.041735 0.269754
0.014302 0.041880 0.270719
0.015627 0.041927 0.271049
0.016977 0.042032 0.271756
0.018161 0.041738 0.269890
0.019455 0.041719 0.269803
0.020336 0.040872 0.264366
0.021786 0.041202 0.266543
0.023332 0.041666 0.269589
0.024060 0.040698 0.263378
0.025162 0.040428 0.261677
0.026518 0.040571 0.262658
0.027572 0.040261 0.260704
0.028777 0.040188 0.260291
0.029929 0.040050 0.259456
0.031189 0.040062 0.259596
0.032477 0.040109 0.259962
0.033665 0.040031 0.259525
0.034982 0.040108 0.260093
0.036322 0.040205 0.260791
0.037765 0.040405 0.262161
0.039185 0.040569 0.263302
0.040457 0.040574 0.263412
0.041962 0.040804 0.264986
0.042844 0.040434 0.262663
0.042991 0.039410 0.256091
0.043690 0.038936 0.253091
0.044958 0.038981 0.253459
0.046156 0.038964 0.253434
0.047284 0.038890 0.253034
0.048533 0.038917 0.253295
0.049730 0.038902 0.253283
0.051023 0.038961 0.253748
0.052332 0.039030 0.254281
0.053532 0.039015 0.254269
0.054854 0.039088 0.254831
0.056935 0.039687 0.258823
0.059612 0.040666 0.265301
0.061636 0.041169 0.268672
0.062856 0.041125 0.268476
0.064400 0.041291 0.269649
0.065780 0.041347 0.270102
0.067167 0.041405 0.270570
0.068581 0.041477 0.271132
0.069737 0.041393 0.270668
0.071205 0.041494 0.271417
0.071905 0.041152 0.269263
0.072771 0.040915 0.267796
0.073952 0.040860 0.267519
0.074262 0.040335 0.264156
0.074444 0.039758 0.260454
0.075139 0.039470 0.258640
0.076209 0.039384 0.258151
0.077209 0.039266 0.257447
0.078087 0.039091 0.256362
0.079228 0.039050 0.256158
0.080382 0.039017 0.256003
0.081323 0.038883 0.255182
0.082507 0.038867 0.255134
0.083815 0.038910 0.255464
0.084797 0.038802 0.254804
0.095927 0.043275 0.284229
0.098502 0.043817 0.287841
0.100050 0.043895 0.288393
0.101635 0.043986 0.289032
0.102949 0.043959 0.288889
0.104183 0.043899 0.288524
0.105777 0.043990 0.289149
0.107051 0.043947 0.288889
0.108444 0.043954 0.288948
0.109657 0.043888 0.288526
0.111226 0.043965 0.289035
0.112997 0.044119 0.290045
0.114385 0.044121 0.290051
0.115668 0.044083 0.289789
0.116918 0.044033 0.289443
0.118401 0.044071 0.289668
0.119753 0.044060 0.289563
0.121059 0.044033 0.289343
0.122497 0.044054 0.289431
0.123655 0.043975 0.288855
0.125531 0.044149 0.289940
0.127061 0.044200 0.290200
0.128556 0.044237 0.290366
0.129970 0.044246 0.290336
0.131338 0.044240 0.290196
0.133117 0.044370 0.290942
0.134650 0.044417 0.291130
0.136109 0.044438 0.291143
0.137367 0.044394 0.290717
0.138917 0.044444 0.290898
0.140358 0.044458 0.290835
0.141601 0.044411 0.290354
0.143675 0.044622 0.291550
0.145285 0.044686 0.291777
0.146598 0.044659 0.291391
0.147983 0.044653 0.291136
0.149325 0.044635 0.290786
0.150820 0.044663 0.290718
0.152222 0.044662 0.290455
-0.045754 0.013524 0.085981
-0.045684 0.013625 0.086694
-0.043236 0.016258 0.104385
-0.043752 0.016641 0.106849
-0.043676 0.016805 0.107902
-0.043085 0.016772 0.107692
-0.042099 0.016583 0.106474
-0.042022 0.016752 0.107553
-0.041719 0.016834 0.108070
-0.040341 0.016478 0.105778
-0.040692 0.016829 0.108019
-0.041150 0.017234 0.110603
-0.041488 0.017598 0.112922
-0.041206 0.017705 0.113591
-0.040313 0.017549 0.112570
-0.041576 0.018339 0.117618
-0.040218 0.018478 0.118432
-0.040002 0.018637 0.119422
-0.043446 0.020530 0.131520
-0.042895 0.020563 0.131696
-0.042956 0.020895 0.133780
-0.043024 0.021240 0.135948
-0.043173 0.021636 0.138441
-0.043405 0.022086 0.141279
-0.043802 0.022636 0.144746
-0.043495 0.022833 0.145961
-0.043649 0.023283 0.148788
-0.043938 0.023821 0.152171
-0.044183 0.024352 0.155509
-0.044234 0.024793 0.158266
-0.044623 0.025441 0.162343
-0.044175 0.025627 0.163467
-0.044139 0.026062 0.166180
-0.044149 0.026542 0.169172
-0.044282 0.027113 0.172748
-0.044274 0.027619 0.175903
-0.044294 0.028162 0.179289
-0.044267 0.028696 0.182610
-0.044308 0.029296 0.186354
-0.044455 0.029992 0.190706
-0.044472 0.030627 0.194666
-0.044369 0.031205 0.198255
-0.044111 0.031697 0.201300
-0.043998 0.032317 0.205151
-0.043628 0.032772 0.207957
-0.043380 0.033342 0.211488
-0.043047 0.033872 0.214761
-0.042692 0.034411 0.218089
-0.042462 0.035079 0.222231
-0.042438 0.035957 0.227698
-0.042093 0.036601 0.231686
-0.041715 0.037251 0.235705
-0.040811 0.037454 0.236898
-0.040170 0.037916 0.239729
-0.039720 0.038592 0.243906
-0.040756 0.040796 0.257736
-0.042600 0.043972 0.277698
-0.041315 0.044018 0.277885
-0.038705 0.042608 0.268887
-0.038413 0.043741 0.275942
-0.036808 0.043407 0.273738
-0.035013 0.042816 0.269918
-0.018075 0.042541 0.267200
-0.016721 0.042369 0.266066
-0.015748 0.043213 0.271311
-0.014460 0.043268 0.271603
-0.012525 0.041206 0.258616
-0.011189 0.040879 0.256521
-0.009962 0.040912 0.256689
-0.008705 0.040818 0.256065
-0.007480 0.040872 0.256374
-0.006256 0.040952 0.256841
-0.005030 0.041048 0.257420
-0.003798 0.041148 0.258022
-0.002556 0.041187 0.258248
-0.001319 0.041450 0.259881
-0.000066 0.041969 0.263119
0.001208 0.042132 0.264133
0.002480 0.042077 0.263780
0.003749 0.042041 0.263554
0.005025 0.042076 0.263773
0.006272 0.041902 0.262684
0.007553 0.041975 0.263148
0.008828 0.042000 0.263315
0.010047 0.041787 0.261993
0.011344 0.041907 0.262761
0.012595 0.041850 0.262423
0.013908 0.041991 0.263332
0.015611 0.043186 0.270852
0.016960 0.043294 0.271559
0.017645 0.041811 0.262293
0.018835 0.041645 0.261288
0.020085 0.041625 0.261196
0.021765 0.042443 0.266374
0.023277 0.042862 0.269048
0.024114 0.042058 0.264049
0.025154 0.041672 0.261678
0.026516 0.041830 0.262716
0.027604 0.041562 0.261090
0.028739 0.041383 0.260024
0.029904 0.041262 0.259322
0.031190 0.041310 0.259684
0.032452 0.041325 0.259843
0.033818 0.041465 0.260788
0.035028 0.041410 0.260512
0.036430 0.041580 0.261647
0.037783 0.041683 0.262371
0.039211 0.041859 0.263554
0.040568 0.041952 0.264211
0.041805 0.041917 0.264073
0.043102 0.041944 0.264320
0.043014 0.040660 0.256303
0.043621 0.040085 0.252760
0.044807 0.040060 0.252679
0.046158 0.040179 0.253511
0.047193 0.040024 0.252617
0.048368 0.039993 0.252500
0.049635 0.040038 0.252866
0.050934 0.040105 0.253372
0.052201 0.040145 0.253707
0.053491 0.040200 0.254140
0.055077 0.040470 0.255931
0.057276 0.041168 0.260435
0.059534 0.041879 0.265020
0.061148 0.042116 0.266609
0.062672 0.042283 0.267750
0.064218 0.042457 0.268945
0.065678 0.042569 0.269740
0.067145 0.042681 0.270538
0.068490 0.042713 0.270824
0.069945 0.042810 0.271530
0.071126 0.042740 0.271167
0.071810 0.042379 0.268958
0.072749 0.042177 0.267761
0.073666 0.041971 0.266529
0.074540 0.041747 0.265188
0.074457 0.041004 0.260542
0.075213 0.040740 0.258932
0.076270 0.040645 0.258396
0.077035 0.040399 0.256898
0.078125 0.040329 0.256517
0.079332 0.040320 0.256526
0.080475 0.040280 0.256328
0.081632 0.040247 0.256177
0.082906 0.040273 0.256394
0.083958 0.040191 0.255926
0.085057 0.040134 0.255607
0.095682 0.044510 0.283525
0.098281 0.045082 0.287216
0.100271 0.045363 0.289049
0.101657 0.045367 0.289110
0.103192 0.045436 0.289584
0.104262 0.045301 0.288754
0.105667 0.045314 0.288857
0.107040 0.045312 0.288866
0.108342 0.045281 0.288681
0.109693 0.045271 0.288624
0.111650 0.045508 0.290138
0.112905 0.045457 0.289806
0.114335 0.045476 0.289921
0.115706 0.045472 0.289876
0.116816 0.045366 0.289180
0.118148 0.045348 0.289038
0.119606 0.045378 0.289193
0.121159 0.045444 0.289565
0.122768 0.045528 0.290053
0.124046 0.045489 0.289747
0.125428 0.045489 0.289678
0.126936 0.045533 0.289888
0.128578 0.045625 0.290386
0.129972 0.045627 0.290309
0.131326 0.045615 0.290132
0.132792 0.045642 0.290195
0.134156 0.045634 0.290023
0.135928 0.045763 0.290713
0.137379 0.045782 0.290696
0.139015 0.045863 0.291055
0.140522 0.045899 0.291122
0.141884 0.045887 0.290877
0.143368 0.045915 0.290868
0.144833 0.045936 0.290805
0.146568 0.046042 0.291265
0.147805 0.045991 0.290718
0.149166 0.045978 0.290403
0.150738 0.046031 0.290484
0.152298 0.046078 0.290520
-0.045777 0.013940 0.086000
-0.045491 0.013978 0.086306
-0.043313 0.016592 0.103389
-0.043891 0.017004 0.105966
-0.043806 0.017166 0.106978
-0.043387 0.017199 0.107188
-0.042935 0.017220 0.107318
-0.042499 0.017248 0.107487
-0.041995 0.017248 0.107485
-0.040436 0.016810 0.104749
-0.039619 0.016673 0.103890
-0.039284 0.016738 0.104286
-0.041713 0.017998 0.112120
-0.041252 0.018027 0.112286
-0.040790 0.018056 0.112451
-0.039682 0.019048 0.118481
-0.038629 0.018807 0.116952
-0.043029 0.021252 0.132124
-0.042646 0.021372 0.132833
-0.042448 0.021590 0.134150
-0.042344 0.021863 0.135805
-0.043459 0.022783 0.141479
-0.043556 0.023190 0.143961
-0.043427 0.023488 0.145760
-0.043208 0.023746 0.147311
-0.043699 0.024408 0.151370
-0.044470 0.025252 0.156549
-0.044337 0.025603 0.158665
-0.044302 0.026023 0.161213
-0.044285 0.026468 0.163910
-0.044248 0.026918 0.166631
-0.044181 0.027365 0.169336
-0.044389 0.028002 0.173211
-0.044457 0.028573 0.176674
-0.044329 0.029038 0.179477
-0.044386 0.029644 0.183151
-0.044530 0.030334 0.187340
-0.044447 0.030894 0.190722
-0.044397 0.031501 0.194393
-0.044132 0.031978 0.197255
-0.043935 0.032526 0.200555
-0.043669 0.033046 0.203679
-0.043520 0.033681 0.207504
-0.043340 0.034320 0.211360
-0.042951 0.034820 0.214353
-0.042757 0.035507 0.218490
-0.042643 0.036295 0.223254
-0.042424 0.037034 0.227705
-0.042161 0.037770 0.232141
-0.041456 0.038140 0.234325
-0.040464 0.038259 0.234964
-0.040163 0.039058 0.239778
-0.041896 0.041940 0.257369
-0.040711 0.041985 0.257552
-0.039522 0.042030 0.257730
-0.041724 0.045800 0.280744
-0.040421 0.045846 0.280926
-0.039617 0.046480 0.284711
-0.037015 0.044974 0.275389
-0.035581 0.044829 0.274408
-0.035533 0.046486 0.284459
-0.018737 0.045439 0.277138
-0.016900 0.044123 0.269059
-0.015956 0.045113 0.275041
-0.014638 0.045133 0.275111
-0.012397 0.042023 0.256111
-0.011142 0.041943 0.255582
-0.009930 0.042025 0.256044
-0.008699 0.042034 0.256063
-0.007477 0.042099 0.256423
-0.006263 0.042247 0.257300
-0.005026 0.042269 0.257407
-0.003790 0.042321 0.257699
-0.002543 0.042252 0.257260
-0.001310 0.042485 0.258662
-0.000063 0.042776 0.260421
0.001208 0.043335 0.263811
0.002484 0.043397 0.264184
0.003758 0.043395 0.264169
0.007712 0.044148 0.268762
0.011526 0.043857 0.267033
0.012816 0.043865 0.267100
0.014178 0.044094 0.268520
0.019666 0.044793 0.272899
0.020649 0.044083 0.268609
0.021999 0.044193 0.269322
0.023381 0.044351 0.270334
0.024119 0.043335 0.264186
0.025176 0.042966 0.261982
0.026419 0.042935 0.261847
0.027554 0.042738 0.260699
0.028678 0.042543 0.259562
0.029690 0.042203 0.257548
0.031018 0.042322 0.258335
0.032305 0.042380 0.258747
0.033673 0.042533 0.259750
0.035075 0.042719 0.260948
0.036184 0.042546 0.259963
0.037684 0.042829 0.261762
0.038935 0.042820 0.261782
0.040453 0.043096 0.263541
0.041965 0.043349 0.265166
0.042945 0.043053 0.263433
0.043443 0.042306 0.258936
0.043548 0.041227 0.252411
0.044823 0.041285 0.252842
0.045998 0.041250 0.252706
0.047236 0.041272 0.252920
0.048531 0.041340 0.253419
0.049794 0.041379 0.253740
0.050996 0.041367 0.253748
0.052460 0.041563 0.255031
0.053846 0.041689 0.255888
0.054789 0.041474 0.254654
0.057021 0.042224 0.259340
0.059716 0.043276 0.265888
0.061436 0.043593 0.267924
0.062820 0.043663 0.268443
0.064232 0.043749 0.269059
0.065675 0.043853 0.269784
0.067215 0.044017 0.270876
0.068472 0.043992 0.270808
0.069692 0.043945 0.270600
0.071294 0.044135 0.271857
0.072052 0.043806 0.269911
0.073119 0.043673 0.269170
0.073890 0.043371 0.267387
0.074324 0.042885 0.264462
0.074840 0.042461 0.261921
0.075280 0.042009 0.259201
0.076228 0.041850 0.258288
0.077279 0.041752 0.257748
0.078485 0.041739 0.257732
0.079709 0.041736 0.257775
0.081035 0.041786 0.258141
0.082532 0.041921 0.259029
0.083642 0.041859 0.258696
0.084925 0.041883 0.258896
0.086027 0.041819 0.258543
0.097268 0.046615 0.288247
0.098489 0.046543 0.287844
0.100455 0.046820 0.289595
0.101748 0.046780 0.289385
0.103189 0.046809 0.289590
0.104191 0.046639 0.288569
0.105734 0.046714 0.289049
0.107172 0.046740 0.289228
0.108278 0.046623 0.288513
0.109800 0.046685 0.288907
0.111416 0.046786 0.289528
0.112833 0.046801 0.289617
0.114062 0.046740 0.289223
0.115326 0.046693 0.288917
0.116783 0.046725 0.289088
0.118010 0.046665 0.288686
0.119547 0.046728 0.289035
0.120991 0.046753 0.289145
0.122454 0.046785 0.289290
0.123759 0.046756 0.289053
0.125303 0.046818 0.289362
0.126775 0.046851 0.289492
0.128804 0.047087 0.290865
0.129994 0.047015 0.290324
0.131256 0.046970 0.289941
0.132813 0.047030 0.290199
0.134185 0.047024 0.290041
0.135533 0.047010 0.289821
0.137106 0.047073 0.290070
0.138698 0.047142 0.290337
0.140330 0.047222 0.290668
0.141774 0.047238 0.290592
0.143318 0.047287 0.290705
0.144982 0.047375 0.291040
0.146616 0.047450 0.291291
0.148010 0.047447 0.291047
0.149257 0.047398 0.290504
0.150751 0.047427 0.290430
0.152337 0.047484 0.290512
-0.045505 0.014265 0.085466
-0.045409 0.014363 0.086128
-0.044430 0.017520 0.106052
-0.044000 0.017547 0.106227
-0.043451 0.017527 0.106111
-0.043059 0.017571 0.106377
-0.042766 0.017656 0.106895
-0.042331 0.017684 0.107063
-0.041470 0.017533 0.106144
-0.041675 0.017834 0.107963
-0.040911 0.017723 0.107282
-0.040744 0.017871 0.108167
-0.040731 0.018091 0.109489
-0.041296 0.018577 0.112414
-0.041615 0.018963 0.114734
-0.040165 0.019846 0.119936
-0.043269 0.021685 0.131018
-0.042720 0.021719 0.131192
-0.042435 0.021891 0.132197
-0.042079 0.022031 0.133004
-0.042483 0.022579 0.136272
-0.043184 0.023304 0.140605
-0.043469 0.023824 0.143696
-0.043327 0.024122 0.145450
-0.043378 0.024540 0.147920
-0.043886 0.025233 0.152047
-0.044357 0.025928 0.156185
-0.044570 0.026493 0.159533
-0.044730 0.027047 0.162805
-0.044502 0.027380 0.164752
-0.044177 0.027664 0.166400
-0.044258 0.028218 0.169668
-0.044240 0.028728 0.172670
-0.044378 0.029360 0.176404
-0.044197 0.029802 0.178989
-0.044352 0.030492 0.183062
-0.044386 0.031124 0.186785
-0.044348 0.031732 0.190353
-0.044168 0.032260 0.193445
-0.044084 0.032882 0.197098
-0.043760 0.033349 0.199816
-0.043692 0.034035 0.203848
-0.043498 0.034653 0.207464
-0.043172 0.035192 0.210609
-0.042723 0.035653 0.213284
-0.042761 0.036554 0.218582
-0.042660 0.037378 0.223423
-0.042803 0.038462 0.229815
-0.042150 0.038871 0.232166
-0.040955 0.038787 0.231578
-0.042313 0.041184 0.245794
-0.041186 0.041231 0.245978
-0.040108 0.041330 0.246479
-0.040263 0.042744 0.254814
-0.039150 0.042859 0.255406
-0.040559 0.047355 0.282000
-0.039249 0.047401 0.282177
-0.036699 0.045902 0.273158
-0.035446 0.045973 0.273488
-0.035491 0.047797 0.284246
-0.034274 0.048000 0.285362
-0.033098 0.048280 0.286938
-0.031581 0.048065 0.285573
-0.030138 0.047948 0.284792
-0.028827 0.048041 0.285262
-0.027435 0.048000 0.284944
-0.025926 0.047740 0.283321
-0.024415 0.047447 0.281512
-0.022962 0.047240 0.280212
-0.021443 0.046864 0.277916
-0.019902 0.046384 0.275011
-0.018713 0.046718 0.276927
-0.016761 0.045049 0.266981
-0.015746 0.045833 0.271574
-0.014446 0.045853 0.271643
-0.012311 0.042965 0.254488
-0.011124 0.043110 0.255311
-0.009908 0.043171 0.255632
-0.008670 0.043132 0.255365
-0.007460 0.043247 0.256015
-0.006238 0.043325 0.256446
-0.005017 0.043447 0.257148
-0.003783 0.043512 0.257509
-0.002544 0.043545 0.257683
-0.001307 0.043712 0.258655
-0.000061 0.043873 0.259596
0.001207 0.044481 0.263183
0.002483 0.044616 0.263971
0.006411 0.045396 0.268588
0.007705 0.045389 0.268555
0.008998 0.045381 0.268517
0.010230 0.045102 0.266878
0.011514 0.045091 0.266828
0.012803 0.045099 0.266895
0.014163 0.045335 0.268314
0.015451 0.045319 0.268246
0.018339 0.046074 0.272778
0.019645 0.046053 0.272691
0.020675 0.045430 0.269035
0.021889 0.045259 0.268066
0.023339 0.045568 0.269937
0.024189 0.044735 0.265048
0.025193 0.044255 0.262254
0.026426 0.044203 0.261996
0.027530 0.043951 0.260552
0.028562 0.043611 0.258595
0.029713 0.043474 0.257836
0.030845 0.043320 0.256981
0.032192 0.043468 0.257920
0.033519 0.043580 0.258647
0.034768 0.043586 0.258747
0.036145 0.043745 0.259760
0.037445 0.043805 0.260185
0.038857 0.043986 0.261333
0.040227 0.044111 0.262147
0.041363 0.043979 0.261438
0.042815 0.044181 0.262717
0.043443 0.043546 0.259011
0.043920 0.042798 0.254642
0.045084 0.042743 0.254389
0.046371 0.042804 0.254829
0.047445 0.042669 0.254108
0.048698 0.042699 0.254365
0.050005 0.042773 0.254883
0.051396 0.042914 0.255807
0.052755 0.043022 0.256532
0.054201 0.043194 0.257641
0.056023 0.043652 0.260456
0.057936 0.044159 0.263563
0.059761 0.044579 0.266153
0.061313 0.044782 0.267451
0.063085 0.045133 0.269635
0.064493 0.045215 0.270212
0.065917 0.045306 0.270835
0.067273 0.045347 0.271165
0.068613 0.045375 0.271419
0.069959 0.045407 0.271689
0.071119 0.045318 0.271242
0.072014 0.045067 0.269818
0.072706 0.044700 0.267698
0.073901 0.044650 0.267472
0.074650 0.044336 0.265663
0.074869 0.043723 0.262062
0.075342 0.043276 0.259451
0.076455 0.043206 0.259093
0.077547 0.043126 0.258677
0.079023 0.043258 0.259532
0.079962 0.043097 0.258626
0.081427 0.043220 0.259417
0.082912 0.043350 0.260249
0.084346 0.043449 0.260899
0.085651 0.043481 0.261134
0.094745 0.047408 0.284769
0.095955 0.047335 0.284376
0.098599 0.047962 0.288184
0.100449 0.048191 0.289596
0.102033 0.048288 0.290208
0.103003 0.048095 0.289079
0.104475 0.048139 0.289366
0.105661 0.048051 0.288858
0.107294 0.048167 0.289565
0.108661 0.048161 0.289537
0.111013 0.048586 0.292100
0.111903 0.048370 0.290793
0.112717 0.048125 0.289315
0.114297 0.048210 0.289811
0.115564 0.048163 0.289504
0.116794 0.048101 0.289105
0.117205 0.047707 0.286702
0.118826 0.047809 0.287275
0.120899 0.048088 0.288905
0.122370 0.048125 0.289068
0.123581 0.048059 0.288611
0.125055 0.048096 0.288762
0.126559 0.048144 0.288967
0.128578 0.048384 0.290321
0.129880 0.048352 0.290030
0.131180 0.048320 0.289733
0.132640 0.048347 0.289778
0.134126 0.048383 0.289868
0.135579 0.048406 0.289870
0.136978 0.048410 0.289746
0.138348 0.048403 0.289549
0.139938 0.048473 0.289797
0.141351 0.048480 0.289662
0.143043 0.048582 0.290082
0.144573 0.048627 0.290148
0.146091 0.048668 0.290175
0.147788 0.048767 0.290534
0.149022 0.048712 0.289967
0.150608 0.048773 0.290071
0.152016 0.048775 0.289811
-0.045963 0.014820 0.086302
-0.045512 0.014806 0.086300
-0.045449 0.014920 0.087035
-0.041654 0.016894 0.099423
-0.043124 0.017689 0.104108
-0.043311 0.017969 0.105765
-0.042970 0.018035 0.106156
-0.041887 0.017787 0.104697
-0.040716 0.017495 0.102981
-0.041353 0.018891 0.111164
-0.040895 0.018921 0.111328
-0.041584 0.019490 0.114657
-0.040938 0.019439 0.114340
-0.042005 0.020211 0.118863
-0.041512 0.020243 0.119031
-0.041422 0.020476 0.120375
-0.040418 0.020256 0.119059
-0.041947 0.021318 0.125273
-0.042984 0.022157 0.130171
-0.043011 0.022491 0.132104
-0.042612 0.022610 0.132765
-0.041886 0.022556 0.132412
-0.041966 0.022941 0.134636
-0.042692 0.023696 0.139025
-0.043201 0.024353 0.142834
-0.043383 0.024843 0.145663
-0.043743 0.025452 0.149191
-0.043832 0.025921 0.151890
-0.043915 0.026403 0.154660
-0.044087 0.026955 0.157837
-0.044535 0.027697 0.162128
-0.044540 0.028185 0.164928
-0.044133 0.028426 0.166276
-0.043914 0.028798 0.168390
-0.044041 0.029415 0.171936
-0.044141 0.030037 0.175507
-0.044120 0.030600 0.178724
-0.044115 0.031195 0.182131
-0.044371 0.032002 0.186773
-0.044389 0.032668 0.190583
-0.044053 0.033095 0.192998
-0.043977 0.033739 0.196680
-0.043695 0.034250 0.199580
-0.043509 0.034861 0.203061
-0.043510 0.035653 0.207591
-0.043318 0.036319 0.211387
-0.043078 0.036977 0.215130
-0.042806 0.037637 0.218887
-0.042422 0.038231 0.222253
-0.042009 0.038827 0.225633
-0.041220 0.039098 0.227123
-0.042785 0.041677 0.242011
-0.041678 0.041725 0.242196
-0.040731 0.041939 0.243350
-0.039885 0.042274 0.245203
-0.039941 0.043613 0.252877
-0.039157 0.044091 0.255557
-0.040737 0.047347 0.274329
-0.039465 0.047394 0.274507
-0.038396 0.047697 0.276165
-0.036681 0.047190 0.273136
-0.035433 0.047269 0.273505
-0.035676 0.049420 0.285857
-0.034337 0.049462 0.286013
-0.033058 0.049599 0.286718
-0.031542 0.049378 0.285353
-0.027401 0.049311 0.284723
-0.025893 0.049043 0.283101
-0.024384 0.048742 0.281294
-0.022932 0.048529 0.279994
-0.021173 0.047597 0.274552
-0.019690 0.047203 0.272222
-0.018689 0.047992 0.276711
-0.016813 0.046482 0.267952
-0.015693 0.046988 0.270812
-0.014397 0.047008 0.270880
-0.012292 0.044129 0.254248
-0.011087 0.044203 0.254634
-0.009893 0.044342 0.255397
-0.008650 0.044272 0.254959
-0.007442 0.044388 0.255598
-0.006219 0.044440 0.255869
-0.005001 0.044567 0.256573
-0.003774 0.044661 0.257089
-0.002537 0.044688 0.257226
-0.001299 0.044738 0.257497
-0.000059 0.044951 0.258714
0.001208 0.045705 0.263041
0.002490 0.045983 0.264634
0.003766 0.045996 0.264708
0.005042 0.045993 0.264687
0.006296 0.045839 0.263803
0.007525 0.045578 0.262311
0.008801 0.045640 0.262678
0.010065 0.045632 0.262641
0.011290 0.045469 0.261719
0.012571 0.045539 0.262143
0.013872 0.045663 0.262874
0.015194 0.045828 0.263853
0.016445 0.045772 0.263555
0.017943 0.046360 0.266972
0.019299 0.046528 0.267977
0.020635 0.046631 0.268603
0.021835 0.046429 0.267483
0.023253 0.046691 0.269031
0.024440 0.046483 0.267883
0.025175 0.045480 0.262145
0.026063 0.044837 0.258489
0.027266 0.044769 0.258147
0.028317 0.044467 0.256462
0.029532 0.044437 0.256343
0.030709 0.044355 0.255929
0.031972 0.044400 0.256244
0.033250 0.044461 0.256658
0.034594 0.044601 0.257533
0.035946 0.044743 0.258416
0.037423 0.045025 0.260111
0.038977 0.045379 0.262226
0.040648 0.045842 0.264975
0.042003 0.045931 0.265567
0.043431 0.046093 0.266577
0.044817 0.046202 0.267283
0.046203 0.046305 0.267960
0.047439 0.046256 0.267752
0.048541 0.046082 0.266829
0.050048 0.046292 0.268126
0.051213 0.046183 0.267573
0.052245 0.045962 0.266377
0.053519 0.045959 0.266440
0.054690 0.045870 0.266009
0.055936 0.045847 0.265957
0.057208 0.045845 0.266030
0.058648 0.045975 0.266867
0.060290 0.046254 0.268574
0.061607 0.046278 0.268793
0.062898 0.046282 0.268899
0.064315 0.046375 0.269527
0.065673 0.046424 0.269892
0.066951 0.046416 0.269925
0.068322 0.046470 0.270324
0.069640 0.046488 0.270505
0.070833 0.046422 0.270202
0.071592 0.046080 0.268285
0.073069 0.046203 0.269081
0.073739 0.045822 0.266930
0.074862 0.045729 0.266460
0.075766 0.045508 0.265243
0.076420 0.045147 0.263203
0.077591 0.045097 0.262981
0.078710 0.045020 0.262592
0.080095 0.045095 0.263087
0.081411 0.045128 0.263341
0.082668 0.045129 0.263400
0.084308 0.045336 0.264659
0.085448 0.045271 0.264333
0.086365 0.045092 0.263332
0.088097 0.045338 0.264808
0.097490 0.049463 0.288947
0.099498 0.049779 0.290832
0.100327 0.049505 0.289262
0.101718 0.049511 0.289329
0.103469 0.049690 0.290399
0.103904 0.049240 0.287793
0.106403 0.049768 0.290891
0.107672 0.049714 0.290589
0.108923 0.049653 0.290239
0.110228 0.049618 0.290033
0.111419 0.049533 0.289532
0.112664 0.049474 0.289175
0.113896 0.049410 0.288785
0.115386 0.049459 0.289048
0.117124 0.049612 0.289909
0.118465 0.049595 0.289770
0.119814 0.049581 0.289644
0.121055 0.049523 0.289257
0.122426 0.049520 0.289177
0.123952 0.049578 0.289451
0.125340 0.049580 0.289390
0.126945 0.049668 0.289816
0.128372 0.049684 0.289818
0.129875 0.049729 0.289980
0.131250 0.049725 0.289846
0.132734 0.049761 0.289939
0.134099 0.049752 0.289760
0.135602 0.049795 0.289868
0.136985 0.049792 0.289705
0.138358 0.049787 0.289512
0.139795 0.049804 0.289440
0.141377 0.049872 0.289651
0.142807 0.049885 0.289534
0.144143 0.049866 0.289215
0.145968 0.050014 0.289854
0.147725 0.050136 0.290331
0.149329 0.050205 0.290480
0.150619 0.050167 0.290003
0.152138 0.050206 0.289954
-0.045775 0.015169 0.085922
-0.045472 0.015204 0.086199
-0.044781 0.015109 0.085733
-0.041362 0.017242 0.098722
-0.041753 0.017602 0.100795
-0.043031 0.018349 0.105081
-0.042510 0.018337 0.105017
-0.041150 0.017959 0.102856
-0.040234 0.019132 0.109536
-0.040671 0.019591 0.112147
-0.040259 0.019647 0.112453
-0.039607 0.019586 0.112088
-0.039168 0.019630 0.112320
-0.038657 0.019639 0.112350
-0.042148 0.021710 0.124169
-0.042341 0.022116 0.126466
-0.042749 0.022647 0.129474
-0.042528 0.022856 0.130638
-0.041875 0.022836 0.130489
-0.041766 0.023115 0.132051
-0.041923 0.023553 0.134516
-0.042896 0.024470 0.139713
-0.043164 0.025007 0.142737
-0.043331 0.025502 0.145518
-0.043565 0.026053 0.148613
-0.043812 0.026629 0.151853
-0.044382 0.027424 0.156335
-0.044150 0.027742 0.158096
-0.044304 0.028318 0.161324
-0.044285 0.028802 0.164021
-0.043860 0.029034 0.165285
-0.043849 0.029554 0.168184
-0.043693 0.029993 0.170619
-0.044028 0.030792 0.175102
-0.044007 0.031368 0.178313
-0.044244 0.032155 0.182715
-0.044468 0.032963 0.187236
-0.044427 0.033603 0.190798
-0.044185 0.034115 0.193634
-0.043776 0.034517 0.195841
-0.043579 0.035108 0.199114
-0.043445 0.035776 0.202823
-0.043521 0.036652 0.207711
-0.043196 0.037223 0.210863
-0.043064 0.037991 0.215132
-0.042575 0.038474 0.217785
-0.042226 0.039111 0.221305
-0.041779 0.039687 0.224481
-0.043402 0.042311 0.239233
-0.042311 0.042360 0.239420
-0.041657 0.042862 0.242166
-0.040746 0.043121 0.243538
-0.039712 0.043260 0.244234
-0.038962 0.043726 0.246780
-0.038963 0.045091 0.254389
-0.040061 0.047854 0.269884
-0.038809 0.047901 0.270058
-0.037751 0.048198 0.271638
-0.036472 0.048224 0.271697
-0.034958 0.047931 0.269955
-0.034305 0.048841 0.274996
-0.034294 0.050774 0.285788
-0.029784 0.045930 0.258444
-0.028228 0.045418 0.255488
-0.027130 0.045631 0.256612
-0.025928 0.045679 0.256813
-0.024632 0.045561 0.256076
-0.023318 0.045394 0.255071
-0.022198 0.045607 0.256206
-0.020994 0.045663 0.256461
-0.020109 0.046462 0.260886
-0.019664 0.048453 0.272004
-0.016544 0.047013 0.263813
-0.015508 0.047729 0.267778
-0.014227 0.047749 0.267845
-0.012253 0.045217 0.253599
-0.011070 0.045367 0.254397
-0.009866 0.045454 0.254852
-0.008631 0.045406 0.254547
-0.007425 0.045524 0.255178
-0.006204 0.045577 0.255446
-0.004987 0.045692 0.256064
-0.003756 0.045705 0.256116
-0.002529 0.045826 0.256775
-0.001295 0.045896 0.257152
-0.000057 0.046224 0.258975
0.001222 0.047470 0.265947
0.002494 0.047284 0.264902
0.003780 0.047420 0.265658
0.005060 0.047416 0.265637
0.006241 0.046679 0.261508
0.007418 0.046166 0.258639
0.008705 0.046386 0.259880
0.009961 0.046404 0.259994
0.011163 0.046195 0.258838
0.012403 0.046169 0.258710
0.013744 0.046488 0.260517
0.015138 0.046920 0.262966
0.016323 0.046687 0.261688
0.017796 0.047251 0.264879
0.019265 0.047729 0.267590
0.020441 0.047469 0.266166
0.021747 0.047520 0.266493
0.023318 0.048115 0.269875
0.024542 0.047967 0.269084
0.025275 0.046924 0.263280
0.025898 0.045783 0.256929
0.027088 0.045705 0.256541
0.028279 0.045635 0.256201
0.029414 0.045485 0.255407
0.030648 0.045493 0.255511
0.031877 0.045493 0.255570
0.033150 0.045553 0.255966
0.034302 0.045449 0.255445
0.035675 0.045634 0.256547
0.037174 0.045964 0.258468
0.038817 0.046443 0.261234
0.039950 0.046301 0.260503
0.041213 0.046315 0.260654
0.042601 0.046463 0.261560
0.043902 0.046511 0.261905
0.045176 0.046529 0.262082
0.046441 0.046536 0.262196
0.047504 0.046347 0.261205
0.048893 0.046476 0.262011
0.050126 0.046454 0.261966
0.051291 0.046372 0.261585
0.052675 0.046487 0.262310
0.054080 0.046615 0.263114
0.055381 0.046649 0.263386
0.056796 0.046775 0.264180
0.058981 0.047517 0.268450
0.060362 0.047592 0.268957
0.061600 0.047555 0.268828
0.063120 0.047731 0.269907
0.064484 0.047785 0.270296
0.065823 0.047819 0.270566
0.067097 0.047805 0.270569
0.068382 0.047800 0.270616
0.069587 0.047739 0.270351
0.070822 0.047701 0.270209
0.071724 0.047444 0.268831
0.072796 0.047306 0.268125
0.074381 0.047501 0.269298
0.074751 0.046926 0.266111
0.075949 0.046882 0.265924
0.077324 0.046946 0.266357
0.077702 0.046413 0.263394
0.079166 0.046535 0.264147
0.081073 0.046909 0.266330
0.082118 0.046781 0.265659
0.083437 0.046811 0.265881
0.085109 0.047034 0.267200
0.086836 0.047282 0.268652
0.087977 0.047207 0.268270
0.096459 0.051017 0.289967
0.097692 0.050940 0.289567
0.099155 0.050982 0.289846
0.100633 0.051031 0.290158
0.101875 0.050962 0.289788
0.102777 0.050725 0.288467
0.104590 0.050939 0.289701
0.104555 0.050259 0.285847
0.105987 0.050292 0.286044
0.108814 0.050978 0.289950
0.110197 0.050979 0.289949
0.111551 0.050966 0.289869
0.112755 0.050886 0.289401
0.114610 0.051098 0.290587
0.115761 0.050995 0.289974
0.116844 0.050865 0.289198
0.118435 0.050956 0.289677
0.119557 0.050846 0.289002
0.120833 0.050803 0.288704
0.122161 0.050782 0.288524
0.123741 0.050865 0.288928
0.125375 0.050969 0.289438
0.126796 0.050984 0.289440
0.128510 0.051116 0.290093
0.129836 0.051092 0.289853
0.131085 0.051039 0.289437
0.132426 0.051022 0.289219
0.133887 0.051051 0.289252
0.135451 0.051118 0.289491
0.136895 0.051139 0.289458
0.138266 0.051133 0.289259
0.139797 0.051185 0.289381
0.141063 0.051140 0.288940
0.142880 0.051294 0.289610
0.144394 0.051337 0.289643
0.146065 0.051434 0.289968
0.147958 0.051607 0.290705
0.149463 0.051643 0.290654
0.150992 0.051686 0.290631
0.152047 0.051568 0.289685
-0.045796 0.015586 0.085936
-0.045508 0.015627 0.086242
-0.045054 0.015612 0.086231
-0.041953 0.017960 0.100127
-0.043716 0.018927 0.105529
-0.043552 0.019072 0.106348
-0.043470 0.019258 0.107388
-0.043033 0.019288 0.107559
-0.038964 0.019029 0.106083
-0.041426 0.020493 0.114236
-0.040382 0.020239 0.112804
-0.039884 0.020256 0.112879
-0.039438 0.020300 0.113106
-0.038840 0.020265 0.112892
-0.041798 0.022111 0.123152
-0.042091 0.022579 0.125731
-0.041832 0.022760 0.126713
-0.041679 0.023005 0.128048
-0.041396 0.023184 0.129012
-0.041146 0.023388 0.130113
-0.040915 0.023608 0.131303
-0.041901 0.024548 0.136496
-0.043299 0.025763 0.143208
-0.043852 0.026506 0.147294
-0.043849 0.026930 0.149609
-0.043749 0.027309 0.151665
-0.043894 0.027855 0.154649
-0.044211 0.028531 0.158351
-0.044266 0.029058 0.161220
-0.044190 0.029516 0.163707
-0.043973 0.029895 0.165750
-0.043781 0.030305 0.167962
-0.043788 0.030870 0.171035
-0.043644 0.031348 0.173622
-0.043975 0.032192 0.178231
-0.044211 0.032998 0.182627
-0.044755 0.034072 0.188497
-0.044534 0.034594 0.191313
-0.044122 0.034986 0.193412
-0.043736 0.035417 0.195720
-0.043410 0.035917 0.198404
-0.043299 0.036619 0.202208
-0.043421 0.037555 0.207299
-0.043481 0.038480 0.212325
-0.042731 0.038716 0.213541
-0.042154 0.039123 0.215707
-0.041904 0.039861 0.219693
-0.043805 0.042736 0.235451
-0.042734 0.042786 0.235639
-0.042317 0.043511 0.239545
-0.041615 0.043976 0.242017
-0.040543 0.044065 0.242416
-0.039608 0.044313 0.243692
-0.038816 0.044740 0.245954
-0.038519 0.045782 0.251594
