ply
format ascii 1.0
element vertex 1745
property float x
property float y
property float z
end_header
-0.011564 0.073281 0.269376
-0.010216 0.072828 0.267681
-0.008967 0.073044 0.268451
-0.007640 0.072601 0.266797
-0.006363 0.072541 0.266554
-0.005087 0.072470 0.266271
-0.003812 0.072374 0.265899
-0.002543 0.072358 0.265825
-0.001269 0.071991 0.264464
-0.000007 0.072430 0.266061
0.001269 0.072776 0.267322
0.002529 0.072347 0.265739
0.003864 0.073617 0.270397
0.005195 0.074202 0.272543
0.006211 0.070954 0.260610
0.007405 0.070471 0.258836
0.008606 0.070190 0.257807
0.009839 0.070213 0.257896
0.011058 0.070132 0.257606
0.012296 0.070184 0.257803
0.013550 0.070304 0.258257
0.014817 0.070467 0.258868
0.016052 0.070465 0.258873
0.017308 0.070549 0.259196
0.018575 0.070662 0.259630
0.019973 0.071227 0.261726
0.021347 0.071646 0.263287
0.023587 0.074762 0.274759
0.024886 0.074726 0.274654
0.024492 0.069864 0.256809
0.025418 0.069049 0.253839
0.026654 0.069114 0.254107
0.027855 0.069084 0.254025
0.029045 0.069032 0.253863
0.030297 0.069126 0.254241
0.031553 0.069220 0.254621
0.032786 0.069260 0.254801
0.034025 0.069307 0.255009
0.035219 0.069264 0.254889
0.036415 0.069226 0.254785
0.037728 0.069408 0.255492
0.040303 0.071826 0.264433
0.041530 0.071768 0.264259
0.042456 0.071208 0.262237
0.043576 0.070995 0.261495
0.044473 0.070443 0.259501
0.045369 0.069918 0.257608
0.046341 0.069534 0.256237
0.047242 0.069067 0.254554
0.048478 0.069100 0.254716
0.049640 0.069029 0.254497
0.050983 0.069207 0.255192
0.052608 0.069749 0.257232
0.054063 0.070048 0.258374
0.055587 0.070420 0.259787
0.057154 0.070830 0.261337
0.059201 0.071804 0.264970
0.060986 0.072426 0.267303
0.062466 0.072667 0.268231
0.063888 0.072833 0.268882
0.065308 0.072990 0.269494
0.066471 0.072860 0.269048
0.067768 0.072878 0.269147
0.069144 0.072978 0.269548
0.070378 0.072928 0.269392
0.071820 0.073091 0.270022
0.072961 0.072948 0.269517
0.073869 0.072581 0.268183
0.075036 0.072476 0.267815
0.076006 0.072187 0.266768
0.076625 0.071580 0.264539
0.077949 0.071641 0.264776
0.078804 0.071275 0.263434
0.079802 0.071048 0.262599
0.081336 0.071298 0.263526
0.082559 0.071271 0.263427
0.084463 0.071825 0.265470
0.085984 0.072041 0.266263
0.087762 0.072464 0.267812
0.097634 0.079461 0.293655
0.098905 0.079359 0.293257
0.098178 0.077679 0.287026
0.099900 0.077957 0.288021
0.101311 0.077987 0.288098
0.102984 0.078216 0.288904
0.104116 0.078033 0.288182
0.105403 0.077970 0.287894
0.107007 0.078139 0.288462
0.108524 0.078242 0.288777
0.109900 0.078241 0.288703
0.111085 0.078106 0.288129
0.112537 0.078159 0.288243
0.114006 0.078223 0.288387
0.115527 0.078321 0.288650
0.116792 0.078245 0.288264
0.118139 0.078225 0.288075
0.119735 0.078368 0.288482
0.121153 0.078392 0.288442
0.122632 0.078455 0.288536
0.124035 0.078469 0.288438
0.125808 0.078713 0.289178
0.127121 0.078668 0.288846
0.128498 0.078663 0.288650
0.130128 0.078811 0.289006
0.131550 0.078830 0.288880
0.132995 0.078863 0.288792
0.134507 0.078935 0.288835
0.136364 0.079206 0.289592
0.137816 0.079238 0.289464
0.139230 0.079248 0.289244
0.140715 0.079297 0.289153
0.142364 0.079437 0.289378
0.144290 0.079727 0.290135
0.145956 0.079869 0.290338
0.147853 0.080134 0.290969
0.149339 0.080173 0.290764
0.150732 0.080161 0.290359
0.152386 0.080287 0.290436
0.153732 0.080250 0.289905
-0.046175 0.023986 0.085808
-0.045895 0.024054 0.086166
-0.045476 0.024051 0.086261
-0.045025 0.024030 0.086289
-0.046413 0.025713 0.092722
-0.042325 0.027655 0.100749
-0.042933 0.028370 0.103391
-0.042501 0.028407 0.103559
-0.041222 0.027873 0.101641
-0.041623 0.028474 0.103863
-0.041464 0.030516 0.111444
-0.040994 0.030557 0.111606
-0.040724 0.030749 0.112321
-0.040745 0.031169 0.113863
-0.040338 0.031269 0.114236
-0.039721 0.031206 0.114010
-0.041176 0.032792 0.119809
-0.041457 0.033473 0.122301
-0.041083 0.033638 0.122903
-0.041045 0.034087 0.124540
-0.040729 0.034313 0.125365
-0.040398 0.034534 0.126166
-0.040284 0.034950 0.127680
-0.040691 0.035838 0.130912
-0.041330 0.036960 0.134999
-0.041328 0.037535 0.137089
-0.042405 0.039124 0.142877
-0.040396 0.037871 0.138284
-0.039833 0.037955 0.138572
-0.040297 0.039036 0.142500
-0.056422 0.056538 0.206333
-0.055520 0.056609 0.206558
-0.055021 0.057102 0.208319
-0.055039 0.058158 0.212135
-0.054583 0.058743 0.214229
-0.053841 0.059037 0.215260
-0.053400 0.059678 0.217557
-0.052354 0.059655 0.217430
-0.051275 0.059594 0.217160
-0.050494 0.059882 0.218164
-0.049692 0.060158 0.219122
-0.048864 0.060413 0.220004
-0.048070 0.060722 0.221081
-0.047180 0.060921 0.221754
-0.046356 0.061215 0.222775
-0.045438 0.061398 0.223388
-0.044557 0.061639 0.224214
-0.043669 0.061883 0.225050
-0.042745 0.062087 0.225741
-0.041927 0.062459 0.227038
-0.041327 0.063184 0.229619
-0.041121 0.064566 0.234588
-0.047299 0.078509 0.285112
-0.045873 0.078380 0.284577
-0.044553 0.078428 0.284689
-0.043225 0.078468 0.284766
-0.041862 0.078443 0.284613
-0.040420 0.078264 0.283898
-0.040197 0.080513 0.291993
-0.037997 0.078824 0.285804
-0.036192 0.077857 0.282238
-0.034493 0.077056 0.279275
-0.030830 0.071626 0.259541
-0.029211 0.070689 0.256094
-0.028036 0.070794 0.256425
-0.026894 0.070997 0.257109
-0.025609 0.070820 0.256420
-0.024419 0.070905 0.256683
-0.023204 0.070922 0.256698
-0.022005 0.070990 0.256899
-0.020794 0.071026 0.256988
-0.019696 0.071480 0.258587
-0.018544 0.071785 0.259650
-0.017522 0.072669 0.262809
-0.016237 0.072516 0.262220
-0.015086 0.072990 0.263897
-0.013880 0.073257 0.264829
-0.012670 0.073554 0.265871
-0.011433 0.073743 0.266526
-0.010161 0.073723 0.266424
-0.008879 0.073619 0.266022
-0.007597 0.073488 0.265524
-0.006349 0.073690 0.266231
-0.005084 0.073746 0.266413
-0.003811 0.073686 0.266177
-0.002546 0.073790 0.266539
-0.001267 0.073335 0.264878
-0.000004 0.073655 0.266023
0.001272 0.074092 0.267591
0.002523 0.073349 0.264899
0.003882 0.075196 0.271563
0.005190 0.075379 0.272220
0.006192 0.071938 0.259792
0.007372 0.071365 0.257722
0.008577 0.071159 0.256981
0.009797 0.071113 0.256820
0.011044 0.071253 0.257332
0.012284 0.071324 0.257593
0.013540 0.071468 0.258122
0.014781 0.071514 0.258301
0.016043 0.071646 0.258789
0.017295 0.071715 0.259055
0.018513 0.071647 0.258827
0.020032 0.072678 0.262569
0.021604 0.073769 0.266531
0.023213 0.074857 0.270483
0.024485 0.074802 0.270309
0.025621 0.074354 0.268718
0.026595 0.073504 0.265672
0.027644 0.072928 0.263617
0.028781 0.072625 0.262551
0.029917 0.072345 0.261567
0.031137 0.072280 0.261363
0.032300 0.072093 0.260722
0.033568 0.072147 0.260950
0.034771 0.072062 0.260676
0.036024 0.072082 0.260784
0.037458 0.072451 0.262156
0.038454 0.071976 0.260474
0.040496 0.073428 0.265768
0.041717 0.073348 0.265517
0.042218 0.072044 0.260835
0.043463 0.072047 0.260882
0.044383 0.071527 0.259039
0.045285 0.071006 0.257193
0.046295 0.070679 0.256045
0.047271 0.070315 0.254768
0.048402 0.070197 0.254376
0.049654 0.070254 0.254621
0.050955 0.070377 0.255107
0.052505 0.070829 0.256784
0.054039 0.071240 0.258310
0.055477 0.071508 0.259321
0.057094 0.071991 0.261107
0.059141 0.072983 0.264744
0.060722 0.073372 0.266188
0.062286 0.073724 0.267502
0.063784 0.073985 0.268483
0.065200 0.074143 0.269088
0.066450 0.074109 0.268995
0.067830 0.074219 0.269424
0.069143 0.074253 0.269577
0.070571 0.074406 0.270159
0.071436 0.073972 0.268605
0.072859 0.074120 0.269164
0.073580 0.073561 0.267154
0.074557 0.073273 0.266125
0.075864 0.073312 0.266281
0.076525 0.072737 0.264205
0.077311 0.072297 0.262617
0.078416 0.072164 0.262141
0.079547 0.072059 0.261764
0.080554 0.071847 0.260991
0.082209 0.072211 0.262309
0.084048 0.072722 0.264159
0.084493 0.072030 0.261636
0.087031 0.073116 0.265566
0.096498 0.079909 0.290220
0.097755 0.079808 0.289827
0.098839 0.079570 0.288935
0.099813 0.079251 0.287742
0.101331 0.079367 0.288125
0.102848 0.079479 0.288487
0.103947 0.079269 0.287675
0.105398 0.079330 0.287838
0.106770 0.079330 0.287777
0.108458 0.079562 0.288551
0.109730 0.079486 0.288202
0.111047 0.079445 0.287972
0.112514 0.079511 0.288121
0.114034 0.079611 0.288392
0.115302 0.079536 0.288018
0.116709 0.079557 0.287982
0.118212 0.079643 0.288175
0.119617 0.079661 0.288114
0.121060 0.079702 0.288131
0.122492 0.079737 0.288113
0.123905 0.079758 0.288037
0.125538 0.079919 0.288456
0.127087 0.080023 0.288661
0.128360 0.079953 0.288227
0.129846 0.080015 0.288259
0.131330 0.080076 0.288273
0.132890 0.080180 0.288436
0.134626 0.080387 0.288955
0.136135 0.080456 0.288966
0.138314 0.080916 0.290364
0.139321 0.080687 0.289279
0.140850 0.080762 0.289272
0.142506 0.080908 0.289502
0.144206 0.081075 0.289795
0.145910 0.081241 0.290069
0.148118 0.081682 0.291303
0.149496 0.081661 0.290874
0.150666 0.081528 0.290031
0.152166 0.081574 0.289807
0.153763 0.081671 0.289746
-0.045946 0.024278 0.085322
-0.045575 0.024299 0.085508
-0.045481 0.024468 0.086213
-0.045223 0.024552 0.086613
-0.046525 0.025973 0.091928
-0.046509 0.026210 0.092862
-0.041865 0.027826 0.099629
-0.042153 0.028336 0.101489
-0.042463 0.028872 0.103446
-0.041626 0.028631 0.102616
-0.038477 0.028807 0.103406
-0.040899 0.031012 0.111338
-0.040802 0.031340 0.112528
-0.039748 0.030931 0.111070
-0.040542 0.031969 0.114808
-0.040414 0.032299 0.115998
-0.041571 0.033678 0.120956
-0.041032 0.033702 0.121046
-0.041371 0.034458 0.123764
-0.041002 0.034639 0.124411
-0.040961 0.035104 0.126082
-0.040337 0.035078 0.125983
-0.040169 0.035453 0.127323
-0.039928 0.035773 0.128467
-0.041444 0.037702 0.135383
-0.041547 0.038385 0.137826
-0.041994 0.039413 0.141504
-0.041232 0.039322 0.141160
-0.056227 0.054500 0.195627
-0.056391 0.055569 0.199441
-0.055522 0.055639 0.199665
-0.056090 0.057176 0.205151
-0.055561 0.057630 0.206748
-0.055042 0.058110 0.208435
-0.054417 0.058493 0.209776
-0.053883 0.058991 0.211524
-0.053113 0.059244 0.212395
-0.052333 0.059496 0.213256
-0.051461 0.059651 0.213771
-0.050643 0.059876 0.214534
-0.049834 0.060119 0.215365
-0.049130 0.060504 0.216699
-0.048594 0.061117 0.218847
-0.047896 0.061546 0.220338
-0.047020 0.061762 0.221063
-0.046197 0.062060 0.222081
-0.045345 0.062331 0.223001
-0.044382 0.062459 0.223407
-0.043487 0.062691 0.224188
-0.042572 0.062905 0.224902
-0.041808 0.063358 0.226471
-0.041091 0.063909 0.228388
-0.040840 0.065235 0.233075
-0.048530 0.079669 0.284583
-0.047226 0.079743 0.284781
-0.045908 0.079796 0.284906
-0.044585 0.079843 0.285010
-0.043295 0.079954 0.285343
-0.041967 0.079999 0.285443
-0.040096 0.078980 0.281744
-0.040143 0.081796 0.291727
-0.037581 0.079309 0.282796
-0.036351 0.079555 0.283614
-0.034454 0.078302 0.279090
-0.033154 0.078357 0.279232
-0.029219 0.071933 0.256288
-0.028024 0.071989 0.256440
-0.026910 0.072268 0.257384
-0.025581 0.071970 0.256274
-0.024349 0.071926 0.256073
-0.023133 0.071930 0.256042
-0.021946 0.072029 0.256350
-0.020759 0.072139 0.256702
-0.019650 0.072553 0.258133
-0.018498 0.072850 0.259153
-0.017434 0.073564 0.261655
-0.016183 0.073535 0.261513
-0.015068 0.074172 0.263744
-0.013822 0.074225 0.263899
-0.012647 0.074704 0.265573
-0.011389 0.074744 0.265685
-0.010097 0.074549 0.264963
-0.008831 0.074507 0.264789
-0.007551 0.074326 0.264122
-0.006300 0.074408 0.264392
-0.005054 0.074611 0.265094
-0.003797 0.074748 0.265560
-0.002539 0.074942 0.266234
-0.001263 0.074575 0.264915
-0.000001 0.075192 0.267095
0.001279 0.075563 0.268402
0.002535 0.074883 0.265979
0.003883 0.076455 0.271557
0.005178 0.076451 0.271537
0.006152 0.072667 0.258096
0.007334 0.072190 0.256400
0.008569 0.072295 0.256775
0.009801 0.072343 0.256952
0.011000 0.072173 0.256353
0.012229 0.072211 0.256495
0.013464 0.072275 0.256730
0.014695 0.072307 0.256855
0.015934 0.072369 0.257088
0.017181 0.072459 0.257420
0.018409 0.072461 0.257444
0.019925 0.073523 0.261234
0.021337 0.074100 0.263303
0.023095 0.075748 0.269182
0.024476 0.076049 0.270274
0.025744 0.075988 0.270081
0.026983 0.075853 0.269626
0.028293 0.075917 0.269882
0.029418 0.075501 0.268431
0.030501 0.075018 0.266744
0.031704 0.074856 0.266198
0.033230 0.075440 0.268307
0.033993 0.074312 0.264327
0.035482 0.074795 0.266079
0.036815 0.074928 0.266586
0.038015 0.074789 0.266127
0.039112 0.074462 0.265000
0.040438 0.074580 0.265456
0.041557 0.074319 0.264563
0.042257 0.073347 0.261141
0.043487 0.073324 0.261096
0.044462 0.072883 0.259562
0.045448 0.072485 0.258180
0.046352 0.071979 0.256414
0.047382 0.071690 0.255425
0.048562 0.071637 0.255271
0.049646 0.071448 0.254634
0.050934 0.071555 0.255052
0.052322 0.071793 0.255936
0.053690 0.071994 0.256689
0.055254 0.072443 0.258324
0.056888 0.072963 0.260213
0.058807 0.073818 0.263295
0.060496 0.074354 0.265240
0.061982 0.074624 0.266236
0.063801 0.075275 0.268590
0.065159 0.075369 0.268954
0.066473 0.075408 0.269123
0.067837 0.075502 0.269485
0.069185 0.075574 0.269768
0.070373 0.075472 0.269425
0.071615 0.075431 0.269301
0.072638 0.075164 0.268367
0.073493 0.074736 0.266854
0.074652 0.074626 0.266478
0.075581 0.074293 0.265300
0.076389 0.073855 0.263743
0.077111 0.073349 0.261943
0.078112 0.073120 0.261127
0.079062 0.072851 0.260168
0.080176 0.072739 0.259766
0.081633 0.072937 0.260465
0.083524 0.073511 0.262504
0.084260 0.073065 0.260901
0.086300 0.073748 0.263323
0.095297 0.080271 0.286588
0.096539 0.080170 0.286200
0.098002 0.080252 0.286460
0.099883 0.080670 0.287914
0.101194 0.080622 0.287699
0.102967 0.080939 0.288782
0.104065 0.080723 0.287958
0.105417 0.080708 0.287845
0.106898 0.080790 0.288072
0.108290 0.080804 0.288049
0.109847 0.080939 0.288451
0.111224 0.080939 0.288367
0.112373 0.080776 0.287695
0.114039 0.080984 0.288334
0.115320 0.080916 0.287987
0.116701 0.080920 0.287884
0.118243 0.081033 0.288165
0.119670 0.081066 0.288153
0.121084 0.081089 0.288096
0.122449 0.081080 0.287914
0.124034 0.081214 0.288233
0.125800 0.081463 0.288950
0.126982 0.081332 0.288308
0.128652 0.081513 0.288763
0.130130 0.081570 0.288767
0.131862 0.081782 0.289310
0.133149 0.081718 0.288862
0.134586 0.081746 0.288729
0.136158 0.081854 0.288866
0.137625 0.081897 0.288763
0.139412 0.082128 0.289307
0.140771 0.082104 0.288942
0.142082 0.082054 0.288468
0.143945 0.082320 0.289090
0.146033 0.082708 0.290125
0.148185 0.083124 0.291240
0.149574 0.083109 0.290825
0.151026 0.083128 0.290515
0.152518 0.083169 0.290261
0.153909 0.083154 0.289797
-0.046010 0.024725 0.085379
-0.045679 0.024767 0.085641
-0.045410 0.024845 0.086022
-0.045094 0.024898 0.086310
-0.044827 0.024979 0.086694
-0.046033 0.026382 0.091860
-0.042374 0.028643 0.100814
-0.042458 0.029025 0.102198
-0.042309 0.029255 0.103045
-0.041478 0.029013 0.102229
-0.041049 0.029051 0.102392
-0.041613 0.031683 0.111820
-0.041140 0.031724 0.111983
-0.040735 0.031819 0.112331
-0.040998 0.032446 0.114557
-0.040513 0.032488 0.114717
-0.041925 0.034074 0.120327
-0.041877 0.034501 0.121841
-0.041426 0.034603 0.122207
-0.041135 0.034843 0.123057
-0.040840 0.035087 0.123919
-0.040734 0.035503 0.125387
-0.040565 0.035874 0.126697
-0.040554 0.036399 0.128548
-0.041180 0.037521 0.132502
-0.041476 0.038371 0.135496
-0.040993 0.038516 0.135998
-0.041481 0.039593 0.139789
-0.057005 0.055287 0.195181
-0.056158 0.055357 0.195407
-0.055959 0.056079 0.197934
-0.056722 0.057806 0.204006
-0.055865 0.057914 0.204358
-0.055451 0.058492 0.206369
-0.054642 0.058666 0.206954
-0.054253 0.059307 0.209182
-0.053709 0.059798 0.210880
-0.053135 0.060274 0.212522
-0.052184 0.060333 0.212693
-0.051267 0.060435 0.213012
-0.050446 0.060655 0.213747
-0.049571 0.060819 0.214283
-0.048727 0.061027 0.214976
-0.048091 0.061511 0.216636
-0.047537 0.062123 0.218748
-0.046916 0.062673 0.220639
-0.045990 0.062832 0.221151
-0.045094 0.063038 0.221831
-0.044240 0.063316 0.222761
-0.043316 0.063505 0.223378
-0.042416 0.063739 0.224150
-0.041529 0.064004 0.225036
-0.040882 0.064666 0.227310
-0.049544 0.080482 0.282847
-0.048251 0.080557 0.283049
-0.047175 0.081010 0.284578
-0.045896 0.081131 0.284939
-0.044555 0.081146 0.284932
-0.043281 0.081286 0.285363
-0.041977 0.081381 0.285633
-0.040515 0.081162 0.284806
-0.040113 0.083126 0.291638
-0.037720 0.080957 0.283970
-0.036240 0.080661 0.282874
-0.034630 0.080040 0.280639
-0.033322 0.080096 0.280781
-0.029283 0.073319 0.256974
-0.027945 0.073011 0.255847
-0.026935 0.073569 0.257753
-0.025558 0.073133 0.256179
-0.024272 0.072922 0.255398
-0.023090 0.073022 0.255703
-0.021914 0.073151 0.256114
-0.020773 0.073422 0.257021
-0.019648 0.073785 0.258254
-0.018472 0.073990 0.258934
-0.017432 0.074814 0.261779
-0.016180 0.074779 0.261622
-0.015039 0.075298 0.263403
-0.013812 0.075441 0.263872
-0.012582 0.075598 0.264389
-0.011302 0.075452 0.263851
-0.010026 0.075299 0.263289
-0.008778 0.075343 0.263416
-0.007473 0.074832 0.261607
-0.006239 0.074974 0.262083
-0.005013 0.075317 0.263260
-0.003760 0.075329 0.263286
-0.002520 0.075743 0.264717
-0.001259 0.075767 0.264786
0.000002 0.076157 0.266138
0.001275 0.076439 0.267113
0.002530 0.075885 0.265169
0.003845 0.076913 0.268755
0.005125 0.076909 0.268735
0.006053 0.072672 0.253928
0.007272 0.072762 0.254241
0.008520 0.073068 0.255311
0.009716 0.072907 0.254752
0.010956 0.073082 0.255370
0.012179 0.073117 0.255499
0.013416 0.073217 0.255857
0.014645 0.073267 0.256040
0.015943 0.073624 0.257298
0.017160 0.073580 0.257158
0.018328 0.073351 0.256373
0.020083 0.075351 0.263380
0.021736 0.076753 0.268301
0.023409 0.078066 0.272909
0.024720 0.078100 0.273049
0.025901 0.077738 0.271809
0.027253 0.077898 0.272392
0.028403 0.077493 0.271003
0.029633 0.077333 0.270469
0.030748 0.076898 0.268979
0.031981 0.076780 0.268593
0.033181 0.076597 0.267985
0.034464 0.076609 0.268059
0.035737 0.076601 0.268062
0.037021 0.076615 0.268143
0.038097 0.076213 0.266771
0.038975 0.075452 0.264140
0.040202 0.075394 0.263972
0.041299 0.075102 0.262984
0.042009 0.074146 0.259671
0.043208 0.074081 0.259477
0.044185 0.073650 0.258003
0.045277 0.073429 0.257264
0.046290 0.073095 0.256130
0.047452 0.073007 0.255854
0.048490 0.072738 0.254947
0.049656 0.072668 0.254736
0.050993 0.072846 0.255393
0.052377 0.073081 0.256253
0.053570 0.073046 0.256164
0.055025 0.073360 0.257297
0.056571 0.073780 0.258801
0.058531 0.074712 0.262100
0.060170 0.075201 0.263848
0.061793 0.075652 0.265461
0.063520 0.076210 0.267445
0.064947 0.076392 0.268112
0.066385 0.076579 0.268796
0.067652 0.076567 0.268775
0.069114 0.076771 0.269516
0.070137 0.076489 0.268545
0.071607 0.076696 0.269289
0.072252 0.076027 0.266958
0.073334 0.075834 0.266293
0.074338 0.075567 0.265367
0.074812 0.074780 0.262611
0.075798 0.074522 0.261711
0.076523 0.074019 0.259947
0.077132 0.073422 0.257853
0.078356 0.073420 0.257842
0.079136 0.073008 0.256389
0.079987 0.072673 0.255206
0.081385 0.072838 0.255769
0.082802 0.073014 0.256374
0.083185 0.072288 0.253801
0.095174 0.081522 0.286195
0.096416 0.081420 0.285808
0.098017 0.081621 0.286474
0.099633 0.081828 0.287160
0.101462 0.082202 0.288424
0.102923 0.082271 0.288615
0.104189 0.082185 0.288255
0.105542 0.082169 0.288135
0.106876 0.082138 0.287958
0.108483 0.082316 0.288505
0.109859 0.082316 0.288420
0.111185 0.082278 0.288199
0.112497 0.082232 0.287941
0.113981 0.082310 0.288112
0.115229 0.082219 0.287679
0.116746 0.082319 0.287910
0.118222 0.082388 0.288026
0.119446 0.082281 0.287518
0.120922 0.082349 0.287611
0.122750 0.082652 0.288516
0.123946 0.082528 0.287920
0.125523 0.082657 0.288198
0.127090 0.082777 0.288433
0.128390 0.082722 0.288050
0.130193 0.082988 0.288775
0.131489 0.082929 0.288356
0.135067 0.084296 0.292879
0.134646 0.083164 0.288709
0.136111 0.083209 0.288615
0.138432 0.083770 0.290296
0.139461 0.083545 0.289243
0.140818 0.083520 0.288866
0.142430 0.083645 0.288995
0.144067 0.083782 0.289150
0.146087 0.084137 0.290039
0.148259 0.084572 0.291185
0.149773 0.084626 0.291002
0.151079 0.084563 0.290400
0.152793 0.084727 0.290560
0.154199 0.084719 0.290110
-0.045926 0.025091 0.085158
-0.045696 0.025190 0.085611
-0.045446 0.025279 0.086029
-0.045051 0.025289 0.086170
-0.045011 0.025500 0.086992
-0.045521 0.026030 0.088902
-0.045697 0.026627 0.091138
-0.041932 0.028817 0.099734
-0.043066 0.029932 0.103634
-0.042745 0.030050 0.104083
-0.040780 0.029001 0.100484
-0.040743 0.029315 0.101607
-0.041494 0.032119 0.111486
-0.041022 0.032161 0.111648
-0.040525 0.032183 0.111741
-0.040153 0.032307 0.112185
-0.041372 0.033731 0.117142
-0.041880 0.034606 0.120192
-0.041677 0.034909 0.121254
-0.040977 0.034799 0.120877
-0.040847 0.035176 0.122193
-0.040565 0.035432 0.123084
-0.041301 0.036598 0.127134
-0.040932 0.036803 0.127846
-0.041278 0.037668 0.130848
-0.041458 0.038404 0.133400
-0.040269 0.037876 0.131559
-0.041472 0.039617 0.137598
-0.056936 0.055251 0.191886
-0.056103 0.055320 0.192111
-0.056930 0.057055 0.198115
-0.056153 0.057213 0.198645
-0.056657 0.058703 0.203796
-0.055925 0.058943 0.204604
-0.055244 0.059246 0.205630
-0.054392 0.059373 0.206040
-0.053782 0.059773 0.207400
-0.053316 0.060352 0.209376
-0.052436 0.060475 0.209769
-0.051519 0.060559 0.210026
-0.050829 0.060919 0.211236
-0.050358 0.061561 0.213424
-0.049600 0.061870 0.214458
-0.048755 0.062082 0.215151
-0.047912 0.062305 0.215883
-0.047198 0.062710 0.217245
-0.046515 0.063176 0.218814
-0.045678 0.063447 0.219710
-0.044876 0.063783 0.220827
-0.044072 0.064130 0.221985
-0.043130 0.064289 0.222487
-0.042297 0.064622 0.223593
-0.041548 0.065104 0.225213
-0.040928 0.065820 0.227641
-0.048492 0.082314 0.284567
-0.047188 0.082388 0.284765
-0.045915 0.082522 0.285165
-0.044603 0.082592 0.285349
-0.043302 0.082687 0.285617
-0.041997 0.082782 0.285886
-0.040311 0.082105 0.283492
-0.040048 0.084380 0.291286
-0.038265 0.083503 0.288201
-0.036345 0.082248 0.283814
-0.034766 0.081699 0.281867
-0.030696 0.075019 0.258771
-0.029125 0.074146 0.255712
-0.027820 0.073901 0.254819
-0.026822 0.074490 0.256804
-0.025518 0.074241 0.255902
-0.024293 0.074212 0.255757
-0.023147 0.074431 0.256472
-0.021990 0.074638 0.257142
-0.020833 0.074870 0.257901
-0.019726 0.075322 0.259421
-0.018517 0.075421 0.259723
-0.017413 0.075988 0.261639
-0.016143 0.075868 0.261192
-0.014953 0.076131 0.262064
-0.013750 0.076370 0.262855
-0.012475 0.076220 0.262309
-0.011228 0.076226 0.262302
-0.009974 0.076176 0.262104
-0.008707 0.076009 0.261507
-0.007440 0.075780 0.260694
-0.006217 0.075997 0.261422
-0.004996 0.076351 0.262619
-0.003749 0.076427 0.262861
-0.002515 0.076950 0.264645
-0.001256 0.077045 0.264959
0.000006 0.077814 0.267590
0.001280 0.077812 0.267573
0.002517 0.076652 0.263575
0.003855 0.078346 0.269396
0.005143 0.078410 0.269611
0.006441 0.078579 0.270187
0.007255 0.073760 0.253618
0.008480 0.073905 0.254117
0.009746 0.074326 0.255569
0.010914 0.073994 0.254429
0.012138 0.074061 0.254666
0.013383 0.074240 0.255289
0.014629 0.074387 0.255805
0.015802 0.074173 0.255078
0.017081 0.074448 0.256037
0.018314 0.074501 0.256233
0.020636 0.078700 0.270691
0.021853 0.078438 0.269808
0.023135 0.078426 0.269785
0.024397 0.078351 0.269551
0.025422 0.077559 0.266846
0.026580 0.077230 0.265737
0.027570 0.076465 0.263129
0.028561 0.075769 0.260760
0.029650 0.075379 0.259442
0.030777 0.075112 0.258552
0.031923 0.074911 0.257886
0.033269 0.075177 0.258832
0.034469 0.075107 0.258618
0.036000 0.075737 0.260818
0.037409 0.076076 0.262019
0.038690 0.076141 0.262272
0.039895 0.076057 0.262017
0.041174 0.076116 0.262253
0.041897 0.075173 0.259036
0.043076 0.075078 0.258743
0.043954 0.074480 0.256716
0.044996 0.074184 0.255726
0.046207 0.074174 0.255726
0.047212 0.073842 0.254613
0.048361 0.073746 0.254315
0.049534 0.073692 0.254159
0.050797 0.073770 0.254461
0.052256 0.074123 0.255710
0.053622 0.074330 0.256455
0.054835 0.074321 0.256453
0.056408 0.074788 0.258096
0.058391 0.075769 0.261509
0.060412 0.076757 0.264947
0.061899 0.077039 0.265948
0.063363 0.077282 0.266813
0.064983 0.077703 0.268290
0.066349 0.077808 0.268677
0.067678 0.077868 0.268905
0.068986 0.077901 0.269040
0.070247 0.077881 0.268986
0.071283 0.077617 0.268091
0.072262 0.077300 0.267010
0.073251 0.077006 0.266003
0.074012 0.076485 0.264213
0.074476 0.075680 0.261437
0.075274 0.075234 0.259902
0.075978 0.074712 0.258098
0.076767 0.074288 0.256630
0.078008 0.074307 0.256690
0.079154 0.074238 0.256440
0.080453 0.074311 0.256681
0.081591 0.074235 0.256401
0.082623 0.074067 0.255802
0.084298 0.074471 0.257173
0.094883 0.082623 0.285295
0.096123 0.082521 0.284909
0.098343 0.083253 0.287392
0.099755 0.083289 0.287472
0.101212 0.083361 0.287670
0.102839 0.083570 0.288335
0.104210 0.083567 0.288263
0.105794 0.083733 0.288768
0.106985 0.083589 0.288194
0.108394 0.083615 0.288204
0.109864 0.083687 0.288367
0.111093 0.083577 0.287892
0.112361 0.083497 0.287518
0.113978 0.083676 0.288024
0.115237 0.083591 0.287615
0.116892 0.083792 0.288183
0.118315 0.083823 0.288158
0.119949 0.084001 0.288630
0.121276 0.083963 0.288349
0.122782 0.084048 0.288483
0.124246 0.084103 0.288504
0.125729 0.084168 0.288552
0.127233 0.084247 0.288634
0.128739 0.084325 0.288703
0.130078 0.084293 0.288386
0.131548 0.084345 0.288344
0.133357 0.084612 0.289023
0.135001 0.084770 0.289318
0.136204 0.084649 0.288651
0.137666 0.084691 0.288525
0.139369 0.084878 0.288880
0.140789 0.084891 0.288628
0.141892 0.084714 0.287718
0.144886 0.085659 0.290599
0.146976 0.086056 0.291601
0.148663 0.086211 0.291767
0.150106 0.086224 0.291433
0.151648 0.086292 0.291268
0.153128 0.086324 0.290962
0.154491 0.086290 0.290417
-0.045813 0.025440 0.084881
-0.045500 0.025494 0.085179
-0.045307 0.025616 0.085703
-0.045122 0.025744 0.086244
-0.045279 0.026073 0.087452
-0.045350 0.026357 0.088509
-0.045208 0.026522 0.089163
-0.045085 0.026701 0.089862
-0.042358 0.029587 0.100718
-0.042916 0.030317 0.103246
-0.042801 0.030583 0.104191
-0.041722 0.030157 0.102780
-0.040811 0.029846 0.101753
-0.040249 0.029784 0.101575
-0.041120 0.030795 0.105053
-0.040310 0.030556 0.104265
-0.040023 0.030713 0.104824
-0.040132 0.031181 0.106445
-0.041124 0.032355 0.110477
-0.041386 0.032978 0.112624
-0.040990 0.033086 0.113011
-0.040004 0.032715 0.111757
-0.041368 0.034281 0.117121
-0.041250 0.034645 0.118375
-0.041521 0.035349 0.120792
-0.040965 0.035360 0.120837
-0.040938 0.035833 0.122461
-0.040744 0.036173 0.123625
-0.041041 0.036964 0.126332
-0.041162 0.037617 0.128566
-0.041779 0.038750 0.132436
-0.041618 0.039185 0.133919
-0.041039 0.039234 0.134083
-0.057200 0.057327 0.195881
-0.058149 0.059233 0.202377
-0.057289 0.059329 0.202683
-0.056571 0.059577 0.203511
-0.055733 0.059705 0.203927
-0.054960 0.059910 0.204602
-0.054336 0.060286 0.205861
-0.053666 0.060624 0.206986
-0.052936 0.060907 0.207921
-0.052204 0.061197 0.208880
-0.051393 0.061403 0.209551
-0.050637 0.061685 0.210481
-0.049882 0.061980 0.211449
-0.049257 0.062451 0.213022
-0.048502 0.062775 0.214086
-0.047841 0.063235 0.215619
-0.047084 0.063587 0.216776
-0.046280 0.063889 0.217767
-0.045533 0.064286 0.219075
-0.044679 0.064545 0.219916
-0.043907 0.064940 0.221219
-0.042974 0.065109 0.221750
-0.042059 0.065316 0.222409
-0.041223 0.065657 0.223525
-0.040800 0.066693 0.227007
-0.048911 0.082112 0.279431
-0.047634 0.082187 0.279630
-0.047271 0.083890 0.285368
-0.046015 0.084062 0.285892
-0.044725 0.084181 0.286241
-0.043359 0.084159 0.286108
-0.042081 0.084312 0.286569
-0.040374 0.083587 0.284051
-0.039059 0.083652 0.284216
-0.037648 0.083510 0.283678
-0.036159 0.083175 0.282487
-0.034757 0.083025 0.281925
-0.033444 0.083082 0.282067
-0.029452 0.076214 0.258702
-0.027830 0.075147 0.255033
-0.026724 0.075440 0.255983
-0.025611 0.075742 0.256965
-0.024338 0.075575 0.256358
-0.023099 0.075503 0.256070
-0.022013 0.075952 0.257554
-0.020866 0.076227 0.258448
-0.019718 0.076537 0.259461
-0.018542 0.076770 0.260213
-0.017382 0.077111 0.261333
-0.016126 0.077043 0.261071
-0.014947 0.077360 0.262112
-0.013694 0.077322 0.261951
-0.012390 0.076962 0.260703
-0.011186 0.077204 0.261495
-0.009906 0.076926 0.260529
-0.008635 0.076638 0.259531
-0.007413 0.076770 0.259956
-0.006193 0.076983 0.260655
-0.004978 0.077370 0.261948
-0.003739 0.077535 0.262489
-0.002503 0.077944 0.263857
-0.001250 0.078129 0.264471
0.000009 0.078349 0.265203
0.001278 0.078762 0.266589
0.002548 0.078769 0.266607
0.003816 0.078746 0.266522
0.005138 0.079561 0.269274
0.006434 0.079732 0.269850
0.007763 0.080191 0.271403
0.009181 0.081298 0.275148
0.010539 0.081668 0.276405
0.011803 0.081305 0.275178
0.013114 0.081310 0.275202
0.014444 0.081417 0.275572
0.015751 0.081386 0.275478
0.017021 0.081184 0.274803
0.018243 0.080802 0.273522
0.019466 0.080470 0.272413
0.020605 0.079857 0.270354
0.021802 0.079523 0.269240
0.023066 0.079461 0.269048
0.024241 0.079115 0.267895
0.025228 0.078217 0.264877
0.026387 0.077916 0.263878
0.027378 0.077167 0.261362
0.028307 0.076315 0.258500
0.029448 0.076082 0.257738
0.030513 0.075680 0.256401
0.031575 0.075301 0.255141
0.032835 0.075405 0.255522
0.034043 0.075386 0.255484
0.035524 0.075953 0.257433
0.037017 0.076504 0.259331
0.038404 0.076809 0.260396
0.039842 0.077194 0.261731
0.041158 0.077326 0.262209
0.042300 0.077133 0.261586
0.043360 0.076807 0.260511
0.043940 0.075671 0.256689
0.044958 0.075328 0.255559
0.046187 0.075350 0.255663
0.047140 0.074932 0.254275
0.048379 0.074978 0.254462
0.049449 0.074765 0.253770
0.050711 0.074847 0.254076
0.052083 0.075082 0.254903
0.053314 0.075108 0.255019
0.054589 0.075194 0.255338
0.056127 0.075630 0.256849
0.058273 0.076849 0.261014
0.060234 0.077779 0.264199
0.061910 0.078310 0.266027
0.063321 0.078491 0.266665
0.065008 0.079001 0.268418
0.066496 0.079254 0.269298
0.067873 0.079367 0.269701
0.069102 0.079306 0.269509
0.070290 0.079201 0.269167
0.071218 0.078812 0.267857
0.071930 0.078201 0.265793
0.072965 0.077958 0.264974
0.073762 0.077472 0.263327
0.074048 0.076474 0.259937
0.074720 0.075901 0.257990
0.075524 0.075479 0.256553
0.076521 0.075259 0.255800
0.077685 0.075208 0.255619
0.078933 0.075240 0.255712
0.080129 0.075220 0.255630
0.081780 0.075622 0.256978
0.082711 0.075357 0.256052
0.084568 0.075930 0.257972
0.086165 0.076257 0.259053
0.094710 0.082637 0.280687
0.097885 0.084218 0.286015
0.099523 0.084453 0.286760
0.101199 0.084712 0.287587
0.102886 0.084974 0.288416
0.104422 0.085106 0.288795
0.105941 0.085220 0.289111
0.107194 0.085121 0.288695
0.108554 0.085107 0.288562
0.109867 0.085057 0.288303
0.111253 0.085065 0.288231
0.112600 0.085042 0.288048
0.114249 0.085246 0.288625
0.115555 0.085191 0.288319
0.117068 0.085289 0.288520
0.118364 0.085228 0.288178
0.119721 0.085212 0.287977
0.121478 0.085477 0.288721
0.122888 0.085495 0.288618
0.124259 0.085486 0.288414
0.125878 0.085646 0.288770
0.127351 0.085703 0.288770
0.128596 0.085608 0.288246
0.130316 0.085828 0.288770
0.132050 0.086052 0.289297
0.133593 0.086147 0.289382
0.134920 0.086103 0.288983
0.136625 0.086299 0.289377
0.137933 0.086242 0.288910
0.139567 0.086388 0.289112
0.141068 0.086450 0.289013
0.142556 0.086502 0.288871
0.144377 0.086753 0.289377
0.146440 0.087144 0.290329
0.149047 0.087848 0.292304
0.150426 0.087820 0.291827
0.152039 0.087929 0.291785
0.153460 0.087926 0.291351
0.154864 0.087913 0.290868
-0.045543 0.025699 0.084313
-0.045361 0.025826 0.084852
-0.045154 0.025941 0.085348
-0.044998 0.026088 0.085944
-0.044817 0.026224 0.086499
-0.044537 0.026302 0.086863
-0.044264 0.026387 0.087245
-0.045780 0.027551 0.091190
-0.042307 0.029696 0.099403
-0.042403 0.030097 0.100793
-0.042610 0.030587 0.102478
-0.042065 0.030542 0.102371
-0.040991 0.030107 0.100953
-0.040250 0.029911 0.100329
-0.041121 0.030921 0.103753
-0.040065 0.030861 0.103611
-0.039913 0.031123 0.104516
-0.041950 0.033119 0.111247
-0.041946 0.033535 0.112667
-0.041552 0.033646 0.113061
-0.040961 0.033597 0.112918
-0.041048 0.034111 0.114661
-0.041100 0.034609 0.116352
-0.041151 0.035120 0.118083
-0.041037 0.035501 0.119376
-0.040661 0.035665 0.119935
-0.041195 0.036641 0.123225
-0.042753 0.038570 0.129718
-0.042779 0.039151 0.131679
-0.041949 0.038956 0.131024
-0.041437 0.039054 0.131354
-0.046593 0.044578 0.149931
-0.057990 0.060026 0.201840
-0.057233 0.060229 0.202507
-0.056496 0.060460 0.203265
-0.055558 0.060480 0.203311
-0.054911 0.060824 0.204445
-0.054197 0.061103 0.205362
-0.053549 0.061469 0.206566
-0.052864 0.061806 0.207671
-0.052057 0.062011 0.208328
-0.051318 0.062305 0.209285
-0.050466 0.062471 0.209811
-0.049762 0.062830 0.210986
-0.049064 0.063213 0.212236
-0.048416 0.063677 0.213757
-0.047676 0.064036 0.214926
-0.046872 0.064324 0.215856
-0.046116 0.064693 0.217052
-0.045388 0.065118 0.218438
-0.044561 0.065417 0.219401
-0.043728 0.065722 0.220382
-0.042883 0.066023 0.221349
-0.042002 0.066282 0.222174
-0.041314 0.066868 0.224094
-0.040618 0.067469 0.226066
-0.048822 0.083287 0.279013
-0.048527 0.085083 0.284972
-0.047228 0.085171 0.285211
-0.045956 0.085313 0.285630
-0.044659 0.085418 0.285925
-0.043310 0.085424 0.285890
-0.041995 0.085501 0.286094
-0.040247 0.084674 0.283273
-0.039266 0.085457 0.285837
-0.037940 0.085521 0.285997
-0.036133 0.084462 0.282404
-0.034736 0.084319 0.281876
-0.033691 0.085054 0.284280
-0.029585 0.077801 0.259992
-0.028123 0.077171 0.257843
-0.027079 0.077685 0.259517
-0.025756 0.077406 0.258542
-0.024468 0.077214 0.257861
-0.023267 0.077287 0.258062
-0.022064 0.077363 0.258278
-0.020893 0.077569 0.258926
-0.019737 0.077856 0.259847
-0.018560 0.078097 0.260616
-0.017392 0.078411 0.261630
-0.016143 0.078383 0.261503
-0.014997 0.078888 0.263158
-0.013746 0.078884 0.263112
-0.012426 0.078449 0.261633
-0.011134 0.078105 0.260462
-0.009868 0.077890 0.259718
-0.008620 0.077771 0.259299
-0.007378 0.077670 0.258940
-0.006144 0.077648 0.258845
-0.004933 0.077964 0.259880
-0.003727 0.078595 0.261968
-0.002481 0.078612 0.262009
-0.001237 0.078758 0.262482
0.000012 0.079363 0.264487
0.001280 0.079962 0.266473
0.002551 0.080036 0.266711
0.003844 0.080525 0.268335
0.005170 0.081294 0.270892
0.006468 0.081409 0.271272
0.007803 0.081861 0.272774
0.009169 0.082469 0.274800
0.010525 0.082845 0.276055
0.011787 0.082476 0.274830
0.013096 0.082482 0.274854
0.014424 0.082591 0.275223
0.015728 0.082560 0.275130
0.016996 0.082355 0.274456
0.018216 0.081967 0.273177
0.019437 0.081631 0.272069
0.020726 0.081606 0.272000
0.021768 0.080667 0.268885
0.022787 0.079753 0.265858
0.023932 0.079353 0.264541
0.025098 0.079057 0.263574
0.026296 0.078889 0.263033
0.027318 0.078228 0.260853
0.028462 0.077962 0.259985
0.029604 0.077709 0.259167
0.030727 0.077430 0.258259
0.031848 0.077168 0.257409
0.033041 0.077093 0.257187
0.034294 0.077158 0.257428
0.035677 0.077500 0.258597
0.037172 0.078055 0.260478
0.038554 0.078345 0.261473
0.039960 0.078664 0.262566
0.041507 0.079232 0.264492
0.042425 0.078602 0.262417
0.043442 0.078185 0.261056
0.043612 0.076310 0.254823
0.044529 0.075807 0.253172
0.045848 0.075997 0.253836
0.046931 0.075796 0.253192
0.048064 0.075685 0.252849
0.049279 0.075704 0.252941
0.050577 0.075846 0.253442
0.051815 0.075894 0.253630
0.053086 0.075988 0.253970
0.054270 0.075954 0.253882
0.055852 0.076469 0.255626
0.057982 0.077694 0.259747
0.060510 0.079390 0.265441
0.061786 0.079409 0.265523
0.063057 0.079420 0.265583
0.064919 0.080160 0.268077
0.066455 0.080477 0.269154
0.067718 0.080457 0.269103
0.069083 0.080558 0.269455
0.070144 0.080306 0.268622
0.070967 0.079795 0.266925
0.071977 0.079510 0.265977
0.073015 0.079264 0.265159
0.073718 0.078669 0.263171
0.073414 0.077037 0.257712
0.073958 0.076334 0.255355
0.075348 0.076512 0.255947
0.075971 0.075919 0.253953
0.077066 0.075808 0.253569
0.078285 0.075821 0.253597
0.079518 0.075846 0.253662
0.080632 0.075760 0.253351
0.081994 0.075904 0.253809
0.082972 0.075694 0.253077
0.083674 0.075243 0.251533
0.094996 0.084218 0.281496
0.097753 0.085457 0.285588
0.099630 0.085902 0.287022
0.101296 0.086156 0.287812
0.102911 0.086361 0.288431
0.104433 0.086483 0.288768
0.105667 0.086366 0.288301
0.106921 0.086268 0.287891
0.108569 0.086487 0.288531
0.109960 0.086498 0.288471
0.111468 0.086600 0.288707
0.112821 0.086579 0.288528
0.114268 0.086631 0.288582
0.115671 0.086648 0.288514
0.116997 0.086608 0.288247
0.118422 0.086641 0.288216
0.120117 0.086868 0.288820
0.121528 0.086888 0.288726
0.123103 0.087022 0.289002
0.124558 0.087070 0.288983
0.126091 0.087170 0.289127
0.127466 0.087160 0.288895
0.129046 0.087290 0.289113
0.130582 0.087386 0.289211
0.131900 0.087336 0.288815
0.133546 0.087502 0.289120
0.135190 0.087663 0.289395
0.136385 0.087533 0.288696
0.137922 0.087622 0.288709
0.140204 0.088178 0.290242
0.142023 0.088435 0.290775
0.143261 0.088328 0.290098
0.145016 0.088539 0.290449
0.146981 0.088872 0.291182
0.148927 0.089188 0.291841
0.150234 0.089119 0.291221
0.151965 0.089300 0.291399
0.153491 0.089358 0.291158
0.155156 0.089495 0.291155
-0.045541 0.026106 0.084238
-0.045335 0.026221 0.084735
-0.045073 0.026306 0.085128
-0.044747 0.026355 0.085401
-0.044738 0.026593 0.086282
-0.045322 0.027708 0.090218
-0.042563 0.030350 0.099968
-0.042141 0.030386 0.100136
-0.042393 0.030914 0.101924
-0.041668 0.030734 0.101374
-0.040761 0.030415 0.100360
-0.040365 0.030473 0.100589
-0.039986 0.030545 0.100863
-0.043147 0.033357 0.110183
-0.042681 0.033398 0.110352
-0.042285 0.033497 0.110706
-0.041998 0.033684 0.111355
-0.041761 0.033918 0.112153
-0.041061 0.033776 0.111706
-0.040642 0.033866 0.112023
-0.040543 0.034227 0.113238
-0.041170 0.035219 0.116535
-0.041814 0.036253 0.119973
-0.041579 0.036542 0.120944
-0.041452 0.036936 0.122258
-0.041824 0.037792 0.125101
-0.042450 0.038905 0.128792
-0.042458 0.039475 0.130687
-0.042593 0.040183 0.133033
-0.047969 0.045930 0.152062
-0.047313 0.045987 0.152250
-0.057589 0.060559 0.200459
-0.056945 0.060878 0.201503
-0.056236 0.061138 0.202347
-0.055327 0.061187 0.202491
-0.054596 0.061436 0.203295
-0.054035 0.061890 0.204775
-0.053500 0.062391 0.206409
-0.052751 0.062656 0.207260
-0.052013 0.062944 0.208188
-0.051225 0.063182 0.208945
-0.050365 0.063338 0.209431
-0.049648 0.063683 0.210543
-0.048972 0.064098 0.211882
-0.048307 0.064543 0.213320
-0.047543 0.064874 0.214378
-0.046651 0.065039 0.214887
-0.045965 0.065506 0.216393
-0.045095 0.065726 0.217080
-0.044365 0.066166 0.218495
-0.043531 0.066467 0.219449
-0.042784 0.066919 0.220901
-0.041924 0.067212 0.221829
-0.041487 0.068216 0.225098
-0.051014 0.086088 0.284022
-0.049718 0.086167 0.284228
-0.048739 0.086817 0.286317
-0.047294 0.086649 0.285710
-0.046065 0.086878 0.286412
-0.044726 0.086908 0.286456
-0.043355 0.086876 0.286297
-0.041995 0.086866 0.286210
-0.040147 0.085810 0.282679
-0.039319 0.086938 0.286342
-0.037991 0.087002 0.286502
-0.036337 0.086296 0.284124
-0.034844 0.085933 0.282879
-0.033633 0.086264 0.283921
-0.029422 0.078607 0.258676
-0.028163 0.078516 0.258331
-0.026951 0.078553 0.258411
-0.025714 0.078517 0.258254
-0.024424 0.078308 0.257525
-0.023219 0.078362 0.257663
-0.022049 0.078551 0.258245
-0.020891 0.078803 0.259038
-0.019790 0.079316 0.260688
-0.018599 0.079517 0.261313
-0.017434 0.079861 0.262411
-0.016163 0.079740 0.261982
-0.015056 0.080471 0.264353
-0.013812 0.080541 0.264551
-0.012383 0.079439 0.260904
-0.011130 0.079343 0.260563
-0.009876 0.079215 0.260120
-0.008583 0.078694 0.258384
-0.007345 0.078588 0.258017
-0.006130 0.078740 0.258494
-0.004933 0.079242 0.260125
-0.003702 0.079374 0.260543
-0.002449 0.078944 0.259114
-0.001234 0.080007 0.262591
0.000015 0.080401 0.263870
0.001284 0.081221 0.266554
0.002557 0.081390 0.267100
0.003840 0.081649 0.267943
0.005113 0.081629 0.267871
0.006358 0.081242 0.266598
0.007602 0.080982 0.265741
0.008870 0.081017 0.265858
0.010128 0.080957 0.265662
0.011427 0.081203 0.266473
0.012728 0.081417 0.267178
0.014058 0.081754 0.268290
0.015375 0.081969 0.269002
0.016714 0.082255 0.269952
0.018001 0.082267 0.270001
0.019224 0.082003 0.269146
0.020462 0.081830 0.268593
0.021574 0.081205 0.266556
0.022578 0.080262 0.263477
0.023696 0.079803 0.261987
0.024764 0.079234 0.260135
0.025885 0.078875 0.258976
0.027004 0.078545 0.257912
0.027882 0.077572 0.254739
0.029033 0.077411 0.254232
0.030213 0.077333 0.253997
0.031377 0.077225 0.253666
0.032488 0.076998 0.252943
0.033922 0.077524 0.254695
0.035280 0.077847 0.255782
0.036821 0.078539 0.258080
0.038323 0.079103 0.259962
0.039661 0.079307 0.260658
0.041296 0.080074 0.263206
0.042598 0.080166 0.263538
0.043644 0.079787 0.262319
0.043835 0.077911 0.256177
0.044281 0.076575 0.251813
0.045601 0.076781 0.252516
0.046835 0.076835 0.252720
0.047876 0.076579 0.251903
0.049093 0.076608 0.252024
0.050433 0.076824 0.252759
0.051709 0.076936 0.253151
0.053004 0.077068 0.253610
0.054282 0.077172 0.253976
0.055818 0.077628 0.255498
0.057828 0.078712 0.259087
0.060249 0.080297 0.264324
0.061956 0.080885 0.266279
0.063279 0.080958 0.266538
0.064912 0.081418 0.268067
0.066360 0.081631 0.268786
0.067701 0.081708 0.269052
0.068881 0.081591 0.268677
0.069962 0.081363 0.267935
0.070770 0.080832 0.266193
0.072076 0.080878 0.266348
0.073111 0.080623 0.265511
0.073838 0.080043 0.263600
0.073838 0.078707 0.259196
0.073757 0.077331 0.254657
0.074869 0.077229 0.254312
0.076130 0.077281 0.254471
0.076860 0.076801 0.252878
0.078303 0.077038 0.253638
0.079760 0.077280 0.254413
0.081094 0.077398 0.254776
0.082433 0.077518 0.255140
0.083875 0.077728 0.255799
0.085252 0.077874 0.256240
0.094310 0.084933 0.279422
0.097916 0.086953 0.286016
0.099338 0.087006 0.286131
0.101976 0.088107 0.289689
0.103142 0.087924 0.289019
0.104162 0.087623 0.287955
0.105802 0.087845 0.288602
0.107081 0.087764 0.288251
0.108424 0.087738 0.288071
0.109854 0.087782 0.288113
0.111294 0.087832 0.288170
0.112687 0.087844 0.288095
0.113957 0.087762 0.287703
0.115571 0.087943 0.288166
0.117166 0.088105 0.288557
0.118273 0.087901 0.287743
0.119921 0.088099 0.288234
0.121519 0.088256 0.288582
0.122954 0.088292 0.288526
0.124385 0.088325 0.288449
0.126101 0.088557 0.289012
0.127820 0.088786 0.289555
0.129515 0.088993 0.290014
0.130976 0.089037 0.289930
0.132680 0.089243 0.290360
0.133982 0.089177 0.289895
0.135291 0.089117 0.289437
0.136841 0.089216 0.289481
0.138185 0.089179 0.289071
0.139559 0.089162 0.288714
0.140998 0.089186 0.288475
0.143976 0.090174 0.291335
0.145421 0.090191 0.291040
0.146933 0.090249 0.290861
0.148840 0.090547 0.291436
0.150420 0.090642 0.291338
0.151984 0.090725 0.291185
0.153541 0.090802 0.290993
0.155159 0.090913 0.290891
-0.045369 0.026414 0.083846
-0.045166 0.026532 0.084348
-0.045107 0.026738 0.085122
-0.045014 0.026927 0.085842
-0.045043 0.027193 0.086805
-0.045063 0.027459 0.087764
-0.044983 0.027931 0.089482
-0.042757 0.031312 0.101565
-0.042764 0.031673 0.102783
-0.042761 0.032034 0.104002
-0.042548 0.032245 0.104728
-0.042105 0.032283 0.104895
-0.043539 0.033780 0.109799
-0.043074 0.033822 0.109969
-0.042607 0.033862 0.110135
-0.042390 0.034105 0.110957
-0.041839 0.034082 0.110911
-0.041496 0.034230 0.111420
-0.041234 0.034449 0.112158
-0.041036 0.034729 0.113091
-0.041280 0.035394 0.115279
-0.041481 0.036040 0.117402
-0.041683 0.036705 0.119583
-0.041422 0.036974 0.120475
-0.040690 0.036825 0.120002
-0.042124 0.038658 0.125988
-0.042554 0.039610 0.129100
-0.042408 0.040046 0.130529
-0.057623 0.061543 0.200589
-0.057009 0.061901 0.201745
-0.056357 0.062230 0.202802
-0.055484 0.062320 0.203083
-0.054624 0.062430 0.203424
-0.053877 0.062676 0.204204
-0.053187 0.062996 0.205227
-0.052644 0.063507 0.206867
-0.051874 0.063758 0.207660
-0.051054 0.063956 0.208280
-0.050254 0.064188 0.209008
-0.049524 0.064520 0.210059
-0.048905 0.065013 0.211633
-0.048216 0.065431 0.212962
-0.047528 0.065870 0.214357
-0.046627 0.066025 0.214828
-0.045766 0.066245 0.215509
-0.044927 0.066508 0.216329
-0.044181 0.066923 0.217643
-0.043395 0.067298 0.218823
-0.042675 0.067795 0.220402
-0.041918 0.068256 0.221862
-0.041251 0.068891 0.223886
-0.051155 0.087680 0.284896
-0.049855 0.087759 0.285102
-0.048633 0.087985 0.285786
-0.047220 0.087869 0.285356
-0.045757 0.087651 0.284595
-0.044631 0.088085 0.285954
-0.043303 0.088133 0.286058
-0.041920 0.088072 0.285807
-0.039992 0.086821 0.281697
-0.039277 0.088209 0.286152
-0.037951 0.088274 0.286311
-0.036313 0.087593 0.284054
-0.034890 0.087399 0.283376
-0.033576 0.087470 0.283559
-0.029547 0.080183 0.259892
-0.028139 0.079682 0.258227
-0.027025 0.080007 0.259240
-0.025636 0.079510 0.257589
-0.024362 0.079339 0.256997
-0.023150 0.079360 0.257026
-0.021988 0.079567 0.257661
-0.020831 0.079817 0.258433
-0.019713 0.080256 0.259822
-0.018570 0.080647 0.261054
-0.017439 0.081148 0.262643
-0.016173 0.081053 0.262302
-0.015152 0.082269 0.266208
-0.013948 0.082623 0.267323
-0.012384 0.080701 0.261079
-0.011067 0.080146 0.259257
-0.009853 0.080291 0.259703
-0.008575 0.079880 0.258352
-0.007352 0.079926 0.258480
-0.006136 0.080089 0.258985
-0.004923 0.080380 0.259910
-0.003703 0.080720 0.260992
-0.002463 0.080721 0.260982
-0.001225 0.080897 0.261537
0.000019 0.081264 0.262710
0.001273 0.081607 0.263809
0.002539 0.081978 0.264999
0.003791 0.081787 0.264376
0.005019 0.081318 0.262855
0.006229 0.080795 0.261159
0.007499 0.081096 0.262130
0.008723 0.080887 0.261456
0.009989 0.081064 0.262026
0.011303 0.081554 0.263613
0.012574 0.081665 0.263976
0.013870 0.081901 0.264746
0.015166 0.082098 0.265390
0.016482 0.082361 0.266248
0.017806 0.082631 0.267131
0.018989 0.082247 0.265899
0.020182 0.081958 0.264976
0.021532 0.082297 0.266088
0.022479 0.081146 0.262380
0.023624 0.080792 0.261250
0.024731 0.080352 0.259845
0.025771 0.079743 0.257893
0.026918 0.079507 0.257148
0.027853 0.078693 0.254535
0.029048 0.078651 0.254418
0.030247 0.078622 0.254347
0.031431 0.078555 0.254152
0.032605 0.078472 0.253906
0.033994 0.078893 0.255289
0.035366 0.079247 0.256460
0.036964 0.080065 0.259131
0.038386 0.080464 0.260446
0.039644 0.080503 0.260599
0.041349 0.081420 0.263591
0.042726 0.081656 0.264383
0.043930 0.081559 0.264092
0.043441 0.078410 0.253920
0.044266 0.077738 0.251771
0.045610 0.077990 0.252610
0.046725 0.077847 0.252170
0.047860 0.077743 0.251859
0.049221 0.078002 0.252721
0.050401 0.077969 0.252636
0.051789 0.078253 0.253577
0.053121 0.078439 0.254204
0.054393 0.078531 0.254522
0.056180 0.079347 0.257184
0.058346 0.080652 0.261434
0.060441 0.081806 0.265193
0.062020 0.082228 0.266577
0.063433 0.082418 0.267209
0.064796 0.082537 0.267609
0.066285 0.082808 0.268498
0.067667 0.082938 0.268931
0.068899 0.082883 0.268761
0.069933 0.082595 0.267832
0.070831 0.082161 0.266428
0.071762 0.081778 0.265187
0.072928 0.081672 0.264843
0.073915 0.081373 0.263868
0.074209 0.080333 0.260491
0.074470 0.079293 0.257110
0.075577 0.079172 0.256705
0.076589 0.078957 0.255991
0.077824 0.078974 0.256029
0.079151 0.079084 0.256363
0.080510 0.079221 0.256780
0.082577 0.080041 0.259408
0.083839 0.080067 0.259459
0.085286 0.080267 0.260069
0.086979 0.080689 0.261393
0.094918 0.086811 0.281177
0.097837 0.088236 0.285736
0.099478 0.088485 0.286480
0.101437 0.089006 0.288098
0.102701 0.088911 0.287718
0.104042 0.088885 0.287556
0.105517 0.088972 0.287752
0.106924 0.089000 0.287751
0.108373 0.089062 0.287853
0.109887 0.089175 0.288113
0.111455 0.089329 0.288497
0.112756 0.089267 0.288177
0.114333 0.089423 0.288551
0.115648 0.089372 0.288253
0.117245 0.089538 0.288643
0.118575 0.089498 0.288362
0.119986 0.089520 0.288271
0.121483 0.089604 0.288371
0.123070 0.089752 0.288667
0.124551 0.089820 0.288697
0.126120 0.089950 0.288913
0.127676 0.090067 0.289078
0.129414 0.090308 0.289631
0.130931 0.090392 0.289667
0.132334 0.090397 0.289435
0.133870 0.090490 0.289478
0.135479 0.090631 0.289657
0.136991 0.090704 0.289608
0.138392 0.090704 0.289310
0.139905 0.090775 0.289226
0.141508 0.090903 0.289308
0.143235 0.091107 0.289617
0.144822 0.091219 0.289615
0.146942 0.091661 0.290646
0.148887 0.091987 0.291284
0.150609 0.092169 0.291451
0.152132 0.092228 0.291206
0.153692 0.092307 0.291009
0.155381 0.092462 0.291027
-0.045091 0.026657 0.083258
-0.045104 0.026904 0.084157
-0.044957 0.027060 0.084769
-0.044756 0.027185 0.085280
-0.045107 0.027651 0.086860
-0.045027 0.028122 0.088559
-0.044694 0.028179 0.088845
-0.042290 0.031448 0.100419
-0.042390 0.031880 0.101849
-0.042256 0.032144 0.102740
-0.041824 0.032184 0.102914
-0.041141 0.032030 0.102463
-0.040780 0.032127 0.102811
-0.043372 0.034580 0.110702
-0.042902 0.034622 0.110872
-0.042447 0.034677 0.111082
-0.042018 0.034755 0.111362
-0.041839 0.035045 0.112320
-0.041283 0.035022 0.112272
-0.041046 0.035273 0.113101
-0.041072 0.035758 0.114680
