ply
format ascii 1.0
element vertex 1681
property float x
property float y
property float z
end_header
-0.002703 -0.111392 0.294258
-0.001309 -0.111363 0.294168
0.000084 -0.111371 0.294178
0.001477 -0.111340 0.294083
0.002870 -0.111371 0.294154
0.004263 -0.111346 0.294076
0.005657 -0.111369 0.294128
0.007055 -0.111442 0.294313
0.008443 -0.111359 0.294085
0.009842 -0.111428 0.294259
0.011234 -0.111405 0.294192
0.012639 -0.111502 0.294439
0.014024 -0.111423 0.294226
0.015409 -0.111350 0.294026
0.016831 -0.111544 0.294535
0.018221 -0.111508 0.294435
0.019591 -0.111357 0.294033
0.021036 -0.111630 0.294750
0.022419 -0.111563 0.294569
0.023797 -0.111475 0.294333
0.025219 -0.111591 0.294637
0.026557 -0.111344 0.293983
0.027959 -0.111378 0.294070
0.029370 -0.111442 0.294238
0.030689 -0.111164 0.293501
0.032085 -0.111180 0.293542
0.033531 -0.111359 0.294013
0.034874 -0.111195 0.293576
0.036285 -0.111252 0.293727
0.037832 -0.111708 0.294927
0.039246 -0.111749 0.295032
0.040614 -0.111664 0.294804
0.042093 -0.111878 0.295365
0.043494 -0.111877 0.295359
0.044885 -0.111852 0.295288
0.046288 -0.111856 0.295294
0.047713 -0.111912 0.295436
0.049127 -0.111940 0.295500
0.050521 -0.111923 0.295447
0.051882 -0.111833 0.295200
0.053325 -0.111923 0.295427
0.054704 -0.111874 0.295285
0.056025 -0.111715 0.294852
0.057589 -0.112034 0.295681
0.058913 -0.111881 0.295260
0.060403 -0.112045 0.295674
0.061907 -0.112226 0.296132
0.063271 -0.112151 0.295913
0.064750 -0.112280 0.296228
0.066148 -0.112263 0.296157
0.067912 -0.112857 0.297693
0.069551 -0.113224 0.298629
0.070292 -0.112141 0.295738
0.071930 -0.112504 0.296660
0.073519 -0.112778 0.297343
0.074691 -0.112416 0.296344
0.076101 -0.112416 0.296300
0.077479 -0.112370 0.296130
0.078838 -0.112300 0.295891
0.080260 -0.112320 0.295888
0.081491 -0.112076 0.295185
0.082903 -0.112085 0.295144
0.084392 -0.112196 0.295369
0.085784 -0.112177 0.295246
0.087272 -0.112281 0.295442
0.088835 -0.112478 0.295877
0.090468 -0.112755 0.296519
0.091988 -0.112885 0.296769
0.093539 -0.113049 0.297101
0.095065 -0.113177 0.297336
0.096474 -0.113164 0.297193
0.097978 -0.113262 0.297334
0.099440 -0.113309 0.297337
0.100806 -0.113247 0.297045
0.102237 -0.113258 0.296940
0.103754 -0.113364 0.297076
0.105196 -0.113384 0.296981
0.106722 -0.113494 0.297114
0.108381 -0.113741 0.297595
0.109901 -0.113836 0.297674
0.111425 -0.113934 0.297749
0.113002 -0.114083 0.297949
0.114610 -0.114259 0.298211
0.116146 -0.114359 0.298265
0.117472 -0.114252 0.297770
0.119081 -0.114420 0.297981
0.120570 -0.114470 0.297875
0.121833 -0.114306 0.297202
0.123270 -0.114308 0.296948
0.124899 -0.114485 0.297140
0.126489 -0.114624 0.297217
0.128069 -0.114750 0.297252
0.129736 -0.114950 0.297463
0.131394 -0.115137 0.297627
0.133085 -0.115350 0.297844
0.134707 -0.115498 0.297876
0.136451 -0.115747 0.298155
0.138083 -0.115896 0.298160
0.139709 -0.116037 0.298126
0.141349 -0.116186 0.298098
0.143062 -0.116392 0.298196
0.144672 -0.116510 0.298050
0.146267 -0.116615 0.297852
0.147903 -0.116749 0.297707
0.149599 -0.116927 0.297654
0.151213 -0.117038 0.297409
0.153083 -0.117344 0.297635
0.154960 -0.117648 0.297832
0.156579 -0.117753 0.297498
0.157913 -0.117643 0.296598
0.159651 -0.117834 0.296429
0.161571 -0.118153 0.296555
-0.155983 -0.115467 0.299461
-0.152838 -0.114201 0.296676
-0.151045 -0.113933 0.296454
-0.150045 -0.114263 0.297772
-0.148329 -0.114049 0.297653
-0.146574 -0.113801 0.297427
-0.144836 -0.113561 0.297204
-0.143312 -0.113487 0.297397
-0.141596 -0.113257 0.297165
-0.139979 -0.113103 0.297117
-0.138440 -0.113009 0.297212
-0.136709 -0.112756 0.296872
-0.135132 -0.112625 0.296841
-0.133334 -0.112306 0.296298
-0.131897 -0.112286 0.296533
-0.130461 -0.112269 0.296760
-0.128945 -0.112181 0.296789
-0.127532 -0.112181 0.297041
-0.125983 -0.112061 0.296963
-0.124529 -0.112024 0.297094
-0.123100 -0.112009 0.297273
-0.121474 -0.111812 0.296958
-0.119890 -0.111650 0.296724
-0.118322 -0.111499 0.296512
-0.116768 -0.111358 0.296318
-0.115230 -0.111229 0.296146
-0.113912 -0.111312 0.296527
-0.112458 -0.111263 0.296551
-0.110952 -0.111160 0.296424
-0.109501 -0.111111 0.296431
-0.108051 -0.111062 0.296430
-0.106617 -0.111027 0.296461
-0.105172 -0.110981 0.296456
-0.103741 -0.110948 0.296478
-0.102324 -0.110930 0.296532
-0.100980 -0.110992 0.296796
-0.099678 -0.111102 0.297181
-0.098084 -0.110885 0.296688
-0.096591 -0.110779 0.296483
-0.095117 -0.110691 0.296322
-0.093714 -0.110685 0.296373
-0.092208 -0.110555 0.296089
-0.090758 -0.110489 0.295972
-0.089365 -0.110492 0.296034
-0.087927 -0.110438 0.295940
-0.086543 -0.110452 0.296023
-0.085129 -0.110428 0.295999
-0.083698 -0.110380 0.295908
-0.082328 -0.110411 0.296026
-0.080764 -0.110181 0.295438
-0.079399 -0.110218 0.295563
-0.078044 -0.110271 0.295727
-0.076546 -0.110121 0.295344
-0.075138 -0.110096 0.295293
-0.073757 -0.110112 0.295349
-0.072328 -0.110054 0.295204
-0.070831 -0.109889 0.294770
-0.069415 -0.109846 0.294660
-0.068061 -0.109901 0.294810
-0.066606 -0.109793 0.294520
-0.065199 -0.109760 0.294430
-0.063842 -0.109813 0.294566
-0.062446 -0.109798 0.294521
-0.061068 -0.109817 0.294564
-0.059667 -0.109794 0.294493
-0.058281 -0.109797 0.294488
-0.056890 -0.109792 0.294462
-0.055487 -0.109762 0.294369
-0.054078 -0.109719 0.294237
-0.052746 -0.109836 0.294535
-0.051303 -0.109721 0.294207
-0.049969 -0.109837 0.294499
-0.048610 -0.109905 0.294663
-0.047202 -0.109864 0.294531
-0.045842 -0.109936 0.294703
-0.044382 -0.109764 0.294220
-0.043048 -0.109903 0.294569
-0.041626 -0.109817 0.294316
-0.040147 -0.109575 0.293643
-0.038779 -0.109626 0.293756
-0.037406 -0.109667 0.293842
-0.035984 -0.109562 0.293537
-0.034603 -0.109578 0.293555
-0.033232 -0.109629 0.293667
-0.031828 -0.109573 0.293492
-0.030466 -0.109659 0.293698
-0.029100 -0.109742 0.293894
-0.027699 -0.109692 0.293738
-0.026331 -0.109780 0.293949
-0.024921 -0.109689 0.293682
-0.023533 -0.109692 0.293667
-0.022159 -0.109764 0.293837
-0.020762 -0.109721 0.293699
-0.019368 -0.109691 0.293596
-0.017993 -0.109777 0.293805
-0.016602 -0.109768 0.293759
-0.015199 -0.109674 0.293486
-0.013810 -0.109673 0.293465
-0.012421 -0.109671 0.293441
-0.011029 -0.109632 0.293318
-0.009638 -0.109605 0.293228
-0.008257 -0.109691 0.293440
-0.006872 -0.109771 0.293637
-0.005483 -0.109781 0.293648
-0.004094 -0.109836 0.293779
-0.002704 -0.109875 0.293870
-0.001313 -0.109933 0.294013
0.000079 -0.109856 0.293793
0.001473 -0.110017 0.294212
0.002868 -0.110075 0.294355
0.004256 -0.109890 0.293852
0.005656 -0.110057 0.294289
0.007048 -0.110011 0.294157
0.008434 -0.109919 0.293902
0.009837 -0.110026 0.294180
0.011231 -0.110030 0.294186
0.012635 -0.110112 0.294398
0.014025 -0.110069 0.294276
0.015421 -0.110075 0.294290
0.016825 -0.110138 0.294455
0.018224 -0.110155 0.294496
0.019617 -0.110137 0.294444
0.021019 -0.110171 0.294532
0.022424 -0.110212 0.294640
0.023804 -0.110133 0.294427
0.025213 -0.110188 0.294574
0.026603 -0.110160 0.294497
0.028009 -0.110200 0.294603
0.029429 -0.110284 0.294826
0.030818 -0.110254 0.294746
0.032229 -0.110297 0.294860
0.033611 -0.110242 0.294714
0.035028 -0.110303 0.294876
0.036464 -0.110417 0.295182
0.037845 -0.110362 0.295032
0.039283 -0.110469 0.295319
0.040674 -0.110441 0.295243
0.042065 -0.110416 0.295174
0.043506 -0.110520 0.295450
0.044878 -0.110446 0.295249
0.046250 -0.110377 0.295061
0.047647 -0.110372 0.295043
0.049053 -0.110383 0.295070
0.050388 -0.110242 0.294687
0.051801 -0.110272 0.294759
0.053246 -0.110369 0.295010
0.054589 -0.110252 0.294689
0.056206 -0.110681 0.295825
0.057486 -0.110443 0.295178
0.058982 -0.110621 0.295640
0.060448 -0.110735 0.295928
0.061736 -0.110525 0.295351
0.063135 -0.110518 0.295314
0.064499 -0.110453 0.295119
0.065921 -0.110487 0.295184
0.067217 -0.110313 0.294695
0.068536 -0.110182 0.294319
0.070166 -0.110547 0.295262
0.071816 -0.110928 0.296248
0.073069 -0.110694 0.295587
0.074568 -0.110833 0.295919
0.075950 -0.110797 0.295779
0.077216 -0.110596 0.295198
0.078740 -0.110765 0.295600
0.080096 -0.110695 0.295362
0.081382 -0.110533 0.294874
0.082837 -0.110602 0.294997
0.084287 -0.110662 0.295093
0.085732 -0.110713 0.295161
0.087150 -0.110728 0.295128
0.088649 -0.110844 0.295361
0.090447 -0.111324 0.296558
0.091967 -0.111453 0.296813
0.093440 -0.111522 0.296902
0.094861 -0.111528 0.296820
0.096359 -0.111622 0.296968
0.097817 -0.111668 0.296979
0.099249 -0.111682 0.296902
0.100724 -0.111744 0.296945
0.102216 -0.111824 0.297029
0.103714 -0.111907 0.297113
0.105269 -0.112049 0.297348
0.106869 -0.112235 0.297690
0.108376 -0.112318 0.297754
0.109937 -0.112455 0.297950
0.111435 -0.112525 0.297961
0.113144 -0.112802 0.298513
0.114591 -0.112816 0.298358
0.116041 -0.112831 0.298198
0.117539 -0.112892 0.298150
0.119000 -0.112917 0.297995
0.120419 -0.112901 0.297725
0.121941 -0.112981 0.297697
0.123370 -0.112975 0.297428
0.125011 -0.113160 0.297654
0.126542 -0.113242 0.297597
0.128088 -0.113336 0.297558
0.129647 -0.113439 0.297530
0.131238 -0.113567 0.297554
0.132772 -0.113644 0.297432
0.134487 -0.113872 0.297689
0.136157 -0.114058 0.297821
0.137725 -0.114154 0.297703
0.139234 -0.114201 0.297440
0.141177 -0.114599 0.298075
0.142820 -0.114746 0.298040
0.144384 -0.114829 0.297819
0.146174 -0.115087 0.298033
0.147833 -0.115239 0.297951
0.149480 -0.115378 0.297814
0.151063 -0.115465 0.297524
0.152590 -0.115508 0.297098
0.154577 -0.115894 0.297532
0.155993 -0.115850 0.296835
0.157421 -0.115814 0.296137
0.159362 -0.116154 0.296372
0.160865 -0.116171 0.295754
-0.154634 -0.113013 0.297240
-0.152538 -0.112529 0.296450
-0.150797 -0.112300 0.296311
-0.149387 -0.112316 0.296801
-0.147859 -0.112243 0.297035
-0.146147 -0.112027 0.296875
-0.144537 -0.111887 0.296896
-0.142885 -0.111711 0.296806
-0.141349 -0.111623 0.296933
-0.139590 -0.111355 0.296567
-0.137909 -0.111145 0.296339
-0.136430 -0.111095 0.296523
-0.135014 -0.111097 0.296832
-0.133318 -0.110865 0.296504
-0.131880 -0.110846 0.296730
-0.130306 -0.110710 0.296633
-0.128929 -0.110741 0.296970
-0.127396 -0.110638 0.296937
-0.125880 -0.110547 0.296925
-0.124388 -0.110475 0.296953
-0.122775 -0.110293 0.296675
-0.121396 -0.110320 0.296950
-0.119622 -0.109984 0.296238
-0.117984 -0.109767 0.295834
-0.116661 -0.109842 0.296209
-0.115239 -0.109823 0.296324
-0.113763 -0.109753 0.296291
-0.112305 -0.109699 0.296293
-0.110844 -0.109640 0.296275
-0.109328 -0.109525 0.296095
-0.107762 -0.109356 0.295765
-0.106404 -0.109397 0.295992
-0.105048 -0.109441 0.296222
-0.103450 -0.109230 0.295756
-0.102128 -0.109309 0.296069
-0.100869 -0.109460 0.296569
-0.099364 -0.109343 0.296341
-0.097889 -0.109258 0.296189
-0.096573 -0.109349 0.296511
-0.095108 -0.109273 0.296374
-0.093631 -0.109180 0.296186
-0.092158 -0.109089 0.296000
-0.090773 -0.109101 0.296085
-0.089366 -0.109087 0.296099
-0.087920 -0.109024 0.295973
-0.086507 -0.109001 0.295952
-0.085104 -0.108990 0.295958
-0.083673 -0.108942 0.295860
-0.082289 -0.108954 0.295924
-0.080778 -0.108797 0.295522
-0.079279 -0.108651 0.295148
-0.077932 -0.108711 0.295330
-0.076530 -0.108695 0.295302
-0.075014 -0.108514 0.294823
-0.073650 -0.108551 0.294933
-0.072235 -0.108513 0.294837
-0.070790 -0.108427 0.294606
-0.069394 -0.108414 0.294572
-0.067984 -0.108379 0.294477
-0.066604 -0.108390 0.294504
-0.065283 -0.108501 0.294800
-0.063890 -0.108496 0.294777
-0.062504 -0.108501 0.294783
-0.061126 -0.108520 0.294823
-0.059763 -0.108569 0.294944
-0.058342 -0.108510 0.294770
-0.056876 -0.108366 0.294363
-0.055526 -0.108439 0.294544
-0.054149 -0.108463 0.294592
-0.052693 -0.108324 0.294195
-0.051338 -0.108394 0.294363
-0.049971 -0.108440 0.294468
-0.048594 -0.108468 0.294521
-0.047180 -0.108410 0.294341
-0.045749 -0.108310 0.294044
-0.044463 -0.108559 0.294697
-0.043051 -0.108506 0.294528
-0.041544 -0.108202 0.293678
-0.040189 -0.108287 0.293882
-0.038799 -0.108280 0.293836
-0.037417 -0.108296 0.293855
-0.036024 -0.108280 0.293784
-0.034638 -0.108286 0.293773
-0.033272 -0.108355 0.293935
-0.031864 -0.108290 0.293733
-0.030473 -0.108278 0.293673
-0.029092 -0.108305 0.293721
-0.027689 -0.108249 0.293543
-0.026277 -0.108148 0.293243
-0.024895 -0.108167 0.293271
-0.023538 -0.108302 0.293612
-0.022142 -0.108264 0.293484
-0.020786 -0.108435 0.293924
-0.019397 -0.108440 0.293916
-0.018006 -0.108438 0.293888
-0.016624 -0.108494 0.294017
-0.015232 -0.108487 0.293976
-0.013839 -0.108474 0.293919
-0.012443 -0.108430 0.293781
-0.011054 -0.108447 0.293809
-0.009668 -0.108505 0.293946
-0.008279 -0.108532 0.294003
-0.006891 -0.108605 0.294183
-0.005499 -0.108617 0.294199
-0.004109 -0.108708 0.294431
-0.002714 -0.108686 0.294357
-0.001320 -0.108735 0.294477
0.000075 -0.108768 0.294553
0.001470 -0.108765 0.294534
0.002866 -0.108760 0.294509
0.004259 -0.108712 0.294368
0.005656 -0.108751 0.294463
0.007052 -0.108753 0.294461
0.008441 -0.108666 0.294219
0.009841 -0.108734 0.294396
0.011235 -0.108718 0.294345
0.012632 -0.108734 0.294383
0.014038 -0.108810 0.294584
0.015432 -0.108796 0.294543
0.016833 -0.108821 0.294608
0.018236 -0.108858 0.294706
0.019625 -0.108811 0.294576
0.021010 -0.108752 0.294414
0.022416 -0.108800 0.294543
0.023789 -0.108691 0.294249
0.025180 -0.108671 0.294194
0.026572 -0.108658 0.294159
0.027967 -0.108656 0.294154
0.029374 -0.108700 0.294276
0.030777 -0.108725 0.294344
0.032191 -0.108788 0.294516
0.033585 -0.108776 0.294485
0.034991 -0.108805 0.294565
0.036408 -0.108865 0.294728
0.037831 -0.108935 0.294919
0.039275 -0.109058 0.295254
0.040668 -0.109040 0.295205
0.042065 -0.109030 0.295179
0.043492 -0.109096 0.295359
0.044885 -0.109075 0.295301
0.046248 -0.108985 0.295056
0.047623 -0.108928 0.294900
0.048999 -0.108876 0.294757
0.050360 -0.108795 0.294534
0.051725 -0.108725 0.294339
0.053159 -0.108802 0.294543
0.054492 -0.108671 0.294182
0.055964 -0.108818 0.294574
0.057701 -0.109460 0.296302
0.058910 -0.109094 0.295301
0.060359 -0.109179 0.295519
0.061856 -0.109346 0.295955
0.063137 -0.109130 0.295354
0.064567 -0.109177 0.295464
0.065940 -0.109126 0.295309
0.067266 -0.109003 0.294952
0.068684 -0.109028 0.294996
0.070069 -0.109003 0.294900
0.071643 -0.109267 0.295586
0.073202 -0.109498 0.296178
0.074636 -0.109536 0.296246
0.076088 -0.109599 0.296379
0.077520 -0.109631 0.296423
0.078987 -0.109710 0.296592
0.080314 -0.109596 0.296235
0.081683 -0.109543 0.296039
0.083040 -0.109474 0.295797
0.084433 -0.109456 0.295688
0.085810 -0.109416 0.295516
0.087131 -0.109308 0.295156
0.088629 -0.109422 0.295392
0.090218 -0.109642 0.295907
0.091703 -0.109731 0.296065
0.093183 -0.109812 0.296198
0.094616 -0.109836 0.296167
0.096138 -0.109961 0.296406
0.097492 -0.109892 0.296116
0.098991 -0.109987 0.296262
0.100475 -0.110062 0.296348
0.101940 -0.110115 0.296366
0.103535 -0.110304 0.296747
0.105162 -0.110522 0.297196
0.106685 -0.110626 0.297332
0.108154 -0.110673 0.297305
0.109786 -0.110882 0.297709
0.111424 -0.111093 0.298107
0.112911 -0.111149 0.298080
0.114485 -0.111288 0.298269
0.115951 -0.111320 0.298161
0.117232 -0.111176 0.297573
0.118813 -0.111317 0.297737
0.120300 -0.111367 0.297648
0.121675 -0.111312 0.297270
0.123112 -0.111316 0.297036
0.124728 -0.111479 0.297219
0.126330 -0.111626 0.297344
0.127852 -0.111699 0.297262
0.129467 -0.111852 0.297379
0.131060 -0.111982 0.297422
0.132789 -0.112223 0.297747
0.134371 -0.112337 0.297719
0.136012 -0.112498 0.297800
0.137669 -0.112667 0.297889
0.139419 -0.112909 0.298153
0.141026 -0.113031 0.298083
0.142575 -0.113103 0.297866
0.144349 -0.113352 0.298094
0.145819 -0.113359 0.297669
0.147442 -0.113483 0.297533
0.149142 -0.113663 0.297523
0.150557 -0.113625 0.296920
0.152143 -0.113715 0.296634
0.153853 -0.113895 0.296558
0.155814 -0.114256 0.296928
0.156845 -0.113935 0.295501
0.158610 -0.114147 0.295434
0.160575 -0.114498 0.295698
-0.154694 -0.111602 0.297712
-0.152401 -0.110981 0.296528
-0.150581 -0.110696 0.296220
-0.149382 -0.110867 0.297113
-0.147893 -0.110824 0.297415
-0.146181 -0.110611 0.297247
-0.144673 -0.110550 0.297468
-0.143285 -0.110581 0.297919
-0.141217 -0.110083 0.296929
-0.139614 -0.109941 0.296883
-0.137765 -0.109600 0.296286
-0.136220 -0.109497 0.296316
-0.134904 -0.109577 0.296829
-0.133183 -0.109327 0.296436
-0.131707 -0.109275 0.296565
-0.130384 -0.109350 0.297027
-0.128735 -0.109151 0.296733
-0.127261 -0.109098 0.296824
-0.125781 -0.109038 0.296886
-0.124268 -0.108948 0.296856
-0.122587 -0.108706 0.296403
-0.120814 -0.108378 0.295701
-0.119437 -0.108400 0.295947
-0.118117 -0.108476 0.296330
-0.116561 -0.108334 0.296109
-0.115184 -0.108358 0.296332
-0.113729 -0.108307 0.296345
-0.112310 -0.108291 0.296443
-0.110838 -0.108223 0.296389
-0.109165 -0.107953 0.295779
-0.107618 -0.107803 0.295487
-0.106294 -0.107876 0.295800
-0.104655 -0.107627 0.295223
-0.103337 -0.107705 0.295537
-0.101943 -0.107706 0.295632
-0.100556 -0.107715 0.295743
-0.099049 -0.107593 0.295489
-0.097671 -0.107610 0.295612
-0.096327 -0.107666 0.295835
-0.094859 -0.107583 0.295671
-0.093431 -0.107543 0.295622
-0.092052 -0.107560 0.295723
-0.090607 -0.107499 0.295606
-0.089177 -0.107454 0.295528
-0.087747 -0.107407 0.295439
-0.086383 -0.107443 0.295575
-0.084955 -0.107396 0.295480
-0.083546 -0.107374 0.295449
-0.082176 -0.107403 0.295551
-0.080733 -0.107335 0.295387
-0.079346 -0.107341 0.295422
-0.077905 -0.107272 0.295248
-0.076496 -0.107247 0.295189
-0.075072 -0.107198 0.295064
-0.073631 -0.107124 0.294867
-0.072259 -0.107148 0.294937
-0.070850 -0.107119 0.294857
-0.069404 -0.107032 0.294615
-0.067968 -0.106955 0.294400
-0.066626 -0.107028 0.294595
-0.065215 -0.106990 0.294481
-0.063811 -0.106963 0.294395
-0.062407 -0.106934 0.294304
-0.061048 -0.106983 0.294426
-0.059627 -0.106923 0.294243
-0.058222 -0.106890 0.294137
-0.056935 -0.107078 0.294634
-0.055479 -0.106948 0.294256
-0.054140 -0.107044 0.294501
-0.052778 -0.107098 0.294628
-0.051301 -0.106916 0.294102
-0.049981 -0.107061 0.294478
-0.048513 -0.106888 0.293977
-0.047087 -0.106798 0.293705
-0.045671 -0.106728 0.293486
-0.044268 -0.106684 0.293339
-0.042892 -0.106706 0.293373
-0.041489 -0.106660 0.293218
-0.040104 -0.106657 0.293183
-0.038760 -0.106770 0.293466
-0.037401 -0.106847 0.293648
-0.036015 -0.106849 0.293626
-0.034641 -0.106890 0.293710
-0.033280 -0.106977 0.293921
-0.031874 -0.106918 0.293731
-0.030496 -0.106955 0.293806
-0.029107 -0.106955 0.293779
-0.027698 -0.106877 0.293536
-0.026304 -0.106852 0.293440
-0.024898 -0.106770 0.293189
-0.023506 -0.106746 0.293098
-0.022139 -0.106841 0.293332
-0.020765 -0.106910 0.293498
-0.019373 -0.106891 0.293420
-0.017998 -0.106971 0.293616
-0.016630 -0.107111 0.293979
-0.015236 -0.107093 0.293907
-0.013850 -0.107128 0.293982
-0.012458 -0.107131 0.293968
-0.011067 -0.107136 0.293964
-0.009681 -0.107202 0.294127
-0.008285 -0.107158 0.293986
-0.006898 -0.107239 0.294191
-0.005507 -0.107290 0.294314
-0.004113 -0.107315 0.294368
-0.002720 -0.107350 0.294448
-0.001325 -0.107399 0.294571
0.000070 -0.107393 0.294542
0.001466 -0.107353 0.294420
0.002861 -0.107356 0.294418
0.004254 -0.107301 0.294256
0.005643 -0.107189 0.293941
0.007046 -0.107330 0.294319
0.008426 -0.107148 0.293811
0.009820 -0.107156 0.293828
0.011223 -0.107249 0.294078
0.012619 -0.107260 0.294103
0.014029 -0.107380 0.294428
0.015416 -0.107314 0.294244
0.016827 -0.107420 0.294532
0.018239 -0.107506 0.294767
0.019613 -0.107376 0.294409
0.021009 -0.107373 0.294400
0.022434 -0.107513 0.294784
0.023798 -0.107357 0.294356
0.025145 -0.107149 0.293786
0.026605 -0.107413 0.294514
0.027966 -0.107276 0.294139
0.029332 -0.107171 0.293854
0.030786 -0.107380 0.294431
0.032119 -0.107165 0.293842
0.033549 -0.107281 0.294164
0.034994 -0.107432 0.294582
0.036304 -0.107174 0.293877
0.037862 -0.107639 0.295157
0.039255 -0.107619 0.295104
0.040614 -0.107508 0.294803
0.042066 -0.107644 0.295178
0.043446 -0.107593 0.295041
0.044815 -0.107518 0.294838
0.046158 -0.107388 0.294481
0.047518 -0.107304 0.294253
0.048874 -0.107215 0.294009
0.050188 -0.107042 0.293533
0.051705 -0.107298 0.294233
0.052787 -0.106661 0.292486
0.054166 -0.106644 0.292433
0.056228 -0.107937 0.295976
0.057348 -0.107404 0.294507
0.058843 -0.107580 0.294982
0.060438 -0.107927 0.295926
0.061742 -0.107751 0.295431
0.063085 -0.107648 0.295137
0.064515 -0.107696 0.295253
0.065945 -0.107743 0.295365
0.067275 -0.107625 0.295022
0.068656 -0.107593 0.294915
0.070102 -0.107662 0.295081
0.071463 -0.107601 0.294888
0.072913 -0.107672 0.295054
0.074448 -0.107865 0.295551
0.075786 -0.107770 0.295256
0.077194 -0.107776 0.295235
0.078665 -0.107868 0.295445
0.080098 -0.107906 0.295506
0.081473 -0.107865 0.295347
0.082831 -0.107803 0.295126
0.084358 -0.107960 0.295499
0.085784 -0.107986 0.295510
0.087198 -0.107994 0.295469
0.088627 -0.108020 0.295472
0.090098 -0.108097 0.295609
0.091633 -0.108246 0.295939
0.093052 -0.108257 0.295884
0.094486 -0.108283 0.295868
0.095930 -0.108320 0.295875
0.097416 -0.108403 0.296002
0.098904 -0.108485 0.296123
0.100369 -0.108541 0.296163
0.101922 -0.108688 0.296447
0.103527 -0.108886 0.296863
0.105402 -0.109359 0.298020
0.106951 -0.109485 0.298225
0.108246 -0.109351 0.297715
0.109763 -0.109442 0.297808
0.111234 -0.109486 0.297765
0.112700 -0.109523 0.297697
0.114138 -0.109533 0.297546
0.115690 -0.109649 0.297675
0.117173 -0.109699 0.297614
0.118601 -0.109697 0.297403
0.120178 -0.109831 0.297551
0.121683 -0.109896 0.297503
0.123087 -0.109870 0.297196
0.124575 -0.109918 0.297079
0.126089 -0.109988 0.297011
0.127511 -0.109977 0.296712
0.129115 -0.110121 0.296819
0.130639 -0.110194 0.296724
0.132427 -0.110486 0.297203
0.134110 -0.110686 0.297418
0.135669 -0.110779 0.297334
0.137503 -0.111093 0.297825
0.139086 -0.111199 0.297745
0.140980 -0.111549 0.298299
0.142596 -0.111673 0.298234
0.144230 -0.111810 0.298184
0.145921 -0.111987 0.298222
0.147421 -0.112016 0.297846
0.149019 -0.112118 0.297646
0.150555 -0.112170 0.297296
0.151941 -0.112113 0.296632
0.153620 -0.112269 0.296512
0.155678 -0.112697 0.297087
0.156903 -0.112519 0.296040
0.158354 -0.112505 0.295401
0.160463 -0.112954 0.295951
-0.153318 -0.109167 0.295404
-0.151522 -0.108902 0.295147
-0.149953 -0.108797 0.295304
-0.148849 -0.109031 0.296363
-0.147305 -0.108944 0.296533
-0.145680 -0.108795 0.296518
-0.144171 -0.108730 0.296716
-0.142545 -0.108576 0.296654
-0.140824 -0.108345 0.296366
-0.139399 -0.108340 0.296681
-0.137720 -0.108136 0.296435
-0.136222 -0.108071 0.296558
-0.134762 -0.108035 0.296748
-0.133156 -0.107880 0.296598
-0.131682 -0.107830 0.296723
-0.130174 -0.107751 0.296758
-0.128720 -0.107715 0.296899
-0.127145 -0.107577 0.296747
-0.125719 -0.107563 0.296927
-0.124137 -0.107414 0.296723
-0.122149 -0.106905 0.295515
-0.120736 -0.106895 0.295674
-0.119579 -0.107114 0.296459
-0.117774 -0.106750 0.295621
-0.116398 -0.106772 0.295842
-0.114951 -0.106728 0.295873
-0.113545 -0.106722 0.296001
-0.112102 -0.106681 0.296024
-0.110594 -0.106576 0.295861
-0.109225 -0.106604 0.296061
-0.107728 -0.106506 0.295902
-0.106247 -0.106422 0.295775
-0.104885 -0.106456 0.295973
-0.103430 -0.106396 0.295900
-0.101931 -0.106289 0.295691
-0.100597 -0.106353 0.295949
-0.099275 -0.106431 0.296245
-0.097813 -0.106361 0.296120
-0.096362 -0.106300 0.296015
-0.095018 -0.106357 0.296234
-0.093637 -0.106374 0.296337
-0.092046 -0.106149 0.295760
-0.090629 -0.106121 0.295730
-0.089252 -0.106140 0.295824
-0.087809 -0.106081 0.295695
-0.086414 -0.106078 0.295720
-0.085060 -0.106126 0.295884
-0.083624 -0.106072 0.295758
-0.082223 -0.106061 0.295749
-0.080875 -0.106120 0.295930
-0.079457 -0.106088 0.295856
-0.078051 -0.106071 0.295819
-0.076587 -0.105973 0.295553
-0.075145 -0.105901 0.295360
-0.073788 -0.105950 0.295498
-0.072321 -0.105840 0.295192
-0.070955 -0.105877 0.295293
-0.069497 -0.105775 0.295000
-0.068158 -0.105853 0.295213
-0.066773 -0.105862 0.295228
-0.065258 -0.105662 0.294659
-0.064016 -0.105903 0.295317
-0.062564 -0.105801 0.295017
-0.061080 -0.105640 0.294550
-0.059694 -0.105643 0.294542
-0.058351 -0.105725 0.294751
-0.056948 -0.105702 0.294663
-0.055542 -0.105670 0.294553
-0.054141 -0.105647 0.294464
-0.052785 -0.105711 0.294620
-0.051398 -0.105718 0.294611
-0.049990 -0.105678 0.294473
-0.048608 -0.105694 0.294491
-0.047158 -0.105559 0.294089
-0.045775 -0.105570 0.294089
-0.044381 -0.105556 0.294021
-0.042980 -0.105524 0.293903
-0.041606 -0.105560 0.293976
-0.040240 -0.105617 0.294103
-0.038855 -0.105627 0.294102
-0.037478 -0.105662 0.294168
-0.036083 -0.105647 0.294097
-0.034685 -0.105620 0.293993
-0.033290 -0.105602 0.293913
-0.031880 -0.105534 0.293694
-0.030466 -0.105446 0.293418
-0.029102 -0.105531 0.293626
-0.027730 -0.105590 0.293762
-0.026325 -0.105528 0.293562
-0.024947 -0.105570 0.293652
-0.023574 -0.105643 0.293825
-0.022198 -0.105712 0.293990
-0.020821 -0.105784 0.294167
-0.019434 -0.105811 0.294215
-0.018041 -0.105809 0.294186
-0.016650 -0.105813 0.294174
-0.015251 -0.105775 0.294043
-0.013855 -0.105743 0.293933
-0.012461 -0.105728 0.293871
-0.011067 -0.105702 0.293779
-0.009671 -0.105648 0.293606
-0.008285 -0.105710 0.293762
-0.006895 -0.105732 0.293804
-0.005506 -0.105788 0.293945
-0.004112 -0.105765 0.293866
-0.002721 -0.105811 0.293979
-0.001329 -0.105903 0.294218
0.000066 -0.105834 0.294015
0.001460 -0.105882 0.294137
0.002853 -0.105828 0.293975
0.004249 -0.105881 0.294114
0.005640 -0.105814 0.293917
0.007024 -0.105672 0.293516
0.008425 -0.105790 0.293836
0.009809 -0.105692 0.293559
0.011211 -0.105782 0.293804
0.012622 -0.105935 0.294224
0.014025 -0.105991 0.294378
0.015428 -0.106036 0.294499
0.016843 -0.106149 0.294811
0.018237 -0.106125 0.294744
0.019633 -0.106112 0.294707
0.021029 -0.106103 0.294682
0.022397 -0.105960 0.294288
0.023823 -0.106094 0.294662
0.025192 -0.105972 0.294326
0.026544 -0.105794 0.293834
0.028009 -0.106060 0.294578
0.029382 -0.105971 0.294335
0.030756 -0.105895 0.294127
0.032179 -0.105985 0.294380
0.033543 -0.105883 0.294102
0.034977 -0.105998 0.294427
0.036373 -0.105994 0.294423
0.037775 -0.106008 0.294465
0.039294 -0.106336 0.295382
0.040639 -0.106189 0.294978
0.042057 -0.106235 0.295111
0.043512 -0.106366 0.295480
0.044830 -0.106168 0.294934
0.046231 -0.106171 0.294946
0.047573 -0.106041 0.294587
0.048831 -0.105737 0.293744
0.050266 -0.105823 0.293987
0.051710 -0.105923 0.294265
0.052907 -0.105524 0.293158
0.054364 -0.105652 0.293510
0.056204 -0.106498 0.295860
0.057612 -0.106504 0.295872
0.058989 -0.106454 0.295729
0.060510 -0.106660 0.296295
0.061930 -0.106683 0.296351
0.063227 -0.106497 0.295824
0.064647 -0.106522 0.295883
0.066088 -0.106579 0.296029
0.067399 -0.106429 0.295595
0.068777 -0.106390 0.295469
0.070242 -0.106482 0.295706
0.071611 -0.106429 0.295536
0.073045 -0.106472 0.295629
0.074545 -0.106607 0.295978
0.075965 -0.106627 0.296001
0.077417 -0.106688 0.296139
0.079061 -0.107008 0.296989
0.080269 -0.106737 0.296195
0.081689 -0.106752 0.296193
0.083090 -0.106741 0.296116
0.084395 -0.106610 0.295700
0.085781 -0.106583 0.295571
0.087129 -0.106512 0.295313
0.088531 -0.106507 0.295236
0.089927 -0.106495 0.295135
0.091468 -0.106653 0.295499
0.092975 -0.106766 0.295733
0.094274 -0.106642 0.295306
0.096001 -0.106996 0.296200
0.097335 -0.106910 0.295866
0.098832 -0.107003 0.296024
0.100383 -0.107150 0.296324
0.101808 -0.107161 0.296242
0.103760 -0.107717 0.297660
0.105380 -0.107919 0.298093
0.106938 -0.108054 0.298330
0.108350 -0.108039 0.298149
0.109681 -0.107944 0.297740
0.111248 -0.108081 0.297962
0.112593 -0.108002 0.297580
0.113957 -0.107942 0.297244
0.115366 -0.107926 0.297018
0.116780 -0.107915 0.296799
0.118466 -0.108153 0.297255
0.119974 -0.108224 0.297241
0.121566 -0.108368 0.297420
0.122911 -0.108291 0.296980
0.124518 -0.108445 0.297162
0.126011 -0.108496 0.297053
0.127360 -0.108423 0.296593
0.128911 -0.108522 0.296589
0.130501 -0.108652 0.296658
0.132179 -0.108851 0.296904
0.133655 -0.108881 0.296673
0.135481 -0.109192 0.297194
0.137486 -0.109639 0.298071
0.139101 -0.109770 0.298069
0.140715 -0.109897 0.298041
0.142558 -0.110198 0.298469
0.144232 -0.110363 0.298511
0.145794 -0.110440 0.298297
0.147402 -0.110550 0.298152
0.148955 -0.110617 0.297873
0.150510 -0.110685 0.297575
0.151891 -0.110623 0.296910
0.153506 -0.110732 0.296682
0.155148 -0.110858 0.296477
0.156627 -0.110866 0.295935
0.158259 -0.110981 0.295652
0.159868 -0.111078 0.295296
-0.153277 -0.107696 0.295654
-0.151350 -0.107342 0.295131
-0.149923 -0.107339 0.295553
-0.148730 -0.107505 0.296426
-0.146983 -0.107270 0.296175
-0.145461 -0.107196 0.296352
-0.143825 -0.107037 0.296276
-0.142229 -0.106904 0.296257
-0.140704 -0.106824 0.296368
-0.139292 -0.106827 0.296699
-0.137680 -0.106676 0.296586
-0.136045 -0.106505 0.296402
-0.134625 -0.106500 0.296667
-0.132772 -0.106148 0.295955
-0.131394 -0.106173 0.296280
-0.129987 -0.106175 0.296529
-0.128250 -0.105904 0.296006
-0.126912 -0.105961 0.296388
-0.125346 -0.105827 0.296224
-0.123775 -0.105686 0.296029
-0.122430 -0.105736 0.296362
-0.120854 -0.105586 0.296123
-0.119548 -0.105671 0.296533
-0.117980 -0.105524 0.296285
-0.116320 -0.105291 0.295786
-0.114860 -0.105235 0.295774
-0.113395 -0.105173 0.295739
-0.112053 -0.105225 0.296016
-0.110546 -0.105122 0.295848
-0.108932 -0.104913 0.295376
-0.107619 -0.104992 0.295709
-0.106151 -0.104921 0.295611
-0.104666 -0.104831 0.295451
-0.102624 -0.104173 0.293686
-0.101521 -0.104462 0.294585
-0.100361 -0.104702 0.295338
-0.098944 -0.104674 0.295333
-0.097425 -0.104538 0.295014
-0.096156 -0.104671 0.295450
-0.094925 -0.104849 0.296007
-0.093391 -0.104692 0.295616
-0.092011 -0.104706 0.295700
-0.090589 -0.104673 0.295649
-0.089236 -0.104719 0.295817
-0.087752 -0.104611 0.295543
-0.086281 -0.104515 0.295301
-0.084939 -0.104575 0.295495
-0.083514 -0.104532 0.295396
-0.082047 -0.104435 0.295138
-0.080746 -0.104549 0.295476
-0.079359 -0.104556 0.295505
-0.077919 -0.104490 0.295328
-0.076558 -0.104532 0.295449
-0.075096 -0.104432 0.295170
-0.073701 -0.104426 0.295151
-0.072307 -0.104420 0.295130
-0.070917 -0.104420 0.295126
-0.069532 -0.104428 0.295139
-0.068130 -0.104410 0.295077
-0.066718 -0.104376 0.294967
-0.065329 -0.104377 0.294957
-0.063908 -0.104326 0.294795
-0.062484 -0.104267 0.294610
-0.061084 -0.104248 0.294539
-0.059694 -0.104245 0.294508
-0.058324 -0.104278 0.294578
-0.056895 -0.104204 0.294346
-0.055518 -0.104224 0.294376
-0.054203 -0.104365 0.294748
-0.052738 -0.104217 0.294303
-0.051365 -0.104249 0.294365
-0.050021 -0.104342 0.294598
-0.048591 -0.104256 0.294326
-0.047207 -0.104268 0.294330
-0.045833 -0.104303 0.294398
-0.044436 -0.104286 0.294319
-0.043053 -0.104301 0.294330
-0.041632 -0.104223 0.294079
-0.040245 -0.104227 0.294057
-0.038864 -0.104250 0.294090
-0.037477 -0.104256 0.294075
-0.036077 -0.104227 0.293961
-0.034687 -0.104222 0.293917
-0.033298 -0.104225 0.293893
-0.031882 -0.104136 0.293612
-0.030468 -0.104049 0.293335
-0.029051 -0.103940 0.292997
-0.027646 -0.103870 0.292769
-0.026262 -0.103871 0.292744
-0.024839 -0.103711 0.292263
-0.023509 -0.103948 0.292902
-0.022167 -0.104153 0.293453
-0.020813 -0.104329 0.293921
-0.019437 -0.104411 0.294125
-0.018066 -0.104534 0.294448
-0.016673 -0.104537 0.294430
-0.015274 -0.104509 0.294327
-0.013891 -0.104584 0.294518
-0.012483 -0.104481 0.294206
-0.011085 -0.104434 0.294052
-0.009695 -0.104472 0.294138
-0.008298 -0.104424 0.293985
-0.006908 -0.104470 0.294097
-0.005513 -0.104446 0.294012
-0.004119 -0.104444 0.293988
-0.002726 -0.104454 0.294002
-0.001332 -0.104426 0.293911
0.000061 -0.104492 0.294082
0.001455 -0.104461 0.293984
0.002849 -0.104451 0.293945
0.004241 -0.104413 0.293828
0.005635 -0.104426 0.293856
0.007038 -0.104566 0.294242
0.008420 -0.104397 0.293762
0.009820 -0.104466 0.293949
0.011217 -0.104488 0.294007
0.012612 -0.104490 0.294009
0.014031 -0.104668 0.294508
0.015414 -0.104575 0.294244
0.016801 -0.104518 0.294084
0.018257 -0.104867 0.295066
0.019620 -0.104671 0.294514
0.020947 -0.104320 0.293528
0.022456 -0.104861 0.295053
0.023780 -0.104524 0.294109
0.025083 -0.104141 0.293033
0.026620 -0.104719 0.294664
0.028012 -0.104693 0.294597
0.029402 -0.104664 0.294521
0.030790 -0.104630 0.294431
0.032189 -0.104637 0.294457
0.033594 -0.104659 0.294525
0.034928 -0.104469 0.293997
0.036324 -0.104471 0.294010
0.037744 -0.104538 0.294207
0.039142 -0.104541 0.294222
0.040561 -0.104600 0.294395
0.041971 -0.104631 0.294490
0.043420 -0.104754 0.294843
0.044781 -0.104665 0.294598
0.046218 -0.104754 0.294853
0.047607 -0.104729 0.294790
0.048998 -0.104712 0.294747
0.050429 -0.104777 0.294934
0.051870 -0.104860 0.295170
0.053282 -0.104882 0.295234
0.054705 -0.104922 0.295351
0.056136 -0.104977 0.295504
0.057579 -0.105049 0.295708
0.058987 -0.105056 0.295725
0.060384 -0.105043 0.295685
0.061815 -0.105090 0.295813
0.063195 -0.105049 0.295691
0.064580 -0.105017 0.295592
0.065953 -0.104967 0.295443
0.067366 -0.104984 0.295477
0.068758 -0.104966 0.295414
0.070194 -0.105015 0.295533
0.071658 -0.105102 0.295761
0.073072 -0.105116 0.295776
0.074556 -0.105226 0.296062
0.075962 -0.105224 0.296030
0.077346 -0.105193 0.295913
0.078720 -0.105150 0.295758
0.080200 -0.105246 0.295992
0.081595 -0.105230 0.295906
0.083044 -0.105283 0.296013
0.084426 -0.105250 0.295874
0.085815 -0.105227 0.295758
0.087297 -0.105318 0.295957
0.088583 -0.105171 0.295486
0.089980 -0.105160 0.295390
0.091485 -0.105273 0.295638
0.092872 -0.105249 0.295496
0.094245 -0.105210 0.295309
0.095727 -0.105292 0.295455
0.097229 -0.105392 0.295647
0.098678 -0.105433 0.295668
0.100075 -0.105419 0.295527
0.101646 -0.105585 0.295886
0.103222 -0.105753 0.296241
0.105108 -0.106229 0.297454
0.106706 -0.106405 0.297819
0.108086 -0.106361 0.297563
0.109416 -0.106270 0.297166
0.110903 -0.106332 0.297189
0.112395 -0.106397 0.297212
0.113801 -0.106380 0.297000
0.115225 -0.106380 0.296825
0.116742 -0.106464 0.296877
0.118307 -0.106589 0.297036
0.119956 -0.106787 0.297385
0.121620 -0.106993 0.297746
0.123099 -0.107033 0.297636
0.124480 -0.106988 0.297278
0.126096 -0.107144 0.297469
0.127593 -0.107196 0.297359
0.129025 -0.107193 0.297084
0.130555 -0.107270 0.297019
0.132176 -0.107419 0.297142
0.133684 -0.107474 0.296991
0.135432 -0.107720 0.297352
0.137132 -0.107922 0.297576
0.138762 -0.108065 0.297624
0.140494 -0.108284 0.297864
0.142273 -0.108533 0.298171
0.143972 -0.108718 0.298282
0.145604 -0.108849 0.298229
0.147040 -0.108831 0.297750
0.148694 -0.108974 0.297693
0.150279 -0.109064 0.297471
0.151792 -0.109100 0.297082
0.153333 -0.109156 0.296725
0.154904 -0.109231 0.296400
0.156457 -0.109292 0.296014
0.157942 -0.109305 0.295473
0.159736 -0.109530 0.295481
-0.153417 -0.106352 0.296242
-0.151263 -0.105844 0.295266
-0.149846 -0.105848 0.295698
-0.148498 -0.105901 0.296251
-0.146794 -0.105699 0.296073
-0.145120 -0.105514 0.295928
-0.143673 -0.105493 0.296223
-0.142074 -0.105359 0.296186
-0.140499 -0.105240 0.296178
-0.139007 -0.105182 0.296328
-0.137542 -0.105143 0.296516
-0.135951 -0.105006 0.296415
-0.134421 -0.104914 0.296428
-0.132851 -0.104790 0.296337
-0.131305 -0.104681 0.296278
-0.129888 -0.104674 0.296494
-0.128284 -0.104515 0.296269
-0.126501 -0.104205 0.295605
-0.124967 -0.104095 0.295497
-0.123676 -0.104188 0.295954
-0.121968 -0.103927 0.295398
-0.120628 -0.103979 0.295720
-0.119215 -0.103967 0.295854
-0.117745 -0.103905 0.295835
-0.116167 -0.103745 0.295529
-0.114705 -0.103686 0.295501
-0.113404 -0.103773 0.295883
-0.111806 -0.103588 0.295481
-0.110324 -0.103507 0.295366
-0.108936 -0.103512 0.295492
-0.107583 -0.103553 0.295711
-0.106268 -0.103631 0.296032
-0.104811 -0.103570 0.295950
-0.103431 -0.103585 0.296078
-0.102082 -0.103633 0.296293
-0.100623 -0.103569 0.296184
-0.099200 -0.103541 0.296169
-0.097786 -0.103521 0.296175
-0.096216 -0.103334 0.295694
-0.094861 -0.103374 0.295862
-0.093364 -0.103260 0.295582
-0.091954 -0.103240 0.295567
-0.090580 -0.103261 0.295662
-0.089197 -0.103271 0.295726
-0.087773 -0.103234 0.295648
-0.086295 -0.103131 0.295378
-0.084920 -0.103149 0.295451
-0.083492 -0.103104 0.295340
-0.082057 -0.103049 0.295194
-0.080567 -0.102920 0.294837
-0.079231 -0.102988 0.295038
-0.077908 -0.103075 0.295290
-0.076429 -0.102957 0.294953
-0.075042 -0.102958 0.294955
-0.073652 -0.102957 0.294946
-0.072258 -0.102950 0.294919
-0.070846 -0.102916 0.294814
-0.069455 -0.102913 0.294793
-0.068143 -0.103029 0.295111
-0.066743 -0.103015 0.295054
-0.065363 -0.103030 0.295080
-0.063990 -0.103058 0.295142
-0.062588 -0.103040 0.295069
-0.061155 -0.102969 0.294843
-0.059782 -0.102998 0.294901
-0.058374 -0.102966 0.294784
-0.056889 -0.102795 0.294267
-0.055648 -0.103067 0.295018
-0.054172 -0.102906 0.294528
-0.052775 -0.102891 0.294456
-0.051420 -0.102960 0.294622
-0.050029 -0.102958 0.294585
-0.048657 -0.102995 0.294659
-0.047220 -0.102895 0.294341
-0.045885 -0.103018 0.294660
-0.044496 -0.103021 0.294636
-0.043069 -0.102937 0.294361
-0.041682 -0.102944 0.294349
-0.040259 -0.102861 0.294076
-0.038864 -0.102845 0.293998
-0.037460 -0.102806 0.293852
-0.036052 -0.102752 0.293663
-0.034680 -0.102798 0.293763
-0.033278 -0.102758 0.293614
-0.031878 -0.102720 0.293472
-0.030497 -0.102744 0.293510
-0.029100 -0.102712 0.293386
-0.027680 -0.102593 0.293015
-0.026362 -0.102858 0.293740
-0.024978 -0.102881 0.293776
-0.023565 -0.102785 0.293471
-0.022208 -0.102934 0.293869
-0.020823 -0.102965 0.293929
-0.019431 -0.102961 0.293891
-0.018033 -0.102925 0.293762
-0.016650 -0.102978 0.293886
-0.015248 -0.102906 0.293655
-0.013861 -0.102941 0.293732
-0.012479 -0.103019 0.293933
-0.011083 -0.102983 0.293807
-0.009700 -0.103080 0.294064
-0.008299 -0.102991 0.293792
-0.006904 -0.102956 0.293671
-0.005521 -0.103120 0.294123
-0.004122 -0.103007 0.293785
-0.002728 -0.102966 0.293653
-0.001335 -0.102939 0.293561
0.000057 -0.103109 0.294035
0.001452 -0.103125 0.294069
0.002841 -0.102912 0.293451
0.004241 -0.103121 0.294035
0.005634 -0.103084 0.293921
0.007015 -0.102894 0.293373
0.008417 -0.103012 0.293703
0.009814 -0.103048 0.293802
0.011210 -0.103070 0.293861
0.012606 -0.103082 0.293891
0.014012 -0.103163 0.294121
0.015412 -0.103192 0.294202
0.016789 -0.103074 0.293866
0.018176 -0.103035 0.293757
0.019617 -0.103279 0.294455
0.020882 -0.102627 0.292598
0.022276 -0.102651 0.292668
0.023809 -0.103277 0.294459
0.024997 -0.102417 0.292011
0.026395 -0.102464 0.292151
0.027956 -0.103107 0.293991
0.029307 -0.102950 0.293552
0.030735 -0.103066 0.293887
0.032154 -0.103143 0.294115
0.033541 -0.103114 0.294041
0.034955 -0.103167 0.294201
0.036351 -0.103165 0.294205
0.037854 -0.103454 0.295039
0.039267 -0.103487 0.295140
0.040570 -0.103237 0.294438
0.042075 -0.103502 0.295202
0.043514 -0.103591 0.295465
0.044809 -0.103342 0.294762
0.046228 -0.103388 0.294901
0.047667 -0.103471 0.295147
0.049016 -0.103361 0.294839
0.050367 -0.103261 0.294561
0.051846 -0.103421 0.295023
0.053203 -0.103336 0.294787
0.054553 -0.103243 0.294525
0.056110 -0.103536 0.295365
0.057540 -0.103585 0.295506
0.058915 -0.103536 0.295367
0.060374 -0.103631 0.295640
0.061809 -0.103684 0.295787
0.063178 -0.103625 0.295617
0.064531 -0.103545 0.295383
0.065978 -0.103613 0.295571
0.067382 -0.103614 0.295563
0.068788 -0.103616 0.295560
0.070278 -0.103744 0.295910
0.071653 -0.103700 0.295769
0.073076 -0.103724 0.295820
0.074501 -0.103751 0.295877
0.075940 -0.103796 0.295983
0.077304 -0.103739 0.295792
0.078658 -0.103671 0.295568
0.080141 -0.103771 0.295821
0.081574 -0.103805 0.295883
0.082956 -0.103773 0.295752
0.084258 -0.103645 0.295344
0.085703 -0.103693 0.295433
0.087078 -0.103657 0.295279
0.088419 -0.103581 0.295008
0.089847 -0.103609 0.295028
0.091326 -0.103693 0.295202
0.092755 -0.103718 0.295206
0.094239 -0.103804 0.295375
0.095661 -0.103820 0.295342
0.097149 -0.103905 0.295500
0.098607 -0.103957 0.295557
0.099976 -0.103914 0.295340
0.101423 -0.103953 0.295348
0.103143 -0.104267 0.296131
0.104979 -0.104687 0.297210
0.106702 -0.104985 0.297933
0.108029 -0.104891 0.297537
0.109311 -0.104756 0.297018
0.110827 -0.104845 0.297128
0.112198 -0.104798 0.296841
0.113716 -0.104886 0.296932
0.115119 -0.104867 0.296711
0.116395 -0.104736 0.296163
0.118180 -0.105059 0.296891
0.119901 -0.105318 0.297428
0.121484 -0.105452 0.297600
0.122916 -0.105452 0.297386
0.124534 -0.105611 0.297608
0.126145 -0.105759 0.297791
0.127545 -0.105730 0.297461
0.129034 -0.105774 0.297326
0.130647 -0.105918 0.297459
0.132219 -0.106024 0.297475
0.133812 -0.106146 0.297520
0.135378 -0.106244 0.297486
0.137151 -0.106500 0.297878
0.138725 -0.106599 0.297815
0.140390 -0.106764 0.297922
0.142153 -0.106999 0.298210
0.143730 -0.107091 0.298081
0.145389 -0.107241 0.298096
0.146924 -0.107299 0.297835
0.148500 -0.107384 0.297633
0.150121 -0.107500 0.297497
0.151676 -0.107566 0.297206
0.153249 -0.107644 0.296923
0.154882 -0.107762 0.296732
0.156453 -0.107835 0.296393
0.157995 -0.107887 0.295972
0.159624 -0.107997 0.295686
-0.154713 -0.104820 0.295846
-0.152661 -0.104393 0.295088
-0.150644 -0.103982 0.294352
-0.149250 -0.103997 0.294808
-0.148085 -0.104174 0.295704
-0.146374 -0.103966 0.295491
-0.144734 -0.103806 0.295397
-0.143305 -0.103796 0.295715
-0.141768 -0.103706 0.295791
-0.140266 -0.103641 0.295923
-0.138814 -0.103612 0.296142
-0.137266 -0.103509 0.296140
-0.135718 -0.103405 0.296119
-0.134055 -0.103210 0.295826
-0.132503 -0.103097 0.295754
-0.130978 -0.103004 0.295727
-0.129574 -0.103004 0.295958
-0.127692 -0.102621 0.295077
-0.126296 -0.102625 0.295293
-0.124925 -0.102649 0.295560
-0.123491 -0.102621 0.295669
-0.122140 -0.102662 0.295966
-0.120600 -0.102544 0.295796
-0.119319 -0.102646 0.296250
-0.117833 -0.102572 0.296188
-0.116264 -0.102423 0.295901
-0.114895 -0.102449 0.296112
-0.113478 -0.102433 0.296193
-0.111851 -0.102224 0.295708
-0.110286 -0.102067 0.295367
-0.108894 -0.102068 0.295476
-0.107572 -0.102136 0.295773
-0.106180 -0.102140 0.295875
-0.104824 -0.102177 0.296069
-0.103626 -0.102373 0.296717
-0.102033 -0.102178 0.296224
-0.100556 -0.102095 0.296054
-0.099477 -0.102420 0.297058
-0.097542 -0.101861 0.295493
-0.096159 -0.101871 0.295574
-0.094752 -0.101854 0.295573
-0.093272 -0.101758 0.295335
-0.091854 -0.101728 0.295287
-0.090453 -0.101716 0.295284
-0.088930 -0.101564 0.294872
-0.087586 -0.101615 0.295045
-0.086295 -0.101730 0.295401
-0.084763 -0.101561 0.294928
-0.083471 -0.101679 0.295282
-0.082032 -0.101618 0.295114
-0.080583 -0.101543 0.294903
-0.079198 -0.101547 0.294918
-0.077891 -0.101653 0.295229
-0.076402 -0.101522 0.294843
-0.074981 -0.101478 0.294712
-0.073633 -0.101533 0.294863
-0.072298 -0.101608 0.295070
-0.070817 -0.101477 0.294678
-0.069473 -0.101541 0.294849
-0.068103 -0.101569 0.294912
-0.066785 -0.101678 0.295212
-0.065221 -0.101409 0.294408
-0.063744 -0.101266 0.293972
-0.062513 -0.101518 0.294677
-0.060961 -0.101247 0.293866
-0.059563 -0.101225 0.293777
-0.058224 -0.101304 0.293977
-0.056864 -0.101353 0.294088
-0.055473 -0.101344 0.294032
-0.054148 -0.101461 0.294340
-0.052760 -0.101462 0.294312
-0.051394 -0.101506 0.294406
-0.050030 -0.101557 0.294519
-0.048616 -0.101507 0.294340
-0.047206 -0.101464 0.294181
-0.045817 -0.101464 0.294145
-0.044426 -0.101460 0.294098
-0.043011 -0.101399 0.293886
-0.041603 -0.101350 0.293707
-0.040234 -0.101395 0.293804
-0.038806 -0.101293 0.293471
-0.037411 -0.101271 0.293372
-0.036048 -0.101338 0.293531
-0.034657 -0.101328 0.293466
-0.033237 -0.101229 0.293147
-0.031861 -0.101262 0.293206
-0.030495 -0.101333 0.293379
-0.028999 -0.100956 0.292253
-0.027652 -0.101086 0.292598
-0.026298 -0.101204 0.292905
-0.024910 -0.101198 0.292857
-0.023574 -0.101413 0.293449
-0.022184 -0.101411 0.293412
-0.020801 -0.101441 0.293470
-0.019452 -0.101656 0.294065
-0.018051 -0.101609 0.293901
-0.016650 -0.101556 0.293721
-0.015279 -0.101693 0.294092
-0.013877 -0.101631 0.293887
-0.012479 -0.101591 0.293750
-0.011091 -0.101623 0.293820
-0.009695 -0.101593 0.293713
-0.008299 -0.101553 0.293575
-0.006903 -0.101484 0.293358
-0.005517 -0.101577 0.293608
-0.004124 -0.101574 0.293584
-0.002728 -0.101405 0.293081
-0.001339 -0.101526 0.293415
0.000053 -0.101608 0.293639
0.001445 -0.101518 0.293369
0.002833 -0.101411 0.293049
0.004230 -0.101558 0.293465
0.005629 -0.101679 0.293806
0.007011 -0.101503 0.293291
0.008404 -0.101520 0.293333
0.009805 -0.101604 0.293571
0.011198 -0.101601 0.293560
0.012593 -0.101618 0.293607
0.013997 -0.101693 0.293823
0.015409 -0.101809 0.294156
0.016792 -0.101728 0.293924
0.018173 -0.101647 0.293691
0.019581 -0.101719 0.293903
0.020933 -0.101509 0.293299
0.022267 -0.101240 0.292529
0.023691 -0.101390 0.292967
0.025060 -0.101303 0.292721
0.026421 -0.101191 0.292405
0.028066 -0.102125 0.295111
0.029399 -0.101889 0.294437
0.030731 -0.101671 0.293816
0.032200 -0.101907 0.294508
0.033586 -0.101868 0.294407
0.034983 -0.101865 0.294406
0.036408 -0.101942 0.294640
0.037810 -0.101948 0.294668
0.039285 -0.102147 0.295256
0.040620 -0.101979 0.294779
0.042031 -0.102006 0.294870
0.043463 -0.102080 0.295094
0.044758 -0.101840 0.294410
0.046231 -0.102005 0.294900
0.047567 -0.101867 0.294511
0.048911 -0.101754 0.294192
0.050324 -0.101785 0.294292
0.051751 -0.101845 0.294473
0.053147 -0.101840 0.294468
0.054474 -0.101707 0.294089
0.056083 -0.102093 0.295212
0.057586 -0.102273 0.295737
0.059005 -0.102298 0.295813
0.060419 -0.102314 0.295862
0.061845 -0.102349 0.295964
0.063189 -0.102249 0.295675
0.064555 -0.102189 0.295498
0.065951 -0.102177 0.295462
0.067301 -0.102096 0.295221
0.068660 -0.102031 0.295027
0.070140 -0.102146 0.295348
0.071694 -0.102362 0.295960
0.073109 -0.102374 0.295980
0.074465 -0.102305 0.295763
0.075928 -0.102382 0.295967
0.077307 -0.102346 0.295840
0.078728 -0.102365 0.295870
0.080135 -0.102366 0.295842
0.081426 -0.102221 0.295391
0.082988 -0.102415 0.295917
0.084242 -0.102228 0.295339
0.085592 -0.102163 0.295108
0.087054 -0.102232 0.295259
0.088325 -0.102077 0.294760
0.089789 -0.102146 0.294905
0.091213 -0.102168 0.294909
0.092712 -0.102273 0.295146
0.094105 -0.102259 0.295037
0.095433 -0.102177 0.294724
0.096920 -0.102263 0.294893
0.098282 -0.102218 0.294678
0.099657 -0.102187 0.294499
0.101255 -0.102382 0.294964
0.102534 -0.102254 0.294491
0.104601 -0.102904 0.296254
0.106370 -0.103248 0.297127
0.107782 -0.103240 0.296983
0.109044 -0.103091 0.296422
0.110538 -0.103162 0.296489
0.111976 -0.103180 0.296395
0.113314 -0.103106 0.296029
0.114804 -0.103171 0.296054
0.116331 -0.103267 0.296159
0.117996 -0.103481 0.296593
0.119832 -0.103838 0.297428
0.121451 -0.104001 0.297697
0.122903 -0.104019 0.297539
0.124470 -0.104133 0.297647
0.125954 -0.104175 0.297538
0.127470 -0.104243 0.297490
0.128883 -0.104226 0.297190
0.130373 -0.104270 0.297054
0.132085 -0.104489 0.297401
0.133578 -0.104532 0.297235
0.135335 -0.104778 0.297635
0.136972 -0.104928 0.297743
0.138666 -0.105116 0.297949
0.140305 -0.105260 0.298012
0.141984 -0.105430 0.298133
0.143672 -0.105604 0.298248
0.145285 -0.105720 0.298181
0.146900 -0.105834 0.298093
0.148431 -0.105887 0.297813
0.149987 -0.105955 0.297559
0.151670 -0.106112 0.297533
0.153207 -0.106163 0.297192
0.154871 -0.106302 0.297072
0.156489 -0.106406 0.296835
0.158024 -0.106452 0.296412
0.159767 -0.106636 0.296349
-0.154789 -0.103430 0.296296
-0.152538 -0.102875 0.295143
-0.150509 -0.102460 0.294372
-0.149116 -0.102476 0.294818
-0.147674 -0.102457 0.295149
-0.146156 -0.102385 0.295309
-0.144520 -0.102228 0.295210
-0.143004 -0.102154 0.295334
-0.141561 -0.102131 0.295591
-0.140007 -0.102028 0.295601
-0.138630 -0.102051 0.295965
-0.136926 -0.101833 0.295615
-0.135327 -0.101689 0.295467
-0.134000 -0.101749 0.295898
-0.132089 -0.101363 0.295019
-0.130606 -0.101299 0.295068
-0.129204 -0.101299 0.295288
-0.127637 -0.101167 0.295116
-0.125938 -0.100927 0.294618
-0.124757 -0.101101 0.295316
-0.123424 -0.101155 0.295657
-0.122097 -0.101215 0.296004
-0.120574 -0.101112 0.295867
-0.119241 -0.101169 0.296188
-0.117864 -0.101188 0.296392
-0.115879 -0.100681 0.295042
-0.114227 -0.100453 0.294503
-0.112910 -0.100518 0.294818
-0.111464 -0.100469 0.294788
-0.110152 -0.100541 0.295107
-0.108731 -0.100514 0.295128
-0.107444 -0.100612 0.295510
-0.106203 -0.100757 0.296022
-0.104912 -0.100857 0.296398
-0.103507 -0.100849 0.296448
-0.102119 -0.100858 0.296543
-0.100803 -0.100938 0.296845
-0.099201 -0.100732 0.296295
-0.097590 -0.100510 0.295695
-0.096035 -0.100340 0.295243
-0.094704 -0.100402 0.295468
-0.093348 -0.100440 0.295617
-0.091782 -0.100250 0.295092
-0.090446 -0.100309 0.295295
-0.088976 -0.100219 0.295054
-0.087544 -0.100169 0.294929
-0.086175 -0.100191 0.295010
-0.084699 -0.100088 0.294719
-0.083345 -0.100128 0.294848
