ply
format ascii 1.0
element vertex 1680
property float x
property float y
property float z
end_header
0.063124 -0.107715 0.295321
0.064555 -0.107763 0.295436
0.065939 -0.107733 0.295338
0.067312 -0.107685 0.295187
0.068701 -0.107664 0.295110
0.070153 -0.107741 0.295298
0.071515 -0.107678 0.295099
0.072942 -0.107715 0.295170
0.074519 -0.107968 0.295832
0.075860 -0.107875 0.295543
0.077276 -0.107891 0.295550
0.078792 -0.108042 0.295923
0.080152 -0.107978 0.295703
0.081583 -0.108011 0.295745
0.083015 -0.108043 0.295782
0.084457 -0.108088 0.295848
0.085890 -0.108118 0.295873
0.087329 -0.108156 0.295912
0.088737 -0.108154 0.295839
0.090215 -0.108238 0.295993
0.091704 -0.108331 0.296170
0.093240 -0.108475 0.296482
0.094738 -0.108571 0.296656
0.096206 -0.108632 0.296728
0.097633 -0.108644 0.296662
0.099073 -0.108670 0.296628
0.100461 -0.108640 0.296435
0.101898 -0.108663 0.296378
0.103397 -0.108749 0.296490
0.104830 -0.108765 0.296401
0.106959 -0.109493 0.298248
0.108163 -0.109267 0.297485
0.109508 -0.109188 0.297116
0.111305 -0.109556 0.297956
0.112697 -0.109520 0.297690
0.114128 -0.109523 0.297519
0.115603 -0.109567 0.297452
0.117180 -0.109706 0.297634
0.118755 -0.109839 0.297788
0.120331 -0.109970 0.297928
0.121740 -0.109948 0.297642
0.123227 -0.109995 0.297534
0.124743 -0.110066 0.297480
0.126182 -0.110069 0.297229
0.127611 -0.110063 0.296945
0.129159 -0.110158 0.296920
0.130624 -0.110182 0.296690
0.132279 -0.110363 0.296871
0.133979 -0.110578 0.297128
0.135654 -0.110767 0.297301
0.137386 -0.110998 0.297570
0.139140 -0.111242 0.297860
0.141036 -0.111593 0.298418
0.142804 -0.111837 0.298670
0.144467 -0.111994 0.298674
0.146001 -0.112049 0.298387
0.147430 -0.112023 0.297865
0.149104 -0.112181 0.297815
0.150557 -0.112172 0.297300
0.151959 -0.112125 0.296666
0.153792 -0.112394 0.296844
0.155352 -0.112461 0.296464
0.156964 -0.112563 0.296155
0.158641 -0.112709 0.295937
0.160380 -0.112896 0.295799
-0.153228 -0.109103 0.295230
-0.151758 -0.109072 0.295606
-0.150283 -0.109037 0.295954
-0.148853 -0.109034 0.296370
-0.147555 -0.109129 0.297037
-0.145869 -0.108936 0.296903
-0.144399 -0.108903 0.297187
-0.142702 -0.108696 0.296981
-0.140992 -0.108475 0.296720
-0.139266 -0.108237 0.296399
-0.137528 -0.107985 0.296022
-0.136112 -0.107983 0.296318
-0.134642 -0.107939 0.296484
-0.133108 -0.107840 0.296489
-0.131494 -0.107676 0.296300
-0.129931 -0.107549 0.296202
-0.128471 -0.107507 0.296325
-0.127029 -0.107479 0.296476
-0.125326 -0.107226 0.295997
-0.123841 -0.107158 0.296015
-0.122668 -0.107360 0.296771
-0.120800 -0.106952 0.295831
-0.119508 -0.107050 0.296282
-0.118142 -0.107084 0.296546
-0.116482 -0.106850 0.296058
-0.115025 -0.106797 0.296065
-0.113611 -0.106784 0.296173
-0.112217 -0.106790 0.296326
-0.110708 -0.106686 0.296166
-0.109384 -0.106759 0.296489
-0.107974 -0.106749 0.296578
-0.106474 -0.106649 0.296407
-0.105042 -0.106616 0.296416
-0.103659 -0.106632 0.296556
-0.102089 -0.106454 0.296149
-0.100631 -0.106389 0.296051
-0.099356 -0.106519 0.296487
-0.097776 -0.106320 0.296007
-0.096327 -0.106262 0.295909
-0.094968 -0.106301 0.296079
-0.093580 -0.106309 0.296157
-0.091995 -0.106091 0.295598
-0.090561 -0.106041 0.295507
-0.089213 -0.106095 0.295697
-0.087715 -0.105967 0.295379
-0.086273 -0.105905 0.295238
-0.084888 -0.105912 0.295286
-0.083425 -0.105820 0.295055
-0.082052 -0.105841 0.295134
-0.080728 -0.105927 0.295392
-0.079280 -0.105852 0.295197
-0.077932 -0.105909 0.295368
-0.076588 -0.105974 0.295558
-0.075261 -0.106066 0.295818
-0.073894 -0.106103 0.295926
-0.072484 -0.106079 0.295856
-0.071118 -0.106120 0.295969
-0.069686 -0.106062 0.295802
-0.068261 -0.106013 0.295659
-0.066874 -0.106023 0.295675
-0.065362 -0.105830 0.295126
-0.064023 -0.105916 0.295353
-0.062621 -0.105898 0.295287
-0.060934 -0.105387 0.293847
-0.059529 -0.105351 0.293727
-0.058104 -0.105279 0.293505
-0.056760 -0.105352 0.293690
-0.055407 -0.105412 0.293834
-0.053998 -0.105367 0.293686
-0.052683 -0.105507 0.294049
-0.051302 -0.105519 0.294059
-0.049932 -0.105556 0.294135
-0.048575 -0.105623 0.294293
-0.047141 -0.105522 0.293983
-0.045788 -0.105599 0.294172
-0.044443 -0.105705 0.294437
-0.043018 -0.105618 0.294165
-0.041661 -0.105699 0.294363
-0.040381 -0.105987 0.295133
-0.038938 -0.105855 0.294736
-0.037572 -0.105927 0.294906
-0.036160 -0.105871 0.294721
-0.034729 -0.105756 0.294369
-0.033349 -0.105791 0.294437
-0.031922 -0.105675 0.294085
-0.030488 -0.105523 0.293632
-0.029098 -0.105513 0.293577
-0.027716 -0.105538 0.293616
-0.026323 -0.105520 0.293538
-0.024935 -0.105523 0.293519
-0.023561 -0.105587 0.293671
-0.022181 -0.105632 0.293770
-0.020805 -0.105699 0.293930
-0.019423 -0.105752 0.294051
-0.018032 -0.105752 0.294026
-0.016645 -0.105787 0.294100
-0.015249 -0.105762 0.294007
-0.013844 -0.105655 0.293689
-0.012465 -0.105756 0.293948
-0.011072 -0.105745 0.293896
-0.009671 -0.105646 0.293602
-0.008288 -0.105746 0.293862
-0.006897 -0.105765 0.293896
-0.005501 -0.105704 0.293709
-0.004109 -0.105678 0.293622
-0.002717 -0.105678 0.293609
-0.001327 -0.105739 0.293764
0.000066 -0.105655 0.293519
0.001460 -0.105874 0.294113
0.002848 -0.105639 0.293451
0.004245 -0.105798 0.293883
0.005643 -0.105883 0.294109
0.007026 -0.105702 0.293598
0.008429 -0.105839 0.293973
0.009814 -0.105745 0.293706
0.011209 -0.105766 0.293758
0.012614 -0.105865 0.294030
0.013994 -0.105755 0.293720
0.015405 -0.105879 0.294063
0.016820 -0.106002 0.294403
0.018201 -0.105917 0.294167
0.019613 -0.106004 0.294407
0.021030 -0.106105 0.294688
0.022409 -0.106018 0.294449
0.023813 -0.106047 0.294533
0.025220 -0.106090 0.294654
0.026619 -0.106092 0.294662
0.028025 -0.106122 0.294748
0.029415 -0.106093 0.294673
0.030778 -0.105970 0.294334
0.032185 -0.106006 0.294441
0.033542 -0.105878 0.294090
0.034939 -0.105883 0.294109
0.036335 -0.105884 0.294116
0.037726 -0.105870 0.294081
0.039357 -0.106507 0.295857
0.040674 -0.106281 0.295234
0.042045 -0.106204 0.295025
0.043509 -0.106360 0.295463
0.044859 -0.106235 0.295120
0.046259 -0.106236 0.295125
0.047614 -0.106132 0.294841
0.048961 -0.106020 0.294532
0.050328 -0.105954 0.294350
0.051811 -0.106129 0.294837
0.053170 -0.106049 0.294617
0.054435 -0.105789 0.293891
0.056160 -0.106414 0.295625
0.057518 -0.106329 0.295387
0.058923 -0.106334 0.295397
0.060407 -0.106479 0.295792
0.061782 -0.106427 0.295641
0.063161 -0.106386 0.295516
0.064551 -0.106363 0.295441
0.065953 -0.106361 0.295423
0.067283 -0.106246 0.295088
0.068700 -0.106270 0.295137
0.070156 -0.106352 0.295344
0.071525 -0.106301 0.295181
0.073016 -0.106430 0.295513
0.074566 -0.106639 0.296065
0.076098 -0.106813 0.296518
0.077520 -0.106831 0.296534
0.078933 -0.106835 0.296510
0.080339 -0.106830 0.296453
0.081738 -0.106815 0.296370
0.083114 -0.106772 0.296203
0.084468 -0.106702 0.295957
0.085852 -0.106672 0.295818
0.087270 -0.106684 0.295792
0.088647 -0.106647 0.295623
0.090025 -0.106611 0.295456
0.091580 -0.106783 0.295859
0.092987 -0.106780 0.295772
0.094377 -0.106757 0.295626
0.096202 -0.107221 0.296820
0.097523 -0.107117 0.296439
0.098951 -0.107131 0.296379
0.100483 -0.107256 0.296618
0.101870 -0.107225 0.296419
0.103549 -0.107498 0.297055
0.105119 -0.107653 0.297356
0.106663 -0.107776 0.297565
0.108163 -0.107852 0.297632
0.109510 -0.107776 0.297275
0.111268 -0.108101 0.298015
0.112743 -0.108146 0.297976
0.114011 -0.107993 0.297383
0.115570 -0.108117 0.297544
0.117048 -0.108162 0.297480
0.118657 -0.108327 0.297734
0.119988 -0.108237 0.297277
0.121582 -0.108383 0.297459
0.123002 -0.108372 0.297201
0.124307 -0.108261 0.296658
0.125985 -0.108473 0.296991
0.127467 -0.108514 0.296841
0.128805 -0.108433 0.296347
0.130524 -0.108671 0.296711
0.132152 -0.108829 0.296842
0.133557 -0.108801 0.296454
0.135261 -0.109015 0.296712
0.137108 -0.109338 0.297252
0.139030 -0.109714 0.297916
0.140681 -0.109870 0.297968
0.142454 -0.110117 0.298250
0.144217 -0.110351 0.298479
0.145907 -0.110526 0.298528
0.147435 -0.110575 0.298220
0.149064 -0.110699 0.298091
0.150691 -0.110817 0.297931
0.152358 -0.110963 0.297823
0.153995 -0.111085 0.297627
0.155559 -0.111152 0.297263
0.157084 -0.111190 0.296798
0.158630 -0.111241 0.296346
0.160352 -0.111414 0.296190
-0.153102 -0.107574 0.295317
-0.151439 -0.107405 0.295303
-0.150257 -0.107578 0.296210
-0.148700 -0.107483 0.296365
-0.146995 -0.107279 0.296198
-0.145606 -0.107303 0.296647
-0.144058 -0.107210 0.296755
-0.142401 -0.107033 0.296615
-0.140793 -0.106891 0.296554
-0.139086 -0.106669 0.296260
-0.137712 -0.106701 0.296656
-0.136019 -0.106484 0.296344
-0.134549 -0.106439 0.296500
-0.132308 -0.105777 0.294922
-0.131370 -0.106153 0.296225
-0.129680 -0.105924 0.295829
-0.127949 -0.105656 0.295311
-0.126704 -0.105787 0.295901
-0.125206 -0.105708 0.295891
-0.124000 -0.105877 0.296565
-0.122504 -0.105800 0.296541
-0.120990 -0.105705 0.296456
-0.119723 -0.105826 0.296968
-0.118217 -0.105736 0.296881
-0.116674 -0.105611 0.296684
-0.115137 -0.105489 0.296488
-0.113516 -0.105285 0.296054
-0.112222 -0.105384 0.296462
-0.110788 -0.105353 0.296498
-0.109402 -0.105365 0.296650
-0.107934 -0.105300 0.296575
-0.106439 -0.105205 0.296411
-0.105069 -0.105234 0.296588
-0.103321 -0.104879 0.295678
-0.101772 -0.104721 0.295314
-0.100516 -0.104863 0.295794
-0.099136 -0.104878 0.295907
-0.097623 -0.104751 0.295615
-0.096174 -0.104690 0.295504
-0.094869 -0.104787 0.295833
-0.093479 -0.104790 0.295893
-0.091876 -0.104553 0.295268
-0.090480 -0.104547 0.295293
-0.089133 -0.104598 0.295475
-0.087627 -0.104462 0.295122
-0.086177 -0.104388 0.294944
-0.084833 -0.104443 0.295124
-0.083393 -0.104380 0.294967
-0.082040 -0.104426 0.295114
-0.080740 -0.104542 0.295455
-0.079358 -0.104555 0.295502
-0.078035 -0.104646 0.295768
-0.076657 -0.104666 0.295830
-0.075319 -0.104743 0.296047
-0.073894 -0.104699 0.295923
-0.072497 -0.104694 0.295904
-0.071074 -0.104650 0.295776
-0.069609 -0.104544 0.295466
-0.068177 -0.104481 0.295278
-0.066749 -0.104424 0.295104
-0.065370 -0.104443 0.295142
-0.063975 -0.104435 0.295103
-0.062509 -0.104309 0.294730
-0.061125 -0.104317 0.294732
-0.059738 -0.104322 0.294725
-0.058280 -0.104199 0.294354
-0.056846 -0.104114 0.294091
-0.055486 -0.104165 0.294209
-0.054101 -0.104169 0.294196
-0.052703 -0.104148 0.294107
-0.051353 -0.104224 0.294295
-0.049998 -0.104295 0.294466
-0.048570 -0.104212 0.294203
-0.047183 -0.104214 0.294179
-0.045826 -0.104286 0.294352
-0.044438 -0.104290 0.294332
-0.043037 -0.104262 0.294220
-0.041644 -0.104254 0.294166
-0.040270 -0.104292 0.294242
-0.038918 -0.104396 0.294501
-0.037497 -0.104313 0.294235
-0.036123 -0.104359 0.294336
-0.034783 -0.104512 0.294734
-0.033332 -0.104331 0.294193
-0.031938 -0.104320 0.294131
-0.030562 -0.104368 0.294234
-0.029128 -0.104217 0.293778
-0.027672 -0.103967 0.293044
-0.026353 -0.104232 0.293760
-0.024958 -0.104209 0.293666
-0.023552 -0.104135 0.293431
-0.022195 -0.104282 0.293818
-0.020824 -0.104381 0.294069
-0.019438 -0.104414 0.294136
-0.018053 -0.104458 0.294234
-0.016661 -0.104466 0.294230
-0.015271 -0.104486 0.294264
-0.013884 -0.104537 0.294385
-0.012486 -0.104501 0.294261
-0.011093 -0.104511 0.294269
-0.009697 -0.104495 0.294204
-0.008294 -0.104380 0.293861
-0.006905 -0.104431 0.293986
-0.005507 -0.104345 0.293726
-0.004112 -0.104254 0.293456
-0.002721 -0.104247 0.293420
-0.001330 -0.104257 0.293433
0.000061 -0.104318 0.293593
0.001453 -0.104321 0.293589
0.002848 -0.104418 0.293853
0.004242 -0.104440 0.293905
0.005636 -0.104442 0.293903
0.007039 -0.104580 0.294282
0.008430 -0.104522 0.294112
0.009827 -0.104533 0.294139
0.011222 -0.104539 0.294150
0.012623 -0.104584 0.294274
0.014022 -0.104607 0.294335
0.015413 -0.104567 0.294221
0.016796 -0.104489 0.294002
0.018243 -0.104787 0.294841
0.019614 -0.104638 0.294423
0.020975 -0.104456 0.293911
0.022450 -0.104835 0.294979
0.023795 -0.104594 0.294305
0.025170 -0.104502 0.294049
0.026614 -0.104693 0.294592
0.028005 -0.104668 0.294528
0.029357 -0.104502 0.294066
0.030750 -0.104494 0.294049
0.032163 -0.104552 0.294217
0.033510 -0.104397 0.293788
0.034905 -0.104398 0.293798
0.036288 -0.104367 0.293718
0.037705 -0.104431 0.293905
0.039170 -0.104618 0.294438
0.040596 -0.104692 0.294653
0.042018 -0.104749 0.294821
0.043458 -0.104846 0.295101
0.044851 -0.104830 0.295061
0.046318 -0.104979 0.295487
0.047694 -0.104920 0.295327
0.049070 -0.104865 0.295177
0.050536 -0.105001 0.295563
0.051929 -0.104979 0.295506
0.053331 -0.104977 0.295503
0.054779 -0.105064 0.295748
0.056197 -0.105090 0.295824
0.057541 -0.104980 0.295513
0.058972 -0.105030 0.295651
0.060395 -0.105063 0.295742
0.061739 -0.104961 0.295448
0.063106 -0.104901 0.295274
0.064494 -0.104877 0.295197
0.065878 -0.104849 0.295110
0.067271 -0.104835 0.295058
0.068685 -0.104855 0.295100
0.070097 -0.104870 0.295126
0.071514 -0.104891 0.295166
0.072992 -0.105000 0.295451
0.074618 -0.105313 0.296308
0.076008 -0.105289 0.296212
0.077433 -0.105311 0.296245
0.078862 -0.105339 0.296290
0.080301 -0.105378 0.296365
0.081700 -0.105365 0.296288
0.083087 -0.105337 0.296166
0.084466 -0.105301 0.296016
0.085858 -0.105280 0.295907
0.087303 -0.105325 0.295977
0.088626 -0.105223 0.295631
0.090048 -0.105239 0.295611
0.091571 -0.105371 0.295915
0.093150 -0.105563 0.296380
0.094584 -0.105588 0.296369
0.096044 -0.105640 0.296432
0.097522 -0.105710 0.296538
0.098845 -0.105613 0.296171
0.100253 -0.105607 0.296052
0.101795 -0.105741 0.296322
0.103330 -0.105864 0.296552
0.105065 -0.106185 0.297330
0.106568 -0.106267 0.297432
0.107924 -0.106201 0.297115
0.109499 -0.106351 0.297391
0.111076 -0.106498 0.297653
0.112426 -0.106426 0.297294
0.113972 -0.106539 0.297445
0.115434 -0.106572 0.297363
0.116910 -0.106617 0.297305
0.118368 -0.106645 0.297190
0.119892 -0.106730 0.297225
0.121375 -0.106778 0.297147
0.122829 -0.106799 0.296984
0.124258 -0.106797 0.296748
0.125823 -0.106912 0.296825
0.127355 -0.106996 0.296804
0.128848 -0.107046 0.296676
0.130358 -0.107108 0.296571
0.132153 -0.107401 0.297092
0.133661 -0.107456 0.296941
0.135252 -0.107576 0.296955
0.136921 -0.107755 0.297117
0.138744 -0.108051 0.297585
0.140493 -0.108283 0.297861
0.142265 -0.108528 0.298156
0.143993 -0.108734 0.298327
0.145610 -0.108853 0.298241
0.147270 -0.109001 0.298216
0.148870 -0.109103 0.298045
0.150559 -0.109267 0.298025
0.152122 -0.109338 0.297728
0.153685 -0.109406 0.297405
0.155445 -0.109612 0.297435
0.156922 -0.109617 0.296894
0.158336 -0.109577 0.296210
0.160530 -0.110074 0.296950
-0.152657 -0.105826 0.294775
-0.151399 -0.105939 0.295532
-0.150185 -0.106087 0.296366
-0.148463 -0.105876 0.296181
-0.146971 -0.105826 0.296428
-0.145149 -0.105535 0.295985
-0.144022 -0.105749 0.296943
-0.141912 -0.105239 0.295849
-0.140640 -0.105346 0.296476
-0.139040 -0.105207 0.296397
-0.137413 -0.105045 0.296239
-0.135924 -0.104986 0.296357
-0.134304 -0.104823 0.296171
-0.132782 -0.104735 0.296181
-0.130903 -0.104361 0.295371
-0.129737 -0.104552 0.296150
-0.127599 -0.103957 0.294687
-0.126248 -0.103996 0.295012
-0.124912 -0.104049 0.295368
-0.123401 -0.103956 0.295298
-0.121988 -0.103944 0.295448
-0.120681 -0.104023 0.295848
-0.119265 -0.104010 0.295978
-0.117782 -0.103937 0.295926
-0.116417 -0.103968 0.296164
-0.114905 -0.103867 0.296016
-0.113512 -0.103873 0.296167
-0.112143 -0.103900 0.296369
-0.110667 -0.103828 0.296282
-0.109318 -0.103875 0.296529
-0.107860 -0.103819 0.296472
-0.106467 -0.103824 0.296584
-0.105045 -0.103801 0.296610
-0.103488 -0.103643 0.296242
-0.101998 -0.103548 0.296049
-0.100698 -0.103647 0.296405
-0.099294 -0.103639 0.296450
-0.097635 -0.103361 0.295715
-0.096271 -0.103392 0.295861
-0.094854 -0.103367 0.295840
-0.093273 -0.103159 0.295293
-0.091911 -0.103192 0.295429
-0.090518 -0.103190 0.295460
-0.089106 -0.103166 0.295424
-0.087651 -0.103090 0.295237
-0.086243 -0.103069 0.295200
-0.084853 -0.103068 0.295218
-0.083360 -0.102942 0.294874
-0.081997 -0.102972 0.294976
-0.080646 -0.103021 0.295125
-0.079349 -0.103142 0.295477
-0.078030 -0.103237 0.295755
-0.076679 -0.103293 0.295917
-0.075278 -0.103283 0.295885
-0.073947 -0.103369 0.296129
-0.072522 -0.103326 0.295997
-0.070948 -0.103065 0.295240
-0.069496 -0.102974 0.294969
-0.068168 -0.103067 0.295222
-0.066769 -0.103054 0.295167
-0.065275 -0.102891 0.294682
-0.063964 -0.103016 0.295020
-0.062579 -0.103026 0.295028
-0.061121 -0.102912 0.294678
-0.059729 -0.102907 0.294641
-0.058345 -0.102916 0.294641
-0.056928 -0.102865 0.294470
-0.055539 -0.102864 0.294437
-0.054109 -0.102786 0.294186
-0.052763 -0.102866 0.294385
-0.051370 -0.102859 0.294335
-0.049968 -0.102831 0.294222
-0.048601 -0.102877 0.294323
-0.047174 -0.102794 0.294053
-0.045800 -0.102826 0.294110
-0.044455 -0.102927 0.294366
-0.043020 -0.102820 0.294026
-0.041613 -0.102775 0.293864
-0.040257 -0.102855 0.294060
-0.038862 -0.102842 0.293989
-0.037448 -0.102774 0.293761
-0.036078 -0.102824 0.293869
-0.034697 -0.102848 0.293905
-0.033282 -0.102769 0.293645
-0.031925 -0.102872 0.293906
-0.030541 -0.102890 0.293926
-0.029143 -0.102864 0.293820
-0.027734 -0.102794 0.293588
-0.026363 -0.102861 0.293749
-0.024993 -0.102944 0.293956
-0.023566 -0.102790 0.293485
-0.022184 -0.102822 0.293549
-0.020816 -0.102926 0.293819
-0.019412 -0.102862 0.293608
-0.018019 -0.102847 0.293538
-0.016648 -0.102962 0.293841
-0.015250 -0.102918 0.293691
-0.013863 -0.102952 0.293765
-0.012483 -0.103052 0.294027
-0.011084 -0.102998 0.293851
-0.009699 -0.103071 0.294040
-0.008304 -0.103052 0.293964
-0.006910 -0.103045 0.293927
-0.005520 -0.103105 0.294080
-0.004118 -0.102918 0.293532
-0.002729 -0.103014 0.293790
-0.001335 -0.102951 0.293596
0.000057 -0.102929 0.293521
0.001451 -0.103084 0.293950
0.002842 -0.102965 0.293601
0.004240 -0.103083 0.293929
0.005638 -0.103168 0.294161
0.007039 -0.103241 0.294363
0.008430 -0.103171 0.294158
0.009830 -0.103215 0.294277
0.011240 -0.103341 0.294633
0.012626 -0.103244 0.294355
0.014003 -0.103102 0.293947
0.015400 -0.103114 0.293981
0.016808 -0.103194 0.294207
0.018151 -0.102890 0.293343
0.019579 -0.103077 0.293879
0.020955 -0.102985 0.293618
0.022355 -0.103014 0.293705
0.023792 -0.103200 0.294240
0.025151 -0.103049 0.293813
0.026581 -0.103185 0.294208
0.027990 -0.103229 0.294339
0.029374 -0.103185 0.294219
0.030773 -0.103193 0.294250
0.032164 -0.103174 0.294205
0.033578 -0.103227 0.294363
0.034958 -0.103175 0.294225
0.036360 -0.103190 0.294275
0.037889 -0.103552 0.295316
0.039228 -0.103385 0.294850
0.040614 -0.103350 0.294758
0.042138 -0.103657 0.295642
0.043498 -0.103553 0.295355
0.044880 -0.103507 0.295233
0.046265 -0.103469 0.295134
0.047677 -0.103493 0.295210
0.049117 -0.103574 0.295448
0.050426 -0.103382 0.294906
0.051901 -0.103531 0.295338
0.053319 -0.103562 0.295432
0.054711 -0.103541 0.295376
0.056127 -0.103566 0.295450
0.057554 -0.103610 0.295577
0.058967 -0.103627 0.295628
0.060320 -0.103539 0.295378
0.061730 -0.103552 0.295412
0.063097 -0.103494 0.295242
0.064476 -0.103457 0.295131
0.065924 -0.103529 0.295330
0.067324 -0.103525 0.295311
0.068755 -0.103567 0.295420
0.070269 -0.103731 0.295873
0.071723 -0.103800 0.296055
0.073129 -0.103799 0.296035
0.074604 -0.103895 0.296287
0.076001 -0.103879 0.296220
0.077336 -0.103782 0.295915
0.078823 -0.103887 0.296186
0.080276 -0.103947 0.296323
0.081676 -0.103934 0.296251
0.083051 -0.103892 0.296091
0.084390 -0.103807 0.295805
0.085756 -0.103757 0.295617
0.087132 -0.103721 0.295462
0.088462 -0.103631 0.295151
0.089876 -0.103642 0.295124
0.091294 -0.103657 0.295100
0.092702 -0.103659 0.295038
0.094449 -0.104036 0.296036
0.095951 -0.104134 0.296236
0.097467 -0.104245 0.296468
0.098900 -0.104266 0.296436
0.100216 -0.104164 0.296049
0.101586 -0.104120 0.295823
0.103363 -0.104488 0.296761
0.104688 -0.104397 0.296387
0.106376 -0.104665 0.297024
0.108413 -0.105263 0.298594
0.109107 -0.104560 0.296463
0.111211 -0.105209 0.298157
0.112663 -0.105232 0.298072
0.113879 -0.105036 0.297356
0.115490 -0.105206 0.297669
0.116785 -0.105086 0.297153
0.118241 -0.105113 0.297043
0.119718 -0.105157 0.296974
0.121310 -0.105301 0.297175
0.122746 -0.105307 0.296977
0.124268 -0.105385 0.296973
0.125851 -0.105513 0.297096
0.127422 -0.105628 0.297172
0.128840 -0.105615 0.296879
0.130455 -0.105762 0.297021
0.132131 -0.105954 0.297278
0.133674 -0.106037 0.297215
0.135249 -0.106143 0.297201
0.137063 -0.106432 0.297688
0.138816 -0.106668 0.298009
0.140541 -0.106879 0.298243
0.142202 -0.107036 0.298313
0.143940 -0.107248 0.298516
0.145625 -0.107416 0.298581
0.147329 -0.107594 0.298656
0.148945 -0.107706 0.298526
0.150391 -0.107693 0.298032
0.152111 -0.107875 0.298058
0.153608 -0.107896 0.297620
0.155046 -0.107876 0.297046
0.156506 -0.107872 0.296494
0.158236 -0.108051 0.296423
0.159767 -0.108093 0.295951
-0.156167 -0.105805 0.298625
-0.152357 -0.104185 0.294499
-0.150648 -0.103984 0.294361
-0.149479 -0.104157 0.295259
-0.147986 -0.104104 0.295506
-0.146526 -0.104075 0.295799
-0.145056 -0.104038 0.296056
-0.143444 -0.103896 0.296001
-0.141971 -0.103855 0.296214
-0.140502 -0.103815 0.296420
-0.138833 -0.103625 0.296181
-0.137026 -0.103328 0.295622
-0.135703 -0.103393 0.296086
-0.133998 -0.103166 0.295700
-0.132506 -0.103100 0.295762
-0.131133 -0.103126 0.296077
-0.129550 -0.102985 0.295904
-0.127903 -0.102791 0.295564
-0.126448 -0.102748 0.295649
-0.125166 -0.102846 0.296129
-0.123584 -0.102698 0.295891
-0.122404 -0.102884 0.296607
-0.121005 -0.102888 0.296788
-0.119280 -0.102612 0.296153
-0.117482 -0.102266 0.295306
-0.116297 -0.102452 0.295986
-0.114833 -0.102394 0.295952
-0.113336 -0.102304 0.295821
-0.111960 -0.102323 0.295996
-0.110530 -0.102293 0.296020
-0.109260 -0.102411 0.296470
-0.107821 -0.102373 0.296457
-0.106380 -0.102332 0.296433
-0.105000 -0.102349 0.296569
-0.103798 -0.102543 0.297209
-0.102185 -0.102330 0.296665
-0.100781 -0.102324 0.296718
-0.099633 -0.102581 0.297524
-0.097803 -0.102134 0.296286
-0.096188 -0.101901 0.295662
-0.094739 -0.101840 0.295532
-0.093410 -0.101908 0.295773
-0.091828 -0.101699 0.295204
-0.090432 -0.101693 0.295217
-0.089041 -0.101691 0.295240
-0.087543 -0.101566 0.294902
-0.086106 -0.101508 0.294756
-0.084747 -0.101542 0.294872
-0.083399 -0.101591 0.295026
-0.081941 -0.101506 0.294789
-0.080620 -0.101590 0.295040
-0.079355 -0.101748 0.295503
-0.077963 -0.101747 0.295501
-0.076608 -0.101795 0.295638
-0.075236 -0.101823 0.295714
-0.073820 -0.101790 0.295609
-0.072378 -0.101720 0.295397
-0.070802 -0.101455 0.294615
-0.069433 -0.101483 0.294679
-0.068047 -0.101486 0.294673
-0.066641 -0.101458 0.294573
-0.065234 -0.101429 0.294467
-0.063850 -0.101434 0.294459
-0.062495 -0.101488 0.294591
-0.061096 -0.101470 0.294514
-0.059701 -0.101459 0.294454
-0.058289 -0.101418 0.294306
-0.056919 -0.101450 0.294370
-0.055523 -0.101435 0.294297
-0.054160 -0.101483 0.294405
-0.052774 -0.101489 0.294389
-0.051390 -0.101498 0.294383
-0.050027 -0.101552 0.294506
-0.048616 -0.101507 0.294340
-0.047152 -0.101347 0.293842
-0.045761 -0.101340 0.293785
-0.044426 -0.101458 0.294093
-0.042977 -0.101318 0.293651
-0.041580 -0.101293 0.293543
-0.040229 -0.101383 0.293769
-0.038828 -0.101350 0.293638
-0.037464 -0.101413 0.293785
-0.036031 -0.101291 0.293396
-0.034678 -0.101390 0.293648
-0.033267 -0.101320 0.293408
-0.031885 -0.101339 0.293429
-0.030489 -0.101311 0.293315
-0.029065 -0.101187 0.292923
-0.027688 -0.101217 0.292976
-0.026314 -0.101265 0.293084
-0.024922 -0.101248 0.293001
-0.023564 -0.101369 0.293322
-0.022190 -0.101440 0.293498
-0.020807 -0.101469 0.293553
-0.019443 -0.101610 0.293932
-0.018053 -0.101622 0.293939
-0.016666 -0.101655 0.294007
-0.015278 -0.101690 0.294082
-0.013873 -0.101602 0.293806
-0.012490 -0.101673 0.293987
-0.011099 -0.101697 0.294033
-0.009704 -0.101681 0.293967
-0.008310 -0.101684 0.293954
-0.006918 -0.101708 0.294006
-0.005524 -0.101708 0.293988
-0.004131 -0.101727 0.294026
-0.002737 -0.101741 0.294052
-0.001342 -0.101745 0.294049
0.000053 -0.101670 0.293820
0.001447 -0.101681 0.293838
0.002839 -0.101608 0.293619
0.004230 -0.101555 0.293455
0.005628 -0.101653 0.293730
0.007021 -0.101642 0.293692
0.008414 -0.101634 0.293662
0.009814 -0.101706 0.293868
0.011207 -0.101688 0.293810
0.012604 -0.101703 0.293854
0.013997 -0.101694 0.293825
0.015394 -0.101705 0.293858
0.016791 -0.101717 0.293893
0.018173 -0.101644 0.293685
0.019575 -0.101688 0.293815
0.020980 -0.101737 0.293960
0.022360 -0.101663 0.293751
0.023759 -0.101683 0.293814
0.025171 -0.101751 0.294017
0.026565 -0.101746 0.294008
0.027968 -0.101770 0.294085
0.029373 -0.101799 0.294177
0.030797 -0.101890 0.294449
0.032173 -0.101820 0.294256
0.033580 -0.101850 0.294353
0.035002 -0.101920 0.294565
0.036358 -0.101802 0.294234
0.037832 -0.102008 0.294843
0.039268 -0.102103 0.295128
0.040633 -0.102010 0.294870
0.042057 -0.102069 0.295050
0.043490 -0.102143 0.295277
0.044828 -0.101997 0.294865
0.046316 -0.102191 0.295437
0.047640 -0.102023 0.294959
0.049071 -0.102085 0.295151
0.050430 -0.102000 0.294913
0.051864 -0.102067 0.295114
0.053275 -0.102084 0.295173
0.054589 -0.101922 0.294712
0.056146 -0.102208 0.295543
0.057460 -0.102049 0.295090
0.058918 -0.102148 0.295379
0.060348 -0.102194 0.295514
0.061698 -0.102105 0.295260
0.063139 -0.102168 0.295440
0.064492 -0.102089 0.295210
0.065892 -0.102085 0.295194
0.067347 -0.102166 0.295423
0.068747 -0.102161 0.295402
0.070257 -0.102316 0.295840
0.071731 -0.102414 0.296110
0.073152 -0.102434 0.296154
0.074511 -0.102367 0.295943
0.075973 -0.102442 0.296141
0.077388 -0.102453 0.296148
0.078821 -0.102486 0.296218
0.080307 -0.102586 0.296479
0.081632 -0.102480 0.296139
0.083055 -0.102497 0.296155
0.084421 -0.102447 0.295969
0.085767 -0.102372 0.295711
0.087136 -0.102327 0.295534
0.088504 -0.102283 0.295355
0.089874 -0.102243 0.295185
0.091261 -0.102223 0.295067
0.092738 -0.102302 0.295231
0.094172 -0.102332 0.295247
0.095627 -0.102383 0.295321
0.097046 -0.102396 0.295277
0.098257 -0.102191 0.294602
0.099766 -0.102299 0.294820
0.101463 -0.102592 0.295568
0.102792 -0.102511 0.295232
0.104675 -0.102977 0.296464
0.106264 -0.103145 0.296831
0.107567 -0.103034 0.296389
0.109046 -0.103093 0.296428
0.110527 -0.103152 0.296459
0.111891 -0.103101 0.296169
0.113544 -0.103316 0.296631
0.115041 -0.103384 0.296665
0.116490 -0.103407 0.296561
0.118168 -0.103632 0.297026
0.119846 -0.103851 0.297464
0.121342 -0.103908 0.297430
0.122859 -0.103982 0.297434
0.124224 -0.103928 0.297059
0.125711 -0.103975 0.296965
0.127390 -0.104177 0.297304
0.128811 -0.104167 0.297024
0.130352 -0.104253 0.297005
0.132003 -0.104424 0.297217
0.133482 -0.104457 0.297023
0.135053 -0.104560 0.297015
0.136598 -0.104641 0.296929
0.138393 -0.104909 0.297362
0.139847 -0.104916 0.297038
0.141798 -0.105293 0.297744
0.143547 -0.105513 0.297989
0.145311 -0.105739 0.298235
0.147071 -0.105957 0.298440
0.148576 -0.105990 0.298104
0.150144 -0.106066 0.297871
0.151850 -0.106238 0.297886
0.153275 -0.106211 0.297325
0.154943 -0.106351 0.297211
0.156335 -0.106301 0.296542
0.157818 -0.106313 0.296026
0.159592 -0.106519 0.296025
-0.156243 -0.104401 0.299079
-0.152492 -0.102844 0.295055
-0.150515 -0.102464 0.294384
-0.149124 -0.102481 0.294832
-0.147943 -0.102644 0.295687
-0.146360 -0.102528 0.295723
-0.144788 -0.102418 0.295758
-0.143288 -0.102357 0.295921
-0.141856 -0.102344 0.296207
-0.140347 -0.102275 0.296318
-0.138493 -0.101951 0.295674
-0.136881 -0.101800 0.295519
-0.135432 -0.101769 0.295697
-0.134195 -0.101898 0.296331
-0.132180 -0.101432 0.295222
-0.130686 -0.101362 0.295250
-0.130739 -0.102502 0.298797
-0.127523 -0.101077 0.294854
-0.126155 -0.101101 0.295125
-0.124737 -0.101085 0.295269
-0.123371 -0.101112 0.295530
-0.122086 -0.101206 0.295979
-0.120553 -0.101095 0.295816
-0.119007 -0.100970 0.295606
-0.117689 -0.101038 0.295951
-0.115896 -0.100695 0.295083
-0.114356 -0.100567 0.294837
-0.113032 -0.100627 0.295137
-0.111468 -0.100473 0.294799
-0.110149 -0.100539 0.295099
-0.108986 -0.100750 0.295820
-0.107522 -0.100685 0.295723
-0.106218 -0.100771 0.296064
-0.105128 -0.101065 0.297009
-0.103629 -0.100967 0.296797
-0.102155 -0.100893 0.296648
-0.100961 -0.101097 0.297310
-0.099470 -0.101005 0.297098
-0.097512 -0.100429 0.295458
-0.096040 -0.100345 0.295259
-0.094793 -0.100497 0.295747
-0.093176 -0.100255 0.295073
-0.091714 -0.100176 0.294874
-0.090302 -0.100149 0.294824
-0.088927 -0.100163 0.294891
-0.087447 -0.100058 0.294601
-0.085977 -0.099962 0.294335
-0.084674 -0.100058 0.294632
-0.083238 -0.099999 0.294469
-0.081993 -0.100172 0.294982
-0.080666 -0.100248 0.295210
-0.079217 -0.100173 0.294990
-0.078007 -0.100403 0.295664
-0.076637 -0.100433 0.295745
-0.074778 -0.099809 0.293901
-0.073842 -0.100418 0.295682
-0.072232 -0.100117 0.294781
-0.070834 -0.100104 0.294727
-0.069607 -0.100336 0.295393
-0.068115 -0.100188 0.294937
-0.066842 -0.100363 0.295429
-0.065345 -0.100202 0.294932
-0.063908 -0.100129 0.294691
-0.062606 -0.100267 0.295071
-0.061135 -0.100136 0.294658
-0.059722 -0.100096 0.294510
-0.058365 -0.100151 0.294639
-0.056948 -0.100102 0.294465
-0.055548 -0.100082 0.294373
-0.054170 -0.100102 0.294396
-0.052780 -0.100100 0.294354
-0.051414 -0.100145 0.294453
-0.050051 -0.100200 0.294577
-0.048657 -0.100191 0.294514
-0.047261 -0.100180 0.294447
-0.045829 -0.100089 0.294142
-0.044453 -0.100119 0.294192
-0.043058 -0.100106 0.294115
-0.041588 -0.099914 0.293513
-0.040188 -0.099880 0.293377
-0.038829 -0.099952 0.293551
-0.037395 -0.099829 0.293151
-0.036036 -0.099903 0.293331
-0.034687 -0.100013 0.293616
-0.033267 -0.099918 0.293302
-0.031852 -0.099833 0.293015
-0.030536 -0.100064 0.293659
-0.029153 -0.100087 0.293691
-0.027662 -0.099721 0.292584
-0.026287 -0.099760 0.292665
-0.024936 -0.099898 0.293036
-0.023527 -0.099808 0.292740
-0.022155 -0.099872 0.292898
-0.020770 -0.099880 0.292890
-0.019392 -0.099929 0.293003
-0.018024 -0.100041 0.293304
-0.016632 -0.100032 0.293251
-0.015263 -0.100166 0.293618
-0.013879 -0.100223 0.293759
-0.012487 -0.100228 0.293751
-0.011111 -0.100375 0.294159
-0.009724 -0.100454 0.294369
-0.008319 -0.100345 0.294029
-0.006932 -0.100448 0.294312
-0.005536 -0.100448 0.294294
-0.004137 -0.100383 0.294084
-0.002741 -0.100351 0.293975
-0.001346 -0.100347 0.293949
0.000049 -0.100349 0.293942
0.001442 -0.100265 0.293687
0.002834 -0.100192 0.293462
0.004226 -0.100167 0.293379
0.005622 -0.100227 0.293548
0.007016 -0.100237 0.293569
0.008408 -0.100216 0.293504
0.009807 -0.100283 0.293694
0.011202 -0.100281 0.293687
0.012592 -0.100250 0.293593
0.013981 -0.100216 0.293494
0.015387 -0.100293 0.293720
0.016764 -0.100190 0.293421
0.018145 -0.100122 0.293225
0.019583 -0.100356 0.293914
0.020956 -0.100248 0.293600
0.022343 -0.100213 0.293504
0.023773 -0.100364 0.293955
0.025161 -0.100333 0.293870
0.026561 -0.100350 0.293930
0.027959 -0.100356 0.293955
0.029402 -0.100516 0.294435
0.030776 -0.100438 0.294215
0.032178 -0.100452 0.294269
0.033593 -0.100504 0.294432
0.034980 -0.100473 0.294351
0.036388 -0.100499 0.294442
0.037804 -0.100545 0.294590
0.039235 -0.100628 0.294844
0.040649 -0.100663 0.294961
0.042012 -0.100573 0.294708
0.043453 -0.100668 0.295000
0.044887 -0.100742 0.295230
0.046241 -0.100637 0.294937
0.047637 -0.100627 0.294920
0.049140 -0.100837 0.295547
0.050530 -0.100810 0.295480
0.051957 -0.100856 0.295626
0.053374 -0.100880 0.295707
0.054830 -0.100975 0.295993
0.056173 -0.100863 0.295674
0.057562 -0.100836 0.295604
0.058978 -0.100857 0.295673
0.060335 -0.100778 0.295445
0.061732 -0.100768 0.295421
0.063117 -0.100739 0.295338
0.064511 -0.100726 0.295299
0.065878 -0.100671 0.295139
0.067286 -0.100681 0.295164
0.068725 -0.100735 0.295318
0.070096 -0.100688 0.295176
0.071519 -0.100717 0.295251
0.073057 -0.100904 0.295789
0.074492 -0.100944 0.295891
0.075876 -0.100915 0.295789
0.077407 -0.101078 0.296249
0.078937 -0.101235 0.296687
0.080319 -0.101200 0.296559
0.081651 -0.101103 0.296246
0.083071 -0.101117 0.296256
0.084420 -0.101045 0.296010
0.085746 -0.100949 0.295690
0.087078 -0.100863 0.295394
0.088399 -0.100766 0.295065
0.089843 -0.100811 0.295146
0.091340 -0.100913 0.295389
0.092733 -0.100899 0.295286
0.094292 -0.101063 0.295701
0.095745 -0.101110 0.295768
0.097135 -0.101089 0.295632
0.098517 -0.101062 0.295470
0.099940 -0.101076 0.295426
0.101284 -0.101011 0.295145
0.103014 -0.101328 0.295972
0.104486 -0.101386 0.296036
0.105950 -0.101434 0.296067
0.107558 -0.101618 0.296483
0.109065 -0.101701 0.296602
0.110270 -0.101506 0.295899
0.112156 -0.101933 0.297006
0.113859 -0.102186 0.297595
0.115131 -0.102050 0.297042
0.116573 -0.102067 0.296926
0.118220 -0.102260 0.297314
0.119654 -0.102267 0.297152
0.121297 -0.102450 0.297491
0.122789 -0.102502 0.297441
0.124223 -0.102505 0.297238
0.125816 -0.102638 0.297401
0.127245 -0.102637 0.297163
0.128692 -0.102648 0.296952
0.130256 -0.102752 0.296998
0.131632 -0.102707 0.296599
0.133231 -0.102835 0.296690
0.134895 -0.103010 0.296901
0.136686 -0.103277 0.297363
0.138123 -0.103274 0.297033
0.139808 -0.103454 0.297215
0.141451 -0.103599 0.297282
0.143428 -0.103983 0.298018
0.145136 -0.104168 0.298162
0.146749 -0.104280 0.298083
0.148313 -0.104356 0.297882
0.149985 -0.104505 0.297872
0.151528 -0.104563 0.297580
0.152963 -0.104545 0.297056
0.154543 -0.104626 0.296790
0.155720 -0.104435 0.295734
0.157291 -0.104510 0.295407
0.158850 -0.104575 0.295031
-0.155392 -0.102386 0.297747
-0.152128 -0.101169 0.294634
-0.150559 -0.101066 0.294744
-0.149203 -0.101106 0.295254
-0.147671 -0.101027 0.295398
-0.146221 -0.101003 0.295690
-0.144646 -0.100891 0.295708
-0.143026 -0.100746 0.295611
-0.141129 -0.100401 0.294913
-0.140011 -0.100608 0.295825
-0.138364 -0.100437 0.295608
-0.136689 -0.100241 0.295305
-0.135346 -0.100286 0.295702
-0.133728 -0.100128 0.295486
-0.132105 -0.099962 0.295233
-0.130389 -0.099722 0.294752
-0.129030 -0.099753 0.295058
-0.127316 -0.099506 0.294534
-0.125937 -0.099519 0.294768
-0.124606 -0.099572 0.295108
-0.123117 -0.099497 0.295063
-0.121783 -0.099548 0.295380
-0.120388 -0.099549 0.295540
-0.118872 -0.099449 0.295393
-0.117259 -0.099265 0.294987
-0.115907 -0.099301 0.295226
-0.114244 -0.099067 0.294654
-0.112762 -0.098987 0.294532
-0.111373 -0.098987 0.294643
-0.109976 -0.098981 0.294726
-0.108711 -0.099094 0.295159
-0.107427 -0.099194 0.295546
-0.106082 -0.099239 0.295762
-0.104836 -0.099379 0.296256
-0.103471 -0.099409 0.296414
-0.102026 -0.099361 0.296338
-0.100682 -0.099412 0.296548
-0.098770 -0.098895 0.295060
-0.097307 -0.098820 0.294885
-0.095920 -0.098822 0.294933
-0.094465 -0.098752 0.294762
-0.093026 -0.098697 0.294633
-0.091660 -0.098720 0.294731
-0.090336 -0.098789 0.294963
-0.088867 -0.098699 0.294715
-0.087519 -0.098743 0.294863
-0.086138 -0.098751 0.294899
-0.084624 -0.098604 0.294471
-0.083327 -0.098710 0.294791
-0.081971 -0.098748 0.294907
-0.080508 -0.098656 0.294633
-0.079209 -0.098765 0.294956
-0.077868 -0.098825 0.295128
-0.076310 -0.098608 0.294470
-0.074965 -0.098663 0.294623
-0.073634 -0.098739 0.294834
-0.072062 -0.098487 0.294067
-0.070739 -0.098574 0.294307
-0.069292 -0.098487 0.294025
-0.067966 -0.098573 0.294259
-0.066588 -0.098585 0.294270
-0.065212 -0.098601 0.294292
-0.063861 -0.098657 0.294428
-0.062415 -0.098565 0.294125
-0.061085 -0.098656 0.294366
-0.059641 -0.098564 0.294059
-0.058279 -0.098605 0.294148
-0.056894 -0.098611 0.294129
-0.055543 -0.098674 0.294282
-0.054161 -0.098687 0.294285
-0.052773 -0.098689 0.294251
-0.051410 -0.098736 0.294356
-0.050018 -0.098732 0.294305
-0.048648 -0.098771 0.294382
-0.047171 -0.098591 0.293806
-0.045763 -0.098547 0.293636
-0.044488 -0.098795 0.294335
-0.043044 -0.098672 0.293929
-0.041611 -0.098569 0.293581
-0.040283 -0.098716 0.293978
-0.038863 -0.098639 0.293711
-0.037441 -0.098550 0.293406
-0.036056 -0.098557 0.293388
-0.034654 -0.098518 0.293234
-0.033270 -0.098526 0.293220
-0.031869 -0.098484 0.293058
-0.030480 -0.098479 0.293005
-0.029112 -0.098543 0.293157
-0.027723 -0.098537 0.293104
-0.026345 -0.098573 0.293176
-0.024977 -0.098653 0.293381
-0.023590 -0.098665 0.293382
-0.022206 -0.098691 0.293428
-0.020837 -0.098793 0.293701
-0.019457 -0.098852 0.293847
-0.018060 -0.098824 0.293733
-0.016681 -0.098903 0.293938
-0.015282 -0.098868 0.293810
-0.013891 -0.098880 0.293818
-0.012500 -0.098902 0.293860
-0.011111 -0.098938 0.293944
-0.009727 -0.099051 0.294255
-0.008329 -0.099020 0.294143
-0.006937 -0.099066 0.294261
-0.005545 -0.099146 0.294478
-0.004145 -0.099067 0.294229
-0.002748 -0.099067 0.294213
-0.001351 -0.098969 0.293906
0.000044 -0.098947 0.293829
0.001440 -0.098990 0.293944
0.002831 -0.098835 0.293474
0.004224 -0.098821 0.293423
0.005620 -0.098874 0.293572
0.007012 -0.098846 0.293484
0.008405 -0.098846 0.293478
0.009801 -0.098862 0.293524
0.011198 -0.098889 0.293601
0.012581 -0.098805 0.293350
0.013977 -0.098821 0.293400
0.015372 -0.098834 0.293439
0.016739 -0.098674 0.292966
0.018147 -0.098762 0.293232
0.019539 -0.098758 0.293223
0.020924 -0.098721 0.293119
0.022322 -0.098744 0.293194
0.023727 -0.098797 0.293359
0.025128 -0.098825 0.293451
0.026533 -0.098868 0.293588
0.027944 -0.098924 0.293766
0.029362 -0.098999 0.294001
0.030788 -0.099094 0.294293
0.032201 -0.099140 0.294443
0.033597 -0.099131 0.294430
0.035009 -0.099170 0.294558
0.036416 -0.099190 0.294634
0.037799 -0.099146 0.294518
0.039261 -0.099306 0.295007
0.040604 -0.099163 0.294598
0.041989 -0.099130 0.294512
0.043454 -0.099280 0.294974
0.044814 -0.099189 0.294718
0.046247 -0.099260 0.294945
0.047631 -0.099224 0.294854
0.049070 -0.099303 0.295101
0.050487 -0.099331 0.295200
0.051849 -0.099255 0.294987
0.053267 -0.099287 0.295095
0.054749 -0.099432 0.295539
0.056096 -0.099332 0.295252
0.057461 -0.099267 0.295069
0.059005 -0.099507 0.295793
0.060351 -0.099411 0.295514
0.061677 -0.099286 0.295150
0.063167 -0.099424 0.295565
0.064511 -0.099332 0.295297
0.065848 -0.099232 0.295003
0.067248 -0.099231 0.295000
0.068625 -0.099196 0.294895
0.069940 -0.099074 0.294527
0.071364 -0.099108 0.294625
0.072972 -0.099392 0.295460
0.074130 -0.099063 0.294472
0.075520 -0.099051 0.294424
0.077303 -0.099545 0.295878
0.078790 -0.099647 0.296163
0.080215 -0.099668 0.296204
0.081664 -0.099718 0.296328
0.083086 -0.099735 0.296349
0.084411 -0.099635 0.296020
0.085763 -0.099571 0.295795
0.087140 -0.099537 0.295655
0.088514 -0.099500 0.295502
0.089865 -0.099439 0.295274
0.091295 -0.099466 0.295302
0.092620 -0.099379 0.294989
0.094074 -0.099431 0.295084
0.095547 -0.099503 0.295230
0.096868 -0.099415 0.294899
0.098371 -0.099514 0.295116
0.099839 -0.099575 0.295217
0.101467 -0.099791 0.295770
0.102815 -0.099731 0.295497
0.104477 -0.099973 0.296114
0.105981 -0.100058 0.296259
0.107503 -0.100158 0.296442
0.108851 -0.100095 0.296138
0.110300 -0.100126 0.296102
0.111797 -0.100199 0.296183
0.113169 -0.100158 0.295921
0.114723 -0.100279 0.296127
0.116350 -0.100459 0.296501
0.117853 -0.100529 0.296540
0.119427 -0.100658 0.296743
0.120950 -0.100741 0.296801
0.122589 -0.100916 0.297124
0.124000 -0.100903 0.296879
0.125359 -0.100848 0.296503
0.126928 -0.100962 0.296611
0.128461 -0.101044 0.296614
0.130080 -0.101191 0.296797
0.131595 -0.101254 0.296724
0.133171 -0.101363 0.296771
0.134799 -0.101509 0.296912
0.136124 -0.101426 0.296371
0.137894 -0.101673 0.296781
0.139403 -0.101724 0.296602
0.141324 -0.102071 0.297272
0.143429 -0.102543 0.298287
0.144991 -0.102621 0.298139
0.146557 -0.102700 0.297979
0.148170 -0.102810 0.297890
0.149687 -0.102852 0.297584
0.151426 -0.103044 0.297696
0.152973 -0.103103 0.297400
0.154215 -0.102957 0.296497
0.155626 -0.102926 0.295903
0.157290 -0.103061 0.295764
0.158686 -0.103018 0.295096
-0.153445 -0.099674 0.294297
-0.152203 -0.099788 0.295052
-0.150465 -0.099576 0.294826
-0.149087 -0.099600 0.295281
-0.147591 -0.099545 0.295487
-0.146151 -0.099528 0.295788
-0.144562 -0.099408 0.295767
-0.143012 -0.099313 0.295806
-0.141415 -0.099183 0.295726
-0.139944 -0.099139 0.295891
-0.138446 -0.099075 0.295982
-0.136742 -0.098862 0.295612
-0.135135 -0.098715 0.295428
-0.133626 -0.098638 0.295439
-0.131885 -0.098385 0.294913
-0.130385 -0.098309 0.294907
-0.128905 -0.098248 0.294931
-0.127506 -0.098246 0.295125
-0.126048 -0.098199 0.295174
-0.124627 -0.098181 0.295298
-0.123127 -0.098098 0.295221
-0.121726 -0.098094 0.295369
-0.120264 -0.098041 0.295360
-0.118604 -0.097823 0.294845
-0.117067 -0.097702 0.294618
-0.115612 -0.097648 0.294580
-0.114266 -0.097686 0.294814
-0.112674 -0.097512 0.294399
-0.111366 -0.097582 0.294717
-0.109992 -0.097596 0.294857
-0.108639 -0.097629 0.295046
-0.107376 -0.097745 0.295481
-0.105973 -0.097735 0.295528
-0.104707 -0.097853 0.295958
-0.103391 -0.097926 0.296245
-0.101928 -0.097862 0.296110
-0.100420 -0.097751 0.295829
-0.098886 -0.097611 0.295456
-0.097329 -0.097446 0.294998
-0.095728 -0.097230 0.294383
-0.094282 -0.097167 0.294228
-0.092976 -0.097249 0.294506
-0.091506 -0.097160 0.294261
-0.090051 -0.097084 0.294053
-0.088751 -0.097176 0.294347
-0.087231 -0.097026 0.293907
-0.086065 -0.097272 0.294661
-0.084533 -0.097105 0.294160
-0.083075 -0.097019 0.293904
-0.081943 -0.097317 0.294804
-0.080242 -0.096939 0.293654
-0.078979 -0.097086 0.294093
-0.077592 -0.097082 0.294072
-0.076121 -0.096972 0.293725
-0.074838 -0.097101 0.294101
-0.073481 -0.097138 0.294195
-0.072008 -0.097020 0.293818
-0.070682 -0.097100 0.294038
-0.069334 -0.097152 0.294171
-0.067880 -0.097054 0.293848
-0.066532 -0.097108 0.293984
-0.065156 -0.097122 0.293996
-0.063797 -0.097162 0.294086
-0.062417 -0.097172 0.294083
-0.061042 -0.097190 0.294105
-0.059643 -0.097172 0.294013
-0.058191 -0.097061 0.293643
-0.056908 -0.097236 0.294135
-0.055512 -0.097222 0.294054
-0.054115 -0.097206 0.293965
-0.052765 -0.097275 0.294134
-0.051413 -0.097342 0.294298
-0.049989 -0.097275 0.294054
-0.048599 -0.097274 0.294008
-0.047250 -0.097354 0.294210
-0.045747 -0.097115 0.293447
-0.044381 -0.097159 0.293535
-0.043025 -0.097229 0.293707
-0.041584 -0.097107 0.293297
-0.040178 -0.097061 0.293114
-0.038833 -0.097161 0.293377
-0.037424 -0.097106 0.293170
-0.035977 -0.096946 0.292644
-0.034618 -0.097016 0.292817
-0.033238 -0.097031 0.292822
-0.031826 -0.096952 0.292545
-0.030456 -0.097000 0.292649
-0.029090 -0.097066 0.292813
-0.027709 -0.097085 0.292831
-0.026338 -0.097144 0.292973
-0.024950 -0.097143 0.292934
-0.023550 -0.097091 0.292746
-0.022191 -0.097215 0.293084
-0.020796 -0.097189 0.292973
-0.019391 -0.097108 0.292698
-0.018006 -0.097119 0.292702
-0.016609 -0.097068 0.292521
-0.015266 -0.097349 0.293339
-0.013872 -0.097326 0.293241
-0.012459 -0.097155 0.292701
-0.011099 -0.097403 0.293426
-0.009717 -0.097509 0.293722
-0.008318 -0.097450 0.293521
-0.006927 -0.097477 0.293585
-0.005535 -0.097490 0.293606
-0.004143 -0.097543 0.293746
-0.002750 -0.097582 0.293847
-0.001355 -0.097591 0.293860
0.000040 -0.097554 0.293738
0.001437 -0.097652 0.294022
0.002831 -0.097590 0.293824
0.004223 -0.097501 0.293548
0.005621 -0.097573 0.293755
0.007015 -0.097560 0.293711
0.008409 -0.097540 0.293648
0.009801 -0.097513 0.293562
0.011197 -0.097529 0.293608
0.012587 -0.097485 0.293476
0.013974 -0.097438 0.293335
0.015371 -0.097458 0.293396
0.016761 -0.097432 0.293323
0.018154 -0.097430 0.293320
0.019541 -0.097396 0.293224
0.020956 -0.097497 0.293534
0.022346 -0.097474 0.293475
0.023755 -0.097534 0.293664
0.025207 -0.097754 0.294336
0.026586 -0.097683 0.294132
0.027980 -0.097670 0.294107
0.029419 -0.097807 0.294532
0.030820 -0.097813 0.294562
0.032212 -0.097786 0.294497
0.033581 -0.097700 0.294250
0.035021 -0.097816 0.294615
0.036419 -0.097810 0.294614
0.037790 -0.097736 0.294406
0.039260 -0.097914 0.294959
0.040654 -0.097895 0.294919
0.041958 -0.097669 0.294255
0.043411 -0.097794 0.294648
0.044842 -0.097861 0.294868
0.046243 -0.097860 0.294884
0.047636 -0.097844 0.294850
0.049083 -0.097937 0.295148
0.050515 -0.097994 0.295336
0.051929 -0.098014 0.295412
0.053332 -0.098013 0.295427
0.054742 -0.098025 0.295478
0.056173 -0.098073 0.295634
0.057536 -0.098002 0.295435
0.058925 -0.097979 0.295377
0.060345 -0.098006 0.295469
0.061737 -0.097988 0.295424
0.063229 -0.098125 0.295848
0.064587 -0.098054 0.295639
0.065943 -0.097980 0.295423
0.067452 -0.098134 0.295890
0.068855 -0.098131 0.295883
0.070102 -0.097909 0.295213
0.071600 -0.098039 0.295604
0.073253 -0.098373 0.296605
0.074857 -0.098630 0.297375
0.076177 -0.098509 0.297001
0.077519 -0.098422 0.296724
0.078928 -0.098420 0.296705
0.080327 -0.098407 0.296646
0.081647 -0.098298 0.296298
0.083008 -0.098242 0.296104
0.084314 -0.098123 0.295719
0.085653 -0.098046 0.295454
0.087067 -0.098056 0.295451
0.088456 -0.098037 0.295356
0.089810 -0.097982 0.295147
0.091618 -0.098415 0.296403
0.092972 -0.098355 0.296171
0.094367 -0.098340 0.296069
0.095833 -0.098398 0.296182
0.097202 -0.098356 0.295988
0.098556 -0.098299 0.295747
0.099937 -0.098272 0.295586
0.101480 -0.098402 0.295895
0.102874 -0.098385 0.295757
0.104305 -0.098405 0.295722
0.105846 -0.098526 0.295984
0.107393 -0.098649 0.296245
0.108764 -0.098610 0.296012
0.110372 -0.098783 0.296410
0.111779 -0.098774 0.296255
0.113103 -0.098693 0.295875
0.114703 -0.098852 0.296208
0.116404 -0.099093 0.296775
0.117777 -0.099052 0.296492
0.119337 -0.099168 0.296668
0.120990 -0.099357 0.297055
0.122569 -0.099482 0.297238
0.124105 -0.099569 0.297298
0.125385 -0.099451 0.296737
0.126893 -0.099514 0.296707
0.128381 -0.099561 0.296616
0.129827 -0.099574 0.296415
0.131178 -0.099515 0.295985
0.132675 -0.099566 0.295873
0.134188 -0.099628 0.295781
0.136179 -0.100041 0.296715
0.137705 -0.100106 0.296603
0.139345 -0.100252 0.296716
0.141190 -0.100541 0.297239
0.143025 -0.100816 0.297704
0.144826 -0.101063 0.298067
0.146514 -0.101227 0.298167
0.147937 -0.101206 0.297706
0.149631 -0.101368 0.297767
0.151337 -0.101535 0.297823
0.152533 -0.101361 0.296859
0.153983 -0.101357 0.296374
0.155475 -0.101380 0.295949
0.156865 -0.101337 0.295308
0.158452 -0.101420 0.295016
-0.152982 -0.097950 0.293683
-0.151779 -0.098084 0.294494
-0.150393 -0.098102 0.294939
-0.148767 -0.097962 0.294892
-0.147415 -0.098002 0.295372
-0.146021 -0.098014 0.295755
-0.144434 -0.097896 0.295727
-0.143001 -0.097881 0.295996
-0.141488 -0.097811 0.296086
-0.139974 -0.097739 0.296153
-0.138346 -0.097585 0.295962
-0.136778 -0.097471 0.295876
-0.135254 -0.097386 0.295866
-0.133361 -0.097031 0.295025
-0.131478 -0.096676 0.294169
-0.130064 -0.096662 0.294339
-0.128618 -0.096624 0.294426
-0.126962 -0.096425 0.294012
-0.125869 -0.096654 0.294895
-0.124230 -0.096465 0.294492
-0.122662 -0.096327 0.294233
-0.121704 -0.096671 0.295440
-0.120019 -0.096439 0.294876
-0.118482 -0.096321 0.294654
-0.117063 -0.096298 0.294713
-0.115453 -0.096115 0.294275
-0.113948 -0.096017 0.294088
-0.112677 -0.096116 0.294497
-0.111094 -0.095948 0.294082
-0.109790 -0.096020 0.294394
-0.108479 -0.096088 0.294688
-0.107002 -0.096008 0.294524
-0.105771 -0.096150 0.295033
-0.104423 -0.096189 0.295217
-0.103050 -0.096204 0.295326
-0.101645 -0.096190 0.295338
-0.100141 -0.096082 0.295056
-0.098740 -0.096070 0.295064
-0.097178 -0.095898 0.294576
-0.095674 -0.095781 0.294251
-0.094250 -0.095741 0.294157
-0.092922 -0.095799 0.294362
-0.091520 -0.095782 0.294331
-0.090160 -0.095808 0.294430
-0.088698 -0.095725 0.294188
-0.087412 -0.095833 0.294528
-0.086071 -0.095883 0.294687
-0.084678 -0.095875 0.294666
-0.083277 -0.095860 0.294617
-0.081782 -0.095732 0.294219
-0.080507 -0.095863 0.294615
-0.079085 -0.095821 0.294473
-0.077604 -0.095704 0.294102
-0.076164 -0.095633 0.293869
-0.074780 -0.095634 0.293851
-0.073400 -0.095639 0.293846
-0.072063 -0.095700 0.294011
-0.070587 -0.095577 0.293609
-0.069263 -0.095659 0.293831
-0.067957 -0.095770 0.294144
-0.066478 -0.095636 0.293703
-0.065127 -0.095684 0.293816
-0.063743 -0.095686 0.293788
-0.062340 -0.095659 0.293669
-0.060946 -0.095644 0.293587
-0.059513 -0.095566 0.293310
-0.058216 -0.095708 0.293708
-0.056820 -0.095690 0.293612
-0.055488 -0.095784 0.293858
-0.054120 -0.095817 0.293918
-0.052747 -0.095843 0.293956
-0.051422 -0.095960 0.294271
-0.050017 -0.095931 0.294139
-0.048632 -0.095939 0.294120
-0.047287 -0.096029 0.294352
-0.045844 -0.095921 0.293978
-0.044445 -0.095898 0.293865
-0.043112 -0.096024 0.294206
-0.041656 -0.095874 0.293704
-0.040245 -0.095822 0.293499
-0.038861 -0.095833 0.293489
-0.037470 -0.095824 0.293420
-0.036071 -0.095798 0.293298
-0.034673 -0.095770 0.293170
-0.033293 -0.095792 0.293195
-0.031909 -0.095802 0.293185
-0.030516 -0.095787 0.293100
-0.029140 -0.095829 0.293188
-0.027749 -0.095821 0.293125
-0.026342 -0.095754 0.292884
-0.024981 -0.095856 0.293159
-0.023583 -0.095819 0.293011
