ply
format ascii 1.0
element vertex 1680
property float x
property float y
property float z
end_header
0.027432 -0.018676 0.258211
0.028682 -0.018675 0.258270
0.029946 -0.018682 0.258443
0.031190 -0.018678 0.258451
0.032424 -0.018668 0.258388
0.033692 -0.018677 0.258597
0.034924 -0.018666 0.258528
0.036140 -0.018648 0.258358
0.037381 -0.018644 0.258383
0.038812 -0.018732 0.259686
0.040675 -0.019016 0.263716
0.041767 -0.018933 0.262657
0.042500 -0.018697 0.259479
0.043701 -0.018675 0.259264
0.044873 -0.018642 0.258897
0.045934 -0.018565 0.257934
0.046979 -0.018487 0.256941
0.048283 -0.018512 0.257387
0.049388 -0.018461 0.256778
0.050786 -0.018520 0.257696
0.052116 -0.018551 0.258234
0.053550 -0.018618 0.259261
0.055101 -0.018720 0.260794
0.056414 -0.018740 0.261170
0.058295 -0.018943 0.264105
0.060585 -0.019267 0.268734
0.062306 -0.019401 0.270710
0.063589 -0.019395 0.270740
0.064936 -0.019409 0.271044
0.066302 -0.019428 0.271416
0.067563 -0.019417 0.271358
0.068872 -0.019419 0.271495
0.070101 -0.019399 0.271318
0.071289 -0.019368 0.270993
0.072044 -0.019223 0.269067
0.072883 -0.019105 0.267520
0.073699 -0.018985 0.265940
0.074782 -0.018937 0.265365
0.075312 -0.018753 0.262876
0.075959 -0.018604 0.260874
0.077023 -0.018560 0.260346
0.078056 -0.018509 0.259731
0.079425 -0.018539 0.260235
0.080887 -0.018590 0.261026
0.082377 -0.018645 0.261880
0.083932 -0.018713 0.262914
0.085355 -0.018750 0.263509
0.087125 -0.018861 0.265142
0.091429 -0.019510 0.274334
0.098285 -0.020677 0.290819
0.100555 -0.020860 0.293467
0.099847 -0.020429 0.287470
0.101693 -0.020525 0.288882
0.104233 -0.020757 0.292201
0.105411 -0.020715 0.291665
0.106808 -0.020717 0.291735
0.108792 -0.020831 0.293383
0.109193 -0.020643 0.290770
0.110669 -0.020660 0.291043
0.112186 -0.020684 0.291413
0.113666 -0.020701 0.291673
0.115243 -0.020735 0.292170
0.116665 -0.020741 0.292258
0.117921 -0.020717 0.291928
0.119277 -0.020712 0.291843
0.120768 -0.020729 0.292083
0.122062 -0.020713 0.291837
0.123177 -0.020667 0.291164
0.124551 -0.020665 0.291107
0.125932 -0.020665 0.291056
0.127308 -0.020663 0.290987
0.128946 -0.020704 0.291505
0.130150 -0.020675 0.291030
0.131711 -0.020702 0.291344
0.133160 -0.020712 0.291395
0.134499 -0.020704 0.291198
0.135698 -0.020675 0.290693
0.137442 -0.020730 0.291343
0.138984 -0.020752 0.291541
0.139897 -0.020682 0.290419
0.141504 -0.020714 0.290731
0.142985 -0.020728 0.290767
0.144752 -0.020782 0.291363
0.146317 -0.020806 0.291529
0.147650 -0.020798 0.291219
0.148961 -0.020786 0.290855
0.150559 -0.020815 0.291037
0.152551 -0.020896 0.291950
-0.130212 -0.016255 0.245441
-0.129665 -0.016332 0.246778
-0.128791 -0.016368 0.247497
-0.127545 -0.016358 0.247496
-0.126787 -0.016410 0.248439
-0.125947 -0.016453 0.249225
-0.124981 -0.016480 0.249763
-0.124040 -0.016510 0.250350
-0.123083 -0.016539 0.250904
-0.122167 -0.016575 0.251543
-0.121212 -0.016606 0.252105
-0.120276 -0.016640 0.252706
-0.119411 -0.016684 0.253463
-0.118518 -0.016726 0.254165
-0.117770 -0.016789 0.255186
-0.117132 -0.016869 0.256462
-0.116485 -0.016950 0.257735
-0.115830 -0.017031 0.259010
-0.115172 -0.017114 0.260298
-0.114458 -0.017190 0.261478
-0.114036 -0.017311 0.263351
-0.113277 -0.017384 0.264472
-0.112735 -0.017492 0.266123
-0.112012 -0.017575 0.267374
-0.111508 -0.017693 0.269177
-0.110852 -0.017791 0.270642
-0.110347 -0.017914 0.272508
-0.109649 -0.018010 0.273933
-0.108802 -0.018082 0.275007
-0.108422 -0.018235 0.277299
-0.107477 -0.018296 0.278178
-0.106818 -0.018407 0.279824
-0.105631 -0.018429 0.280108
-0.104624 -0.018484 0.280879
-0.103672 -0.018550 0.281815
-0.102554 -0.018587 0.282313
-0.101495 -0.018636 0.282988
-0.100434 -0.018686 0.283673
-0.099440 -0.018750 0.284567
-0.098320 -0.018792 0.285116
-0.097274 -0.018850 0.285898
-0.096227 -0.018908 0.286694
-0.095110 -0.018955 0.287305
-0.094021 -0.019008 0.288017
-0.092924 -0.019062 0.288721
-0.091684 -0.019087 0.289000
-0.090473 -0.019119 0.289377
-0.089221 -0.019144 0.289636
-0.087902 -0.019155 0.289679
-0.086606 -0.019171 0.289806
-0.084986 -0.019115 0.288836
-0.084260 -0.019261 0.290925
-0.082789 -0.019239 0.290466
-0.081460 -0.019250 0.290504
-0.080400 -0.019326 0.291523
-0.079150 -0.019358 0.291877
-0.077967 -0.019408 0.292500
-0.076743 -0.019450 0.292989
-0.075611 -0.019517 0.293861
-0.074481 -0.019587 0.294775
-0.073262 -0.019635 0.295369
-0.072156 -0.019717 0.296456
-0.070854 -0.019747 0.296768
-0.067584 -0.019219 0.288694
-0.066149 -0.019202 0.288293
-0.064846 -0.019223 0.288472
-0.063543 -0.019245 0.288661
-0.062246 -0.019270 0.288896
-0.060927 -0.019289 0.289044
-0.059649 -0.019322 0.289403
-0.058297 -0.019332 0.289420
-0.056892 -0.019325 0.289176
-0.055625 -0.019366 0.289645
-0.054271 -0.019377 0.289683
-0.052857 -0.019367 0.289402
-0.051447 -0.019359 0.289140
-0.050083 -0.019367 0.289135
-0.048749 -0.019388 0.289320
-0.047356 -0.019387 0.289164
-0.045951 -0.019380 0.288931
-0.044603 -0.019397 0.289067
-0.043261 -0.019418 0.289259
-0.041714 -0.019346 0.288063
-0.040012 -0.019194 0.285688
-0.038561 -0.019157 0.285014
-0.037291 -0.019210 0.285684
-0.036084 -0.019300 0.286924
-0.034616 -0.019253 0.286113
-0.030363 -0.017589 0.261280
-0.029214 -0.017656 0.262190
-0.027974 -0.017672 0.262334
-0.026704 -0.017670 0.262217
-0.025445 -0.017676 0.262215
-0.024191 -0.017685 0.262270
-0.022922 -0.017684 0.262173
-0.021641 -0.017673 0.261941
-0.020332 -0.017637 0.261331
-0.019099 -0.017667 0.261701
-0.018016 -0.017848 0.264329
-0.017052 -0.018185 0.269254
-0.015952 -0.018421 0.272682
-0.014638 -0.018430 0.272755
-0.012601 -0.017440 0.258057
-0.011361 -0.017456 0.258251
-0.010118 -0.017473 0.258447
-0.008860 -0.017464 0.258271
-0.007610 -0.017470 0.258328
-0.006360 -0.017478 0.258408
-0.005106 -0.017479 0.258401
-0.003859 -0.017508 0.258798
-0.002607 -0.017540 0.259251
-0.001344 -0.017485 0.258428
-0.000090 -0.017550 0.259368
0.001190 -0.017861 0.263953
0.002486 -0.017962 0.265438
0.006145 -0.017372 0.256737
0.007410 -0.017417 0.257409
0.008711 -0.017518 0.258916
0.009946 -0.017479 0.258351
0.011203 -0.017482 0.258421
0.012479 -0.017511 0.258876
0.013765 -0.017549 0.259453
0.015030 -0.017555 0.259579
0.016328 -0.017596 0.260219
0.017626 -0.017630 0.260768
0.018940 -0.017675 0.261471
0.020306 -0.017760 0.262774
0.021944 -0.018058 0.267238
0.023712 -0.018425 0.272720
0.025019 -0.018413 0.272604
0.025179 -0.017600 0.260627
0.026242 -0.017467 0.258710
0.027492 -0.017464 0.258733
0.028785 -0.017488 0.259156
0.030017 -0.017473 0.259012
0.031271 -0.017473 0.259078
0.032534 -0.017478 0.259223
0.033752 -0.017458 0.259015
0.034959 -0.017435 0.258744
0.036171 -0.017416 0.258544
0.037331 -0.017373 0.257999
0.038952 -0.017541 0.260579
0.040864 -0.017826 0.264898
0.041872 -0.017710 0.263276
0.042762 -0.017554 0.261041
0.044141 -0.017601 0.261836
0.045127 -0.017493 0.260326
0.046308 -0.017464 0.259997
0.047422 -0.017412 0.259328
0.048725 -0.017431 0.259707
0.050036 -0.017451 0.260111
0.051476 -0.017515 0.261159
0.052974 -0.017595 0.262451
0.054463 -0.017668 0.263644
0.055986 -0.017748 0.264952
0.057569 -0.017844 0.266484
0.059262 -0.017968 0.268453
0.060982 -0.018096 0.270464
0.062358 -0.018117 0.270900
0.063488 -0.018069 0.270278
0.064954 -0.018116 0.271089
0.066214 -0.018104 0.271028
0.067349 -0.018060 0.270471
0.068731 -0.018082 0.270907
0.070164 -0.018117 0.271535
0.071357 -0.018089 0.271225
0.072495 -0.018049 0.270724
0.073011 -0.017858 0.267962
0.074230 -0.017843 0.267834
0.075334 -0.017800 0.267297
0.076008 -0.017660 0.265283
0.076929 -0.017580 0.264183
0.077850 -0.017503 0.263118
0.079049 -0.017490 0.263012
0.080624 -0.017560 0.264142
0.082125 -0.017611 0.265001
0.083806 -0.017699 0.266404
0.085635 -0.017815 0.268231
0.087647 -0.017965 0.270568
0.088789 -0.017935 0.270193
0.097762 -0.019465 0.293321
0.098996 -0.019433 0.292909
0.100194 -0.019395 0.292402
0.101532 -0.019384 0.292308
0.101045 -0.019030 0.287031
0.104030 -0.019330 0.291621
0.105316 -0.019312 0.291392
0.106591 -0.019291 0.291132
0.107899 -0.019278 0.290967
0.109365 -0.019292 0.291219
0.110594 -0.019265 0.290841
0.112054 -0.019278 0.291067
0.113399 -0.019271 0.290986
0.114916 -0.019293 0.291339
0.116480 -0.019323 0.291794
0.117946 -0.019336 0.291990
0.119213 -0.019316 0.291689
0.120496 -0.019299 0.291427
0.121784 -0.019283 0.291174
0.123222 -0.019292 0.291276
0.124489 -0.019273 0.290967
0.125985 -0.019291 0.291185
0.127235 -0.019270 0.290830
0.128467 -0.019247 0.290431
0.129908 -0.019256 0.290498
0.131926 -0.019349 0.291830
0.133258 -0.019341 0.291623
0.134804 -0.019363 0.291873
0.136379 -0.019390 0.292167
0.137519 -0.019354 0.291522
0.139143 -0.019387 0.291894
0.140463 -0.019377 0.291613
0.141744 -0.019362 0.291245
0.143284 -0.019382 0.291396
0.144790 -0.019397 0.291463
0.146289 -0.019412 0.291499
0.147659 -0.019408 0.291263
0.149049 -0.019408 0.291055
0.150893 -0.019466 0.291711
0.152294 -0.019466 0.291490
-0.130396 -0.015112 0.245810
-0.129502 -0.015142 0.246489
-0.128818 -0.015198 0.247569
-0.127765 -0.015211 0.247942
-0.126869 -0.015244 0.248618
-0.126066 -0.015288 0.249477
-0.125282 -0.015335 0.250380
-0.124302 -0.015359 0.250894
-0.123457 -0.015401 0.251680
-0.122484 -0.015427 0.252211
-0.121617 -0.015467 0.252959
-0.120713 -0.015503 0.253637
-0.119779 -0.015536 0.254254
-0.118982 -0.015588 0.255169
-0.118114 -0.015631 0.255939
-0.117389 -0.015694 0.257030
-0.116813 -0.015779 0.258467
-0.116159 -0.015855 0.259752
-0.115396 -0.015918 0.260808
-0.114788 -0.016003 0.262236
-0.114154 -0.016087 0.263627
-0.113670 -0.016194 0.265391
-0.112756 -0.016241 0.266174
-0.112095 -0.016327 0.267573
-0.111335 -0.016399 0.268757
-0.111128 -0.016556 0.271314
-0.110350 -0.016630 0.272513
-0.109594 -0.016710 0.273792
-0.108830 -0.016790 0.275072
-0.108058 -0.016871 0.276363
-0.107236 -0.016946 0.277546
-0.106197 -0.016988 0.278189
-0.105300 -0.017054 0.279221
-0.104414 -0.017124 0.280303
-0.103210 -0.017143 0.280547
-0.102286 -0.017209 0.281564
-0.101164 -0.017243 0.282052
-0.099985 -0.017268 0.282391
-0.099156 -0.017356 0.283738
-0.098029 -0.017393 0.284257
-0.097073 -0.017461 0.285290
-0.096017 -0.017514 0.286051
-0.094994 -0.017574 0.286935
-0.093889 -0.017620 0.287590
-0.092723 -0.017656 0.288078
-0.091587 -0.017699 0.288673
-0.090328 -0.017719 0.288889
-0.089053 -0.017737 0.289067
-0.087814 -0.017763 0.289365
-0.086575 -0.017789 0.289677
-0.085502 -0.017851 0.290561
-0.084060 -0.017837 0.290204
-0.082814 -0.017864 0.290526
-0.081487 -0.017875 0.290572
-0.080260 -0.017908 0.290985
-0.079112 -0.017961 0.291707
-0.077922 -0.018005 0.292297
-0.076635 -0.018029 0.292545
-0.075482 -0.018086 0.293325
-0.074415 -0.018165 0.294478
-0.073223 -0.018217 0.295177
-0.072249 -0.018326 0.296800
-0.070945 -0.018354 0.297112
-0.067464 -0.017808 0.288143
-0.066176 -0.017831 0.288373
-0.064893 -0.017856 0.288641
-0.063577 -0.017873 0.288777
-0.062303 -0.017903 0.289119
-0.061034 -0.017936 0.289508
-0.059713 -0.017955 0.289670
-0.058377 -0.017969 0.289771
-0.056952 -0.017957 0.289434
-0.055619 -0.017974 0.289566
-0.054292 -0.017993 0.289745
-0.052879 -0.017985 0.289476
-0.051471 -0.017978 0.289224
-0.050191 -0.018016 0.289710
-0.048737 -0.017992 0.289195
-0.047344 -0.017991 0.289036
-0.045965 -0.017994 0.288968
-0.044629 -0.018015 0.289180
-0.043251 -0.018020 0.289139
-0.041863 -0.018022 0.289035
-0.039862 -0.017750 0.284564
-0.038640 -0.017818 0.285539
-0.037081 -0.017731 0.284025
-0.035999 -0.017873 0.286188
-0.034625 -0.017876 0.286127
-0.030409 -0.016351 0.261626
-0.029215 -0.016389 0.262141
-0.027930 -0.016378 0.261874
-0.026706 -0.016403 0.262185
-0.025413 -0.016386 0.261825
-0.024146 -0.016385 0.261728
-0.022881 -0.016385 0.261650
-0.021644 -0.016407 0.261925
-0.020390 -0.016417 0.262013
-0.019146 -0.016438 0.262277
-0.018005 -0.016556 0.264094
-0.016957 -0.016785 0.267685
-0.015885 -0.017026 0.271460
-0.014576 -0.017034 0.271533
-0.012576 -0.016155 0.257471
-0.011334 -0.016164 0.257567
-0.010111 -0.016206 0.258192
-0.008856 -0.016201 0.258071
-0.007597 -0.016187 0.257814
-0.006362 -0.016227 0.258423
-0.005110 -0.016234 0.258501
-0.003859 -0.016248 0.258697
-0.002611 -0.016298 0.259467
-0.001354 -0.016336 0.260061
-0.000092 -0.016500 0.262650
0.001190 -0.016591 0.264090
0.002478 -0.016627 0.264653
0.006175 -0.016207 0.257982
0.007409 -0.016166 0.257343
0.008690 -0.016223 0.258261
0.009928 -0.016197 0.257851
0.011178 -0.016193 0.257812
0.012454 -0.016223 0.258322
0.013737 -0.016257 0.258895
0.014997 -0.016260 0.258964
0.016301 -0.016307 0.259751
0.017611 -0.016351 0.260499
0.018963 -0.016427 0.261752
0.020288 -0.016471 0.262493
0.022005 -0.016810 0.267942
0.023827 -0.017186 0.273991
0.025140 -0.017175 0.273874
0.025311 -0.016424 0.261956
0.026275 -0.016234 0.258999
0.027540 -0.016239 0.259146
0.028813 -0.016249 0.259361
0.030016 -0.016220 0.258972
0.031256 -0.016212 0.258917
0.032498 -0.016206 0.258896
0.033722 -0.016191 0.258741
0.034974 -0.016191 0.258815
0.036220 -0.016188 0.258853
0.037449 -0.016178 0.258776
0.039216 -0.016393 0.262311
0.041029 -0.016614 0.265926
0.042024 -0.016499 0.264194
0.043090 -0.016419 0.263004
0.044545 -0.016487 0.264191
0.045607 -0.016410 0.263055
0.046676 -0.016340 0.262030
0.047780 -0.016285 0.261250
0.048941 -0.016252 0.260821
0.050191 -0.016250 0.260883
0.051728 -0.016338 0.262406
0.052896 -0.016308 0.262030
0.054483 -0.016406 0.263708
0.056238 -0.016549 0.266109
0.057360 -0.016503 0.265481
0.059175 -0.016655 0.268023
0.061026 -0.016810 0.270628
0.062275 -0.016796 0.270511
0.063428 -0.016757 0.269994
0.064781 -0.016771 0.270335
0.066073 -0.016770 0.270422
0.067358 -0.016767 0.270476
0.068564 -0.016744 0.270222
0.070052 -0.016790 0.271071
0.071469 -0.016818 0.271625
0.072758 -0.016815 0.271682
0.073661 -0.016725 0.270324
0.074739 -0.016676 0.269644
0.075933 -0.016655 0.269402
0.077100 -0.016629 0.269073
0.078042 -0.016556 0.267986
0.079126 -0.016514 0.267413
0.080533 -0.016541 0.267932
0.082129 -0.016605 0.269057
0.084169 -0.016755 0.271578
0.085548 -0.016771 0.271924
0.087443 -0.016887 0.273878
0.089160 -0.016965 0.275224
0.095690 -0.017943 0.291178
0.096918 -0.017913 0.290773
0.098378 -0.017927 0.291065
0.100217 -0.018008 0.292454
0.101525 -0.017993 0.292276
0.102738 -0.017961 0.291830
0.103936 -0.017928 0.291348
0.105160 -0.017900 0.290950
0.106424 -0.017880 0.290670
0.107760 -0.017872 0.290586
0.109291 -0.017897 0.291019
0.110641 -0.017891 0.290958
0.111943 -0.017878 0.290773
0.113759 -0.017946 0.291907
0.115117 -0.017941 0.291846
0.116527 -0.017945 0.291912
0.117811 -0.017929 0.291655
0.119248 -0.017936 0.291776
0.120571 -0.017927 0.291609
0.121860 -0.017912 0.291361
0.123175 -0.017902 0.291169
0.124678 -0.017919 0.291415
0.126017 -0.017912 0.291266
0.127649 -0.017947 0.291784
0.128961 -0.017936 0.291557
0.130732 -0.017989 0.292352
0.131820 -0.017948 0.291607
0.133251 -0.017954 0.291621
0.134994 -0.018001 0.292298
0.135880 -0.017934 0.291113
0.137824 -0.018007 0.292185
0.139074 -0.017989 0.291766
0.140272 -0.017964 0.291234
0.141795 -0.017981 0.291369
0.143148 -0.017976 0.291141
0.144458 -0.017966 0.290816
0.146044 -0.017990 0.291032
0.147331 -0.017978 0.290639
0.149089 -0.018022 0.291159
0.150744 -0.018053 0.291451
0.152167 -0.018057 0.291277
-0.130439 -0.013950 0.245911
-0.129509 -0.013974 0.246522
-0.128789 -0.014022 0.247532
-0.127812 -0.014042 0.248052
-0.126895 -0.014070 0.248685
-0.126114 -0.014113 0.249588
-0.125362 -0.014160 0.250554
-0.124451 -0.014191 0.251207
-0.123611 -0.014229 0.252007
-0.122811 -0.014274 0.252896
-0.121970 -0.014314 0.253704
-0.121167 -0.014360 0.254600
-0.120356 -0.014406 0.255487
-0.119746 -0.014476 0.256816
-0.118933 -0.014524 0.257722
-0.118482 -0.014617 0.259432
-0.117387 -0.014632 0.259743
-0.116550 -0.014680 0.260630
-0.115953 -0.014759 0.262071
-0.115123 -0.014810 0.263004
-0.114528 -0.014893 0.264492
-0.113977 -0.014984 0.266109
-0.113186 -0.015044 0.267189
-0.112450 -0.015113 0.268419
-0.111800 -0.015196 0.269877
-0.111103 -0.015274 0.271250
-0.110432 -0.015357 0.272712
-0.109636 -0.015425 0.273890
-0.108853 -0.015496 0.275127
-0.108089 -0.015572 0.276434
-0.107239 -0.015637 0.277548
-0.106335 -0.015696 0.278544
-0.105391 -0.015750 0.279452
-0.104447 -0.015806 0.280384
-0.103388 -0.015846 0.281020
-0.102326 -0.015886 0.281664
-0.101248 -0.015924 0.282275
-0.100159 -0.015962 0.282870
-0.099163 -0.016016 0.283744
-0.098180 -0.016074 0.284679
-0.097086 -0.016114 0.285312
-0.096033 -0.016163 0.286084
-0.094900 -0.016200 0.286634
-0.093748 -0.016234 0.287141
-0.092682 -0.016285 0.287929
-0.091342 -0.016288 0.287880
-0.089995 -0.016290 0.287806
-0.088927 -0.016343 0.288634
-0.087745 -0.016377 0.289117
-0.086217 -0.016347 0.288456
-0.085053 -0.016385 0.289011
-0.084143 -0.016475 0.290465
-0.082877 -0.016496 0.290721
-0.081639 -0.016524 0.291088
-0.080352 -0.016543 0.291290
-0.079143 -0.016579 0.291791
-0.078028 -0.016637 0.292666
-0.076710 -0.016652 0.292799
-0.075369 -0.016663 0.292853
-0.074327 -0.016742 0.294099
-0.073081 -0.016776 0.294568
-0.071790 -0.016802 0.294882
-0.070894 -0.016923 0.296864
-0.067693 -0.016488 0.289088
-0.066228 -0.016466 0.288563
-0.064944 -0.016489 0.288831
-0.063672 -0.016517 0.289171
-0.062294 -0.016517 0.289040
-0.061064 -0.016558 0.289613
-0.059751 -0.016577 0.289813
-0.058258 -0.016547 0.289142
-0.056994 -0.016581 0.289605
-0.055534 -0.016559 0.289080
-0.054213 -0.016578 0.289283
-0.052956 -0.016619 0.289853
-0.051516 -0.016603 0.289434
-0.050146 -0.016609 0.289406
-0.048775 -0.016614 0.289375
-0.047377 -0.016611 0.289194
-0.045989 -0.016612 0.289068
-0.044647 -0.016629 0.289253
-0.043229 -0.016619 0.288944
-0.041839 -0.016619 0.288824
-0.040053 -0.016456 0.285874
-0.038657 -0.016448 0.285619
-0.037241 -0.016430 0.285192
-0.036018 -0.016500 0.286290
-0.034789 -0.016572 0.287435
-0.030476 -0.015120 0.262152
-0.029137 -0.015082 0.261394
-0.027889 -0.015089 0.261432
-0.026643 -0.015099 0.261510
-0.025360 -0.015087 0.261228
-0.024145 -0.015117 0.261662
-0.022908 -0.015136 0.261906
-0.021683 -0.015165 0.262340
-0.020473 -0.015209 0.263027
-0.019295 -0.015285 0.264267
-0.018144 -0.015394 0.266089
-0.016947 -0.015478 0.267474
-0.015890 -0.015714 0.271487
-0.014581 -0.015722 0.271560
-0.012603 -0.014938 0.257973
-0.011337 -0.014917 0.257570
-0.010109 -0.014950 0.258081
-0.008854 -0.014944 0.257948
-0.007605 -0.014949 0.257987
-0.006357 -0.014958 0.258119
-0.005109 -0.014974 0.258367
-0.003855 -0.014975 0.258354
-0.002603 -0.014988 0.258557
-0.001350 -0.015023 0.259147
-0.000092 -0.015021 0.259097
0.001193 -0.015351 0.264775
0.002476 -0.015333 0.264465
0.006188 -0.014987 0.258505
0.007410 -0.014920 0.257349
0.008670 -0.014936 0.257644
0.009915 -0.014926 0.257492
0.011168 -0.014929 0.257554
0.012441 -0.014955 0.258034
0.013723 -0.014986 0.258595
0.014993 -0.015000 0.258868
0.016294 -0.015040 0.259590
0.017594 -0.015073 0.260211
0.018956 -0.015153 0.261622
0.020307 -0.015213 0.262702
0.021974 -0.015489 0.267523
0.023807 -0.015845 0.273727
0.024877 -0.015682 0.270970
0.025374 -0.015192 0.262567
0.026283 -0.014984 0.259037
0.027534 -0.014981 0.259055
0.028783 -0.014978 0.259056
0.029965 -0.014941 0.258487
0.031206 -0.014935 0.258465
0.032466 -0.014938 0.258600
0.033665 -0.014915 0.258273
0.034931 -0.014921 0.258465
0.036158 -0.014911 0.258374
0.037379 -0.014900 0.258258
0.038958 -0.015027 0.260547
0.041489 -0.015502 0.268872
0.042612 -0.015437 0.267853
0.043534 -0.015306 0.265680
0.045326 -0.015480 0.268792
0.046455 -0.015424 0.267912
0.047733 -0.015419 0.267926
0.049059 -0.015429 0.268209
0.050547 -0.015489 0.269348
0.051988 -0.015531 0.270193
0.053455 -0.015579 0.271131
0.054488 -0.015501 0.269885
0.055845 -0.015517 0.270271
0.057725 -0.015674 0.273115
0.058513 -0.015534 0.270791
0.059469 -0.015444 0.269328
0.061113 -0.015533 0.270982
0.062372 -0.015522 0.270904
0.063537 -0.015488 0.270428
0.064892 -0.015502 0.270774
0.066195 -0.015502 0.270892
0.067402 -0.015481 0.270627
0.068581 -0.015454 0.270265
0.070037 -0.015490 0.270991
0.071866 -0.015605 0.273112
0.073208 -0.015612 0.273339
0.074231 -0.015552 0.272392
0.075379 -0.015520 0.271932
0.076383 -0.015459 0.270979
0.077747 -0.015473 0.271312
0.079038 -0.015472 0.271387
0.080026 -0.015412 0.270437
0.081708 -0.015486 0.271825
0.083016 -0.015487 0.271944
0.084922 -0.015599 0.273993
0.086501 -0.015648 0.274940
0.087787 -0.015643 0.274940
0.090333 -0.015860 0.278831
0.095160 -0.016465 0.289551
0.096381 -0.016438 0.289149
0.099063 -0.016657 0.293081
0.100008 -0.016582 0.291834
0.101375 -0.016578 0.291832
0.102633 -0.016557 0.291521
0.103718 -0.016509 0.290729
0.105159 -0.016518 0.290940
0.106426 -0.016499 0.290666
0.107519 -0.016455 0.289927
0.109513 -0.016548 0.291604
0.110632 -0.016508 0.290930
0.112260 -0.016544 0.291594
0.113636 -0.016542 0.291587
0.115135 -0.016558 0.291889
0.116504 -0.016555 0.291851
0.117853 -0.016550 0.291760
0.119229 -0.016548 0.291729
0.120455 -0.016526 0.291331
0.121709 -0.016509 0.291002
0.123184 -0.016521 0.291193
0.124493 -0.016511 0.290986
0.126195 -0.016553 0.291684
0.127513 -0.016544 0.291479
0.129042 -0.016562 0.291748
0.130585 -0.016581 0.292030
0.132009 -0.016586 0.292035
0.132988 -0.016535 0.291056
0.135231 -0.016640 0.292823
0.136483 -0.016623 0.292418
0.137741 -0.016607 0.292023
0.139478 -0.016648 0.292630
0.140682 -0.016625 0.292101
0.141951 -0.016611 0.291707
0.143367 -0.016614 0.291606
0.144566 -0.016592 0.291054
0.146788 -0.016686 0.292538
0.147642 -0.016625 0.291277
0.148766 -0.016595 0.290551
0.150583 -0.016642 0.291165
0.151742 -0.016616 0.290489
-0.130589 -0.012798 0.246214
-0.129700 -0.012824 0.246903
-0.129181 -0.012888 0.248304
-0.128101 -0.012897 0.248629
-0.127190 -0.012923 0.249278
-0.126438 -0.012966 0.250245
-0.125546 -0.012995 0.250935
-0.124680 -0.013027 0.251682
-0.123755 -0.013054 0.252313
-0.122912 -0.013090 0.253114
-0.122173 -0.013138 0.254138
-0.121215 -0.013164 0.254711
-0.120830 -0.013252 0.256502
-0.120248 -0.013321 0.257900
-0.119987 -0.013427 0.260013
-0.119217 -0.013477 0.261046
-0.118140 -0.013494 0.261414
-0.117610 -0.013574 0.263004
-0.116756 -0.013618 0.263888
-0.115979 -0.013672 0.264961
-0.115261 -0.013734 0.266186
-0.114446 -0.013786 0.267206
-0.113620 -0.013838 0.268215
-0.112852 -0.013898 0.269378
-0.112052 -0.013955 0.270485
-0.111422 -0.014036 0.272027
-0.110504 -0.014081 0.272887
-0.109739 -0.014147 0.274145
-0.108952 -0.014212 0.275373
-0.108111 -0.014272 0.276487
-0.107216 -0.014325 0.277483
-0.106316 -0.014380 0.278486
-0.105356 -0.014427 0.279354
-0.104329 -0.014466 0.280057
-0.103344 -0.014513 0.280891
-0.102286 -0.014550 0.281543
-0.101135 -0.014575 0.281950
-0.100084 -0.014615 0.282645
-0.099157 -0.014674 0.283713
-0.098276 -0.014742 0.284943
-0.097254 -0.014791 0.285791
-0.096127 -0.014824 0.286348
-0.094990 -0.014857 0.286889
-0.093800 -0.014883 0.287285
-0.092588 -0.014906 0.287620
-0.091326 -0.014921 0.287810
-0.090001 -0.014927 0.287805
-0.088804 -0.014954 0.288215
-0.087610 -0.014983 0.288649
-0.085728 -0.014893 0.286796
-0.084980 -0.015000 0.288742
-0.083966 -0.015063 0.289833
-0.082759 -0.015093 0.290283
-0.081449 -0.015105 0.290383
-0.080305 -0.015149 0.291095
-0.079048 -0.015172 0.291414
-0.077691 -0.015177 0.291376
-0.076431 -0.015202 0.291705
-0.075191 -0.015231 0.292134
-0.073897 -0.015250 0.292365
-0.072807 -0.015314 0.293436
-0.071713 -0.015378 0.294533
-0.070919 -0.015511 0.296936
-0.067703 -0.015109 0.289094
-0.066315 -0.015106 0.288909
-0.065069 -0.015137 0.289352
-0.063738 -0.015149 0.289434
-0.062424 -0.015165 0.289605
-0.061144 -0.015191 0.289956
-0.059772 -0.015194 0.289878
-0.058425 -0.015204 0.289931
-0.056906 -0.015169 0.289118
-0.055552 -0.015177 0.289134
-0.054261 -0.015203 0.289500
-0.052871 -0.015202 0.289343
-0.051549 -0.015221 0.289574
-0.050148 -0.015217 0.289371
-0.048776 -0.015223 0.289337
-0.047414 -0.015232 0.289377
-0.046038 -0.015236 0.289337
-0.044656 -0.015239 0.289261
-0.043277 -0.015243 0.289219
-0.041888 -0.015244 0.289112
-0.039839 -0.014997 0.284300
-0.038603 -0.015048 0.285169
-0.036989 -0.014951 0.283215
-0.036054 -0.015132 0.286530
-0.034562 -0.015084 0.285510
-0.030968 -0.014076 0.266335
-0.029218 -0.013856 0.262073
-0.027856 -0.013808 0.261082
-0.026802 -0.013916 0.263024
-0.025461 -0.013878 0.262223
-0.024190 -0.013876 0.262095
-0.022974 -0.013907 0.262605
-0.021784 -0.013959 0.263512
-0.020629 -0.014041 0.264978
-0.019533 -0.014177 0.267472
-0.018345 -0.014260 0.268971
-0.017016 -0.014239 0.268508
-0.015976 -0.014475 0.272899
-0.014660 -0.014482 0.272973
-0.012602 -0.013684 0.257892
-0.011325 -0.013652 0.257240
-0.010123 -0.013714 0.258366
-0.008860 -0.013701 0.258067
-0.007616 -0.013716 0.258312
-0.006359 -0.013710 0.258167
-0.005112 -0.013726 0.258436
-0.003856 -0.013721 0.258322
-0.002602 -0.013723 0.258345
-0.001352 -0.013772 0.259244
-0.000094 -0.014017 0.263833
0.001198 -0.014134 0.266036
0.002476 -0.014054 0.264529
0.006209 -0.013781 0.259387
0.007405 -0.013662 0.257155
0.008645 -0.013647 0.256883
0.009925 -0.013689 0.257704
0.011170 -0.013681 0.257563
0.012439 -0.013700 0.257947
0.013725 -0.013733 0.258606
0.015001 -0.013751 0.258969
0.016313 -0.013797 0.259870
0.017647 -0.013853 0.260966
0.018925 -0.013860 0.261150
0.020298 -0.013933 0.262561
0.021858 -0.014117 0.266083
0.023732 -0.014472 0.272831
0.024883 -0.014372 0.271002
0.025409 -0.013939 0.262899
0.026219 -0.013696 0.258371
0.027503 -0.013711 0.258724
0.028763 -0.013713 0.258837
0.029906 -0.013663 0.257951
0.031203 -0.013683 0.258403
0.032512 -0.013707 0.258936
0.033715 -0.013686 0.258621
0.034962 -0.013684 0.258662
0.036248 -0.013696 0.258983
0.037623 -0.013741 0.259909
0.039345 -0.013905 0.263103
0.041320 -0.014145 0.267745
0.042628 -0.014150 0.267924
0.043707 -0.014080 0.266702
0.045387 -0.014202 0.269118
0.046584 -0.014171 0.268627
0.047840 -0.014159 0.268497
0.049399 -0.014235 0.270039
0.050502 -0.014179 0.269077
0.051945 -0.014218 0.269937
0.053605 -0.014314 0.271861
0.054504 -0.014207 0.269937
0.056158 -0.014297 0.271756
0.057821 -0.014385 0.273543
0.058890 -0.014325 0.272506
0.060095 -0.014300 0.272136
0.061400 -0.014299 0.272228
0.062580 -0.014269 0.271779
0.063662 -0.014219 0.270938
0.064948 -0.014216 0.270980
0.066277 -0.014222 0.271206
0.067470 -0.014199 0.270877
0.068712 -0.014187 0.270758
0.070081 -0.014201 0.271137
0.071708 -0.014267 0.272489
0.073865 -0.014433 0.275770
0.075069 -0.014410 0.275446
0.075653 -0.014272 0.272900
0.077178 -0.014312 0.273780
0.078172 -0.014255 0.272777
0.079259 -0.014216 0.272128
0.080886 -0.014273 0.273323
0.081905 -0.014223 0.272461
0.083221 -0.014226 0.272600
0.084824 -0.014276 0.273660
0.085896 -0.014237 0.273000
0.087904 -0.014353 0.275292
0.089288 -0.014364 0.275591
0.096998 -0.015378 0.295127
0.098241 -0.015352 0.294717
0.099996 -0.015406 0.295827
0.099858 -0.015171 0.291385
0.101247 -0.015171 0.291453
0.102579 -0.015163 0.291358
0.103643 -0.015116 0.290510
0.104968 -0.015107 0.290404
0.106284 -0.015098 0.290272
0.107473 -0.015071 0.289797
0.109198 -0.015119 0.290759
0.110648 -0.015128 0.290969
0.111979 -0.015121 0.290861
0.113453 -0.015133 0.291117
0.115075 -0.015164 0.291735
0.116432 -0.015161 0.291670
0.117903 -0.015171 0.291882
0.119349 -0.015179 0.292024
0.120661 -0.015169 0.291831
0.121956 -0.015158 0.291596
0.123377 -0.015162 0.291654
0.124724 -0.015157 0.291531
0.125995 -0.015143 0.291226
0.127403 -0.015146 0.291234
0.128649 -0.015130 0.290865
0.130691 -0.015206 0.292275
0.132033 -0.015201 0.292097
0.133065 -0.015160 0.291235
0.134844 -0.015204 0.291997
0.136517 -0.015236 0.292502
0.137860 -0.015231 0.292289
0.139268 -0.015232 0.292201
0.140655 -0.015232 0.292061
0.141980 -0.015224 0.291783
0.143358 -0.015223 0.291603
0.144652 -0.015213 0.291246
0.146049 -0.015213 0.291083
0.147581 -0.015228 0.291176
0.149686 -0.015301 0.292371
0.151109 -0.015304 0.292206
0.152416 -0.015294 0.291805
-0.130869 -0.011655 0.246759
-0.129969 -0.011678 0.247432
-0.129043 -0.011699 0.248053
-0.128111 -0.011721 0.248663
-0.127298 -0.011753 0.249504
-0.126493 -0.011787 0.250366
-0.125662 -0.011820 0.251181
-0.125044 -0.011873 0.252430
-0.124513 -0.011935 0.253869
-0.124120 -0.012012 0.255611
-0.123235 -0.012043 0.256355
-0.122491 -0.012088 0.257401
-0.122102 -0.012169 0.259211
-0.122091 -0.012290 0.261860
-0.121159 -0.012320 0.262558
-0.120208 -0.012348 0.263222
-0.119523 -0.012405 0.264479
-0.118593 -0.012437 0.265207
-0.117714 -0.012476 0.266059
-0.116761 -0.012507 0.266750
-0.115863 -0.012545 0.267579
-0.114914 -0.012578 0.268299
-0.114034 -0.012620 0.269191
-0.113144 -0.012661 0.270074
-0.112148 -0.012692 0.270716
-0.111642 -0.012779 0.272562
-0.110603 -0.012806 0.273129
-0.109747 -0.012856 0.274160
-0.109086 -0.012930 0.275706
-0.108122 -0.012969 0.276509
-0.107269 -0.013023 0.277614
-0.106262 -0.013059 0.278338
-0.105239 -0.013094 0.279036
-0.104326 -0.013144 0.280042
-0.103266 -0.013177 0.280671
-0.102269 -0.013218 0.281486
-0.101260 -0.013259 0.282287
-0.100123 -0.013285 0.282746
-0.099318 -0.013355 0.284165
-0.098386 -0.013410 0.285251
-0.097449 -0.013466 0.286351
-0.096226 -0.013484 0.286630
-0.094883 -0.013485 0.286550
-0.093646 -0.013501 0.286796
-0.092337 -0.013507 0.286824
-0.091225 -0.013543 0.287475
-0.090154 -0.013586 0.288277
-0.088790 -0.013585 0.288150
-0.087937 -0.013664 0.289707
-0.086991 -0.013731 0.291003
-0.084996 -0.013632 0.288774
-0.083978 -0.013688 0.289850
-0.082652 -0.013696 0.289887
-0.081254 -0.013692 0.289668
-0.079981 -0.013709 0.289897
-0.078729 -0.013730 0.290215
-0.077493 -0.013755 0.290608
-0.076244 -0.013778 0.290966
-0.075144 -0.013830 0.291923
-0.073784 -0.013835 0.291891
-0.072612 -0.013876 0.292620
-0.071614 -0.013953 0.294098
-0.071302 -0.014169 0.298509
-0.067640 -0.013715 0.288795
-0.066272 -0.013716 0.288691
-0.065154 -0.013771 0.289700
-0.063861 -0.013790 0.289963
-0.062301 -0.013751 0.289004
-0.061243 -0.013824 0.290389
-0.059978 -0.013852 0.290846
-0.058268 -0.013777 0.289119
-0.056943 -0.013791 0.289274
-0.055569 -0.013793 0.289189
-0.054207 -0.013799 0.289176
-0.052873 -0.013812 0.289317
-0.051525 -0.013823 0.289405
-0.050145 -0.013825 0.289319
-0.048794 -0.013836 0.289407
-0.047424 -0.013841 0.289394
-0.045971 -0.013823 0.288872
-0.044658 -0.013846 0.289237
-0.043263 -0.013845 0.289086
-0.041877 -0.013847 0.288999
-0.040119 -0.013721 0.286257
-0.038474 -0.013627 0.284176
-0.036724 -0.013487 0.281147
-0.035660 -0.013598 0.283354
-0.034634 -0.013733 0.286055
-0.030039 -0.012405 0.258305
-0.028861 -0.012435 0.258828
-0.027746 -0.012496 0.260003
-0.026426 -0.012466 0.259294
-0.025240 -0.012499 0.259897
-0.024097 -0.012558 0.261045
-0.022919 -0.012605 0.261934
-0.021741 -0.012657 0.262948
-0.020560 -0.012714 0.264051
-0.019488 -0.012850 0.266801
-0.018730 -0.013228 0.274575
-0.017039 -0.012953 0.268815
-0.016016 -0.013184 0.273538
-0.014697 -0.013190 0.273612
-0.012579 -0.012409 0.257365
-0.011359 -0.012440 0.257960
-0.010130 -0.012468 0.258494
-0.008865 -0.012454 0.258146
-0.007624 -0.012473 0.258510
-0.006377 -0.012489 0.258814
-0.005123 -0.012495 0.258901
-0.003866 -0.012496 0.258900
-0.002616 -0.012533 0.259646
-0.001366 -0.012640 0.261842
-0.000094 -0.012664 0.262320
0.001197 -0.012839 0.265944
0.002472 -0.012748 0.264055
0.006200 -0.012503 0.258990
0.007404 -0.012412 0.257104
0.008667 -0.012430 0.257497
0.009925 -0.012439 0.257701
0.011177 -0.012438 0.257699
0.012436 -0.012445 0.257871
0.013700 -0.012455 0.258095
0.014977 -0.012474 0.258534
0.016263 -0.012497 0.259039
0.017546 -0.012514 0.259440
0.018872 -0.012558 0.260396
0.020193 -0.012593 0.261165
0.021929 -0.012868 0.266914
0.023404 -0.012967 0.269027
0.024866 -0.013049 0.270786
0.025255 -0.012588 0.261274
0.026235 -0.012451 0.258500
0.027476 -0.012445 0.258438
0.028769 -0.012462 0.258861
0.029996 -0.012450 0.258688
0.031247 -0.012449 0.258738
0.032584 -0.012481 0.259473
0.033832 -0.012478 0.259489
0.035104 -0.012483 0.259678
0.036477 -0.012523 0.260586
0.037809 -0.012546 0.261161
0.039182 -0.012581 0.261983
0.040619 -0.012634 0.263169
0.042015 -0.012671 0.264041
0.043522 -0.012739 0.265543
0.044948 -0.012779 0.266486
0.046265 -0.012787 0.266756
0.047406 -0.012748 0.266035
0.048520 -0.012703 0.265206
0.049672 -0.012671 0.264630
0.050899 -0.012658 0.264474
0.052262 -0.012680 0.265023
0.053439 -0.012656 0.264634
0.054869 -0.012692 0.265493
0.056856 -0.012852 0.268949
0.058372 -0.012901 0.270084
0.059774 -0.012923 0.270657
0.061065 -0.012921 0.270720
0.062407 -0.012929 0.271007
0.063678 -0.012923 0.270981
0.064906 -0.012908 0.270785
0.066165 -0.012900 0.270724
0.067468 -0.012901 0.270846
0.068775 -0.012902 0.270985
0.070032 -0.012894 0.270927
0.071420 -0.012910 0.271372
0.072661 -0.012900 0.271257
0.073947 -0.012898 0.271313
0.075039 -0.012862 0.270666
0.076250 -0.012848 0.270470
0.077403 -0.012825 0.270076
0.078509 -0.012794 0.269534
0.079903 -0.012811 0.269987
0.081207 -0.012813 0.270126
0.082450 -0.012806 0.270061
0.084260 -0.012886 0.271827
0.085433 -0.012867 0.271516
0.087080 -0.012919 0.272700
0.089240 -0.013044 0.275430
0.095717 -0.013788 0.291218
0.096944 -0.013765 0.290813
0.100031 -0.014003 0.295921
0.099995 -0.013804 0.291773
0.101339 -0.013798 0.291711
0.102827 -0.013811 0.292053
0.103970 -0.013778 0.291419
0.105225 -0.013761 0.291107
0.106825 -0.013789 0.291743
0.108342 -0.013805 0.292136
0.109600 -0.013788 0.291824
0.110937 -0.013782 0.291726
0.112278 -0.013776 0.291632
0.113921 -0.013808 0.292314
0.115303 -0.013807 0.292310
0.116557 -0.013791 0.291983
0.118155 -0.013815 0.292506
0.119399 -0.013798 0.292148
0.120719 -0.013790 0.291972
0.122023 -0.013781 0.291758
0.123406 -0.013780 0.291725
0.124846 -0.013786 0.291821
0.126097 -0.013772 0.291466
0.127386 -0.013761 0.291200
0.128830 -0.013768 0.291282
0.130416 -0.013789 0.291669
0.131672 -0.013775 0.291307
0.133204 -0.013790 0.291547
0.134709 -0.013802 0.291715
0.136419 -0.013835 0.292305
0.137935 -0.013847 0.292459
0.139435 -0.013858 0.292565
0.140630 -0.013839 0.292023
0.141985 -0.013835 0.291808
0.143394 -0.013837 0.291694
0.144636 -0.013823 0.291230
0.145901 -0.013811 0.290808
0.147265 -0.013808 0.290573
0.149087 -0.013849 0.291221
0.151311 -0.013925 0.292617
0.151985 -0.013859 0.291000
-0.131628 -0.010545 0.248205
-0.130788 -0.010571 0.249005
-0.130180 -0.010617 0.250254
-0.129429 -0.010652 0.251235
-0.128509 -0.010673 0.251890
-0.127805 -0.010713 0.252975
-0.127357 -0.010775 0.254580
-0.127978 -0.010930 0.258363
-0.128016 -0.011038 0.261022
-0.128667 -0.011201 0.264985
-0.129653 -0.011397 0.269715
-0.132851 -0.011793 0.279179
-0.133015 -0.011924 0.282385
-0.132742 -0.012019 0.284710
-0.131312 -0.012010 0.284566
-0.129856 -0.011999 0.284354
-0.122395 -0.011426 0.270839
-0.120516 -0.011369 0.269511
-0.119370 -0.011380 0.269804
-0.118237 -0.011392 0.270124
-0.116895 -0.011385 0.269964
-0.115628 -0.011384 0.269967
-0.114502 -0.011398 0.270297
-0.113631 -0.011437 0.271237
-0.112705 -0.011472 0.272059
-0.111610 -0.011491 0.272483
-0.110785 -0.011538 0.273575
-0.110074 -0.011598 0.274974
-0.109181 -0.011640 0.275944
-0.108304 -0.011685 0.276969
-0.107428 -0.011731 0.278020
-0.106405 -0.011762 0.278708
-0.105429 -0.011799 0.279534
-0.104382 -0.011829 0.280185
-0.103316 -0.011858 0.280798
-0.102308 -0.011894 0.281586
-0.101202 -0.011919 0.282116
-0.100133 -0.011950 0.282763
-0.099142 -0.011991 0.283650
-0.098275 -0.012048 0.284916
-0.097095 -0.012068 0.285297
-0.095918 -0.012089 0.285698
-0.095041 -0.012149 0.287015
-0.093614 -0.012139 0.286684
-0.092419 -0.012159 0.287066
-0.091395 -0.012203 0.287994
-0.090003 -0.012199 0.287778
-0.089435 -0.012308 0.290229
-0.088368 -0.012350 0.291110
-0.087107 -0.012366 0.291370
-0.085764 -0.012371 0.291367
-0.084491 -0.012387 0.291602
-0.082855 -0.012348 0.290577
-0.081298 -0.012321 0.289803
-0.080164 -0.012358 0.290538
-0.078756 -0.012353 0.290292
-0.077390 -0.012355 0.290196
-0.076243 -0.012392 0.290939
-0.074815 -0.012384 0.290621
-0.073580 -0.012409 0.291060
-0.072520 -0.012464 0.292226
-0.071185 -0.012474 0.292310
-0.071626 -0.012801 0.299838
-0.067537 -0.012316 0.288330
-0.066286 -0.012339 0.288724
-0.064993 -0.012355 0.288957
-0.063632 -0.012358 0.288895
-0.062329 -0.012373 0.289102
-0.060968 -0.012377 0.289055
-0.059654 -0.012391 0.289240
-0.058339 -0.012405 0.289439
-0.056880 -0.012389 0.288922
-0.055624 -0.012418 0.289446
-0.054223 -0.012414 0.289227
-0.052868 -0.012421 0.289257
-0.051540 -0.012436 0.289455
-0.050211 -0.012450 0.289662
-0.048821 -0.012450 0.289533
-0.047411 -0.012445 0.289281
-0.046029 -0.012447 0.289204
-0.044370 -0.012372 0.287336
-0.043078 -0.012398 0.287811
-0.041797 -0.012429 0.288403
-0.040068 -0.012324 0.285857
-0.038732 -0.012337 0.286041
-0.036466 -0.012044 0.279132
-0.036169 -0.012404 0.287354
-0.034189 -0.012192 0.282343
-0.032857 -0.012203 0.282501
-0.029161 -0.011299 0.261481
-0.027811 -0.011264 0.260575
-0.026710 -0.011332 0.262042
-0.025455 -0.011337 0.262077
-0.024172 -0.011329 0.261819
-0.023046 -0.011399 0.263347
-0.021932 -0.011483 0.265212
-0.020736 -0.011532 0.266264
-0.020574 -0.012200 0.281625
-0.019221 -0.012208 0.281721
-0.017302 -0.011829 0.272921
-0.016172 -0.011972 0.276147
-0.014840 -0.011977 0.276222
-0.012567 -0.011150 0.257076
-0.011325 -0.011155 0.257150
-0.010088 -0.011167 0.257376
-0.008849 -0.011180 0.257634
-0.007614 -0.011202 0.258115
-0.006364 -0.011209 0.258235
-0.005119 -0.011228 0.258648
-0.003862 -0.011227 0.258607
-0.002609 -0.011239 0.258856
-0.001362 -0.011333 0.261017
-0.000095 -0.011453 0.263750
0.001195 -0.011530 0.265508
0.002474 -0.011479 0.264328
0.006201 -0.011247 0.259000
0.007417 -0.011183 0.257529
0.008666 -0.011179 0.257463
0.009930 -0.011193 0.257800
0.011183 -0.011193 0.257825
0.012443 -0.011199 0.257977
0.013732 -0.011228 0.258680
0.015007 -0.011242 0.259024
0.016296 -0.011262 0.259529
0.017585 -0.011280 0.259985
0.018882 -0.011301 0.260506
0.020257 -0.011362 0.261970
0.021882 -0.011548 0.266311
0.023292 -0.011607 0.267708
0.024644 -0.011631 0.268329
0.025113 -0.011258 0.259777
0.026091 -0.011137 0.257049
0.027426 -0.011173 0.257944
0.028688 -0.011177 0.258102
0.029886 -0.011157 0.257717
0.031174 -0.011170 0.258104
0.032508 -0.011199 0.258841
0.033756 -0.011197 0.258875
0.035106 -0.011228 0.259665
0.036499 -0.011269 0.260716
0.037853 -0.011297 0.261439
0.039318 -0.011355 0.262866
0.040806 -0.011415 0.264355
0.042533 -0.011537 0.267271
0.043908 -0.011559 0.267870
0.045155 -0.011546 0.267685
0.046452 -0.011547 0.267809
0.047741 -0.011546 0.267888
0.048880 -0.011510 0.267147
0.049992 -0.011469 0.266308
0.051418 -0.011501 0.267148
0.053064 -0.011579 0.269069
0.054400 -0.011587 0.269370
0.055542 -0.011555 0.268722
0.057171 -0.011623 0.270415
0.058828 -0.011694 0.272171
0.059995 -0.011666 0.271633
0.061330 -0.011671 0.271869
0.062593 -0.011663 0.271791
0.063756 -0.011637 0.271290
0.065042 -0.011634 0.271329
0.066215 -0.011611 0.270907
0.067506 -0.011610 0.270981
0.068718 -0.011595 0.270743
0.070001 -0.011592 0.270787
0.071313 -0.011594 0.270949
0.072476 -0.011573 0.270549
0.073735 -0.011567 0.270518
0.074981 -0.011559 0.270442
0.076038 -0.011524 0.269702
0.077272 -0.011515 0.269602
0.078768 -0.011545 0.270411
0.079917 -0.011525 0.270018
0.081241 -0.011529 0.270224
0.082607 -0.011540 0.270562
0.083971 -0.011550 0.270882
0.085489 -0.011580 0.271682
0.086878 -0.011593 0.272056
0.088633 -0.011653 0.273545
0.098952 -0.012638 0.296826
0.100199 -0.012616 0.296408
0.099890 -0.012403 0.291459
0.101183 -0.012391 0.291251
0.102559 -0.012390 0.291285
0.103751 -0.012367 0.290799
0.105083 -0.012361 0.290707
0.106380 -0.012351 0.290524
0.107743 -0.012348 0.290515
0.109634 -0.012406 0.291910
0.110863 -0.012388 0.291526
0.112191 -0.012382 0.291404
0.113774 -0.012403 0.291935
0.114988 -0.012385 0.291512
0.116663 -0.012415 0.292246
0.118097 -0.012420 0.292364
0.119206 -0.012391 0.291676
0.120705 -0.012403 0.291940
0.121945 -0.012388 0.291572
0.123302 -0.012385 0.291482
0.124702 -0.012387 0.291488
0.126110 -0.012389 0.291502
0.127574 -0.012396 0.291635
0.128841 -0.012385 0.291313
0.130499 -0.012411 0.291860
0.131895 -0.012412 0.291809
0.133274 -0.012411 0.291710
0.134754 -0.012420 0.291820
0.136545 -0.012456 0.292584
0.137951 -0.012458 0.292504
0.139298 -0.012454 0.292291
0.140733 -0.012457 0.292250
0.142046 -0.012450 0.291947
0.143376 -0.012445 0.291672
0.144600 -0.012431 0.291172
0.146017 -0.012433 0.291054
0.147862 -0.012472 0.291767
0.149471 -0.012490 0.291989
0.150662 -0.012473 0.291382
0.152540 -0.012513 0.292084
-0.132428 -0.009425 0.249728
-0.131873 -0.009469 0.251084
-0.131866 -0.009554 0.253508
-0.131241 -0.009595 0.254764
-0.130680 -0.009641 0.256157
-0.130157 -0.009692 0.257641
-0.130004 -0.009771 0.259882
-0.130930 -0.009934 0.264331
-0.132053 -0.010114 0.269261
-0.131559 -0.010174 0.270950
-0.131270 -0.010250 0.273086
-0.133162 -0.010500 0.279841
-0.133108 -0.010600 0.282589
-0.129295 -0.010399 0.277324
-0.128325 -0.010426 0.278099
-0.125995 -0.010341 0.275902
-0.126789 -0.010514 0.280565
-0.125680 -0.010531 0.281063
-0.118692 -0.010051 0.268274
-0.117315 -0.010040 0.268021
-0.116355 -0.010066 0.268717
-0.115574 -0.010107 0.269842
-0.114548 -0.010128 0.270406
-0.113460 -0.010144 0.270827
-0.112590 -0.010180 0.271780
-0.111881 -0.010231 0.273142
-0.110951 -0.010264 0.273983
-0.110047 -0.010299 0.274906
-0.109335 -0.010354 0.276329
-0.108396 -0.010388 0.277202
-0.107513 -0.010428 0.278236
-0.106679 -0.010474 0.279420
-0.105866 -0.010524 0.280686
-0.105001 -0.010569 0.281839
-0.103879 -0.010589 0.282321
-0.103033 -0.010639 0.283571
-0.102755 -0.010749 0.286435
-0.101897 -0.010801 0.287735
-0.100629 -0.010810 0.287893
-0.099794 -0.010866 0.289310
-0.098777 -0.010904 0.290229
-0.097518 -0.010916 0.290454
-0.096439 -0.010949 0.291223
-0.095236 -0.010968 0.291639
-0.094143 -0.011001 0.292407
-0.092880 -0.011015 0.292661
-0.091347 -0.010996 0.292058
-0.090358 -0.011044 0.293207
-0.088532 -0.010989 0.291635
-0.087093 -0.010981 0.291309
-0.085511 -0.010955 0.290489
-0.084062 -0.010945 0.290105
-0.082650 -0.010940 0.289840
-0.081287 -0.010941 0.289744
-0.080038 -0.010958 0.290060
-0.078644 -0.010956 0.289857
-0.077369 -0.010970 0.290098
-0.076243 -0.011006 0.290920
-0.074779 -0.010994 0.290462
-0.073665 -0.011034 0.291376
-0.072437 -0.011057 0.291866
-0.071068 -0.011060 0.291805
-0.070277 -0.011155 0.294167
-0.067469 -0.010927 0.288018
-0.066251 -0.010953 0.288547
-0.064948 -0.010965 0.288730
-0.063645 -0.010978 0.288926
-0.062343 -0.010991 0.289143
-0.060995 -0.010997 0.289156
-0.059685 -0.011010 0.289364
-0.058336 -0.011017 0.289394
-0.056938 -0.011014 0.289185
-0.055607 -0.011025 0.289326
-0.054219 -0.011024 0.289178
-0.052894 -0.011037 0.289372
-0.051549 -0.011046 0.289472
-0.050122 -0.011037 0.289118
-0.048816 -0.011056 0.289473
-0.047441 -0.011059 0.289430
-0.046010 -0.011050 0.289049
-0.044651 -0.011057 0.289121
-0.043210 -0.011044 0.288658
-0.041804 -0.011040 0.288418
-0.040043 -0.010938 0.285645
-0.038529 -0.010899 0.284506
-0.036082 -0.010584 0.276157
-0.034768 -0.010589 0.276189
-0.034200 -0.010831 0.282397
-0.028187 -0.011148 0.290163
-0.026804 -0.011157 0.290293
-0.025395 -0.011155 0.290147
-0.024007 -0.011163 0.290265
-0.019433 -0.010961 0.284787
-0.017625 -0.010701 0.277973
-0.016300 -0.010716 0.278300
-0.014958 -0.010721 0.278375
-0.012622 -0.009944 0.258146
-0.011351 -0.009929 0.257697
-0.010124 -0.009951 0.258237
-0.008860 -0.009940 0.257910
-0.007611 -0.009944 0.257973
-0.006367 -0.009958 0.258299
-0.005117 -0.009967 0.258494
-0.003860 -0.009964 0.258391
-0.002608 -0.009976 0.258694
-0.001365 -0.010078 0.261318
-0.000095 -0.010166 0.263599
0.001199 -0.010283 0.266621
0.002471 -0.010184 0.264031
0.006214 -0.010010 0.259521
0.007423 -0.009940 0.257731
0.008661 -0.009922 0.257281
0.009908 -0.009919 0.257202
0.011166 -0.009926 0.257401
0.012405 -0.009916 0.257175
0.013690 -0.009941 0.257862
0.014943 -0.009941 0.257883
0.016253 -0.009976 0.258824
0.017562 -0.010005 0.259618
0.018866 -0.010028 0.260253
0.020230 -0.010078 0.261595
0.021850 -0.010241 0.265893
0.023299 -0.010311 0.267761
0.024504 -0.010271 0.266777
0.025319 -0.010080 0.261878
0.026158 -0.009916 0.257682
0.027397 -0.009912 0.257646
0.028692 -0.009928 0.258121
0.029889 -0.009909 0.257711
0.031095 -0.009896 0.257428
0.032455 -0.009930 0.258393
0.033746 -0.009941 0.258774
0.035132 -0.009979 0.259836
0.036545 -0.010021 0.261018
0.037874 -0.010039 0.261558
0.039613 -0.010160 0.264808
0.041824 -0.010391 0.270927
0.043359 -0.010445 0.272435
0.044328 -0.010364 0.270411
0.045791 -0.010399 0.271435
0.047347 -0.010453 0.272944
0.048445 -0.010406 0.271814
0.049937 -0.010443 0.272900
0.051191 -0.010430 0.272668
0.052406 -0.010411 0.272255
0.054265 -0.010517 0.275136
0.055519 -0.010503 0.274887
0.056439 -0.010428 0.273044
0.058147 -0.010499 0.275011
0.059389 -0.010485 0.274746
0.059801 -0.010327 0.270735
0.061034 -0.010316 0.270540
0.062388 -0.010325 0.270879
0.063787 -0.010340 0.271407
0.064998 -0.010326 0.271130
0.066292 -0.010324 0.271206
0.067664 -0.010335 0.271596
0.068970 -0.010336 0.271717
0.070286 -0.010337 0.271873
0.071568 -0.010334 0.271901
0.072796 -0.010324 0.271726
0.073998 -0.010310 0.271466
0.075188 -0.010295 0.271175
0.076315 -0.010272 0.270667
0.077422 -0.010247 0.270112
0.078790 -0.010257 0.270471
0.080077 -0.010256 0.270547
0.081329 -0.010251 0.270505
0.082633 -0.010253 0.270635
0.084239 -0.010291 0.271736
0.085680 -0.010308 0.272277
0.086953 -0.010305 0.272280
0.088890 -0.010380 0.274331
0.095489 -0.010989 0.290504
0.096713 -0.010971 0.290100
0.099511 -0.011129 0.294363
0.099768 -0.011003 0.291095
0.101031 -0.010989 0.290806
0.102609 -0.011010 0.291419
0.103547 -0.010963 0.290220
0.104996 -0.010970 0.290461
0.106379 -0.010970 0.290514
0.108163 -0.011011 0.291644
0.109495 -0.011005 0.291537
0.110804 -0.010998 0.291367
0.112135 -0.010992 0.291256
0.113412 -0.010982 0.291004
0.114821 -0.010985 0.291086
0.116201 -0.010984 0.291090
0.118020 -0.011025 0.292174
0.119315 -0.011016 0.291943
0.120594 -0.011007 0.291674
0.121865 -0.010996 0.291382
0.123311 -0.011002 0.291506
0.124628 -0.010996 0.291317
0.126087 -0.011003 0.291453
0.127373 -0.010994 0.291181
0.128751 -0.010994 0.291114
0.130434 -0.011019 0.291723
0.132354 -0.011064 0.292830
0.133402 -0.011035 0.291998
0.134749 -0.011032 0.291818
0.136333 -0.011048 0.292140
0.137857 -0.011059 0.292316
0.139366 -0.011068 0.292443
0.140828 -0.011073 0.292459
0.141995 -0.011056 0.291854
0.143351 -0.011053 0.291632
0.144738 -0.011053 0.291465
0.145989 -0.011043 0.291013
0.147254 -0.011034 0.290584
0.148700 -0.011038 0.290499
0.151344 -0.011130 0.292717
0.152478 -0.011111 0.291984
-0.135140 -0.008409 0.254856
-0.134718 -0.008457 0.256514
-0.134031 -0.008490 0.257682
-0.132747 -0.008485 0.257698
-0.131945 -0.008511 0.258648
-0.130803 -0.008516 0.258930
-0.129598 -0.008516 0.259079
-0.129416 -0.008584 0.261284
-0.135174 -0.009052 0.275635
-0.138255 -0.009347 0.284749
-0.137133 -0.009361 0.285291
-0.136446 -0.009406 0.286747
-0.135452 -0.009430 0.287572
-0.134275 -0.009442 0.288011
-0.133139 -0.009457 0.288537
-0.120432 -0.009108 0.278136
-0.119329 -0.009123 0.278611
-0.117452 -0.009079 0.277262
-0.116332 -0.009092 0.277683
-0.114998 -0.009089 0.277592
-0.113547 -0.009077 0.277208
-0.112259 -0.009078 0.277211
-0.111131 -0.009092 0.277611
-0.110120 -0.009116 0.278309
-0.109036 -0.009134 0.278833
-0.107931 -0.009151 0.279314
-0.108435 -0.009307 0.284015
-0.106552 -0.009259 0.282500
-0.108637 -0.009559 0.291593
-0.107454 -0.009575 0.292031
-0.105905 -0.009559 0.291471
-0.104785 -0.009582 0.292088
-0.103267 -0.009568 0.291597
-0.102041 -0.009582 0.291925
-0.100231 -0.009540 0.290569
-0.097874 -0.009444 0.287568
-0.096359 -0.009429 0.286992
-0.095102 -0.009438 0.287176
-0.093513 -0.009414 0.286350
-0.094579 -0.009661 0.293748
-0.092912 -0.009631 0.292748
-0.091644 -0.009643 0.292997
-0.090046 -0.009620 0.292181
-0.088577 -0.009610 0.291770
-0.086944 -0.009582 0.290795
-0.085571 -0.009582 0.290678
-0.084100 -0.009571 0.290222
-0.082629 -0.009560 0.289751
-0.081325 -0.009568 0.289863
-0.079895 -0.009561 0.289527
-0.078628 -0.009574 0.289781
-0.077379 -0.009589 0.290119
-0.076044 -0.009595 0.290140
-0.074850 -0.009618 0.290718
-0.073558 -0.009630 0.290931
-0.072377 -0.009657 0.291606
-0.071138 -0.009677 0.292071
-0.070628 -0.009799 0.295615
-0.067429 -0.009545 0.287823
