ply
format ascii 1.0
element vertex 1680
property float x
property float y
property float z
end_header
0.032493 -0.016203 0.258852
0.033725 -0.016193 0.258763
0.034989 -0.016198 0.258928
0.036281 -0.016215 0.259291
0.037556 -0.016224 0.259513
0.038851 -0.016241 0.259870
0.040108 -0.016241 0.259958
0.043408 -0.017043 0.272894
0.051075 -0.016961 0.272196
0.052626 -0.017038 0.273539
0.052290 -0.016516 0.265258
0.053295 -0.016431 0.264007
0.054939 -0.016544 0.265914
0.056522 -0.016633 0.267454
0.058115 -0.016721 0.268975
0.059560 -0.016763 0.269767
0.061062 -0.016820 0.270786
0.062431 -0.016838 0.271189
0.063801 -0.016855 0.271581
0.065115 -0.016858 0.271732
0.066343 -0.016838 0.271528
0.067670 -0.016844 0.271731
0.068945 -0.016837 0.271724
0.070293 -0.016848 0.272004
0.071487 -0.016822 0.271693
0.072675 -0.016796 0.271372
0.074053 -0.016814 0.271764
0.075122 -0.016762 0.271028
0.076389 -0.016755 0.271019
0.077679 -0.016754 0.271096
0.078741 -0.016704 0.270387
0.080340 -0.016768 0.271515
0.081731 -0.016787 0.271918
0.082990 -0.016779 0.271876
0.084981 -0.016917 0.274200
0.086469 -0.016952 0.274854
0.088062 -0.017006 0.275816
0.090033 -0.017131 0.277920
0.096035 -0.018008 0.292227
0.097267 -0.017978 0.291821
0.099599 -0.018149 0.294679
0.099579 -0.017893 0.290593
0.101243 -0.017943 0.291465
0.102780 -0.017969 0.291949
0.103904 -0.017923 0.291258
0.105254 -0.017916 0.291211
0.106615 -0.017912 0.291190
0.108003 -0.017913 0.291240
0.109285 -0.017896 0.291002
0.110856 -0.017926 0.291526
0.111641 -0.017830 0.289989
0.113917 -0.017971 0.292312
0.115388 -0.017984 0.292533
0.116844 -0.017993 0.292704
0.118082 -0.017970 0.292328
0.119338 -0.017950 0.291995
0.120837 -0.017966 0.292254
0.122073 -0.017944 0.291868
0.123495 -0.017949 0.291925
0.124750 -0.017929 0.291582
0.125847 -0.017888 0.290874
0.127385 -0.017910 0.291179
0.129421 -0.018000 0.292595
0.130628 -0.017975 0.292119
0.131882 -0.017956 0.291744
0.133103 -0.017934 0.291297
0.135223 -0.018031 0.292794
0.136333 -0.017994 0.292084
0.138119 -0.018045 0.292810
0.139537 -0.018048 0.292737
0.140812 -0.018033 0.292356
0.142293 -0.018044 0.292392
0.143618 -0.018035 0.292096
0.145003 -0.018034 0.291912
0.146506 -0.018047 0.291953
0.147880 -0.018045 0.291722
0.149429 -0.018063 0.291822
0.150838 -0.018065 0.291634
0.152177 -0.018058 0.291294
-0.127514 -0.013637 0.240398
-0.126577 -0.013658 0.240940
-0.125533 -0.013668 0.241274
-0.124790 -0.013710 0.242186
-0.124031 -0.013752 0.243073
-0.123210 -0.013788 0.243841
-0.122419 -0.013828 0.244673
-0.121938 -0.013904 0.246135
-0.121196 -0.013951 0.247084
-0.120472 -0.014002 0.248079
-0.119668 -0.014044 0.248916
-0.118823 -0.014082 0.249675
-0.118046 -0.014129 0.250585
-0.117262 -0.014176 0.251487
-0.116574 -0.014236 0.252610
-0.115957 -0.014306 0.253901
-0.115251 -0.014366 0.255016
-0.114457 -0.014416 0.255949
-0.113840 -0.014490 0.257295
-0.113198 -0.014563 0.258607
-0.112423 -0.014619 0.259630
-0.111773 -0.014694 0.260963
-0.111003 -0.014754 0.262037
-0.110180 -0.014808 0.263000
-0.109496 -0.014883 0.264317
-0.108958 -0.014979 0.266014
-0.108503 -0.015089 0.267949
-0.108264 -0.015232 0.270465
-0.107844 -0.015353 0.272577
-0.107176 -0.015441 0.274101
-0.106236 -0.015491 0.274954
-0.105323 -0.015547 0.275893
-0.104447 -0.015609 0.276952
-0.103696 -0.015692 0.278366
-0.102731 -0.015745 0.279235
-0.101882 -0.015817 0.280440
-0.101174 -0.015913 0.282070
-0.101087 -0.016110 0.285491
-0.100284 -0.016197 0.286953
-0.099297 -0.016257 0.287919
-0.098060 -0.016276 0.288176
-0.096876 -0.016305 0.288593
-0.095811 -0.016355 0.289386
-0.094637 -0.016388 0.289863
-0.093217 -0.016379 0.289592
-0.091919 -0.016391 0.289697
-0.090423 -0.016368 0.289175
-0.089340 -0.016419 0.289974
-0.088422 -0.016504 0.291346
-0.087051 -0.016505 0.291246
-0.085752 -0.016520 0.291387
-0.084119 -0.016470 0.290385
-0.083043 -0.016529 0.291304
-0.081942 -0.016586 0.292166
-0.080461 -0.016566 0.291684
-0.079055 -0.016561 0.291466
-0.077856 -0.016600 0.292018
-0.076628 -0.016634 0.292489
-0.074603 -0.016494 0.289879
-0.073693 -0.016599 0.291590
-0.072548 -0.016654 0.292422
-0.071167 -0.016656 0.292320
-0.069883 -0.016682 0.292628
-0.067777 -0.016508 0.289443
-0.066272 -0.016477 0.288754
-0.064930 -0.016486 0.288770
-0.063592 -0.016496 0.288807
-0.062290 -0.016516 0.289020
-0.060981 -0.016535 0.289216
-0.059655 -0.016550 0.289346
-0.058345 -0.016571 0.289574
-0.057020 -0.016589 0.289736
-0.055630 -0.016588 0.289582
-0.054369 -0.016626 0.290116
-0.053019 -0.016639 0.290197
-0.051577 -0.016622 0.289773
-0.050157 -0.016612 0.289465
-0.048704 -0.016590 0.288957
-0.045933 -0.016592 0.288722
-0.044675 -0.016640 0.289435
-0.043141 -0.016585 0.288355
-0.041805 -0.016605 0.288586
-0.040011 -0.016439 0.285575
-0.038858 -0.016534 0.287104
-0.036919 -0.016288 0.282727
-0.035629 -0.016321 0.283197
-0.034661 -0.016511 0.286376
-0.020679 -0.016381 0.283216
-0.019319 -0.016391 0.283312
-0.017563 -0.016041 0.277192
-0.015923 -0.015746 0.272047
-0.014611 -0.015754 0.272120
-0.012557 -0.014882 0.257012
-0.011332 -0.014911 0.257468
-0.010108 -0.014948 0.258050
-0.008854 -0.014944 0.257953
-0.007608 -0.014956 0.258117
-0.006369 -0.014988 0.258631
-0.005124 -0.015019 0.259133
-0.003873 -0.015045 0.259566
-0.002611 -0.015035 0.259373
-0.001358 -0.015113 0.260689
-0.000092 -0.015168 0.261631
0.001185 -0.015250 0.263032
0.002462 -0.015244 0.262925
0.006184 -0.014979 0.258359
0.007419 -0.014938 0.257665
0.008678 -0.014950 0.257879
0.009933 -0.014954 0.257962
0.011184 -0.014951 0.257931
0.012442 -0.014956 0.258046
0.013728 -0.014991 0.258681
0.014993 -0.015000 0.258866
0.016310 -0.015055 0.259845
0.017600 -0.015079 0.260309
0.018884 -0.015095 0.260619
0.020285 -0.015197 0.262426
0.021751 -0.015332 0.264807
0.023484 -0.015630 0.270014
0.024779 -0.015620 0.269898
0.025385 -0.015198 0.262678
0.026389 -0.015045 0.260081
0.027596 -0.015015 0.259640
0.028800 -0.014986 0.259209
0.029985 -0.014950 0.258658
0.031194 -0.014929 0.258365
0.032467 -0.014939 0.258609
0.033720 -0.014939 0.258690
0.035055 -0.014974 0.259382
0.036387 -0.015006 0.260010
0.037659 -0.015011 0.260191
0.039394 -0.015195 0.263462
0.041375 -0.015459 0.268131
0.042603 -0.015434 0.267796
0.044028 -0.015480 0.268694
0.045592 -0.015571 0.270368
0.049679 -0.015624 0.271599
0.051095 -0.015657 0.272270
0.052265 -0.015614 0.271632
0.053637 -0.015632 0.272054
0.054658 -0.015549 0.270725
0.055895 -0.015531 0.270512
0.057099 -0.015504 0.270156
0.058311 -0.015481 0.269855
0.059886 -0.015552 0.271218
0.061220 -0.015560 0.271457
0.062594 -0.015577 0.271865
0.063911 -0.015580 0.272022
0.065169 -0.015568 0.271929
0.066448 -0.015562 0.271928
0.067767 -0.015565 0.272094
0.069151 -0.015583 0.272510
0.070501 -0.015592 0.272787
0.071813 -0.015593 0.272908
0.073080 -0.015584 0.272863
0.074324 -0.015571 0.272734
0.075534 -0.015552 0.272493
0.076643 -0.015512 0.271901
0.078003 -0.015524 0.272205
0.079183 -0.015500 0.271885
0.080484 -0.015500 0.271982
0.081870 -0.015516 0.272363
0.083320 -0.015544 0.272941
0.084888 -0.015593 0.273883
0.086449 -0.015639 0.274773
0.087828 -0.015651 0.275068
0.089598 -0.015731 0.276561
0.096109 -0.016629 0.292439
0.097342 -0.016602 0.292032
0.099337 -0.016703 0.293889
0.099571 -0.016510 0.290557
0.101129 -0.016538 0.291124
0.102818 -0.016587 0.292047
0.103834 -0.016527 0.291054
0.105149 -0.016516 0.290914
0.106433 -0.016500 0.290687
0.107767 -0.016493 0.290598
0.109683 -0.016573 0.292055
0.110118 -0.016431 0.289580
0.112199 -0.016535 0.291436
0.113715 -0.016554 0.291791
0.115220 -0.016570 0.292105
0.116556 -0.016563 0.291983
0.117760 -0.016537 0.291529
0.119002 -0.016517 0.291173
0.120304 -0.016506 0.290967
0.121527 -0.016484 0.290566
0.122871 -0.016479 0.290453
0.124410 -0.016500 0.290793
0.125519 -0.016464 0.290120
0.126850 -0.016458 0.289963
0.128330 -0.016470 0.290137
0.130834 -0.016613 0.292588
0.132207 -0.016611 0.292473
0.132373 -0.016458 0.289710
0.134360 -0.016533 0.290936
0.136338 -0.016605 0.292108
0.138215 -0.016664 0.293028
0.139313 -0.016628 0.292282
0.140701 -0.016628 0.292141
0.142424 -0.016666 0.292678
0.143876 -0.016673 0.292640
0.145372 -0.016684 0.292676
0.146796 -0.016687 0.292553
0.148284 -0.016697 0.292542
0.149366 -0.016662 0.291723
0.150570 -0.016641 0.291140
0.152096 -0.016655 0.291166
-0.128282 -0.012572 0.241864
-0.127407 -0.012598 0.242539
-0.126424 -0.012613 0.243004
-0.125581 -0.012643 0.243738
-0.124712 -0.012671 0.244422
-0.123668 -0.012682 0.244762
-0.122815 -0.012712 0.245478
-0.122113 -0.012759 0.246501
-0.121193 -0.012784 0.247089
-0.120290 -0.012811 0.247714
-0.119571 -0.012859 0.248724
-0.118764 -0.012897 0.249560
-0.117936 -0.012935 0.250358
-0.117219 -0.012985 0.251402
-0.116596 -0.013047 0.252664
-0.116026 -0.013116 0.254059
-0.115258 -0.013165 0.255037
-0.114758 -0.013245 0.256626
-0.113985 -0.013295 0.257627
-0.113212 -0.013346 0.258639
-0.112463 -0.013401 0.259724
-0.111681 -0.013453 0.260749
-0.110795 -0.013494 0.261546
-0.110168 -0.013567 0.262971
-0.109570 -0.013646 0.264493
-0.109070 -0.013739 0.266285
-0.108478 -0.013823 0.267885
-0.108233 -0.013953 0.270383
-0.107870 -0.014071 0.272637
-0.107172 -0.014148 0.274084
-0.106187 -0.014188 0.274819
-0.105243 -0.014234 0.275676
-0.104383 -0.014294 0.276772
-0.103484 -0.014349 0.277789
-0.102563 -0.014403 0.278769
-0.101648 -0.014459 0.279786
-0.100794 -0.014526 0.280997
-0.100338 -0.014652 0.283362
-0.099829 -0.014774 0.285637
-0.098837 -0.014826 0.286570
-0.097800 -0.014874 0.287395
-0.096932 -0.014949 0.288746
-0.095807 -0.014985 0.289356
-0.094686 -0.015024 0.289997
-0.093609 -0.015070 0.290791
-0.092044 -0.015039 0.290073
-0.090696 -0.015042 0.290027
-0.089192 -0.015019 0.289475
-0.087370 -0.014942 0.287860
-0.086854 -0.015088 0.290564
-0.085610 -0.015111 0.290883
-0.084283 -0.015120 0.290926
-0.082612 -0.015066 0.289768
-0.081641 -0.015141 0.291068
-0.080464 -0.015179 0.291670
-0.078935 -0.015151 0.290999
-0.077731 -0.015185 0.291525
-0.076535 -0.015222 0.292105
-0.075135 -0.015220 0.291915
-0.073832 -0.015237 0.292110
-0.072406 -0.015229 0.291817
-0.071514 -0.015336 0.293717
-0.071202 -0.015573 0.298119
-0.067531 -0.015071 0.288363
-0.066278 -0.015098 0.288747
-0.064998 -0.015120 0.289036
-0.063663 -0.015131 0.289093
-0.062357 -0.015149 0.289295
-0.061043 -0.015165 0.289476
-0.059698 -0.015175 0.289517
-0.058359 -0.015187 0.289604
-0.056954 -0.015182 0.289366
-0.055562 -0.015179 0.289187
-0.054127 -0.015165 0.288782
-0.052778 -0.015175 0.288834
-0.051502 -0.015207 0.289312
-0.050122 -0.015210 0.289221
-0.048772 -0.015221 0.289313
-0.047463 -0.015247 0.289676
-0.046102 -0.015257 0.289739
-0.043406 -0.015289 0.290081
-0.040111 -0.015099 0.286243
-0.038875 -0.015155 0.287178
-0.036386 -0.014708 0.278599
-0.035594 -0.014939 0.282868
-0.034262 -0.014953 0.283032
-0.021960 -0.014947 0.282081
-0.020608 -0.014956 0.282183
-0.019252 -0.014965 0.282278
-0.017090 -0.014300 0.269671
-0.015952 -0.014453 0.272496
-0.014638 -0.014460 0.272569
-0.012665 -0.013753 0.259179
-0.011365 -0.013701 0.258161
-0.010120 -0.013710 0.258291
-0.008874 -0.013722 0.258468
-0.007631 -0.013742 0.258812
-0.006375 -0.013744 0.258814
-0.005127 -0.013766 0.259189
-0.003872 -0.013780 0.259442
-0.002614 -0.013788 0.259570
-0.001359 -0.013851 0.260723
-0.000093 -0.013915 0.261919
0.001187 -0.014009 0.263684
0.002462 -0.013974 0.263023
0.006197 -0.013754 0.258885
0.007420 -0.013689 0.257667
0.008683 -0.013707 0.258014
0.009937 -0.013707 0.258028
0.011188 -0.013703 0.257985
0.012447 -0.013709 0.258112
0.013709 -0.013717 0.258296
0.014991 -0.013742 0.258800
0.016305 -0.013790 0.259736
0.017571 -0.013793 0.259839
0.018922 -0.013858 0.261108
0.020343 -0.013963 0.263139
0.021716 -0.014025 0.264354
0.023225 -0.014163 0.267002
0.024506 -0.014154 0.266888
0.025315 -0.013887 0.261924
0.026282 -0.013729 0.258995
0.027505 -0.013712 0.258746
0.028769 -0.013716 0.258893
0.029860 -0.013641 0.257548
0.031096 -0.013636 0.257521
0.032374 -0.013648 0.257835
0.033682 -0.013672 0.258364
0.035013 -0.013704 0.259036
0.036322 -0.013724 0.259511
0.037695 -0.013767 0.260404
0.039263 -0.013876 0.262552
0.041540 -0.014221 0.269170
0.043112 -0.014310 0.270965
0.044666 -0.014389 0.272552
0.045890 -0.014360 0.272101
0.047150 -0.014343 0.271887
0.048466 -0.014344 0.272011
0.049719 -0.014327 0.271786
0.051344 -0.014415 0.273565
0.052597 -0.014397 0.273328
0.053727 -0.014347 0.272481
0.054890 -0.014308 0.271849
0.056442 -0.014369 0.273131
0.057532 -0.014313 0.272171
0.058533 -0.014238 0.270855
0.059824 -0.014235 0.270906
0.061300 -0.014275 0.271783
0.062570 -0.014267 0.271735
0.063845 -0.014260 0.271716
0.065237 -0.014279 0.272186
0.066652 -0.014302 0.272740
0.067931 -0.014296 0.272729
0.069302 -0.014309 0.273084
0.070725 -0.014332 0.273630
0.071949 -0.014314 0.273404
0.073260 -0.014315 0.273512
0.074509 -0.014303 0.273391
0.075651 -0.014271 0.272895
0.077034 -0.014286 0.273269
0.078149 -0.014250 0.272696
0.079442 -0.014249 0.272756
0.080889 -0.014274 0.273335
0.082164 -0.014268 0.273323
0.083771 -0.014320 0.274402
0.085327 -0.014361 0.275282
0.086569 -0.014349 0.275140
0.088197 -0.014400 0.276209
0.089891 -0.014461 0.277453
0.095565 -0.015151 0.290769
0.096790 -0.015126 0.290364
0.099354 -0.015307 0.293928
0.099620 -0.015135 0.290690
0.100896 -0.015119 0.290444
0.102615 -0.015168 0.291459
0.103844 -0.015145 0.291074
0.105131 -0.015131 0.290856
0.106318 -0.015103 0.290366
0.107687 -0.015101 0.290375
0.109119 -0.015108 0.290548
0.110131 -0.015057 0.289608
0.111478 -0.015053 0.289557
0.113525 -0.015143 0.291300
0.114942 -0.015147 0.291398
0.116698 -0.015195 0.292338
0.117948 -0.015177 0.291994
0.119397 -0.015185 0.292141
0.120722 -0.015177 0.291979
0.121656 -0.015120 0.290877
0.122846 -0.015097 0.290397
0.124291 -0.015105 0.290520
0.125743 -0.015113 0.290644
0.128292 -0.015252 0.293265
0.129410 -0.015219 0.292586
0.130354 -0.015167 0.291523
0.131374 -0.015125 0.290640
0.132759 -0.015125 0.290565
0.134043 -0.015114 0.290261
0.135636 -0.015138 0.290615
0.137336 -0.015173 0.291177
0.139373 -0.015244 0.292423
0.140732 -0.015240 0.292221
0.142267 -0.015255 0.292373
0.143846 -0.015275 0.292597
0.145445 -0.015296 0.292841
0.146939 -0.015306 0.292857
0.148234 -0.015295 0.292465
0.149595 -0.015292 0.292193
0.150896 -0.015282 0.291794
0.152268 -0.015280 0.291521
-0.128052 -0.011404 0.241447
-0.127148 -0.011425 0.242061
-0.126114 -0.011434 0.242423
-0.125337 -0.011467 0.243279
-0.124569 -0.011501 0.244156
-0.123555 -0.011514 0.244551
-0.122800 -0.011550 0.245459
-0.121987 -0.011582 0.246258
-0.121204 -0.011618 0.247122
-0.120384 -0.011650 0.247917
-0.119477 -0.011675 0.248538
-0.118730 -0.011716 0.249497
-0.118005 -0.011761 0.250513
-0.117222 -0.011800 0.251417
-0.116577 -0.011854 0.252629
-0.116089 -0.011925 0.254202
-0.115579 -0.011996 0.255753
-0.114791 -0.012039 0.256704
-0.114030 -0.012085 0.257731
-0.113257 -0.012132 0.258747
-0.112448 -0.012175 0.259692
-0.111681 -0.012224 0.260752
-0.110919 -0.012275 0.261840
-0.110133 -0.012324 0.262888
-0.109687 -0.012413 0.264776
-0.109116 -0.012490 0.266395
-0.108361 -0.012547 0.267591
-0.108084 -0.012661 0.270008
-0.107768 -0.012774 0.272376
-0.106977 -0.012832 0.273581
-0.106113 -0.012883 0.274623
-0.105188 -0.012927 0.275526
-0.104323 -0.012980 0.276607
-0.103457 -0.013035 0.277710
-0.102571 -0.013088 0.278782
-0.101571 -0.013128 0.279565
-0.100769 -0.013195 0.280919
-0.100229 -0.013299 0.283045
-0.099718 -0.013409 0.285309
-0.098820 -0.013469 0.286508
-0.097552 -0.013480 0.286654
-0.096600 -0.013536 0.287742
-0.095583 -0.013584 0.288666
-0.094458 -0.013618 0.289283
-0.093230 -0.013638 0.289597
-0.092041 -0.013664 0.290045
-0.090850 -0.013691 0.290502
-0.089316 -0.013666 0.289859
-0.087838 -0.013649 0.289381
-0.086540 -0.013660 0.289493
-0.085403 -0.013697 0.290156
-0.084007 -0.013693 0.289952
-0.082649 -0.013695 0.289873
-0.081438 -0.013723 0.290322
-0.080188 -0.013744 0.290645
-0.078814 -0.013745 0.290527
-0.077485 -0.013753 0.290575
-0.076243 -0.013778 0.290962
-0.074932 -0.013791 0.291100
-0.073634 -0.013807 0.291297
-0.072321 -0.013821 0.291447
-0.071168 -0.013866 0.292266
-0.071225 -0.014154 0.298184
-0.067550 -0.013697 0.288411
-0.066256 -0.013713 0.288620
-0.064993 -0.013737 0.288982
-0.063672 -0.013749 0.289102
-0.062360 -0.013764 0.289276
-0.061026 -0.013775 0.289363
-0.059710 -0.013790 0.289542
-0.058360 -0.013799 0.289576
-0.056978 -0.013799 0.289452
-0.055684 -0.013822 0.289787
-0.054285 -0.013819 0.289589
-0.052803 -0.013794 0.288938
-0.050172 -0.013833 0.289476
-0.048815 -0.013842 0.289534
-0.047411 -0.013838 0.289317
-0.046154 -0.013878 0.290023
-0.044870 -0.013912 0.290609
-0.043324 -0.013864 0.289489
-0.041936 -0.013866 0.289405
-0.040013 -0.013685 0.285505
-0.038890 -0.013774 0.287246
-0.036308 -0.013334 0.277962
-0.034823 -0.013279 0.276701
-0.033529 -0.013295 0.276932
-0.031399 -0.012967 0.270002
-0.030276 -0.013045 0.271519
-0.029190 -0.013146 0.273536
-0.027737 -0.013084 0.272157
-0.026504 -0.013125 0.272920
-0.025159 -0.013112 0.272556
-0.023701 -0.013035 0.270876
-0.022314 -0.012991 0.269872
-0.021001 -0.012987 0.269711
-0.019703 -0.012992 0.269751
-0.018286 -0.012914 0.268058
-0.017124 -0.013018 0.270152
-0.015815 -0.013018 0.270103
-0.014513 -0.013025 0.270176
-0.012577 -0.012407 0.257320
-0.011366 -0.012448 0.258113
-0.010118 -0.012454 0.258199
-0.008866 -0.012454 0.258162
-0.007628 -0.012479 0.258639
-0.006375 -0.012485 0.258733
-0.005128 -0.012508 0.259167
-0.003871 -0.012512 0.259233
-0.002615 -0.012529 0.259562
-0.001359 -0.012577 0.260531
-0.000093 -0.012584 0.260662
0.001179 -0.012645 0.261917
0.002462 -0.012698 0.263019
0.006168 -0.012439 0.257649
0.007420 -0.012438 0.257638
0.008675 -0.012442 0.257741
0.009925 -0.012439 0.257697
0.011186 -0.012449 0.257920
0.012446 -0.012455 0.258069
0.013721 -0.012474 0.258489
0.014993 -0.012487 0.258801
0.016293 -0.012520 0.259522
0.017610 -0.012560 0.260382
0.018919 -0.012589 0.261037
0.020356 -0.012695 0.263278
0.021901 -0.012852 0.266572
0.023465 -0.013001 0.269727
0.024759 -0.012993 0.269612
0.025728 -0.012824 0.266169
0.026487 -0.012571 0.260984
0.027624 -0.012512 0.259835
0.028874 -0.012508 0.259805
0.030021 -0.012461 0.258906
0.031266 -0.012457 0.258894
0.032617 -0.012494 0.259741
0.033938 -0.012517 0.260296
0.035261 -0.012539 0.260840
0.036714 -0.012604 0.262279
0.038143 -0.012657 0.263472
0.039465 -0.012672 0.263875
0.040972 -0.012744 0.265456
0.042335 -0.012768 0.266050
0.043452 -0.012718 0.265116
0.043631 -0.012405 0.258676
0.044766 -0.012373 0.258115
0.046156 -0.012412 0.259015
0.047126 -0.012338 0.257586
0.048444 -0.012358 0.258087
0.049750 -0.012373 0.258505
0.051289 -0.012444 0.260092
0.052393 -0.012408 0.259455
0.053721 -0.012426 0.259934
0.055166 -0.012470 0.260956
0.056941 -0.012585 0.263460
0.059263 -0.012813 0.268344
0.060951 -0.012897 0.270215
0.062290 -0.012905 0.270496
0.063794 -0.012946 0.271475
0.065198 -0.012966 0.272000
0.066530 -0.012971 0.272218
0.067951 -0.012993 0.272786
0.069235 -0.012989 0.272798
0.070516 -0.012983 0.272800
0.071831 -0.012985 0.272933
0.073015 -0.012963 0.272577
0.074352 -0.012968 0.272797
0.075532 -0.012947 0.272446
0.076671 -0.012919 0.271962
0.077944 -0.012914 0.271962
0.079179 -0.012903 0.271834
0.080376 -0.012887 0.271584
0.081777 -0.012903 0.272020
0.083200 -0.012923 0.272518
0.084704 -0.012953 0.273259
0.086099 -0.012967 0.273633
0.087551 -0.012989 0.274175
0.089398 -0.013068 0.275920
0.096051 -0.013836 0.292236
0.097283 -0.013813 0.291830
0.099378 -0.013912 0.293989
0.099917 -0.013793 0.291545
0.101380 -0.013803 0.291827
0.102735 -0.013799 0.291793
0.103907 -0.013770 0.291241
0.105123 -0.013747 0.290825
0.106548 -0.013753 0.290986
0.107902 -0.013749 0.290948
0.109346 -0.013756 0.291149
0.111001 -0.013790 0.291893
0.112298 -0.013779 0.291684
0.113636 -0.013773 0.291582
0.115035 -0.013774 0.291631
0.116410 -0.013773 0.291615
0.117826 -0.013777 0.291694
0.118618 -0.013708 0.290237
0.120153 -0.013726 0.290603
0.121817 -0.013758 0.291264
0.123191 -0.013757 0.291217
0.124625 -0.013762 0.291304
0.125999 -0.013761 0.291240
0.126996 -0.013719 0.290309
0.128451 -0.013727 0.290425
0.129890 -0.013733 0.290492
0.132514 -0.013863 0.293171
0.133342 -0.013805 0.291850
0.134342 -0.013765 0.290918
0.136352 -0.013828 0.292160
0.137559 -0.013810 0.291662
0.139248 -0.013840 0.292173
0.140700 -0.013845 0.292168
0.142269 -0.013863 0.292391
0.143775 -0.013874 0.292468
0.145003 -0.013858 0.291969
0.146593 -0.013876 0.292186
0.148264 -0.013902 0.292544
0.149601 -0.013896 0.292224
0.150946 -0.013892 0.291912
0.152129 -0.013872 0.291278
-0.128489 -0.010293 0.242286
-0.127646 -0.010317 0.243025
-0.126553 -0.010321 0.243281
-0.125753 -0.010349 0.244099
-0.124910 -0.010374 0.244837
-0.123935 -0.010389 0.245314
-0.123097 -0.010415 0.246064
-0.122192 -0.010436 0.246681
-0.121329 -0.010461 0.247386
-0.120561 -0.010495 0.248291
-0.119739 -0.010525 0.249091
-0.118924 -0.010556 0.249913
-0.118239 -0.010600 0.251017
-0.117574 -0.010646 0.252177
-0.117139 -0.010714 0.253851
-0.116519 -0.010766 0.255148
-0.115841 -0.010815 0.256336
-0.115237 -0.010871 0.257706
-0.114326 -0.010899 0.258404
-0.113407 -0.010927 0.259089
-0.112719 -0.010978 0.260319
-0.111841 -0.011011 0.261125
-0.111036 -0.011053 0.262116
-0.110451 -0.011117 0.263646
-0.110050 -0.011202 0.265649
-0.109330 -0.011256 0.266916
-0.108969 -0.011349 0.269092
-0.108309 -0.011412 0.270567
-0.107673 -0.011479 0.272131
-0.106871 -0.011530 0.273304
-0.105990 -0.011574 0.274299
-0.105158 -0.011624 0.275440
-0.104293 -0.011672 0.276522
-0.103397 -0.011717 0.277541
-0.102478 -0.011761 0.278520
-0.101551 -0.011806 0.279501
-0.100550 -0.011842 0.280297
-0.099977 -0.011931 0.282324
-0.099580 -0.012044 0.284901
-0.098585 -0.012086 0.285815
-0.097552 -0.012125 0.286640
-0.096468 -0.012158 0.287335
-0.095514 -0.012209 0.288443
-0.094364 -0.012236 0.288982
-0.093303 -0.012276 0.289812
-0.091900 -0.012271 0.289586
-0.090705 -0.012294 0.290022
-0.089210 -0.012277 0.289497
-0.087287 -0.012199 0.287549
-0.087344 -0.012400 0.292165
-0.085413 -0.012321 0.290172
-0.084171 -0.012340 0.290499
-0.082789 -0.012339 0.290346
-0.081453 -0.012344 0.290356
-0.080217 -0.012366 0.290731
-0.078746 -0.012351 0.290253
-0.077350 -0.012348 0.290046
-0.076017 -0.012355 0.290079
-0.074967 -0.012409 0.291213
-0.073431 -0.012384 0.290471
-0.072143 -0.012400 0.290706
-0.071317 -0.012497 0.292852
-0.071027 -0.012694 0.297328
-0.067503 -0.012310 0.288185
-0.066271 -0.012336 0.288659
-0.065011 -0.012358 0.289034
-0.063643 -0.012360 0.288942
-0.062339 -0.012375 0.289151
-0.061006 -0.012385 0.289235
-0.059677 -0.012396 0.289353
-0.058327 -0.012403 0.289380
-0.056903 -0.012394 0.289040
-0.055593 -0.012411 0.289280
-0.054257 -0.012422 0.289407
-0.052858 -0.012419 0.289203
-0.051531 -0.012433 0.289405
-0.050166 -0.012439 0.289401
-0.048753 -0.012433 0.289130
-0.047417 -0.012447 0.289317
-0.045995 -0.012438 0.288989
-0.044647 -0.012450 0.289129
-0.043183 -0.012428 0.288516
-0.041870 -0.012451 0.288907
-0.040087 -0.012330 0.285995
-0.038839 -0.012371 0.286831
-0.037495 -0.012384 0.287009
-0.034707 -0.011903 0.275744
-0.032741 -0.011676 0.270383
-0.031225 -0.011597 0.268469
-0.030307 -0.011744 0.271763
-0.028979 -0.011737 0.271521
-0.027664 -0.011736 0.271395
-0.026379 -0.011748 0.271588
-0.025225 -0.011823 0.273230
-0.024076 -0.011908 0.275120
-0.022575 -0.011819 0.272981
-0.021161 -0.011768 0.271715
-0.019939 -0.011824 0.272933
-0.018618 -0.011825 0.272883
-0.017081 -0.011678 0.269427
-0.016042 -0.011875 0.273925
-0.014721 -0.011881 0.273999
-0.012544 -0.011129 0.256607
-0.011335 -0.011164 0.257370
-0.010107 -0.011187 0.257849
-0.008847 -0.011176 0.257558
-0.007615 -0.011204 0.258152
-0.006372 -0.011222 0.258546
-0.005124 -0.011239 0.258906
-0.003870 -0.011251 0.259146
-0.002611 -0.011250 0.259113
-0.001357 -0.011286 0.259921
-0.000094 -0.011311 0.260476
0.001187 -0.011459 0.263880
0.002466 -0.011441 0.263455
0.006216 -0.011274 0.259630
0.007433 -0.011206 0.258065
0.008682 -0.011200 0.257934
0.009954 -0.011221 0.258432
0.011194 -0.011204 0.258080
0.012451 -0.011207 0.258154
0.013725 -0.011223 0.258552
0.015005 -0.011240 0.258983
0.016263 -0.011239 0.259008
0.017636 -0.011313 0.260738
0.018890 -0.011305 0.260613
0.020517 -0.011508 0.265328
0.021779 -0.011494 0.265059
0.023640 -0.011780 0.271709
0.024943 -0.011772 0.271593
0.025580 -0.011467 0.264603
0.026268 -0.011212 0.258796
0.027589 -0.011239 0.259477
0.028975 -0.011289 0.260688
0.030063 -0.011223 0.259242
0.031495 -0.011286 0.260767
0.032725 -0.011274 0.260568
0.034060 -0.011298 0.261203
0.035442 -0.011335 0.262148
0.036973 -0.011416 0.264101
0.038555 -0.011506 0.266286
0.040156 -0.011597 0.268467
0.041438 -0.011592 0.268452
0.042921 -0.011642 0.269704
0.044270 -0.011654 0.270080
0.045524 -0.011641 0.269872
0.044378 -0.011032 0.255850
0.045732 -0.011060 0.256614
0.046984 -0.011064 0.256786
0.048275 -0.011075 0.257160
0.049457 -0.011062 0.256959
0.050757 -0.011076 0.257367
0.052105 -0.011098 0.258003
0.053345 -0.011098 0.258094
0.054834 -0.011148 0.259360
0.056724 -0.011275 0.262434
0.058984 -0.011469 0.267057
0.060970 -0.011603 0.270277
0.062427 -0.011632 0.271069
0.063698 -0.011626 0.271043
0.065238 -0.011669 0.272148
0.066625 -0.011683 0.272587
0.068025 -0.011699 0.273064
0.069362 -0.011703 0.273277
0.070613 -0.011693 0.273156
0.071822 -0.011677 0.272880
0.073151 -0.011681 0.273067
0.074356 -0.011664 0.272795
0.075596 -0.011654 0.272660
0.076824 -0.011643 0.272487
0.077977 -0.011620 0.272063
0.079169 -0.011604 0.271785
0.080449 -0.011601 0.271817
0.081719 -0.011597 0.271814
0.083066 -0.011604 0.272066
0.084595 -0.011636 0.272894
0.086016 -0.011652 0.273358
0.087374 -0.011659 0.273609
0.089176 -0.011724 0.275221
0.091190 -0.011815 0.277434
0.096490 -0.012323 0.289440
0.099205 -0.012491 0.293467
0.099988 -0.012415 0.291745
0.101008 -0.012370 0.290750
0.102559 -0.012390 0.291284
0.103781 -0.012370 0.290881
0.105062 -0.012358 0.290651
0.106488 -0.012363 0.290816
0.107796 -0.012354 0.290659
0.109442 -0.012384 0.291399
0.110784 -0.012379 0.291319
0.111915 -0.012351 0.290686
0.113581 -0.012382 0.291438
0.114836 -0.012368 0.291126
0.116723 -0.012422 0.292398
0.117950 -0.012405 0.291999
0.118974 -0.012367 0.291109
0.120437 -0.012375 0.291291
0.121770 -0.012370 0.291153
0.122805 -0.012335 0.290307
0.124109 -0.012328 0.290102
0.125759 -0.012354 0.290689
0.126992 -0.012340 0.290306
0.128317 -0.012335 0.290126
0.129943 -0.012358 0.290618
0.132154 -0.012436 0.292381
0.132722 -0.012360 0.290500
0.133928 -0.012343 0.290031
0.136027 -0.012409 0.291475
0.137630 -0.012429 0.291824
0.139153 -0.012441 0.291986
0.140842 -0.012467 0.292475
0.142215 -0.012465 0.292293
0.143922 -0.012493 0.292783
0.145297 -0.012491 0.292576
0.146802 -0.012500 0.292619
0.148195 -0.012500 0.292424
0.149553 -0.012497 0.292149
0.150889 -0.012492 0.291821
0.152207 -0.012485 0.291446
-0.128847 -0.009170 0.242975
-0.127873 -0.009182 0.243469
-0.126894 -0.009193 0.243948
-0.126030 -0.009214 0.244649
-0.125187 -0.009236 0.245391
-0.124229 -0.009250 0.245907
-0.123321 -0.009269 0.246521
-0.122503 -0.009294 0.247320
-0.121646 -0.009317 0.248041
-0.120759 -0.009338 0.248708
-0.120001 -0.009370 0.249643
-0.119217 -0.009400 0.250534
-0.118546 -0.009440 0.251674
-0.118107 -0.009499 0.253325
-0.117322 -0.009532 0.254255
-0.116520 -0.009564 0.255155
-0.115738 -0.009598 0.256112
-0.115003 -0.009637 0.257186
-0.114177 -0.009668 0.258069
-0.113456 -0.009710 0.259204
-0.112687 -0.009748 0.260248
-0.112137 -0.009807 0.261818
-0.111209 -0.009833 0.262523
-0.110492 -0.009879 0.263744
-0.110026 -0.009948 0.265592
-0.110192 -0.010077 0.269018
-0.109630 -0.010141 0.270722
-0.108767 -0.010179 0.271707
-0.107802 -0.010208 0.272455
-0.106994 -0.010253 0.273617
-0.106148 -0.010296 0.274703
-0.105287 -0.010338 0.275775
-0.104331 -0.010371 0.276615
-0.103423 -0.010410 0.277604
-0.102485 -0.010447 0.278533
-0.101571 -0.010488 0.279550
-0.100553 -0.010519 0.280297
-0.099677 -0.010565 0.281466
-0.099135 -0.010649 0.283621
-0.098377 -0.010712 0.285202
-0.097304 -0.010742 0.285902
-0.096305 -0.010780 0.286839
-0.095541 -0.010847 0.288512
-0.094572 -0.010892 0.289604
-0.093367 -0.010910 0.289994
-0.092264 -0.010942 0.290720
-0.091070 -0.010963 0.291174
-0.088231 -0.010784 0.286306
-0.086977 -0.010796 0.286511
-0.087170 -0.010991 0.291565
-0.085365 -0.010937 0.289995
-0.084053 -0.010944 0.290073
-0.082716 -0.010949 0.290072
-0.081364 -0.010952 0.290018
-0.080109 -0.010968 0.290320
-0.078718 -0.010966 0.290131
-0.077309 -0.010961 0.289872
-0.076104 -0.010986 0.290389
-0.074861 -0.011006 0.290777
-0.073453 -0.011002 0.290534
-0.072266 -0.011031 0.291179
-0.071202 -0.011081 0.292355
-0.071242 -0.011308 0.298206
-0.067462 -0.010926 0.287987
-0.066225 -0.010948 0.288434
-0.064947 -0.010965 0.288727
-0.063604 -0.010971 0.288740
-0.062322 -0.010988 0.289045
-0.060973 -0.010993 0.289053
-0.059610 -0.010997 0.289002
-0.058293 -0.011009 0.289184
-0.056896 -0.011006 0.288975
-0.055557 -0.011015 0.289066
-0.054192 -0.011019 0.289031
-0.052848 -0.011027 0.289119
-0.051459 -0.011027 0.288970
-0.050173 -0.011049 0.289414
-0.048845 -0.011063 0.289645
-0.047455 -0.011063 0.289518
-0.046155 -0.011085 0.289960
-0.044793 -0.011092 0.290039
-0.043454 -0.011107 0.290287
-0.042000 -0.011092 0.289771
-0.040054 -0.010941 0.285722
-0.038519 -0.010896 0.284432
-0.037006 -0.010855 0.283231
-0.036272 -0.011047 0.288141
-0.034916 -0.011058 0.288308
-0.018624 -0.010505 0.272936
-0.017145 -0.010410 0.270400
-0.015878 -0.010438 0.271080
-0.014570 -0.010443 0.271154
-0.012597 -0.009925 0.257642
-0.011364 -0.009940 0.257995
-0.010125 -0.009953 0.258282
-0.008868 -0.009949 0.258147
-0.007621 -0.009957 0.258321
-0.006371 -0.009964 0.258449
-0.005121 -0.009975 0.258717
-0.003868 -0.009985 0.258953
-0.002614 -0.010000 0.259303
-0.001362 -0.010058 0.260788
-0.000095 -0.010144 0.263028
0.001190 -0.010202 0.264516
0.002469 -0.010175 0.263800
0.006205 -0.009995 0.259154
0.007421 -0.009937 0.257638
0.008672 -0.009935 0.257620
0.009951 -0.009962 0.258314
0.011180 -0.009938 0.257729
0.012445 -0.009948 0.257998
0.013717 -0.009961 0.258366
0.015000 -0.009979 0.258866
0.016283 -0.009994 0.259306
0.017575 -0.010013 0.259821
0.018874 -0.010032 0.260371
0.020411 -0.010167 0.263928
0.021872 -0.010252 0.266165
0.025320 -0.010613 0.275671
0.026524 -0.010560 0.274338
0.027813 -0.010543 0.273988
0.029236 -0.010577 0.274940
0.030516 -0.010559 0.274524
0.031860 -0.010563 0.274708
0.033237 -0.010577 0.275157
0.034540 -0.010568 0.274997
0.036715 -0.010429 0.271542
0.037993 -0.010418 0.271367
0.039234 -0.010399 0.270953
0.040316 -0.010340 0.269511
0.041405 -0.010287 0.268210
0.042666 -0.010278 0.268076
0.044283 -0.010353 0.270131
0.043580 -0.009897 0.258326
0.044433 -0.009810 0.256146
0.045572 -0.009789 0.255695
0.046856 -0.009799 0.256062
0.047935 -0.009767 0.255326
0.049149 -0.009764 0.255336
0.050343 -0.009756 0.255248
0.051640 -0.009769 0.255681
0.052923 -0.009778 0.256030
0.054192 -0.009785 0.256305
0.056335 -0.009945 0.260615
0.058764 -0.010148 0.266040
0.060856 -0.010286 0.269749
0.062205 -0.010294 0.270088
0.063732 -0.010331 0.271172
0.065011 -0.010328 0.271183
0.066498 -0.010356 0.272048
0.067944 -0.010378 0.272722
0.069134 -0.010360 0.272363
0.070585 -0.010382 0.273033
0.071880 -0.010380 0.273086
0.073133 -0.010372 0.272984
0.074385 -0.010364 0.272886
0.075557 -0.010346 0.272505
0.076785 -0.010335 0.272338
0.077953 -0.010317 0.271964
0.079128 -0.010301 0.271634
0.080520 -0.010313 0.272042
0.081714 -0.010300 0.271786
0.083132 -0.010315 0.272268
0.084809 -0.010361 0.273573
0.085970 -0.010343 0.273199
0.087266 -0.010342 0.273260
0.089070 -0.010401 0.274885
0.095483 -0.010988 0.290486
0.096706 -0.010970 0.290081
0.099230 -0.011098 0.293533
0.099873 -0.011014 0.291400
0.101173 -0.011005 0.291214
0.102397 -0.010987 0.290817
0.103518 -0.010960 0.290140
0.104909 -0.010961 0.290221
0.106366 -0.010969 0.290480
0.107841 -0.010978 0.290776
0.109162 -0.010972 0.290650
0.110550 -0.010972 0.290700
0.112001 -0.010979 0.290909
0.113402 -0.010981 0.290977
0.114857 -0.010988 0.291176
0.116467 -0.011009 0.291756
0.118106 -0.011033 0.292385
0.119264 -0.011012 0.291819
0.120536 -0.011001 0.291532
0.121812 -0.010992 0.291256
0.123028 -0.010977 0.290837
0.124273 -0.010965 0.290488
0.125793 -0.010977 0.290772
0.127216 -0.010980 0.290822
0.128955 -0.011011 0.291575
0.130676 -0.011039 0.292262
0.132141 -0.011046 0.292359
0.133320 -0.011028 0.291818
0.134826 -0.011038 0.291984
0.136099 -0.011029 0.291638
0.137350 -0.011018 0.291239
0.138942 -0.011034 0.291554
0.140693 -0.011063 0.292178
0.142332 -0.011082 0.292547
0.144366 -0.011132 0.293697
0.145341 -0.011099 0.292679
0.146740 -0.011099 0.292510
0.148168 -0.011102 0.292386
0.149500 -0.011097 0.292062
0.151044 -0.011108 0.292137
0.152288 -0.011097 0.291619
-0.129056 -0.008030 0.243381
-0.128171 -0.008046 0.244049
-0.127169 -0.008055 0.244489
-0.126104 -0.008060 0.244802
-0.125170 -0.008074 0.245367
-0.124299 -0.008092 0.246054
-0.123418 -0.008110 0.246723
-0.122513 -0.008126 0.247347
-0.121765 -0.008154 0.248291
-0.121289 -0.008200 0.249805
-0.120617 -0.008234 0.250931
-0.119938 -0.008268 0.252056
-0.119488 -0.008319 0.253679
-0.118591 -0.008339 0.254368
-0.117643 -0.008356 0.254955
-0.116848 -0.008384 0.255876
-0.116064 -0.008414 0.256836
-0.115287 -0.008445 0.257822
-0.114556 -0.008480 0.258928
-0.113794 -0.008514 0.259978
-0.113039 -0.008549 0.261061
-0.112717 -0.008617 0.263171
-0.112017 -0.008658 0.264432
-0.111840 -0.008741 0.266960
-0.111172 -0.008787 0.268358
-0.110805 -0.008858 0.270514
-0.109657 -0.008868 0.270786
-0.108600 -0.008885 0.271289
-0.107628 -0.008909 0.272012
-0.106873 -0.008953 0.273302
-0.105989 -0.008987 0.274289
-0.105301 -0.009038 0.275805
-0.104485 -0.009079 0.277019
-0.103520 -0.009109 0.277859
-0.102601 -0.009143 0.278842
-0.101752 -0.009184 0.280040
-0.100728 -0.009211 0.280779
-0.099945 -0.009260 0.282215
-0.099106 -0.009306 0.283528
-0.098595 -0.009384 0.285824
-0.097584 -0.009416 0.286714
-0.096382 -0.009431 0.287059
-0.095361 -0.009464 0.287959
-0.094371 -0.009500 0.288977
-0.093174 -0.009517 0.289386
-0.091840 -0.009520 0.289371
-0.090716 -0.009546 0.290030
-0.089263 -0.009537 0.289641
-0.089706 -0.009733 0.295487
-0.087904 -0.009688 0.294008
-0.085093 -0.009529 0.289054
-0.083594 -0.009514 0.288475
-0.082647 -0.009562 0.289814
-0.081333 -0.009569 0.289892
-0.079821 -0.009552 0.289258
-0.078618 -0.009573 0.289747
-0.077466 -0.009600 0.290444
-0.076117 -0.009604 0.290421
-0.074888 -0.009623 0.290866
-0.073717 -0.009651 0.291562
-0.072489 -0.009672 0.292057
-0.071234 -0.009690 0.292467
-0.070594 -0.009794 0.295471
-0.067425 -0.009545 0.287806
-0.066244 -0.009572 0.288496
-0.064957 -0.009585 0.288747
-0.063647 -0.009595 0.288914
-0.062371 -0.009611 0.289247
-0.061036 -0.009618 0.289327
-0.059698 -0.009626 0.289405
-0.058375 -0.009635 0.289563
-0.056999 -0.009637 0.289474
-0.055602 -0.009635 0.289273
-0.054347 -0.009658 0.289833
-0.052900 -0.009648 0.289379
-0.051556 -0.009656 0.289488
-0.048788 -0.009657 0.289278
-0.047291 -0.009635 0.288489
-0.045884 -0.009631 0.288229
-0.043191 -0.009649 0.288505
-0.041878 -0.009666 0.288898
-0.040041 -0.009559 0.285598
-0.038488 -0.009516 0.284174
-0.036807 -0.009436 0.281681
-0.035166 -0.009360 0.279319
-0.018518 -0.009128 0.271346
-0.017213 -0.009133 0.271432
-0.015858 -0.009111 0.270711
-0.014552 -0.009116 0.270784
-0.012558 -0.008647 0.256818
-0.011379 -0.008698 0.258282
-0.010131 -0.008703 0.258376
-0.008862 -0.008688 0.257908
-0.007636 -0.008719 0.258768
-0.006374 -0.008712 0.258530
-0.005121 -0.008717 0.258662
-0.003867 -0.008723 0.258796
-0.002611 -0.008729 0.258956
-0.001356 -0.008753 0.259649
-0.000095 -0.008759 0.259837
0.001190 -0.008922 0.264650
0.002468 -0.008890 0.263699
0.006171 -0.008689 0.257730
0.007408 -0.008670 0.257187
0.008650 -0.008662 0.256951
0.009921 -0.008681 0.257534
0.011168 -0.008677 0.257442
0.012417 -0.008675 0.257404
0.013699 -0.008695 0.258019
0.014984 -0.008712 0.258573
0.016256 -0.008721 0.258857
0.017607 -0.008767 0.260261
0.018911 -0.008785 0.260859
0.020534 -0.008940 0.265492
0.021878 -0.008962 0.266211
0.037216 -0.009239 0.275222
0.038512 -0.009230 0.275044
0.039517 -0.009154 0.272880
0.040431 -0.009063 0.270255
0.041681 -0.009051 0.269978
0.042677 -0.008986 0.268126
0.043593 -0.008908 0.265900
0.043244 -0.008583 0.256316
0.044387 -0.008565 0.255863
0.045491 -0.008540 0.255216
0.046645 -0.008526 0.254891
0.047881 -0.008527 0.255020
0.049003 -0.008508 0.254558
0.050186 -0.008501 0.254436
0.051523 -0.008519 0.255084
0.052608 -0.008496 0.254492
0.053634 -0.008464 0.253650
0.055303 -0.008533 0.255822
0.058418 -0.008818 0.264456
0.060787 -0.008980 0.269429
0.062451 -0.009033 0.271136
0.063774 -0.009036 0.271334
0.065257 -0.009061 0.272193
0.066660 -0.009074 0.272693
0.067938 -0.009070 0.272682
0.069362 -0.009085 0.273246
0.070640 -0.009081 0.273231
0.071865 -0.009071 0.273015
0.073139 -0.009066 0.272994
0.074357 -0.009055 0.272770
0.075544 -0.009041 0.272446
0.076714 -0.009025 0.272071
0.077917 -0.009014 0.271827
0.079165 -0.009008 0.271747
0.080474 -0.009009 0.271878
0.081733 -0.009005 0.271837
0.083178 -0.009021 0.272409
0.084749 -0.009050 0.273370
0.086158 -0.009061 0.273788
0.087473 -0.009062 0.273899
0.089120 -0.009097 0.275030
0.094968 -0.009553 0.288912
0.096185 -0.009537 0.288510
0.098973 -0.009675 0.292764
0.099879 -0.009628 0.291410
0.101236 -0.009626 0.291390
0.102560 -0.009620 0.291276
0.103650 -0.009592 0.290503
0.105043 -0.009593 0.290587
0.106482 -0.009598 0.290790
0.107905 -0.009602 0.290945
0.109347 -0.009607 0.291139
0.110976 -0.009629 0.291818
0.112744 -0.009661 0.292836
0.113703 -0.009625 0.291749
0.115249 -0.009638 0.292171
0.116573 -0.009633 0.292020
0.117931 -0.009631 0.291953
0.119025 -0.009607 0.291234
0.120163 -0.009588 0.290632
0.121743 -0.009603 0.291094
0.122837 -0.009581 0.290387
0.124167 -0.009577 0.290242
0.125566 -0.009579 0.290252
0.127921 -0.009652 0.292437
0.128884 -0.009621 0.291419
0.130511 -0.009639 0.291900
0.131949 -0.009643 0.291941
0.133455 -0.009651 0.292119
0.134636 -0.009636 0.291580
0.135992 -0.009634 0.291416
0.137384 -0.009635 0.291321
0.138688 -0.009629 0.291030
0.140247 -0.009641 0.291262
0.141736 -0.009648 0.291334
0.143518 -0.009675 0.291983
0.145217 -0.009696 0.292440
0.146465 -0.009686 0.291975
0.147913 -0.009690 0.291897
0.149498 -0.009702 0.292074
0.150957 -0.009706 0.291985
0.152231 -0.009699 0.291526
-0.129222 -0.006885 0.243705
-0.128346 -0.006899 0.244392
-0.127325 -0.006906 0.244799
-0.126325 -0.006914 0.245241
-0.125495 -0.006931 0.246012
-0.124533 -0.006942 0.246526
-0.123627 -0.006955 0.247150
-0.122833 -0.006976 0.248001
-0.121915 -0.006990 0.248605
-0.121218 -0.007017 0.249665
-0.121185 -0.007083 0.252119
-0.120472 -0.007110 0.253184
-0.120021 -0.007154 0.254817
-0.119659 -0.007204 0.256665
-0.119138 -0.007245 0.258199
-0.118372 -0.007272 0.259218
-0.117530 -0.007295 0.260082
-0.116705 -0.007319 0.260998
-0.116253 -0.007368 0.262767
-0.115917 -0.007425 0.264830
-0.115815 -0.007498 0.267474
-0.115194 -0.007539 0.268956
-0.114373 -0.007568 0.269993
-0.113615 -0.007602 0.271197
-0.112683 -0.007625 0.272003
-0.111758 -0.007648 0.272840
-0.110582 -0.007655 0.273069
-0.109364 -0.007659 0.273193
-0.108150 -0.007664 0.273329
-0.107273 -0.007693 0.274322
-0.106303 -0.007716 0.275097
-0.105259 -0.007734 0.275694
-0.104383 -0.007764 0.276744
-0.103559 -0.007800 0.277958
-0.102508 -0.007819 0.278585
-0.101660 -0.007855 0.279780
-0.100812 -0.007891 0.281007
-0.099640 -0.007903 0.281348
-0.099299 -0.007982 0.284072
-0.098640 -0.008037 0.285949
-0.097886 -0.008085 0.287594
-0.096655 -0.008096 0.287864
-0.095743 -0.008133 0.289104
-0.094588 -0.008151 0.289634
-0.093241 -0.008152 0.289582
-0.092193 -0.008180 0.290473
-0.094331 -0.008496 0.301576
-0.093066 -0.008511 0.301969
-0.090083 -0.008366 0.296719
-0.088326 -0.008332 0.295405
-0.085722 -0.008216 0.291178
-0.084242 -0.008206 0.290697
-0.082819 -0.008202 0.290405
-0.081233 -0.008180 0.289522
-0.080121 -0.008207 0.290332
-0.078798 -0.008212 0.290393
-0.077350 -0.008205 0.289993
-0.076253 -0.008235 0.290924
-0.075098 -0.008260 0.291665
-0.073758 -0.008265 0.291705
-0.072435 -0.008272 0.291823
-0.071421 -0.008315 0.293217
-0.070639 -0.008388 0.295642
-0.067420 -0.008169 0.287768
-0.066144 -0.008180 0.288042
-0.064878 -0.008194 0.288377
-0.063532 -0.008198 0.288371
-0.062267 -0.008212 0.288745
-0.060913 -0.008216 0.288725
-0.059586 -0.008223 0.288838
-0.058281 -0.008233 0.289075
-0.056945 -0.008240 0.289174
-0.055599 -0.008246 0.289235
-0.054293 -0.008258 0.289522
-0.053007 -0.008274 0.289941
-0.050287 -0.008284 0.290022
-0.048999 -0.008301 0.290504
-0.047638 -0.008307 0.290583
-0.041889 -0.008275 0.288949
-0.039845 -0.008141 0.284173
-0.038402 -0.008126 0.283512
-0.037186 -0.008159 0.284553
-0.035584 -0.008106 0.282613
-0.034253 -0.008114 0.282777
-0.029595 -0.007301 0.254365
-0.028423 -0.007316 0.254775
-0.027285 -0.007341 0.255555
-0.026018 -0.007332 0.255161
-0.024857 -0.007353 0.255824
-0.023699 -0.007378 0.256605
-0.022419 -0.007366 0.256087
-0.021231 -0.007384 0.256639
-0.020020 -0.007395 0.256966
-0.018777 -0.007396 0.256929
-0.018404 -0.007764 0.269645
-0.017199 -0.007810 0.271185
-0.015976 -0.007855 0.272694
-0.014661 -0.007859 0.272768
-0.012556 -0.007399 0.256729
-0.011331 -0.007413 0.257171
-0.010130 -0.007447 0.258329
-0.008864 -0.007437 0.257936
-0.007612 -0.007438 0.257936
-0.006383 -0.007466 0.258870
-0.005129 -0.007470 0.258988
-0.003872 -0.007474 0.259101
-0.002616 -0.007481 0.259323
-0.001364 -0.007529 0.260942
-0.000095 -0.007544 0.261456
0.001190 -0.007638 0.264707
0.002483 -0.007656 0.265331
0.006208 -0.007481 0.259251
0.007403 -0.007415 0.256985
0.008658 -0.007419 0.257154
0.009944 -0.007446 0.258098
0.011178 -0.007433 0.257651
0.012446 -0.007442 0.257981
0.013728 -0.007457 0.258543
0.015015 -0.007472 0.259091
0.016247 -0.007459 0.258699
0.017569 -0.007487 0.259691
0.018783 -0.007468 0.259069
0.020619 -0.007683 0.266572
0.021869 -0.007667 0.266081
0.034404 -0.007581 0.263776
0.035846 -0.007616 0.265068
0.037174 -0.007625 0.265476
0.038384 -0.007610 0.265042
0.039957 -0.007666 0.267069
0.041322 -0.007679 0.267632
0.042556 -0.007669 0.267348
0.043649 -0.007634 0.266229
0.043647 -0.007415 0.258683
0.044275 -0.007312 0.255201
0.045563 -0.007321 0.255607
0.046807 -0.007323 0.255759
0.047884 -0.007299 0.255021
0.049081 -0.007294 0.254950
0.050377 -0.007303 0.255387
0.051648 -0.007309 0.255688
0.052831 -0.007302 0.255553
0.054178 -0.007318 0.256207
0.055922 -0.007386 0.258675
0.058138 -0.007511 0.263173
0.060437 -0.007642 0.267859
0.062086 -0.007686 0.269540
0.063456 -0.007696 0.269966
0.064847 -0.007707 0.270466
0.066339 -0.007729 0.271367
0.067629 -0.007728 0.271426
0.069055 -0.007742 0.272024
0.070416 -0.007748 0.272351
0.071665 -0.007742 0.272242
0.072930 -0.007738 0.272200
0.074214 -0.007736 0.272233
0.075360 -0.007720 0.271771
0.076602 -0.007714 0.271663
0.077880 -0.007712 0.271688
0.079056 -0.007700 0.271362
0.080276 -0.007693 0.271198
0.081528 -0.007689 0.271146
0.082986 -0.007704 0.271772
0.084404 -0.007715 0.272250
0.085885 -0.007731 0.272911
0.087100 -0.007724 0.272725
0.088663 -0.007747 0.273615
0.095577 -0.008230 0.290756
0.096801 -0.008216 0.290351
0.099416 -0.008319 0.294068
0.099557 -0.008215 0.290466
0.101131 -0.008231 0.291084
0.102292 -0.008213 0.290507
0.103625 -0.008209 0.290428
0.104931 -0.008203 0.290274
0.106385 -0.008209 0.290523
0.108073 -0.008233 0.291393
0.109363 -0.008225 0.291180
0.110810 -0.008230 0.291379
0.112388 -0.008244 0.291909
0.113965 -0.008258 0.292419
0.115004 -0.008233 0.291549
0.116563 -0.008246 0.291994
0.117984 -0.008248 0.292083
0.119032 -0.008225 0.291253
0.120198 -0.008210 0.290717
0.121654 -0.008215 0.290881
0.122948 -0.008210 0.290653
0.124096 -0.008194 0.290079
0.125950 -0.008226 0.291141
0.127490 -0.008236 0.291457
0.129082 -0.008249 0.291871
0.130111 -0.008227 0.291009
0.131814 -0.008247 0.291647
0.133424 -0.008261 0.292058
0.134957 -0.008270 0.292283
0.136224 -0.008262 0.291920
0.137580 -0.008261 0.291744
0.139007 -0.008263 0.291708
0.140413 -0.008264 0.291616
0.141994 -0.008276 0.291871
0.143651 -0.008291 0.292265
0.145039 -0.008291 0.292092
0.146315 -0.008285 0.291688
0.147712 -0.008285 0.291513
0.149012 -0.008280 0.291136
0.150781 -0.008301 0.291658
0.152594 -0.008324 0.292235
-0.130412 -0.005782 0.245958
-0.129355 -0.005786 0.246321
-0.128664 -0.005807 0.247381
-0.127646 -0.005813 0.247813
-0.127371 -0.005853 0.249697
-0.126455 -0.005865 0.250339
-0.125480 -0.005874 0.250860
-0.124462 -0.005881 0.251296
-0.123302 -0.005882 0.251439
-0.122258 -0.005888 0.251812
-0.121119 -0.005890 0.251987
-0.120057 -0.005895 0.252315
-0.118928 -0.005898 0.252500
-0.117841 -0.005902 0.252769
-0.116634 -0.005901 0.252774
-0.115683 -0.005912 0.253332
-0.115033 -0.005940 0.254561
-0.114572 -0.005978 0.256228
-0.114013 -0.006011 0.257705
-0.113259 -0.006035 0.258758
-0.112025 -0.006034 0.258723
-0.111117 -0.006050 0.259437
-0.110328 -0.006073 0.260445
-0.113103 -0.006296 0.269976
-0.113089 -0.006366 0.272982
-0.112681 -0.006415 0.275091
-0.111337 -0.006412 0.274931
-0.110522 -0.006439 0.276085
-0.109857 -0.006476 0.277641
-0.108985 -0.006501 0.278697
-0.108183 -0.006532 0.279960
-0.107309 -0.006558 0.281058
-0.106626 -0.006597 0.282687
-0.105755 -0.006626 0.283850
-0.104950 -0.006659 0.285215
-0.103868 -0.006675 0.285852
-0.102839 -0.006696 0.286652
-0.101818 -0.006717 0.287492
-0.100835 -0.006742 0.288462
-0.099298 -0.006729 0.287848
-0.098223 -0.006748 0.288577
-0.097009 -0.006758 0.288912
-0.095412 -0.006741 0.288095
-0.094287 -0.006758 0.288705
-0.092853 -0.006752 0.288370
-0.091406 -0.006746 0.287984
-0.090180 -0.006756 0.288295
-0.088872 -0.006759 0.288352
-0.087594 -0.006766 0.288509
-0.086302 -0.006771 0.288626
-0.085074 -0.006782 0.288966
-0.083849 -0.006793 0.289329
-0.083073 -0.006842 0.291282
-0.081815 -0.006852 0.291585
-0.080288 -0.006840 0.290923
-0.078991 -0.006847 0.291091
-0.077804 -0.006864 0.291683
-0.076357 -0.006858 0.291307
-0.075127 -0.006872 0.291763
-0.073828 -0.006880 0.291970
-0.072575 -0.006893 0.292371
-0.071326 -0.006906 0.292813
-0.070676 -0.006979 0.295780
-0.067436 -0.006795 0.287819
-0.066183 -0.006807 0.288196
-0.064897 -0.006816 0.288444
-0.063529 -0.006817 0.288342
-0.062270 -0.006830 0.288742
-0.060977 -0.006839 0.289011
-0.059555 -0.006835 0.288673
-0.058299 -0.006849 0.289148
-0.057011 -0.006860 0.289494
-0.054315 -0.006870 0.289620
-0.052997 -0.006879 0.289868
-0.051640 -0.006883 0.289913
-0.050309 -0.006891 0.290127
-0.048902 -0.006889 0.289907
-0.047563 -0.006897 0.290103
-0.044847 -0.006908 0.290313
-0.043444 -0.006907 0.290145
-0.039935 -0.006785 0.284795
-0.038611 -0.006794 0.285037
-0.036856 -0.006724 0.282007
-0.036212 -0.006860 0.287579
-0.031396 -0.006184 0.259172
-0.029859 -0.006125 0.256610
-0.028751 -0.006154 0.257697
-0.027690 -0.006195 0.259330
-0.026363 -0.006177 0.258517
-0.025098 -0.006174 0.258284
-0.023875 -0.006181 0.258490
-0.022631 -0.006182 0.258481
-0.021323 -0.006166 0.257731
-0.020130 -0.006183 0.258365
-0.018883 -0.006185 0.258361
-0.018060 -0.006335 0.264569
-0.017164 -0.006481 0.270598
-0.015953 -0.006522 0.272272
-0.014639 -0.006526 0.272346
-0.012576 -0.006162 0.257117
-0.011368 -0.006184 0.257974
-0.010128 -0.006191 0.258239
-0.008858 -0.006180 0.257740
-0.007620 -0.006191 0.258172
-0.006377 -0.006202 0.258598
-0.005121 -0.006203 0.258586
-0.003872 -0.006214 0.259016
-0.002614 -0.006217 0.259150
-0.001361 -0.006247 0.260383
-0.000096 -0.006259 0.260873
0.001193 -0.006366 0.265317
0.002477 -0.006351 0.264668
0.005429 -0.006827 0.284493
0.006141 -0.006154 0.256462
0.007353 -0.006125 0.255264
0.008623 -0.006145 0.256129
0.009887 -0.006157 0.256628
0.011144 -0.006162 0.256854
0.012396 -0.006163 0.256933
0.013675 -0.006177 0.257523
0.014978 -0.006198 0.258439
0.016222 -0.006193 0.258281
0.017570 -0.006226 0.259691
0.018934 -0.006260 0.261132
0.020664 -0.006403 0.267145
0.022018 -0.006419 0.267881
0.035235 -0.006457 0.270131
0.036509 -0.006451 0.269962
0.037752 -0.006439 0.269584
0.038746 -0.006388 0.267523
0.039938 -0.006372 0.266924
0.041028 -0.006341 0.265710
