ply
format ascii 1.0
element vertex 1744
property float x
property float y
property float z
end_header
0.030095 0.049873 0.272747
0.031353 0.049787 0.272334
0.032424 0.049425 0.270408
0.033673 0.049349 0.270056
0.034857 0.049188 0.269236
0.036078 0.049088 0.268755
0.037247 0.048927 0.267938
0.038391 0.048745 0.267009
0.039427 0.048443 0.265421
0.040550 0.048263 0.264502
0.041743 0.048174 0.264087
0.042368 0.047454 0.260214
0.043583 0.047417 0.260081
0.044232 0.046784 0.256680
0.045336 0.046652 0.256031
0.046450 0.046538 0.255480
0.047540 0.046407 0.254830
0.048703 0.046351 0.254599
0.049946 0.046372 0.254792
0.051091 0.046304 0.254492
0.052506 0.046477 0.255522
0.053699 0.046451 0.255452
0.054944 0.046469 0.255630
0.056830 0.047018 0.258724
0.059928 0.048523 0.267089
0.061585 0.048824 0.268823
0.062784 0.048756 0.268531
0.064192 0.048851 0.269131
0.065522 0.048883 0.269387
0.066694 0.048798 0.268998
0.067881 0.048728 0.268685
0.068940 0.048570 0.267890
0.069688 0.048202 0.265933
0.070347 0.047787 0.263717
0.071150 0.047482 0.262105
0.072385 0.047472 0.262115
0.073418 0.047332 0.261407
0.074034 0.046931 0.259259
0.074994 0.046759 0.258367
0.076123 0.046696 0.258078
0.077028 0.046499 0.257046
0.078231 0.046485 0.257027
0.079556 0.046544 0.257403
0.080864 0.046591 0.257709
0.082347 0.046735 0.258556
0.083676 0.046789 0.258899
0.085260 0.046982 0.260008
0.095808 0.052039 0.288033
0.097034 0.051961 0.287636
0.099205 0.052383 0.290008
0.100585 0.052382 0.290034
0.101679 0.052235 0.289243
0.103366 0.052391 0.290130
0.104558 0.052296 0.289619
0.106293 0.052472 0.290601
0.107634 0.052451 0.290492
0.108767 0.052330 0.289823
0.110381 0.052441 0.290431
0.111619 0.052372 0.290040
0.112559 0.052167 0.288888
0.114186 0.052282 0.289499
0.115395 0.052205 0.289043
0.117412 0.052491 0.290589
0.117972 0.052126 0.288526
0.121066 0.052876 0.292628
0.122250 0.052785 0.292064
0.123444 0.052699 0.291526
0.124658 0.052624 0.291037
0.126195 0.052686 0.291296
0.127451 0.052630 0.290898
0.128870 0.052641 0.290863
0.130313 0.052663 0.290874
0.131662 0.052646 0.290663
0.133024 0.052634 0.290474
0.134545 0.052685 0.290619
0.135963 0.052696 0.290529
0.137231 0.052648 0.290108
0.138780 0.052707 0.290269
0.140308 0.052758 0.290370
0.141936 0.052845 0.290657
0.143443 0.052885 0.290676
0.144711 0.052838 0.290200
0.146303 0.052908 0.290357
0.147781 0.052936 0.290271
0.149826 0.053165 0.291268
0.151015 0.053089 0.290580
0.152347 0.053063 0.290156
-0.043959 0.019314 0.104910
-0.043533 0.019343 0.105082
-0.043531 0.019565 0.106295
-0.043003 0.019552 0.106231
-0.042087 0.019360 0.105194
-0.042210 0.021156 0.114926
-0.041735 0.021189 0.115093
-0.041509 0.021351 0.115961
-0.040316 0.021014 0.114112
-0.040118 0.021193 0.115066
-0.042285 0.022643 0.122919
-0.041772 0.022678 0.123088
-0.041595 0.022900 0.124266
-0.041404 0.023119 0.125431
-0.040943 0.023193 0.125803
-0.040759 0.023428 0.127047
-0.040559 0.023660 0.128274
-0.040739 0.024124 0.130759
-0.043169 0.025956 0.140648
-0.042570 0.025996 0.140823
-0.042517 0.026374 0.142834
-0.043343 0.027319 0.147909
-0.043403 0.027805 0.150494
-0.043522 0.028345 0.153369
-0.043450 0.028777 0.155656
-0.043387 0.029230 0.158054
-0.043374 0.029734 0.160723
-0.043280 0.030198 0.163178
-0.043370 0.030810 0.166427
-0.043397 0.031399 0.169549
-0.043614 0.032150 0.173546
-0.043558 0.032726 0.176588
-0.043791 0.033545 0.180944
-0.043789 0.034213 0.184480
-0.043494 0.034675 0.186901
-0.043116 0.035088 0.189060
-0.043022 0.035755 0.192583
-0.043151 0.036641 0.197281
-0.043210 0.037505 0.201858
-0.043379 0.038507 0.207170
-0.043074 0.039123 0.210406
-0.042293 0.039327 0.211425
-0.041976 0.039982 0.214868
-0.043874 0.042833 0.230104
-0.042830 0.042884 0.230291
-0.041701 0.042850 0.230028
-0.041733 0.044040 0.236328
-0.041103 0.044578 0.239129
-0.040420 0.045088 0.241778
-0.039673 0.045553 0.244186
-0.038945 0.046070 0.246872
-0.038341 0.046770 0.250534
-0.037954 0.047789 0.255905
-0.038514 0.050107 0.268231
-0.037461 0.050415 0.269790
-0.036038 0.050228 0.268701
-0.034950 0.050512 0.270137
-0.034176 0.051289 0.274205
-0.030960 0.048318 0.258244
-0.029554 0.048040 0.256686
-0.028277 0.047958 0.256174
-0.027094 0.048037 0.256520
-0.025873 0.048050 0.256523
-0.024641 0.048044 0.256425
-0.023447 0.048115 0.256737
-0.022216 0.048115 0.256673
-0.021007 0.048165 0.256881
-0.019845 0.048338 0.257743
-0.018688 0.048544 0.258787
-0.018071 0.050282 0.268000
-0.016434 0.049232 0.262351
-0.015210 0.049349 0.262924
-0.014181 0.050177 0.267291
-0.012532 0.048755 0.259670
-0.011335 0.048976 0.260810
-0.010076 0.048947 0.260618
-0.008770 0.048650 0.259001
-0.007533 0.048702 0.259247
-0.006305 0.048852 0.260021
-0.005066 0.048956 0.260547
-0.003822 0.049077 0.261169
-0.002575 0.049252 0.262081
-0.001312 0.049176 0.261662
-0.000054 0.049712 0.264502
0.001223 0.049900 0.265491
0.002484 0.049557 0.263658
0.003865 0.051045 0.271570
0.005172 0.051041 0.271549
0.006353 0.050048 0.266271
0.007659 0.050210 0.267138
0.008929 0.050122 0.266679
0.010157 0.049849 0.265236
0.011388 0.049650 0.264193
0.012671 0.049695 0.264449
0.013934 0.049659 0.264278
0.015166 0.049529 0.263607
0.016475 0.049650 0.264276
0.017829 0.049879 0.265528
0.019145 0.049980 0.266097
0.020355 0.049809 0.265218
0.022085 0.050854 0.270820
0.023389 0.050857 0.270876
0.024710 0.050892 0.271108
0.026055 0.050973 0.271588
0.027266 0.050796 0.270692
0.028499 0.050673 0.270086
0.029774 0.050633 0.269924
0.030992 0.050503 0.269288
0.032134 0.050265 0.268076
0.033408 0.050244 0.268019
0.034619 0.050133 0.267488
0.035869 0.050084 0.267290
0.037095 0.050005 0.266932
0.038201 0.049776 0.265776
0.039588 0.049916 0.266591
0.040640 0.049638 0.265175
0.041893 0.049615 0.265119
0.042502 0.048852 0.261114
0.043375 0.048428 0.258917
0.043807 0.047549 0.254289
0.045061 0.047586 0.254557
0.046267 0.047571 0.254549
0.047392 0.047476 0.254114
0.048641 0.047507 0.254349
0.049934 0.047577 0.254801
0.051231 0.047649 0.255259
0.052539 0.047726 0.255749
0.053811 0.047769 0.256052
0.055186 0.047898 0.256822
0.056936 0.048341 0.259268
0.059741 0.049641 0.266321
0.061608 0.050123 0.268987
0.062793 0.050043 0.268633
0.064040 0.050014 0.268554
0.065555 0.050191 0.269582
0.066743 0.050116 0.269251
0.067959 0.050064 0.269051
0.069064 0.049934 0.268425
0.069723 0.049492 0.266118
0.070352 0.049045 0.263783
0.071266 0.048809 0.262581
0.072345 0.048691 0.262014
0.073109 0.048370 0.260349
0.073970 0.048122 0.259075
0.074916 0.047936 0.258137
0.075929 0.047799 0.257454
0.077202 0.047827 0.257662
0.078454 0.047841 0.257790
0.079760 0.047888 0.258090
0.080914 0.047843 0.257896
0.082515 0.048060 0.259107
0.083613 0.047981 0.258726
0.084756 0.047931 0.258491
0.095421 0.053189 0.286889
0.096643 0.053110 0.286494
0.098727 0.053499 0.288628
0.100515 0.053720 0.289848
0.101596 0.053562 0.289016
0.103300 0.053733 0.289953
0.104495 0.053637 0.289452
0.105848 0.053624 0.289389
0.107295 0.053658 0.289577
0.108515 0.053580 0.289150
0.109846 0.053557 0.289020
0.111627 0.053752 0.290055
0.112566 0.053541 0.288897
0.114165 0.053645 0.289434
0.115781 0.053755 0.289993
0.117173 0.053759 0.289977
0.118330 0.053657 0.289380
0.119879 0.053732 0.289734
0.121191 0.053701 0.289507
0.122781 0.053792 0.289929
0.124635 0.053996 0.290949
0.125952 0.053965 0.290698
0.127148 0.053884 0.290166
0.128659 0.053935 0.290343
0.130127 0.053969 0.290411
0.131699 0.054043 0.290694
0.132937 0.053981 0.290231
0.134444 0.054028 0.290344
0.136005 0.054096 0.290558
0.137349 0.054077 0.290294
0.138826 0.054109 0.290298
0.140243 0.054119 0.290164
0.141642 0.054120 0.289980
0.143511 0.054300 0.290736
0.144979 0.054326 0.290655
0.146558 0.054392 0.290777
0.148130 0.054455 0.290865
0.150060 0.054647 0.291629
0.151464 0.054645 0.291343
0.152602 0.054548 0.290537
-0.042935 0.019567 0.103635
-0.043298 0.019958 0.105720
-0.043023 0.020062 0.106276
-0.040934 0.019312 0.102312
-0.039796 0.018998 0.100652
-0.040324 0.020467 0.108419
-0.042525 0.021860 0.115791
-0.042046 0.021894 0.115959
-0.041958 0.022135 0.117222
-0.041924 0.022412 0.118672
-0.041335 0.022395 0.118566
-0.041430 0.022753 0.120442
-0.041418 0.023062 0.122057
-0.041101 0.023208 0.122804
-0.041080 0.023526 0.124465
-0.041270 0.023977 0.126822
-0.041097 0.024227 0.128118
-0.040520 0.024243 0.128170
-0.040738 0.024742 0.130777
-0.040930 0.025241 0.133376
-0.042018 0.026316 0.139019
-0.042310 0.026918 0.142164
-0.043494 0.028118 0.148454
-0.043601 0.028648 0.151211
-0.043617 0.029135 0.153736
-0.043464 0.029525 0.155741
-0.043250 0.029885 0.157591
-0.043184 0.030362 0.160054
-0.043254 0.030953 0.163117
-0.043342 0.031579 0.166361
-0.043424 0.032224 0.169700
-0.043761 0.033086 0.174178
-0.043661 0.033644 0.177054
-0.043833 0.034438 0.181167
-0.043627 0.034960 0.183851
-0.043357 0.035452 0.186368
-0.043105 0.035979 0.189071
-0.042897 0.036566 0.192084
-0.043017 0.037464 0.196731
-0.043504 0.038729 0.203299
-0.043800 0.039877 0.209248
-0.043306 0.040342 0.211614
-0.042844 0.040861 0.214255
-0.044419 0.043394 0.227454
-0.044087 0.044145 0.231306
-0.043006 0.044164 0.231325
-0.042718 0.045021 0.235725
-0.041918 0.045370 0.237470
-0.041082 0.045698 0.239100
-0.040347 0.046160 0.241436
-0.039638 0.046680 0.244070
-0.039050 0.047379 0.247639
-0.038293 0.047910 0.250330
-0.037895 0.048939 0.255620
-0.038562 0.051456 0.268678
-0.037516 0.051784 0.270305
-0.036087 0.051586 0.269186
-0.035081 0.052002 0.271270
-0.033938 0.052239 0.272423
-0.030872 0.049417 0.257631
-0.029391 0.049001 0.255388
-0.028259 0.049158 0.256131
-0.027026 0.049146 0.256002
-0.025807 0.049159 0.256000
-0.024630 0.049257 0.256441
-0.023411 0.049277 0.256482
-0.022222 0.049366 0.256887
-0.021003 0.049395 0.256974
-0.019912 0.049747 0.258749
-0.018746 0.049948 0.259739
-0.018000 0.051375 0.267108
-0.016374 0.050316 0.261553
-0.015258 0.050781 0.263919
-0.014122 0.051255 0.266339
-0.012536 0.050029 0.259926
-0.011230 0.049775 0.258564
-0.009992 0.049792 0.258619
-0.008714 0.049589 0.257532
-0.007479 0.049606 0.257587
-0.006262 0.049777 0.258450
-0.005027 0.049849 0.258796
-0.003797 0.050034 0.259737
-0.002555 0.050166 0.260401
-0.001302 0.050141 0.260255
-0.000051 0.050499 0.262104
0.001215 0.050732 0.263302
0.002479 0.050688 0.263067
0.003788 0.051275 0.266108
0.005089 0.051489 0.267221
0.006369 0.051444 0.266987
0.007683 0.051642 0.268022
0.008996 0.051777 0.268728
0.010289 0.051779 0.268752
0.011551 0.051642 0.268053
0.012847 0.051666 0.268193
0.014166 0.051771 0.268762
0.015495 0.051893 0.269419
0.016769 0.051825 0.269090
0.018166 0.052119 0.270648
0.019491 0.052180 0.270995
0.020652 0.051824 0.269179
0.022138 0.052275 0.271559
0.023241 0.051823 0.269249
0.024218 0.051152 0.265807
0.025523 0.051205 0.266126
0.026801 0.051204 0.266165
0.027939 0.050946 0.264874
0.029097 0.050744 0.263875
0.030292 0.050623 0.263296
0.031579 0.050658 0.263532
0.032813 0.050609 0.263335
0.034179 0.050759 0.264177
0.035329 0.050590 0.263354
0.036712 0.050753 0.264266
0.037958 0.050723 0.264175
0.039279 0.050791 0.264594
0.040682 0.050958 0.265531
0.042040 0.051060 0.266131
0.042989 0.050675 0.264190
0.044212 0.050624 0.263998
0.043595 0.048528 0.253133
0.044994 0.048729 0.254252
0.046375 0.048901 0.255217
0.047327 0.048622 0.253837
0.048609 0.048688 0.254252
0.049880 0.048740 0.254596
0.051113 0.048754 0.254737
0.052406 0.048822 0.255169
0.053561 0.048762 0.254928
0.054962 0.048923 0.255844
0.057020 0.049650 0.259717
0.059874 0.051023 0.266976
0.061437 0.051263 0.268306
0.062678 0.051228 0.268201
0.064058 0.051307 0.268689
0.065448 0.051390 0.269200
0.066748 0.051401 0.269332
0.067918 0.051313 0.268941
0.069015 0.051174 0.268285
0.069970 0.050937 0.267113
0.070757 0.050588 0.265349
0.071702 0.050362 0.264231
0.072776 0.050234 0.263619
0.073146 0.049632 0.260521
0.073649 0.049138 0.257989
0.074677 0.049005 0.257351
0.075699 0.048873 0.256711
0.076720 0.048744 0.256086
0.078005 0.048784 0.256346
0.079420 0.048903 0.257019
0.080862 0.049035 0.257758
0.082488 0.049273 0.259048
0.083629 0.049218 0.258798
0.085185 0.049406 0.259821
0.095770 0.054749 0.287960
0.096998 0.054668 0.287564
0.098772 0.054893 0.288776
0.100495 0.055084 0.289802
0.101962 0.055130 0.290068
0.103252 0.055082 0.289827
0.104532 0.055029 0.289559
0.105802 0.054972 0.289265
0.107097 0.054929 0.289041
0.108600 0.054994 0.289373
0.109746 0.054877 0.288750
0.110934 0.054784 0.288245
0.112900 0.055074 0.289743
0.114340 0.055102 0.289864
0.115884 0.055179 0.290235
0.117205 0.055149 0.290036
0.118357 0.055042 0.289422
0.120637 0.055456 0.291539
0.122098 0.055487 0.291642
0.123418 0.055455 0.291401
0.124805 0.055453 0.291310
0.126450 0.055565 0.291809
0.127787 0.055540 0.291582
0.129117 0.055513 0.291333
0.130585 0.055544 0.291384
0.131983 0.055546 0.291270
0.133354 0.055536 0.291086
0.134817 0.055565 0.291090
0.136332 0.055614 0.291193
0.137851 0.055663 0.291288
0.139225 0.055654 0.291062
0.140656 0.055667 0.290944
0.142113 0.055690 0.290866
0.143483 0.055679 0.290597
0.145070 0.055751 0.290751
0.146501 0.055762 0.290573
0.148286 0.055907 0.291076
0.149857 0.055969 0.291133
0.151403 0.056020 0.291122
0.152661 0.055966 0.290542
-0.042497 0.019851 0.102571
-0.043174 0.020399 0.105415
-0.042739 0.020428 0.105573
-0.040944 0.019800 0.102334
-0.041360 0.020238 0.104605
-0.040279 0.019946 0.103100
-0.039841 0.019969 0.103220
-0.040101 0.020348 0.105173
-0.040074 0.020588 0.106410
-0.040025 0.020822 0.107618
-0.041382 0.021804 0.112683
-0.041007 0.021887 0.113100
-0.042723 0.023102 0.119368
-0.042489 0.023281 0.120278
-0.042308 0.023495 0.121365
-0.041732 0.023492 0.121333
-0.041352 0.023601 0.121876
-0.041218 0.023855 0.123167
-0.040937 0.024031 0.124048
-0.041204 0.024537 0.126637
-0.040581 0.024521 0.126526
-0.039924 0.024484 0.126304
-0.040300 0.025088 0.129389
-0.040862 0.025828 0.133176
-0.042081 0.027014 0.139251
-0.042403 0.027652 0.142503
-0.043099 0.028559 0.147134
-0.043277 0.029146 0.150116
-0.043401 0.029716 0.153007
-0.043163 0.030053 0.154695
-0.043092 0.030520 0.157051
-0.043074 0.031042 0.159685
-0.043023 0.031557 0.162284
-0.043373 0.032392 0.166522
-0.043666 0.033214 0.170689
-0.043697 0.033863 0.173968
-0.043570 0.034413 0.176732
-0.043439 0.034981 0.179587
-0.043657 0.035859 0.184031
-0.043622 0.036560 0.187562
-0.043592 0.037295 0.191266
-0.043541 0.038042 0.195027
-0.043583 0.038905 0.199382
-0.043366 0.039570 0.202717
-0.043117 0.040236 0.206051
-0.043050 0.041106 0.210433
-0.045392 0.044373 0.227073
-0.044366 0.044426 0.227265
-0.044034 0.045194 0.231113
-0.043366 0.045647 0.233347
-0.042554 0.045970 0.234914
-0.041905 0.046490 0.237488
-0.040937 0.046675 0.238349
-0.040115 0.047042 0.240142
-0.039328 0.047474 0.242265
-0.039133 0.048668 0.248271
-0.038364 0.049199 0.250897
-0.039664 0.052504 0.267664
-0.038424 0.052555 0.267834
-0.037536 0.053108 0.270567
-0.036180 0.053014 0.270003
-0.034879 0.052997 0.269837
-0.034150 0.053881 0.274252
-0.030853 0.050623 0.257593
-0.029468 0.050361 0.256187
-0.028270 0.050408 0.256357
-0.027062 0.050443 0.256466
-0.025849 0.050471 0.256538
-0.024644 0.050519 0.256716
-0.023399 0.050486 0.256486
-0.022249 0.050663 0.257328
-0.020998 0.050620 0.257051
-0.019865 0.050873 0.258276
-0.018939 0.051727 0.262558
-0.018117 0.053005 0.268991
-0.016386 0.051617 0.261899
-0.015433 0.052652 0.267099
-0.014265 0.053074 0.269194
-0.012478 0.051051 0.258890
-0.011151 0.050667 0.256906
-0.009964 0.050901 0.258059
-0.008697 0.050744 0.257230
-0.007457 0.050711 0.257031
-0.006244 0.050886 0.257892
-0.005007 0.050910 0.257987
-0.003755 0.050735 0.257081
-0.002513 0.050619 0.256476
-0.001284 0.050732 0.257034
-0.000049 0.051624 0.261536
0.001226 0.052364 0.265275
0.002477 0.051850 0.262668
0.003862 0.053550 0.271273
0.005146 0.053338 0.270198
0.006434 0.053245 0.269730
0.007775 0.053548 0.271269
0.009040 0.053316 0.270104
0.010296 0.053094 0.268989
0.011529 0.052817 0.267598
0.012808 0.052785 0.267454
0.014055 0.052641 0.266742
0.015371 0.052752 0.267331
0.016624 0.052652 0.266847
0.017939 0.052745 0.267348
0.019467 0.053412 0.270757
0.020516 0.052761 0.267490
0.022154 0.053612 0.271844
0.023381 0.053432 0.270967
0.024218 0.052424 0.265896
0.025581 0.052599 0.266828
0.026700 0.052279 0.265250
0.027818 0.051988 0.263819
0.028975 0.051789 0.262860
0.030066 0.051495 0.261420
0.031293 0.051448 0.261235
0.032694 0.051680 0.262467
0.033967 0.051700 0.262622
0.035312 0.051823 0.263310
0.036707 0.052010 0.264319
0.038009 0.052056 0.264614
0.039341 0.052139 0.265100
0.040648 0.052184 0.265393
0.041949 0.052219 0.265642
0.042896 0.051824 0.263698
0.044117 0.051773 0.263507
0.043517 0.049648 0.252758
0.044878 0.049814 0.253671
0.046234 0.049966 0.254514
0.047263 0.049766 0.253567
0.048526 0.049816 0.253889
0.049761 0.049836 0.254059
0.050993 0.049851 0.254209
0.052203 0.049845 0.254247
0.053394 0.049821 0.254199
0.054615 0.049826 0.254295
0.056015 0.049990 0.255203
0.059577 0.052036 0.265719
0.061623 0.052699 0.269181
0.062901 0.052692 0.269219
0.063975 0.052518 0.268402
0.065568 0.052768 0.269750
0.066875 0.052782 0.269897
0.068046 0.052691 0.269502
0.069196 0.052588 0.269042
0.069967 0.052205 0.267151
0.071127 0.052121 0.266786
0.072566 0.052241 0.267464
0.073256 0.051826 0.265402
0.073445 0.051077 0.261627
0.073381 0.050180 0.257089
0.074418 0.050053 0.256494
0.075523 0.049975 0.256147
0.076602 0.049883 0.255723
0.077764 0.049847 0.255586
0.078985 0.049849 0.255640
0.080293 0.049904 0.255968
0.081600 0.049958 0.256283
0.082913 0.050013 0.256603
0.084352 0.050142 0.257298
0.085690 0.050208 0.257666
0.096096 0.055510 0.284906
0.098722 0.056233 0.288642
0.100584 0.056507 0.290071
0.102012 0.056533 0.290219
0.103567 0.056627 0.290716
0.104642 0.056461 0.289867
0.105882 0.056385 0.289484
0.107481 0.056501 0.290076
0.108690 0.056412 0.289608
0.109808 0.056278 0.288905
0.111770 0.056574 0.290406
0.112904 0.056449 0.289739
0.114529 0.056570 0.290326
0.115952 0.056589 0.290386
0.117514 0.056675 0.290780
0.119012 0.056728 0.290999
0.120711 0.056874 0.291690
0.122044 0.056847 0.291482
0.123475 0.056865 0.291501
0.124870 0.056866 0.291425
0.126484 0.056966 0.291844
0.127960 0.057002 0.291930
0.129060 0.056872 0.291154
0.130481 0.056885 0.291101
0.132081 0.056974 0.291430
0.133312 0.056904 0.290934
0.134756 0.056925 0.290897
0.136314 0.056994 0.291088
0.138195 0.057194 0.291943
0.139902 0.057320 0.292404
0.141200 0.057276 0.291992
0.142564 0.057260 0.291706
0.143999 0.057273 0.291555
0.145257 0.057216 0.291034
0.146583 0.057186 0.290640
0.148448 0.057365 0.291295
0.149924 0.057391 0.291160
0.151099 0.057303 0.290429
0.152761 0.057399 0.290618
-0.042686 0.020425 0.103022
-0.042891 0.020759 0.104717
-0.042578 0.020847 0.105171
-0.041337 0.020477 0.103312
-0.040862 0.020482 0.103345
-0.040617 0.020604 0.103965
-0.040366 0.020726 0.104582
-0.039932 0.020756 0.104730
-0.039710 0.020898 0.105447
-0.040060 0.021349 0.107716
-0.041083 0.022174 0.111872
-0.041694 0.022796 0.114999
-0.042687 0.023645 0.119275
-0.040427 0.022691 0.114449
-0.040676 0.023139 0.116693
-0.040888 0.023578 0.118889
-0.040904 0.023914 0.120565
-0.041091 0.024361 0.122798
-0.040906 0.024598 0.123968
-0.039976 0.024386 0.122878
-0.039938 0.024721 0.124537
-0.039651 0.024909 0.125456
-0.040501 0.025828 0.130055
-0.041151 0.026645 0.134139
-0.042278 0.027802 0.139927
-0.042606 0.028462 0.143211
-0.042519 0.028861 0.145182
-0.043045 0.029696 0.149340
-0.043143 0.030259 0.152128
-0.043462 0.030999 0.155799
-0.043482 0.031547 0.158507
-0.043340 0.031995 0.160708
-0.043042 0.032341 0.162395
-0.043011 0.032905 0.165173
-0.042970 0.033481 0.168009
-0.043198 0.034293 0.172028
-0.043223 0.034972 0.175375
-0.043445 0.035839 0.179663
-0.043753 0.036814 0.184487
-0.044080 0.037845 0.189588
-0.043886 0.038462 0.192611
-0.044252 0.039607 0.198276
-0.043593 0.039864 0.199493
-0.042858 0.040061 0.200407
-0.043228 0.041324 0.206655
-0.045960 0.044956 0.224738
-0.044948 0.045010 0.224931
-0.044663 0.045814 0.228867
-0.043660 0.045904 0.229235
-0.043665 0.047084 0.235046
-0.042812 0.047377 0.236427
-0.041767 0.047468 0.236797
-0.040885 0.047754 0.238146
-0.039979 0.048027 0.239424
-0.039594 0.048961 0.243999
-0.039262 0.050020 0.249194
-0.038216 0.050206 0.250036
-0.042210 0.057238 0.284969
-0.038605 0.054092 0.269220
-0.037730 0.054685 0.272085
-0.035940 0.053947 0.268332
-0.035024 0.054517 0.271084
-0.034066 0.055061 0.273706
-0.030690 0.051584 0.256348
-0.029473 0.051598 0.256350
-0.028254 0.051610 0.256336
-0.027034 0.051623 0.256332
-0.025852 0.051712 0.256706
-0.024624 0.051712 0.256643
-0.023407 0.051736 0.256701
-0.022217 0.051828 0.257096
-0.021047 0.051979 0.257790
-0.019961 0.052370 0.259670
-0.018789 0.052573 0.260626
-0.018090 0.054223 0.268750
-0.016353 0.052773 0.261516
-0.015514 0.054226 0.268665
-0.014243 0.054293 0.268952
-0.012412 0.052023 0.257668
-0.011124 0.051785 0.256451
-0.009924 0.051945 0.257209
-0.008675 0.051857 0.256740
-0.007446 0.051883 0.256838
-0.006224 0.051981 0.257296
-0.004991 0.052008 0.257408
-0.003756 0.052023 0.257459
-0.002524 0.052123 0.257937
-0.001279 0.051867 0.256656
-0.000046 0.052168 0.258132
0.001216 0.053118 0.262825
0.002500 0.053562 0.265014
0.003920 0.055641 0.275296
0.005242 0.055637 0.275275
0.006492 0.055016 0.272203
0.007811 0.055091 0.272581
0.009092 0.054915 0.271717
0.010327 0.054538 0.269860
0.011601 0.054433 0.269353
0.012878 0.054357 0.268996
0.014094 0.054063 0.267557
0.015448 0.054299 0.268751
0.016711 0.054209 0.268328
0.018142 0.054632 0.270452
0.019444 0.054639 0.270513
0.020428 0.053808 0.266434
0.022126 0.054844 0.271600
0.023290 0.054514 0.270004
0.024206 0.053669 0.265854
0.025494 0.053690 0.266005
0.026442 0.053031 0.262781
0.027656 0.052938 0.262367
0.028600 0.052360 0.259549
0.029756 0.052201 0.258810
0.030992 0.052190 0.258808
0.032274 0.052255 0.259182
0.033633 0.052435 0.260131
0.034943 0.052527 0.260645
0.036376 0.052793 0.262021
0.037802 0.053030 0.263259
0.039144 0.053138 0.263857
0.040492 0.053246 0.264458
0.041971 0.053515 0.265862
0.043156 0.053406 0.265383
0.044385 0.053353 0.265190
0.043464 0.050793 0.252530
0.044838 0.050980 0.253524
0.046199 0.051142 0.254400
0.047357 0.051077 0.254144
0.048542 0.051044 0.254048
0.049780 0.051067 0.254230
0.051131 0.051202 0.254969
0.052346 0.051197 0.255013
0.053535 0.051168 0.254939
0.054881 0.051286 0.255596
0.056303 0.051469 0.256577
0.059774 0.053477 0.266662
0.061478 0.053854 0.268612
0.062862 0.053940 0.269113
0.064107 0.053906 0.269015
0.065495 0.053991 0.269511
0.066893 0.054081 0.270029
0.068182 0.054080 0.270094
0.069311 0.053956 0.269539
0.070226 0.053672 0.268189
0.071008 0.053299 0.266388
0.072473 0.053442 0.267165
0.073179 0.053030 0.265167
0.073520 0.052373 0.261936
0.073566 0.051530 0.257777
0.074583 0.051384 0.257099
0.075822 0.051393 0.257194
0.076818 0.051240 0.256475
0.077939 0.051174 0.256191
0.079481 0.051382 0.257272
0.080820 0.051454 0.257674
0.082349 0.051643 0.258660
0.083585 0.051645 0.258704
0.085055 0.051790 0.259462
0.095579 0.057365 0.287422
0.096806 0.057281 0.287028
0.098477 0.057459 0.287939
0.100532 0.057852 0.289930
0.102044 0.057927 0.290318
0.103452 0.057941 0.290400
0.104867 0.057959 0.290492
0.106135 0.057896 0.290176
0.107458 0.057864 0.290009
0.108888 0.057890 0.290128
0.110184 0.057844 0.289884
0.111751 0.057941 0.290345
0.113155 0.057951 0.290368
0.114132 0.057745 0.289300
0.115371 0.057675 0.288907
0.117658 0.058125 0.291111
0.118845 0.058026 0.290561
0.120362 0.058089 0.290815
0.121587 0.058012 0.290356
0.122999 0.058024 0.290338
0.124596 0.058123 0.290745
0.126465 0.058344 0.291758
0.127834 0.058333 0.291596
0.129242 0.058339 0.291515
0.130448 0.058254 0.290972
0.132187 0.058407 0.291605
0.133644 0.058434 0.291597
0.134885 0.058366 0.291108
0.136564 0.058488 0.291551
0.137983 0.058496 0.291422
0.139473 0.058535 0.291428
0.140993 0.058584 0.291480
0.142415 0.058593 0.291316
0.143876 0.058617 0.291215
0.145468 0.058693 0.291362
0.147375 0.058894 0.292113
0.148676 0.058851 0.291638
0.149847 0.058758 0.290902
0.151477 0.058845 0.291044
0.152785 0.058806 0.290547
-0.043037 0.021083 0.103861
-0.042778 0.021197 0.104436
-0.042471 0.021289 0.104900
-0.042271 0.021438 0.105643
-0.041493 0.021293 0.104937
-0.041218 0.021407 0.105502
-0.040732 0.021412 0.105530
-0.039381 0.020957 0.103288
-0.041615 0.022422 0.110505
-0.041296 0.022531 0.111041
-0.040804 0.022548 0.111116
-0.040493 0.022666 0.111691
-0.040023 0.022697 0.111837
-0.039506 0.022702 0.111850
-0.040079 0.023342 0.114990
-0.040865 0.024125 0.118832
-0.040883 0.024471 0.120514
-0.040658 0.024678 0.121518
-0.040366 0.024850 0.122343
-0.040137 0.025067 0.123387
-0.040100 0.025412 0.125059
-0.040287 0.025911 0.127488
-0.040508 0.026447 0.130097
-0.040767 0.027025 0.132908
-0.041495 0.027937 0.137359
-0.042199 0.028861 0.141866
-0.043327 0.030110 0.147968
-0.043285 0.030573 0.150201
-0.043486 0.031226 0.153370
-0.043097 0.031470 0.154524
-0.042947 0.031900 0.156590
-0.043193 0.032645 0.160197
-0.042965 0.033052 0.162145
-0.042862 0.033572 0.164642
-0.042685 0.034050 0.166938
-0.043139 0.035061 0.171836
-0.042993 0.035613 0.174486
-0.042938 0.036265 0.177619
-0.043456 0.037435 0.183287
-0.044258 0.038902 0.190410
-0.044605 0.040023 0.195828
-0.044244 0.040542 0.198300
-0.043019 0.040276 0.196930
-0.043749 0.041868 0.204642
-0.046752 0.045757 0.223576
-0.045747 0.045813 0.223772
-0.045974 0.047134 0.230147
-0.044854 0.047106 0.229931
-0.044038 0.047403 0.231301
-0.043370 0.047880 0.233547
-0.042844 0.048542 0.236696
-0.041912 0.048768 0.237714
-0.040962 0.048983 0.238687
-0.040248 0.049502 0.241135
-0.040900 0.051782 0.252155
-0.039391 0.051379 0.250113
-0.038821 0.052215 0.254102
-0.042154 0.058525 0.284715
-0.041174 0.059066 0.287259
-0.039841 0.059121 0.287436
-0.036249 0.055709 0.270770
-0.035459 0.056509 0.274574
-0.034263 0.056700 0.275420
-0.030801 0.053006 0.257405
-0.029357 0.052622 0.255470
-0.028176 0.052696 0.255759
-0.026987 0.052762 0.256013
-0.025760 0.052755 0.255914
-0.024542 0.052769 0.255920
-0.023360 0.052865 0.256324
-0.022159 0.052927 0.256562
-0.020935 0.052938 0.256560
-0.019903 0.053466 0.259064
-0.018961 0.054321 0.263156
-0.018063 0.055436 0.268505
-0.016472 0.054430 0.263581
-0.015637 0.055963 0.270961
-0.014344 0.055987 0.271027
-0.012242 0.052542 0.254314
-0.011085 0.052842 0.255728
-0.009906 0.053095 0.256917
-0.008667 0.053057 0.256703
-0.007435 0.053052 0.256649
-0.006217 0.053171 0.257198
-0.004983 0.053180 0.257218
-0.003753 0.053241 0.257494
-0.002520 0.053320 0.257855
-0.001277 0.053133 0.256936
-0.000044 0.053230 0.257393
0.001223 0.054609 0.264052
0.002514 0.055102 0.266428
0.003899 0.056632 0.273819
0.005214 0.056628 0.273798
0.006454 0.055973 0.270636
0.007772 0.056102 0.271262
0.009040 0.055885 0.270219
0.010272 0.055525 0.268492
0.011536 0.055402 0.267908
0.012827 0.055419 0.268004
0.014090 0.055323 0.267560
0.015337 0.055182 0.266900
0.016581 0.055056 0.266316
0.018038 0.055604 0.268991
0.019354 0.055672 0.269352
0.020638 0.055647 0.269262
0.022018 0.055868 0.270364
0.023267 0.055748 0.269822
0.024230 0.054994 0.266213
0.025304 0.054552 0.264112
0.026365 0.054128 0.262101
0.027558 0.053999 0.261524
0.028516 0.053442 0.258871
0.029795 0.053509 0.259243
0.031097 0.053609 0.259779
0.032347 0.053614 0.259856
0.033729 0.053831 0.260962
0.035143 0.054081 0.262227
0.036515 0.054250 0.263107
0.037818 0.054310 0.263458
0.039241 0.054532 0.264594
0.040380 0.054359 0.263816
0.041821 0.054589 0.264995
0.042996 0.054469 0.264480
0.044095 0.054263 0.263543
0.043751 0.052341 0.254273
0.044754 0.052091 0.253125
0.046112 0.052256 0.253992
0.047313 0.052241 0.253981
0.048530 0.052243 0.254058
0.049839 0.052340 0.254600
0.051182 0.052468 0.255289
0.052434 0.052499 0.255508
0.053864 0.052704 0.256572
0.055204 0.052813 0.257169
0.057295 0.053619 0.261165
0.059224 0.054242 0.264270
0.061397 0.055059 0.268318
0.062734 0.055108 0.268627
0.064098 0.055177 0.269034
0.065509 0.055284 0.269623
0.066831 0.055313 0.269834
0.068287 0.055450 0.270567
0.069389 0.055299 0.269894
0.070383 0.055070 0.268839
0.071172 0.054690 0.267047
0.072098 0.054428 0.265829
0.073373 0.054433 0.265912
0.074025 0.053985 0.263776
0.073843 0.052952 0.258784
0.074882 0.052815 0.258166
0.076200 0.052876 0.258512
0.077034 0.052605 0.257228
0.078442 0.052727 0.257869
0.079799 0.052813 0.258329
0.081298 0.052987 0.259222
0.082893 0.053218 0.260388
0.084267 0.053303 0.260836
0.085830 0.053503 0.261842
0.094922 0.058324 0.285463
0.096142 0.058239 0.285072
0.098707 0.058960 0.288622
0.100661 0.059302 0.290311
0.102090 0.059329 0.290453
0.103610 0.059408 0.290846
0.104897 0.059352 0.290574
0.106301 0.059364 0.290627
0.107725 0.059386 0.290726
0.108911 0.059277 0.290182
0.110513 0.059395 0.290738
0.111940 0.059418 0.290822
0.112973 0.059232 0.289882
0.114063 0.059081 0.289105
0.116437 0.059591 0.291553
0.117483 0.059417 0.290651
0.119169 0.059567 0.291325
0.120438 0.059507 0.290964
0.121719 0.059454 0.290634
0.123153 0.059477 0.290662
0.124708 0.059557 0.290962
0.126250 0.059629 0.291215
0.127497 0.059561 0.290777
0.128940 0.059585 0.290779
0.130402 0.059618 0.290813
0.131795 0.059618 0.290679
0.133195 0.059621 0.290552
0.134520 0.059591 0.290251
0.136642 0.059912 0.291645
0.138234 0.059995 0.291875
0.139915 0.060116 0.292271
0.141286 0.060101 0.292001
0.142499 0.060020 0.291396
0.144066 0.060089 0.291506
0.145458 0.060084 0.291244
0.146577 0.059967 0.290428
0.148875 0.060330 0.291921
0.150094 0.060253 0.291269
0.151398 0.060212 0.290775
0.152990 0.060284 0.290814
-0.042984 0.021547 0.103725
-0.042758 0.021680 0.104379
-0.042592 0.021846 0.105193
-0.042334 0.021969 0.105796
-0.042138 0.022127 0.106566
-0.041857 0.022244 0.107133
-0.041533 0.022340 0.107603
-0.041479 0.022587 0.108790
-0.041360 0.022803 0.109831
-0.041342 0.023081 0.111168
-0.040929 0.023143 0.111462
-0.040293 0.023078 0.111144
-0.039959 0.023188 0.111664
-0.039798 0.023401 0.112682
-0.041007 0.024438 0.117662
-0.040889 0.024701 0.118912
-0.040760 0.024965 0.120165
-0.040593 0.025212 0.121336
-0.040110 0.025267 0.121581
-0.040207 0.025695 0.123619
-0.040421 0.026211 0.126076
-0.041524 0.027327 0.131420
-0.040858 0.027296 0.131241
-0.040490 0.027466 0.132028
-0.043410 0.029906 0.143723
-0.042795 0.029949 0.143898
-0.042464 0.030196 0.145047
-0.043105 0.031154 0.149608
-0.043003 0.031597 0.151695
-0.043613 0.032587 0.156406
-0.043104 0.032762 0.157198
-0.043255 0.033452 0.160464
-0.043027 0.033869 0.162416
-0.042998 0.034461 0.165203
-0.043079 0.035164 0.168524
-0.043183 0.035914 0.172060
-0.043307 0.036708 0.175808
-0.043251 0.037378 0.178962
-0.043393 0.038249 0.183073
-0.044451 0.039981 0.191296
-0.044446 0.040807 0.195188
-0.043829 0.041096 0.196503
-0.043584 0.041753 0.199578
-0.047399 0.046416 0.221790
-0.046404 0.046473 0.221988
-0.046521 0.047672 0.227638
-0.045728 0.047973 0.228997
-0.044860 0.048209 0.230045
-0.043809 0.048254 0.230183
-0.043662 0.049323 0.235205
-0.042647 0.049443 0.235697
-0.041831 0.049805 0.237346
-0.041546 0.050838 0.242186
-0.041506 0.052237 0.248772
-0.040719 0.052753 0.251144
-0.039740 0.053042 0.252441
-0.043888 0.060405 0.287394
-0.042560 0.060464 0.287581
-0.039759 0.058365 0.277514
-0.037145 0.056404 0.268112
-0.036269 0.057037 0.271037
-0.035211 0.057420 0.272780
-0.034187 0.057892 0.274944
-0.030782 0.054207 0.257372
-0.029389 0.053906 0.255870
-0.028171 0.053914 0.255842
-0.027009 0.054035 0.256350
-0.025765 0.053996 0.256101
-0.024580 0.054084 0.256455
-0.023367 0.054114 0.256538
-0.022159 0.054162 0.256706
-0.020965 0.054249 0.257065
-0.019909 0.054731 0.259291
-0.018858 0.055288 0.261880
-0.017150 0.057993 0.274589
-0.015841 0.058019 0.274662
-0.014531 0.058042 0.274729
-0.012190 0.053543 0.253396
-0.011032 0.053820 0.254669
-0.009865 0.054114 0.256026
-0.008622 0.054018 0.255542
-0.007402 0.054064 0.255731
-0.006179 0.054099 0.255869
-0.004959 0.054178 0.256221
-0.003732 0.054210 0.256349
-0.002503 0.054240 0.256476
-0.001270 0.054165 0.256106
-0.000041 0.054166 0.256098
0.001218 0.055509 0.262435
0.002520 0.056457 0.266912
0.003816 0.056674 0.267934
0.005081 0.056439 0.266820
0.006300 0.055882 0.264188
0.007608 0.056176 0.265579
0.008863 0.056047 0.264977
0.010074 0.055705 0.263372
0.011319 0.055609 0.262930
0.012563 0.055526 0.262551
0.013850 0.055634 0.263080
0.015140 0.055729 0.263551
0.016323 0.055451 0.262258
0.017819 0.056198 0.265819
0.019223 0.056574 0.267625
0.020445 0.056401 0.266835
0.021794 0.056577 0.267702
0.023239 0.056968 0.269590
0.024166 0.056116 0.265592
0.025213 0.055613 0.263254
0.026193 0.055018 0.260477
0.027328 0.054789 0.259436
0.028365 0.054390 0.257593
0.029589 0.054369 0.257540
0.030878 0.054462 0.258030
0.032071 0.054387 0.257726
0.033427 0.054584 0.258709
0.034782 0.054765 0.259621
0.035985 0.054701 0.259375
0.037370 0.054910 0.260422
0.039015 0.055473 0.263153
0.040362 0.055593 0.263783
0.041855 0.055899 0.265294
0.042975 0.055704 0.264431
0.044268 0.055737 0.264656
0.045337 0.055495 0.263572
0.045354 0.054012 0.256592
0.046608 0.054043 0.256803
0.047966 0.054188 0.257559
0.048898 0.053858 0.256056
0.050214 0.053956 0.256586
0.051380 0.053892 0.256347
0.052763 0.054053 0.257179
0.054202 0.054264 0.258248
0.055273 0.054104 0.257555
0.056963 0.054544 0.259713
0.059899 0.056132 0.267347
0.061661 0.056578 0.269535
0.063081 0.056697 0.270173
0.064282 0.056619 0.269866
0.065621 0.056663 0.270144
0.066993 0.056733 0.270540
0.068337 0.056777 0.270815
0.069562 0.056722 0.270619
0.070817 0.056694 0.270544
0.072335 0.056873 0.271458
0.073035 0.056414 0.269326
0.074413 0.056485 0.269724
0.075287 0.056178 0.268312
0.074986 0.055019 0.262828
0.075410 0.054421 0.260020
0.076580 0.054373 0.259833
0.077774 0.054342 0.259730
0.078839 0.054223 0.259203
0.080128 0.054260 0.259418
0.081889 0.054610 0.261129
0.083053 0.054558 0.260913
0.083905 0.054305 0.259733
0.086084 0.054906 0.262634
0.095748 0.060196 0.287962
0.096980 0.060109 0.287568
0.098581 0.060251 0.288264
0.100304 0.060463 0.289289
0.102085 0.060703 0.290445
0.103498 0.060720 0.290533
0.104968 0.060770 0.290770
0.106221 0.060695 0.290403
0.107655 0.060724 0.290529
0.109019 0.060713 0.290457
0.110640 0.060843 0.291060
0.111441 0.060525 0.289507
0.112922 0.060579 0.289732
0.114552 0.060711 0.290321
0.116093 0.060794 0.290667
0.117543 0.060827 0.290770
0.118907 0.060815 0.290651
0.120239 0.060787 0.290449
0.121592 0.060771 0.290291
0.122998 0.060781 0.290254
0.124582 0.060877 0.290622
0.125980 0.060882 0.290542
0.127322 0.060859 0.290324
0.128746 0.060876 0.290285
0.129977 0.060802 0.289803
0.131625 0.060923 0.290239
0.132990 0.060911 0.290037
0.134233 0.060844 0.289560
0.136328 0.061161 0.290898
0.138141 0.061346 0.291597
0.139702 0.061417 0.291741
0.141343 0.061521 0.292030
0.143029 0.061642 0.292388
0.144294 0.061581 0.291869
0.145512 0.061501 0.291248
0.147435 0.061718 0.292020
0.148975 0.061772 0.292003
0.150452 0.061799 0.291847
0.151728 0.061744 0.291286
0.153154 0.061749 0.290998
-0.045501 0.018337 0.085161
-0.043213 0.021905 0.103081
-0.042791 0.021937 0.103251
-0.042588 0.022084 0.103958
-0.042046 0.022056 0.103840
-0.043335 0.022999 0.108292
-0.042689 0.022926 0.107956
-0.042527 0.023114 0.108847
-0.042078 0.023148 0.109012
-0.041549 0.023139 0.108972
-0.041243 0.023255 0.109521
-0.040829 0.023312 0.109790
-0.040464 0.023400 0.110198
-0.040048 0.023459 0.110473
-0.039718 0.023571 0.110994
-0.039688 0.023867 0.112378
-0.040908 0.024933 0.117384
-0.041239 0.025479 0.119940
-0.041100 0.025745 0.121178
-0.041256 0.026206 0.123329
-0.040743 0.026249 0.123515
-0.039822 0.026027 0.122449
-0.040346 0.026757 0.125858
-0.040100 0.026990 0.126929
-0.040144 0.027428 0.128966
-0.039975 0.027733 0.130369
-0.040301 0.028394 0.133450
-0.041987 0.030051 0.141204
-0.042218 0.030703 0.144231
-0.042068 0.031095 0.146035
-0.043506 0.032693 0.153499
-0.043679 0.033379 0.156678
-0.043622 0.033909 0.159123
-0.043444 0.034362 0.161202
-0.043306 0.034864 0.163508
-0.043104 0.035331 0.165652
-0.043292 0.036141 0.169399
-0.043161 0.036711 0.172016
-0.043190 0.037441 0.175381
-0.043831 0.038741 0.181413
-0.043897 0.039574 0.185257
-0.044374 0.040819 0.191022
-0.043490 0.040838 0.191049
-0.044645 0.042813 0.200225
-0.047843 0.046876 0.219153
-0.046862 0.046934 0.219352
-0.047002 0.048142 0.224923
-0.045993 0.048203 0.225132
-0.045771 0.049110 0.229295
-0.044834 0.049276 0.229993
-0.044576 0.050216 0.234304
-0.043819 0.050627 0.236144
-0.043084 0.051086 0.238205
-0.042840 0.052167 0.243166
-0.042571 0.053277 0.248261
-0.042453 0.054645 0.254554
-0.041408 0.054865 0.255498
-0.044891 0.061280 0.285281
-0.043185 0.060790 0.282912
-0.041249 0.059934 0.278846
-0.040097 0.060200 0.279995
-0.038169 0.059279 0.275631
-0.036308 0.058399 0.271460
-0.035339 0.058941 0.273902
-0.034139 0.059126 0.274686
-0.030622 0.055153 0.256157
-0.029287 0.054943 0.255111
-0.028109 0.055020 0.255405
-0.026946 0.055137 0.255881
-0.025747 0.055187 0.256050
-0.024563 0.055278 0.256410
-0.023364 0.055340 0.256641
-0.022181 0.055451 0.257099
-0.020989 0.055550 0.257502
-0.019882 0.055903 0.259082
-0.018749 0.056224 0.260520
-0.017985 0.057775 0.267657
-0.016461 0.056934 0.263711
-0.015837 0.059328 0.274753
-0.014527 0.059352 0.274820
-0.012160 0.054635 0.252940
-0.011012 0.054951 0.254369
-0.009815 0.055079 0.254928
-0.008585 0.055025 0.254647
-0.007384 0.055171 0.255293
-0.006163 0.055198 0.255396
-0.004938 0.055199 0.255374
-0.003717 0.055253 0.255606
-0.002491 0.055255 0.255596
-0.001266 0.055296 0.255773
-0.000039 0.055340 0.255963
0.001242 0.057775 0.267217
0.002509 0.057430 0.265614
0.003768 0.057195 0.264522
0.005042 0.057247 0.264761
0.006247 0.056647 0.261987
0.007481 0.056476 0.261197
0.008755 0.056604 0.261798
0.009931 0.056149 0.259701
0.011137 0.055947 0.258778
0.012421 0.056133 0.259655
0.013708 0.056301 0.260449
0.015016 0.056518 0.261470
0.016197 0.056262 0.260307
0.017691 0.057053 0.263993
0.019108 0.057503 0.266105
0.020317 0.057311 0.265246
0.021807 0.057888 0.267945
0.023324 0.058468 0.270666
0.024390 0.057916 0.268148
0.025062 0.056530 0.261772
0.026081 0.056021 0.259455
0.027278 0.055924 0.259045
0.028293 0.055478 0.257026
0.029548 0.055521 0.257268
0.030774 0.055508 0.257255
0.031979 0.055458 0.257072
0.033237 0.055501 0.257325
0.034463 0.055490 0.257323
0.035663 0.055439 0.257141
0.037146 0.055816 0.258945
0.038829 0.056459 0.261989
0.040484 0.057022 0.264659
0.041965 0.057315 0.266079
0.043037 0.057046 0.264894
0.044525 0.057331 0.266277
0.045894 0.057448 0.266887
0.047173 0.057451 0.266964
0.048427 0.057423 0.266899
0.049389 0.057060 0.265276
0.050614 0.057011 0.265115
0.051773 0.056891 0.264623
0.052981 0.056831 0.264409
0.054220 0.056805 0.264355
0.056997 0.058354 0.271635
0.057007 0.057065 0.265701
0.058582 0.057365 0.267162
0.060335 0.057822 0.269356
0.061630 0.057830 0.269461
0.062966 0.057876 0.269740
0.064420 0.058026 0.270504
0.065656 0.057977 0.270343
0.066892 0.057931 0.270188
0.068192 0.057940 0.270293
0.069396 0.057869 0.270024
0.070498 0.057718 0.269375
0.071452 0.057451 0.268190
0.072394 0.057186 0.267006
0.073697 0.057209 0.267170
0.074355 0.056740 0.265027
0.075378 0.056560 0.264237
0.076333 0.056336 0.263237
0.077508 0.056278 0.263011
0.079021 0.056464 0.263922
0.080382 0.056537 0.264304
0.081662 0.056552 0.264410
0.083074 0.056656 0.264931
0.090226 0.060614 0.283469
0.092107 0.060966 0.285143
0.095701 0.061531 0.287834
0.096933 0.061442 0.287441
0.097599 0.061003 0.285401
0.100796 0.062137 0.290713
0.102088 0.062080 0.290455
0.103476 0.062084 0.290471
0.104838 0.062071 0.290407
0.106182 0.062048 0.290290
0.107578 0.062056 0.290312
0.109180 0.062181 0.290874
0.110201 0.061976 0.289889
0.111617 0.061995 0.289947
0.112982 0.061986 0.289864
0.114030 0.061805 0.288975
0.115235 0.061713 0.288491
0.116379 0.061590 0.287858
0.118825 0.062151 0.290414
0.120123 0.062106 0.290131
0.121385 0.062043 0.289754
0.122981 0.062150 0.290169
0.124586 0.062260 0.290582
0.125978 0.062261 0.290483
0.127167 0.062163 0.289913
0.128577 0.062175 0.289843
0.130235 0.062305 0.290315
0.131619 0.062301 0.290158
0.133336 0.062454 0.290717
0.134783 0.062479 0.290671
0.136552 0.062651 0.291295
0.138026 0.062685 0.291270
0.139663 0.062792 0.291570
0.141419 0.062950 0.292092
0.142794 0.062936 0.291809
0.144064 0.062877 0.291300
0.145705 0.062980 0.291528
0.147405 0.063105 0.291847
0.148918 0.063149 0.291776
0.150562 0.063247 0.291938
0.151766 0.063160 0.291231
0.153312 0.063215 0.291166
-0.045585 0.018779 0.085281
-0.042810 0.022183 0.102109
-0.042962 0.022514 0.103654
-0.042632 0.022598 0.104057
-0.042041 0.022544 0.103821
-0.042378 0.022991 0.105895
-0.042859 0.023528 0.108379
-0.042423 0.023569 0.108576
-0.041688 0.023443 0.108001
-0.041583 0.023672 0.109061
-0.041277 0.023791 0.109610
-0.040843 0.023838 0.109828
-0.040489 0.023934 0.110267
-0.040169 0.024053 0.110811
-0.040008 0.024271 0.111811
-0.041389 0.025443 0.117200
-0.040961 0.025520 0.117543
-0.040802 0.025768 0.118675
-0.040620 0.026009 0.119771
-0.039898 0.025907 0.119282
-0.042043 0.027688 0.127468
-0.041504 0.027729 0.127635
-0.040798 0.027657 0.127283
-0.040617 0.027946 0.128585
-0.040340 0.028174 0.129612
-0.040231 0.028530 0.131221
-0.040326 0.029044 0.133557
-0.042326 0.030967 0.142368
-0.041715 0.031011 0.142538
-0.042356 0.032004 0.147063
-0.042907 0.032959 0.151417
-0.043583 0.034046 0.156366
-0.043453 0.034528 0.158540
-0.043287 0.034999 0.160657
-0.043093 0.035463 0.162741
-0.043018 0.036045 0.165363
-0.042351 0.036142 0.165761
-0.042732 0.037154 0.170351
-0.044657 0.039573 0.181390
-0.044365 0.040084 0.183673
-0.044402 0.040919 0.187440
-0.043571 0.040972 0.187623
-0.043437 0.041695 0.190876
-0.049133 0.049210 0.225134
-0.048125 0.049270 0.225338
-0.047073 0.049286 0.225338
-0.046218 0.049516 0.226314
-0.045315 0.049702 0.227091
-0.044557 0.050061 0.228659
-0.043860 0.050508 0.230624
-0.044388 0.052425 0.239300
-0.043583 0.052826 0.241055
-0.043072 0.053616 0.244579
-0.044100 0.056419 0.257285
-0.042922 0.056477 0.257471
-0.041340 0.055993 0.255184
-0.045120 0.062963 0.286859
-0.043201 0.062166 0.283144
-0.041229 0.061240 0.278839
-0.040006 0.061401 0.279490
-0.038710 0.061456 0.279660
-0.036507 0.060025 0.273072
-0.035526 0.060572 0.275482
-0.034168 0.060493 0.275048
-0.030604 0.056348 0.256132
-0.029288 0.056167 0.255242
-0.028088 0.056205 0.255349
-0.026927 0.056327 0.255836
-0.025720 0.056358 0.255919
-0.024530 0.056434 0.256204
-0.023352 0.056545 0.256647
-0.022160 0.056633 0.256991
-0.020970 0.056738 0.257414
-0.019846 0.057046 0.258760
-0.018726 0.057408 0.260347
-0.017957 0.058973 0.267398
-0.016322 0.057715 0.261647
-0.015562 0.059602 0.270156
-0.014271 0.059613 0.270163
-0.012164 0.055873 0.253175
-0.011003 0.056136 0.254334
-0.009803 0.056246 0.254797
-0.008566 0.056137 0.254274
-0.007368 0.056291 0.254945
-0.006154 0.056366 0.255257
-0.004933 0.056392 0.255352
-0.003721 0.056572 0.256148
-0.002493 0.056573 0.256136
-0.001262 0.056459 0.255603
-0.000036 0.056668 0.256535
0.001233 0.058533 0.264970
0.002505 0.058542 0.265003
0.003785 0.058685 0.265647
0.005052 0.058606 0.265285
0.006274 0.058131 0.263138
0.007524 0.058037 0.262714
0.008755 0.057844 0.261847
0.009937 0.057418 0.259926
0.011140 0.057190 0.258908
0.012385 0.057203 0.258980
0.013686 0.057448 0.260104
0.014982 0.057635 0.260973
0.016092 0.057130 0.258708
0.017600 0.058010 0.262716
0.019078 0.058679 0.265774
0.020289 0.058495 0.264967
0.021736 0.058974 0.267167
0.023384 0.059912 0.271450
0.024672 0.059880 0.271343
0.025096 0.057856 0.262211
0.025958 0.056988 0.258316
0.027310 0.057226 0.259436
0.028339 0.056796 0.257529
0.029550 0.056752 0.257372
0.030858 0.056889 0.258041
0.032041 0.056795 0.257663
0.033293 0.056824 0.257843
0.034504 0.056784 0.257713
0.035720 0.056754 0.257631
0.037049 0.056901 0.258352
0.038956 0.057898 0.262931
0.040943 0.058946 0.267751
0.042067 0.058726 0.266810
0.043281 0.058639 0.266478
0.044380 0.058409 0.265491
0.045720 0.058497 0.265954
0.046948 0.058443 0.265770
0.048197 0.058415 0.265709
0.049625 0.058602 0.266623
0.051021 0.058741 0.267320
0.052540 0.059013 0.268621
0.053927 0.059126 0.269200
0.055266 0.059182 0.269524
0.056930 0.059576 0.271384
0.058353 0.059706 0.272039
0.059595 0.059649 0.271845
0.060626 0.059388 0.270719
0.061978 0.059445 0.271044
0.063161 0.059342 0.270637
0.064336 0.059234 0.270212
0.065633 0.059241 0.270303
0.066979 0.059291 0.270593
0.068399 0.059404 0.271168
0.069643 0.059362 0.271033
0.071547 0.059874 0.273430
0.073324 0.060263 0.275264
0.073731 0.059532 0.271980
0.074915 0.059444 0.271626
0.076236 0.059465 0.271774
0.077362 0.059335 0.271227
0.078473 0.059199 0.270651
0.080143 0.059481 0.271986
0.082231 0.060060 0.274674
0.084013 0.060401 0.276271
0.087074 0.061637 0.281959
0.088293 0.061551 0.281599
0.090140 0.061898 0.283218
0.092020 0.062258 0.284892
0.093245 0.062170 0.284513
0.093934 0.061733 0.282531
0.097089 0.062905 0.287913
0.098157 0.062712 0.287041
0.100067 0.063055 0.288615
0.101856 0.063313 0.289797
0.102962 0.063145 0.289025
0.104478 0.063229 0.289403
0.106002 0.063317 0.289791
0.107146 0.063177 0.289134
0.108530 0.063181 0.289128
0.110466 0.063502 0.290569
0.111764 0.063453 0.290307
0.113089 0.063420 0.290116
0.114380 0.063369 0.289834
0.115497 0.063224 0.289116
0.117460 0.063540 0.290498
0.118623 0.063421 0.289883
0.120015 0.063426 0.289828
0.121365 0.063408 0.289663
0.122878 0.063475 0.289876
0.124294 0.063491 0.289848
0.125655 0.063479 0.289684
0.126971 0.063444 0.289408
0.128472 0.063501 0.289542
0.130090 0.063615 0.289924
0.131668 0.063706 0.290194
0.132908 0.063634 0.289709
0.135342 0.064130 0.291796
0.135864 0.063718 0.289744
0.137981 0.064055 0.291087
0.139486 0.064103 0.291108
0.141397 0.064336 0.291948
0.142672 0.064277 0.291457
0.144364 0.064406 0.291801
0.145666 0.064359 0.291337
0.146951 0.064306 0.290832
0.149247 0.064692 0.292297
0.150626 0.064677 0.291935
0.152075 0.064692 0.291691
0.153636 0.064754 0.291642
-0.045985 0.019355 0.085991
-0.045731 0.019422 0.086377
-0.043075 0.022806 0.102731
-0.042653 0.022839 0.102900
-0.042439 0.022985 0.103575
-0.042016 0.023020 0.103751
-0.041935 0.023245 0.104782
-0.041970 0.023541 0.106125
-0.042067 0.023880 0.107662
-0.041247 0.023699 0.106855
-0.041264 0.024001 0.108221
-0.041088 0.024197 0.109107
-0.040788 0.024324 0.109681
-0.040460 0.024437 0.110189
-0.041723 0.025527 0.115100
-0.041243 0.025564 0.115265
-0.040483 0.025427 0.114639
-0.039203 0.024955 0.112504
-0.041027 0.026474 0.119340
-0.040526 0.026513 0.119503
-0.041714 0.027674 0.124720
-0.041492 0.027920 0.125811
-0.041132 0.028078 0.126504
-0.040696 0.028189 0.126982
-0.040398 0.028399 0.127908
-0.040018 0.028558 0.128598
-0.039572 0.028673 0.129092
-0.040278 0.029640 0.133417
-0.041559 0.031068 0.139814
-0.041898 0.031825 0.143192
-0.042125 0.032522 0.146290
-0.042430 0.033302 0.149764
-0.043137 0.034430 0.154798
-0.043444 0.035272 0.158542
-0.043181 0.035672 0.160298
-0.042759 0.035953 0.161518
-0.042785 0.036629 0.164505
-0.044103 0.038455 0.172660
-0.044364 0.039412 0.176903
-0.044341 0.040147 0.180152
-0.044157 0.040764 0.182864
-0.049603 0.049683 0.222602
-0.048609 0.049745 0.222807
-0.047789 0.049991 0.223838
-0.047091 0.050378 0.225503
-0.046006 0.050361 0.225353
-0.045128 0.050574 0.226236
-0.044528 0.051117 0.228592
-0.045047 0.053004 0.236955
-0.044613 0.053837 0.240603
-0.043790 0.054232 0.242295
-0.043527 0.055361 0.247262
-0.042383 0.055402 0.247366
-0.041116 0.055278 0.246738
-0.041039 0.056796 0.253433
-0.044264 0.063113 0.281537
-0.043958 0.064632 0.288226
-0.041678 0.063254 0.282000
-0.040017 0.062755 0.279694
-0.036778 0.061789 0.275232
-0.035497 0.061841 0.275388
-0.034302 0.062055 0.276266
-0.030457 0.057299 0.255026
-0.029317 0.057448 0.255623
-0.028072 0.057396 0.255327
-0.026888 0.057470 0.255591
-0.025705 0.057553 0.255900
-0.024481 0.057549 0.255824
-0.023304 0.057659 0.256255
-0.022099 0.057711 0.256432
-0.020867 0.057691 0.256290
-0.019800 0.058158 0.258311
-0.018718 0.058637 0.260389
-0.017995 0.060388 0.268117
-0.016444 0.059417 0.263761
-0.015596 0.061038 0.270912
-0.014305 0.061062 0.270978
-0.012896 0.060535 0.268598
-0.011582 0.060391 0.267921
-0.010400 0.060977 0.270486
-0.009112 0.061029 0.270686
