ply
format ascii 1.0
element vertex 1745
property float x
property float y
property float z
end_header
0.154004 0.077578 0.290827
-0.045507 0.022823 0.084680
-0.045642 0.023097 0.085801
-0.043032 0.027147 0.102477
-0.042412 0.027059 0.102181
-0.042643 0.027519 0.103947
-0.040180 0.026230 0.099108
-0.041014 0.027089 0.102378
-0.041053 0.027437 0.103717
-0.041974 0.028390 0.107342
-0.041191 0.028200 0.106641
-0.040757 0.028247 0.106834
-0.039718 0.028223 0.106770
-0.041568 0.029916 0.113186
-0.040838 0.029771 0.112649
-0.041769 0.030850 0.116737
-0.041033 0.030710 0.116211
-0.040444 0.030678 0.116092
-0.040057 0.030800 0.116556
-0.042029 0.032764 0.123989
-0.041503 0.032809 0.124154
-0.041128 0.032976 0.124783
-0.040494 0.032938 0.124633
-0.040081 0.033081 0.125165
-0.041312 0.034605 0.130921
-0.041744 0.035496 0.134280
-0.041553 0.035877 0.135705
-0.041537 0.036423 0.137755
-0.041384 0.036864 0.139406
-0.040785 0.036916 0.139583
-0.040318 0.037090 0.140220
-0.040232 0.037627 0.142230
-0.040165 0.038201 0.144374
-0.055362 0.055472 0.209532
-0.054443 0.055541 0.209754
-0.053464 0.055552 0.209752
-0.053279 0.056403 0.212919
-0.053789 0.058037 0.219042
-0.054432 0.059881 0.225953
-0.053076 0.059556 0.224675
-0.051136 0.058549 0.220824
-0.050268 0.058753 0.221543
-0.049407 0.058974 0.222324
-0.048452 0.059090 0.222707
-0.047486 0.059197 0.223057
-0.046577 0.059383 0.223702
-0.045670 0.059579 0.224386
-0.044781 0.059809 0.225197
-0.043823 0.059956 0.225693
-0.042907 0.060168 0.226435
-0.042159 0.060634 0.228133
-0.041431 0.061154 0.230030
-0.040754 0.061778 0.232323
-0.039908 0.062176 0.233759
-0.039835 0.063832 0.239927
-0.045646 0.075295 0.282942
-0.044815 0.076162 0.286132
-0.043497 0.076230 0.286317
-0.042059 0.076085 0.285704
-0.040015 0.074799 0.280810
-0.038714 0.074861 0.280976
-0.037141 0.074382 0.279115
-0.035455 0.073632 0.276239
-0.034176 0.073704 0.276448
-0.030903 0.069309 0.259907
-0.029381 0.068639 0.257338
-0.028094 0.068483 0.256701
-0.026935 0.068641 0.257239
-0.025645 0.068463 0.256522
-0.024457 0.068551 0.256803
-0.023222 0.068514 0.256617
-0.022040 0.068636 0.257026
-0.020909 0.068942 0.258128
-0.019768 0.069249 0.259232
-0.018650 0.069684 0.260821
-0.017763 0.071109 0.266112
-0.016370 0.070566 0.264043
-0.015574 0.072723 0.272075
-0.014282 0.072750 0.272139
-0.012311 0.068977 0.257991
-0.011033 0.068675 0.256831
-0.009867 0.069084 0.258333
-0.008571 0.068572 0.256394
-0.007359 0.068673 0.256745
-0.006149 0.068841 0.257352
-0.004919 0.068810 0.257216
-0.003689 0.068760 0.257011
-0.002453 0.068482 0.255956
-0.001233 0.068581 0.256310
-0.000010 0.069437 0.259497
0.001268 0.071658 0.267790
0.002569 0.072278 0.270097
0.003869 0.072475 0.270827
0.005143 0.072211 0.269837
0.006464 0.072574 0.271193
0.007748 0.072479 0.270839
0.009091 0.072878 0.272331
0.010378 0.072782 0.271977
0.011665 0.072710 0.271716
0.012952 0.072650 0.271501
0.014201 0.072409 0.270611
0.015469 0.072295 0.270198
0.016796 0.072452 0.270802
0.018097 0.072481 0.270928
0.019330 0.072256 0.270103
0.020599 0.072184 0.269855
0.021842 0.072033 0.269316
0.022954 0.071490 0.267309
0.024062 0.070994 0.265482
0.025190 0.070602 0.264041
0.026235 0.070028 0.261922
0.027444 0.069923 0.261561
0.028452 0.069335 0.259392
0.029589 0.069099 0.258541
0.030919 0.069316 0.259388
0.032200 0.069408 0.259765
0.033498 0.069529 0.260254
0.034987 0.070024 0.262145
0.036393 0.070324 0.263307
0.037582 0.070199 0.262881
0.038876 0.070270 0.263187
0.039895 0.069857 0.261679
0.041436 0.070355 0.263588
0.042753 0.070454 0.264000
0.043974 0.070393 0.263815
0.043470 0.067652 0.253584
0.044856 0.067920 0.254633
0.046037 0.067871 0.254492
0.047114 0.067677 0.253806
0.048447 0.067850 0.254498
0.049634 0.067815 0.254407
0.050901 0.067889 0.254727
0.052218 0.068023 0.255271
0.053350 0.067916 0.254914
0.054860 0.068284 0.256337
0.056588 0.068903 0.258699
0.058785 0.070053 0.263059
0.060778 0.070917 0.266345
0.062372 0.071290 0.267783
0.063766 0.071423 0.268324
0.065367 0.071779 0.269698
0.066854 0.071998 0.270559
0.068280 0.072145 0.271144
0.069660 0.072238 0.271529
0.071246 0.072538 0.272687
0.072288 0.072282 0.271755
0.073552 0.072254 0.271677
0.074961 0.072366 0.272127
0.075103 0.071272 0.268036
0.073557 0.068640 0.258156
0.074147 0.068054 0.255971
0.075888 0.068527 0.257762
0.076933 0.068366 0.257171
0.077997 0.068227 0.256654
0.079417 0.068398 0.257306
0.081085 0.068775 0.258726
0.082159 0.068644 0.258233
0.083178 0.068471 0.257578
0.085034 0.068983 0.259496
0.086135 0.068876 0.259082
0.095037 0.074922 0.281806
0.098466 0.076545 0.287889
0.100583 0.077117 0.290015
0.101877 0.077051 0.289735
0.103146 0.076969 0.289389
0.104531 0.076973 0.289363
0.105816 0.076906 0.289061
0.107080 0.076824 0.288700
0.108629 0.076947 0.289101
0.109983 0.076930 0.288971
0.111042 0.076709 0.288070
0.112588 0.076827 0.288433
0.113936 0.076808 0.288275
0.115568 0.076978 0.288820
0.116921 0.076961 0.288653
0.118349 0.076993 0.288663
0.119859 0.077076 0.288861
0.121377 0.077163 0.289060
0.122745 0.077154 0.288891
0.124178 0.077184 0.288863
0.125697 0.077268 0.289024
0.127039 0.077241 0.288762
0.128353 0.077199 0.288433
0.129805 0.077239 0.288400
0.131337 0.077326 0.288532
0.133143 0.077570 0.289239
0.134693 0.077661 0.289364
0.136638 0.077976 0.290311
0.138444 0.078206 0.290927
0.140105 0.078350 0.291210
0.141540 0.078366 0.291002
0.142882 0.078331 0.290591
0.144663 0.078534 0.291053
0.146771 0.078910 0.292135
0.148367 0.079005 0.292162
0.150013 0.079125 0.292263
0.151297 0.079053 0.291642
0.152625 0.079006 0.291092
0.154286 0.079130 0.291158
-0.045772 0.023366 0.085117
-0.045538 0.023456 0.085552
-0.042126 0.027050 0.100299
-0.041705 0.027083 0.100455
-0.041093 0.026992 0.100150
-0.040880 0.027164 0.100817
-0.041669 0.028013 0.103996
-0.041234 0.028051 0.104159
-0.041773 0.030214 0.112287
-0.041301 0.030254 0.112450
-0.041090 0.030490 0.113338
-0.041128 0.030919 0.114940
-0.040834 0.031107 0.115645
-0.040447 0.031228 0.116098
-0.039764 0.031121 0.115703
-0.041283 0.032758 0.121790
-0.041403 0.033315 0.123857
-0.040950 0.033421 0.124249
-0.040015 0.033130 0.123162
-0.041440 0.034814 0.129416
-0.041243 0.035165 0.130712
-0.041336 0.035778 0.132979
-0.041125 0.036142 0.134318
-0.040785 0.036402 0.135273
-0.040841 0.037030 0.137591
-0.040993 0.037767 0.140311
-0.039933 0.037393 0.138903
-0.040338 0.038401 0.142626
-0.040116 0.038836 0.144218
-0.055966 0.056080 0.208184
-0.055054 0.056150 0.208408
-0.054295 0.056381 0.209225
-0.053457 0.056538 0.209769
-0.053209 0.057336 0.212687
-0.055450 0.060898 0.225855
-0.054450 0.060972 0.226079
-0.051897 0.059274 0.219738
-0.051066 0.059515 0.220581
-0.050091 0.059593 0.220821
-0.049093 0.059647 0.220972
-0.048223 0.059862 0.221719
-0.047271 0.059984 0.222117
-0.046309 0.060097 0.222482
-0.045385 0.060266 0.223057
-0.044595 0.060626 0.224333
-0.043718 0.060882 0.225228
-0.042854 0.061169 0.226234
-0.042045 0.061552 0.227595
-0.041152 0.061828 0.228563
-0.040525 0.062532 0.231106
-0.039703 0.062963 0.232646
-0.046873 0.076455 0.282430
-0.045577 0.076526 0.282623
-0.044567 0.077097 0.284664
-0.043305 0.077253 0.285176
-0.042018 0.077373 0.285549
-0.040071 0.076246 0.281327
-0.038768 0.076308 0.281493
-0.037065 0.075560 0.278670
-0.035497 0.075041 0.276694
-0.034386 0.075486 0.278277
-0.030820 0.070361 0.259327
-0.029317 0.069717 0.256902
-0.028058 0.069624 0.256504
-0.026890 0.069756 0.256939
-0.025648 0.069699 0.256681
-0.024438 0.069728 0.256740
-0.023227 0.069759 0.256806
-0.022071 0.069968 0.257532
-0.020913 0.070195 0.258321
-0.019776 0.070525 0.259494
-0.018674 0.071030 0.261310
-0.017774 0.072432 0.266431
-0.016479 0.072315 0.265962
-0.015648 0.074387 0.273543
-0.014350 0.074414 0.273607
-0.012142 0.069256 0.254610
-0.010948 0.069379 0.255034
-0.009774 0.069679 0.256106
-0.008529 0.069482 0.255357
-0.007325 0.069607 0.255795
-0.006120 0.069775 0.256389
-0.004911 0.069967 0.257073
-0.003683 0.069927 0.256910
-0.002457 0.069899 0.256789
-0.001238 0.070248 0.258060
-0.000007 0.070448 0.258781
0.001256 0.072067 0.264718
0.002533 0.072469 0.266187
0.003822 0.072819 0.267467
0.005072 0.072448 0.266101
0.006330 0.072305 0.265572
0.007624 0.072563 0.266523
0.008857 0.072238 0.265331
0.010094 0.072031 0.264573
0.011386 0.072218 0.265268
0.012607 0.071958 0.264321
0.013875 0.071989 0.264445
0.015117 0.071896 0.264114
0.016399 0.071989 0.264472
0.017722 0.072233 0.265383
0.019012 0.072322 0.265729
0.020333 0.072511 0.266443
0.021686 0.072785 0.267470
0.022822 0.072338 0.265851
0.023968 0.071969 0.264520
0.025049 0.071453 0.262648
0.026268 0.071359 0.262330
0.027356 0.070932 0.260792
0.028460 0.070585 0.259545
0.029631 0.070425 0.258987
0.030893 0.070485 0.259242
0.032115 0.070452 0.259155
0.033411 0.070579 0.259655
0.034793 0.070872 0.260767
0.036149 0.071093 0.261619
0.037498 0.071286 0.262367
0.038775 0.071333 0.262578
0.039987 0.071263 0.262359
0.041550 0.071801 0.264381
0.042962 0.072056 0.265360
0.044189 0.071994 0.265175
0.043224 0.068464 0.252214
0.044542 0.068643 0.252911
0.045738 0.068629 0.252902
0.046931 0.068612 0.252878
0.048155 0.068640 0.253020
0.049456 0.068773 0.253553
0.050766 0.068912 0.254106
0.052129 0.069115 0.254894
0.053474 0.069285 0.255558
0.054722 0.069324 0.255744
0.056230 0.069684 0.257109
0.057988 0.070333 0.259541
0.061089 0.072548 0.267753
0.062347 0.072529 0.267720
0.063779 0.072709 0.268424
0.065419 0.073114 0.269952
0.066797 0.073217 0.270367
0.068284 0.073433 0.271196
0.069635 0.073497 0.271465
0.071053 0.073627 0.271976
0.072049 0.073325 0.270885
0.073421 0.073408 0.271216
0.074875 0.073569 0.271836
0.075437 0.072863 0.269247
0.074325 0.070591 0.260868
0.074782 0.069859 0.258177
0.075937 0.069792 0.257940
0.077260 0.069878 0.258270
0.078214 0.069634 0.257373
0.079248 0.069467 0.256760
0.081034 0.069955 0.258561
0.082569 0.070214 0.259517
0.083499 0.069959 0.258565
0.084827 0.070040 0.258853
0.093824 0.076359 0.282194
0.095045 0.076261 0.281812
0.099053 0.078372 0.289584
0.100176 0.078173 0.288818
0.102059 0.078563 0.290226
0.103396 0.078529 0.290059
0.104912 0.078629 0.290383
0.106206 0.078563 0.290086
0.107474 0.078480 0.289720
0.108864 0.078486 0.289680
0.110198 0.078453 0.289487
0.111602 0.078469 0.289469
0.112773 0.078323 0.288847
0.114094 0.078284 0.288612
0.115586 0.078361 0.288799
0.116962 0.078359 0.288685
0.118232 0.078286 0.288303
0.119639 0.078305 0.288251
0.120967 0.078272 0.288000
0.122728 0.078517 0.288760
0.124143 0.078537 0.288689
0.125725 0.078661 0.288988
0.126995 0.078590 0.288560
0.128489 0.078657 0.288629
0.130042 0.078758 0.288814
0.131482 0.078790 0.288731
0.133058 0.078901 0.288930
0.134633 0.079009 0.289106
0.136626 0.079358 0.290149
0.138268 0.079497 0.290414
0.139898 0.079628 0.290631
0.141390 0.079677 0.290540
0.142831 0.079698 0.290329
0.144540 0.079865 0.290639
0.146587 0.080215 0.291595
0.148336 0.080396 0.291921
0.149628 0.080328 0.291326
0.151226 0.080424 0.291311
0.152662 0.080433 0.290962
0.153971 0.080375 0.290354
-0.046063 0.023927 0.085599
-0.045839 0.024025 0.086060
-0.042282 0.027627 0.100646
-0.041862 0.027663 0.100812
-0.041605 0.027809 0.101377
-0.041181 0.027845 0.101540
-0.041631 0.028480 0.103884
-0.041294 0.030780 0.112423
-0.040857 0.030849 0.112687
-0.040730 0.031158 0.113822
-0.040336 0.031267 0.114231
-0.039925 0.031366 0.114598
-0.041319 0.032905 0.120224
-0.041555 0.033553 0.122592
-0.041349 0.033856 0.123699
-0.041163 0.034185 0.124898
-0.040717 0.034304 0.125329
-0.040419 0.034553 0.126234
-0.040427 0.035075 0.128134
-0.041062 0.036164 0.132105
-0.041553 0.037159 0.135728
-0.041734 0.037904 0.138436
-0.041546 0.038332 0.139983
-0.040349 0.037827 0.138123
-0.040058 0.038169 0.139355
-0.040288 0.039027 0.142470
-0.056559 0.056676 0.206834
-0.055655 0.056747 0.207060
-0.055096 0.057179 0.208603
-0.054474 0.057561 0.209959
-0.053564 0.057647 0.210232
-0.052650 0.057730 0.210497
-0.053438 0.059720 0.217711
-0.052474 0.059791 0.217926
-0.051323 0.059649 0.217362
-0.050639 0.060054 0.218791
-0.049695 0.060161 0.219134
-0.048852 0.060398 0.219949
-0.047977 0.060604 0.220653
-0.047133 0.060859 0.221531
-0.046216 0.061031 0.222106
-0.045311 0.061227 0.222766
-0.044429 0.061463 0.223574
-0.043507 0.061654 0.224217
-0.042563 0.061823 0.224779
-0.041713 0.062140 0.225880
-0.040959 0.062621 0.227573
-0.040421 0.063467 0.230595
-0.039865 0.064332 0.233682
-0.047164 0.078283 0.284293
-0.045859 0.078355 0.284487
-0.044540 0.078406 0.284608
-0.043151 0.078333 0.284278
-0.041711 0.078159 0.283583
-0.039966 0.077385 0.280710
-0.038666 0.077447 0.280875
-0.036804 0.076349 0.276830
-0.035438 0.076235 0.276359
-0.033914 0.075760 0.274580
-0.032633 0.075815 0.274720
-0.029252 0.070790 0.256462
-0.028098 0.070951 0.256995
-0.026948 0.071139 0.257624
-0.025610 0.070823 0.256430
-0.024419 0.070904 0.256677
-0.023207 0.070930 0.256725
-0.022028 0.071066 0.257173
-0.020861 0.071256 0.257820
-0.019753 0.071688 0.259342
-0.018684 0.072325 0.261606
-0.017800 0.073822 0.266980
-0.016484 0.073620 0.266214
-0.015558 0.075273 0.272153
-0.014267 0.075300 0.272216
-0.012118 0.070350 0.254289
-0.010922 0.070444 0.254599
-0.009731 0.070604 0.255153
-0.008500 0.070479 0.254673
-0.007290 0.070510 0.254765
-0.006081 0.070571 0.254964
-0.004864 0.070551 0.254871
-0.003653 0.070621 0.255107
-0.002438 0.070659 0.255229
-0.001221 0.070658 0.255211
-0.000004 0.070725 0.255440
0.001255 0.073096 0.263993
0.002548 0.074089 0.267572
0.003820 0.074005 0.267263
0.005130 0.074509 0.269079
0.006346 0.073727 0.266252
0.007616 0.073720 0.266227
0.008917 0.073976 0.267155
0.010122 0.073474 0.265343
0.011396 0.073528 0.265545
0.012709 0.073791 0.266502
0.013969 0.073732 0.266299
0.015268 0.073870 0.266810
0.016488 0.073633 0.265970
0.017883 0.074157 0.267876
0.019146 0.074098 0.267681
0.020393 0.073988 0.267302
0.021668 0.073986 0.267313
0.022904 0.073860 0.266881
0.023945 0.073151 0.264345
0.024933 0.072358 0.261503
0.025972 0.071781 0.259444
0.027142 0.071605 0.258833
0.028271 0.071338 0.257899
0.029423 0.071150 0.257248
0.030765 0.071415 0.258239
0.032078 0.071598 0.258931
0.033336 0.071649 0.259149
0.034705 0.071926 0.260184
0.036059 0.072152 0.261037
0.037368 0.072276 0.261524
0.038765 0.072558 0.262582
0.040036 0.072594 0.262747
0.041340 0.072685 0.263115
0.042615 0.072722 0.263289
0.043882 0.072743 0.263402
0.046642 0.075167 0.272222
0.045608 0.071513 0.259028
0.046800 0.071448 0.258833
0.047988 0.071382 0.258634
0.048987 0.071045 0.257448
0.050148 0.070953 0.257154
0.051522 0.071159 0.257941
0.052654 0.071030 0.257511
0.054376 0.071684 0.259920
0.055935 0.072098 0.261460
0.056846 0.071678 0.259974
0.059113 0.072950 0.264622
0.061174 0.073917 0.268168
0.062676 0.074186 0.269177
0.063933 0.074157 0.269108
0.065538 0.074527 0.270482
0.067010 0.074733 0.271262
0.068244 0.074672 0.271070
0.069435 0.074566 0.270714
0.070779 0.074625 0.270954
0.071904 0.074456 0.270364
0.072678 0.073936 0.268496
0.074233 0.074214 0.269526
0.075294 0.073996 0.268754
0.075798 0.073249 0.266053
0.076649 0.072854 0.264633
0.077763 0.072719 0.264151
0.079034 0.072733 0.264206
0.079899 0.072378 0.262922
0.081162 0.072389 0.262962
0.082739 0.072676 0.264000
0.083276 0.072054 0.261733
0.084670 0.072181 0.262183
0.086673 0.072816 0.264476
0.087230 0.072234 0.262346
0.096048 0.078415 0.284768
0.098842 0.079572 0.288942
0.100436 0.079746 0.289539
0.101871 0.079790 0.289659
0.103048 0.079634 0.289047
0.104490 0.079684 0.289178
0.105968 0.079759 0.289396
0.107251 0.079687 0.289072
0.108585 0.079655 0.288887
0.109963 0.079655 0.288815
0.111309 0.079633 0.288652
0.112489 0.079493 0.288059
0.113997 0.079586 0.288300
0.115313 0.079544 0.288045
0.116812 0.079628 0.288238
0.118129 0.079587 0.287972
0.119547 0.079614 0.287945
0.121355 0.079897 0.288834
0.122883 0.079991 0.289032
0.124104 0.079886 0.288500
0.125578 0.079944 0.288546
0.127062 0.080007 0.288602
0.128400 0.079978 0.288316
0.129796 0.079985 0.288148
0.131406 0.080122 0.288439
0.133275 0.080412 0.289271
0.134480 0.080300 0.288642
0.136364 0.080592 0.289451
0.138088 0.080783 0.289888
0.139685 0.080898 0.290036
0.141391 0.081072 0.290382
0.142849 0.081102 0.290197
0.144572 0.081281 0.290530
0.146496 0.081567 0.291232
0.148223 0.081740 0.291511
0.149806 0.081830 0.291478
0.151173 0.081803 0.291007
0.152585 0.081799 0.290606
0.154298 0.081955 0.290755
-0.045667 0.024131 0.084804
-0.045109 0.024050 0.084633
-0.044732 0.024066 0.084795
-0.041963 0.027892 0.099862
-0.041722 0.028046 0.100452
-0.042902 0.029170 0.104514
-0.041627 0.028632 0.102619
-0.041643 0.031177 0.111913
-0.041104 0.031167 0.111894
-0.041040 0.031522 0.113183
-0.040428 0.031461 0.112972
-0.040635 0.032042 0.115070
-0.040411 0.032296 0.115989
-0.041417 0.033553 0.120507
-0.041018 0.033691 0.121006
-0.041459 0.034532 0.124029
-0.041225 0.034827 0.125088
-0.040710 0.034890 0.125311
-0.040571 0.035281 0.126713
-0.040450 0.035700 0.128212
-0.039291 0.035202 0.126415
-0.041134 0.037420 0.134370
-0.041821 0.038639 0.138736
-0.042414 0.039807 0.142919
-0.041795 0.039858 0.143088
-0.041174 0.039909 0.143253
-0.057096 0.056264 0.201933
-0.056216 0.056335 0.202160
-0.056101 0.057187 0.205190
-0.055472 0.057538 0.206417
-0.054868 0.057927 0.207778
-0.054376 0.058450 0.209620
-0.053725 0.058818 0.210906
-0.053024 0.059145 0.212037
-0.052252 0.059403 0.212924
-0.051369 0.059544 0.213388
-0.050489 0.059692 0.213878
-0.049651 0.059899 0.214576
-0.048935 0.060264 0.215839
-0.048499 0.060997 0.218417
-0.047906 0.061559 0.220385
-0.046941 0.061658 0.220692
-0.046065 0.061882 0.221442
-0.045163 0.062080 0.222104
-0.044211 0.062218 0.222548
-0.043341 0.062479 0.223432
-0.042358 0.062588 0.223770
-0.041568 0.062995 0.225175
-0.040769 0.063409 0.226601
-0.040149 0.064131 0.229131
-0.039586 0.064987 0.232137
-0.047167 0.079643 0.284422
-0.045862 0.079715 0.284616
-0.044626 0.079916 0.285271
-0.043356 0.080066 0.285742
-0.041989 0.080041 0.285591
-0.039783 0.078362 0.279539
-0.038855 0.079172 0.282369
-0.037545 0.079234 0.282529
-0.035795 0.078336 0.279270
-0.034710 0.078882 0.281157
-0.030690 0.072535 0.258484
-0.029361 0.072283 0.257537
-0.028143 0.072295 0.257528
-0.026890 0.072217 0.257200
-0.025641 0.072140 0.256879
-0.024426 0.072156 0.256892
-0.023214 0.072182 0.256939
-0.022000 0.072206 0.256982
-0.020821 0.072357 0.257476
-0.019735 0.072865 0.259242
-0.018647 0.073437 0.261239
-0.017678 0.074592 0.265310
-0.016381 0.074434 0.264710
-0.015452 0.076065 0.270475
-0.014170 0.076092 0.270538
-0.012090 0.071410 0.253860
-0.010877 0.071386 0.253750
-0.009685 0.071502 0.254133
-0.008471 0.071473 0.254006
-0.007265 0.071507 0.254106
-0.006057 0.071537 0.254190
-0.004846 0.071541 0.254186
-0.003639 0.071636 0.254504
-0.002425 0.071600 0.254360
-0.001211 0.071509 0.254024
-0.000001 0.071646 0.254500
0.001266 0.074805 0.265710
0.002533 0.074804 0.265701
0.003795 0.074722 0.265403
0.005041 0.074435 0.264377
0.006283 0.074209 0.263572
0.007490 0.073719 0.261831
0.008757 0.073880 0.262406
0.009956 0.073492 0.261030
0.011206 0.073525 0.261154
0.012497 0.073794 0.262118
0.013758 0.073853 0.262334
0.015070 0.074150 0.263401
0.016397 0.074473 0.264563
0.017754 0.074876 0.266008
0.019100 0.075179 0.267099
0.020343 0.075067 0.266721
0.021611 0.075053 0.266691
0.022908 0.075136 0.267005
0.024045 0.074711 0.265517
0.024997 0.073785 0.262252
0.026049 0.073227 0.260292
0.027203 0.072991 0.259481
0.028266 0.072545 0.257920
0.029435 0.072397 0.257424
0.030698 0.072481 0.257753
0.031993 0.072631 0.258315
0.033300 0.072798 0.258940
0.034523 0.072773 0.258885
0.035788 0.072837 0.259148
0.037173 0.073132 0.260231
0.038775 0.073822 0.262721
0.040341 0.074401 0.264818
0.041951 0.075025 0.267074
0.043518 0.075535 0.268931
0.044655 0.075292 0.268103
0.046576 0.076349 0.271904
0.047829 0.076282 0.271705
0.051858 0.076500 0.272599
0.053178 0.076532 0.272751
0.054409 0.076437 0.272451
0.055708 0.076440 0.272502
0.056956 0.076375 0.272306
0.057873 0.075878 0.270572
0.058501 0.075032 0.267590
0.059799 0.075063 0.267737
0.061291 0.075331 0.268724
0.062720 0.075512 0.269404
0.064190 0.075735 0.270230
0.065584 0.075860 0.270706
0.067068 0.076083 0.271532
0.068386 0.076112 0.271663
0.069604 0.076032 0.271402
0.070787 0.075916 0.271010
0.072005 0.075842 0.270769
0.073210 0.075756 0.270479
0.074519 0.075779 0.270580
0.075772 0.075746 0.270476
0.076884 0.075575 0.269876
0.078212 0.075617 0.270038
0.079670 0.075782 0.270634
0.080698 0.075541 0.269774
0.082266 0.075803 0.270710
0.083779 0.076007 0.271436
0.085104 0.076037 0.271538
0.086596 0.076214 0.272160
0.087958 0.076272 0.272351
0.089535 0.076512 0.273192
0.095337 0.080305 0.286710
0.096581 0.080204 0.286322
0.098857 0.080952 0.288959
0.100239 0.080957 0.288939
0.101602 0.080947 0.288860
0.102788 0.080798 0.288278
0.104351 0.080946 0.288751
0.105893 0.081072 0.289142
0.105926 0.080056 0.285453
0.108544 0.080993 0.288724
0.109923 0.080995 0.288651
0.111364 0.081041 0.288731
0.112593 0.080935 0.288258
0.113798 0.080813 0.287726
0.115373 0.080954 0.288120
0.116612 0.080858 0.287665
0.117956 0.080836 0.287466
0.119510 0.080958 0.287767
0.120680 0.080819 0.287135
0.122903 0.081380 0.288981
0.124063 0.081233 0.288300
0.125853 0.081497 0.289070
0.126815 0.081225 0.287929
0.128590 0.081473 0.288623
0.130048 0.081518 0.288584
0.131777 0.081730 0.289124
0.133192 0.081744 0.288956
0.134473 0.081677 0.288485
0.136122 0.081832 0.288790
0.138106 0.082183 0.289772
0.139742 0.082322 0.289992
0.141398 0.082470 0.290230
0.143038 0.082606 0.290408
0.144607 0.082699 0.290421
0.146426 0.082930 0.290906
0.148044 0.083045 0.290963
0.149786 0.083226 0.291237
0.151348 0.083305 0.291134
0.152891 0.083373 0.290972
0.154497 0.083472 0.290904
-0.045969 0.024703 0.085303
-0.045704 0.024781 0.085689
-0.045499 0.024894 0.086189
-0.042390 0.028654 0.100852
-0.042364 0.028961 0.101972
-0.042864 0.029639 0.104398
-0.041676 0.029152 0.102717
-0.041245 0.029189 0.102880
-0.041756 0.031792 0.112205
-0.041282 0.031834 0.112369
-0.040918 0.031962 0.112837
-0.039677 0.031400 0.110864
-0.040033 0.032103 0.113358
-0.042161 0.034267 0.121006
-0.041957 0.034567 0.122075
-0.041439 0.034614 0.122245
-0.041213 0.034909 0.123290
-0.040851 0.035096 0.123952
-0.040601 0.035386 0.124975
-0.040805 0.036087 0.127448
-0.040052 0.035949 0.126957
-0.040984 0.037342 0.131872
-0.040673 0.037629 0.132874
-0.041481 0.038975 0.137618
-0.041676 0.039779 0.140445
-0.041744 0.040485 0.142926
-0.057017 0.057140 0.201679
-0.056624 0.057706 0.203653
-0.055997 0.058050 0.204840
-0.055173 0.058199 0.205334
-0.054690 0.058718 0.207138
-0.054016 0.059048 0.208269
-0.053349 0.059398 0.209469
-0.052986 0.060106 0.211927
-0.052068 0.060200 0.212222
-0.051152 0.060299 0.212532
-0.050340 0.060528 0.213300
-0.049512 0.060745 0.214025
-0.048596 0.060864 0.214400
-0.047890 0.061254 0.215733
-0.047172 0.061647 0.217070
-0.046799 0.062517 0.220090
-0.045836 0.062620 0.220407
-0.044935 0.062817 0.221052
-0.044035 0.063023 0.221729
-0.043180 0.063306 0.222675
-0.042256 0.063499 0.223307
-0.041378 0.063772 0.224219
-0.040599 0.064216 0.225731
-0.040102 0.065144 0.228941
-0.039525 0.065990 0.231864
-0.047099 0.080879 0.284118
-0.045795 0.080952 0.284311
-0.044544 0.081126 0.284860
-0.043251 0.081230 0.285166
-0.041910 0.081250 0.285175
-0.039708 0.079546 0.279133
-0.038647 0.080088 0.280978
-0.037344 0.080150 0.281137
-0.035547 0.079119 0.277463
-0.034223 0.079099 0.277340
-0.031328 0.075304 0.263980
-0.029442 0.073718 0.258370
-0.028161 0.073575 0.257822
-0.026989 0.073716 0.258268
-0.025639 0.073363 0.256986
-0.024404 0.073318 0.256785
-0.023192 0.073346 0.256839
-0.022001 0.073443 0.257137
-0.020806 0.073539 0.257431
-0.019719 0.074052 0.259189
-0.018611 0.074548 0.260885
-0.017675 0.075854 0.265416
-0.016408 0.075835 0.265316
-0.015508 0.077648 0.271623
-0.014314 0.078185 0.273468
-0.012015 0.072188 0.252464
-0.010810 0.072162 0.252345
-0.009636 0.072371 0.253050
-0.008416 0.072239 0.252565
-0.007230 0.072401 0.253107
-0.006043 0.072621 0.253858
-0.004815 0.072337 0.252847
-0.003632 0.072755 0.254289
-0.002426 0.072914 0.254830
-0.001222 0.073561 0.257078
0.000002 0.073129 0.255556
0.001280 0.076700 0.268024
0.002539 0.076157 0.266120
0.003811 0.076231 0.266371
0.005036 0.075572 0.264063
0.006244 0.074970 0.261956
0.007479 0.074833 0.261479
0.008699 0.074605 0.260683
0.009883 0.074163 0.259142
0.011146 0.074346 0.259788
0.012401 0.074445 0.260138
0.013650 0.074497 0.260327
0.014943 0.074756 0.261242
0.016210 0.074855 0.261602
0.017508 0.075075 0.262383
0.018876 0.075545 0.264040
0.020043 0.075198 0.262844
0.021270 0.075108 0.262548
0.022719 0.075767 0.264873
0.023925 0.075587 0.264266
0.024808 0.074457 0.260336
0.025981 0.074264 0.259686
0.027161 0.074105 0.259154
0.028218 0.073640 0.257555
0.029436 0.073618 0.257503
0.030597 0.073457 0.256970
0.031889 0.073615 0.257550
0.033126 0.073636 0.257653
0.034191 0.073288 0.256467
0.035298 0.073049 0.255665
0.036620 0.073258 0.256427
0.038446 0.074428 0.260556
0.040325 0.075625 0.264781
0.041745 0.075914 0.265828
0.042897 0.075712 0.265156
0.044303 0.075959 0.266058
0.045850 0.076426 0.267729
0.047340 0.076775 0.268987
0.048577 0.076707 0.268785
0.050538 0.077754 0.272493
0.051787 0.077683 0.272278
0.053105 0.077715 0.272430
0.054335 0.077620 0.272131
0.055633 0.077624 0.272183
0.056880 0.077559 0.271987
0.057796 0.077055 0.270256
0.058822 0.076717 0.269103
0.059909 0.076470 0.268270
0.061518 0.076886 0.269759
0.062924 0.077036 0.270318
0.064004 0.076790 0.269480
0.065541 0.077091 0.270564
0.066877 0.077147 0.270786
0.068180 0.077164 0.270873
0.069335 0.077016 0.270376
0.070645 0.077043 0.270490
0.071963 0.077077 0.270628
0.073205 0.077030 0.270478
0.074587 0.077129 0.270840
0.075976 0.077232 0.271216
0.077386 0.077353 0.271648
0.078628 0.077303 0.271480
0.080219 0.077594 0.272503
0.081406 0.077490 0.272139
0.082760 0.077546 0.272332
0.084145 0.077629 0.272618
0.085590 0.077764 0.273081
0.087197 0.078040 0.274036
0.088515 0.078052 0.274063
0.089942 0.078159 0.274414
0.094116 0.080616 0.283015
0.095345 0.080516 0.282632
0.098870 0.082331 0.288966
0.100311 0.082384 0.289113
0.101846 0.082513 0.289517
0.102997 0.082330 0.288824
0.104464 0.082402 0.289017
0.105967 0.082500 0.289295
0.107395 0.082538 0.289357
0.108761 0.082527 0.289245
0.110076 0.082479 0.288991
0.111368 0.082414 0.288675
0.112701 0.082381 0.288463
0.114044 0.082356 0.288271
0.115369 0.082319 0.288029
0.116694 0.082282 0.287782
0.118035 0.082257 0.287569
0.119445 0.082281 0.287516
0.121214 0.082549 0.288307
0.122800 0.082686 0.288634
0.124360 0.082804 0.288882
0.125714 0.082783 0.288638
0.127375 0.082962 0.289080
0.128913 0.083058 0.289222
0.130257 0.083029 0.288916
0.131871 0.083170 0.289194
0.133551 0.083350 0.289592
0.134775 0.083244 0.288986
0.136457 0.083420 0.289348
0.138171 0.083612 0.289750
0.139842 0.083774 0.290035
0.141252 0.083778 0.289757
0.143101 0.084039 0.290356
0.144507 0.084038 0.290033
0.146169 0.084184 0.290201
0.148164 0.084517 0.290997
0.149867 0.084679 0.291185
0.151338 0.084708 0.290897
0.153120 0.084909 0.291182
0.154389 0.084824 0.290468
-0.045746 0.024993 0.084824
-0.045509 0.025087 0.085261
-0.045353 0.025228 0.085852
-0.042036 0.028888 0.099982
-0.043174 0.030007 0.103896
-0.042970 0.030208 0.104630
-0.041209 0.029306 0.101542
-0.040729 0.029305 0.101572
-0.040584 0.031415 0.109041
-0.041221 0.032317 0.112190
-0.040675 0.032302 0.112156
-0.040418 0.032520 0.112926
-0.041680 0.033982 0.118015
-0.041704 0.034460 0.119686
-0.041451 0.034720 0.120595
-0.040866 0.034705 0.120550
-0.040790 0.035128 0.122025
-0.040434 0.035318 0.122688
-0.041630 0.036888 0.128144
-0.040801 0.036686 0.127439
-0.041784 0.038129 0.132451
-0.040671 0.037675 0.130869
-0.040471 0.038066 0.132220
-0.041431 0.039577 0.137461
-0.056785 0.058837 0.204260
-0.055951 0.058971 0.204699
-0.055170 0.059167 0.205354
-0.054368 0.059347 0.205951
-0.054107 0.060135 0.208655
-0.053509 0.060571 0.210134
-0.052535 0.060589 0.210164
-0.051574 0.060624 0.210251
-0.050896 0.060999 0.211515
-0.050191 0.061356 0.212714
-0.049539 0.061794 0.214195
-0.048666 0.061969 0.214759
-0.047829 0.062198 0.215513
-0.047067 0.062536 0.216643
-0.046381 0.062993 0.218180
-0.045599 0.063338 0.219332
-0.044735 0.063582 0.220131
-0.043877 0.063846 0.221002
-0.042988 0.064078 0.221756
-0.042098 0.064317 0.222540
-0.041326 0.064757 0.224013
-0.040561 0.065229 0.225598
-0.040199 0.066393 0.229577
-0.047823 0.081178 0.280639
-0.046537 0.081251 0.280834
-0.045884 0.082467 0.284975
-0.044658 0.082693 0.285699
-0.043367 0.082811 0.286046
-0.041995 0.082777 0.285871
-0.040458 0.082404 0.284523
-0.039140 0.082469 0.284689
-0.037477 0.081783 0.282266
-0.035534 0.080413 0.277481
-0.034163 0.080284 0.276984
-0.032873 0.080340 0.277124
-0.029566 0.075268 0.259582
-0.028156 0.074794 0.257897
-0.026956 0.074862 0.258086
-0.025656 0.074644 0.257290
-0.024393 0.074516 0.256806
-0.023178 0.074531 0.256815
-0.022001 0.074676 0.257274
-0.020829 0.074858 0.257859
-0.019670 0.075107 0.258680
-0.018602 0.075765 0.260907
-0.017605 0.076827 0.264529
-0.016502 0.077553 0.266992
-0.015314 0.077970 0.268395
-0.014287 0.079356 0.273132
-0.013137 0.080262 0.276221
-0.011778 0.079958 0.275144
-0.010490 0.080121 0.275679
-0.009172 0.080062 0.275451
-0.007782 0.079260 0.272667
-0.006472 0.079114 0.272142
-0.005151 0.078724 0.270780
-0.003847 0.078421 0.269720
-0.002558 0.078282 0.269226
-0.001273 0.078078 0.268512
0.000006 0.078082 0.268514
0.001281 0.077847 0.267693
0.002549 0.077653 0.267018
0.003800 0.077228 0.265550
0.005046 0.076930 0.264522
0.006271 0.076501 0.263043
0.007452 0.075769 0.260525
0.008681 0.075657 0.260141
0.009887 0.075404 0.259275
0.011127 0.075433 0.259378
0.012396 0.075640 0.260097
0.013634 0.075632 0.260077
0.014963 0.076086 0.261646
0.016218 0.076126 0.261796
0.017500 0.076276 0.262324
0.018877 0.076791 0.264111
0.020130 0.076770 0.264055
0.021304 0.076469 0.263036
0.022799 0.077288 0.265872
0.024126 0.077481 0.266556
0.024789 0.075627 0.260199
0.025735 0.074775 0.257291
0.027060 0.075050 0.258260
0.028145 0.074665 0.256959
0.029385 0.074704 0.257121
0.030648 0.074798 0.257469
0.031875 0.074800 0.257503
0.033097 0.074789 0.257496
0.034309 0.074758 0.257418
0.035450 0.074578 0.256829
0.036542 0.074312 0.255944
0.038067 0.074915 0.258049
0.040148 0.076540 0.263682
0.041296 0.076342 0.263032
0.042192 0.075703 0.260863
0.043785 0.076315 0.263006
0.044986 0.076228 0.262739
0.046118 0.076033 0.262100
0.047218 0.075797 0.261322
0.048896 0.076476 0.263696
0.050039 0.076306 0.263144
0.051539 0.076674 0.264446
0.052925 0.076860 0.265121
0.054208 0.076891 0.265258
0.055655 0.077148 0.266178
0.056924 0.077151 0.266220
0.058312 0.077314 0.266811
0.059892 0.077716 0.268231
0.061343 0.077940 0.269030
0.062725 0.078067 0.269497
0.064050 0.078120 0.269706
0.065404 0.078206 0.270027
0.066729 0.078254 0.270217
0.068075 0.078324 0.270480
0.069353 0.078316 0.270471
0.070655 0.078333 0.270550
0.071986 0.078381 0.270731
0.073343 0.078456 0.271003
0.074729 0.078559 0.271369
0.076255 0.078802 0.272218
0.077642 0.078897 0.272552
0.079051 0.079010 0.272946
0.080335 0.078996 0.272897
0.081614 0.078979 0.272833
0.082988 0.079051 0.273078
0.084098 0.078874 0.272457
0.085586 0.079051 0.273054
0.086882 0.079049 0.273031
0.088213 0.079078 0.273108
0.090098 0.079595 0.274868
0.095303 0.082988 0.286556
0.096548 0.082886 0.286168
0.098597 0.083468 0.288135
0.099823 0.083345 0.287667
0.101286 0.083422 0.287881
0.102595 0.083372 0.287650
0.104135 0.083507 0.288056
0.105718 0.083674 0.288563
0.107431 0.083937 0.289396
0.108531 0.083720 0.288568
0.109984 0.083779 0.288682
0.111258 0.083700 0.288318
0.112537 0.083628 0.287968
0.113807 0.083551 0.287593
0.115697 0.083925 0.288764
0.116714 0.083664 0.287742
0.118852 0.084203 0.289466
0.119828 0.083917 0.288340
0.121185 0.083900 0.288134
0.122777 0.084044 0.288471
0.123964 0.083912 0.287849
0.125395 0.083945 0.287785
0.126939 0.084053 0.287967
0.128521 0.084183 0.288215
0.129732 0.084069 0.287618
0.131557 0.084351 0.288364
0.133704 0.084832 0.289776
0.135100 0.084832 0.289529
0.136307 0.084713 0.288870
0.138138 0.084981 0.289514
0.139627 0.085036 0.289416
0.141448 0.085289 0.289980
0.142999 0.085375 0.289962
0.144470 0.085413 0.289765
0.146075 0.085528 0.289813
0.148189 0.085937 0.290837
0.149829 0.086065 0.290894
0.151698 0.086321 0.291364
0.153244 0.086390 0.291184
0.154696 0.086405 0.290804
-0.045761 0.025411 0.084785
-0.045365 0.025418 0.084927
-0.044924 0.025399 0.084977
-0.044705 0.025506 0.085447
-0.042438 0.029643 0.100908
-0.042983 0.030364 0.103407
-0.043002 0.030726 0.104681
-0.041560 0.030041 0.102383
-0.040902 0.029913 0.101980
-0.039606 0.029309 0.099952
-0.042219 0.032803 0.111982
-0.041101 0.032337 0.110415
-0.041307 0.032916 0.112410
-0.041114 0.033187 0.113352
-0.040195 0.032871 0.112291
-0.041466 0.034362 0.117399
-0.040617 0.034113 0.116557
-0.041220 0.035093 0.119917
-0.040655 0.035092 0.119921
-0.040747 0.035666 0.121891
-0.040660 0.036098 0.123369
-0.040803 0.036750 0.125599
-0.041327 0.037768 0.129082
-0.041513 0.038504 0.131594
-0.041148 0.038743 0.132407
-0.044880 0.042906 0.146632
-0.056110 0.060109 0.205307
-0.055370 0.060356 0.206125
-0.054757 0.060753 0.207455
-0.053862 0.060846 0.207745
-0.053051 0.061038 0.208370
-0.052307 0.061318 0.209293
-0.051373 0.061379 0.209470
-0.050677 0.061734 0.210646
-0.049968 0.062087 0.211817
-0.049285 0.062488 0.213145
-0.048463 0.062725 0.213916
-0.047730 0.063088 0.215117
-0.046988 0.063457 0.216334
-0.046190 0.063765 0.217342
-0.045429 0.064139 0.218574
-0.044563 0.064378 0.219347
-0.043744 0.064698 0.220395
-0.042858 0.064934 0.221152
-0.041966 0.065170 0.221913
-0.041183 0.065593 0.223308
-0.040353 0.065962 0.224520
-0.039702 0.066650 0.226815
-0.048465 0.083622 0.284511
-0.047162 0.083696 0.284708
-0.045874 0.083805 0.285019
-0.044625 0.083992 0.285597
-0.043301 0.084045 0.285720
-0.042042 0.084234 0.286306
-0.040409 0.083659 0.284295
-0.039093 0.083724 0.284460
-0.037654 0.083522 0.283717
-0.035641 0.081984 0.278440
-0.034641 0.082747 0.280981
-0.031168 0.077429 0.262874
-0.029446 0.076200 0.258654
-0.028135 0.075971 0.257829
-0.026964 0.076117 0.258282
-0.025658 0.075880 0.257433
-0.024396 0.075754 0.256964
-0.023187 0.075791 0.257049
-0.021997 0.075897 0.257367
-0.020818 0.076052 0.257856
-0.019673 0.076360 0.258862
-0.018577 0.076917 0.260713
-0.017595 0.078054 0.264530
-0.016386 0.078287 0.265285
-0.015424 0.079833 0.270490
-0.014285 0.080659 0.273258
-0.013112 0.081441 0.275877
-0.011755 0.081132 0.274801
-0.010469 0.081298 0.275335
-0.009153 0.081238 0.275107
-0.007766 0.080423 0.272326
-0.006458 0.080275 0.271803
-0.005139 0.079879 0.270441
-0.003837 0.079571 0.269383
-0.002551 0.079430 0.268890
-0.001267 0.079165 0.267979
0.000009 0.079133 0.267857
0.001282 0.079003 0.267406
0.002539 0.078508 0.265723
0.003808 0.078582 0.265967
0.005041 0.078070 0.264229
0.006233 0.077248 0.261444
0.007414 0.076585 0.259197
0.008628 0.076401 0.258576
0.009845 0.076289 0.258198
0.011044 0.076076 0.257480
0.012292 0.076211 0.257943
0.013579 0.076540 0.259065
0.014840 0.076681 0.259550
0.016090 0.076744 0.259775
0.017377 0.076966 0.260539
0.018816 0.077782 0.263314
0.020052 0.077713 0.263095
0.021221 0.077407 0.262077
0.022773 0.078453 0.265634
0.024124 0.078733 0.266601
0.024661 0.076460 0.258927
0.025794 0.076163 0.257940
0.026974 0.076028 0.257507
0.028097 0.075750 0.256587
0.029439 0.076059 0.257659
0.030629 0.075969 0.257378
0.031833 0.075917 0.257229
0.033068 0.075940 0.257334
0.034303 0.075961 0.257434
0.035419 0.075727 0.256668
0.036588 0.075618 0.256329
0.037947 0.075896 0.257301
0.040105 0.077704 0.263460
0.041327 0.077644 0.263288
0.042227 0.076999 0.261134
0.043671 0.077356 0.262375
0.044716 0.077006 0.261220
0.045888 0.076888 0.260851
0.046774 0.076308 0.258914
0.048279 0.076743 0.260421
0.049624 0.076907 0.261007
0.050991 0.077097 0.261685
0.052326 0.077230 0.262165
0.054023 0.077879 0.264399
0.055141 0.077682 0.263761
0.056511 0.077842 0.264332
0.058216 0.078446 0.266409
0.059639 0.078651 0.267133
0.061252 0.079095 0.268666
0.062668 0.079270 0.269287
0.063853 0.079151 0.268905
0.065244 0.079288 0.269393
0.066630 0.079413 0.269839
0.067981 0.079493 0.270129
0.069212 0.079432 0.269940
0.070595 0.079545 0.270338
0.071968 0.079642 0.270680
0.073342 0.079737 0.271012
0.074866 0.079988 0.271876
0.076294 0.080131 0.272365
0.077639 0.080182 0.272543
0.079044 0.080293 0.272919
0.080266 0.080218 0.272660
0.081612 0.080266 0.272818
0.083062 0.080414 0.273313
0.084327 0.080380 0.273184
0.085698 0.080448 0.273397
0.087175 0.080611 0.273930
0.088909 0.081003 0.275239
0.090470 0.081229 0.275977
0.094824 0.083921 0.285087
0.096065 0.083819 0.284701
0.098689 0.084911 0.288366
0.099975 0.084837 0.288065
0.101218 0.084728 0.287641
0.102819 0.084919 0.288229
0.104411 0.085097 0.288765
0.106095 0.085344 0.289532
0.107254 0.085168 0.288857
0.108902 0.085380 0.289489
0.110064 0.085210 0.288820
0.111349 0.085138 0.288478
0.112899 0.085268 0.288814
0.114153 0.085174 0.288382
0.115562 0.085197 0.288338
0.117482 0.085591 0.289542
0.118093 0.085033 0.287519
0.120135 0.085506 0.288973
0.121565 0.085539 0.288927
0.123007 0.085578 0.288897
0.124332 0.085536 0.288583
0.125768 0.085571 0.288518
0.127449 0.085769 0.288992
0.128673 0.085659 0.288418
0.130320 0.085830 0.288778
0.132168 0.086128 0.289555
0.133658 0.086190 0.289523
0.135261 0.086321 0.289714
0.136806 0.086413 0.289761
0.138303 0.086473 0.289686
0.139898 0.086593 0.289796
0.141390 0.086647 0.289673
0.142975 0.086756 0.289720
0.144541 0.086852 0.289705
0.146278 0.087047 0.290007
0.148759 0.087678 0.291738
0.150405 0.087808 0.291786
0.151539 0.087640 0.290826
0.153328 0.087850 0.291102
0.154886 0.087925 0.290910
-0.045553 0.025704 0.084331
-0.045448 0.025876 0.085015
-0.045272 0.026009 0.085572
-0.042447 0.030127 0.100896
-0.042776 0.030706 0.102878
-0.042106 0.030572 0.102471
-0.041054 0.030154 0.101108
-0.041020 0.030483 0.102248
-0.041176 0.030963 0.103892
-0.042266 0.032958 0.110678
-0.042177 0.033299 0.111851
-0.042096 0.033655 0.113070
-0.041518 0.033618 0.112967
-0.040669 0.033358 0.112112
-0.041044 0.034107 0.114649
-0.041069 0.034583 0.116263
-0.040878 0.034887 0.117299
-0.040817 0.035311 0.118736
-0.040480 0.035505 0.119399
-0.040897 0.036376 0.122335
-0.043103 0.038885 0.130778
-0.042535 0.038928 0.130929
-0.042484 0.039453 0.132696
-0.041694 0.039296 0.132169
-0.045837 0.043855 0.147499
-0.044826 0.043547 0.146459
-0.055067 0.060996 0.205026
-0.053788 0.061745 0.207492
-0.052861 0.061803 0.207660
-0.052205 0.062187 0.208921
-0.051399 0.062404 0.209618
-0.050576 0.062606 0.210267
-0.049816 0.062899 0.211216
-0.049088 0.063243 0.212337
-0.048314 0.063542 0.213304
-0.047577 0.063903 0.214481
-0.046729 0.064128 0.215198
-0.045993 0.064520 0.216473
-0.045229 0.064889 0.217671
-0.044435 0.065232 0.218779
-0.043570 0.065484 0.219584
-0.042736 0.065795 0.220586
-0.041884 0.066096 0.221550
-0.041052 0.066443 0.222672
-0.040301 0.066943 0.224305
-0.039640 0.067623 0.226537
-0.048833 0.085620 0.286772
-0.046625 0.084082 0.281565
-0.045955 0.085311 0.285623
-0.044623 0.085348 0.285693
-0.043315 0.085434 0.285924
-0.041991 0.085494 0.286069
-0.040184 0.084541 0.282825
-0.038874 0.084605 0.282989
-0.037192 0.083834 0.280357
-0.035409 0.082770 0.276747
-0.034298 0.083256 0.278321
-0.031249 0.078890 0.263678
-0.029580 0.077786 0.259944
-0.028244 0.077503 0.258953
-0.027015 0.077501 0.258901
-0.025705 0.077254 0.258033
-0.024441 0.077127 0.257569
-0.023201 0.077069 0.257335
-0.022042 0.077286 0.258020
-0.020867 0.077471 0.258601
-0.019695 0.077692 0.259301
-0.018580 0.078180 0.260894
-0.017593 0.079320 0.264662
-0.016385 0.079559 0.265428
-0.015373 0.080864 0.269750
-0.014142 0.081158 0.270699
-0.012947 0.081734 0.272589
-0.011593 0.081326 0.271200
-0.010300 0.081298 0.271084
-0.008967 0.080901 0.269734
-0.007649 0.080531 0.268477
-0.006348 0.080225 0.267438
-0.005059 0.079957 0.266525
-0.003778 0.079669 0.265547
-0.002512 0.079585 0.265253
-0.001253 0.079759 0.265818
0.000012 0.079804 0.265955
0.001279 0.079884 0.266213
0.002537 0.079607 0.265280
0.003826 0.080156 0.267103
0.005081 0.079905 0.266262
0.006212 0.078189 0.260539
0.007428 0.077928 0.259670
0.008678 0.078055 0.260091
0.009837 0.077432 0.258017
0.011076 0.077504 0.258262
0.012309 0.077523 0.258331
0.013553 0.077604 0.258606
0.014865 0.078029 0.260031
0.016049 0.077765 0.259162
0.017273 0.077723 0.259032
0.018774 0.078847 0.262789
0.020024 0.078841 0.262786
0.021209 0.078595 0.261979
0.022903 0.080159 0.267209
0.024223 0.080317 0.267756
0.024488 0.077136 0.257171
0.025597 0.076792 0.256041
0.026809 0.076769 0.255988
0.028017 0.076742 0.255920
0.029247 0.076772 0.256040
0.030438 0.076702 0.255831
0.031656 0.076702 0.255857
0.032875 0.076706 0.255893
0.034066 0.076646 0.255720
0.035228 0.076525 0.255344
0.036357 0.076344 0.254768
0.037561 0.076328 0.254741
0.039765 0.078280 0.261286
0.040977 0.078221 0.261116
0.041678 0.077217 0.257794
0.043170 0.077695 0.259419
0.044224 0.077381 0.258400
0.045092 0.076765 0.256373
0.046227 0.076625 0.255935
0.047555 0.076805 0.256562
0.048552 0.076453 0.255417
0.050021 0.076843 0.256748
0.051548 0.077302 0.258310
0.052853 0.077415 0.258714
0.054464 0.077961 0.260564
0.055815 0.078117 0.261111
0.057656 0.078938 0.263880
0.059545 0.079788 0.266746
0.061052 0.080101 0.267818
0.062587 0.080438 0.268966
0.064024 0.080638 0.269656
0.065288 0.080616 0.269600
0.066597 0.080649 0.269729
0.067867 0.080635 0.269698
0.069188 0.080681 0.269864
0.070346 0.080537 0.269397
0.071640 0.080553 0.269458
0.073108 0.080759 0.270155
0.074461 0.080834 0.270412
0.075856 0.080950 0.270803
0.077208 0.081018 0.271029
0.078442 0.080962 0.270840
0.079759 0.080992 0.270931
0.081087 0.081032 0.271055
0.082604 0.081256 0.271792
0.083945 0.081303 0.271934
0.085409 0.081466 0.272457
0.086956 0.081701 0.273221
0.088733 0.082142 0.274668
0.090579 0.082634 0.276279
0.095000 0.085427 0.285579
0.096244 0.085325 0.285193
0.098675 0.086263 0.288281
0.099995 0.086218 0.288076
0.101626 0.086437 0.288750
0.103624 0.086959 0.290429
0.104385 0.086443 0.288634
0.106179 0.086784 0.289696
0.107573 0.086795 0.289647
0.108688 0.086582 0.288848
0.110185 0.086675 0.289062
0.111562 0.086672 0.288950
0.112675 0.086467 0.288155
0.114143 0.086536 0.288268
0.115822 0.086761 0.288890
0.116865 0.086510 0.287921
0.118165 0.086453 0.287589
0.119834 0.086664 0.288141
0.121028 0.086530 0.287537
0.122784 0.086797 0.288254
0.124836 0.087264 0.289627
0.125445 0.086724 0.287645
0.127448 0.087148 0.288853
0.129179 0.087380 0.289411
0.130719 0.087478 0.289514
0.132085 0.087458 0.289218
0.133718 0.087615 0.289491
0.135367 0.087778 0.289775
0.136692 0.087730 0.289344
0.138306 0.087866 0.289512
0.139790 0.087918 0.289386
0.141498 0.088108 0.289700
0.143037 0.088190 0.289643
0.144939 0.088492 0.290293
0.147415 0.089135 0.292043
0.149090 0.089286 0.292161
0.150406 0.089221 0.291554
0.152062 0.089357 0.291585
0.153809 0.089543 0.291763
0.155216 0.089530 0.291268
-0.045499 0.026082 0.084161
-0.045190 0.026138 0.084464
-0.044959 0.026240 0.084913
-0.044898 0.026444 0.085689
-0.042262 0.030473 0.100424
-0.042530 0.031014 0.102255
-0.041621 0.030700 0.101261
-0.040966 0.030568 0.100865
-0.040816 0.030813 0.101713
-0.041138 0.031425 0.103769
-0.042927 0.033591 0.110988
-0.042457 0.033633 0.111157
-0.042366 0.033980 0.112331
-0.041916 0.034044 0.112568
-0.041082 0.033794 0.111764
-0.040854 0.034042 0.112606
-0.040702 0.034361 0.113682
-0.041239 0.035278 0.116732
-0.041366 0.035864 0.118686
-0.041448 0.036427 0.120561
-0.041136 0.036654 0.121325
-0.042894 0.038759 0.128302
-0.042344 0.038807 0.128470
-0.043190 0.040156 0.132941
-0.041851 0.039483 0.130715
-0.046356 0.044385 0.146946
-0.045721 0.044440 0.147129
-0.045085 0.044494 0.147308
-0.053864 0.062815 0.207814
-0.052924 0.062861 0.207938
-0.052156 0.063117 0.208759
-0.051199 0.063149 0.208835
-0.050472 0.063472 0.209874
-0.049772 0.063843 0.211070
-0.049006 0.064142 0.212026
-0.048270 0.064494 0.213158
-0.047442 0.064735 0.213919
-0.046573 0.064931 0.214529
-0.045787 0.065252 0.215554
-0.044977 0.065554 0.216512
-0.044162 0.065862 0.217492
-0.043351 0.066192 0.218541
-0.042569 0.066583 0.219792
-0.041785 0.066989 0.221094
-0.041090 0.067563 0.222945
-0.040390 0.068160 0.224872
-0.050065 0.086769 0.286214
-0.048756 0.086847 0.286417
-0.047353 0.086757 0.286067
-0.045998 0.086751 0.285992
-0.044584 0.086632 0.285547
-0.043373 0.086913 0.286419
-0.041973 0.086819 0.286055
-0.040135 0.085785 0.282597
-0.038827 0.085850 0.282760
-0.037356 0.085547 0.281711
-0.035522 0.084359 0.277748
-0.033676 0.083051 0.273395
-0.031466 0.080705 0.265624
-0.029643 0.079197 0.260618
-0.028246 0.078746 0.259090
-0.027004 0.078707 0.258919
-0.025668 0.078374 0.257783
-0.024415 0.078277 0.257422
-0.023220 0.078364 0.257671
-0.022011 0.078415 0.257799
-0.020871 0.078727 0.258789
-0.019722 0.079045 0.259797
-0.018569 0.079388 0.260889
-0.017600 0.080621 0.264909
-0.016273 0.080284 0.263769
-0.015140 0.080920 0.265826
-0.013921 0.081176 0.266637
-0.012661 0.081220 0.266753
-0.011399 0.081261 0.266861
-0.010097 0.080988 0.265940
-0.008827 0.080931 0.265730
-0.007507 0.080318 0.263695
-0.006251 0.080289 0.263579
-0.004988 0.080126 0.263028
-0.003727 0.079910 0.262301
-0.002494 0.080383 0.263837
-0.001240 0.080430 0.263979
0.000016 0.080630 0.264624
0.001276 0.080717 0.264898
0.002534 0.080646 0.264656
0.003821 0.081243 0.266611
0.005090 0.081249 0.266623
0.006207 0.079314 0.260271
0.007428 0.079126 0.259651
0.008679 0.079270 0.260123
0.009861 0.078827 0.258672
0.011067 0.078646 0.258081
0.012347 0.078977 0.259172
0.013588 0.079020 0.259317
0.014793 0.078863 0.258812
0.016088 0.079177 0.259849
0.017281 0.078977 0.259204
0.018647 0.079540 0.261061
0.020067 0.080249 0.263404
0.021343 0.080334 0.263698
0.022967 0.081646 0.268020
0.024313 0.081883 0.268816
0.025581 0.081845 0.268710
0.025422 0.077464 0.254345
0.026683 0.077612 0.254850
0.027941 0.077739 0.255287
0.029064 0.077493 0.254500
0.030345 0.077672 0.255109
0.031586 0.077740 0.255356
0.032799 0.077735 0.255364
0.034014 0.077734 0.255384
0.035224 0.077724 0.255377
0.036424 0.077692 0.255297
0.037643 0.077701 0.255352
0.039692 0.079369 0.260861
0.040902 0.079309 0.260692
0.041584 0.078258 0.257266
0.042922 0.078468 0.257982
0.043669 0.077616 0.255206
0.044570 0.077074 0.253453
0.045671 0.076900 0.252905
0.046892 0.076929 0.253030
0.047841 0.076522 0.251716
0.049121 0.076652 0.252169
0.050816 0.077409 0.254683
0.051911 0.077236 0.254138
0.053542 0.077851 0.256185
0.055078 0.078304 0.257700
0.056816 0.079016 0.260066
0.058827 0.080071 0.263561
0.060559 0.080710 0.265683
0.062146 0.081133 0.267096
0.063679 0.081471 0.268225
0.065088 0.081638 0.268793
0.066443 0.081734 0.269125
0.067675 0.081677 0.268949
0.068966 0.081693 0.269011
0.070383 0.081854 0.269551
0.071681 0.081873 0.269621
0.073031 0.081949 0.269876
0.074357 0.081997 0.270036
0.075614 0.081968 0.269939
0.076917 0.081990 0.270006
0.078264 0.082056 0.270218
0.079661 0.082172 0.270590
0.081080 0.082306 0.271017
0.082536 0.082473 0.271553
0.084191 0.082831 0.272710
0.085819 0.083151 0.273740
0.087499 0.083511 0.274900
0.089093 0.083781 0.275754
0.091114 0.084437 0.277877
0.095095 0.086865 0.285826
0.096341 0.086762 0.285440
0.098850 0.087783 0.288747
0.100045 0.087625 0.288169
0.102907 0.088912 0.292335
0.103718 0.088415 0.290632
0.104775 0.088139 0.289650
0.105612 0.087687 0.288083
0.107542 0.088143 0.289493
0.108838 0.088073 0.289169
0.110116 0.087991 0.288800
0.111431 0.087940 0.288525
0.112856 0.087977 0.288529
0.114131 0.087896 0.288142
0.115620 0.087980 0.288287
0.116994 0.087976 0.288136
0.118353 0.087961 0.287938
0.119809 0.088017 0.287965
0.121168 0.088001 0.287749
0.122730 0.088132 0.288003
0.124208 0.088199 0.288039
0.125959 0.088457 0.288687
0.127456 0.088533 0.288729
0.129597 0.089049 0.290198
0.131144 0.089151 0.290302
0.132914 0.089400 0.290872
0.134070 0.089236 0.290085
0.135542 0.089283 0.289974
0.137200 0.089449 0.290238
0.138427 0.089335 0.289577
0.140050 0.089475 0.289729
0.141549 0.089535 0.289602
0.143553 0.089909 0.290478
0.145356 0.090151 0.290911
