ply
format ascii 1.0
element vertex 1680
property float x
property float y
property float z
end_header
-0.098902 -0.046667 0.291203
-0.097552 -0.046677 0.291199
-0.096228 -0.046700 0.291270
-0.094973 -0.046757 0.291554
-0.093335 -0.046624 0.290652
-0.092040 -0.046662 0.290804
-0.090643 -0.046648 0.290635
-0.089341 -0.046683 0.290771
-0.088097 -0.046751 0.291104
-0.086754 -0.046767 0.291114
-0.085274 -0.046709 0.290658
-0.083935 -0.046727 0.290675
-0.082643 -0.046773 0.290861
-0.081273 -0.046776 0.290775
-0.079958 -0.046810 0.290887
-0.078658 -0.046855 0.291063
-0.077342 -0.046892 0.291184
-0.075979 -0.046901 0.291132
-0.074512 -0.046845 0.290676
-0.073239 -0.046912 0.290979
-0.071864 -0.046914 0.290882
-0.070414 -0.046866 0.290475
-0.069222 -0.046992 0.291142
-0.067878 -0.047018 0.291188
-0.066435 -0.046975 0.290807
-0.065139 -0.047037 0.291072
-0.063750 -0.047032 0.290929
-0.062349 -0.047018 0.290728
-0.060940 -0.046998 0.290488
-0.059590 -0.047023 0.290529
-0.058097 -0.046934 0.289862
-0.056840 -0.047036 0.290379
-0.055434 -0.047017 0.290146
-0.054091 -0.047052 0.290247
-0.052788 -0.047124 0.290577
-0.051404 -0.047126 0.290476
-0.050069 -0.047174 0.290665
-0.048660 -0.047153 0.290426
-0.047294 -0.047174 0.290445
-0.045823 -0.047089 0.289813
-0.044422 -0.047073 0.289607
-0.043031 -0.047066 0.289462
-0.041570 -0.046979 0.288825
-0.040168 -0.046956 0.288585
-0.038789 -0.046960 0.288507
-0.037358 -0.046898 0.288030
-0.035970 -0.046888 0.287874
-0.034535 -0.046814 0.287331
-0.033123 -0.046765 0.286941
-0.031496 -0.046396 0.284590
-0.030147 -0.046422 0.284665
-0.028848 -0.046530 0.285246
-0.027463 -0.046505 0.285011
-0.026114 -0.046542 0.285162
-0.024774 -0.046598 0.285432
-0.023436 -0.046666 0.285778
-0.022055 -0.046651 0.285617
-0.020694 -0.046679 0.285724
-0.019336 -0.046718 0.285906
-0.017901 -0.046566 0.284914
-0.016552 -0.046626 0.285227
-0.015168 -0.046593 0.284974
-0.013757 -0.046464 0.284136
-0.012410 -0.046544 0.284575
-0.011048 -0.046583 0.284776
-0.009655 -0.046481 0.284111
-0.008292 -0.046519 0.284305
-0.006934 -0.046596 0.284748
-0.005560 -0.046591 0.284691
-0.004190 -0.046614 0.284805
-0.002812 -0.046540 0.284333
-0.001445 -0.046673 0.285124
-0.000069 -0.046637 0.284892
0.001302 -0.046533 0.284247
0.002682 -0.046688 0.285185
0.004055 -0.046653 0.284966
0.005441 -0.046752 0.285573
0.006826 -0.046799 0.285861
0.008212 -0.046838 0.286103
0.009583 -0.046792 0.285835
0.010982 -0.046874 0.286350
0.012344 -0.046799 0.285908
0.013733 -0.046834 0.286145
0.015141 -0.046918 0.286682
0.016516 -0.046893 0.286557
0.017893 -0.046880 0.286510
0.019270 -0.046868 0.286469
0.020664 -0.046896 0.286674
0.021984 -0.046762 0.285897
0.023301 -0.046638 0.285181
0.024877 -0.047018 0.287552
0.025989 -0.046526 0.284591
0.027344 -0.046497 0.284466
0.028836 -0.046693 0.285719
0.030153 -0.046600 0.285212
0.031670 -0.046811 0.286562
0.033121 -0.046910 0.287230
0.034490 -0.046891 0.287178
0.035857 -0.046870 0.287116
0.037281 -0.046922 0.287508
0.038635 -0.046886 0.287357
0.040058 -0.046933 0.287717
0.041461 -0.046953 0.287921
0.042855 -0.046963 0.288056
0.044260 -0.046983 0.288263
0.045663 -0.047001 0.288450
0.047059 -0.047010 0.288592
0.048540 -0.047101 0.289236
0.050008 -0.047175 0.289776
0.051345 -0.047125 0.289556
0.052746 -0.047134 0.289700
0.054120 -0.047120 0.289700
0.055489 -0.047101 0.289677
0.056870 -0.047094 0.289722
0.058272 -0.047104 0.289874
0.060198 -0.047527 0.292572
0.061819 -0.047695 0.293700
0.062988 -0.047515 0.292684
0.064205 -0.047379 0.291937
0.065498 -0.047303 0.291559
0.066946 -0.047339 0.291877
0.068154 -0.047208 0.291162
0.069520 -0.047189 0.291136
0.070955 -0.047218 0.291401
0.072312 -0.047194 0.291342
0.073811 -0.047262 0.291850
0.075123 -0.047209 0.291613
0.076629 -0.047278 0.292128
0.078092 -0.047319 0.292463
0.079373 -0.047250 0.292119
0.080759 -0.047245 0.292168
0.082176 -0.047258 0.292330
0.083565 -0.047254 0.292385
0.085380 -0.047488 0.293904
0.087150 -0.047689 0.295224
0.088746 -0.047790 0.295921
0.090096 -0.047758 0.295789
0.091210 -0.047603 0.294896
0.092654 -0.047623 0.295082
0.094012 -0.047598 0.294989
0.094909 -0.047345 0.293471
0.095973 -0.047180 0.292505
0.097052 -0.047028 0.291608
0.098368 -0.046993 0.291438
0.100012 -0.047114 0.292224
0.100960 -0.046908 0.290981
0.102267 -0.046872 0.290789
0.104355 -0.047190 0.292792
0.105611 -0.047129 0.292433
0.106739 -0.047012 0.291727
0.108192 -0.047041 0.291913
0.109649 -0.047069 0.292098
0.111137 -0.047111 0.292356
0.112766 -0.047210 0.292968
0.114016 -0.047151 0.292587
0.115397 -0.047146 0.292539
0.116796 -0.047148 0.292531
0.117991 -0.047069 0.292010
0.119385 -0.047070 0.291982
0.120685 -0.047035 0.291718
0.122038 -0.047021 0.291580
0.123509 -0.047052 0.291713
0.125172 -0.047155 0.292284
0.126581 -0.047161 0.292245
0.127841 -0.047112 0.291857
0.129631 -0.047257 0.292665
0.130965 -0.047234 0.292422
0.132379 -0.047241 0.292353
0.133964 -0.047308 0.292646
0.135512 -0.047360 0.292840
0.136869 -0.047345 0.292610
0.138153 -0.047306 0.292216
0.139497 -0.047288 0.291942
0.140819 -0.047262 0.291612
0.142308 -0.047293 0.291616
0.143827 -0.047332 0.291667
0.145042 -0.047272 0.291089
0.147261 -0.047538 0.292502
0.148930 -0.047622 0.292785
0.150278 -0.047603 0.292421
0.151839 -0.047652 0.292455
0.153331 -0.047677 0.292335
-0.139155 -0.041029 0.261438
-0.137964 -0.041043 0.261753
-0.136755 -0.041051 0.262023
-0.135780 -0.041131 0.262736
-0.134753 -0.041196 0.263347
-0.133738 -0.041266 0.263978
-0.132906 -0.041395 0.264971
-0.132032 -0.041512 0.265887
-0.131079 -0.041607 0.266648
-0.130231 -0.041738 0.267626
-0.129396 -0.041875 0.268639
-0.128235 -0.041909 0.268979
-0.127129 -0.041961 0.269428
-0.126388 -0.042136 0.270659
-0.125263 -0.042186 0.271074
-0.123944 -0.042170 0.271062
-0.123368 -0.042410 0.272684
-0.122409 -0.042521 0.273473
-0.123044 -0.043195 0.277871
-0.122099 -0.043323 0.278749
-0.127179 -0.045614 0.293545
-0.126454 -0.045851 0.295114
-0.126700 -0.046448 0.298999
-0.124983 -0.046332 0.298282
-0.120246 -0.045081 0.290249
-0.118216 -0.044827 0.288634
-0.117077 -0.044910 0.289176
-0.115912 -0.044985 0.289660
-0.114901 -0.045121 0.290536
-0.113620 -0.045155 0.290740
-0.112210 -0.045136 0.290606
-0.110842 -0.045135 0.290577
-0.109486 -0.045138 0.290573
-0.108390 -0.045250 0.291262
-0.106844 -0.045175 0.290741
-0.105331 -0.045112 0.290294
-0.103774 -0.045028 0.289710
-0.102599 -0.045110 0.290187
-0.101420 -0.045193 0.290662
-0.100095 -0.045212 0.290725
-0.098895 -0.045288 0.291152
-0.097552 -0.045301 0.291165
-0.096231 -0.045324 0.291243
-0.094760 -0.045276 0.290863
-0.093316 -0.045240 0.290553
-0.091998 -0.045266 0.290633
-0.090642 -0.045272 0.290591
-0.089372 -0.045323 0.290827
-0.088039 -0.045343 0.290864
-0.086684 -0.045352 0.290828
-0.085240 -0.045314 0.290490
-0.083859 -0.045308 0.290357
-0.082514 -0.045323 0.290349
-0.081227 -0.045370 0.290552
-0.079978 -0.045441 0.290898
-0.078533 -0.045401 0.290538
-0.077163 -0.045404 0.290445
-0.075992 -0.045526 0.291117
-0.074566 -0.045496 0.290818
-0.073133 -0.045462 0.290486
-0.071796 -0.045488 0.290536
-0.070388 -0.045467 0.290293
-0.069043 -0.045489 0.290313
-0.067646 -0.045476 0.290115
-0.066310 -0.045504 0.290182
-0.064980 -0.045538 0.290280
-0.063596 -0.045535 0.290144
-0.062317 -0.045608 0.290494
-0.060912 -0.045591 0.290268
-0.059552 -0.045607 0.290250
-0.058253 -0.045672 0.290547
-0.056786 -0.045605 0.290007
-0.055502 -0.045686 0.290406
-0.054211 -0.045765 0.290791
-0.052799 -0.045743 0.290537
-0.051457 -0.045783 0.290676
-0.050108 -0.045818 0.290785
-0.048763 -0.045858 0.290931
-0.047365 -0.045851 0.290774
-0.045753 -0.045630 0.289263
-0.044374 -0.045634 0.289181
-0.043009 -0.045654 0.289202
-0.041675 -0.045708 0.289446
-0.040254 -0.045668 0.289089
-0.038850 -0.045646 0.288846
-0.038692 -0.047139 0.298196
-0.037296 -0.047182 0.298367
-0.035135 -0.046220 0.292192
-0.033641 -0.046094 0.291305
-0.032247 -0.046099 0.291247
-0.030773 -0.045987 0.290448
-0.029277 -0.045828 0.289362
-0.027873 -0.045805 0.289136
-0.026368 -0.045606 0.287800
-0.024927 -0.045500 0.287059
-0.023542 -0.045490 0.286925
-0.022082 -0.045327 0.285828
-0.020720 -0.045355 0.285935
-0.019379 -0.045437 0.286392
-0.017982 -0.045391 0.286044
-0.016616 -0.045423 0.286189
-0.015250 -0.045459 0.286360
-0.013875 -0.045473 0.286401
-0.012493 -0.045468 0.286319
-0.011090 -0.045375 0.285691
-0.009706 -0.045339 0.285426
-0.008332 -0.045351 0.285470
-0.006944 -0.045276 0.284961
-0.005569 -0.045271 0.284903
-0.004198 -0.045305 0.285093
-0.002824 -0.045340 0.285290
-0.001448 -0.045351 0.285338
-0.000071 -0.045316 0.285105
0.001302 -0.045240 0.284619
0.002683 -0.045365 0.285398
0.004058 -0.045331 0.285179
0.005446 -0.045428 0.285787
0.006832 -0.045473 0.286075
0.008220 -0.045510 0.286317
0.009592 -0.045466 0.286049
0.010993 -0.045546 0.286564
0.012356 -0.045472 0.286121
0.013747 -0.045507 0.286358
0.015157 -0.045588 0.286896
0.016533 -0.045564 0.286770
0.017912 -0.045551 0.286723
0.019290 -0.045539 0.286682
0.020686 -0.045566 0.286887
0.022007 -0.045436 0.286109
0.023325 -0.045315 0.285393
0.024903 -0.045684 0.287765
0.026016 -0.045206 0.284801
0.027373 -0.045178 0.284676
0.028866 -0.045368 0.285930
0.030185 -0.045278 0.285421
0.031704 -0.045482 0.286772
0.033155 -0.045578 0.287440
0.034526 -0.045559 0.287388
0.035894 -0.045538 0.287325
0.037320 -0.045589 0.287717
0.038675 -0.045554 0.287566
0.040100 -0.045599 0.287926
0.041504 -0.045619 0.288129
0.042899 -0.045627 0.288264
0.044305 -0.045647 0.288471
0.045709 -0.045664 0.288657
0.047106 -0.045673 0.288799
0.048588 -0.045761 0.289443
0.050058 -0.045832 0.289983
0.051396 -0.045784 0.289762
0.052798 -0.045792 0.289906
0.054173 -0.045778 0.289906
0.055543 -0.045759 0.289881
0.056925 -0.045752 0.289926
0.058328 -0.045761 0.290078
0.060255 -0.046172 0.292777
0.061877 -0.046335 0.293905
0.063047 -0.046160 0.292888
0.064265 -0.046027 0.292140
0.065558 -0.045952 0.291761
0.067007 -0.045988 0.292079
0.068216 -0.045860 0.291363
0.069582 -0.045841 0.291337
0.071018 -0.045868 0.291601
0.072376 -0.045845 0.291542
0.073876 -0.045910 0.292049
0.075188 -0.045859 0.291812
0.076695 -0.045926 0.292327
0.078158 -0.045965 0.292661
0.079440 -0.045897 0.292317
0.080826 -0.045892 0.292365
0.082244 -0.045904 0.292526
0.083634 -0.045901 0.292581
0.085449 -0.046127 0.294101
0.087220 -0.046322 0.295421
0.088816 -0.046420 0.296118
0.090167 -0.046388 0.295985
0.091281 -0.046237 0.295092
0.092725 -0.046256 0.295277
0.094083 -0.046232 0.295184
0.097379 -0.047147 0.301081
0.098662 -0.047074 0.300675
0.099940 -0.047002 0.300264
0.098181 -0.045523 0.290862
0.099406 -0.045450 0.290437
0.101388 -0.045720 0.292201
0.102597 -0.045639 0.291716
0.103648 -0.045491 0.290798
0.105428 -0.045662 0.291917
0.106842 -0.045672 0.292003
0.108018 -0.045582 0.291439
0.109715 -0.045711 0.292273
0.111357 -0.045814 0.292937
0.112591 -0.045749 0.292515
0.113842 -0.045692 0.292145
0.115209 -0.045683 0.292070
0.116375 -0.045595 0.291487
0.117798 -0.045609 0.291545
0.119219 -0.045621 0.291592
0.120583 -0.045612 0.291490
0.122201 -0.045698 0.291991
0.123334 -0.045602 0.291325
0.125149 -0.045758 0.292256
0.126541 -0.045758 0.292182
0.128193 -0.045851 0.292692
0.129654 -0.045874 0.292749
0.131067 -0.045879 0.292688
0.132574 -0.045917 0.292823
0.134133 -0.045973 0.293059
0.135603 -0.045996 0.293083
0.136931 -0.045972 0.292792
0.138381 -0.045989 0.292750
0.139672 -0.045953 0.292362
0.141263 -0.046015 0.292589
0.142573 -0.045986 0.292223
0.143816 -0.045936 0.291711
0.145489 -0.046022 0.292056
0.147642 -0.046258 0.293331
0.149223 -0.046311 0.293437
0.150209 -0.046181 0.292365
0.151779 -0.046230 0.292421
0.153277 -0.046257 0.292319
-0.139034 -0.039749 0.261279
-0.137555 -0.039679 0.261042
-0.136535 -0.039741 0.261665
-0.135453 -0.039786 0.262163
-0.134364 -0.039830 0.262643
-0.133509 -0.039945 0.263578
-0.132501 -0.040015 0.264214
-0.131682 -0.040145 0.265230
-0.130748 -0.040242 0.266019
-0.129844 -0.040350 0.266875
-0.128959 -0.040467 0.267773
-0.127953 -0.040547 0.268425
-0.127012 -0.040650 0.269216
-0.125852 -0.040683 0.269543
-0.125004 -0.040820 0.270543
-0.124091 -0.040938 0.271412
-0.122014 -0.040671 0.269716
-0.120935 -0.040734 0.270203
-0.122919 -0.041841 0.277610
-0.121978 -0.041965 0.278492
-0.120775 -0.042002 0.278780
-0.119957 -0.042174 0.279965
-0.123539 -0.043914 0.291553
-0.122058 -0.043874 0.291310
-0.121839 -0.044291 0.294102
-0.122743 -0.045131 0.299691
-0.121529 -0.045202 0.300175
-0.120312 -0.045274 0.300654
-0.115561 -0.044002 0.292201
-0.113491 -0.043734 0.290405
-0.111907 -0.043647 0.289813
-0.110678 -0.043699 0.290136
-0.109505 -0.043775 0.290610
-0.108122 -0.043767 0.290527
-0.106913 -0.043831 0.290911
-0.105497 -0.043811 0.290734
-0.104024 -0.043766 0.290387
-0.102556 -0.043722 0.290041
-0.101124 -0.043693 0.289790
-0.100080 -0.043832 0.290652
-0.098713 -0.043832 0.290588
-0.097026 -0.043688 0.289563
-0.095804 -0.043752 0.289917
-0.094470 -0.043767 0.289936
-0.092985 -0.043710 0.289483
-0.091773 -0.043783 0.289881
-0.090523 -0.043839 0.290164
-0.089009 -0.043768 0.289602
-0.087677 -0.043784 0.289621
-0.086510 -0.043886 0.290197
-0.085110 -0.043870 0.289994
-0.083206 -0.043590 0.288045
-0.082561 -0.043971 0.290459
-0.081165 -0.043959 0.290273
-0.079822 -0.043974 0.290271
-0.078622 -0.044072 0.290805
-0.077083 -0.043978 0.290079
-0.075128 -0.043641 0.287743
-0.074104 -0.043841 0.288952
-0.073014 -0.044009 0.289945
-0.071536 -0.043945 0.289410
-0.070316 -0.044041 0.289923
-0.069042 -0.044106 0.290233
-0.067702 -0.044130 0.290279
-0.066409 -0.044187 0.290534
-0.065014 -0.044177 0.290351
-0.063623 -0.044170 0.290183
-0.062282 -0.044197 0.290246
-0.060954 -0.044236 0.290379
-0.059430 -0.044130 0.289567
-0.058110 -0.044175 0.289744
-0.056913 -0.044318 0.290563
-0.055415 -0.044228 0.289854
-0.054065 -0.044254 0.289910
-0.052785 -0.044341 0.290362
-0.051410 -0.044350 0.290307
-0.049995 -0.044325 0.290029
-0.048591 -0.044308 0.289805
-0.047255 -0.044354 0.289997
-0.045786 -0.044274 0.289366
-0.044439 -0.044311 0.289496
-0.043061 -0.044318 0.289439
-0.041646 -0.044287 0.289131
-0.040328 -0.044361 0.289508
-0.039639 -0.045156 0.294592
-0.038263 -0.045198 0.294767
-0.036554 -0.044836 0.292308
-0.035174 -0.044865 0.292398
-0.033679 -0.044743 0.291511
-0.032284 -0.044748 0.291454
-0.030808 -0.044639 0.290654
-0.029311 -0.044485 0.289568
-0.027905 -0.044463 0.289342
-0.026399 -0.044269 0.288005
-0.024956 -0.044167 0.287265
-0.023570 -0.044158 0.287131
-0.022104 -0.043990 0.285970
-0.020744 -0.044026 0.286139
-0.019402 -0.044107 0.286598
-0.018004 -0.044062 0.286251
-0.016637 -0.044094 0.286396
-0.015269 -0.044128 0.286567
-0.013892 -0.044142 0.286608
-0.012509 -0.044137 0.286527
-0.011105 -0.044047 0.285898
-0.009719 -0.044012 0.285633
-0.008343 -0.044024 0.285677
-0.006953 -0.043947 0.285143
-0.005573 -0.043919 0.284931
-0.004204 -0.043980 0.285301
-0.002830 -0.044013 0.285498
-0.001449 -0.043944 0.285032
-0.000073 -0.043874 0.284559
0.001302 -0.043917 0.284826
0.002670 -0.043794 0.284025
0.004037 -0.043750 0.283731
0.005423 -0.043883 0.284600
0.006783 -0.043790 0.283996
0.008157 -0.043801 0.284074
0.009537 -0.043840 0.284341
0.010907 -0.043827 0.284271
0.012294 -0.043877 0.284615
0.013672 -0.043889 0.284711
0.015044 -0.043880 0.284676
0.016426 -0.043901 0.284842
0.017791 -0.043874 0.284700
0.019107 -0.043740 0.283865
0.020447 -0.043676 0.283488
0.021831 -0.043707 0.283732
0.023100 -0.043519 0.282552
0.024379 -0.043368 0.281621
0.025921 -0.043676 0.283668
0.027352 -0.043777 0.284377
0.028698 -0.043736 0.284170
0.030097 -0.043778 0.284499
0.031501 -0.043823 0.284854
0.032766 -0.043678 0.283977
0.034111 -0.043648 0.283847
0.035396 -0.043545 0.283246
0.036706 -0.043480 0.282900
0.037872 -0.043255 0.281507
0.039327 -0.043365 0.282297
0.040524 -0.043192 0.281246
0.041806 -0.043117 0.280836
0.043429 -0.043389 0.282689
0.044656 -0.043260 0.281930
0.046084 -0.043327 0.282454
0.047590 -0.043462 0.283418
0.049221 -0.043700 0.285057
0.050547 -0.043662 0.284898
0.051830 -0.043589 0.284515
0.053529 -0.043861 0.286381
0.054879 -0.043841 0.286342
0.056148 -0.043759 0.285897
0.057295 -0.043588 0.284873
0.058689 -0.043608 0.285096
0.059926 -0.043513 0.284568
0.060851 -0.043201 0.282624
0.061931 -0.043010 0.281464
0.063174 -0.042938 0.281088
0.064413 -0.042866 0.280709
0.065727 -0.042846 0.280670
0.067135 -0.042888 0.281033
0.068582 -0.042951 0.281541
0.069991 -0.042989 0.281880
0.071468 -0.043066 0.282474
0.073409 -0.043416 0.284854
0.075598 -0.043896 0.288094
0.076863 -0.043832 0.287763
0.078410 -0.043929 0.288482
0.080065 -0.044081 0.289567
0.081139 -0.043914 0.288552
0.082240 -0.043766 0.287664
0.083565 -0.043741 0.287575
0.084789 -0.043665 0.287150
0.086083 -0.043626 0.286967
0.087457 -0.043629 0.287057
0.089105 -0.043766 0.288025
0.090146 -0.043605 0.287032
0.091896 -0.043787 0.288291
0.093583 -0.043934 0.289317
0.096520 -0.044655 0.294123
0.097821 -0.044610 0.293875
0.099353 -0.044669 0.294313
0.100013 -0.044340 0.292191
0.101317 -0.044302 0.291979
0.102599 -0.044255 0.291708
0.104048 -0.044281 0.291907
0.105144 -0.044157 0.291121
0.106771 -0.044257 0.291800
0.108084 -0.044226 0.291612
0.109269 -0.044144 0.291082
0.110892 -0.044239 0.291712
0.112266 -0.044233 0.291674
0.113795 -0.044288 0.292029
0.115226 -0.044304 0.292121
0.116233 -0.044158 0.291141
0.117753 -0.044208 0.291447
0.119546 -0.044359 0.292406
0.120922 -0.044352 0.292326
0.122115 -0.044280 0.291804
0.123484 -0.044273 0.291699
0.125110 -0.044356 0.292189
0.126669 -0.044415 0.292504
0.127853 -0.044342 0.291946
0.129581 -0.044457 0.292618
0.130990 -0.044461 0.292551
0.132278 -0.044425 0.292208
0.133705 -0.044436 0.292164
0.135285 -0.044497 0.292441
0.136602 -0.044470 0.292133
0.138272 -0.044559 0.292569
0.139384 -0.044467 0.291812
0.140806 -0.044475 0.291699
0.142744 -0.044645 0.292632
0.144556 -0.044771 0.293273
0.145844 -0.044735 0.292834
0.147404 -0.044782 0.292927
0.148943 -0.044822 0.292959
0.150239 -0.044789 0.292499
0.151645 -0.044789 0.292243
0.153348 -0.044875 0.292538
-0.138467 -0.038348 0.260278
-0.137444 -0.038406 0.260893
-0.136376 -0.038452 0.261419
-0.135167 -0.038459 0.261666
-0.134159 -0.038524 0.262294
-0.133195 -0.038603 0.263009
-0.132238 -0.038686 0.263739
-0.131360 -0.038793 0.264627
-0.130495 -0.038907 0.265549
-0.129558 -0.039001 0.266327
-0.128754 -0.039137 0.267385
-0.127750 -0.039215 0.268034
-0.126790 -0.039308 0.268778
-0.125821 -0.039400 0.269508
-0.124854 -0.039494 0.270247
-0.123923 -0.039603 0.271070
-0.122830 -0.039661 0.271543
-0.122018 -0.039811 0.272643
-0.122132 -0.040271 0.275851
-0.121381 -0.040452 0.277146
-0.120532 -0.040604 0.278233
-0.119752 -0.040784 0.279499
-0.119192 -0.041042 0.281302
-0.118901 -0.041400 0.283783
-0.118637 -0.041776 0.286378
-0.117584 -0.041880 0.287098
-0.116977 -0.042146 0.288931
-0.117938 -0.042991 0.294721
-0.116393 -0.042931 0.294302
-0.115400 -0.043076 0.295283
-0.112063 -0.042339 0.290209
-0.110755 -0.042360 0.290329
-0.109314 -0.042330 0.290090
-0.108025 -0.042359 0.290252
-0.106906 -0.042456 0.290878
-0.105519 -0.042448 0.290776
-0.104207 -0.042470 0.290877
-0.102947 -0.042514 0.291124
-0.101566 -0.042509 0.291029
-0.100282 -0.042545 0.291212
-0.099065 -0.042610 0.291594
-0.096878 -0.042255 0.289089
-0.095811 -0.042385 0.289904
-0.094404 -0.042366 0.289696
-0.092991 -0.042344 0.289465
-0.091446 -0.042261 0.288808
-0.089999 -0.042220 0.288444
-0.088805 -0.042299 0.288894
-0.086906 -0.042040 0.287029
-0.084567 -0.041556 0.283630
-0.083584 -0.041734 0.284745
-0.082310 -0.041770 0.284892
-0.080939 -0.041757 0.284701
-0.080034 -0.041988 0.286170
-0.078564 -0.041926 0.285641
-0.077376 -0.042014 0.286136
-0.076400 -0.042223 0.287449
-0.075016 -0.042210 0.287249
-0.073812 -0.042300 0.287745
-0.072602 -0.042389 0.288240
-0.071324 -0.042442 0.288483
-0.070099 -0.042529 0.288959
-0.068846 -0.042603 0.289339
-0.067553 -0.042653 0.289565
-0.066273 -0.042715 0.289861
-0.064991 -0.042778 0.290169
-0.063732 -0.042859 0.290600
-0.062373 -0.042875 0.290587
-0.061040 -0.042910 0.290703
-0.059723 -0.042958 0.290911
-0.058330 -0.042952 0.290751
-0.056934 -0.042945 0.290581
-0.055505 -0.042911 0.290233
-0.054160 -0.042942 0.290327
-0.052742 -0.042916 0.290029
-0.051313 -0.042879 0.289662
-0.049962 -0.042906 0.289736
-0.048648 -0.042969 0.290046
-0.047244 -0.042953 0.289825
-0.045867 -0.042961 0.289767
-0.044540 -0.043019 0.290046
-0.043159 -0.043027 0.289989
-0.041743 -0.042999 0.289696
-0.039980 -0.042599 0.286896
-0.039343 -0.043413 0.292280
-0.037977 -0.043454 0.292455
-0.036734 -0.043644 0.293628
-0.035331 -0.043651 0.293579
-0.033863 -0.043576 0.292985
-0.032566 -0.043724 0.293884
-0.031146 -0.043712 0.293713
-0.029697 -0.043657 0.293260
-0.028262 -0.043618 0.292909
-0.026782 -0.043502 0.292053
-0.025304 -0.043377 0.291133
-0.023811 -0.043210 0.289941
-0.022363 -0.043109 0.289189
-0.020927 -0.043020 0.288527
-0.019487 -0.042908 0.287708
-0.018039 -0.042761 0.286663
-0.016645 -0.042730 0.286401
-0.015301 -0.042832 0.287030
-0.013897 -0.042768 0.286552
-0.012511 -0.042756 0.286423
-0.011156 -0.042857 0.287054
-0.009775 -0.042873 0.287122
-0.008392 -0.042884 0.287161
-0.007009 -0.042903 0.287252
-0.005615 -0.042844 0.286829
-0.004230 -0.042839 0.286770
-0.002843 -0.042806 0.286528
-0.001457 -0.042752 0.286149
-0.000076 -0.042718 0.285901
0.001299 -0.042513 0.284522
0.002673 -0.042502 0.284439
0.004046 -0.042501 0.284429
0.005411 -0.042425 0.283922
0.006795 -0.042504 0.284453
0.008170 -0.042509 0.284498
0.009555 -0.042555 0.284815
0.010931 -0.042554 0.284825
0.012339 -0.042664 0.285578
0.013716 -0.042657 0.285552
0.015073 -0.042594 0.285156
0.016418 -0.042509 0.284617
0.017771 -0.042458 0.284304
0.019108 -0.042377 0.283801
0.020529 -0.042482 0.284543
0.021793 -0.042269 0.283153
0.023082 -0.042127 0.282247
0.024666 -0.042507 0.284842
0.025932 -0.042329 0.283699
0.027205 -0.042180 0.282756
0.028765 -0.042468 0.284747
0.030126 -0.042450 0.284687
0.031515 -0.042471 0.284887
0.032922 -0.042513 0.285238
0.034357 -0.042588 0.285806
0.035688 -0.042532 0.285499
0.037109 -0.042583 0.285918
0.038451 -0.042544 0.285729
0.039710 -0.042418 0.284959
0.041092 -0.042427 0.285101
0.042010 -0.041973 0.282131
0.043558 -0.042156 0.283442
0.044971 -0.042202 0.283837
0.046280 -0.042151 0.283576
0.047937 -0.042409 0.285403
0.049384 -0.042473 0.285924
0.050790 -0.042499 0.286188
0.052147 -0.042484 0.286180
0.053554 -0.042510 0.286444
0.054726 -0.042352 0.285473
0.055831 -0.042151 0.284211
0.057102 -0.042082 0.283844
0.058261 -0.041936 0.282951
0.059253 -0.041678 0.281305
0.059990 -0.041257 0.278557
0.060819 -0.040917 0.276351
0.062231 -0.040974 0.276832
0.063529 -0.040955 0.276797
0.064760 -0.040895 0.276483
0.066168 -0.040947 0.276925
0.067655 -0.041045 0.277681
0.069241 -0.041198 0.278803
0.070743 -0.041296 0.279557
0.072485 -0.041528 0.281217
0.074687 -0.042010 0.284570
0.076524 -0.042273 0.286442
0.077846 -0.042248 0.286357
0.079166 -0.042222 0.286271
0.080659 -0.042288 0.286798
0.081686 -0.042111 0.285684
0.082868 -0.042019 0.285137
0.084078 -0.041944 0.284703
0.085388 -0.041920 0.284617
0.086806 -0.041949 0.284885
0.088132 -0.041934 0.284848
0.090067 -0.042204 0.286751
0.091243 -0.042116 0.286216
0.092491 -0.042063 0.285916
0.094521 -0.042362 0.288006
0.097815 -0.043211 0.293833
0.099314 -0.043254 0.294178
0.100737 -0.043264 0.294287
0.101737 -0.043094 0.293173
0.102953 -0.043018 0.292698
0.104203 -0.042959 0.292330
0.105773 -0.043032 0.292852
0.106884 -0.042918 0.292101
0.108126 -0.042859 0.291718
0.109756 -0.042954 0.292376
0.110929 -0.042869 0.291809
0.112456 -0.042922 0.292169
0.113785 -0.042898 0.292006
0.115263 -0.042931 0.292218
0.116561 -0.042897 0.291970
0.118623 -0.043141 0.293609
0.119616 -0.042996 0.292590
0.120816 -0.042927 0.292084
0.122367 -0.042983 0.292424
0.123713 -0.042967 0.292261
0.124930 -0.042907 0.291793
0.126372 -0.042924 0.291843
0.127654 -0.042888 0.291520
0.129313 -0.042977 0.292043
0.130658 -0.042961 0.291842
0.131900 -0.042913 0.291409
0.133525 -0.042988 0.291810
0.135352 -0.043126 0.292625
0.136975 -0.043197 0.292975
0.138383 -0.043200 0.292851
0.139769 -0.043195 0.292667
0.141149 -0.043189 0.292462
0.142498 -0.043173 0.292184
0.143985 -0.043199 0.292174
0.145657 -0.043280 0.292520
0.147395 -0.043379 0.292975
0.148969 -0.043428 0.293080
0.150160 -0.043365 0.292418
0.151480 -0.043340 0.292002
0.152902 -0.043345 0.291765
-0.137860 -0.036946 0.259198
-0.137040 -0.037055 0.260185
-0.136171 -0.037154 0.261083
-0.134916 -0.037147 0.261232
-0.134078 -0.037257 0.262187
-0.133170 -0.037348 0.263008
-0.132435 -0.037491 0.264177
-0.131563 -0.037597 0.265079
-0.130637 -0.037690 0.265878
-0.129719 -0.037787 0.266697
-0.128784 -0.037881 0.267483
-0.127842 -0.037975 0.268261
-0.126868 -0.038061 0.268976
-0.125922 -0.038157 0.269754
-0.124935 -0.038243 0.270449
-0.124011 -0.038350 0.271288
-0.123126 -0.038471 0.272219
-0.122156 -0.038568 0.272972
-0.121347 -0.038719 0.274098
-0.120579 -0.038886 0.275330
-0.119735 -0.039032 0.276406
-0.118724 -0.039126 0.277110
-0.117998 -0.039318 0.278495
-0.119204 -0.040164 0.284514
-0.119029 -0.040559 0.287329
-0.118007 -0.040672 0.288134
-0.117103 -0.040828 0.289244
-0.116088 -0.040949 0.290094
-0.114969 -0.041035 0.290699
-0.114039 -0.041192 0.291794
-0.112155 -0.041004 0.290439
-0.110733 -0.040982 0.290260
-0.109392 -0.040990 0.290284
-0.107976 -0.040971 0.290107
-0.106929 -0.041092 0.290921
-0.105635 -0.041120 0.291075
-0.104229 -0.041105 0.290917
-0.102702 -0.041041 0.290408
-0.101527 -0.041118 0.290891
-0.100214 -0.041141 0.290986
-0.098673 -0.041069 0.290410
-0.097840 -0.041295 0.291928
-0.096087 -0.041133 0.290706
-0.094772 -0.041156 0.290790
-0.095299 -0.041992 0.296611
-0.093700 -0.041902 0.295886
-0.094923 -0.043090 0.304180
-0.093638 -0.043159 0.304568
-0.090950 -0.042573 0.300337
-0.089691 -0.042649 0.300767
-0.088936 -0.042970 0.302925
-0.087329 -0.042883 0.302207
-0.085454 -0.042660 0.300527
-0.084746 -0.043022 0.302963
-0.082555 -0.042631 0.300092
-0.081287 -0.042710 0.300535
-0.079780 -0.042665 0.300101
-0.078405 -0.042690 0.300161
-0.075284 -0.041748 0.293420
-0.073968 -0.041791 0.293599
-0.072513 -0.041754 0.293224
-0.071379 -0.041905 0.294162
-0.068544 -0.041044 0.287997
-0.067505 -0.041245 0.289286
-0.066191 -0.041282 0.289428
-0.064834 -0.041294 0.289392
-0.063525 -0.041337 0.289574
-0.062222 -0.041388 0.289803
-0.060878 -0.041411 0.289847
-0.059480 -0.041399 0.289642
-0.058188 -0.041461 0.289956
-0.056760 -0.041428 0.289604
-0.055398 -0.041443 0.289583
-0.054084 -0.041494 0.289824
-0.052664 -0.041466 0.289508
-0.051271 -0.041457 0.289332
-0.049895 -0.041463 0.289251
-0.048565 -0.041508 0.289451
-0.047152 -0.041482 0.289160
-0.045784 -0.041496 0.289144
-0.044460 -0.041552 0.289425
-0.043083 -0.041561 0.289375
-0.041721 -0.041585 0.289433
-0.040009 -0.041250 0.287001
-0.038875 -0.041508 0.288693
-0.037526 -0.041548 0.288866
-0.036269 -0.041696 0.289798
-0.035123 -0.041990 0.291741
-0.034201 -0.042585 0.295781
-0.032987 -0.042855 0.297558
-0.031726 -0.043084 0.299061
-0.030505 -0.043392 0.301103
-0.029078 -0.043424 0.301240
-0.026812 -0.042140 0.292250
-0.025332 -0.042018 0.291330
-0.023838 -0.041857 0.290137
-0.022733 -0.042401 0.293837
-0.021330 -0.042426 0.293938
-0.019725 -0.042024 0.291083
-0.018055 -0.041410 0.286775
-0.016585 -0.041193 0.285212
-0.015362 -0.041608 0.288028
-0.013923 -0.041457 0.286932
-0.012519 -0.041393 0.286445
-0.011158 -0.041470 0.286929
-0.009784 -0.041518 0.287223
-0.008409 -0.041575 0.287578
-0.007035 -0.041659 0.288126
-0.005634 -0.041590 0.287619
-0.004244 -0.041572 0.287472
-0.002869 -0.041769 0.288809
-0.001467 -0.041588 0.287540
-0.000078 -0.041677 0.288139
0.001313 -0.041654 0.287972
0.002689 -0.041412 0.286293
0.004076 -0.041449 0.286541
0.005461 -0.041445 0.286519
0.006828 -0.041343 0.285814
0.008216 -0.041377 0.286054
0.009605 -0.041405 0.286262
0.010977 -0.041361 0.285976
0.012352 -0.041335 0.285815
0.013706 -0.041254 0.285275
0.015044 -0.041143 0.284535
0.016383 -0.041052 0.283931
0.017707 -0.040942 0.283204
0.019007 -0.040795 0.282220
0.020267 -0.040587 0.280826
0.021420 -0.040205 0.278222
0.022585 -0.039890 0.276086
0.025091 -0.041845 0.289664
0.026474 -0.041820 0.289545
0.027171 -0.040768 0.282319
0.028546 -0.040786 0.282497
0.029783 -0.040613 0.281365
0.031256 -0.040763 0.282468
0.032439 -0.040538 0.280969
0.033634 -0.040346 0.279708
0.034991 -0.040355 0.279837
0.036357 -0.040374 0.280045
0.037561 -0.040217 0.279027
0.039599 -0.040934 0.284082
0.040340 -0.040307 0.279808
0.041675 -0.040293 0.279797
0.043058 -0.040327 0.280110
0.044497 -0.040409 0.280767
0.045729 -0.040303 0.280118
0.046692 -0.039974 0.277918
0.044473 -0.037014 0.257418
0.046504 -0.037657 0.261971
0.047656 -0.037572 0.261466
0.048957 -0.037606 0.261790
0.050328 -0.037690 0.262465
0.051344 -0.037511 0.261304
0.053377 -0.038066 0.265261
0.054448 -0.037925 0.264367
0.055167 -0.037551 0.261847
0.057035 -0.037958 0.264777
0.058868 -0.038325 0.267423
0.061076 -0.038915 0.271634
0.062912 -0.039248 0.274053
0.064294 -0.039290 0.274437
0.065657 -0.039319 0.274733
0.067285 -0.039502 0.276105
0.068823 -0.039627 0.277070
0.070292 -0.039708 0.277725
0.072112 -0.039980 0.279718
0.074144 -0.040358 0.282455
0.075853 -0.040549 0.283886
0.077069 -0.040475 0.283455
0.078444 -0.040486 0.283615
0.079314 -0.040240 0.281974
0.080336 -0.040078 0.280920
0.079954 -0.039232 0.275072
0.084140 -0.040619 0.284877
0.085451 -0.040596 0.284790
0.086869 -0.040624 0.285058
0.088195 -0.040608 0.285021
0.090131 -0.040870 0.286924
0.091307 -0.040784 0.286388
0.092555 -0.040733 0.286088
0.094586 -0.041022 0.288178
0.095752 -0.040933 0.287612
0.098896 -0.041681 0.292917
0.100615 -0.041815 0.293911
0.101379 -0.041555 0.292126
0.102615 -0.041492 0.291724
0.103964 -0.041476 0.291645
0.105193 -0.041413 0.291235
0.106888 -0.041533 0.292105
0.108213 -0.041508 0.291948
0.109546 -0.041486 0.291810
0.111185 -0.041580 0.292478
0.112244 -0.041457 0.291616
0.113976 -0.041583 0.292499
0.115347 -0.041575 0.292435
0.116377 -0.041446 0.291516
0.118181 -0.041592 0.292524
0.119241 -0.041477 0.291682
0.120599 -0.041466 0.291573
0.122061 -0.041491 0.291708
0.123302 -0.041441 0.291309
0.124856 -0.041496 0.291639
0.125943 -0.041397 0.290877
0.127499 -0.041452 0.291189
0.128988 -0.041484 0.291336
0.130355 -0.041477 0.291198
0.131893 -0.041524 0.291426
0.133422 -0.041567 0.291621
0.134980 -0.041618 0.291860
0.136641 -0.041700 0.292303
0.138280 -0.041773 0.292677
0.139734 -0.041789 0.292642
0.141268 -0.041829 0.292759
0.142902 -0.041897 0.293065
0.144441 -0.041937 0.293157
0.145899 -0.041952 0.293067
0.147393 -0.041977 0.293033
0.148768 -0.041969 0.292751
0.150205 -0.041977 0.292575
0.151407 -0.041920 0.291932
0.152726 -0.041897 0.291507
-0.137750 -0.035683 0.259050
-0.136894 -0.035780 0.259965
-0.135967 -0.035859 0.260744
-0.134852 -0.035889 0.261160
-0.133978 -0.035986 0.262041
-0.133091 -0.036080 0.262899
-0.132277 -0.036196 0.263906
-0.131591 -0.036350 0.265178
-0.130758 -0.036465 0.266164
-0.129820 -0.036554 0.266942
-0.128942 -0.036661 0.267846
-0.128037 -0.036762 0.268703
-0.127056 -0.036844 0.269405
-0.126038 -0.036916 0.270030
-0.125000 -0.036985 0.270616
-0.124104 -0.037096 0.271513
-0.123044 -0.037161 0.272059
-0.121976 -0.037225 0.272590
-0.121226 -0.037388 0.273840
-0.120451 -0.037547 0.275052
-0.119561 -0.037673 0.276018
-0.118835 -0.037855 0.277379
-0.117766 -0.037930 0.277955
-0.116634 -0.037986 0.278386
-0.115868 -0.038163 0.279703
-0.116932 -0.038955 0.285511
-0.115980 -0.039085 0.286468
-0.115284 -0.039306 0.288083
-0.114395 -0.039466 0.289242
-0.112755 -0.039368 0.288502
-0.113034 -0.039945 0.292708
-0.110766 -0.039625 0.290334
-0.109421 -0.039632 0.290349
-0.108055 -0.039631 0.290302
-0.106946 -0.039725 0.290951
-0.105684 -0.039765 0.291189
-0.104315 -0.039765 0.291135
-0.102938 -0.039761 0.291051
-0.101451 -0.039715 0.290648
-0.100215 -0.039767 0.290961
-0.098868 -0.039776 0.290956
-0.097134 -0.039627 0.289790
-0.095834 -0.039653 0.289906
-0.094540 -0.039683 0.290042
-0.092124 -0.039236 0.286692
-0.091191 -0.039417 0.287924
-0.094182 -0.041325 0.301763
-0.089739 -0.039980 0.291843
-0.089754 -0.040609 0.296341
-0.089125 -0.040963 0.298819
-0.087713 -0.040963 0.298710
-0.086219 -0.040924 0.298316
-0.085044 -0.041037 0.299031
-0.084036 -0.041236 0.300366
-0.082525 -0.041191 0.299924
-0.081779 -0.041533 0.302296
-0.080514 -0.041619 0.302800
-0.079105 -0.041632 0.302776
-0.078546 -0.042101 0.306066
-0.077211 -0.042164 0.306398
-0.073451 -0.040881 0.296948
-0.072732 -0.041272 0.299668
-0.071413 -0.041332 0.299977
-0.067621 -0.039934 0.289709
-0.066223 -0.039921 0.289492
-0.064922 -0.039968 0.289708
-0.063542 -0.039966 0.289574
-0.062251 -0.040022 0.289856
-0.060942 -0.040069 0.290071
-0.059538 -0.040054 0.289839
-0.058194 -0.040080 0.289902
-0.056835 -0.040096 0.289900
-0.055476 -0.040113 0.289903
-0.054144 -0.040152 0.290060
-0.052788 -0.040173 0.290095
-0.051431 -0.040196 0.290140
-0.050039 -0.040192 0.289993
-0.048685 -0.040219 0.290068
-0.047333 -0.040249 0.290170
-0.045844 -0.040161 0.289420
-0.044550 -0.040243 0.289905
-0.043180 -0.040262 0.289924
-0.041721 -0.040194 0.289331
-0.039878 -0.039740 0.285956
-0.038729 -0.039970 0.287504
-0.037386 -0.040008 0.287676
-0.036043 -0.040050 0.287881
-0.034403 -0.039752 0.285645
-0.024824 -0.035830 0.257057
-0.023593 -0.035840 0.257058
-0.022355 -0.035839 0.256978
-0.021143 -0.035882 0.257224
-0.019958 -0.035980 0.257856
-0.018885 -0.036305 0.260128
-0.017567 -0.036173 0.259124
-0.017598 -0.039011 0.279393
-0.016313 -0.039160 0.280398
-0.015380 -0.040260 0.288218
-0.013939 -0.040114 0.287122
-0.011266 -0.036000 0.257636
-0.010094 -0.036259 0.259445
-0.008872 -0.036382 0.260290
-0.007613 -0.036372 0.260186
-0.006363 -0.036412 0.260444
-0.005106 -0.036419 0.260461
-0.003850 -0.036446 0.260631
-0.002589 -0.036423 0.260449
-0.001332 -0.036453 0.260648
-0.000072 -0.036477 0.260802
0.001313 -0.040305 0.288164
0.005465 -0.040103 0.286709
0.006297 -0.036864 0.263554
0.007420 -0.036124 0.258274
0.008688 -0.036205 0.258864
0.009962 -0.036287 0.259463
0.011200 -0.036233 0.259092
0.012458 -0.036250 0.259234
0.013722 -0.036278 0.259462
0.014988 -0.036307 0.259696
0.016249 -0.036318 0.259804
0.017499 -0.036306 0.259754
0.018755 -0.036307 0.259796
0.020140 -0.036543 0.261526
0.022681 -0.038723 0.277171
0.027197 -0.039446 0.282504
0.025909 -0.035784 0.256327
0.027249 -0.035918 0.257346
0.028608 -0.036066 0.258462
0.029757 -0.035947 0.257669
0.031023 -0.035973 0.257922
0.032354 -0.036069 0.258678
0.033648 -0.036119 0.259104
0.034968 -0.036191 0.259691
0.036339 -0.036310 0.260617
0.037838 -0.036545 0.262379
0.041713 -0.038985 0.279976
0.043097 -0.039017 0.280290
0.044289 -0.038878 0.279380
0.045770 -0.038994 0.280297
0.043046 -0.035623 0.256146
0.044253 -0.035603 0.256082
0.045497 -0.035612 0.256231
0.046774 -0.035646 0.256561
0.048073 -0.035695 0.256999
0.049238 -0.035643 0.256717
0.050576 -0.035717 0.257335
0.051961 -0.035820 0.258163
0.053386 -0.035945 0.259152
0.054685 -0.035980 0.259499
0.055975 -0.036010 0.259798
0.057934 -0.036458 0.263124
0.060137 -0.037037 0.267397
0.063017 -0.038001 0.274449
0.064304 -0.037985 0.274425
0.065748 -0.038059 0.275059
0.067376 -0.038235 0.276425
0.068982 -0.038393 0.277657
0.070485 -0.038488 0.278437
0.072119 -0.038649 0.279695
0.073903 -0.038884 0.281489
0.074934 -0.038721 0.280398
0.075980 -0.038571 0.279404
0.077360 -0.038593 0.279650
0.077268 -0.037893 0.274659
0.077157 -0.037207 0.269766
0.077646 -0.036828 0.267096
0.078890 -0.036813 0.267066
0.079415 -0.036469 0.264639
0.080270 -0.036285 0.263371
0.081328 -0.036197 0.262799
0.082586 -0.036199 0.262878
0.083645 -0.036115 0.262331
0.084853 -0.036096 0.262255
0.086217 -0.036144 0.262658
0.087067 -0.035978 0.261503
0.098784 -0.040244 0.292564
0.100956 -0.040557 0.294889
0.101298 -0.040136 0.291874
0.102586 -0.040096 0.291626
0.104277 -0.040212 0.292511
0.105508 -0.040151 0.292094
0.106678 -0.040068 0.291521
0.108197 -0.040117 0.291898
0.109762 -0.040181 0.292383
0.110834 -0.040065 0.291553
0.112632 -0.040212 0.292626
0.113697 -0.040096 0.291783
0.115373 -0.040196 0.292505
0.116757 -0.040193 0.292473
0.117925 -0.040117 0.291899
0.119212 -0.040082 0.291622
0.120547 -0.040065 0.291461
0.121770 -0.040010 0.291027
0.123281 -0.040051 0.291276
0.124433 -0.039975 0.290670
0.126205 -0.040099 0.291504
0.127622 -0.040107 0.291497
0.129126 -0.040143 0.291675
0.130541 -0.040150 0.291642
0.131983 -0.040166 0.291657
0.133325 -0.040151 0.291442
0.135030 -0.040244 0.292005
0.136526 -0.040274 0.292096
0.138064 -0.040316 0.292263
0.139489 -0.040324 0.292175
0.140812 -0.040303 0.291862
0.142503 -0.040386 0.292297
0.144113 -0.040445 0.292543
0.145739 -0.040508 0.292802
0.147224 -0.040530 0.292758
0.148691 -0.040547 0.292661
0.150057 -0.040536 0.292354
0.151353 -0.040507 0.291898
0.152553 -0.040453 0.291249
-0.137828 -0.034470 0.259253
-0.137054 -0.034584 0.260321
-0.136182 -0.034675 0.261207
-0.135071 -0.034706 0.261633
-0.134207 -0.034802 0.262536
-0.133301 -0.034888 0.263357
-0.132586 -0.035027 0.264564
-0.131844 -0.035161 0.265727
-0.130859 -0.035232 0.266405
-0.129975 -0.035333 0.267294
-0.129101 -0.035438 0.268209
-0.128070 -0.035501 0.268802
-0.127139 -0.035594 0.269609
-0.126035 -0.035640 0.270049
-0.124923 -0.035684 0.270472
-0.124033 -0.035794 0.271381
-0.123041 -0.035876 0.272071
-0.121881 -0.035911 0.272393
-0.121004 -0.036030 0.273354
-0.120194 -0.036172 0.274479
-0.119618 -0.036389 0.276162
-0.118777 -0.036529 0.277253
-0.117909 -0.036663 0.278300
-0.117236 -0.036862 0.279828
-0.116218 -0.036956 0.280550
-0.115536 -0.037160 0.282102
-0.114586 -0.037281 0.283025
-0.113610 -0.037397 0.283897
-0.112817 -0.037576 0.285246
-0.111356 -0.037535 0.284914
-0.113761 -0.038812 0.294580
-0.110858 -0.038287 0.290564
-0.109569 -0.038313 0.290728
-0.108302 -0.038348 0.290950
-0.107032 -0.038383 0.291166
-0.105723 -0.038404 0.291277
-0.104312 -0.038389 0.291105
-0.102907 -0.038375 0.290941
-0.101332 -0.038297 0.290281
-0.099971 -0.038299 0.290225
-0.098727 -0.038346 0.290510
-0.097114 -0.038249 0.289700
-0.095710 -0.038233 0.289499
-0.094112 -0.038138 0.288695
-0.093174 -0.038312 0.289922
-0.092261 -0.038501 0.291261
-0.092487 -0.039178 0.296291
-0.091383 -0.039305 0.297147
-0.089840 -0.039243 0.296579
-0.088401 -0.039226 0.296343
-0.087170 -0.039302 0.296812
-0.085697 -0.039269 0.296456
-0.084199 -0.039224 0.296004
-0.082982 -0.039311 0.296546
-0.081666 -0.039352 0.296743
-0.080351 -0.039397 0.296958
-0.079080 -0.039464 0.297348
-0.077634 -0.039445 0.297081
-0.076298 -0.039482 0.297242
-0.074924 -0.039501 0.297256
-0.073511 -0.039499 0.297120
-0.072535 -0.039737 0.298786
-0.071813 -0.040127 0.301585
-0.067366 -0.038408 0.288544
-0.066296 -0.038584 0.289740
-0.064909 -0.038578 0.289574
-0.063580 -0.038607 0.289670
-0.062357 -0.038704 0.290273
-0.060992 -0.038715 0.290230
-0.059667 -0.038753 0.290386
-0.058372 -0.038812 0.290708
-0.057019 -0.038835 0.290753
-0.055646 -0.038845 0.290706
-0.054269 -0.038852 0.290636
-0.052844 -0.038825 0.290313
-0.051412 -0.038792 0.289942
-0.050072 -0.038827 0.290086
-0.048676 -0.038821 0.289921
-0.047302 -0.038831 0.289882
-0.045942 -0.038854 0.289941
-0.044608 -0.038902 0.290182
-0.043248 -0.038929 0.290277
-0.041874 -0.038946 0.290287
-0.039579 -0.038077 0.283708
-0.038864 -0.038721 0.288397
-0.037516 -0.038758 0.288571
-0.036075 -0.038699 0.288033
-0.034575 -0.038569 0.286968
-0.033226 -0.038603 0.287123
-0.028673 -0.034757 0.258435
-0.027337 -0.034640 0.257479
-0.026230 -0.034814 0.258698
-0.024897 -0.034691 0.257708
-0.023681 -0.034728 0.257908
-0.022563 -0.034919 0.259259
-0.021259 -0.034829 0.258518
-0.020107 -0.034993 0.259670
-0.018850 -0.034982 0.259526
-0.017701 -0.035185 0.260975
-0.017617 -0.037701 0.279571
-0.016163 -0.037456 0.277700
-0.011219 -0.034606 0.256431
-0.010050 -0.034845 0.258161
-0.008852 -0.035039 0.259556
-0.007580 -0.034955 0.258900
-0.006334 -0.034982 0.259075
-0.005094 -0.035071 0.259700
-0.003841 -0.035090 0.259822
-0.002584 -0.035073 0.259674
-0.001332 -0.035154 0.260255
-0.000074 -0.035155 0.260249
0.001194 -0.035438 0.262333
0.002594 -0.037322 0.276276
0.006315 -0.035699 0.264265
0.007462 -0.035083 0.259710
0.008713 -0.035061 0.259562
0.009994 -0.035151 0.260239
0.011231 -0.035083 0.259757
0.012489 -0.035088 0.259814
0.013762 -0.035130 0.260146
0.015015 -0.035117 0.260080
0.016300 -0.035178 0.260558
0.017524 -0.035106 0.260061
0.018786 -0.035114 0.260155
0.020185 -0.035362 0.262033
0.022702 -0.037422 0.277348
0.025136 -0.035200 0.261026
0.025936 -0.034585 0.256517
0.027272 -0.034709 0.257493
0.028641 -0.034860 0.258679
0.029770 -0.034721 0.257704
0.031043 -0.034754 0.258011
0.032366 -0.034838 0.258701
0.033662 -0.034887 0.259136
0.034893 -0.034868 0.259064
0.036142 -0.034867 0.259130
0.037429 -0.034902 0.259470
0.038764 -0.034978 0.260110
0.041415 -0.036200 0.269279
0.042669 -0.036163 0.269088
0.043919 -0.036125 0.268892
0.043511 -0.034764 0.258843
0.044304 -0.034412 0.256307
0.045471 -0.034362 0.256019
0.046790 -0.034427 0.256585
0.047917 -0.034350 0.256097
0.049126 -0.034335 0.256073
0.050317 -0.034307 0.255955
0.051598 -0.034341 0.256299
0.053003 -0.034454 0.257233
0.054340 -0.034519 0.257807
0.055749 -0.034626 0.258693
0.057183 -0.034743 0.259658
0.059901 -0.035618 0.266293
0.062617 -0.036456 0.272652
0.064167 -0.036594 0.273784
0.065426 -0.036565 0.273656
0.067054 -0.036738 0.275052
0.068432 -0.036771 0.275389
0.069844 -0.036821 0.275855
0.071329 -0.036906 0.276585
0.073174 -0.037171 0.278663
0.073859 -0.036847 0.276329
0.075367 -0.036939 0.277107
0.076600 -0.036895 0.276861
0.076439 -0.036192 0.271673
0.076640 -0.035681 0.267921
0.076330 -0.034953 0.262532
0.077595 -0.034959 0.262649
0.078909 -0.034985 0.262923
0.079534 -0.034710 0.260926
0.080598 -0.034633 0.260410
0.081842 -0.034634 0.260482
0.083027 -0.034610 0.260366
0.084370 -0.034652 0.260740
0.085716 -0.034693 0.261110
0.086934 -0.034683 0.261084
0.098097 -0.038584 0.290510
0.100440 -0.038956 0.293363
0.101360 -0.038773 0.292034
0.103031 -0.038879 0.292876
0.104217 -0.038801 0.292329
0.105316 -0.038694 0.291553
0.106965 -0.038788 0.292296
0.108165 -0.038720 0.291802
0.109651 -0.038754 0.292081
0.110770 -0.038659 0.291381
0.112256 -0.038694 0.291647
0.113694 -0.038711 0.291777
0.115043 -0.038697 0.291673
0.116397 -0.038686 0.291577
0.117878 -0.038716 0.291788
0.119128 -0.038671 0.291426
0.120652 -0.038715 0.291727
0.121793 -0.038636 0.291096
0.123238 -0.038655 0.291191
0.124642 -0.038660 0.291179
0.126133 -0.038692 0.291357
0.127425 -0.038663 0.291070
0.128669 -0.038620 0.290669
0.130165 -0.038652 0.290830
0.131511 -0.038640 0.290644
0.132799 -0.038611 0.290324
0.134167 -0.038606 0.290175
0.136333 -0.038829 0.291721
0.138036 -0.038916 0.292244
0.139678 -0.038984 0.292613
0.141049 -0.038976 0.292399
0.142651 -0.039032 0.292649
0.144373 -0.039119 0.293122
0.145942 -0.039163 0.293264
0.147308 -0.039153 0.292982
0.148675 -0.039143 0.292690
0.149966 -0.039113 0.292239
0.151277 -0.039089 0.291817
0.152482 -0.039038 0.291183
-0.137691 -0.033204 0.259050
-0.137048 -0.033345 0.260361
-0.136185 -0.033435 0.261262
-0.135072 -0.033464 0.261681
-0.134265 -0.033571 0.262692
-0.133370 -0.033657 0.263536
-0.132706 -0.033804 0.264843
-0.131850 -0.033904 0.265778
-0.130990 -0.034006 0.266708
-0.130078 -0.034095 0.267539
-0.129064 -0.034160 0.268164
-0.128132 -0.034247 0.268962
-0.127062 -0.034299 0.269471
-0.126002 -0.034355 0.270003
-0.125056 -0.034444 0.270784
-0.123990 -0.034501 0.271307
-0.123077 -0.034602 0.272170
-0.122106 -0.034689 0.272913
-0.121065 -0.034758 0.273506
-0.120263 -0.034898 0.274648
-0.119421 -0.035029 0.275716
-0.118929 -0.035266 0.277615
-0.118146 -0.035422 0.278866
-0.117324 -0.035569 0.280042
-0.116531 -0.035729 0.281307
-0.115639 -0.035862 0.282356
-0.114728 -0.035991 0.283374
-0.113768 -0.036109 0.284288
-0.113446 -0.036434 0.286831
-0.113235 -0.036802 0.289715
-0.112684 -0.037069 0.291782
-0.110628 -0.036840 0.289950
-0.109324 -0.036859 0.290063
-0.108024 -0.036881 0.290188
-0.106752 -0.036912 0.290389
-0.105529 -0.036961 0.290723
-0.104180 -0.036968 0.290716
-0.102686 -0.036922 0.290291
-0.101147 -0.036859 0.289728
-0.099951 -0.036920 0.290141
-0.098496 -0.036887 0.289802
-0.097147 -0.036892 0.289767
-0.095857 -0.036921 0.289911
-0.094467 -0.036911 0.289749
-0.094585 -0.037500 0.294276
-0.094069 -0.037850 0.296930
-0.092819 -0.037911 0.297315
-0.091729 -0.038041 0.298228
-0.090248 -0.038010 0.297883
-0.088767 -0.037978 0.297526
-0.087430 -0.038007 0.297648
-0.084542 -0.037353 0.292413
-0.084349 -0.037887 0.296480
-0.082945 -0.037886 0.296360
-0.081055 -0.037659 0.294468
-0.080048 -0.037842 0.295780
-0.078556 -0.037798 0.295316
-0.077278 -0.037858 0.295661
-0.075898 -0.037869 0.295620
-0.074402 -0.037821 0.295122
-0.073139 -0.037892 0.295553
-0.071967 -0.038014 0.296377
-0.072201 -0.038898 0.303142
-0.067939 -0.037347 0.290928
-0.066292 -0.037199 0.289649
-0.065018 -0.037259 0.289988
-0.063536 -0.037199 0.289395
-0.062301 -0.037284 0.289935
-0.060964 -0.037311 0.290019
-0.059614 -0.037332 0.290050
-0.058294 -0.037372 0.290236
-0.056927 -0.037383 0.290202
-0.055581 -0.037409 0.290279
-0.054258 -0.037453 0.290493
-0.052846 -0.037436 0.290238
-0.051465 -0.037440 0.290153
-0.050058 -0.037425 0.289916
-0.048676 -0.037429 0.289827
-0.047327 -0.037460 0.289944
-0.045939 -0.037460 0.289830
-0.044582 -0.037486 0.289919
-0.043189 -0.037484 0.289785
-0.041799 -0.037483 0.289666
-0.039658 -0.036786 0.284172
-0.038758 -0.037231 0.287510
-0.037414 -0.037267 0.287683
-0.035886 -0.037116 0.286418
-0.033963 -0.036528 0.281783
-0.030476 -0.034139 0.263262
-0.029202 -0.034130 0.263103
-0.027878 -0.034059 0.262474
-0.026663 -0.034120 0.262867
-0.025267 -0.033945 0.261441
-0.024007 -0.033943 0.261347
-0.022712 -0.033889 0.260863
-0.021476 -0.033924 0.261057
-0.020203 -0.033899 0.260799
-0.018936 -0.033882 0.260604
-0.017771 -0.034058 0.261898
-0.017537 -0.036182 0.278171
-0.016285 -0.036385 0.279673
-0.011259 -0.033482 0.257220
-0.010061 -0.033630 0.258313
-0.008814 -0.033633 0.258302
-0.007553 -0.033577 0.257838
-0.006322 -0.033662 0.258453
-0.005083 -0.033730 0.258948
-0.003835 -0.033762 0.259177
-0.002581 -0.033759 0.259130
-0.001332 -0.033852 0.259827
-0.000075 -0.033940 0.260489
0.001257 -0.036022 0.276458
0.002595 -0.036022 0.276449
0.006256 -0.034106 0.261747
0.007472 -0.033879 0.260018
0.008726 -0.033863 0.259900
0.009993 -0.033895 0.260159
0.011246 -0.033876 0.260035
0.012496 -0.033855 0.259893
0.013772 -0.033900 0.260267
0.015018 -0.033870 0.260065
0.016288 -0.033897 0.260300
0.017537 -0.033878 0.260186
0.018789 -0.033866 0.260135
0.020099 -0.033952 0.260840
0.025986 -0.036942 0.283962
0.025159 -0.033972 0.261187
0.025995 -0.033424 0.257028
0.027332 -0.033541 0.257979
0.028680 -0.033661 0.258964
0.029823 -0.033539 0.258091
0.031104 -0.033577 0.258445
0.032349 -0.033574 0.258487
0.033616 -0.033593 0.258709
0.034818 -0.033548 0.258434
0.036007 -0.033495 0.258098
0.037268 -0.033509 0.258281
0.038562 -0.033552 0.258688
0.041206 -0.034729 0.267846
0.042453 -0.034693 0.267656
0.043855 -0.034783 0.268431
0.043474 -0.033493 0.258559
0.044591 -0.033397 0.257904
0.045773 -0.033353 0.257656
0.047087 -0.033406 0.258151
0.048169 -0.033295 0.257383
0.049477 -0.033343 0.257837
0.050823 -0.033413 0.258471
0.052010 -0.033378 0.258288
0.053371 -0.033453 0.258959
0.054599 -0.033443 0.258975
0.056089 -0.033591 0.260212
0.058109 -0.034042 0.263805
0.060196 -0.034513 0.267551
0.062288 -0.034967 0.271167
0.063734 -0.035047 0.271884
0.065217 -0.035144 0.272729
0.066657 -0.035215 0.273374
0.068025 -0.035245 0.273704
0.069380 -0.035267 0.273972
0.070736 -0.035289 0.274237
0.072292 -0.035409 0.275261
0.073272 -0.035247 0.274089
0.074057 -0.034998 0.272247
0.075714 -0.035164 0.273620
0.075897 -0.034650 0.269709
0.075957 -0.034098 0.265496
0.076582 -0.033814 0.263363
0.077679 -0.033745 0.262899
0.078790 -0.033683 0.262495
0.079656 -0.033520 0.261298
0.080867 -0.033505 0.261250
0.082277 -0.033572 0.261840
0.083231 -0.033453 0.260978
0.084635 -0.033517 0.261535
0.085972 -0.033552 0.261866
0.087049 -0.033486 0.261408
0.098085 -0.037199 0.290451
0.100736 -0.037673 0.294208
0.100928 -0.037227 0.290771
