ply
format ascii 1.0
element vertex 1745
property float x
property float y
property float z
end_header
-0.041703 0.032709 0.128339
-0.041169 0.032765 0.128545
-0.041789 0.033754 0.132413
-0.041450 0.033987 0.133311
-0.041217 0.034315 0.134581
-0.040999 0.034666 0.135940
-0.040963 0.035185 0.137953
-0.040445 0.035299 0.138381
-0.040463 0.035893 0.140684
-0.040767 0.036765 0.144077
-0.041083 0.037677 0.147623
-0.042060 0.039237 0.153707
-0.040985 0.038904 0.152372
-0.054516 0.054620 0.213785
-0.053575 0.054689 0.214006
-0.052729 0.054859 0.214622
-0.051697 0.054838 0.214489
-0.050859 0.055028 0.215178
-0.052322 0.057764 0.225823
-0.051699 0.058264 0.227722
-0.050564 0.058196 0.227397
-0.049081 0.057716 0.225463
-0.048125 0.057848 0.225919
-0.047325 0.058177 0.227148
-0.046224 0.058145 0.226960
-0.045178 0.058180 0.227038
-0.044310 0.058452 0.228042
-0.043430 0.058722 0.229034
-0.042648 0.059143 0.230614
-0.041866 0.059585 0.232274
-0.041145 0.060140 0.234376
-0.041320 0.062070 0.241836
-0.040428 0.062464 0.243305
-0.039448 0.062741 0.244321
-0.044343 0.072662 0.282882
-0.042596 0.071978 0.280150
-0.041844 0.072985 0.283997
-0.039989 0.072073 0.280380
-0.039122 0.072939 0.283679
-0.037805 0.072999 0.283842
-0.036427 0.072939 0.283543
-0.035148 0.073084 0.284039
-0.030644 0.066264 0.257474
-0.029396 0.066212 0.257217
-0.028115 0.066076 0.256632
-0.026942 0.066194 0.257036
-0.025736 0.066239 0.257158
-0.024510 0.066236 0.257095
-0.023317 0.066325 0.257388
-0.022140 0.066471 0.257907
-0.020918 0.066494 0.257949
-0.019814 0.066916 0.259541
-0.018651 0.067181 0.260526
-0.017835 0.068827 0.266864
-0.016376 0.068049 0.263810
-0.015477 0.069667 0.270041
-0.014331 0.070366 0.272712
-0.011978 0.064683 0.250657
-0.010801 0.064798 0.251069
-0.009667 0.065230 0.252715
-0.008479 0.065378 0.253261
-0.007282 0.065483 0.253644
-0.006073 0.065507 0.253713
-0.004869 0.065605 0.254074
-0.003652 0.065540 0.253803
-0.002443 0.065632 0.254144
-0.001229 0.065597 0.253992
-0.000015 0.065409 0.253255
0.001263 0.069139 0.267685
0.002538 0.069032 0.267262
0.003802 0.068796 0.266343
0.005044 0.068379 0.264726
0.006268 0.067932 0.262995
0.007520 0.067885 0.262815
0.008764 0.067795 0.262468
0.009957 0.067376 0.260853
0.011167 0.067157 0.260013
0.012431 0.067269 0.260457
0.013693 0.067353 0.260793
0.014981 0.067540 0.261529
0.016247 0.067607 0.261805
0.017517 0.067678 0.262099
0.018816 0.067845 0.262766
0.020112 0.067981 0.263314
0.021362 0.067955 0.263238
0.022730 0.068285 0.264544
0.023964 0.068201 0.264245
0.024943 0.067432 0.261296
0.025980 0.066889 0.259220
0.027082 0.066554 0.257953
0.028162 0.066196 0.256599
0.029314 0.066028 0.255983
0.030555 0.066067 0.256172
0.031784 0.066079 0.256253
0.032981 0.066026 0.256087
0.034308 0.066226 0.256905
0.035478 0.066121 0.256536
0.036740 0.066189 0.256841
0.039186 0.068314 0.265134
0.041020 0.069275 0.268906
0.042722 0.069962 0.271619
0.043918 0.069802 0.271046
0.045050 0.069552 0.270126
0.046450 0.069720 0.270827
0.047530 0.069410 0.269670
0.048628 0.069142 0.268679
0.049742 0.068911 0.267828
0.050885 0.068730 0.267173
0.051830 0.068297 0.265540
0.052748 0.067849 0.263847
0.053873 0.067683 0.263249
0.055173 0.067739 0.263512
0.056467 0.067785 0.263739
0.058490 0.068685 0.267288
0.059908 0.068851 0.267981
0.061406 0.069101 0.268999
0.062987 0.069431 0.270329
0.064243 0.069397 0.270243
0.065627 0.069501 0.270688
0.066974 0.069561 0.270963
0.068349 0.069648 0.271343
0.069682 0.069689 0.271541
0.070886 0.069602 0.271239
0.072117 0.069545 0.271052
0.073437 0.069572 0.271194
0.074533 0.069391 0.270519
0.075797 0.069370 0.270464
0.076929 0.069231 0.269947
0.078065 0.069100 0.269461
0.079128 0.068909 0.268738
0.080393 0.068897 0.268710
0.081776 0.068986 0.269071
0.083018 0.068954 0.268960
0.084510 0.069127 0.269645
0.086441 0.069650 0.271689
0.087742 0.069656 0.271717
0.089306 0.069869 0.272544
0.095224 0.073432 0.286436
0.096459 0.073335 0.286048
0.098990 0.074212 0.289454
0.100240 0.074117 0.289063
0.101882 0.074311 0.289795
0.103049 0.074158 0.289170
0.104446 0.074172 0.289188
0.105792 0.074150 0.289063
0.107096 0.074099 0.288819
0.108736 0.074279 0.289468
0.109783 0.074055 0.288537
0.111640 0.074376 0.289722
0.112968 0.074340 0.289512
0.114412 0.074381 0.289591
0.115762 0.074361 0.289427
0.117376 0.074508 0.289909
0.118729 0.074488 0.289729
0.120063 0.074457 0.289501
0.121515 0.074499 0.289545
0.123349 0.074771 0.290478
0.124482 0.074617 0.289747
0.125975 0.074680 0.289847
0.127377 0.074688 0.289724
0.128865 0.074745 0.289785
0.130225 0.074728 0.289546
0.131510 0.074669 0.289135
0.133446 0.074976 0.290131
0.135117 0.075130 0.290521
0.136707 0.075236 0.290712
0.138465 0.075431 0.291238
0.139821 0.075405 0.290897
0.141555 0.075582 0.291324
0.142931 0.075566 0.290994
0.144350 0.075572 0.290738
0.145801 0.075595 0.290529
0.147901 0.075951 0.291585
0.149723 0.076158 0.292052
0.151259 0.076217 0.291936
0.152792 0.076274 0.291793
0.154515 0.076423 0.291986
-0.045699 0.022510 0.085090
-0.042686 0.026447 0.101674
-0.042889 0.026874 0.103349
-0.042653 0.027034 0.103991
-0.042557 0.027286 0.104989
-0.041786 0.027106 0.104321
-0.041205 0.027047 0.104115
-0.040834 0.027126 0.104440
-0.040898 0.027499 0.105895
-0.040850 0.027805 0.107089
-0.039868 0.027823 0.107180
-0.041646 0.029436 0.113403
-0.041767 0.029904 0.115216
-0.039730 0.030418 0.117203
-0.040971 0.031810 0.122562
-0.041331 0.032547 0.125394
-0.040721 0.032531 0.125324
-0.040734 0.033019 0.127194
-0.041760 0.034356 0.132332
-0.041514 0.034670 0.133528
-0.041345 0.035059 0.135011
-0.041254 0.035528 0.136802
-0.040555 0.035480 0.136595
-0.040612 0.036102 0.138971
-0.040399 0.036501 0.140484
-0.040536 0.037234 0.143281
-0.040982 0.038281 0.147284
-0.040710 0.038682 0.148801
-0.045745 0.044228 0.170102
-0.055095 0.055202 0.212224
-0.054163 0.055272 0.212446
-0.053334 0.055452 0.213091
-0.052429 0.055558 0.213451
-0.051716 0.055876 0.214623
-0.052991 0.058397 0.224255
-0.052051 0.058530 0.224714
-0.050796 0.058308 0.223806
-0.049531 0.058065 0.222819
-0.048642 0.058261 0.223516
-0.047813 0.058539 0.224526
-0.046842 0.058653 0.224905
-0.045888 0.058793 0.225385
-0.044988 0.059011 0.226164
-0.044018 0.059144 0.226617
-0.043144 0.059418 0.227608
-0.042361 0.059834 0.229142
-0.041642 0.060365 0.231116
-0.040825 0.060779 0.232640
-0.040213 0.061528 0.235449
-0.039905 0.062800 0.240256
-0.045347 0.073462 0.280972
-0.044726 0.074649 0.285440
-0.043383 0.074668 0.285445
-0.041166 0.073137 0.279522
-0.039898 0.073244 0.279862
-0.038909 0.073889 0.282259
-0.037599 0.073948 0.282421
-0.036254 0.073942 0.282331
-0.034969 0.074061 0.282722
-0.030674 0.067562 0.257854
-0.029425 0.067508 0.257592
-0.028112 0.067298 0.256736
-0.026923 0.067380 0.256994
-0.025712 0.067408 0.257051
-0.024498 0.067435 0.257103
-0.023272 0.067428 0.257026
-0.022090 0.067557 0.257471
-0.020938 0.067795 0.258332
-0.019810 0.068149 0.259637
-0.018737 0.068752 0.261892
-0.017848 0.070161 0.267214
-0.016441 0.069597 0.265027
-0.015449 0.070844 0.269736
-0.014305 0.071554 0.272404
-0.012783 0.070326 0.267697
-0.011418 0.069789 0.265617
-0.010319 0.070943 0.269980
-0.008969 0.070457 0.268102
-0.007675 0.070323 0.267569
-0.006492 0.071349 0.271446
-0.005175 0.071051 0.270293
-0.003894 0.071232 0.270959
-0.002598 0.071158 0.270663
-0.001306 0.071205 0.270828
-0.000013 0.071185 0.270737
0.001274 0.070890 0.269605
0.002548 0.070488 0.268069
0.003828 0.070498 0.268101
0.005073 0.070006 0.266227
0.006291 0.069415 0.263977
0.007490 0.068839 0.261789
0.008729 0.068748 0.261443
0.009944 0.068516 0.260569
0.011132 0.068164 0.259235
0.012378 0.068206 0.259404
0.013664 0.068443 0.260318
0.014970 0.068727 0.261412
0.016191 0.068607 0.260971
0.017441 0.068621 0.261041
0.018812 0.069074 0.262786
0.020066 0.069070 0.262790
0.021378 0.069254 0.263513
0.022938 0.070177 0.267050
0.024202 0.070143 0.266947
0.024741 0.068117 0.259264
0.025739 0.067485 0.256889
0.026869 0.067243 0.255997
0.028104 0.067274 0.256148
0.029301 0.067214 0.255952
0.030521 0.067209 0.255969
0.031735 0.067191 0.255938
0.032946 0.067171 0.255896
0.034231 0.067295 0.256409
0.035388 0.067168 0.255963
0.036608 0.067165 0.255993
0.038679 0.068673 0.261780
0.040771 0.070124 0.267354
0.042256 0.070473 0.268731
0.043192 0.069913 0.266641
0.044338 0.069715 0.265932
0.045527 0.069595 0.265517
0.046730 0.069500 0.265203
0.047642 0.068989 0.263299
0.048739 0.068766 0.262495
0.049691 0.068355 0.260968
0.050661 0.067987 0.259612
0.051700 0.067728 0.258667
0.053017 0.067835 0.259121
0.054111 0.067661 0.258498
0.055543 0.067905 0.259477
0.057687 0.068992 0.263672
0.059759 0.069947 0.267369
0.061231 0.070174 0.268280
0.062704 0.070394 0.269163
0.064063 0.070480 0.269531
0.065545 0.070694 0.270393
0.066855 0.070718 0.270524
0.068299 0.070881 0.271184
0.069703 0.070996 0.271661
0.070912 0.070913 0.271376
0.072300 0.071007 0.271771
0.073589 0.071003 0.271784
0.074860 0.070982 0.271733
0.075981 0.070823 0.271149
0.077274 0.070825 0.271180
0.078219 0.070514 0.270011
0.079452 0.070468 0.269854
0.080616 0.070363 0.269469
0.081912 0.070376 0.269528
0.083173 0.070358 0.269470
0.084483 0.070381 0.269565
0.086190 0.070730 0.270903
0.087584 0.070815 0.271227
0.088817 0.070769 0.271045
0.096119 0.075491 0.289123
0.097368 0.075392 0.288731
0.098769 0.075413 0.288792
0.100374 0.075586 0.289432
0.101716 0.075560 0.289304
0.103200 0.075637 0.289567
0.104334 0.075460 0.288850
0.105600 0.075382 0.288506
0.107262 0.075585 0.289231
0.108487 0.075478 0.288767
0.109720 0.075380 0.288328
0.111184 0.075440 0.288490
0.112761 0.075575 0.288930
0.114313 0.075689 0.289286
0.116436 0.076175 0.291053
0.117534 0.075987 0.290235
0.118875 0.075957 0.290018
0.120345 0.076010 0.290107
0.121588 0.075921 0.289643
0.123164 0.076038 0.289962
0.124740 0.076153 0.290262
0.126008 0.076080 0.289833
0.127474 0.076126 0.289852
0.128825 0.076102 0.289596
0.130235 0.076115 0.289466
0.131589 0.076094 0.289199
0.133171 0.076204 0.289418
0.134702 0.076283 0.289508
0.136489 0.076503 0.290123
0.138309 0.076738 0.290779
0.139774 0.076772 0.290663
0.141372 0.076879 0.290806
0.142975 0.076986 0.290936
0.144638 0.077122 0.291164
0.146488 0.077355 0.291739
0.148102 0.077459 0.291813
0.149661 0.077533 0.291759
0.151121 0.077555 0.291490
0.152634 0.077603 0.291303
0.154195 0.077674 0.291188
-0.045012 0.022575 0.083758
-0.042245 0.026650 0.100604
-0.042883 0.027360 0.103316
-0.042617 0.027502 0.103883
-0.042520 0.027758 0.104880
-0.041387 0.027335 0.103309
-0.041323 0.027618 0.104399
-0.041717 0.028216 0.106683
-0.040627 0.027814 0.105181
-0.039236 0.027880 0.105475
-0.041249 0.029686 0.112316
-0.040745 0.029703 0.112390
-0.041965 0.030994 0.117284
-0.041018 0.030698 0.116168
-0.040550 0.030758 0.116395
-0.039823 0.030620 0.115874
-0.040037 0.031211 0.118112
-0.041337 0.032678 0.123659
-0.041053 0.032917 0.124557
-0.040375 0.032841 0.124266
-0.039993 0.033009 0.124890
-0.040999 0.034343 0.129928
-0.041588 0.035363 0.133777
-0.041347 0.035699 0.135032
-0.041592 0.036471 0.137937
-0.041424 0.036899 0.139540
-0.040659 0.036801 0.139150
-0.040436 0.037199 0.140632
-0.040553 0.037928 0.143365
-0.040386 0.038411 0.145167
-0.040660 0.039337 0.148643
-0.054829 0.054938 0.207517
-0.053919 0.055007 0.207737
-0.053958 0.056065 0.211687
-0.053739 0.056890 0.214758
-0.053023 0.057210 0.215921
-0.054116 0.059533 0.224638
-0.052897 0.059355 0.223917
-0.051217 0.058641 0.221172
-0.050261 0.058745 0.221511
-0.049315 0.058864 0.221910
-0.048394 0.059019 0.222439
-0.047438 0.059138 0.222835
-0.046542 0.059338 0.223533
-0.045616 0.059509 0.224121
-0.044729 0.059740 0.224937
-0.043840 0.059978 0.225778
-0.042979 0.060269 0.226817
-0.042222 0.060724 0.228473
-0.041513 0.061275 0.230488
-0.040734 0.061748 0.232207
-0.040050 0.062397 0.234589
-0.039774 0.063736 0.239565
-0.045278 0.074687 0.280659
-0.044657 0.075894 0.285123
-0.043277 0.075844 0.284869
-0.041931 0.075854 0.284835
-0.039914 0.074610 0.280098
-0.038830 0.075084 0.281814
-0.037522 0.075144 0.281975
-0.036169 0.075115 0.281802
-0.034691 0.074814 0.280609
-0.030813 0.069106 0.259144
-0.029394 0.068669 0.257451
-0.028099 0.068495 0.256746
-0.026973 0.068737 0.257598
-0.025700 0.068610 0.257071
-0.024488 0.068640 0.257137
-0.023281 0.068687 0.257265
-0.022112 0.068860 0.257867
-0.020916 0.068965 0.258214
-0.019780 0.069290 0.259387
-0.018697 0.069861 0.261482
-0.017748 0.071049 0.265886
-0.016480 0.071043 0.265827
-0.015276 0.071334 0.266878
-0.014110 0.071875 0.268865
-0.012861 0.072057 0.269511
-0.011562 0.071968 0.269149
-0.010300 0.072116 0.269670
-0.009012 0.072098 0.269576
-0.007709 0.071943 0.268971
-0.006478 0.072528 0.271134
-0.005178 0.072430 0.270748
-0.003885 0.072408 0.270647
-0.002591 0.072334 0.270351
-0.001301 0.072381 0.270516
-0.000010 0.072361 0.270425
0.001275 0.072055 0.269271
0.002536 0.071366 0.266688
0.003819 0.071545 0.267354
0.005073 0.071228 0.266165
0.006241 0.070074 0.261850
0.007456 0.069745 0.260623
0.008654 0.069373 0.259235
0.009850 0.069077 0.258133
0.011077 0.069046 0.258023
0.012298 0.068983 0.257798
0.013539 0.069034 0.257997
0.014803 0.069180 0.258556
0.016089 0.069401 0.259399
0.017360 0.069531 0.259902
0.018765 0.070142 0.262204
0.020078 0.070356 0.263023
0.021547 0.071060 0.265677
0.023063 0.071830 0.268578
0.024333 0.071795 0.268476
0.024522 0.068730 0.257041
0.025651 0.068470 0.256096
0.026844 0.068395 0.255843
0.027999 0.068232 0.255266
0.029295 0.068414 0.255980
0.030562 0.068514 0.256387
0.031854 0.068662 0.256973
0.033165 0.068838 0.257670
0.034480 0.069009 0.258347
0.035700 0.068986 0.258298
0.036835 0.068804 0.257657
0.038638 0.069841 0.261580
0.040776 0.071400 0.267460
0.042017 0.071342 0.267283
0.043006 0.070871 0.265564
0.044179 0.070722 0.265049
0.045283 0.070474 0.264161
0.046377 0.070223 0.263267
0.047169 0.069540 0.260750
0.048124 0.069127 0.259243
0.049223 0.068937 0.258572
0.050292 0.068714 0.257781
0.051368 0.068512 0.257064
0.052832 0.068823 0.258275
0.053853 0.068557 0.257318
0.055271 0.068797 0.258261
0.057445 0.069946 0.262614
0.059825 0.071292 0.267711
0.061351 0.071586 0.268855
0.062780 0.071756 0.269536
0.064041 0.071732 0.269484
0.065553 0.071984 0.270467
0.066925 0.072075 0.270847
0.068258 0.072122 0.271057
0.069664 0.072242 0.271543
0.070898 0.072183 0.271353
0.072229 0.072223 0.271533
0.073601 0.072302 0.271859
0.074820 0.072230 0.271614
0.076009 0.072132 0.271270
0.077307 0.072139 0.271317
0.078383 0.071942 0.270595
0.079652 0.071926 0.270549
0.081047 0.072022 0.270923
0.082295 0.071987 0.270798
0.083643 0.072037 0.270996
0.085258 0.072314 0.272039
0.086358 0.072152 0.271428
0.088023 0.072459 0.272582
0.089808 0.072855 0.274063
0.096370 0.077060 0.289866
0.097623 0.076960 0.289473
0.098997 0.076957 0.289441
0.100375 0.076958 0.289416
0.101798 0.076991 0.289511
0.103006 0.076864 0.288995
0.104537 0.076978 0.289380
0.105727 0.076841 0.288817
0.107143 0.076870 0.288872
0.108553 0.076893 0.288900
0.109814 0.076812 0.288527
0.111187 0.076810 0.288448
0.112547 0.076799 0.288326
0.113998 0.076849 0.288430
0.115686 0.077057 0.289115
0.117136 0.077103 0.289185
0.118868 0.077330 0.289930
0.120130 0.077251 0.289514
0.121426 0.077194 0.289177
0.122952 0.077284 0.289378
0.124401 0.077323 0.289382
0.125833 0.077351 0.289336
0.127235 0.077361 0.289208
0.128881 0.077516 0.289619
0.130250 0.077504 0.289389
0.131604 0.077482 0.289117
0.133274 0.077646 0.289523
0.134932 0.077799 0.289878
0.136935 0.078145 0.290941
0.138509 0.078243 0.291064
0.139896 0.078233 0.290774
0.141468 0.078326 0.290854
0.142899 0.078340 0.290626
0.144471 0.078430 0.290667
0.146144 0.078573 0.290886
0.147794 0.078700 0.291033
0.150137 0.079190 0.292506
0.151208 0.079007 0.291470
0.152763 0.079077 0.291356
0.154268 0.079120 0.291123
-0.045818 0.023389 0.085202
-0.045834 0.023608 0.086108
-0.042195 0.027094 0.100463
-0.041814 0.027155 0.100720
-0.041360 0.027168 0.100801
-0.040809 0.027117 0.100641
-0.041350 0.027799 0.103200
-0.041528 0.030036 0.111627
-0.041058 0.030076 0.111789
-0.040889 0.030341 0.112781
-0.040834 0.030698 0.114119
-0.040603 0.030931 0.114990
-0.040184 0.031025 0.115345
-0.039632 0.031017 0.115318
-0.041019 0.032548 0.121008
-0.041221 0.033169 0.123315
-0.041128 0.033566 0.124788
-0.039865 0.033006 0.122703
-0.041612 0.034959 0.129953
-0.041419 0.035315 0.131270
-0.041283 0.035732 0.132807
-0.040909 0.035952 0.133613
-0.040454 0.036107 0.134177
-0.040379 0.036611 0.136034
-0.041158 0.037919 0.140875
-0.039924 0.037385 0.138871
-0.040165 0.038236 0.142014
-0.040336 0.039049 0.145010
-0.055679 0.055792 0.207115
-0.054745 0.055834 0.207235
-0.054135 0.056215 0.208611
-0.054857 0.058018 0.215261
-0.054310 0.058523 0.217090
-0.055039 0.060447 0.224182
-0.054046 0.060520 0.224404
-0.051670 0.059015 0.218777
-0.050784 0.059185 0.219360
-0.049849 0.059305 0.219753
-0.048954 0.059479 0.220348
-0.048112 0.059725 0.221208
-0.047285 0.060002 0.222183
-0.046415 0.060235 0.222994
-0.045432 0.060329 0.223289
-0.044668 0.060725 0.224702
-0.043761 0.060943 0.225451
-0.042858 0.061176 0.226260
-0.042044 0.061551 0.227593
-0.041276 0.062015 0.229253
-0.040653 0.062729 0.231835
-0.039742 0.063025 0.232875
-0.039714 0.064779 0.239296
-0.045786 0.076877 0.283921
-0.044480 0.076947 0.284110
-0.043206 0.077076 0.284519
-0.041885 0.077129 0.284649
-0.040301 0.076682 0.282936
-0.038990 0.076745 0.283103
-0.037529 0.076506 0.282158
-0.035887 0.075865 0.279734
-0.034637 0.076036 0.280304
-0.030899 0.070543 0.259998
-0.029450 0.070034 0.258069
-0.028125 0.069789 0.257113
-0.026957 0.069929 0.257577
-0.025732 0.069927 0.257520
-0.024498 0.069901 0.257375
-0.023277 0.069909 0.257358
-0.022136 0.070176 0.258295
-0.020939 0.070282 0.258644
-0.019808 0.070638 0.259911
-0.018701 0.071134 0.261693
-0.017766 0.072399 0.266308
-0.016379 0.071878 0.264351
-0.015200 0.072261 0.265725
-0.014038 0.072800 0.267671
-0.012762 0.072791 0.267607
-0.011433 0.072451 0.266324
-0.010255 0.073103 0.268693
-0.009003 0.073336 0.269522
-0.007665 0.072832 0.267643
-0.006456 0.073599 0.270441
-0.005196 0.074025 0.271984
-0.003892 0.073901 0.271511
-0.002593 0.073774 0.271028
-0.001300 0.073762 0.270968
-0.000007 0.073504 0.270007
0.001276 0.073188 0.268836
0.002538 0.072596 0.266655
0.003819 0.072766 0.267273
0.005097 0.072804 0.267409
0.006244 0.071322 0.261962
0.007420 0.070614 0.259363
0.008615 0.070270 0.258102
0.009822 0.070088 0.257439
0.011042 0.070032 0.257237
0.012268 0.070024 0.257215
0.013528 0.070189 0.257834
0.014767 0.070231 0.257999
0.016049 0.070450 0.258818
0.017256 0.070335 0.258410
0.018636 0.070892 0.260474
0.020031 0.071433 0.262482
0.021644 0.072643 0.266950
0.022997 0.072892 0.267890
0.024264 0.072858 0.267787
0.024692 0.070433 0.258900
0.025437 0.069100 0.254027
0.026698 0.069227 0.254521
0.027838 0.069043 0.253876
0.029045 0.069033 0.253869
0.030329 0.069198 0.254507
0.031504 0.069112 0.254224
0.032734 0.069148 0.254392
0.033964 0.069182 0.254551
0.035295 0.069413 0.255435
0.036586 0.069552 0.255985
0.037804 0.069547 0.256004
0.040498 0.072172 0.265708
0.041731 0.072114 0.265533
0.042746 0.071694 0.264027
0.043905 0.071532 0.263472
0.045092 0.071423 0.263112
0.046044 0.070957 0.261439
0.047214 0.070844 0.261062
0.048031 0.070220 0.258806
0.049207 0.070140 0.258550
0.050544 0.070286 0.259129
0.051511 0.069924 0.257835
0.052846 0.070065 0.258398
0.053922 0.069865 0.257698
0.055038 0.069725 0.257223
0.057072 0.070728 0.260960
0.059522 0.072192 0.266404
0.061098 0.072558 0.267792
0.062436 0.072633 0.268104
0.064013 0.072976 0.269408
0.065389 0.073081 0.269831
0.066834 0.073257 0.270515
0.068198 0.073340 0.270852
0.069596 0.073456 0.271312
0.070934 0.073505 0.271523
0.072176 0.073454 0.271362
0.073469 0.073456 0.271396
0.074733 0.073430 0.271320
0.076004 0.073411 0.271270
0.077095 0.073222 0.270589
0.078431 0.073268 0.270774
0.079586 0.073145 0.270335
0.080672 0.072965 0.269678
0.082137 0.073127 0.270282
0.083470 0.073168 0.270438
0.084925 0.073314 0.270979
0.086270 0.073362 0.271150
0.087947 0.073685 0.272339
0.089804 0.074149 0.274043
0.094684 0.077059 0.284781
0.095916 0.076961 0.284395
0.098902 0.078252 0.289141
0.100310 0.078277 0.289204
0.101746 0.078322 0.289335
0.103153 0.078344 0.289376
0.104584 0.078384 0.289475
0.105810 0.078270 0.289004
0.107188 0.078271 0.288949
0.108669 0.078346 0.289161
0.109960 0.078283 0.288860
0.111343 0.078288 0.288799
0.112755 0.078311 0.288800
0.114150 0.078322 0.288753
0.115560 0.078344 0.288734
0.117083 0.078440 0.288981
0.118581 0.078518 0.289154
0.119934 0.078498 0.288961
0.121286 0.078479 0.288760
0.122798 0.078562 0.288927
0.124407 0.078704 0.289303
0.125781 0.078697 0.289117
0.127241 0.078742 0.289118
0.128783 0.078837 0.289289
0.130170 0.078836 0.289099
0.131482 0.078790 0.288732
0.132917 0.078817 0.288624
0.134272 0.078797 0.288330
0.136384 0.079217 0.289635
0.138227 0.079474 0.290328
0.139592 0.079453 0.289995
0.141213 0.079578 0.290177
0.142922 0.079748 0.290512
0.144588 0.079892 0.290735
0.145963 0.079873 0.290353
0.147661 0.080030 0.290592
0.149583 0.080304 0.291239
0.151190 0.080405 0.291241
0.152644 0.080423 0.290927
0.154076 0.080430 0.290553
-0.046041 0.023916 0.085558
-0.045808 0.024009 0.086003
-0.042399 0.027703 0.100924
-0.043004 0.028418 0.103564
-0.042572 0.028455 0.103732
-0.041296 0.027923 0.101824
-0.041231 0.030733 0.112250
-0.040877 0.030865 0.112743
-0.040593 0.031053 0.113440
-0.040245 0.031196 0.113971
-0.039741 0.031222 0.114070
-0.041026 0.032672 0.119373
-0.041188 0.033256 0.121507
-0.041105 0.033656 0.122969
-0.041185 0.034202 0.124963
-0.040675 0.034268 0.125199
-0.040206 0.034370 0.125567
-0.040821 0.035416 0.129382
-0.041028 0.036135 0.131997
-0.041289 0.036923 0.134866
-0.041369 0.037573 0.137225
-0.042041 0.038788 0.141649
-0.040672 0.038129 0.139228
-0.040268 0.038369 0.140085
-0.040116 0.038860 0.141858
-0.056512 0.056629 0.206662
-0.055608 0.056700 0.206888
-0.055007 0.057087 0.208265
-0.054690 0.057789 0.210791
-0.054386 0.058530 0.213455
-0.054042 0.059257 0.216064
-0.053242 0.059502 0.216914
-0.052162 0.059437 0.216632
-0.051262 0.059578 0.217103
-0.050418 0.059791 0.217835
-0.049559 0.059996 0.218535
-0.048713 0.060226 0.219322
-0.047957 0.060579 0.220559
-0.047116 0.060838 0.221453
-0.046291 0.061130 0.222465
-0.045435 0.061393 0.223371
-0.044506 0.061569 0.223960
-0.043602 0.061789 0.224707
-0.042655 0.061956 0.225263
-0.041883 0.062394 0.226801
-0.041232 0.063038 0.229089
-0.040523 0.063629 0.231182
-0.039978 0.064514 0.234343
-0.046886 0.077823 0.282622
-0.045589 0.077894 0.282814
-0.044563 0.078446 0.284752
-0.043167 0.078361 0.284379
-0.041405 0.077586 0.281504
-0.040246 0.077926 0.282674
-0.038937 0.077989 0.282840
-0.037266 0.077307 0.280305
-0.035591 0.076565 0.277557
-0.034518 0.077111 0.279475
-0.031532 0.073257 0.265453
-0.029445 0.071255 0.258146
-0.028083 0.070913 0.256856
-0.026982 0.071229 0.257950
-0.025679 0.071014 0.257124
-0.024442 0.070971 0.256919
-0.023269 0.071120 0.257416
-0.022092 0.071270 0.257914
-0.020901 0.071392 0.258311
-0.019787 0.071809 0.259778
-0.018655 0.072214 0.261203
-0.017449 0.072365 0.261712
-0.016201 0.072356 0.261642
-0.014909 0.072132 0.260796
-0.013759 0.072615 0.262507
-0.012480 0.072449 0.261876
-0.011211 0.072308 0.261338
-0.010047 0.072899 0.263446
-0.008814 0.073079 0.264070
-0.007575 0.073267 0.264724
-0.006354 0.073739 0.266407
-0.005127 0.074369 0.268664
-0.003844 0.074326 0.268491
-0.002564 0.074331 0.268492
-0.001283 0.074267 0.268245
-0.000004 0.074006 0.267291
0.001266 0.073736 0.266304
0.002522 0.073322 0.264803
0.003825 0.074097 0.267594
0.005103 0.074124 0.267687
0.006187 0.071878 0.259576
0.007384 0.071477 0.258127
0.008584 0.071216 0.257186
0.009806 0.071182 0.257068
0.011030 0.071164 0.257008
0.012286 0.071335 0.257632
0.013544 0.071487 0.258192
0.014773 0.071477 0.258167
0.016100 0.071902 0.259714
0.017281 0.071660 0.258856
0.018594 0.071961 0.259961
0.020070 0.072817 0.263073
0.021618 0.073815 0.266698
0.023158 0.074680 0.269847
0.024154 0.073789 0.266647
0.024297 0.070513 0.254836
0.025325 0.069994 0.252985
0.026555 0.070055 0.253232
0.027703 0.069904 0.252714
0.028932 0.069962 0.252952
0.030133 0.069949 0.252936
0.031327 0.069922 0.252870
0.032537 0.069932 0.252938
0.033729 0.069902 0.252865
0.034914 0.069862 0.252751
0.036176 0.069972 0.253186
0.037598 0.070374 0.254677
0.040242 0.072968 0.264103
0.041468 0.072910 0.263929
0.042187 0.071991 0.260643
0.043324 0.071817 0.260052
0.044250 0.071313 0.258264
0.045161 0.070812 0.256489
0.046155 0.070464 0.255266
0.047164 0.070156 0.254190
0.048324 0.070084 0.253966
0.049305 0.069760 0.252832
0.050540 0.069803 0.253026
0.051826 0.069913 0.253463
0.053234 0.070179 0.254463
0.054464 0.070203 0.254585
0.056275 0.070959 0.257364
0.058927 0.072720 0.263787
0.060921 0.073613 0.267062
0.062197 0.073618 0.267118
0.063730 0.073923 0.268257
0.065270 0.074222 0.269375
0.066570 0.074243 0.269482
0.068035 0.074444 0.270240
0.069442 0.074574 0.270741
0.070738 0.074582 0.270798
0.072097 0.074656 0.271089
0.073435 0.074705 0.271290
0.074655 0.074636 0.271059
0.075977 0.074668 0.271192
0.077172 0.074576 0.270873
0.078349 0.074470 0.270502
0.079462 0.074308 0.269923
0.080661 0.074230 0.269644
0.081980 0.074264 0.269770
0.083414 0.074398 0.270259
0.084804 0.074490 0.270589
0.086212 0.074594 0.270960
0.087827 0.074872 0.271960
0.089446 0.075145 0.272938
0.096123 0.079599 0.289094
0.097375 0.079498 0.288702
0.098974 0.079679 0.289329
0.100219 0.079574 0.288913
0.101549 0.079538 0.288744
0.102968 0.079572 0.288823
0.104310 0.079546 0.288678
0.105656 0.079524 0.288542
0.107054 0.079541 0.288541
0.108315 0.079457 0.288170
0.109876 0.079592 0.288587
0.111289 0.079618 0.288600
0.112108 0.079224 0.287082
0.114084 0.079646 0.288518
0.115388 0.079596 0.288233
0.117071 0.079804 0.288877
0.118410 0.079776 0.288657
0.119871 0.079829 0.288724
0.121176 0.079779 0.288408
0.122815 0.079948 0.288873
0.124542 0.080168 0.289518
0.125993 0.080208 0.289500
0.127337 0.080181 0.289228
0.128705 0.080168 0.289000
0.130135 0.080194 0.288901
0.131479 0.080167 0.288601
0.132810 0.080132 0.288261
0.134406 0.080256 0.288484
0.136109 0.080441 0.288910
0.138054 0.080763 0.289817
0.139705 0.080909 0.290076
0.141182 0.080952 0.289953
0.142911 0.081137 0.290323
0.144662 0.081331 0.290711
0.146303 0.081460 0.290849
0.148131 0.081689 0.291328
0.149592 0.081714 0.291062
0.151100 0.081763 0.290865
0.152588 0.081800 0.290612
0.154066 0.081832 0.290317
-0.045886 0.024247 0.085211
-0.045144 0.024069 0.084699
-0.044773 0.024088 0.084871
-0.041881 0.027837 0.099667
-0.042242 0.028395 0.101703
-0.042719 0.029046 0.104069
-0.041263 0.028381 0.101720
-0.042308 0.031674 0.113700
-0.041046 0.031123 0.111738
-0.040814 0.031349 0.112560
-0.039872 0.031027 0.111416
-0.040432 0.031883 0.114497
-0.040224 0.032146 0.115450
-0.041274 0.033437 0.120091
-0.040806 0.033516 0.120380
-0.041478 0.034548 0.124086
-0.041100 0.034721 0.124708
-0.040417 0.034638 0.124408
-0.040318 0.035061 0.125923
-0.041035 0.036216 0.130065
-0.042020 0.037647 0.135196
-0.041438 0.037696 0.135362
-0.041349 0.038202 0.137169
-0.042153 0.039562 0.142039
-0.041496 0.039573 0.142063
-0.056589 0.054851 0.196885
-0.056808 0.055980 0.200913
-0.055867 0.055984 0.200903
-0.056086 0.057172 0.205135
-0.055560 0.057629 0.206744
-0.054918 0.057979 0.207966
-0.054129 0.058184 0.208667
-0.053716 0.058808 0.210867
-0.053067 0.059193 0.212210
-0.052401 0.059573 0.213532
-0.051571 0.059777 0.214224
-0.050674 0.059911 0.214662
-0.049827 0.060111 0.215335
-0.049049 0.060405 0.216343
-0.048506 0.061006 0.218450
-0.047767 0.061381 0.219745
-0.046882 0.061582 0.220419
-0.046069 0.061887 0.221463
-0.045200 0.062131 0.222285
-0.044275 0.062307 0.222866
-0.043439 0.062621 0.223937
-0.042469 0.062752 0.224357
-0.041679 0.063163 0.225774
-0.040879 0.063580 0.227214
-0.040410 0.064547 0.230617
-0.039729 0.065221 0.232972
-0.046747 0.078934 0.281892
-0.045821 0.079644 0.284364
-0.044600 0.079868 0.285101
-0.043258 0.079885 0.285098
-0.041914 0.079899 0.285084
-0.039812 0.078419 0.279744
-0.038658 0.078771 0.280939
-0.037355 0.078833 0.281099
-0.035811 0.078371 0.279394
-0.034340 0.078042 0.278164
-0.031199 0.073737 0.262768
-0.029542 0.072730 0.259126
-0.028210 0.072468 0.258143
-0.026988 0.072478 0.258132
-0.025700 0.072305 0.257468
-0.024489 0.072340 0.257545
-0.023248 0.072288 0.257316
-0.022065 0.072421 0.257746
-0.020866 0.072512 0.258029
-0.019739 0.072882 0.259304
-0.018623 0.073342 0.260902
-0.017432 0.073552 0.261612
-0.016175 0.073498 0.261382
-0.014952 0.073600 0.261710
-0.013703 0.073586 0.261628
-0.012432 0.073434 0.261056
-0.011183 0.073391 0.260876
-0.009962 0.073549 0.261410
-0.008726 0.073626 0.261659
-0.007484 0.073666 0.261777
-0.006262 0.073959 0.262796
-0.005037 0.074363 0.264212
-0.003777 0.074345 0.264131
-0.002523 0.074471 0.264560
-0.001261 0.074424 0.264380
-0.000001 0.074500 0.264638
0.001263 0.074640 0.265126
0.002515 0.074292 0.263881
0.003813 0.075075 0.266656
0.005098 0.075276 0.267365
0.006138 0.072500 0.257504
0.007351 0.072356 0.256992
0.008596 0.072519 0.257572
0.009799 0.072335 0.256921
0.011021 0.072308 0.256830
0.012270 0.072454 0.257356
0.013539 0.072679 0.258164
0.014714 0.072401 0.257189
0.016010 0.072715 0.258315
0.017238 0.072698 0.258271
0.018476 0.072724 0.258379
0.020012 0.073846 0.262382
0.021698 0.075352 0.267754
0.023155 0.075946 0.269883
0.024407 0.075838 0.269522
0.025680 0.075800 0.269414
0.025298 0.071115 0.252786
0.026544 0.071224 0.253199
0.027713 0.071127 0.252880
0.028910 0.071105 0.252831
0.030143 0.071171 0.253094
0.031398 0.071281 0.253513
0.032633 0.071338 0.253748
0.033805 0.071260 0.253502
0.035121 0.071480 0.254318
0.036833 0.072464 0.257853
0.037968 0.072284 0.257249
0.040095 0.073947 0.263203
0.041256 0.073781 0.262646
0.041849 0.072639 0.258620
0.043264 0.072948 0.259757
0.044192 0.072442 0.257989
0.045139 0.071991 0.256422
0.046332 0.071948 0.256305
0.047334 0.071617 0.255163
0.048337 0.071305 0.254088
0.049599 0.071380 0.254391
0.050719 0.071252 0.253972
0.051935 0.071262 0.254043
0.053568 0.071832 0.256108
0.054746 0.071777 0.255950
0.056177 0.072050 0.256957
0.059313 0.074452 0.265557
0.060983 0.074952 0.267373
0.062177 0.074859 0.267072
0.063784 0.075256 0.268520
0.065252 0.075477 0.269338
0.066588 0.075538 0.269587
0.067942 0.075619 0.269901
0.069351 0.075755 0.270413
0.070760 0.075887 0.270907
0.072056 0.075896 0.270960
0.073495 0.076051 0.271535
0.074747 0.076011 0.271409
0.076152 0.076125 0.271831
0.077407 0.076089 0.271712
0.078434 0.075832 0.270804
0.079812 0.075918 0.271118
0.081158 0.075971 0.271311
0.082462 0.075984 0.271355
0.083875 0.076094 0.271748
0.085544 0.076431 0.272942
0.086686 0.076293 0.272442
0.088535 0.076773 0.274139
0.090128 0.077019 0.275001
0.094670 0.079743 0.284702
0.095904 0.079643 0.284317
0.098919 0.081003 0.289142
0.100372 0.081065 0.289323
0.101678 0.081008 0.289076
0.102968 0.080940 0.288785
0.104406 0.080988 0.288903
0.105699 0.080924 0.288614
0.107054 0.080909 0.288494
0.108603 0.081037 0.288881
0.109910 0.080985 0.288616
0.111270 0.080973 0.288488
0.112783 0.081071 0.288743
0.114135 0.081052 0.288577
0.115314 0.080912 0.287972
0.116857 0.081028 0.288270
0.118403 0.081143 0.288556
0.119753 0.081122 0.288352
0.121282 0.081222 0.288567
0.122902 0.081379 0.288977
0.124197 0.081321 0.288612
0.125727 0.081415 0.288781
0.127196 0.081469 0.288793
0.128654 0.081514 0.288767
0.130077 0.081536 0.288648
0.131497 0.081556 0.288509
0.132955 0.081599 0.288442
0.134302 0.081573 0.288119
0.135892 0.081693 0.288301
0.138147 0.082208 0.289859
0.139519 0.082191 0.289531
0.141186 0.082347 0.289796
0.142785 0.082460 0.289896
0.144683 0.082742 0.290573
0.146205 0.082805 0.290466
0.148216 0.083142 0.291302
0.149936 0.083310 0.291529
0.151469 0.083372 0.291368
0.152940 0.083399 0.291065
0.154242 0.083334 0.290424
-0.046123 0.024785 0.085588
-0.045713 0.024786 0.085706
-0.045579 0.024938 0.086341
-0.042405 0.028663 0.100886
-0.041848 0.028608 0.100730
-0.042682 0.029513 0.103953
-0.041538 0.029055 0.102377
-0.041108 0.029093 0.102540
-0.042265 0.032180 0.113574
-0.041342 0.031880 0.112533
-0.040555 0.031678 0.111835
-0.039526 0.031281 0.110444
-0.040258 0.032284 0.113997
-0.042096 0.034214 0.120819
-0.041929 0.034544 0.121993
-0.041430 0.034607 0.122219
-0.041028 0.034752 0.122736
-0.040620 0.034898 0.123252
-0.040263 0.035092 0.123937
-0.039693 0.035104 0.123975
-0.041866 0.037577 0.132706
-0.041040 0.037393 0.132050
-0.041513 0.038406 0.135618
-0.041772 0.039248 0.138583
-0.041926 0.040017 0.141288
-0.057372 0.055642 0.196436
-0.056519 0.055712 0.196663
-0.056737 0.056859 0.200686
-0.056633 0.057715 0.203685
-0.055892 0.057942 0.204458
-0.055515 0.058559 0.206608
-0.054680 0.058707 0.207099
-0.054055 0.059091 0.208419
-0.053485 0.059549 0.210000
-0.052951 0.060066 0.211787
-0.052131 0.060272 0.212478
-0.051179 0.060331 0.212645
-0.050297 0.060476 0.213118
-0.049409 0.060619 0.213581
-0.048618 0.060890 0.214494
-0.048054 0.061464 0.216470
-0.047472 0.062038 0.218449
-0.046757 0.062461 0.219892
-0.045853 0.062644 0.220492
-0.044976 0.062873 0.221251
-0.044096 0.063110 0.222037
-0.043223 0.063369 0.222898
-0.042350 0.063639 0.223801
-0.041492 0.063948 0.224837
-0.040859 0.064629 0.227182
-0.040349 0.065545 0.230352
-0.039668 0.066227 0.232698
-0.047142 0.080953 0.284376
-0.045836 0.081025 0.284569
-0.044564 0.081162 0.284986
-0.043215 0.081164 0.284932
-0.041873 0.081178 0.284921
-0.040401 0.080934 0.284004
-0.039086 0.080998 0.284170
-0.037526 0.080542 0.282511
-0.035882 0.079864 0.280079
-0.034441 0.079603 0.279106
-0.031302 0.075240 0.263758
-0.029518 0.073909 0.259041
-0.028272 0.073865 0.258838
-0.026963 0.073646 0.258025
-0.025694 0.073519 0.257534
-0.024494 0.073591 0.257741
-0.023265 0.073576 0.257645
-0.022068 0.073667 0.257920
-0.020796 0.073501 0.257299
-0.019801 0.074359 0.260262
-0.018614 0.074559 0.260923
-0.017487 0.075047 0.262594
-0.016197 0.074859 0.261901
-0.014891 0.074559 0.260817
-0.013628 0.074439 0.260365
-0.012376 0.074359 0.260056
-0.011135 0.074332 0.259932
-0.009880 0.074200 0.259447
-0.008689 0.074581 0.260754
-0.007448 0.074586 0.260746
-0.006203 0.074547 0.260590
-0.005008 0.075239 0.262988
-0.003770 0.075521 0.263957
-0.002507 0.075343 0.263320
-0.001256 0.075583 0.264143
0.000002 0.075854 0.265078
0.001265 0.075848 0.265048
0.002521 0.075630 0.264279
0.003814 0.076298 0.266604
0.005084 0.076293 0.266584
0.006106 0.073312 0.256163
0.007336 0.073396 0.256456
0.008601 0.073762 0.257737
0.009780 0.073391 0.256445
0.011041 0.073647 0.257345
0.012286 0.073758 0.257739
0.013511 0.073736 0.257669
0.014762 0.073851 0.258081
0.015995 0.073863 0.258135
0.017198 0.073743 0.257727
0.018460 0.073877 0.258211
0.020037 0.075176 0.262769
0.021620 0.076343 0.266868
0.023010 0.076736 0.268261
0.024194 0.076437 0.267238
0.025634 0.076935 0.269002
0.026902 0.076896 0.268890
0.028147 0.076796 0.268564
0.029297 0.076455 0.267400
0.030683 0.076735 0.268406
0.032094 0.077053 0.269549
0.033281 0.076827 0.268790
0.034534 0.076765 0.268603
0.035771 0.076675 0.268321
0.036695 0.075941 0.265785
0.038006 0.076031 0.266135
0.039245 0.075975 0.265971
0.040037 0.075085 0.262890
0.041083 0.074710 0.261613
0.042004 0.074137 0.259640
0.043126 0.073940 0.258985
0.044134 0.073566 0.257709
0.045193 0.073294 0.256791
0.046298 0.073108 0.256176
0.047298 0.072770 0.255025
0.048464 0.072698 0.254808
0.049890 0.073010 0.255937
0.050869 0.072670 0.254776
0.052178 0.072804 0.255281
0.053598 0.073084 0.256295
0.054677 0.072897 0.255671
0.056687 0.073931 0.259332
0.059159 0.075512 0.264908
0.060539 0.075663 0.265469
0.062005 0.075912 0.266371
0.063673 0.076393 0.268089
0.065047 0.076509 0.268523
0.066443 0.076647 0.269033
0.067877 0.076822 0.269672
0.069212 0.076880 0.269897
0.070647 0.077046 0.270500
0.072104 0.077228 0.271158
0.073540 0.077382 0.271717
0.074680 0.077225 0.271178
0.075934 0.077189 0.271065
0.077373 0.077339 0.271599
0.078321 0.077002 0.270421
0.079795 0.077184 0.271063
0.081207 0.077301 0.271474
0.082416 0.077224 0.271202
0.083864 0.077369 0.271706
0.085413 0.077603 0.272515
0.086662 0.077560 0.272353
0.088306 0.077867 0.273414
0.090290 0.078461 0.275476
0.095728 0.081997 0.287862
0.095946 0.081023 0.284414
0.098955 0.082402 0.289216
0.100079 0.082194 0.288444
0.101554 0.082276 0.288686
0.102878 0.082235 0.288489
0.104096 0.082112 0.287998
0.105551 0.082176 0.288159
0.107049 0.082271 0.288424
0.108449 0.082290 0.288415
0.109975 0.082403 0.288725
0.111102 0.082217 0.287985
0.112447 0.082196 0.287814
0.114112 0.082405 0.288443
0.115220 0.082212 0.287657
0.116739 0.082314 0.287894
0.118292 0.082436 0.288195
0.119846 0.082557 0.288483
0.121375 0.082658 0.288690
0.122872 0.082735 0.288803
0.124165 0.082674 0.288429
0.125756 0.082811 0.288735
0.127272 0.082895 0.288847
0.128625 0.082873 0.288576
0.130211 0.082999 0.288814
0.131497 0.082934 0.288374
0.133366 0.083235 0.289192
0.134836 0.083281 0.289116
0.135755 0.082991 0.287858
0.137927 0.083464 0.289238
0.139431 0.083528 0.289181
0.140972 0.083612 0.289183
0.142902 0.083922 0.289952
0.144481 0.084023 0.289980
0.146407 0.084321 0.290675
0.147961 0.084402 0.290599
0.149427 0.084431 0.290330
0.151058 0.084551 0.290360
0.152655 0.084651 0.290297
0.154330 0.084791 0.290357
-0.045763 0.025002 0.084856
-0.045568 0.025119 0.085370
-0.045420 0.025265 0.085979
-0.042098 0.028930 0.100128
-0.043049 0.029920 0.103594
-0.042584 0.029936 0.103689
-0.040534 0.028826 0.099879
-0.040409 0.029075 0.100774
-0.040748 0.031542 0.109484
-0.041192 0.032294 0.112111
-0.040625 0.032263 0.112018
-0.040313 0.032435 0.112631
-0.041723 0.034017 0.118138
-0.041943 0.034658 0.120371
-0.041719 0.034944 0.121376
-0.041109 0.034911 0.121267
-0.040865 0.035192 0.122247
-0.040644 0.035501 0.123325
-0.041353 0.036643 0.127293
-0.040862 0.036740 0.127627
-0.041817 0.038160 0.132555
-0.040851 0.037842 0.131449
-0.040312 0.037917 0.131701
-0.041541 0.039683 0.137827
-0.041875 0.040636 0.141126
-0.056761 0.058811 0.204171
-0.055900 0.058917 0.204514
-0.055263 0.059267 0.205701
-0.054450 0.059437 0.206263
-0.053792 0.059784 0.207438
-0.053196 0.060216 0.208905
-0.052619 0.060687 0.210503
-0.051756 0.060838 0.210992
-0.051024 0.061153 0.212047
-0.050278 0.061462 0.213083
-0.049471 0.061709 0.213901
-0.048672 0.061976 0.214785
-0.047875 0.062257 0.215718
-0.047153 0.062651 0.217039
-0.046379 0.062990 0.218172
-0.045538 0.063253 0.219039
-0.044753 0.063607 0.220218
-0.043981 0.063997 0.221524
-0.043116 0.064267 0.222413
-0.042242 0.064538 0.223303
-0.041435 0.064927 0.224603
-0.040789 0.065596 0.226869
-0.040482 0.066861 0.231193
-0.048096 0.081642 0.282243
-0.046803 0.081716 0.282439
-0.045921 0.082533 0.285204
-0.044651 0.082680 0.285654
-0.043181 0.082455 0.284817
-0.041952 0.082692 0.285575
-0.040230 0.081941 0.282923
-0.039155 0.082500 0.284797
-0.037834 0.082563 0.284957
-0.035982 0.081427 0.280981
-0.034638 0.081400 0.280833
-0.031038 0.075857 0.261660
-0.029438 0.074943 0.258460
-0.028096 0.074634 0.257348
-0.026938 0.074811 0.257911
-0.025661 0.074658 0.257337
-0.024398 0.074531 0.256856
-0.023236 0.074718 0.257458
-0.022082 0.074950 0.258219
-0.020653 0.074224 0.255675
-0.019840 0.075758 0.260921
-0.018673 0.076057 0.261913
-0.017464 0.076212 0.262410
-0.016197 0.076118 0.262054
-0.014796 0.075328 0.259302
-0.013567 0.075354 0.259358
-0.012236 0.074757 0.257274
-0.010980 0.074544 0.256516
-0.009783 0.074717 0.257084
-0.008575 0.074857 0.257541
-0.007364 0.075007 0.258034
-0.006182 0.075567 0.259941
-0.004974 0.076017 0.261469
-0.003754 0.076518 0.263174
-0.002501 0.076534 0.263214
-0.001251 0.076737 0.263899
0.000006 0.077216 0.265533
0.001274 0.077450 0.266329
0.002524 0.076867 0.264317
0.003808 0.077390 0.266106
0.005076 0.077385 0.266086
0.006084 0.074222 0.255206
0.007317 0.074394 0.255796
0.008520 0.074254 0.255318
0.009725 0.074169 0.255027
0.010953 0.074257 0.255333
0.012168 0.074245 0.255300
0.013400 0.074331 0.255603
0.014625 0.074368 0.255738
0.015833 0.074315 0.255568
0.017097 0.074520 0.256284
0.018350 0.074649 0.256743
0.020292 0.077387 0.266177
0.021883 0.078546 0.270180
0.023100 0.078308 0.269381
0.024262 0.077918 0.268060
0.025592 0.078078 0.268631
0.026790 0.077841 0.267841
0.028105 0.077949 0.268236
0.029253 0.077604 0.267073
0.030637 0.077888 0.268078
0.032047 0.078212 0.269221
0.033232 0.077983 0.268463
0.034483 0.077921 0.268277
0.035719 0.077830 0.267995
0.036641 0.077085 0.265463
0.037893 0.077060 0.265408
0.038928 0.076611 0.263891
0.040037 0.076329 0.262955
0.041123 0.076021 0.261925
0.042121 0.075576 0.260424
0.043123 0.075160 0.259025
0.043974 0.074514 0.256833
0.045119 0.074386 0.256425
0.045992 0.073828 0.254533
0.047039 0.073572 0.253682
0.048367 0.073756 0.254351
0.049520 0.073671 0.254088
0.050716 0.073653 0.254057
0.051970 0.073716 0.254306
0.052708 0.073062 0.252081
0.053925 0.073087 0.252195
0.056364 0.074730 0.257895
0.059134 0.076733 0.264835
0.060676 0.077093 0.266106
0.061876 0.077011 0.265851
0.063500 0.077449 0.267389
0.065035 0.077765 0.268504
0.066365 0.077828 0.268744
0.067700 0.077893 0.268991
0.069295 0.078250 0.270245
0.070568 0.078237 0.270217
0.072323 0.078749 0.272001
0.073693 0.078831 0.272296
0.074577 0.078399 0.270817
0.076243 0.078790 0.272177
0.077597 0.078851 0.272393
0.078538 0.078498 0.271175
0.080328 0.078989 0.272873
0.081689 0.079051 0.273084
0.083476 0.079516 0.274682
0.084745 0.079481 0.274551
0.086372 0.079778 0.275564
0.087789 0.079874 0.275879
0.089454 0.080190 0.276950
0.094374 0.083373 0.287914
0.095627 0.083270 0.287530
0.095775 0.082223 0.283878
0.099012 0.083819 0.289347
0.100247 0.083699 0.288889
0.101680 0.083747 0.289001
0.102974 0.083680 0.288713
0.104731 0.083985 0.289705
0.106202 0.084057 0.289883
0.107401 0.083913 0.289314
0.108799 0.083928 0.289283
0.110240 0.083973 0.289353
0.111296 0.083729 0.288418
0.112740 0.083779 0.288488
0.114283 0.083900 0.288796
0.115412 0.083718 0.288052
0.116970 0.083848 0.288375
0.118614 0.084035 0.288887
0.119918 0.083979 0.288555
0.121668 0.084235 0.289282
0.123127 0.084284 0.289295
0.124411 0.084214 0.288887
0.125957 0.084322 0.289076
0.127327 0.084310 0.288848
0.128839 0.084391 0.288927
0.130275 0.084421 0.288822
0.131531 0.084335 0.288307
0.133356 0.084611 0.289021
0.135022 0.084783 0.289363
0.136386 0.084762 0.289037
0.137942 0.084861 0.289103
0.139494 0.084954 0.289139
0.141017 0.085029 0.289096
0.142665 0.085176 0.289286
0.144386 0.085363 0.289596
0.146354 0.085692 0.290367
0.148408 0.086064 0.291266
0.150090 0.086215 0.291401
0.151679 0.086310 0.291327
0.153197 0.086363 0.291094
0.154662 0.086386 0.290740
-0.045951 0.025517 0.085137
-0.045398 0.025437 0.084989
-0.045013 0.025450 0.085147
-0.042242 0.029506 0.100440
-0.042813 0.030244 0.102997
-0.042599 0.030438 0.103700
-0.041909 0.030293 0.103243
-0.040748 0.029800 0.101595
-0.039353 0.029122 0.099315
-0.042176 0.032769 0.111866
-0.040808 0.032107 0.109628
-0.041358 0.032956 0.112548
-0.040952 0.033056 0.112905
-0.039882 0.032615 0.111415
-0.041478 0.034372 0.117432
-0.041067 0.034491 0.117849
-0.041325 0.035182 0.120222
-0.040840 0.035252 0.120468
-0.041063 0.035943 0.122835
-0.040579 0.036027 0.123126
-0.040460 0.036441 0.124543
-0.040754 0.037245 0.127293
-0.041733 0.038708 0.132292
-0.041222 0.038812 0.132645
-0.040649 0.038861 0.132807
-0.056068 0.060064 0.205153
-0.055250 0.060226 0.205682
-0.054673 0.060660 0.207136
-0.053718 0.060683 0.207189
-0.052885 0.060848 0.207719
-0.052216 0.061210 0.208927
-0.051630 0.061687 0.210521
-0.050740 0.061811 0.210908
-0.049925 0.062034 0.211634
-0.049153 0.062319 0.212571
-0.048437 0.062690 0.213799
-0.047779 0.063153 0.215337
-0.047166 0.063698 0.217155
-0.046198 0.063776 0.217381
-0.045369 0.064054 0.218287
-0.044587 0.064413 0.219467
-0.043823 0.064815 0.220793
-0.042925 0.065035 0.221497
-0.042049 0.065300 0.222356
-0.041168 0.065569 0.223226
-0.040398 0.066036 0.224770
-0.040155 0.067412 0.229407
-0.048458 0.083609 0.284467
-0.047154 0.083683 0.284664
-0.045851 0.083763 0.284876
-0.044631 0.084003 0.285635
-0.043261 0.083968 0.285457
-0.041941 0.084030 0.285614
-0.040302 0.083438 0.283545
-0.039386 0.084352 0.286595
-0.038057 0.084416 0.286756
-0.036176 0.083215 0.282624
-0.034928 0.083434 0.283312
-0.030736 0.076355 0.259227
-0.029390 0.076053 0.258155
-0.028064 0.075781 0.257185
-0.026900 0.075937 0.257671
-0.025655 0.075873 0.257409
-0.024405 0.075784 0.257066
-0.023276 0.076082 0.258036
-0.022094 0.076230 0.258496
-0.020574 0.075160 0.254831
-0.019835 0.076992 0.261003
-0.018625 0.077117 0.261389
-0.017359 0.077009 0.260989
-0.016136 0.077092 0.261236
-0.014735 0.076268 0.258411
-0.013503 0.076243 0.258298
-0.012192 0.075731 0.256535
-0.010942 0.075524 0.255808
-0.009740 0.075632 0.256146
-0.008539 0.075792 0.256664
-0.007341 0.076028 0.257444
-0.006158 0.076546 0.259175
-0.004945 0.076862 0.260227
-0.003721 0.077157 0.261210
-0.002483 0.077316 0.261730
-0.001243 0.077687 0.262974
0.000009 0.078304 0.265049
0.001271 0.078307 0.265052
0.002521 0.077946 0.263819
0.003799 0.078386 0.265303
0.005109 0.079120 0.267783
0.006080 0.075342 0.254992
0.007284 0.075242 0.254651
0.008485 0.075137 0.254299
0.009694 0.075121 0.254246
0.010913 0.075176 0.254437
0.012124 0.075168 0.254414
0.013348 0.075239 0.254663
0.014571 0.075288 0.254835
0.015767 0.075205 0.254565
0.017033 0.075441 0.255376
0.018239 0.075397 0.255240
0.020364 0.078921 0.267184
0.021805 0.079534 0.269278
0.022863 0.078763 0.266685
0.024054 0.078504 0.265828
0.025479 0.078996 0.267514
0.026594 0.078525 0.265942
0.027857 0.078516 0.265934
0.029064 0.078357 0.265417
0.030260 0.078181 0.264848
0.031698 0.078619 0.266356
0.032897 0.078453 0.265823
0.034006 0.078094 0.264633
0.035352 0.078284 0.265307
0.036296 0.077603 0.263027
0.037583 0.077674 0.263299
0.038684 0.077371 0.262300
0.039768 0.077051 0.261248
0.041122 0.077259 0.261981
0.042172 0.076899 0.260794
0.042991 0.076152 0.258291
0.044027 0.075821 0.257198
0.045049 0.075481 0.256078
0.046032 0.075097 0.254805
0.047282 0.075158 0.255042
0.048438 0.075069 0.254772
0.049684 0.075120 0.254975
0.050751 0.074905 0.254274
0.052161 0.075195 0.255286
0.052875 0.074489 0.252919
0.054054 0.074457 0.252838
0.056743 0.076460 0.259665
0.059389 0.078321 0.266013
0.060678 0.078352 0.266145
0.061861 0.078249 0.265817
0.063503 0.078717 0.267432
0.065003 0.078996 0.268401
0.066364 0.079096 0.268762
0.067681 0.079142 0.268938
0.069202 0.079421 0.269902
0.070304 0.079217 0.269224
0.071937 0.079608 0.270564
0.074112 0.080573 0.273856
0.074751 0.079866 0.271458
0.076319 0.080156 0.272452
0.078429 0.080999 0.275318
0.079084 0.080334 0.273059
0.080572 0.080524 0.273700
0.082155 0.080800 0.274635
0.083577 0.080913 0.275006
0.085320 0.081327 0.276402
0.087045 0.081713 0.277696
0.088450 0.081791 0.277939
0.089967 0.081968 0.278516
0.092436 0.082995 0.281975
0.095525 0.084541 0.287193
0.095892 0.083668 0.284190
0.099006 0.085183 0.289291
0.100289 0.085103 0.288970
0.101843 0.085252 0.289418
0.103049 0.085108 0.288872
0.104442 0.085122 0.288850
0.105886 0.085176 0.288961
0.107138 0.085076 0.288544
0.108566 0.085116 0.288595
0.109960 0.085129 0.288547
0.111189 0.085016 0.288064
0.112672 0.085097 0.288233
0.114236 0.085236 0.288592
0.115728 0.085319 0.288752
0.117354 0.085498 0.289227
0.118474 0.085307 0.288445
0.119948 0.085373 0.288524
0.121556 0.085532 0.288905
0.123022 0.085589 0.288933
0.124325 0.085532 0.288568
0.125874 0.085643 0.288760
0.127333 0.085691 0.288729
0.128720 0.085691 0.288524
0.130348 0.085849 0.288842
0.131989 0.086012 0.289164
0.133516 0.086098 0.289215
0.134735 0.085985 0.288587
0.136393 0.086152 0.288885
0.138124 0.086361 0.289310
0.139466 0.086325 0.288901
0.141178 0.086517 0.289239
0.142829 0.086668 0.289425
0.144722 0.086961 0.290069
0.146622 0.087252 0.290689
0.148749 0.087672 0.291718
0.150179 0.087676 0.291347
0.151561 0.087653 0.290867
0.153137 0.087741 0.290738
0.154670 0.087803 0.290504
-0.045699 0.025787 0.084601
-0.045528 0.025921 0.085165
-0.045287 0.026017 0.085599
-0.042450 0.030130 0.100904
-0.042449 0.030471 0.102092
-0.042042 0.030525 0.102315
-0.040805 0.029971 0.100496
-0.041148 0.030578 0.102568
-0.042145 0.032864 0.110362
