ply
format ascii 1.0
element vertex 1741
property float x
property float y
property float z
end_header
0.106242 0.000075 0.290125
0.107605 0.000075 0.290127
0.108879 0.000074 0.289885
0.110194 0.000074 0.289756
0.111663 0.000073 0.290025
0.112988 0.000073 0.289911
0.114769 0.000073 0.290953
0.115936 0.000072 0.290426
0.117124 0.000072 0.289958
0.118537 0.000071 0.290044
0.120032 0.000071 0.290323
0.121641 0.000071 0.290857
0.123327 0.000071 0.291558
0.124844 0.000070 0.291839
0.126125 0.000070 0.291560
0.127083 0.000069 0.290539
0.128370 0.000068 0.290277
0.129750 0.000068 0.290217
0.131244 0.000068 0.290404
0.133257 0.000067 0.291712
0.134596 0.000067 0.291522
0.135619 0.000066 0.290646
0.137197 0.000066 0.290956
0.138506 0.000065 0.290681
0.140158 0.000065 0.291113
0.141590 0.000065 0.291071
0.143434 0.000064 0.291855
0.144522 0.000064 0.291084
0.146087 0.000063 0.291268
0.147669 0.000063 0.291464
0.148807 0.000062 0.290774
0.150115 0.000061 0.290408
0.152027 0.000061 0.291192
-0.126547 0.001181 0.238691
-0.125507 0.001182 0.239016
-0.124855 0.001187 0.240079
-0.123934 0.001189 0.240626
-0.123116 0.001193 0.241374
-0.122463 0.001198 0.242452
-0.121840 0.001204 0.243601
-0.121250 0.001210 0.244826
-0.120931 0.001218 0.246620
-0.120821 0.001229 0.248868
-0.120870 0.001242 0.251484
-0.120565 0.001252 0.253397
-0.119580 0.001254 0.253897
-0.118496 0.001256 0.254185
-0.117812 0.001262 0.255337
-0.116805 0.001264 0.255799
-0.112264 0.001298 0.262121
-0.111224 0.001300 0.262564
-0.109596 0.001296 0.261608
-0.108564 0.001299 0.262063
-0.107381 0.001299 0.262154
-0.106554 0.001305 0.263121
-0.105534 0.001308 0.263625
-0.104562 0.001311 0.264258
-0.103913 0.001319 0.265728
-0.102917 0.001323 0.266329
-0.102586 0.001335 0.268684
-0.101707 0.001341 0.269642
-0.101371 0.001353 0.272078
-0.100404 0.001358 0.272857
-0.099476 0.001363 0.273760
-0.098897 0.001373 0.275656
-0.098004 0.001379 0.276716
-0.097077 0.001385 0.277701
-0.096303 0.001393 0.279159
-0.095111 0.001395 0.279423
-0.094214 0.001402 0.280574
-0.093089 0.001405 0.281071
-0.091753 0.001405 0.280931
-0.090692 0.001410 0.281646
-0.089467 0.001412 0.281860
-0.088033 0.001410 0.281417
-0.086927 0.001414 0.282026
-0.085903 0.001420 0.282924
-0.084472 0.001419 0.282489
-0.083328 0.001422 0.283019
-0.082508 0.001431 0.284684
-0.081768 0.001442 0.286687
-0.080847 0.001451 0.288112
-0.079605 0.001453 0.288427
-0.078316 0.001455 0.288581
-0.077197 0.001460 0.289385
-0.075946 0.001463 0.289715
-0.074341 0.001458 0.288686
-0.072753 0.001454 0.287690
-0.072212 0.001471 0.290883
-0.070979 0.001475 0.291361
-0.068402 0.001450 0.286238
-0.067025 0.001450 0.286038
-0.065785 0.001453 0.286434
-0.064516 0.001455 0.286722
-0.058205 0.001470 0.288650
-0.056817 0.001470 0.288472
-0.055605 0.001475 0.289212
-0.054296 0.001477 0.289484
-0.052700 0.001471 0.288205
-0.051110 0.001465 0.286901
-0.049738 0.001466 0.286793
-0.048305 0.001464 0.286331
-0.046992 0.001466 0.286580
-0.045688 0.001469 0.286913
-0.043757 0.001451 0.283215
-0.042059 0.001440 0.280857
-0.040701 0.001440 0.280691
-0.039507 0.001445 0.281703
-0.038179 0.001447 0.281804
-0.036095 0.001418 0.276136
-0.035618 0.001453 0.282819
-0.033996 0.001443 0.280586
-0.029844 0.001319 0.256446
-0.028612 0.001320 0.256409
-0.027456 0.001324 0.257095
-0.026141 0.001320 0.256298
-0.024888 0.001320 0.256076
-0.023643 0.001319 0.255931
-0.022412 0.001320 0.255940
-0.021172 0.001320 0.255852
-0.019921 0.001319 0.255632
-0.018703 0.001321 0.255846
-0.018117 0.001370 0.265358
-0.016922 0.001378 0.266733
-0.015994 0.001410 0.272919
-0.014677 0.001411 0.272993
-0.012512 0.001322 0.255767
-0.011300 0.001326 0.256368
-0.010074 0.001328 0.256817
-0.008833 0.001329 0.256959
-0.007622 0.001336 0.258158
-0.006368 0.001336 0.258160
-0.005113 0.001336 0.258080
-0.003864 0.001338 0.258435
-0.002604 0.001336 0.258026
-0.001354 0.001340 0.258836
-0.000096 0.001343 0.259415
0.001186 0.001367 0.263977
0.002462 0.001362 0.263151
0.003697 0.001346 0.259993
0.020942 0.001399 0.270702
0.022037 0.001385 0.268081
0.023478 0.001393 0.269719
0.024458 0.001375 0.266189
0.025553 0.001364 0.264201
0.026263 0.001335 0.258633
0.027713 0.001344 0.260519
0.028894 0.001340 0.259843
0.030064 0.001336 0.259133
0.031516 0.001344 0.260824
0.032899 0.001349 0.261839
0.034483 0.001361 0.264334
0.035927 0.001367 0.265621
0.037260 0.001369 0.266039
0.038543 0.001368 0.266090
0.039911 0.001371 0.266717
0.041173 0.001370 0.266621
0.042387 0.001367 0.266243
0.043250 0.001354 0.263750
0.044492 0.001353 0.263652
0.045032 0.001331 0.259520
0.046212 0.001328 0.259203
0.047274 0.001323 0.258268
0.048552 0.001323 0.258537
0.049791 0.001323 0.258599
0.051135 0.001325 0.259190
0.052653 0.001332 0.260622
0.054031 0.001335 0.261320
0.055566 0.001341 0.262735
0.056832 0.001341 0.262848
0.058523 0.001351 0.264883
0.060790 0.001373 0.269391
0.062360 0.001379 0.270693
0.063504 0.001375 0.270137
0.064779 0.001374 0.270151
0.066079 0.001374 0.270273
0.067289 0.001372 0.270030
0.068628 0.001373 0.270313
0.069802 0.001370 0.269945
0.070578 0.001360 0.268085
0.071283 0.001348 0.266028
0.072525 0.001347 0.266010
0.073500 0.001342 0.265036
0.074541 0.001337 0.264332
0.075368 0.001329 0.262903
0.076118 0.001320 0.261257
0.077155 0.001316 0.260632
0.078441 0.001317 0.260861
0.079880 0.001320 0.261579
0.081289 0.001322 0.262182
0.083164 0.001332 0.264248
0.084841 0.001338 0.265634
0.086174 0.001339 0.265918
0.087899 0.001345 0.267384
0.096078 0.001449 0.288168
0.097288 0.001446 0.287761
0.100756 0.001477 0.293951
0.099917 0.001444 0.287578
0.102294 0.001458 0.290505
0.103635 0.001457 0.290449
0.105455 0.001462 0.291717
0.106184 0.001453 0.289969
0.107559 0.001453 0.290004
0.109172 0.001455 0.290667
0.110393 0.001453 0.290281
0.111804 0.001453 0.290391
0.113337 0.001454 0.290808
0.114931 0.001456 0.291365
0.116191 0.001454 0.291066
0.117382 0.001452 0.290597
0.118650 0.001450 0.290323
0.120139 0.001451 0.290581
0.122208 0.001458 0.292216
0.123416 0.001456 0.291769
0.124627 0.001453 0.291331
0.126062 0.001453 0.291415
0.127372 0.001452 0.291200
0.128435 0.001448 0.290424
0.129677 0.001446 0.290055
0.131631 0.001452 0.291261
0.133252 0.001454 0.291702
0.134518 0.001452 0.291353
0.135985 0.001452 0.291431
0.137220 0.001450 0.291006
0.138473 0.001448 0.290613
0.140085 0.001450 0.290963
0.141548 0.001450 0.290985
0.143420 0.001455 0.291826
0.144893 0.001455 0.291832
0.146125 0.001453 0.291342
0.147525 0.001452 0.291181
0.149033 0.001453 0.291216
0.150210 0.001450 0.290592
0.151581 0.001449 0.290337
-0.127281 0.002326 0.240075
-0.126577 0.002334 0.241052
-0.126272 0.002350 0.242802
-0.125174 0.002351 0.243033
-0.124525 0.002361 0.244137
-0.124284 0.002379 0.246058
-0.124051 0.002397 0.248021
-0.124001 0.002420 0.250382
-0.123403 0.002432 0.251661
-0.122652 0.002441 0.252638
-0.121749 0.002447 0.253312
-0.120865 0.002453 0.254027
-0.119845 0.002457 0.254459
-0.118639 0.002458 0.254491
-0.117560 0.002460 0.254793
-0.116380 0.002461 0.254868
-0.115114 0.002460 0.254748
-0.113796 0.002458 0.254503
-0.112599 0.002458 0.254517
-0.111651 0.002464 0.255093
-0.110537 0.002466 0.255292
-0.109569 0.002472 0.255829
-0.108715 0.002480 0.256643
-0.107753 0.002486 0.257210
-0.107000 0.002497 0.258288
-0.106269 0.002509 0.259441
-0.106038 0.002533 0.261848
-0.105061 0.002539 0.262445
-0.104221 0.002549 0.263399
-0.103561 0.002564 0.264828
-0.102901 0.002579 0.266290
-0.102155 0.002592 0.267558
-0.101142 0.002598 0.268147
-0.100222 0.002608 0.268997
-0.099487 0.002622 0.270366
-0.098619 0.002633 0.271403
-0.098848 0.002674 0.275522
-0.098097 0.002689 0.276981
-0.096999 0.002696 0.277482
-0.096354 0.002715 0.279309
-0.095240 0.002721 0.279807
-0.094495 0.002738 0.281415
-0.093275 0.002741 0.281634
-0.091195 0.002719 0.279226
-0.090039 0.002724 0.279621
-0.088899 0.002730 0.280076
-0.087664 0.002733 0.280241
-0.086564 0.002741 0.280851
-0.085979 0.002765 0.283177
-0.085024 0.002778 0.284338
-0.084016 0.002789 0.285358
-0.083315 0.002811 0.287474
-0.082083 0.002816 0.287795
-0.080792 0.002819 0.287921
-0.079716 0.002829 0.288835
-0.078489 0.002835 0.289226
-0.077116 0.002835 0.289086
-0.075982 0.002844 0.289855
-0.074737 0.002850 0.290230
-0.072882 0.002832 0.288208
-0.072260 0.002862 0.291080
-0.071199 0.002875 0.292268
-0.067097 0.002764 0.280781
-0.066473 0.002794 0.283689
-0.063858 0.002740 0.278047
-0.062731 0.002749 0.278797
-0.061374 0.002748 0.278535
-0.060146 0.002753 0.278871
-0.058905 0.002757 0.279166
-0.059982 0.002873 0.290716
-0.056788 0.002785 0.281626
-0.056491 0.002838 0.286824
-0.055098 0.002837 0.286581
-0.053400 0.002820 0.284710
-0.052215 0.002830 0.285558
-0.050713 0.002823 0.284680
-0.049220 0.002816 0.283813
-0.047829 0.002815 0.283515
-0.046258 0.002802 0.282114
-0.045043 0.002811 0.282868
-0.043868 0.002823 0.283942
-0.042099 0.002797 0.281130
-0.040774 0.002799 0.281202
-0.039489 0.002804 0.281580
-0.038111 0.002802 0.281306
-0.036153 0.002757 0.276587
-0.035964 0.002848 0.285574
-0.031213 0.002570 0.257627
-0.030043 0.002576 0.258164
-0.028990 0.002594 0.259806
-0.027680 0.002589 0.259201
-0.026590 0.002605 0.260714
-0.025288 0.002601 0.260204
-0.024040 0.002602 0.260236
-0.022815 0.002606 0.260545
-0.021582 0.002610 0.260818
-0.020313 0.002609 0.260673
-0.018982 0.002600 0.259672
-0.018059 0.002649 0.264523
-0.016844 0.002660 0.265512
-0.016277 0.002783 0.277758
-0.014937 0.002785 0.277833
-0.012571 0.002576 0.256970
-0.011287 0.002568 0.256094
-0.010070 0.002575 0.256721
-0.008859 0.002585 0.257730
-0.007600 0.002583 0.257429
-0.006346 0.002581 0.257251
-0.005105 0.002586 0.257676
-0.003849 0.002584 0.257423
-0.002598 0.002584 0.257437
-0.001347 0.002585 0.257473
-0.000095 0.002582 0.257227
0.001201 0.002684 0.267359
0.002479 0.002659 0.264898
0.003767 0.002659 0.264883
0.020917 0.002710 0.270385
0.022095 0.002694 0.268783
0.023140 0.002664 0.265848
0.024457 0.002666 0.266179
0.025080 0.002597 0.259324
0.026113 0.002574 0.257154
0.027415 0.002579 0.257728
0.028532 0.002567 0.256597
0.029902 0.002578 0.257742
0.031327 0.002592 0.259265
0.032971 0.002623 0.262422
0.034339 0.002630 0.263233
0.035723 0.002638 0.264123
0.037092 0.002644 0.264845
0.038150 0.002628 0.263383
0.039800 0.002653 0.265978
0.041069 0.002652 0.265956
0.042398 0.002654 0.266314
0.043269 0.002629 0.263868
0.044462 0.002624 0.263478
0.045404 0.002604 0.261669
0.046702 0.002606 0.261958
0.047717 0.002592 0.260696
0.048917 0.002589 0.260486
0.050219 0.002591 0.260827
0.051492 0.002592 0.261008
0.052787 0.002593 0.261292
0.054143 0.002598 0.261868
0.055476 0.002601 0.262314
0.056531 0.002591 0.261456
0.058485 0.002622 0.264713
0.060628 0.002660 0.268678
0.062269 0.002675 0.270302
0.063368 0.002666 0.269563
0.064577 0.002662 0.269313
0.066019 0.002668 0.270030
0.067288 0.002666 0.270030
0.068485 0.002662 0.269753
0.069655 0.002657 0.269383
0.070714 0.002648 0.268604
0.071447 0.002628 0.266644
0.072755 0.002628 0.266858
0.074043 0.002628 0.266998
0.075035 0.002618 0.266085
0.076056 0.002609 0.265306
0.077013 0.002598 0.264333
0.078213 0.002596 0.264212
0.079283 0.002589 0.263662
0.080908 0.002601 0.264951
0.082148 0.002599 0.264956
0.083306 0.002596 0.264702
0.084990 0.002608 0.266103
0.086533 0.002616 0.267029
0.087834 0.002617 0.267189
0.096845 0.002843 0.290471
0.097363 0.002818 0.287986
0.100155 0.002858 0.292201
0.100932 0.002840 0.290501
0.102576 0.002847 0.291308
0.103974 0.002847 0.291401
0.105272 0.002844 0.291211
0.106917 0.002851 0.291973
0.108052 0.002844 0.291335
0.109567 0.002846 0.291721
0.111007 0.002847 0.291897
0.111776 0.002831 0.290321
0.113572 0.002841 0.291412
0.114833 0.002838 0.291118
0.116060 0.002833 0.290740
0.117483 0.002834 0.290850
0.120625 0.002875 0.295156
0.121586 0.002864 0.294082
0.122524 0.002853 0.292971
0.123455 0.002842 0.291862
0.124756 0.002839 0.291633
0.126036 0.002837 0.291354
0.127389 0.002835 0.291239
0.128503 0.002829 0.290577
0.129756 0.002825 0.290232
0.131715 0.002837 0.291447
0.132958 0.002834 0.291057
0.134502 0.002837 0.291317
0.135615 0.002830 0.290637
0.137027 0.002830 0.290595
0.138340 0.002828 0.290333
0.139734 0.002828 0.290233
0.142070 0.002846 0.292058
0.144062 0.002858 0.293131
0.145109 0.002850 0.292265
0.146355 0.002847 0.291800
0.147915 0.002849 0.291948
0.149123 0.002845 0.291389
0.150406 0.002842 0.290970
0.151742 0.002840 0.290643
-0.128632 0.003501 0.242620
-0.128510 0.003530 0.244730
-0.128709 0.003568 0.247486
-0.127731 0.003573 0.247995
-0.127154 0.003590 0.249289
-0.126366 0.003602 0.250179
-0.125703 0.003617 0.251323
-0.124839 0.003627 0.252071
-0.123717 0.003629 0.252299
-0.122561 0.003630 0.252451
-0.121161 0.003624 0.252086
-0.120108 0.003629 0.252435
-0.118659 0.003621 0.251940
-0.117392 0.003619 0.251816
-0.116341 0.003624 0.252151
-0.115298 0.003628 0.252500
-0.114145 0.003630 0.252605
-0.113242 0.003639 0.253262
-0.112300 0.003648 0.253841
-0.111312 0.003655 0.254320
-0.110440 0.003666 0.255069
-0.109528 0.003676 0.255734
-0.108644 0.003687 0.256476
-0.107711 0.003696 0.257110
-0.106799 0.003707 0.257806
-0.106006 0.003722 0.258799
-0.105258 0.003739 0.259925
-0.104439 0.003754 0.260894
-0.103595 0.003768 0.261817
-0.102860 0.003787 0.263039
-0.102173 0.003807 0.264410
-0.101580 0.003832 0.266055
-0.100649 0.003845 0.266841
-0.099765 0.003860 0.267773
-0.099032 0.003880 0.269132
-0.098538 0.003911 0.271184
-0.097906 0.003938 0.272900
-0.097355 0.003968 0.274890
-0.096819 0.004000 0.276970
-0.096015 0.004021 0.278329
-0.094864 0.004028 0.278705
-0.093819 0.004040 0.279406
-0.092827 0.004055 0.280287
-0.091554 0.004057 0.280331
-0.090394 0.004065 0.280728
-0.089461 0.004083 0.281850
-0.087721 0.004064 0.280430
-0.086718 0.004080 0.281358
-0.086378 0.004127 0.284497
-0.085350 0.004143 0.285436
-0.084197 0.004153 0.285981
-0.083064 0.004165 0.286612
-0.081837 0.004172 0.286940
-0.080671 0.004182 0.287497
-0.079477 0.004191 0.287975
-0.078227 0.004198 0.288266
-0.076748 0.004192 0.287711
-0.075929 0.004223 0.289660
-0.074547 0.004223 0.289500
-0.072110 0.004162 0.285163
-0.072265 0.004251 0.291110
-0.070971 0.004257 0.291342
-0.067221 0.004113 0.281309
-0.065457 0.004086 0.279359
-0.064062 0.004083 0.278946
-0.062627 0.004076 0.278342
-0.061372 0.004081 0.278534
-0.059972 0.004077 0.278074
-0.060808 0.004227 0.288191
-0.059977 0.004267 0.290700
-0.058550 0.004264 0.290377
-0.056357 0.004204 0.286154
-0.054907 0.004199 0.285599
-0.053473 0.004194 0.285114
-0.051950 0.004181 0.284119
-0.050443 0.004170 0.283175
-0.049003 0.004163 0.282575
-0.047499 0.004150 0.281572
-0.046162 0.004152 0.281534
-0.044850 0.004156 0.281667
-0.043546 0.004161 0.281868
-0.042329 0.004175 0.282676
-0.040841 0.004162 0.281678
-0.038716 0.004081 0.276077
-0.037873 0.004135 0.279561
-0.036457 0.004127 0.278926
-0.035960 0.004227 0.285557
-0.031501 0.003851 0.260014
-0.030127 0.003836 0.258895
-0.029078 0.003863 0.260606
-0.027817 0.003862 0.260492
-0.026571 0.003865 0.260537
-0.025323 0.003867 0.260575
-0.024104 0.003873 0.260939
-0.022849 0.003875 0.260948
-0.021564 0.003871 0.260611
-0.020220 0.003855 0.259487
-0.018985 0.003860 0.259728
-0.018006 0.003921 0.263751
-0.016719 0.003919 0.263567
-0.016147 0.004099 0.275551
-0.014818 0.004101 0.275626
-0.012772 0.003885 0.261103
-0.011489 0.003880 0.260687
-0.010201 0.003872 0.260082
-0.008914 0.003861 0.259332
-0.007640 0.003854 0.258801
-0.006399 0.003864 0.259420
-0.005127 0.003855 0.258808
-0.003862 0.003848 0.258321
-0.002609 0.003852 0.258533
-0.001350 0.003846 0.258115
-0.000095 0.003851 0.258419
0.001212 0.004019 0.269743
0.002477 0.003945 0.264747
0.004092 0.004288 0.287758
0.005491 0.004288 0.287735
0.006875 0.004278 0.287098
0.008270 0.004277 0.287061
0.009596 0.004246 0.285002
0.010891 0.004211 0.282651
0.012235 0.004200 0.281974
0.013564 0.004187 0.281136
0.014854 0.004166 0.279704
0.016214 0.004166 0.279755
0.017418 0.004129 0.277310
0.018756 0.004126 0.277203
0.020093 0.004124 0.277109
0.020795 0.004000 0.268818
0.022012 0.003984 0.267784
0.023574 0.004028 0.270843
0.024874 0.004025 0.270727
0.024997 0.003842 0.258469
0.026052 0.003813 0.256568
0.027350 0.003820 0.257125
0.028534 0.003811 0.256623
0.029737 0.003806 0.256331
0.030977 0.003805 0.256375
0.032254 0.003809 0.256725
0.033481 0.003807 0.256669
0.034639 0.003797 0.256118
0.035923 0.003802 0.256510
0.037458 0.003832 0.258615
0.039631 0.003923 0.264859
0.041896 0.004017 0.271319
0.042962 0.003994 0.269869
0.044183 0.003986 0.269451
0.045667 0.004001 0.270630
0.046879 0.003993 0.270175
0.048058 0.003982 0.269571
0.049315 0.003978 0.269436
0.050617 0.003978 0.269546
0.051919 0.003978 0.269663
0.053344 0.003987 0.270402
0.054392 0.003968 0.269244
0.055704 0.003969 0.269425
0.057074 0.003974 0.269878
0.057772 0.003933 0.267203
0.058787 0.003914 0.266088
0.061054 0.003978 0.270571
0.062316 0.003976 0.270516
0.063632 0.003976 0.270692
0.064924 0.003975 0.270767
0.066123 0.003969 0.270463
0.067278 0.003960 0.269997
0.068579 0.003960 0.270129
0.069853 0.003959 0.270155
0.071092 0.003955 0.270048
0.072303 0.003950 0.269845
0.073860 0.003964 0.270919
0.074974 0.003954 0.270360
0.075716 0.003925 0.268507
0.076966 0.003923 0.268485
0.078217 0.003921 0.268470
0.079562 0.003924 0.268772
0.080880 0.003925 0.268979
0.081959 0.003915 0.268396
0.083491 0.003926 0.269293
0.085056 0.003939 0.270267
0.086292 0.003936 0.270183
0.087850 0.003947 0.271098
0.095614 0.004234 0.290861
0.096839 0.004226 0.290456
0.099139 0.004265 0.293243
0.099875 0.004237 0.291388
0.101032 0.004226 0.290795
0.102380 0.004224 0.290755
0.103742 0.004223 0.290752
0.105094 0.004221 0.290723
0.106639 0.004227 0.291216
0.108049 0.004228 0.291329
0.109927 0.004246 0.292682
0.111258 0.004243 0.292558
0.112492 0.004237 0.292182
0.113920 0.004238 0.292308
0.115036 0.004227 0.291635
0.116341 0.004224 0.291446
0.117615 0.004219 0.291178
0.118729 0.004209 0.290518
0.119920 0.004202 0.290054
0.121085 0.004194 0.289532
0.122572 0.004197 0.289776
0.124385 0.004212 0.290767
0.125926 0.004216 0.291101
0.127192 0.004212 0.290790
0.128714 0.004216 0.291055
0.130020 0.004213 0.290823
0.132204 0.004238 0.292528
0.132917 0.004216 0.290967
0.134447 0.004220 0.291198
0.136044 0.004226 0.291557
0.137335 0.004222 0.291247
0.138631 0.004219 0.290943
0.140059 0.004219 0.290905
0.141645 0.004224 0.291182
0.143188 0.004228 0.291350
0.145054 0.004242 0.292153
0.146365 0.004239 0.291817
0.147836 0.004240 0.291788
0.149033 0.004234 0.291211
0.150255 0.004228 0.290674
0.152140 0.004241 0.291402
-0.134954 0.004880 0.254541
-0.133067 0.004856 0.253405
-0.131886 0.004857 0.253590
-0.130726 0.004858 0.253806
-0.129140 0.004844 0.253178
-0.127668 0.004834 0.252753
-0.126617 0.004840 0.253147
-0.125522 0.004844 0.253449
-0.124333 0.004844 0.253552
-0.123288 0.004851 0.253947
-0.122267 0.004858 0.254386
-0.121308 0.004868 0.254956
-0.120365 0.004879 0.255561
-0.119303 0.004885 0.255914
-0.118317 0.004894 0.256431
-0.116955 0.004888 0.256127
-0.115996 0.004898 0.256701
-0.115030 0.004909 0.257263
-0.113720 0.004905 0.257050
-0.112982 0.004926 0.258135
-0.112112 0.004941 0.258930
-0.110949 0.004944 0.259054
-0.110143 0.004963 0.260016
-0.109271 0.004979 0.260837
-0.108460 0.004998 0.261816
-0.107600 0.005016 0.262694
-0.106756 0.005035 0.263627
-0.105882 0.005052 0.264501
-0.105030 0.005072 0.265448
-0.104520 0.005108 0.267286
-0.103724 0.005131 0.268425
-0.103070 0.005162 0.269961
-0.102210 0.005183 0.270984
-0.101397 0.005207 0.272156
-0.100517 0.005228 0.273172
-0.099861 0.005262 0.274829
-0.099197 0.005296 0.276504
-0.098458 0.005326 0.278007
-0.097376 0.005339 0.278571
-0.096441 0.005361 0.279572
-0.095381 0.005375 0.280231
-0.094211 0.005384 0.280579
-0.092946 0.005388 0.280652
-0.091551 0.005384 0.280330
-0.090100 0.005377 0.279821
-0.088431 0.005356 0.278613
-0.086806 0.005338 0.277513
-0.085640 0.005347 0.277866
-0.084532 0.005360 0.278425
-0.085342 0.005498 0.285415
-0.085867 0.005621 0.291662
-0.083352 0.005546 0.287616
-0.081974 0.005545 0.287430
-0.080455 0.005534 0.286737
-0.079429 0.005558 0.287811
-0.077934 0.005549 0.287197
-0.075948 0.005504 0.284722
-0.074386 0.005489 0.283785
-0.073077 0.005492 0.283801
-0.072131 0.005524 0.285255
-0.069813 0.005449 0.281243
-0.068852 0.005479 0.282652
-0.066851 0.005426 0.279772
-0.065506 0.005426 0.279579
-0.064591 0.005461 0.281260
-0.064643 0.005582 0.287316
-0.063448 0.005598 0.287972
-0.061839 0.005577 0.286740
-0.060536 0.005583 0.286915
-0.059253 0.005592 0.287205
-0.056422 0.005451 0.279834
-0.054885 0.005432 0.278691
-0.053532 0.005430 0.278462
-0.052343 0.005446 0.279099
-0.051064 0.005452 0.279287
-0.049748 0.005455 0.279288
-0.048640 0.005482 0.280497
-0.047544 0.005511 0.281853
-0.045888 0.005475 0.279882
-0.044541 0.005475 0.279742
-0.043461 0.005509 0.281336
-0.043485 0.005689 0.290411
-0.042134 0.005696 0.290610
-0.040948 0.005726 0.292010
-0.037447 0.005423 0.276437
-0.036005 0.005407 0.275486
-0.034711 0.005412 0.275652
-0.031094 0.005042 0.256672
-0.029943 0.005057 0.257326
-0.028922 0.005096 0.259224
-0.027975 0.005152 0.261989
-0.026659 0.005143 0.261418
-0.025471 0.005158 0.262115
-0.024186 0.005155 0.261849
-0.022871 0.005144 0.261222
-0.021633 0.005151 0.261466
-0.020319 0.005139 0.260771
-0.018984 0.005120 0.259727
-0.018021 0.005205 0.263996
-0.016903 0.005256 0.266479
-0.015903 0.005354 0.271405
-0.014593 0.005357 0.271478
-0.012700 0.005124 0.259634
-0.011455 0.005131 0.259928
-0.010121 0.005095 0.258056
-0.008874 0.005098 0.258186
-0.007610 0.005092 0.257810
-0.006360 0.005094 0.257894
-0.005111 0.005097 0.258035
-0.003870 0.005115 0.258886
-0.002621 0.005132 0.259748
-0.001353 0.005114 0.258779
-0.000096 0.005159 0.261051
0.001213 0.005332 0.269791
0.002469 0.005214 0.263835
0.003989 0.005544 0.280553
0.005353 0.005544 0.280530
0.006177 0.005098 0.257973
0.007445 0.005107 0.258455
0.008720 0.005117 0.258984
0.009961 0.005108 0.258541
0.011261 0.005127 0.259533
0.012529 0.005130 0.259688
0.013860 0.005155 0.261010
0.015178 0.005172 0.261878
0.016435 0.005167 0.261673
0.017877 0.005216 0.264225
0.019148 0.005213 0.264087
0.020614 0.005259 0.266497
0.021971 0.005274 0.267304
0.022909 0.005192 0.263209
0.024191 0.005193 0.263312
0.024733 0.005042 0.255749
0.026045 0.005056 0.256508
0.027287 0.005055 0.256544
0.028426 0.005036 0.255664
0.029719 0.005045 0.256183
0.030974 0.005047 0.256364
0.032203 0.005045 0.256332
0.033424 0.005041 0.256242
0.034631 0.005036 0.256068
0.035906 0.005041 0.256396
0.037543 0.005094 0.259212
0.039548 0.005192 0.264314
0.041944 0.005334 0.271643
0.043211 0.005328 0.271445
0.044042 0.005270 0.268606
0.045714 0.005313 0.270920
0.046987 0.005309 0.270811
0.048186 0.005297 0.270303
0.049263 0.005272 0.269162
0.050679 0.005284 0.269891
0.051935 0.005279 0.269757
0.053119 0.005267 0.269271
0.054378 0.005263 0.269187
0.055725 0.005268 0.269538
0.056892 0.005255 0.269024
0.057956 0.005234 0.268067
0.059681 0.005272 0.270143
0.060980 0.005272 0.270253
0.062540 0.005293 0.271496
0.063677 0.005279 0.270894
0.064892 0.005272 0.270645
0.066246 0.005276 0.270974
0.067401 0.005264 0.270503
0.068633 0.005259 0.270349
0.069893 0.005255 0.270317
0.071273 0.005261 0.270745
0.073261 0.005311 0.273427
0.074553 0.005309 0.273468
0.075817 0.005306 0.273408
0.076862 0.005287 0.272579
0.077950 0.005272 0.271926
0.079376 0.005280 0.272454
0.080595 0.005274 0.272268
0.081559 0.005252 0.271242
0.082868 0.005253 0.271381
0.084314 0.005262 0.271955
0.085691 0.005266 0.272291
0.087068 0.005270 0.272618
0.088687 0.005289 0.273686
0.094960 0.005580 0.288877
0.096176 0.005570 0.288475
0.099009 0.005653 0.292864
0.100049 0.005633 0.291901
0.101289 0.005624 0.291537
0.102462 0.005612 0.290993
0.104039 0.005621 0.291591
0.105338 0.005616 0.291400
0.106779 0.005619 0.291601
0.108158 0.005618 0.291626
0.109479 0.005614 0.291493
0.111069 0.005623 0.292065
0.112220 0.005611 0.291479
0.113695 0.005615 0.291733
0.114773 0.005599 0.290969
0.115934 0.005588 0.290426
0.117242 0.005584 0.290255
0.118356 0.005571 0.289607
0.119598 0.005564 0.289277
0.120850 0.005558 0.288969
0.122861 0.005586 0.290459
0.124568 0.005600 0.291194
0.125886 0.005597 0.291009
0.127905 0.005624 0.292419
0.128695 0.005597 0.291011
0.129834 0.005586 0.290405
0.131509 0.005598 0.290990
0.132653 0.005587 0.290388
0.134166 0.005592 0.290588
0.135496 0.005589 0.290379
0.136979 0.005593 0.290489
0.138197 0.005585 0.290029
0.139714 0.005590 0.290186
0.142533 0.005646 0.293004
0.143517 0.005629 0.292016
0.145144 0.005638 0.292330
0.146505 0.005636 0.292091
0.147817 0.005632 0.291746
0.149346 0.005636 0.291817
0.150597 0.005630 0.291331
0.152011 0.005630 0.291149
-0.133347 0.006015 0.251503
-0.132465 0.006029 0.252252
-0.131212 0.006026 0.252288
-0.130619 0.006055 0.253593
-0.129620 0.006064 0.254116
-0.128748 0.006080 0.254887
-0.127948 0.006099 0.255803
-0.127007 0.006113 0.256443
-0.126386 0.006141 0.257737
-0.125537 0.006160 0.258575
-0.124553 0.006172 0.259140
-0.123680 0.006189 0.259938
-0.122902 0.006212 0.260946
-0.121964 0.006227 0.261622
-0.121035 0.006243 0.262321
-0.120053 0.006256 0.262910
-0.118901 0.006261 0.263128
-0.117949 0.006277 0.263790
-0.116969 0.006291 0.264395
-0.116012 0.006307 0.265059
-0.115090 0.006325 0.265809
-0.114173 0.006344 0.266582
-0.113368 0.006369 0.267631
-0.112606 0.006397 0.268798
-0.111932 0.006432 0.270199
-0.111313 0.006470 0.271761
-0.110665 0.006507 0.273281
-0.109917 0.006539 0.274583
-0.109280 0.006579 0.276193
-0.108622 0.006618 0.277781
-0.108207 0.006674 0.280032
-0.107448 0.006709 0.281433
-0.106523 0.006734 0.282424
-0.105773 0.006772 0.283908
-0.105023 0.006810 0.285426
-0.104161 0.006842 0.286670
-0.103344 0.006878 0.288069
-0.102496 0.006912 0.289416
-0.101559 0.006942 0.290543
-0.100669 0.006975 0.291833
-0.099315 0.006977 0.291795
-0.097983 0.006981 0.291820
-0.096533 0.006976 0.291490
-0.094525 0.006930 0.289444
-0.093260 0.006937 0.289645
-0.092183 0.006960 0.290442
-0.090735 0.006954 0.290080
-0.089502 0.006965 0.290406
-0.090838 0.007180 0.299205
-0.089908 0.007219 0.300697
-0.085856 0.007005 0.291635
-0.084622 0.007017 0.292007
-0.083137 0.007009 0.291517
-0.082089 0.007038 0.292573
-0.080641 0.007033 0.292216
-0.079088 0.007019 0.291460
-0.077831 0.007030 0.291797
-0.073900 0.006797 0.281944
-0.072822 0.006822 0.282824
-0.071489 0.006823 0.282729
-0.069722 0.006782 0.280888
-0.067239 0.006669 0.276044
-0.066292 0.006706 0.277447
-0.065128 0.006723 0.277980
-0.066062 0.006961 0.287681
-0.064787 0.006972 0.287970
-0.061367 0.006747 0.278542
-0.058975 0.006628 0.273478
-0.057759 0.006639 0.273770
-0.056674 0.006665 0.274719
-0.055411 0.006672 0.274834
-0.054227 0.006688 0.275367
-0.053047 0.006706 0.275956
-0.051966 0.006738 0.277105
-0.050726 0.006750 0.277458
-0.049748 0.006798 0.279305
-0.048412 0.006799 0.279196
-0.046889 0.006773 0.277984
-0.045652 0.006788 0.278462
-0.044395 0.006800 0.278844
-0.042964 0.006786 0.278140
-0.042805 0.006979 0.285890
-0.041520 0.006994 0.286399
-0.040252 0.007014 0.287072
-0.037344 0.006739 0.275692
-0.035999 0.006736 0.275456
-0.034705 0.006743 0.275622
-0.030924 0.006248 0.255283
-0.030218 0.006359 0.259709
-0.029026 0.006373 0.260171
-0.027676 0.006351 0.259210
-0.024779 0.006253 0.255011
-0.024195 0.006426 0.261961
-0.022879 0.006412 0.261330
-0.021552 0.006394 0.260508
-0.020265 0.006386 0.260109
-0.018953 0.006369 0.259326
-0.017997 0.006477 0.263661
-0.016765 0.006495 0.264323
-0.016135 0.006769 0.275389
-0.014806 0.006772 0.275464
-0.012610 0.006340 0.257827
-0.011376 0.006350 0.258171
-0.010093 0.006331 0.257370
-0.008828 0.006320 0.256869
-0.007563 0.006306 0.256267
-0.006313 0.006300 0.255997
-0.005075 0.006307 0.256259
-0.003833 0.006312 0.256427
-0.002585 0.006310 0.256301
-0.001338 0.006300 0.255877
-0.000094 0.006345 0.257702
0.001221 0.006687 0.271606
0.002475 0.006514 0.264541
0.005353 0.006907 0.280500
0.006168 0.006343 0.257602
0.007404 0.006328 0.257034
0.008669 0.006339 0.257487
0.009920 0.006339 0.257488
0.011173 0.006339 0.257539
0.012462 0.006358 0.258307
0.013768 0.006381 0.259283
0.015079 0.006402 0.260193
0.016314 0.006391 0.259758
0.017763 0.006458 0.262554
0.019043 0.006459 0.262651
0.020490 0.006514 0.264902
0.021965 0.006570 0.267241
0.023249 0.006565 0.267132
0.024187 0.006469 0.263285
0.024616 0.006253 0.254557
0.025921 0.006270 0.255299
0.027314 0.006305 0.256813
0.028351 0.006259 0.254999
0.029700 0.006283 0.256039
0.031003 0.006295 0.256615
0.032231 0.006291 0.256568
0.033428 0.006283 0.256292
0.034623 0.006274 0.256023
0.035935 0.006286 0.256620
0.037600 0.006357 0.259624
0.039230 0.006418 0.262208
0.040779 0.006462 0.264110
0.041915 0.006440 0.263317
0.043303 0.006457 0.264111
0.044723 0.006478 0.265059
0.045949 0.006470 0.264841
0.047141 0.006457 0.264453
0.048363 0.006450 0.264259
0.049544 0.006437 0.263858
0.050739 0.006427 0.263559
0.051947 0.006419 0.263342
0.053351 0.006435 0.264116
0.054561 0.006427 0.263921
0.055947 0.006440 0.264568
0.057925 0.006519 0.267937
0.059806 0.006584 0.270726
0.061072 0.006580 0.270672
0.062428 0.006585 0.271021
0.063675 0.006579 0.270897
0.064892 0.006570 0.270655
0.066208 0.006571 0.270830
0.067388 0.006559 0.270460
0.068584 0.006549 0.270170
0.069829 0.006544 0.270080
0.071165 0.006547 0.270344
0.072473 0.006548 0.270497
0.073361 0.006511 0.269104
0.074847 0.006528 0.269921
0.076060 0.006521 0.269742
0.077036 0.006494 0.268747
0.078263 0.006489 0.268642
0.079603 0.006493 0.268928
0.080840 0.006489 0.268860
0.082181 0.006493 0.269136
0.084260 0.006554 0.271787
0.085944 0.006583 0.273104
0.087223 0.006581 0.273113
0.089197 0.006630 0.275266
0.095908 0.007025 0.291768
0.097136 0.007013 0.291361
0.100566 0.007158 0.297476
0.100097 0.007025 0.292048
0.101254 0.007008 0.291443
0.104002 0.007005 0.291492
0.104997 0.006979 0.290462
0.106425 0.006981 0.290640
0.107963 0.006991 0.291103
0.109209 0.006981 0.290778
0.110888 0.006999 0.291593
0.112608 0.007019 0.292489
0.113916 0.007014 0.292302
0.114963 0.006992 0.291454
0.116240 0.006985 0.291196
0.117425 0.006973 0.290709
0.118679 0.006965 0.290398
0.119700 0.006943 0.289523
0.120934 0.006934 0.289173
0.122488 0.006944 0.289577
0.124483 0.006978 0.290996
0.125741 0.006970 0.290672
0.127410 0.006986 0.291286
0.128997 0.006996 0.291693
0.130174 0.006984 0.291165
0.131531 0.006982 0.291036
0.132933 0.006982 0.290998
0.134384 0.006985 0.291058
0.135936 0.006993 0.291319
0.137515 0.007002 0.291622
0.138801 0.006996 0.291293
0.140422 0.007007 0.291652
0.142364 0.007033 0.292650
0.144118 0.007050 0.293233
0.145234 0.007036 0.292506
0.146607 0.007034 0.292290
0.148142 0.007039 0.292382
0.149296 0.007027 0.291712
0.150587 0.007022 0.291304
0.152205 0.007031 0.291512
-0.131583 0.007112 0.248168
-0.131452 0.007169 0.250316
-0.130148 0.007163 0.250237
-0.129064 0.007169 0.250569
-0.128427 0.007199 0.251770
-0.127463 0.007212 0.252336
-0.126757 0.007240 0.253418
-0.125944 0.007263 0.254292
-0.124980 0.007277 0.254865
-0.124289 0.007307 0.256001
-0.123510 0.007332 0.256966
-0.122758 0.007360 0.257997
-0.122293 0.007406 0.259650
-0.121383 0.007425 0.260372
-0.120774 0.007464 0.261754
-0.119778 0.007479 0.262308
-0.118709 0.007489 0.262704
-0.117780 0.007509 0.263412
-0.116817 0.007527 0.264052
-0.116011 0.007556 0.265056
-0.115059 0.007575 0.265739
-0.114203 0.007602 0.266654
-0.113515 0.007640 0.267979
-0.112752 0.007674 0.269148
-0.111986 0.007709 0.270331
-0.111339 0.007752 0.271826
-0.110786 0.007804 0.273583
-0.110132 0.007849 0.275125
-0.109518 0.007898 0.276797
-0.108798 0.007941 0.278233
-0.108128 0.007988 0.279833
-0.107433 0.008035 0.281398
-0.106741 0.008083 0.283008
-0.106071 0.008134 0.284713
-0.105506 0.008195 0.286745
-0.105079 0.008268 0.289202
-0.104401 0.008323 0.291023
-0.103522 0.008363 0.292321
-0.102612 0.008401 0.293564
-0.101609 0.008433 0.294567
-0.100408 0.008449 0.295017
-0.099186 0.008464 0.295415
-0.097834 0.008468 0.295430
-0.096513 0.008475 0.295540
-0.095281 0.008489 0.295931
-0.093941 0.008495 0.295994
-0.092853 0.008524 0.296865
-0.091862 0.008563 0.298076
-0.090824 0.008598 0.299172
-0.089894 0.008645 0.300664
-0.089483 0.008744 0.303966
-0.088192 0.008759 0.304343
-0.086896 0.008774 0.304715
-0.062177 0.008013 0.276384
-0.060402 0.007953 0.274179
-0.059018 0.007944 0.273694
-0.057628 0.007933 0.273168
-0.056396 0.007943 0.273389
-0.055098 0.007945 0.273303
-0.053831 0.007951 0.273378
-0.052550 0.007956 0.273390
-0.051290 0.007964 0.273521
-0.050063 0.007977 0.273849
-0.048762 0.007980 0.273790
-0.047449 0.007980 0.273666
-0.046209 0.007993 0.273980
-0.044923 0.007999 0.274035
-0.043623 0.008002 0.274021
-0.042074 0.007958 0.272397
-0.042464 0.008290 0.283633
-0.041077 0.008286 0.283362
-0.039990 0.008344 0.285223
-0.037078 0.008012 0.273754
-0.035952 0.008056 0.275120
-0.034659 0.008064 0.275286
-0.031055 0.007514 0.256392
-0.030105 0.007586 0.258763
-0.025108 0.007588 0.258425
-0.023579 0.007499 0.255318
-0.022199 0.007450 0.253583
-0.021546 0.007655 0.260454
-0.020198 0.007622 0.259274
-0.018905 0.007607 0.258697
-0.018106 0.007803 0.265290
-0.017139 0.007952 0.270260
-0.016131 0.008103 0.275353
0.006139 0.007559 0.256402
0.007379 0.007551 0.256160
0.008639 0.007564 0.256608
0.009876 0.007557 0.256369
0.011138 0.007567 0.256739
0.012408 0.007580 0.257224
0.013684 0.007594 0.257728
0.014991 0.007621 0.258689
0.016258 0.007626 0.258881
0.017652 0.007685 0.260935
0.018989 0.007713 0.261927
0.020594 0.007839 0.266264
0.022234 0.007963 0.270536
0.024034 0.008128 0.276179
0.024182 0.007745 0.263251
0.024700 0.007514 0.255447
0.025967 0.007521 0.255775
0.027279 0.007541 0.256505
0.028423 0.007514 0.255666
0.029741 0.007533 0.256407
0.031033 0.007545 0.256882
0.032205 0.007528 0.256378
0.033515 0.007543 0.256973
0.034705 0.007531 0.256647
0.035900 0.007520 0.256389
0.037442 0.007581 0.258548
0.039010 0.007643 0.260750
0.041318 0.007841 0.267618
0.043010 0.007914 0.270212
0.044267 0.007905 0.270010
0.045520 0.007895 0.269801
0.047552 0.008018 0.274103
0.048818 0.008008 0.273881
0.050079 0.007998 0.273653
0.052864 0.008019 0.274614
0.054119 0.008009 0.274370
0.055164 0.007968 0.273109
0.056439 0.007962 0.273020
0.057226 0.007889 0.270636
0.057961 0.007812 0.268119
0.059712 0.007872 0.270312
0.061346 0.007915 0.271902
0.062489 0.007894 0.271302
0.063679 0.007879 0.270926
0.064952 0.007876 0.270920
0.066218 0.007871 0.270885
0.067438 0.007861 0.270674
0.068605 0.007846 0.270264
0.070007 0.007857 0.270779
0.071931 0.007926 0.273264
0.073524 0.007956 0.274433
0.074609 0.007931 0.273694
0.075681 0.007906 0.272939
0.076819 0.007888 0.272447
0.077793 0.007855 0.271398
0.078950 0.007840 0.271011
0.080069 0.007822 0.270512
0.081436 0.007829 0.270854
0.082687 0.007824 0.270804
0.084419 0.007865 0.272310
0.086123 0.007901 0.273681
0.087902 0.007944 0.275247
0.089648 0.007982 0.276667
0.094982 0.008333 0.288958
0.096198 0.008319 0.288555
0.099033 0.008443 0.292948
0.101332 0.008401 0.291673
0.104246 0.008411 0.292182
0.105379 0.008390 0.291525
0.106719 0.008385 0.291447
0.108019 0.008378 0.291259
0.109322 0.008371 0.291083
0.110554 0.008359 0.290719
0.111861 0.008353 0.290552
0.113180 0.008347 0.290417
0.114521 0.008344 0.290335
0.115758 0.008333 0.289990
0.117024 0.008324 0.289720
0.118343 0.008320 0.289578
0.119615 0.008312 0.289321
0.120927 0.008307 0.289156
0.123202 0.008367 0.291266
0.124467 0.008359 0.290957
0.125847 0.008358 0.290916
0.127275 0.008360 0.290977
0.128829 0.008370 0.291311
0.130029 0.008358 0.290839
0.131370 0.008354 0.290676
0.132769 0.008355 0.290635
0.133909 0.008339 0.290024
0.135356 0.008342 0.290072
0.137603 0.008394 0.291805
0.139294 0.008412 0.292321
0.140397 0.008393 0.291594
0.142529 0.008437 0.292984
0.143240 0.008396 0.291441
0.145461 0.008443 0.292956
0.146573 0.008426 0.292214
0.147983 0.008426 0.292060
0.149376 0.008425 0.291860
0.150695 0.008420 0.291504
0.152424 0.008437 0.291923
-0.132058 0.008319 0.249056
-0.131450 0.008355 0.250304
-0.130214 0.008352 0.250355
-0.128810 0.008338 0.250068
-0.127879 0.008355 0.250689
-0.126761 0.008359 0.250941
-0.125786 0.008373 0.251469
-0.124575 0.008372 0.251521
-0.123569 0.008384 0.251982
-0.122757 0.008410 0.252840
-0.121876 0.008432 0.253563
-0.121140 0.008464 0.254595
-0.120380 0.008495 0.255586
-0.119643 0.008529 0.256637
-0.118922 0.008564 0.257738
-0.118028 0.008588 0.258474
-0.117311 0.008624 0.259608
-0.116339 0.008643 0.260189
-0.115649 0.008683 0.261410
-0.114992 0.008727 0.262728
-0.114269 0.008767 0.263916
-0.113754 0.008823 0.265606
-0.113346 0.008889 0.267580
-0.112922 0.008956 0.269557
-0.112480 0.009022 0.271528
-0.111894 0.009078 0.273185
-0.111351 0.009139 0.274982
-0.110612 0.009186 0.276327
-0.109545 0.009205 0.276869
-0.108845 0.009257 0.278359
-0.108112 0.009307 0.279795
-0.107062 0.009330 0.280431
-0.106509 0.009398 0.282398
-0.105988 0.009471 0.284498
-0.105803 0.009575 0.287557
-0.105168 0.009641 0.289455
-0.104382 0.009695 0.290980
-0.103678 0.009758 0.292771
-0.102979 0.009824 0.294622
-0.101999 0.009863 0.295707
-0.100969 0.009899 0.296676
-0.100075 0.009950 0.298073
-0.098986 0.009982 0.298920
-0.097944 0.010020 0.299936
-0.096868 0.010056 0.300874
-0.095733 0.010086 0.301653
-0.094874 0.010147 0.303340
-0.094090 0.010218 0.305319
-0.093088 0.010267 0.306645
-0.093907 0.010522 0.314100
-0.062357 0.010000 0.295608
-0.061031 0.010014 0.295884
-0.059593 0.010011 0.295622
-0.058098 0.009997 0.295072
-0.056432 0.009953 0.293612
-0.054322 0.009826 0.289715
-0.052611 0.009766 0.287816
-0.050958 0.009715 0.286144
-0.049648 0.009727 0.286374
-0.043088 0.009495 0.278991
-0.041794 0.009506 0.279188
-0.040596 0.009540 0.280071
-0.039332 0.009561 0.280559
-0.036867 0.009281 0.272220
-0.035672 0.009312 0.273006
-0.034389 0.009321 0.273170
-0.031438 0.008861 0.259580
-0.030464 0.008943 0.261880
-0.027480 0.008798 0.257429
-0.024608 0.008663 0.253301
-0.023662 0.008766 0.256242
-0.022813 0.008919 0.260635
-0.021487 0.008893 0.259781
-0.020249 0.008901 0.259953
-0.018991 0.008902 0.259907
-0.018090 0.009082 0.265083
-0.016960 0.009166 0.267463
0.006165 0.008842 0.257514
0.007387 0.008806 0.256459
0.008645 0.008817 0.256799
0.009897 0.008820 0.256906
0.011147 0.008821 0.256958
0.012418 0.008836 0.257434
0.013682 0.008845 0.257711
0.014975 0.008869 0.258436
0.016233 0.008870 0.258507
0.017524 0.008887 0.259056
0.018895 0.008940 0.260646
0.020177 0.008947 0.260896
0.022175 0.009252 0.269841
0.024029 0.009465 0.276137
0.025353 0.009459 0.276019
0.025061 0.008881 0.259204
0.026151 0.008824 0.257604
0.027425 0.008831 0.257903
0.028696 0.008837 0.258145
0.029897 0.008822 0.257780
0.031179 0.008831 0.258119
0.032467 0.008841 0.258489
0.033752 0.008849 0.258813
0.035058 0.008862 0.259278
0.036255 0.008847 0.258941
0.037625 0.008874 0.259835
0.039208 0.008948 0.262100
0.041308 0.009132 0.267578
0.042561 0.009123 0.267412
0.043791 0.009110 0.267129
0.045257 0.009144 0.268260
0.046498 0.009134 0.268048
0.047853 0.009145 0.268488
0.049090 0.009133 0.268265
0.054107 0.009328 0.274331
0.054356 0.009147 0.269126
0.055405 0.009106 0.268037
0.056442 0.009065 0.266945
0.057623 0.009048 0.266570
0.059242 0.009099 0.268201
0.061037 0.009175 0.270551
0.062552 0.009206 0.271592
0.063684 0.009180 0.270963
0.064847 0.009160 0.270496
0.066292 0.009180 0.271204
0.067500 0.009167 0.270939
0.068680 0.009151 0.270573
0.070027 0.009157 0.270874
0.071902 0.009230 0.273169
0.073579 0.009276 0.274651
0.074530 0.009231 0.273421
0.075363 0.009172 0.271807
0.076638 0.009168 0.271817
0.077557 0.009123 0.270586
0.078591 0.009093 0.269791
0.080016 0.009108 0.270344
0.081186 0.009093 0.270031
0.082584 0.009105 0.270476
0.084102 0.009129 0.271296
0.085821 0.009174 0.272733
0.087198 0.009181 0.273053
0.088914 0.009223 0.274410
0.091043 0.009307 0.276985
0.097828 0.009857 0.293454
0.099061 0.009840 0.293040
0.100132 0.009807 0.292163
0.101300 0.009785 0.291591
0.102526 0.009769 0.291194
0.104018 0.009778 0.291550
0.105146 0.009754 0.290888
0.106590 0.009759 0.291101
0.107945 0.009755 0.291065
0.109206 0.009743 0.290778
0.110495 0.009735 0.290567
0.111813 0.009728 0.290433
0.113028 0.009713 0.290030
0.114265 0.009701 0.289690
0.115495 0.009688 0.289333
0.116887 0.009688 0.289382
0.118421 0.009701 0.289770
0.120530 0.009759 0.291534
0.121294 0.009709 0.290033
0.122842 0.009722 0.290413
0.124398 0.009735 0.290796
0.125936 0.009746 0.291121
0.127693 0.009774 0.291930
0.128727 0.009746 0.291078
0.130066 0.009742 0.290919
0.131669 0.009757 0.291335
0.132808 0.009739 0.290717
0.134091 0.009731 0.290414
0.135908 0.009761 0.291251
0.137306 0.009761 0.291170
0.138600 0.009754 0.290860
0.140091 0.009760 0.290953
0.142277 0.009814 0.292458
0.143831 0.009825 0.292635
0.145294 0.009828 0.292609
0.146700 0.009828 0.292458
0.147979 0.009819 0.292042
0.149345 0.009816 0.291789
0.150845 0.009822 0.291782
0.152204 0.009819 0.291489
-0.131544 0.009463 0.248074
-0.131017 0.009510 0.249469
-0.129375 0.009476 0.248733
-0.128170 0.009474 0.248817
-0.127177 0.009488 0.249306
-0.125964 0.009486 0.249354
-0.124908 0.009495 0.249708
-0.123253 0.009459 0.248847
-0.122649 0.009503 0.250100
-0.121771 0.009527 0.250804
-0.120689 0.009535 0.251089
-0.119824 0.009560 0.251823
-0.119036 0.009593 0.252728
-0.118465 0.009643 0.254108
-0.117572 0.009668 0.254810
-0.116675 0.009694 0.255509
-0.116152 0.009751 0.257040
-0.115330 0.009784 0.257931
-0.114621 0.009827 0.259087
-0.114005 0.009879 0.260474
-0.113149 0.009912 0.261328
-0.112510 0.009964 0.262702
-0.111757 0.010008 0.263832
-0.111367 0.010085 0.265846
-0.110663 0.010135 0.267142
-0.110319 0.010220 0.269343
-0.109761 0.010286 0.271059
-0.109307 0.010364 0.273071
-0.108498 0.010410 0.274227
-0.107906 0.010478 0.275964
-0.107374 0.010554 0.277892
-0.106642 0.010611 0.279338
-0.106149 0.010694 0.281451
-0.105601 0.010774 0.283465
-0.105285 0.010879 0.286159
-0.104884 0.010978 0.288682
-0.104248 0.011055 0.290615
-0.103785 0.011153 0.293085
-0.103002 0.011218 0.294699
-0.102285 0.011293 0.296548
-0.101261 0.011335 0.297545
-0.100278 0.011383 0.298690
-0.099268 0.011429 0.299785
-0.098138 0.011463 0.300541
-0.097047 0.011502 0.301444
-0.096151 0.011566 0.302986
-0.095771 0.011695 0.306223
-0.094588 0.011728 0.306951
-0.094084 0.011847 0.309942
-0.093887 0.012010 0.314053
-0.094037 0.012223 0.319472
-0.061016 0.011430 0.295836
-0.059518 0.011414 0.295278
-0.057539 0.011303 0.292261
-0.056418 0.011359 0.293564
-0.052907 0.010925 0.282199
-0.051081 0.010825 0.279472
-0.050944 0.011087 0.286097
-0.042011 0.010568 0.272048
-0.040917 0.010624 0.273361
-0.039883 0.010700 0.275189
-0.039112 0.010854 0.279023
-0.036823 0.010582 0.271932
-0.035637 0.010620 0.272776
-0.034356 0.010631 0.272940
-0.031256 0.010057 0.258106
-0.030137 0.010099 0.259098
-0.028887 0.010100 0.259016
-0.027582 0.010080 0.258416
-0.026428 0.010117 0.259258
-0.025194 0.010125 0.259373
-0.024039 0.010167 0.260368
-0.022822 0.010186 0.260765
-0.021497 0.010156 0.259929
-0.020191 0.010133 0.259243
-0.018923 0.010126 0.259008
-0.018376 0.010532 0.269319
-0.017068 0.010531 0.269208
0.006158 0.010082 0.257227
0.007394 0.010062 0.256736
0.008652 0.010073 0.257043
0.009916 0.010088 0.257429
0.011146 0.010069 0.256969
0.012411 0.010082 0.257325
0.013658 0.010079 0.257285
0.014924 0.010089 0.257585
0.016183 0.010094 0.257737
0.017415 0.010082 0.257474
0.018870 0.010192 0.260334
0.020540 0.010397 0.265622
0.022169 0.010558 0.269793
0.025569 0.010343 0.264478
0.026286 0.010125 0.258964
0.027528 0.010119 0.258895
0.028831 0.010136 0.259386
0.030035 0.010117 0.258988
0.031316 0.010125 0.259278
0.032626 0.010142 0.259779
0.033900 0.010146 0.259974
0.035262 0.010175 0.260815
0.036566 0.010186 0.261190
0.037842 0.010189 0.261359
0.039334 0.010248 0.262960
0.040964 0.010338 0.265375
0.041744 0.010215 0.262306
0.043780 0.010397 0.267084
0.043608 0.010059 0.258513
0.044297 0.009933 0.255379
0.045783 0.009988 0.256892
0.046882 0.009958 0.256225
0.048388 0.010013 0.257755
0.049562 0.009999 0.257500
0.050930 0.010023 0.258242
0.052340 0.010055 0.259163
0.053719 0.010079 0.259900
0.054886 0.010063 0.259606
0.056289 0.010090 0.260421
0.058630 0.010280 0.265452
0.060740 0.010423 0.269255
0.062279 0.010463 0.270424
0.063464 0.010444 0.270046
0.064803 0.010451 0.270332
0.066085 0.010448 0.270378
0.067403 0.010450 0.270565
0.068644 0.010441 0.270449
0.069874 0.010431 0.270297
0.071543 0.010485 0.271824
0.072736 0.010469 0.271520
0.073595 0.010406 0.270006
0.074445 0.010344 0.268512
0.075458 0.010306 0.267646
0.076290 0.010245 0.266180
0.077103 0.010184 0.264695
0.078365 0.010183 0.264779
0.079414 0.010155 0.264151
0.080844 0.010176 0.264792
0.082926 0.010277 0.267516
0.084821 0.010351 0.269565
0.086136 0.010354 0.269736
0.088459 0.010477 0.273016
0.091026 0.010624 0.276944
0.098039 0.011278 0.294095
0.099275 0.011258 0.293681
0.100236 0.011209 0.292476
0.101316 0.011174 0.291645
0.102553 0.011157 0.291279
0.104174 0.011181 0.291993
0.105352 0.011158 0.291464
0.106504 0.011133 0.290873
0.107953 0.011139 0.291095
0.109322 0.011137 0.291093
0.110530 0.011118 0.290664
0.111827 0.011109 0.290472
0.113000 0.011088 0.289963
0.114652 0.011114 0.290675
0.115907 0.011101 0.290370
0.117594 0.011129 0.291134
0.118844 0.011116 0.290807
0.119974 0.011092 0.290191
0.121647 0.011118 0.290878
0.122776 0.011094 0.290258
0.124466 0.011121 0.290955
0.126078 0.011141 0.291449
0.127604 0.011152 0.291724
0.128905 0.011144 0.291479
0.130152 0.011131 0.291107
0.131928 0.011164 0.291905
0.133162 0.011150 0.291488
0.135681 0.011243 0.293853
0.136339 0.011181 0.292167
0.137552 0.011166 0.291683
0.139213 0.011187 0.292139
0.140121 0.011148 0.291006
0.142480 0.011223 0.292867
0.143867 0.011222 0.292699
0.145133 0.011211 0.292275
0.146460 0.011204 0.291968
0.147876 0.011205 0.291827
0.149193 0.011198 0.291480
0.150598 0.011198 0.291292
0.152149 0.011209 0.291369
-0.131099 0.010603 0.247224
-0.130173 0.010623 0.247850
-0.129018 0.010625 0.248034
-0.127369 0.010586 0.247251
-0.127019 0.010654 0.248986
-0.125759 0.010648 0.248940
-0.123700 0.010572 0.247285
-0.122904 0.010604 0.248134
-0.121451 0.010580 0.247651
-0.120163 0.010569 0.247486
-0.119111 0.010580 0.247800
-0.117925 0.010578 0.247827
-0.117113 0.010610 0.248642
-0.116502 0.010662 0.249894
-0.115887 0.010714 0.251154
-0.115214 0.010761 0.252307
-0.114829 0.010837 0.254111
-0.114299 0.010901 0.255624
-0.113607 0.010950 0.256794
-0.113231 0.011031 0.258704
-0.112459 0.011075 0.259735
-0.111905 0.011142 0.261290
-0.111218 0.011197 0.262562
-0.110794 0.011279 0.264480
-0.110265 0.011353 0.266185
-0.109146 0.011367 0.266482
-0.108387 0.011419 0.267671
-0.107716 0.011482 0.269102
-0.106852 0.011525 0.270073
-0.106252 0.011599 0.271740
-0.105437 0.011650 0.272884
-0.104818 0.011725 0.274568
-0.104356 0.011819 0.276704
-0.104002 0.011928 0.279182
-0.103665 0.012042 0.281763
-0.103254 0.012150 0.284207
-0.103101 0.012291 0.287429
-0.102601 0.012395 0.289750
-0.102014 0.012490 0.291885
-0.101335 0.012577 0.293808
-0.100322 0.012624 0.294799
-0.099432 0.012688 0.296183
-0.098154 0.012704 0.296434
-0.097419 0.012791 0.298357
-0.096613 0.012872 0.300110
-0.095568 0.012923 0.301163
-0.095419 0.013098 0.305116
-0.094818 0.013215 0.307716
-0.095088 0.013460 0.313270
-0.095069 0.013671 0.318028
-0.094015 0.013737 0.319417
-0.059501 0.012826 0.295223
-0.057523 0.012702 0.292207
-0.045751 0.010355 0.238088
-0.044671 0.010369 0.238293
-0.044205 0.010530 0.241878
-0.043594 0.010664 0.244845
-0.042710 0.010738 0.246411
-0.041622 0.010762 0.246858
-0.040803 0.010860 0.248983
-0.042386 0.011623 0.266333
-0.041154 0.011636 0.266526
-0.040314 0.011766 0.269364
-0.039630 0.011951 0.273477
-0.038638 0.012052 0.275679
-0.036606 0.011825 0.270360
-0.035350 0.011841 0.270611
-0.034079 0.011853 0.270773
-0.031131 0.011259 0.257111
-0.030283 0.011407 0.260389
-0.029005 0.011399 0.260105
-0.027784 0.011414 0.260342
-0.026496 0.011401 0.259958
-0.025130 0.011352 0.258749
-0.023998 0.011408 0.259955
-0.022747 0.011412 0.259954
-0.021423 0.011377 0.259076
-0.020131 0.011356 0.258522
-0.018901 0.011369 0.258751
-0.018314 0.011799 0.268451
-0.017168 0.011906 0.270831
-0.016193 0.012159 0.276527
0.006200 0.011407 0.258973
0.007417 0.011344 0.257547
0.008668 0.011342 0.257521
