ply
format ascii 1.0
element vertex 1742
property float x
property float y
property float z
end_header
-0.045235 0.025866 0.088342
-0.045124 0.026293 0.089994
-0.042637 0.029301 0.101410
-0.043440 0.030192 0.104535
-0.043072 0.030279 0.104878
-0.041484 0.029501 0.102220
-0.040814 0.029366 0.101784
-0.040243 0.031151 0.108125
-0.041555 0.032578 0.113098
-0.040817 0.032415 0.112547
-0.040284 0.032412 0.112552
-0.041299 0.033671 0.116936
-0.041887 0.034612 0.120213
-0.041698 0.034926 0.121314
-0.041248 0.035029 0.121678
-0.041206 0.035486 0.123267
-0.040841 0.035673 0.123921
-0.041240 0.036543 0.126944
-0.040851 0.036730 0.127594
-0.042370 0.038664 0.134308
-0.041572 0.038510 0.133769
-0.040670 0.038253 0.132870
-0.041664 0.039800 0.138235
-0.041483 0.040255 0.139806
-0.059010 0.058187 0.202065
-0.058132 0.058259 0.202298
-0.058656 0.059764 0.207500
-0.058182 0.060284 0.209285
-0.057600 0.060709 0.210734
-0.056962 0.061089 0.212025
-0.056110 0.061248 0.212548
-0.055629 0.061827 0.214526
-0.054869 0.062110 0.215476
-0.054141 0.062442 0.216591
-0.053227 0.062567 0.216990
-0.052597 0.063038 0.218584
-0.051863 0.063401 0.219803
-0.051254 0.063933 0.221609
-0.051212 0.065210 0.225992
-0.050400 0.065541 0.227096
-0.054504 0.072418 0.250875
-0.053751 0.073003 0.252851
-0.059907 0.083211 0.288151
-0.059303 0.084287 0.291816
-0.056841 0.082710 0.286297
-0.055563 0.082821 0.286622
-0.054191 0.082794 0.286469
-0.052890 0.082877 0.286695
-0.051594 0.082973 0.286967
-0.050261 0.083011 0.287039
-0.048886 0.082983 0.286881
-0.047542 0.083006 0.286900
-0.046198 0.083031 0.286924
-0.044857 0.083062 0.286972
-0.043545 0.083151 0.287220
-0.042145 0.083072 0.286887
-0.040391 0.082267 0.284051
-0.039618 0.083475 0.288162
-0.038282 0.083539 0.288324
-0.036321 0.082193 0.283626
-0.035100 0.082485 0.284577
-0.033774 0.082542 0.284720
-0.029678 0.075555 0.260570
-0.028155 0.074791 0.257888
-0.027147 0.075391 0.259912
-0.025749 0.074915 0.258224
-0.024443 0.074669 0.257333
-0.023191 0.074574 0.256962
-0.021996 0.074659 0.257215
-0.020875 0.075022 0.258426
-0.019653 0.075043 0.258458
-0.018629 0.075876 0.261291
-0.017545 0.076563 0.263619
-0.016288 0.076548 0.263534
-0.015090 0.076826 0.264457
-0.013926 0.077346 0.266217
-0.012446 0.076042 0.261696
-0.011189 0.075957 0.261377
-0.009947 0.075973 0.261404
-0.008636 0.075391 0.259377
-0.007386 0.075227 0.258791
-0.006157 0.075267 0.258909
-0.004953 0.075703 0.260389
-0.003731 0.076055 0.261584
-0.002481 0.075907 0.261057
-0.001246 0.076395 0.262724
0.000006 0.076943 0.264595
0.001272 0.077338 0.265942
0.002542 0.077426 0.266239
0.003839 0.078014 0.268254
0.005126 0.078159 0.268747
0.006412 0.078227 0.268979
0.007709 0.078381 0.269507
0.009020 0.078617 0.270321
0.010328 0.078767 0.270839
0.011587 0.078557 0.270121
0.012899 0.078708 0.270644
0.014183 0.078676 0.270545
0.015481 0.078718 0.270698
0.016738 0.078566 0.270186
0.018015 0.078519 0.270038
0.019236 0.078254 0.269140
0.020344 0.077585 0.266857
0.021581 0.077461 0.266448
0.022730 0.077052 0.265059
0.023969 0.076977 0.264823
0.025141 0.076702 0.263898
0.026366 0.076609 0.263600
0.027668 0.076737 0.264063
0.028922 0.076725 0.264050
0.030058 0.076415 0.263010
0.031344 0.076495 0.263312
0.032554 0.076393 0.262989
0.033861 0.076515 0.263438
0.035102 0.076486 0.263366
0.036445 0.076673 0.264041
0.037720 0.076709 0.264196
0.039146 0.077038 0.265363
0.040189 0.076618 0.263949
0.041499 0.076717 0.264324
0.042885 0.076946 0.265145
0.043634 0.076051 0.262097
0.043478 0.073673 0.253934
0.044568 0.073478 0.253293
0.045816 0.073546 0.253561
0.046775 0.073159 0.252257
0.048068 0.073301 0.252779
0.049370 0.073447 0.253317
0.050576 0.073449 0.253354
0.051880 0.073589 0.253867
0.053155 0.073682 0.254218
0.054253 0.073532 0.253730
0.055773 0.073946 0.255190
0.058591 0.076029 0.262406
0.060711 0.077136 0.266256
0.062015 0.077183 0.266446
0.063365 0.077284 0.266821
0.065121 0.077868 0.268861
0.066551 0.078045 0.269494
0.067914 0.078139 0.269842
0.069374 0.078339 0.270551
0.070691 0.078373 0.270687
0.071580 0.077940 0.269205
0.072889 0.077971 0.269325
0.073908 0.077696 0.268389
0.074077 0.076552 0.264446
0.074109 0.075307 0.260150
0.075077 0.075038 0.259224
0.075819 0.074556 0.257558
0.076660 0.074185 0.256272
0.077546 0.073868 0.255171
0.078774 0.073881 0.255207
0.080424 0.074284 0.256588
0.081534 0.074184 0.256224
0.082662 0.074101 0.255921
0.084733 0.074855 0.258500
0.085729 0.074651 0.257769
0.096775 0.083081 0.286842
0.098722 0.083573 0.288500
0.100204 0.083664 0.288766
0.101646 0.083719 0.288904
0.103123 0.083801 0.289131
0.104394 0.083715 0.288772
0.106141 0.084008 0.289717
0.107492 0.083985 0.289560
0.108668 0.083826 0.288933
0.110399 0.084095 0.289772
0.111547 0.083918 0.289068
0.113127 0.084066 0.289477
0.114464 0.084033 0.289253
0.115793 0.083994 0.289002
0.117237 0.084039 0.289033
0.118549 0.083989 0.288728
0.119977 0.084021 0.288699
0.121707 0.084261 0.289374
0.123319 0.084416 0.289745
0.124639 0.084368 0.289415
0.126106 0.084421 0.289416
0.127709 0.084562 0.289713
0.129071 0.084543 0.289448
0.130469 0.084546 0.289250
0.132014 0.084644 0.289366
0.133896 0.084954 0.290191
0.135759 0.085246 0.290943
0.137025 0.085160 0.290392
0.138549 0.085234 0.290375
0.140157 0.085358 0.290513
0.141512 0.085327 0.290110
0.142923 0.085330 0.289809
0.144651 0.085520 0.290127
0.146533 0.085796 0.290722
0.148970 0.086390 0.292371
0.150450 0.086422 0.292100
0.151898 0.086435 0.291749
0.153556 0.086566 0.291777
0.154941 0.086542 0.291263
-0.045903 0.025490 0.085048
-0.045601 0.025550 0.085369
-0.045458 0.025701 0.085989
-0.045319 0.025857 0.086621
-0.045148 0.025997 0.087199
-0.044934 0.026115 0.087698
-0.044538 0.026129 0.087843
-0.044689 0.026466 0.089072
-0.042547 0.029719 0.101166
-0.043047 0.030410 0.103561
-0.043153 0.030834 0.105047
-0.041480 0.029983 0.102185
-0.040931 0.029933 0.102051
-0.041375 0.030618 0.104418
-0.041341 0.030961 0.105618
-0.040958 0.031047 0.105940
-0.040405 0.031006 0.105825
-0.040508 0.031473 0.107443
-0.040800 0.032101 0.109607
-0.041257 0.032876 0.112274
-0.041201 0.033257 0.113594
-0.040077 0.032774 0.111961
-0.041699 0.034555 0.118057
-0.041471 0.034830 0.119009
-0.041548 0.035372 0.120871
-0.041128 0.035501 0.121318
-0.041255 0.036111 0.123410
-0.040908 0.036318 0.124123
-0.040880 0.036819 0.125835
-0.040549 0.037057 0.126650
-0.042957 0.039843 0.136170
-0.044937 0.042311 0.144601
-0.059369 0.058558 0.200098
-0.057960 0.058089 0.198484
-0.059557 0.060668 0.207278
-0.058752 0.060844 0.207861
-0.057937 0.061016 0.208427
-0.057180 0.061256 0.209224
-0.056653 0.061755 0.210902
-0.056087 0.062228 0.212493
-0.055457 0.062648 0.213896
-0.054705 0.062941 0.214867
-0.053912 0.063199 0.215714
-0.053081 0.063421 0.216437
-0.052406 0.063840 0.217833
-0.051762 0.064316 0.219422
-0.051337 0.065089 0.222019
-0.050573 0.065455 0.223228
-0.050328 0.066523 0.226827
-0.061113 0.084366 0.287562
-0.059819 0.084455 0.287808
-0.058520 0.084542 0.288049
-0.056540 0.083624 0.284865
-0.055477 0.084052 0.286267
-0.054203 0.084173 0.286622
-0.052785 0.084073 0.286222
-0.051567 0.084293 0.286913
-0.050230 0.084325 0.286965
-0.048868 0.084316 0.286874
-0.047499 0.084296 0.286746
-0.046148 0.084304 0.286717
-0.044847 0.084410 0.287019
-0.043507 0.084446 0.287084
-0.042139 0.084428 0.286965
-0.040476 0.083798 0.284769
-0.039662 0.084943 0.288603
-0.038324 0.085007 0.288765
-0.036474 0.083900 0.284947
-0.034919 0.083413 0.283240
-0.031520 0.078305 0.265846
-0.029680 0.076805 0.260707
-0.028167 0.076057 0.258123
-0.027128 0.076580 0.259854
-0.025788 0.076264 0.258736
-0.024453 0.075932 0.257568
-0.023211 0.075868 0.257309
-0.022012 0.075946 0.257533
-0.020871 0.076246 0.258512
-0.019691 0.076431 0.259103
-0.018581 0.076931 0.260761
-0.017514 0.077694 0.263311
-0.016235 0.077565 0.262839
-0.015175 0.078541 0.266114
-0.013933 0.078672 0.266525
-0.012500 0.077645 0.263018
-0.011148 0.076940 0.260603
-0.009909 0.076947 0.260600
-0.008608 0.076405 0.258743
-0.007345 0.076063 0.257560
-0.006151 0.076458 0.258880
-0.004922 0.076505 0.259020
-0.003706 0.076838 0.260129
-0.002476 0.077092 0.260974
-0.001232 0.077003 0.260657
0.000009 0.077907 0.263707
0.001273 0.078457 0.265560
0.002548 0.078794 0.266689
0.003857 0.079603 0.269422
0.005126 0.079373 0.268638
0.006384 0.079121 0.267784
0.007676 0.079287 0.268345
0.008969 0.079425 0.268812
0.010283 0.079685 0.269693
0.011620 0.080042 0.270907
0.012898 0.079966 0.270653
0.014185 0.079958 0.270632
0.015512 0.080154 0.271307
0.016828 0.080265 0.271693
0.017983 0.079651 0.269627
0.019143 0.079135 0.267896
0.020311 0.078717 0.266494
0.021507 0.078448 0.265599
0.022659 0.078060 0.264305
0.023847 0.077828 0.263538
0.024982 0.077455 0.262294
0.026143 0.077193 0.261430
0.027401 0.077232 0.261585
0.028622 0.077164 0.261376
0.029857 0.077140 0.261322
0.031098 0.077132 0.261319
0.032399 0.077266 0.261799
0.033698 0.077388 0.262240
0.035041 0.077595 0.262971
0.036303 0.077617 0.263073
0.037612 0.077734 0.263499
0.038901 0.077803 0.263765
0.040177 0.077843 0.263930
0.041508 0.077983 0.264439
0.042755 0.077964 0.264404
0.043790 0.077567 0.263090
0.043735 0.075317 0.255488
0.044616 0.074755 0.253615
0.045755 0.074645 0.253272
0.046902 0.074554 0.252993
0.048209 0.074714 0.253566
0.049339 0.074599 0.253205
0.050558 0.074620 0.253308
0.051891 0.074805 0.253963
0.053151 0.074878 0.254241
0.054276 0.074763 0.253877
0.055651 0.074989 0.254671
0.058193 0.076745 0.260660
0.060731 0.078421 0.266379
0.062160 0.078627 0.267104
0.063537 0.078760 0.267577
0.065235 0.079277 0.269355
0.066640 0.079426 0.269882
0.068003 0.079518 0.270216
0.069322 0.079558 0.270369
0.070406 0.079331 0.269611
0.071522 0.079148 0.269002
0.072757 0.079100 0.268849
0.073974 0.079036 0.268638
0.074281 0.078017 0.265179
0.073691 0.076105 0.258683
0.074417 0.075593 0.256943
0.075513 0.075467 0.256514
0.076293 0.075035 0.255037
0.077417 0.074949 0.254738
0.078684 0.075002 0.254903
0.080246 0.075330 0.256003
0.081621 0.075476 0.256480
0.082892 0.075522 0.256613
0.084658 0.076011 0.258247
0.086205 0.076293 0.259174
0.097100 0.084722 0.287769
0.098660 0.084885 0.288279
0.100359 0.085162 0.289171
0.101684 0.085118 0.288966
0.103125 0.085171 0.289085
0.104531 0.085194 0.289096
0.106743 0.085865 0.291299
0.107321 0.085222 0.289037
0.109053 0.085498 0.289890
0.110140 0.085269 0.289020
0.111277 0.085083 0.288293
0.113029 0.085366 0.289147
0.114530 0.085455 0.289334
0.115825 0.085391 0.288994
0.117178 0.085369 0.288792
0.118712 0.085479 0.289025
0.120906 0.086056 0.290829
0.121898 0.085773 0.289718
0.123286 0.085772 0.289552
0.124790 0.085851 0.289646
0.126296 0.085931 0.289729
0.127748 0.085971 0.289671
0.129036 0.085901 0.289233
0.130738 0.086106 0.289706
0.132368 0.086259 0.289993
0.133760 0.086255 0.289743
0.135460 0.086448 0.290141
0.137181 0.086650 0.290555
0.138937 0.086870 0.291013
0.140506 0.086969 0.291056
0.142017 0.087032 0.290959
0.143735 0.087218 0.291260
0.145644 0.087515 0.291916
0.147175 0.087581 0.291785
0.149132 0.087897 0.292469
0.150682 0.087970 0.292324
0.152177 0.088009 0.292050
0.153675 0.088049 0.291759
0.155074 0.088032 0.291261
-0.045463 0.025653 0.084164
-0.045494 0.025902 0.085101
-0.045307 0.026029 0.085637
-0.045068 0.026129 0.086079
-0.044939 0.026295 0.086734
-0.044611 0.026346 0.087009
-0.044369 0.026450 0.087450
-0.045441 0.027346 0.090514
-0.042456 0.030134 0.100918
-0.042627 0.030599 0.102521
-0.042104 0.030570 0.102464
-0.041081 0.030174 0.101175
-0.040663 0.030218 0.101359
-0.041415 0.031142 0.104494
-0.040302 0.031044 0.104224
-0.040053 0.031232 0.104884
-0.041377 0.032667 0.109729
-0.042308 0.033824 0.113640
-0.041571 0.033661 0.113111
-0.040912 0.033557 0.112781
-0.041586 0.034558 0.116165
-0.041868 0.035255 0.118524
-0.041667 0.035560 0.119562
-0.041124 0.035577 0.119630
-0.040951 0.035919 0.120788
-0.041087 0.036545 0.122903
-0.042332 0.038189 0.128439
-0.041780 0.038238 0.128605
-0.042964 0.039898 0.134192
-0.042427 0.039987 0.134492
-0.044883 0.042943 0.144431
-0.060567 0.059757 0.200973
-0.059295 0.059430 0.199862
-0.058516 0.059594 0.200403
-0.059530 0.061619 0.207198
-0.058833 0.061912 0.208166
-0.057913 0.061976 0.208364
-0.056955 0.062001 0.208425
-0.056511 0.062596 0.210402
-0.055900 0.063023 0.211815
-0.055523 0.063736 0.214183
-0.054631 0.063873 0.214615
-0.053807 0.064095 0.215332
-0.052982 0.064326 0.216074
-0.052262 0.064695 0.217280
-0.051731 0.065316 0.219334
-0.050936 0.065625 0.220333
-0.050501 0.066418 0.222959
-0.060791 0.083426 0.279955
-0.059533 0.083514 0.280199
-0.058518 0.083954 0.281625
-0.057960 0.085086 0.285370
-0.056710 0.085232 0.285805
-0.055480 0.085417 0.286370
-0.054143 0.085441 0.286395
-0.052786 0.085435 0.286319
-0.051530 0.085596 0.286803
-0.050222 0.085676 0.287014
-0.048806 0.085572 0.286610
-0.047503 0.085667 0.286872
-0.046185 0.085738 0.287053
-0.044778 0.085644 0.286683
-0.043485 0.085769 0.287046
-0.042111 0.085739 0.286889
-0.040369 0.084931 0.284132
-0.039804 0.086630 0.289760
-0.038461 0.086694 0.289922
-0.036193 0.084603 0.282877
-0.034830 0.084548 0.282640
-0.031549 0.079647 0.266207
-0.029671 0.078026 0.260745
-0.028120 0.077163 0.257816
-0.027072 0.077663 0.259444
-0.025743 0.077368 0.258415
-0.024429 0.077089 0.257441
-0.023228 0.077157 0.257629
-0.022039 0.077277 0.257990
-0.020917 0.077657 0.259222
-0.019773 0.078001 0.260332
-0.018671 0.078566 0.262183
-0.017619 0.079434 0.265045
-0.016296 0.079124 0.263975
-0.015250 0.080221 0.267605
-0.014060 0.080687 0.269128
-0.012511 0.078984 0.263417
-0.011075 0.077691 0.259080
-0.009816 0.077476 0.258340
-0.008569 0.077312 0.257767
-0.007331 0.077184 0.257321
-0.006142 0.077623 0.258762
-0.004922 0.077789 0.259299
-0.003684 0.077686 0.258936
-0.002472 0.078332 0.261076
-0.001228 0.078172 0.260529
0.000012 0.078280 0.260876
0.001269 0.079222 0.264008
0.002531 0.079422 0.264663
0.003816 0.079943 0.266395
0.005052 0.079444 0.264725
0.006326 0.079623 0.265319
0.007596 0.079696 0.265559
0.008858 0.079671 0.265479
0.010116 0.079623 0.265320
0.011401 0.079779 0.265843
0.012669 0.079791 0.265888
0.013956 0.079914 0.266305
0.015240 0.079996 0.266586
0.016586 0.080371 0.267847
0.017786 0.080032 0.266726
0.018935 0.079524 0.265046
0.020217 0.079600 0.265315
0.021416 0.079363 0.264541
0.022560 0.078961 0.263215
0.023724 0.078662 0.262237
0.024907 0.078458 0.261575
0.025937 0.077810 0.259436
0.027186 0.077851 0.259596
0.028449 0.077924 0.259861
0.029665 0.077869 0.259699
0.030978 0.078063 0.260371
0.032256 0.078157 0.260711
0.033514 0.078197 0.260868
0.034942 0.078617 0.262296
0.036207 0.078651 0.262438
0.037649 0.079058 0.263825
0.039105 0.079465 0.265211
0.040282 0.079299 0.264684
0.041813 0.079817 0.266444
0.043104 0.079859 0.266614
0.044030 0.079243 0.264589
0.043334 0.075823 0.253197
0.044537 0.075821 0.253218
0.045715 0.075776 0.253099
0.047092 0.076056 0.254061
0.048366 0.076160 0.254436
0.049751 0.076429 0.255362
0.050941 0.076392 0.255268
0.052133 0.076360 0.255188
0.053565 0.076674 0.256262
0.054646 0.076481 0.255643
0.056109 0.076821 0.256803
0.058208 0.077996 0.260757
0.060732 0.079681 0.266413
0.062070 0.079774 0.266745
0.063806 0.080363 0.268737
0.065277 0.080602 0.269553
0.066813 0.080910 0.270602
0.068189 0.081017 0.270975
0.069542 0.081093 0.271245
0.070769 0.081022 0.271018
0.071749 0.080675 0.269869
0.073238 0.080903 0.270636
0.074549 0.080929 0.270730
0.074756 0.079776 0.266876
0.074000 0.077652 0.259768
0.074378 0.076768 0.256806
0.075680 0.076849 0.257074
0.076821 0.076769 0.256795
0.078206 0.076929 0.257320
0.079516 0.077013 0.257584
0.081169 0.077421 0.258930
0.083191 0.078163 0.261389
0.084402 0.078133 0.261261
0.085791 0.078266 0.261676
0.095289 0.085687 0.286449
0.096537 0.085584 0.286061
0.098784 0.086359 0.288600
0.100307 0.086486 0.288973
0.101879 0.086653 0.289471
0.103190 0.086595 0.289212
0.104746 0.086742 0.289633
0.106262 0.086852 0.289923
0.107693 0.086892 0.289971
0.109082 0.086895 0.289894
0.110499 0.086922 0.289886
0.111841 0.086889 0.289673
0.113144 0.086827 0.289356
0.114563 0.086854 0.289327
0.115910 0.086827 0.289112
0.117304 0.086835 0.289003
0.118702 0.086846 0.288897
0.120053 0.086822 0.288667
0.121559 0.086910 0.288798
0.123398 0.087231 0.289697
0.124863 0.087283 0.289690
0.126065 0.087153 0.289068
0.127801 0.087389 0.289654
0.129224 0.087409 0.289510
0.130476 0.087315 0.288977
0.132524 0.087749 0.290181
0.134290 0.087989 0.290729
0.135951 0.088156 0.291023
0.137266 0.088098 0.290560
0.138693 0.088112 0.290321
0.140518 0.088376 0.290892
0.141874 0.088342 0.290469
0.143399 0.088413 0.290376
0.145248 0.088680 0.290912
0.147250 0.089035 0.291716
0.149556 0.089565 0.293074
0.151438 0.089833 0.293554
0.153116 0.089976 0.293607
0.154301 0.089830 0.292696
0.155850 0.089895 0.292458
-0.045571 0.026123 0.084293
-0.045457 0.026292 0.084963
-0.045270 0.026422 0.085501
-0.044959 0.026480 0.085805
-0.044851 0.026660 0.086500
-0.045414 0.027764 0.090400
-0.042853 0.030556 0.100649
-0.042267 0.030477 0.100437
-0.042488 0.030984 0.102153
-0.041290 0.030456 0.100456
-0.040825 0.030462 0.100516
-0.040696 0.030723 0.101414
-0.042322 0.032330 0.106756
-0.041870 0.032370 0.106922
-0.041311 0.032326 0.106810
-0.042838 0.033934 0.112153
-0.042362 0.033977 0.112321
-0.041914 0.034042 0.112562
-0.041342 0.034008 0.112472
-0.040934 0.034109 0.112828
-0.040752 0.034403 0.113819
-0.041497 0.035498 0.117461
-0.042107 0.036507 0.120814
-0.041589 0.036551 0.120972
-0.041392 0.036883 0.122083
-0.041702 0.037682 0.124736
-0.041991 0.038484 0.127398
-0.042781 0.039776 0.131682
-0.042356 0.039959 0.132294
-0.046344 0.044374 0.146910
-0.045402 0.044129 0.146101
-0.061362 0.060559 0.200492
-0.060493 0.060633 0.200734
-0.060206 0.061302 0.202941
-0.059462 0.061520 0.203654
-0.058722 0.061750 0.204403
-0.058373 0.062405 0.206558
-0.057644 0.062669 0.207415
-0.056937 0.062967 0.208380
-0.056431 0.063501 0.210128
-0.055913 0.064041 0.211894
-0.055285 0.064472 0.213294
-0.054387 0.064599 0.213689
-0.053630 0.064900 0.214658
-0.052825 0.065154 0.215468
-0.052162 0.065597 0.216902
-0.051500 0.066060 0.218400
-0.051335 0.067191 0.222104
-0.063353 0.086447 0.285666
-0.059514 0.082973 0.274141
-0.060370 0.086035 0.284208
-0.059257 0.086367 0.285255
-0.058041 0.086561 0.285845
-0.056715 0.086597 0.285912
-0.055461 0.086747 0.286355
-0.054196 0.086887 0.286763
-0.052845 0.086891 0.286725
-0.051529 0.086957 0.286889
-0.050196 0.086995 0.286960
-0.048845 0.087005 0.286936
-0.047483 0.086994 0.286848
-0.046128 0.086996 0.286801
-0.044755 0.086965 0.286645
-0.043445 0.087057 0.286895
-0.042064 0.087007 0.286676
-0.040430 0.086414 0.284669
-0.038760 0.088762 0.292296
-0.036322 0.086260 0.284006
-0.034723 0.085634 0.281895
-0.031307 0.080297 0.264283
-0.029831 0.079701 0.262275
-0.028182 0.078568 0.258503
-0.027018 0.078748 0.259053
-0.025740 0.078594 0.258507
-0.024431 0.078328 0.257590
-0.023189 0.078261 0.257331
-0.022019 0.078442 0.257889
-0.020878 0.078754 0.258877
-0.019774 0.079255 0.260489
-0.018712 0.079999 0.262899
-0.017656 0.080880 0.265759
-0.016359 0.080706 0.265154
-0.015423 0.082434 0.270800
-0.014141 0.082462 0.270861
-0.012239 0.078514 0.257867
-0.010933 0.077939 0.255954
-0.009733 0.078071 0.256361
-0.008515 0.078073 0.256345
-0.007329 0.078412 0.257438
-0.006119 0.078601 0.258039
-0.004897 0.078671 0.258250
-0.003680 0.078912 0.259026
-0.002462 0.079362 0.260487
-0.001219 0.079062 0.259490
0.000015 0.079105 0.259620
0.001272 0.080501 0.264189
0.002528 0.080469 0.264075
0.003780 0.080381 0.263780
0.005030 0.080291 0.263479
0.006302 0.080535 0.264276
0.007568 0.080625 0.264572
0.008809 0.080459 0.264025
0.010034 0.080205 0.263193
0.011293 0.080252 0.263352
0.012597 0.080577 0.264421
0.013873 0.080680 0.264766
0.015138 0.080704 0.264851
0.016465 0.081033 0.265942
0.017640 0.080619 0.264592
0.018778 0.080099 0.262897
0.020088 0.080332 0.263676
0.021324 0.080262 0.263460
0.022438 0.079767 0.261851
0.023520 0.079213 0.260050
0.024810 0.079380 0.260614
0.025847 0.078760 0.258599
0.027029 0.078618 0.258153
0.028328 0.078814 0.258815
0.029561 0.078819 0.258855
0.030797 0.078830 0.258914
0.032125 0.079066 0.259713
0.033293 0.078904 0.259203
0.034587 0.079043 0.259686
0.035978 0.079387 0.260841
0.037281 0.079518 0.261300
0.038932 0.080361 0.264094
0.040389 0.080763 0.265445
0.041653 0.080764 0.265476
0.043137 0.081181 0.266872
0.044355 0.081088 0.266597
0.045586 0.081023 0.266409
0.044130 0.076313 0.250950
0.045281 0.076242 0.250743
0.046701 0.076615 0.251997
0.048026 0.076819 0.252693
0.049272 0.076888 0.252944
0.050561 0.077019 0.253401
0.051990 0.077354 0.254528
0.053322 0.077531 0.255133
0.054452 0.077413 0.254767
0.056216 0.078182 0.257320
0.059199 0.080578 0.265227
0.061098 0.081428 0.268047
0.062472 0.081559 0.268499
0.063878 0.081725 0.269064
0.065354 0.081973 0.269896
0.066705 0.082056 0.270185
0.068157 0.082260 0.270867
0.069565 0.082402 0.271347
0.070741 0.082270 0.270920
0.071886 0.082107 0.270391
0.072783 0.081671 0.268961
0.074376 0.082018 0.270103
0.074974 0.081274 0.267655
0.076160 0.081182 0.267348
0.074095 0.077685 0.255823
0.075319 0.077692 0.255839
0.076436 0.077591 0.255495
0.077740 0.077681 0.255773
0.079658 0.078370 0.258025
0.081342 0.078813 0.259461
0.082913 0.079134 0.260492
0.084431 0.079396 0.261324
0.086179 0.079864 0.262828
0.094743 0.086544 0.284768
0.095985 0.086441 0.284384
0.098997 0.087914 0.289176
0.100584 0.088097 0.289720
0.102098 0.088213 0.290037
0.103462 0.088197 0.289916
0.104845 0.088198 0.289843
0.106093 0.088086 0.289395
0.107562 0.088159 0.289546
0.108972 0.088182 0.289526
0.110314 0.088149 0.289319
0.111700 0.088153 0.289222
0.113111 0.088175 0.289180
0.114516 0.088193 0.289115
0.115908 0.088200 0.289006
0.117301 0.088207 0.288890
0.118602 0.088145 0.288542
0.120103 0.088233 0.288673
0.121510 0.088250 0.288562
0.123113 0.088406 0.288900
0.124333 0.088288 0.288329
0.126587 0.088898 0.290125
0.128283 0.089108 0.290604
0.129757 0.089159 0.290555
0.131376 0.089309 0.290814
0.132819 0.089336 0.290665
0.134311 0.089396 0.290608
0.135750 0.089420 0.290419
0.137341 0.089541 0.290537
0.138831 0.089596 0.290423
0.140277 0.089620 0.290199
0.141818 0.089704 0.290152
0.143609 0.089944 0.290591
0.145506 0.090244 0.291210
0.146947 0.090258 0.290890
0.149092 0.090700 0.291928
0.150922 0.090944 0.292311
0.152485 0.091024 0.292144
0.153964 0.091052 0.291794
0.155561 0.091149 0.291644
-0.045309 0.026380 0.083736
-0.045330 0.026629 0.084654
-0.045420 0.026923 0.085713
-0.045280 0.027086 0.086349
-0.045183 0.027278 0.087074
-0.045095 0.027479 0.087826
-0.045022 0.027955 0.089559
-0.043124 0.031231 0.101249
-0.042695 0.031267 0.101419
-0.042933 0.031798 0.103190
-0.042638 0.031942 0.103701
-0.042629 0.032306 0.104929
-0.041773 0.032029 0.104068
-0.043696 0.033902 0.110194
-0.043229 0.033943 0.110365
-0.042868 0.034070 0.110811
-0.042715 0.034367 0.111809
-0.042015 0.034226 0.111379
-0.041607 0.034322 0.111718
-0.041384 0.034575 0.112568
-0.041250 0.034909 0.113680
-0.042076 0.036077 0.117502
-0.041907 0.036411 0.118609
-0.041776 0.036787 0.119851
-0.041508 0.037051 0.120725
-0.040891 0.037007 0.120595
-0.042261 0.038784 0.126398
-0.042721 0.039766 0.129608
-0.042746 0.040365 0.131569
-0.042306 0.040537 0.132134
-0.062013 0.061218 0.199555
-0.061149 0.061293 0.199799
-0.060280 0.061365 0.200032
-0.061091 0.063177 0.205931
-0.059948 0.062994 0.205329
-0.058906 0.062913 0.205056
-0.058472 0.063489 0.206922
-0.057721 0.063735 0.207709
-0.056829 0.063831 0.208005
-0.056113 0.064133 0.208970
-0.055453 0.064509 0.210175
-0.054870 0.064991 0.211723
-0.054246 0.065440 0.213164
-0.053489 0.065743 0.214126
-0.052731 0.066058 0.215123
-0.052207 0.066682 0.217127
-0.051861 0.067565 0.219971
-0.051261 0.068145 0.221830
-0.063261 0.087674 0.285313
-0.061786 0.087490 0.284671
-0.060495 0.087565 0.284868
-0.059291 0.087771 0.285491
-0.057986 0.087835 0.285651
-0.056609 0.087790 0.285455
-0.055352 0.087933 0.285870
-0.054099 0.088090 0.286331
-0.052745 0.088087 0.286271
-0.051434 0.088158 0.286450
-0.050115 0.088218 0.286591
-0.048766 0.088227 0.286569
-0.047417 0.088236 0.286548
-0.046045 0.088202 0.286385
-0.044709 0.088238 0.286449
-0.043364 0.088259 0.286465
-0.041885 0.087997 0.285563
-0.040247 0.087375 0.283495
-0.040047 0.089939 0.291763
-0.038695 0.090004 0.291925
-0.036527 0.088108 0.285725
-0.034690 0.086898 0.281752
-0.031193 0.081263 0.263438
-0.029694 0.080581 0.261183
-0.028089 0.079541 0.257770
-0.027040 0.080051 0.259382
-0.025705 0.079723 0.258280
-0.024401 0.079464 0.257403
-0.023164 0.079409 0.257186
-0.021976 0.079523 0.257519
-0.020838 0.079842 0.258514
-0.019715 0.080263 0.259844
-0.018662 0.081048 0.262349
-0.017630 0.082035 0.265514
-0.016304 0.081707 0.264420
-0.015402 0.083626 0.270600
-0.014122 0.083654 0.270661
-0.012026 0.078370 0.253536
-0.010863 0.078670 0.254483
-0.009684 0.078916 0.255255
-0.008474 0.078936 0.255296
-0.007266 0.078997 0.255473
-0.006064 0.079146 0.255938
-0.004849 0.079172 0.256004
-0.003641 0.079361 0.256597
-0.002427 0.079564 0.257241
-0.001200 0.079251 0.256214
0.000018 0.079380 0.256620
0.001278 0.081884 0.264706
0.002553 0.082418 0.266423
0.003800 0.081997 0.265056
0.005049 0.081797 0.264403
0.006272 0.081360 0.262986
0.007529 0.081417 0.263168
0.008743 0.081068 0.262040
0.009925 0.080548 0.260359
0.011129 0.080293 0.259539
0.012413 0.080614 0.260579
0.013698 0.080884 0.261457
0.014978 0.081078 0.262091
0.016235 0.081127 0.262259
0.017582 0.081591 0.263768
0.018732 0.081135 0.262304
0.020036 0.081361 0.263047
0.021249 0.081217 0.262593
0.022439 0.081001 0.261911
0.023489 0.080332 0.259763
0.024738 0.080373 0.259913
0.025829 0.079923 0.258476
0.027012 0.079785 0.258048
0.028178 0.079612 0.257508
0.029452 0.079744 0.257955
0.030740 0.079902 0.258488
0.032024 0.080040 0.258955
0.033357 0.080283 0.259765
0.034620 0.080346 0.259992
0.035958 0.080574 0.260754
0.037500 0.081226 0.262889
0.038807 0.081346 0.263302
0.040272 0.081779 0.264727
0.041599 0.081913 0.265187
0.042804 0.081805 0.264865
0.044173 0.082009 0.265550
0.045449 0.082034 0.265657
0.047564 0.083529 0.270525
0.048739 0.083340 0.269939
0.050076 0.083429 0.270254
0.051289 0.083313 0.269902
0.052609 0.083371 0.270114
0.053691 0.083059 0.269128
0.053163 0.080328 0.260303
0.054836 0.080971 0.262410
0.056506 0.081582 0.264410
0.057344 0.080992 0.262516
0.059557 0.082326 0.266860
0.060871 0.082388 0.267079
0.062558 0.082941 0.268889
0.063853 0.082964 0.268978
0.065255 0.083121 0.269502
0.066640 0.083251 0.269936
0.067989 0.083333 0.270212
0.069270 0.083329 0.270206
0.070581 0.083361 0.270316
0.071622 0.083079 0.269404
0.072789 0.082949 0.268983
0.073894 0.082754 0.268352
0.074852 0.082405 0.267214
0.075605 0.081845 0.265393
0.076813 0.081787 0.265196
0.077840 0.081543 0.264391
0.078700 0.081133 0.263047
0.080082 0.081266 0.263459
0.081228 0.081159 0.263088
0.082642 0.081319 0.263582
0.084678 0.082077 0.266006
0.085871 0.082008 0.265747
0.087386 0.082243 0.266473
0.095070 0.088194 0.285708
0.096317 0.088091 0.285321
0.098865 0.089164 0.288739
0.100247 0.089169 0.288695
0.101786 0.089312 0.289091
0.103033 0.089199 0.288651
0.104380 0.089174 0.288489
0.106120 0.089480 0.289395
0.107474 0.089458 0.289231
0.108844 0.089450 0.289104
0.110497 0.089670 0.289711
0.111779 0.089589 0.289335
0.113134 0.089567 0.289143
0.114613 0.089642 0.289258
0.115839 0.089520 0.288728
0.117318 0.089594 0.288822
0.118609 0.089524 0.288445
0.120160 0.089650 0.288689
0.121647 0.089725 0.288761
0.122935 0.089653 0.288350
0.124451 0.089748 0.288464
0.125986 0.089854 0.288606
0.128219 0.090450 0.290308
0.130037 0.090744 0.291027
0.131692 0.090918 0.291351
0.133018 0.090864 0.290932
0.134464 0.090892 0.290763
0.136206 0.091117 0.291211
0.137537 0.091066 0.290764
0.139168 0.091212 0.290932
0.140726 0.091308 0.290925
0.142332 0.091432 0.290993
0.143986 0.091585 0.291135
0.145609 0.091715 0.291191
0.147585 0.092062 0.291916
0.149347 0.092271 0.292184
0.151343 0.092619 0.292872
0.152833 0.092653 0.292549
0.154141 0.092577 0.291859
0.155818 0.092722 0.291845
-0.045104 0.026664 0.083281
-0.045001 0.026842 0.083965
-0.045048 0.027115 0.084940
-0.045104 0.027396 0.085943
-0.045195 0.027705 0.087029
-0.044924 0.028057 0.088356
-0.044892 0.028304 0.089239
-0.042397 0.031527 0.100672
-0.042736 0.032140 0.102681
-0.042527 0.032350 0.103399
-0.042590 0.032774 0.104800
-0.041733 0.032492 0.103940
-0.041083 0.032365 0.103574
-0.043664 0.034813 0.111445
-0.043190 0.034855 0.111616
-0.042784 0.034952 0.111963
-0.042295 0.034985 0.112098
-0.042137 0.035294 0.113118
-0.041547 0.035246 0.112989
-0.041257 0.035453 0.113680
-0.041514 0.036143 0.115914
-0.041821 0.036896 0.118349
-0.041429 0.037043 0.118840
-0.041154 0.037300 0.119682
-0.040915 0.037598 0.120651
-0.041101 0.038301 0.122919
-0.042672 0.040332 0.129449
-0.062508 0.062657 0.201143
-0.061636 0.062733 0.201389
-0.060838 0.062888 0.201887
-0.060146 0.063158 0.202752
-0.059358 0.063335 0.203315
-0.059075 0.064066 0.205655
-0.058329 0.064310 0.206427
-0.057677 0.064669 0.207567
-0.056810 0.064794 0.207956
-0.056096 0.065101 0.208925
-0.055334 0.065362 0.209746
-0.054809 0.065919 0.211511
-0.054130 0.066307 0.212737
-0.053459 0.066720 0.214037
-0.052717 0.067058 0.215097
-0.052051 0.067509 0.216519
-0.051787 0.068509 0.219696
-0.064854 0.089367 0.286508
-0.063269 0.089037 0.285409
-0.061914 0.089024 0.285323
-0.060622 0.089102 0.285529
-0.059325 0.089177 0.285725
-0.058032 0.089261 0.285948
-0.056716 0.089314 0.286072
-0.055376 0.089330 0.286075
-0.054116 0.089479 0.286504
-0.052792 0.089527 0.286612
-0.051437 0.089524 0.286553
-0.050113 0.089577 0.286671
-0.048751 0.089561 0.286571
-0.047370 0.089511 0.286361
-0.046025 0.089527 0.286363
-0.044684 0.089552 0.286391
-0.043333 0.089559 0.286365
-0.041821 0.089222 0.285239
-0.040138 0.088485 0.282834
-0.039399 0.093061 0.297359
-0.036366 0.089077 0.284583
-0.034616 0.088053 0.281266
-0.030869 0.081662 0.260809
-0.029633 0.081659 0.260758
-0.028151 0.080952 0.258458
-0.026948 0.081014 0.258616
-0.025703 0.080952 0.258380
-0.024423 0.080770 0.257760
-0.023187 0.080721 0.257567
-0.022021 0.080921 0.258171
-0.020871 0.081212 0.259065
-0.019759 0.081693 0.260564
-0.018716 0.082544 0.263244
-0.017794 0.084091 0.268147
-0.016450 0.083725 0.266950
-0.015406 0.084950 0.270826
-0.014125 0.084979 0.270887
-0.012020 0.079557 0.253579
-0.010840 0.079735 0.254122
-0.009643 0.079815 0.254353
-0.008420 0.079670 0.253871
-0.007236 0.079913 0.254623
-0.006022 0.079844 0.254386
-0.004818 0.079921 0.254614
-0.003613 0.080024 0.254926
-0.002398 0.079905 0.254534
-0.001190 0.080051 0.254985
0.000022 0.080043 0.254948
0.001289 0.083684 0.266533
0.002556 0.083683 0.266524
0.003814 0.083489 0.265898
0.005051 0.083040 0.264461
0.006266 0.082485 0.262692
0.007491 0.082219 0.261841
0.008672 0.081619 0.259928
0.009867 0.081277 0.258840
0.011033 0.080802 0.257330
0.012294 0.081051 0.258125
0.013575 0.081371 0.259150
0.014832 0.081503 0.259574
0.016169 0.082022 0.261235
0.017487 0.082380 0.262384
0.018663 0.082066 0.261393
0.019974 0.082346 0.262296
0.021184 0.082199 0.261841
0.022408 0.082120 0.261604
0.023459 0.081449 0.259479
0.024782 0.081744 0.260436
0.025866 0.081257 0.258899
0.027011 0.080998 0.258092
0.028231 0.080978 0.258047
0.029363 0.080717 0.257234
0.030692 0.080994 0.258137
0.031893 0.080928 0.257946
0.033144 0.080987 0.258157
0.034297 0.080811 0.257615
0.035519 0.080804 0.257617
0.037045 0.081467 0.259753
0.039347 0.083737 0.267015
0.040890 0.084303 0.268842
0.042186 0.084338 0.268977
0.043509 0.084424 0.269276
0.044657 0.084175 0.268507
0.046134 0.084543 0.269706
0.047495 0.084684 0.270178
0.048669 0.084493 0.269593
0.050004 0.084584 0.269908
0.051216 0.084467 0.269557
0.052534 0.084526 0.269769
0.053615 0.084211 0.268785
0.054547 0.083680 0.267112
0.055737 0.083562 0.266754
0.056856 0.083344 0.266076
0.058261 0.083545 0.266737
0.059656 0.083725 0.267328
0.061189 0.084086 0.268496
0.062628 0.084305 0.269209
0.063820 0.084190 0.268854
0.065348 0.084514 0.269901
0.066694 0.084595 0.270167
0.067967 0.084581 0.270131
0.069186 0.084502 0.269883
0.070480 0.084516 0.269932
0.071111 0.083748 0.267479
0.072207 0.083546 0.266830
0.073765 0.083876 0.267881
0.074679 0.083474 0.266591
0.075582 0.083073 0.265300
0.077306 0.083574 0.266887
0.078363 0.083349 0.266150
0.079266 0.082969 0.264918
0.080866 0.083319 0.266013
0.082490 0.083683 0.267150
0.083851 0.083773 0.267407
0.085427 0.084073 0.268327
0.087054 0.084412 0.269371
0.088669 0.084730 0.270343
0.095325 0.089787 0.286427
0.096577 0.089683 0.286040
0.098984 0.090639 0.289031
0.100562 0.090820 0.289540
0.101945 0.090823 0.289478
0.103090 0.090617 0.288742
0.104772 0.090881 0.289498
0.106144 0.090873 0.289384
0.107559 0.090902 0.289379
0.108965 0.090922 0.289338
0.110472 0.091025 0.289556
0.111722 0.090916 0.289093
0.113162 0.090962 0.289114
0.114625 0.091026 0.289181
0.115790 0.090854 0.288495
0.117376 0.091013 0.288850
0.118728 0.090988 0.288613
0.120205 0.091059 0.288670
0.121757 0.091183 0.288890
0.123558 0.091490 0.289674
0.125067 0.091576 0.289749
0.126786 0.091811 0.290288
0.128209 0.091830 0.290128
0.130103 0.092182 0.291011
0.131298 0.092036 0.290309
0.132810 0.092113 0.290300
0.134352 0.092209 0.290337
0.135752 0.092206 0.290051
0.137262 0.092278 0.289986
0.138780 0.092353 0.289916
0.140461 0.092534 0.290165
0.142116 0.092694 0.290333
0.143431 0.092631 0.289788
0.145498 0.093050 0.290732
0.147235 0.093253 0.290981
0.149256 0.093629 0.291752
0.150958 0.093800 0.291865
0.152806 0.094057 0.292225
0.154498 0.094215 0.292254
0.155932 0.094213 0.291768
-0.045163 0.027105 0.083312
-0.045023 0.027264 0.083931
-0.045140 0.027582 0.085038
-0.045175 0.027856 0.086006
-0.045161 0.028105 0.086893
-0.045098 0.028327 0.087694
-0.045175 0.028915 0.089735
-0.042722 0.032250 0.101405
-0.042773 0.032656 0.102732
-0.042561 0.032867 0.103445
-0.042727 0.033378 0.105101
-0.041614 0.032891 0.103610
-0.043276 0.034610 0.109071
-0.042812 0.034651 0.109240
-0.042730 0.035007 0.110398
-0.042306 0.035086 0.110684
-0.042202 0.035437 0.111825
-0.042093 0.035793 0.112977
-0.041249 0.035524 0.112158
-0.041136 0.035886 0.113326
-0.042532 0.037591 0.118736
-0.041984 0.037602 0.118791
-0.041979 0.038105 0.120401
-0.041478 0.038165 0.120610
-0.041039 0.038285 0.121005
-0.041045 0.038830 0.122741
-0.062191 0.061427 0.194220
-0.060655 0.060802 0.192257
-0.062110 0.063204 0.199858
-0.061447 0.063491 0.200771
-0.060693 0.063691 0.201405
-0.059753 0.063698 0.201430
-0.058926 0.063829 0.201842
-0.058462 0.064364 0.203529
-0.057979 0.064895 0.205199
-0.057466 0.065410 0.206820
-0.056671 0.065616 0.207460
-0.055862 0.065814 0.208073
-0.054997 0.065951 0.208489
-0.054249 0.066237 0.209376
-0.054027 0.067186 0.212358
-0.053503 0.067789 0.214244
-0.052791 0.068172 0.215431
-0.051978 0.068437 0.216245
-0.066081 0.090557 0.286067
-0.064759 0.090593 0.286144
-0.063206 0.090300 0.285181
-0.062101 0.090650 0.286248
-0.060540 0.090334 0.285208
-0.059242 0.090407 0.285395
-0.057938 0.090472 0.285558
-0.056611 0.090504 0.285615
-0.055298 0.090560 0.285748
-0.053993 0.090633 0.285932
-0.052725 0.090773 0.286328
-0.051380 0.090784 0.286316
-0.050045 0.090816 0.286369
-0.048709 0.090846 0.286416
-0.047361 0.090855 0.286396
-0.046005 0.090849 0.286332
-0.044733 0.091014 0.286803
-0.043363 0.090985 0.286664
-0.042075 0.091130 0.287073
-0.039885 0.089267 0.281159
-0.040708 0.094251 0.296807
-0.039332 0.094318 0.296971
-0.036377 0.090462 0.284783
-0.034688 0.089582 0.281967
-0.030975 0.083192 0.261815
-0.029686 0.083055 0.261343
-0.028158 0.082205 0.258629
-0.027010 0.082440 0.259329
-0.025681 0.082118 0.258281
-0.024396 0.081914 0.257601
-0.023182 0.081935 0.257633
-0.022015 0.082139 0.258239
-0.020847 0.082359 0.258897
-0.019739 0.082862 0.260444
-0.018680 0.083650 0.262889
-0.017706 0.084954 0.266957
-0.016390 0.084698 0.266120
-0.015398 0.086212 0.270847
-0.014232 0.086942 0.273115
-0.012050 0.080986 0.254379
-0.010826 0.080863 0.253968
-0.009617 0.080830 0.253843
-0.008415 0.080860 0.253916
-0.007217 0.080947 0.254170
-0.006002 0.080841 0.253817
-0.004800 0.080886 0.253942
-0.003603 0.081092 0.254573
-0.002386 0.080848 0.253794
-0.001182 0.080899 0.253941
0.000025 0.081184 0.254823
0.001314 0.086318 0.270928
0.002595 0.086100 0.270236
0.003842 0.085293 0.267693
0.005067 0.084504 0.265214
0.006266 0.083687 0.262644
0.007503 0.083552 0.262217
0.008670 0.082803 0.259866
0.009882 0.082605 0.259245
0.011067 0.082252 0.258137
0.012271 0.082097 0.257654
0.013582 0.082623 0.259309
0.014858 0.082866 0.260078
0.016163 0.083219 0.261191
0.017477 0.083564 0.262282
0.018710 0.083501 0.262094
0.019902 0.083274 0.261391
0.021148 0.083287 0.261444
0.022453 0.083518 0.262179
0.023511 0.082852 0.260102
0.024699 0.082692 0.259614
0.025840 0.082394 0.258694
0.026959 0.082055 0.257645
0.028115 0.081854 0.257033
0.029368 0.081942 0.257327
0.030586 0.081927 0.257299
0.031836 0.081997 0.257536
0.033121 0.082146 0.258025
0.034323 0.082088 0.257861
0.035548 0.082087 0.257880
0.036849 0.082255 0.258426
0.038667 0.083530 0.262454
0.040438 0.084625 0.265915
0.041728 0.084679 0.266107
0.043186 0.085058 0.267321
0.044411 0.084972 0.267072
0.045833 0.085256 0.267989
0.047418 0.085819 0.269779
0.048626 0.085689 0.269393
0.050215 0.086220 0.271082
0.051124 0.085585 0.269106
0.052523 0.085781 0.269745
0.053445 0.085208 0.267960
0.054504 0.084875 0.266931
0.055738 0.084823 0.266787
0.056786 0.084495 0.265773
0.058206 0.084725 0.266510
0.059748 0.085118 0.267760
0.061222 0.085400 0.268661
0.062711 0.085690 0.269584
0.063822 0.085463 0.268879
0.065255 0.085667 0.269528
0.066582 0.085727 0.269725
0.067685 0.085501 0.269016
0.068947 0.085481 0.268956
0.069889 0.085072 0.267670
0.071064 0.084956 0.267301
0.071856 0.084394 0.265528
0.072750 0.083969 0.264184
0.074114 0.084092 0.264561
0.074991 0.083668 0.263214
0.076072 0.083480 0.262606
0.077512 0.083687 0.263238
0.078697 0.083617 0.262994
0.080277 0.083960 0.264049
0.081831 0.084267 0.264983
0.083624 0.084808 0.266649
0.085464 0.085378 0.268405
0.087256 0.085885 0.269955
0.089275 0.086597 0.272146
0.095376 0.091190 0.286528
0.096630 0.091086 0.286140
0.098786 0.091823 0.288391
0.100485 0.092121 0.289253
0.101670 0.091946 0.288628
0.103093 0.091987 0.288676
0.104746 0.092230 0.289350
0.106131 0.092234 0.289267
0.107490 0.092215 0.289105
0.109049 0.092366 0.289471
0.110327 0.092278 0.289078
0.111841 0.092387 0.289298
0.113187 0.092356 0.289070
0.114443 0.092254 0.288613
0.115843 0.092269 0.288512
0.117376 0.092387 0.288726
0.118671 0.092318 0.288347
0.120208 0.092436 0.288543
0.121847 0.092629 0.288964
0.123313 0.092688 0.288955
0.125056 0.092950 0.289572
0.126344 0.092873 0.289118
0.128316 0.093295 0.290207
0.129580 0.093198 0.289672
0.131535 0.093595 0.290657
0.132770 0.093476 0.290030
0.134472 0.093685 0.290406
0.136064 0.093814 0.290522
0.137624 0.093918 0.290545
0.139036 0.093920 0.290239
0.140518 0.093970 0.290064
0.142153 0.094118 0.290181
0.143698 0.094205 0.290091
0.145369 0.094372 0.290230
0.146987 0.094502 0.290239
0.148865 0.094794 0.290726
0.151089 0.095299 0.291846
0.152637 0.095372 0.291621
0.154259 0.095489 0.291510
0.155802 0.095556 0.291224
-0.045120 0.027484 0.083152
-0.044852 0.027565 0.083532
-0.045167 0.028011 0.085012
-0.045493 0.028471 0.086536
-0.045193 0.028545 0.086881
-0.045100 0.028752 0.087628
-0.044614 0.028710 0.087612
-0.045055 0.029269 0.089428
-0.044653 0.029286 0.089585
-0.042308 0.032056 0.099214
-0.041665 0.031923 0.098856
-0.042971 0.033297 0.103166
-0.042386 0.033221 0.102982
-0.042688 0.033846 0.104968
-0.041716 0.033464 0.103828
-0.042691 0.034653 0.107563
-0.042054 0.034547 0.107275
-0.042016 0.034936 0.108521
-0.041792 0.035179 0.109312
-0.041936 0.035740 0.111092
-0.041995 0.036243 0.112687
-0.040877 0.035730 0.111122
-0.041313 0.036579 0.113792
-0.041769 0.037469 0.116587
-0.042281 0.038433 0.119610
-0.041930 0.038629 0.120242
-0.041421 0.038682 0.120427
-0.040992 0.038813 0.120852
-0.062954 0.062197 0.193729
-0.062117 0.062271 0.193975
-0.060867 0.061928 0.192922
-0.061450 0.063468 0.197727
-0.060820 0.063782 0.198715
-0.060242 0.064163 0.199905
-0.059748 0.064646 0.201413
-0.059083 0.064956 0.202380
-0.058372 0.065226 0.203218
-0.057871 0.065744 0.204827
-0.057359 0.066266 0.206447
-0.056587 0.066499 0.207166
-0.055798 0.066722 0.207849
-0.054935 0.066863 0.208274
-0.054446 0.067472 0.210156
-0.053926 0.068064 0.211984
-0.053884 0.069294 0.215796
-0.053212 0.069745 0.217180
-0.065985 0.091779 0.285699
-0.064724 0.091900 0.286042
-0.063322 0.091820 0.285760
-0.062011 0.091873 0.285887
-0.060755 0.092012 0.286281
-0.059263 0.091793 0.285559
-0.058027 0.091967 0.286060
-0.056676 0.091964 0.286009
-0.055294 0.091909 0.285798
-0.054024 0.092044 0.286173
-0.052673 0.092042 0.286122
-0.051315 0.092028 0.286036
-0.049992 0.092080 0.286151
-0.048670 0.092134 0.286274
-0.047315 0.092128 0.286210
-0.045960 0.092122 0.286148
-0.044663 0.092235 0.286451
-0.043345 0.092312 0.286644
-0.041842 0.091985 0.285585
-0.039950 0.090754 0.281718
-0.040178 0.094418 0.293047
-0.038819 0.094485 0.293208
-0.036589 0.092356 0.286558
-0.034909 0.091506 0.283875
-0.031276 0.085264 0.264472
-0.029724 0.084410 0.261784
-0.028227 0.083646 0.259376
-0.027061 0.083840 0.259940
-0.025753 0.083589 0.259128
-0.024448 0.083325 0.258272
-0.023186 0.083186 0.257807
-0.022029 0.083430 0.258530
-0.020846 0.083596 0.259013
-0.019695 0.083922 0.259990
-0.018650 0.084774 0.262598
-0.017509 0.085280 0.264134
-0.016419 0.086131 0.266743
-0.015173 0.086239 0.267048
-0.014204 0.088089 0.272749
-0.012914 0.088115 0.272804
-0.010865 0.082386 0.255043
-0.009657 0.082407 0.255085
-0.009137 0.089143 0.275916
-0.007839 0.089272 0.276293
-0.006516 0.089114 0.275786
-0.005195 0.088909 0.275133
-0.003882 0.088758 0.274648
-0.002583 0.088925 0.275151
-0.001274 0.088789 0.274714
0.000031 0.088784 0.274687
0.001315 0.087454 0.270563
0.002584 0.086920 0.268900
0.003868 0.087060 0.269327
0.005087 0.086048 0.266189
0.006282 0.085099 0.263251
0.007477 0.084466 0.261287
0.008704 0.084326 0.260855
0.009885 0.083831 0.259321
0.011077 0.083531 0.258395
0.012304 0.083525 0.258378
0.013554 0.083658 0.258792
0.014819 0.083858 0.259417
0.016159 0.084419 0.261156
0.017421 0.084521 0.261479
0.018719 0.084770 0.262258
0.020046 0.085111 0.263321
0.021310 0.085161 0.263489
0.022658 0.085525 0.264624
0.023882 0.085401 0.264255
0.024776 0.084172 0.260464
0.025895 0.083787 0.259287
0.026954 0.083252 0.257645
0.028015 0.082769 0.256167
0.029302 0.082968 0.256799
0.030518 0.082955 0.256775
0.031757 0.083003 0.256940
0.033053 0.083192 0.257544
0.034271 0.083178 0.257519
0.035431 0.083029 0.257076
0.036803 0.083369 0.258149
0.038590 0.084597 0.261972
0.039985 0.084917 0.262981
0.041463 0.085387 0.264458
0.042726 0.085401 0.264520
0.043929 0.085296 0.264214
0.045230 0.085382 0.264501
0.046478 0.085366 0.264471
0.047805 0.085493 0.264882
0.049159 0.085659 0.265417
0.049974 0.084902 0.263087
0.051185 0.084837 0.262904
0.052440 0.084847 0.262952
0.053501 0.084549 0.262044
0.054555 0.084255 0.261147
0.056001 0.084566 0.262124
0.057250 0.084571 0.262151
0.059234 0.085638 0.265472
0.060855 0.086149 0.267064
0.062422 0.086562 0.268353
0.063835 0.086750 0.268943
0.065169 0.086824 0.269179
0.066532 0.086935 0.269525
0.067727 0.086825 0.269187
0.068782 0.086543 0.268310
0.070019 0.086496 0.268163
0.070885 0.086001 0.266622
0.071860 0.085652 0.265533
0.073143 0.085677 0.265598
0.073866 0.085057 0.263662
0.074822 0.084720 0.262601
0.075915 0.084547 0.262045
0.077408 0.084818 0.262862
0.078250 0.084378 0.261473
0.079939 0.084850 0.262906
0.081589 0.085267 0.264167
0.083223 0.085655 0.265331
0.084621 0.085793 0.265716
0.087396 0.087301 0.270341
0.089450 0.088056 0.272626
0.094822 0.092009 0.284808
0.096071 0.091905 0.284424
0.098670 0.093079 0.287987
0.100663 0.093656 0.289695
0.102016 0.093630 0.289534
0.102886 0.093168 0.288018
0.104639 0.093506 0.288970
0.106168 0.093638 0.289279
0.107352 0.093466 0.288642
0.109015 0.093710 0.289281
0.110717 0.093981 0.289997
0.111573 0.093537 0.288497
0.113359 0.093872 0.289397
0.114899 0.093999 0.289645
0.116108 0.093855 0.289047
0.117767 0.094073 0.289559
0.118999 0.093949 0.289009
0.120419 0.093975 0.288911
0.121968 0.094100 0.289106
0.123260 0.094026 0.288680
0.124676 0.094047 0.288536
0.126280 0.094207 0.288809
0.127933 0.094400 0.289172
0.129395 0.094449 0.289080
0.131233 0.094769 0.289807
0.132788 0.094879 0.289878
0.134265 0.094933 0.289763
0.135957 0.095135 0.290088
0.137442 0.095190 0.289950
0.138944 0.095255 0.289828
0.140556 0.095393 0.289915
0.142070 0.095463 0.289776
0.143797 0.095673 0.290048
0.145671 0.095975 0.290580
0.147685 0.096363 0.291353
0.149375 0.096534 0.291451
0.151032 0.096681 0.291454
0.152922 0.096972 0.291872
0.154650 0.097156 0.291947
0.156206 0.097229 0.291666
-0.045298 0.027998 0.083395
-0.044819 0.027951 0.083390
-0.044790 0.028186 0.084223
-0.044957 0.028550 0.085438
-0.045209 0.028975 0.086834
-0.044887 0.029038 0.087140
-0.045005 0.029388 0.088307
-0.044922 0.029612 0.089092
-0.044973 0.029931 0.090159
-0.042718 0.032844 0.100131
-0.042291 0.032880 0.100301
-0.042140 0.033134 0.101131
-0.041927 0.033345 0.101828
-0.041831 0.033655 0.102823
-0.041189 0.033528 0.102483
-0.041750 0.034389 0.105158
-0.041984 0.034997 0.107062
-0.040594 0.034251 0.104819
-0.041922 0.035808 0.109621
-0.042008 0.036329 0.111253
-0.042264 0.037013 0.113382
-0.041672 0.036961 0.113256
-0.041321 0.037126 0.113790
-0.041415 0.037699 0.115575
-0.041280 0.038077 0.116758
-0.041070 0.038395 0.117757
-0.041865 0.039673 0.121701
-0.062951 0.062209 0.190914
-0.062126 0.062282 0.191160
-0.063028 0.064115 0.196804
-0.062080 0.064093 0.196751
-0.061348 0.064296 0.197387
-0.060687 0.064580 0.198272
-0.060164 0.065024 0.199642
-0.059479 0.065304 0.200505
-0.058696 0.065483 0.201057
-0.058157 0.065944 0.202475
-0.057124 0.065852 0.202189
-0.057147 0.066993 0.205689
-0.056337 0.067182 0.206261
-0.055652 0.067529 0.207319
-0.054870 0.067769 0.208044
-0.054309 0.068294 0.209645
-0.053608 0.068660 0.210755
-0.053815 0.070225 0.215542
-0.054115 0.071974 0.220890
-0.067207 0.092961 0.285247
-0.065858 0.092953 0.285195
-0.064552 0.093007 0.285329
-0.063214 0.093016 0.285324
-0.061895 0.093055 0.285409
-0.060606 0.093141 0.285637
-0.059238 0.093108 0.285497
-0.057938 0.093182 0.285687
-0.056628 0.093243 0.285837
-0.055295 0.093268 0.285871
-0.053993 0.093348 0.286077
-0.052681 0.093415 0.286240
-0.051260 0.093288 0.285810
-0.049996 0.093446 0.286250
-0.048658 0.093472 0.286288
-0.047252 0.093364 0.285914
-0.046030 0.093626 0.286672
-0.044650 0.093571 0.286460
-0.043311 0.093602 0.286513
-0.042068 0.093848 0.287223
-0.040231 0.092743 0.283799
-0.040644 0.096926 0.296554
-0.039269 0.096994 0.296717
-0.036373 0.093169 0.284973
-0.034915 0.092878 0.284041
-0.031115 0.086080 0.263214
-0.029727 0.085670 0.261923
-0.028222 0.084870 0.259439
-0.027082 0.085146 0.260248
-0.025757 0.084840 0.259276
-0.024473 0.084647 0.258655
-0.023216 0.084529 0.258259
-0.022036 0.084694 0.258730
-0.020867 0.084926 0.259409
-0.019699 0.085186 0.260172
-0.018575 0.085691 0.261682
-0.017536 0.086683 0.264684
-0.016418 0.087415 0.266889
-0.015305 0.088289 0.269530
-0.014134 0.088964 0.271564
-0.012850 0.088990 0.271619
-0.011492 0.088453 0.269955
-0.010422 0.090278 0.275501
-0.009118 0.090298 0.275541
-0.007822 0.090428 0.275917
-0.006501 0.090268 0.275411
-0.005182 0.090060 0.274759
-0.003871 0.089907 0.274275
-0.002574 0.090076 0.274776
-0.001268 0.089938 0.274340
0.000034 0.089933 0.274313
0.001332 0.089613 0.273327
0.002613 0.089056 0.271618
0.003908 0.089160 0.271927
0.005127 0.087929 0.268168
0.006296 0.086493 0.263781
0.007477 0.085667 0.261261
0.008693 0.085425 0.260518
0.009865 0.084861 0.258799
0.011055 0.084558 0.257874
0.012286 0.084600 0.258003
0.013515 0.084621 0.258070
0.014766 0.084766 0.258517
0.016067 0.085154 0.259705
0.017355 0.085420 0.260523
0.018641 0.085641 0.261206
0.019934 0.085863 0.261890
0.021203 0.085965 0.262211
0.022697 0.086914 0.265116
0.023869 0.086596 0.264158
0.024793 0.085456 0.260693
0.025567 0.083930 0.256047
0.026810 0.084012 0.256314
0.028070 0.084142 0.256722
