ply
format ascii 1.0
element vertex 1744
property float x
property float y
property float z
end_header
-0.105042 0.010854 0.285497
-0.104459 0.010934 0.287513
-0.103718 0.010999 0.289138
-0.103157 0.011086 0.291311
-0.102786 0.011195 0.294083
-0.102306 0.011295 0.296610
-0.102134 0.011433 0.300110
-0.100818 0.011444 0.300297
-0.100213 0.011538 0.302640
-0.099877 0.011666 0.305869
-0.098972 0.011730 0.307423
-0.098495 0.011848 0.310370
-0.097317 0.011883 0.311167
-0.096828 0.012006 0.314221
-0.096471 0.012148 0.317805
-0.095505 0.012217 0.319466
-0.095035 0.012353 0.322864
-0.076534 0.011635 0.302741
-0.074638 0.011565 0.300756
-0.073745 0.011650 0.302817
-0.073131 0.011784 0.306131
-0.071954 0.011831 0.307182
-0.071051 0.011925 0.309473
-0.069815 0.011967 0.310387
-0.068300 0.011961 0.310077
-0.061445 0.011510 0.297917
-0.059734 0.011456 0.296351
-0.057236 0.011244 0.290718
-0.056534 0.011383 0.294170
-0.043490 0.010298 0.265343
-0.042265 0.010310 0.265541
-0.041578 0.010459 0.269241
-0.040538 0.010526 0.270830
-0.039558 0.010612 0.272942
-0.038871 0.010787 0.277300
-0.036741 0.010559 0.271322
-0.035460 0.010567 0.271417
-0.034185 0.010578 0.271580
-0.031465 0.010124 0.259835
-0.030196 0.010119 0.259605
-0.028885 0.010099 0.258993
-0.027674 0.010114 0.259278
-0.026444 0.010123 0.259414
-0.025192 0.010124 0.259349
-0.023920 0.010117 0.259079
-0.022726 0.010143 0.259671
-0.021533 0.010173 0.260363
-0.020139 0.010107 0.258586
-0.018959 0.010146 0.259501
-0.018094 0.010370 0.265182
-0.016897 0.010425 0.266508
-0.015916 0.010633 0.271751
0.006178 0.010114 0.258053
0.007412 0.010086 0.257357
0.008684 0.010110 0.257982
0.009920 0.010092 0.257538
0.011174 0.010094 0.257607
0.012452 0.010115 0.258162
0.013725 0.010128 0.258533
0.014942 0.010101 0.257882
0.016281 0.010155 0.259293
0.017590 0.010183 0.260054
0.018924 0.010221 0.261072
0.020218 0.010234 0.261448
0.021917 0.010438 0.266726
0.023974 0.010780 0.275533
0.025786 0.010982 0.280758
0.025063 0.010138 0.259247
0.025851 0.009957 0.254676
0.027336 0.010049 0.257087
0.028527 0.010029 0.256654
0.029648 0.009987 0.255654
0.031072 0.010046 0.257251
0.032457 0.010089 0.258433
0.033852 0.010131 0.259600
0.035334 0.010196 0.261342
0.036678 0.010217 0.261987
0.038032 0.010240 0.262671
0.039582 0.010313 0.264620
0.040921 0.010327 0.265095
0.042477 0.010394 0.266908
0.043338 0.010292 0.264385
0.044117 0.010176 0.261528
0.045140 0.010122 0.260242
0.046167 0.010072 0.259051
0.046958 0.009974 0.256635
0.048143 0.009962 0.256452
0.049321 0.009950 0.256246
0.050533 0.009945 0.256228
0.051772 0.009945 0.256352
0.053205 0.009982 0.257414
0.054421 0.009978 0.257405
0.056930 0.010205 0.263387
0.058918 0.010331 0.266758
0.060846 0.010441 0.269722
0.062188 0.010448 0.270029
0.063388 0.010432 0.269726
0.064682 0.010431 0.269828
0.065989 0.010432 0.269984
0.067171 0.010414 0.269634
0.068344 0.010396 0.269268
0.069805 0.010420 0.270031
0.071336 0.010455 0.271035
0.071862 0.010343 0.268259
0.072522 0.010254 0.266068
0.073220 0.010174 0.264092
0.074069 0.010117 0.262720
0.074743 0.010038 0.260780
0.075330 0.009950 0.258608
0.076259 0.009910 0.257662
0.077546 0.009916 0.257937
0.078939 0.009936 0.258553
0.080513 0.009978 0.259731
0.082379 0.010053 0.261804
0.083998 0.010097 0.263044
0.085332 0.010106 0.263364
0.087080 0.010163 0.264936
0.097055 0.011165 0.291144
0.098278 0.011145 0.290734
0.100819 0.011274 0.294179
0.101274 0.011169 0.291524
0.102497 0.011150 0.291117
0.103939 0.011156 0.291335
0.105074 0.011129 0.290693
0.106280 0.011109 0.290261
0.107622 0.011105 0.290202
0.108901 0.011094 0.289972
0.110174 0.011082 0.289728
0.111288 0.011055 0.289072
0.112484 0.011037 0.288639
0.114891 0.011137 0.291280
0.116441 0.011152 0.291708
0.117701 0.011139 0.291399
0.118798 0.011112 0.290695
0.120197 0.011112 0.290730
0.121534 0.011108 0.290607
0.122774 0.011094 0.290254
0.124788 0.011150 0.291707
0.126097 0.011142 0.291491
0.127043 0.011103 0.290442
0.128892 0.011143 0.291449
0.130349 0.011148 0.291548
0.131867 0.011158 0.291768
0.133710 0.011196 0.292688
0.134659 0.011158 0.291639
0.136025 0.011155 0.291495
0.137387 0.011153 0.291334
0.138688 0.011145 0.291036
0.140328 0.011164 0.291437
0.142562 0.011230 0.293036
0.143735 0.011211 0.292430
0.144928 0.011195 0.291864
0.146436 0.011203 0.291920
0.147750 0.011196 0.291577
0.149265 0.011204 0.291620
0.150506 0.011191 0.291114
0.152073 0.011203 0.291225
-0.131812 0.010661 0.248567
-0.130852 0.010679 0.249142
-0.129663 0.010678 0.249274
-0.128977 0.010719 0.250373
-0.127847 0.010724 0.250608
-0.126609 0.010719 0.250623
-0.125243 0.010704 0.250368
-0.123992 0.010698 0.250331
-0.122640 0.010683 0.250075
-0.121242 0.010664 0.249709
-0.120019 0.010660 0.249689
-0.118866 0.010662 0.249806
-0.117729 0.010666 0.249949
-0.116892 0.010697 0.250730
-0.115682 0.010695 0.250709
-0.114588 0.010703 0.250935
-0.113995 0.010759 0.252266
-0.113357 0.010811 0.253516
-0.112296 0.010824 0.253830
-0.111329 0.010846 0.254359
-0.110662 0.010898 0.255584
-0.110234 0.010976 0.257390
-0.109607 0.011034 0.258757
-0.109106 0.011107 0.260451
-0.108857 0.011208 0.262787
-0.108551 0.011305 0.265030
-0.108570 0.011438 0.268121
-0.108313 0.011546 0.270593
-0.108262 0.011678 0.273636
-0.108160 0.011807 0.276619
-0.107451 0.011873 0.278096
-0.106705 0.011936 0.279510
-0.106199 0.012028 0.281592
-0.105099 0.012054 0.282127
-0.104320 0.012118 0.283545
-0.103498 0.012178 0.284878
-0.102749 0.012249 0.286445
-0.101776 0.012295 0.287420
-0.101142 0.012383 0.289390
-0.100304 0.012449 0.290819
-0.099766 0.012554 0.293165
-0.099365 0.012680 0.295984
-0.098271 0.012719 0.296789
-0.097086 0.012748 0.297335
-0.096749 0.012890 0.300535
-0.096257 0.013016 0.303335
-0.095723 0.013140 0.306086
-0.096806 0.013492 0.314168
-0.095108 0.013463 0.313335
-0.095483 0.013730 0.319411
-0.076348 0.013047 0.302030
-0.075400 0.013133 0.303851
-0.073509 0.013054 0.301875
-0.072187 0.013075 0.302209
-0.071082 0.013137 0.303487
-0.071031 0.013401 0.309417
-0.045947 0.010399 0.239105
-0.044862 0.010413 0.239310
-0.044440 0.010586 0.243163
-0.043779 0.010710 0.245886
-0.043221 0.010866 0.249357
-0.042239 0.010922 0.250517
-0.041213 0.010969 0.251483
-0.041062 0.011259 0.258012
-0.040662 0.011497 0.263341
-0.039935 0.011655 0.266833
-0.039456 0.011898 0.272276
-0.038578 0.012033 0.275245
-0.036821 0.011894 0.271948
-0.035594 0.011922 0.272477
-0.034314 0.011934 0.272641
-0.031236 0.011297 0.257976
-0.029966 0.011288 0.257662
-0.028772 0.011307 0.258015
-0.027556 0.011320 0.258204
-0.026305 0.011319 0.258083
-0.025084 0.011331 0.258279
-0.023851 0.011339 0.258366
-0.022619 0.011348 0.258490
-0.021403 0.011366 0.258833
-0.020082 0.011328 0.257894
-0.018908 0.011373 0.258841
-0.018132 0.011681 0.265778
-0.016986 0.011780 0.267952
-0.016045 0.012049 0.274006
-0.005716 0.012718 0.288836
-0.004314 0.012720 0.288860
-0.002919 0.012760 0.289731
-0.001513 0.012772 0.289989
-0.000103 0.012658 0.287383
0.001293 0.012658 0.287380
0.005313 0.012266 0.278466
0.006183 0.011377 0.258287
0.007433 0.011368 0.258086
0.008687 0.011367 0.258094
0.009949 0.011377 0.258324
0.011201 0.011372 0.258244
0.012469 0.011384 0.258542
0.013765 0.011417 0.259315
0.015067 0.011448 0.260066
0.016348 0.011461 0.260390
0.017666 0.011495 0.261208
0.018968 0.011515 0.261704
0.020336 0.011570 0.263014
0.022146 0.011855 0.269544
0.024431 0.012348 0.280823
0.025778 0.012340 0.280703
0.027052 0.012300 0.279851
0.028537 0.012355 0.281173
0.029757 0.012295 0.279889
0.031044 0.012267 0.279325
0.032398 0.012266 0.279395
0.033547 0.012191 0.277777
0.034659 0.012109 0.275994
0.035912 0.012081 0.275432
0.036918 0.011974 0.273093
0.038124 0.011937 0.272345
0.039004 0.011804 0.269412
0.039890 0.011682 0.266710
0.041072 0.011651 0.266097
0.042362 0.011651 0.266211
0.043598 0.011637 0.266001
0.043872 0.011375 0.260099
0.044448 0.011203 0.256275
0.045809 0.011233 0.257064
0.046814 0.011176 0.255875
0.047982 0.011160 0.255617
0.049185 0.011153 0.255565
0.050585 0.011190 0.256518
0.051813 0.011188 0.256578
0.053033 0.011184 0.256602
0.054642 0.011261 0.258474
0.056153 0.011314 0.259813
0.058152 0.011461 0.263307
0.059978 0.011569 0.265898
0.061912 0.011692 0.268855
0.063083 0.011669 0.268445
0.064495 0.011691 0.269068
0.065903 0.011711 0.269649
0.067090 0.011692 0.269327
0.068341 0.011685 0.269275
0.069690 0.011694 0.269604
0.071050 0.011705 0.269969
0.071990 0.011647 0.268753
0.072871 0.011582 0.267365
0.073382 0.011461 0.264692
0.074146 0.011384 0.263009
0.074894 0.011306 0.261325
0.075429 0.011199 0.258964
0.076380 0.011157 0.258087
0.077462 0.011135 0.257671
0.079062 0.011186 0.258966
0.080383 0.011198 0.259325
0.082217 0.011279 0.261301
0.083583 0.011294 0.261753
0.084744 0.011282 0.261560
0.087019 0.011417 0.264763
0.096089 0.012426 0.288256
0.097300 0.012404 0.287850
0.100914 0.012685 0.294465
0.101033 0.012526 0.290839
0.102474 0.012532 0.291061
0.103806 0.012525 0.290970
0.104953 0.012496 0.290368
0.106382 0.012501 0.290547
0.107773 0.012501 0.290614
0.109284 0.012515 0.290998
0.110666 0.012514 0.291026
0.112278 0.012539 0.291648
0.113601 0.012531 0.291509
0.114400 0.012466 0.290039
0.116298 0.012521 0.291352
0.117561 0.012508 0.291054
0.118957 0.012508 0.291085
0.120319 0.012505 0.291026
0.121406 0.012474 0.290302
0.122918 0.012487 0.290592
0.124352 0.012491 0.290687
0.126097 0.012526 0.291490
0.127503 0.012528 0.291491
0.128565 0.012495 0.290706
0.129951 0.012495 0.290653
0.132025 0.012560 0.292114
0.132209 0.012445 0.289396
0.134642 0.012543 0.291596
0.136052 0.012544 0.291545
0.137088 0.012511 0.290692
0.138534 0.012516 0.290705
0.139921 0.012515 0.290583
0.141157 0.012501 0.290137
0.143990 0.012627 0.292938
0.144890 0.012583 0.291775
0.146401 0.012592 0.291838
0.147893 0.012599 0.291846
0.149242 0.012594 0.291560
0.150848 0.012611 0.291759
0.152340 0.012618 0.291718
-0.130181 0.011693 0.245478
-0.129918 0.011775 0.247352
-0.128490 0.011752 0.247007
-0.126841 0.011707 0.246214
-0.126088 0.011746 0.247150
-0.124619 0.011717 0.246674
-0.123309 0.011704 0.246494
-0.121909 0.011681 0.246116
-0.120109 0.011619 0.244906
-0.119011 0.011625 0.245106
-0.117502 0.011590 0.244445
-0.116615 0.011617 0.245068
-0.115286 0.011599 0.244757
-0.114434 0.011630 0.245453
-0.114190 0.011724 0.247472
-0.112964 0.011717 0.247376
-0.112539 0.011795 0.249041
-0.112469 0.011912 0.251528
-0.111388 0.011923 0.251776
-0.110931 0.012002 0.253450
-0.110089 0.012040 0.254262
-0.110008 0.012163 0.256863
-0.109540 0.012246 0.258602
-0.109166 0.012341 0.260596
-0.109079 0.012472 0.263326
-0.108761 0.012578 0.265545
-0.108793 0.012728 0.268679
-0.108456 0.012838 0.270954
-0.108255 0.012967 0.273625
-0.107675 0.013053 0.275385
-0.107389 0.013177 0.277945
-0.106601 0.013241 0.279247
-0.105946 0.013324 0.280928
-0.104997 0.013372 0.281862
-0.104177 0.013438 0.283167
-0.103048 0.013465 0.283650
-0.102193 0.013529 0.284907
-0.101246 0.013582 0.285936
-0.100315 0.013639 0.287037
-0.099032 0.013648 0.287143
-0.098430 0.013754 0.289253
-0.097512 0.013817 0.290480
-0.096845 0.013919 0.292497
-0.096190 0.014025 0.294610
-0.095763 0.014168 0.297489
-0.096233 0.014449 0.303277
-0.072166 0.014514 0.302148
-0.071060 0.014583 0.303426
-0.046305 0.011353 0.235251
-0.045240 0.011369 0.235457
-0.044316 0.011421 0.236429
-0.043680 0.011553 0.239037
-0.042822 0.011632 0.240541
-0.042136 0.011762 0.243130
-0.041504 0.011916 0.246191
-0.041093 0.012144 0.250783
-0.040668 0.012382 0.255574
-0.040302 0.012653 0.261049
-0.039827 0.012906 0.266147
-0.039322 0.013166 0.271389
-0.038929 0.013483 0.277790
-0.036398 0.013055 0.268865
-0.035305 0.013131 0.270308
-0.034036 0.013144 0.270470
-0.031560 0.012674 0.260691
-0.030134 0.012603 0.259146
-0.028744 0.012543 0.257803
-0.027538 0.012561 0.258081
-0.026422 0.012624 0.259279
-0.025206 0.012643 0.259576
-0.024023 0.012681 0.260269
-0.022829 0.012717 0.260930
-0.021651 0.012767 0.261877
-0.020590 0.012897 0.264462
-0.019355 0.012927 0.265014
-0.018162 0.012992 0.266263
-0.016907 0.013019 0.266759
-0.015840 0.013208 0.270561
-0.012660 0.012651 0.259044
-0.011408 0.012656 0.259102
-0.010105 0.012599 0.257882
-0.008888 0.012648 0.258850
-0.007601 0.012596 0.257750
-0.006365 0.012627 0.258353
-0.005129 0.012673 0.259255
-0.003876 0.012692 0.259623
-0.002624 0.012738 0.260545
-0.001354 0.012693 0.259589
-0.000094 0.012884 0.263497
0.001212 0.013164 0.269210
0.002454 0.012821 0.262183
0.003959 0.013615 0.278426
0.005312 0.013614 0.278403
0.006233 0.012732 0.260378
0.007478 0.012698 0.259687
0.008744 0.012704 0.259826
0.010028 0.012731 0.260387
0.011286 0.012722 0.260229
0.012567 0.012739 0.260604
0.013864 0.012767 0.261218
0.015166 0.012794 0.261803
0.016420 0.012781 0.261564
0.017818 0.012873 0.263487
0.019052 0.012842 0.262901
0.020466 0.012928 0.264716
0.022139 0.013158 0.269485
0.025769 0.013697 0.280641
0.026754 0.013506 0.276801
0.028528 0.013713 0.281111
0.036006 0.013448 0.276184
0.037309 0.013436 0.276011
0.038608 0.013422 0.275833
0.039006 0.013107 0.269453
0.039992 0.013004 0.267419
0.041241 0.012989 0.267221
0.042284 0.012913 0.265752
0.043020 0.012750 0.262502
0.043377 0.012487 0.257193
0.044199 0.012369 0.254865
0.045460 0.012377 0.255136
0.046607 0.012355 0.254772
0.047715 0.012323 0.254220
0.048927 0.012319 0.254249
0.050192 0.012328 0.254547
0.051431 0.012331 0.254710
0.052607 0.012318 0.254566
0.053748 0.012299 0.254269
0.055350 0.012383 0.256122
0.058039 0.012701 0.262821
0.060317 0.012918 0.267425
0.061903 0.012981 0.268839
0.063098 0.012960 0.268533
0.064397 0.012962 0.268680
0.065869 0.012997 0.269536
0.067113 0.012987 0.269445
0.068437 0.012993 0.269675
0.069547 0.012958 0.269074
0.070750 0.012942 0.268847
0.071433 0.012832 0.266693
0.072437 0.012784 0.265792
0.073398 0.012729 0.264770
0.073905 0.012599 0.262170
0.074110 0.012423 0.258605
0.074749 0.012324 0.256645
0.075897 0.012310 0.256469
0.076790 0.012257 0.255451
0.078200 0.012286 0.256159
0.079727 0.012332 0.257223
0.080909 0.012325 0.257159
0.082407 0.012365 0.258085
0.084025 0.012422 0.259354
0.085902 0.012514 0.261376
0.096708 0.013886 0.290127
0.097927 0.013863 0.289719
0.100255 0.013994 0.292553
0.101091 0.013917 0.291017
0.102557 0.013927 0.291306
0.103868 0.013916 0.291153
0.104985 0.013880 0.290465
0.106407 0.013884 0.290622
0.107936 0.013902 0.291062
0.109312 0.013901 0.291078
0.110602 0.013888 0.290864
0.112583 0.013961 0.292447
0.113711 0.013929 0.291796
0.115209 0.013941 0.292094
0.116600 0.013941 0.292111
0.117628 0.013897 0.291223
0.118702 0.013860 0.290462
0.120248 0.013878 0.290854
0.121178 0.013826 0.289756
0.123526 0.013935 0.292029
0.124768 0.013918 0.291657
0.125895 0.013888 0.291021
0.127294 0.013889 0.291011
0.128585 0.013878 0.290748
0.129777 0.013857 0.290260
0.131033 0.013843 0.289913
0.133383 0.013943 0.291960
0.134469 0.013911 0.291214
0.135714 0.013896 0.290813
0.137121 0.013897 0.290754
0.138568 0.013902 0.290765
0.139821 0.013888 0.290363
0.142407 0.014005 0.292695
0.142711 0.013898 0.290324
0.145079 0.013992 0.292141
0.146632 0.014006 0.292284
0.147815 0.013985 0.291678
0.149388 0.014001 0.291830
0.150828 0.014004 0.291704
0.152197 0.014000 0.291427
-0.123290 0.012867 0.246446
-0.120423 0.012687 0.243107
-0.118916 0.012649 0.242466
-0.117447 0.012614 0.241877
-0.116316 0.012615 0.241971
-0.115255 0.012624 0.242204
-0.114573 0.012675 0.243238
-0.113802 0.012717 0.244093
-0.113543 0.012817 0.246067
-0.112766 0.012861 0.246938
-0.112192 0.012929 0.248271
-0.111841 0.013024 0.250121
-0.111388 0.013109 0.251775
-0.110785 0.013178 0.253114
-0.110361 0.013271 0.254889
-0.109992 0.013371 0.256825
-0.109948 0.013515 0.259565
-0.109550 0.013617 0.261517
-0.109281 0.013738 0.263817
-0.109188 0.013884 0.266592
-0.109321 0.014062 0.269987
-0.109345 0.014231 0.273181
-0.108787 0.014327 0.274977
-0.107986 0.014392 0.276187
-0.107260 0.014470 0.277618
-0.106442 0.014537 0.278837
-0.105662 0.014611 0.280186
-0.104475 0.014629 0.280472
-0.103398 0.014664 0.281059
-0.102784 0.014766 0.282936
-0.101207 0.014731 0.282171
-0.100171 0.014774 0.282913
-0.099212 0.014830 0.283894
-0.098188 0.014878 0.284712
-0.096974 0.014898 0.284990
-0.096197 0.014987 0.286579
-0.096158 0.015194 0.290441
-0.095902 0.015373 0.293745
-0.095763 0.015576 0.297507
-0.096095 0.015863 0.302864
-0.047923 0.010597 0.200671
-0.046532 0.010499 0.198712
-0.046012 0.010597 0.200475
-0.045605 0.010727 0.202818
-0.045702 0.010983 0.207554
-0.045437 0.011161 0.210819
-0.045020 0.011309 0.213511
-0.044711 0.011493 0.216856
-0.044359 0.011673 0.220151
-0.044149 0.011900 0.224327
-0.043758 0.012089 0.227774
-0.043539 0.012337 0.232317
-0.042976 0.012497 0.235216
-0.042362 0.012650 0.237991
-0.041936 0.012870 0.242011
-0.041462 0.013087 0.245978
-0.041009 0.013324 0.250310
-0.040571 0.013580 0.255002
-0.040052 0.013824 0.259466
-0.039445 0.014053 0.263632
-0.039045 0.014373 0.269519
-0.038292 0.014580 0.273287
-0.036376 0.014344 0.268743
-0.035211 0.014397 0.269631
-0.031547 0.013928 0.260629
-0.029475 0.013553 0.253523
-0.028356 0.013603 0.254368
-0.027222 0.013651 0.255160
-0.025997 0.013655 0.255153
-0.024732 0.013638 0.254739
-0.023554 0.013669 0.255235
-0.022390 0.013712 0.255966
-0.021642 0.014030 0.261813
-0.019371 0.014224 0.265279
-0.018097 0.014232 0.265368
-0.016950 0.014349 0.267488
-0.015732 0.014421 0.268758
-0.014436 0.014428 0.268830
-0.012611 0.013855 0.258094
-0.011516 0.014046 0.261604
-0.010136 0.013894 0.258730
-0.008897 0.013920 0.259166
-0.007628 0.013899 0.258736
-0.006381 0.013918 0.259057
-0.005143 0.013973 0.260059
-0.003889 0.014002 0.260563
-0.002632 0.014046 0.261366
-0.001357 0.013996 0.260416
-0.000093 0.014080 0.261972
0.001196 0.014272 0.265534
0.002475 0.014212 0.264408
0.005310 0.014960 0.278334
0.006207 0.013938 0.259320
0.007424 0.013857 0.257818
0.008672 0.013849 0.257689
0.009975 0.013921 0.259040
0.011201 0.013880 0.258306
0.012473 0.013899 0.258685
0.013844 0.014014 0.260859
0.015132 0.014033 0.261251
0.016355 0.013994 0.260563
0.017729 0.014080 0.262207
0.019031 0.014102 0.262649
0.020453 0.014203 0.264588
0.021671 0.014159 0.263824
0.037805 0.013966 0.261187
0.039265 0.014036 0.262588
0.040974 0.014187 0.265527
0.042190 0.014164 0.265192
0.043026 0.014019 0.262571
0.043134 0.013651 0.255781
0.044184 0.013594 0.254812
0.045354 0.013576 0.254570
0.046560 0.013569 0.254543
0.047816 0.013576 0.254791
0.048985 0.013559 0.254581
0.050256 0.013571 0.254904
0.051491 0.013572 0.255038
0.052789 0.013589 0.255473
0.054083 0.013605 0.255880
0.055266 0.013593 0.255756
0.057613 0.013861 0.260917
0.060231 0.014182 0.267070
0.061966 0.014285 0.269139
0.063108 0.014251 0.268604
0.064464 0.014265 0.268986
0.065868 0.014289 0.269556
0.067214 0.014299 0.269871
0.068428 0.014282 0.269662
0.069694 0.014276 0.269663
0.070605 0.014199 0.268318
0.071230 0.014068 0.265957
0.072533 0.014073 0.266164
0.073239 0.013964 0.264214
0.073739 0.013820 0.261602
0.074021 0.013641 0.258312
0.075015 0.013597 0.257577
0.075707 0.013500 0.255844
0.076937 0.013501 0.255956
0.078222 0.013511 0.256245
0.079533 0.013525 0.256610
0.080958 0.013559 0.257329
0.082110 0.013545 0.257167
0.083692 0.013602 0.258338
0.085210 0.013648 0.259282
0.087731 0.013850 0.263207
0.099429 0.015475 0.294175
0.100663 0.015448 0.293757
0.100721 0.015245 0.289964
0.102213 0.015260 0.290340
0.103826 0.015294 0.291045
0.105004 0.015263 0.290527
0.106347 0.015257 0.290468
0.107738 0.015257 0.290534
0.109065 0.015249 0.290428
0.110340 0.015233 0.290180
0.112158 0.015292 0.291346
0.113146 0.015238 0.290351
0.114932 0.015291 0.291395
0.116090 0.015260 0.290836
0.117327 0.015240 0.290479
0.118759 0.015246 0.290603
0.119970 0.015224 0.290182
0.121433 0.015234 0.290367
0.122919 0.015246 0.290594
0.124403 0.015257 0.290802
0.125656 0.015241 0.290465
0.126999 0.015235 0.290332
0.128415 0.015239 0.290358
0.129724 0.015229 0.290135
0.131005 0.015217 0.289846
0.132571 0.015238 0.290176
0.134467 0.015295 0.291202
0.135783 0.015286 0.290953
0.137180 0.015287 0.290868
0.138440 0.015272 0.290487
0.139928 0.015282 0.290573
0.141227 0.015272 0.290257
0.143713 0.015389 0.292348
0.145326 0.015411 0.292624
0.146563 0.015393 0.292131
0.147627 0.015357 0.291289
0.149361 0.015392 0.291759
0.150824 0.015397 0.291678
0.152447 0.015419 0.291886
-0.117227 0.013469 0.236644
-0.116180 0.013477 0.236878
-0.114686 0.013433 0.236183
-0.116295 0.013755 0.241919
-0.113089 0.013508 0.237646
-0.112143 0.013529 0.238073
-0.111701 0.013612 0.239581
-0.112078 0.013797 0.242887
-0.111738 0.013897 0.244684
-0.111699 0.014037 0.247176
-0.111418 0.014149 0.249174
-0.111484 0.014308 0.251991
-0.110481 0.014332 0.252419
-0.110342 0.014469 0.254845
-0.110209 0.014610 0.257334
-0.109857 0.014725 0.259351
-0.109698 0.014869 0.261870
-0.108971 0.014939 0.263071
-0.108092 0.014988 0.263921
-0.108218 0.015180 0.267266
-0.107489 0.015255 0.268550
-0.106766 0.015333 0.269874
-0.106027 0.015410 0.271184
-0.105263 0.015485 0.272457
-0.104314 0.015535 0.273272
-0.103601 0.015622 0.274732
-0.103118 0.015745 0.276838
-0.102614 0.015869 0.278939
-0.102042 0.015986 0.280906
-0.100493 0.015950 0.280195
-0.100023 0.016087 0.282509
-0.099281 0.016183 0.284108
-0.098161 0.016219 0.284649
-0.048058 0.010348 0.180271
-0.047278 0.010365 0.180476
-0.046495 0.010381 0.180678
-0.047626 0.011258 0.195643
-0.046766 0.011276 0.195849
-0.045992 0.011315 0.196431
-0.045415 0.011406 0.197899
-0.044795 0.011489 0.199241
-0.044266 0.011599 0.201054
-0.044124 0.011818 0.204749
-0.044496 0.012189 0.211054
-0.044388 0.012441 0.215321
-0.044039 0.012636 0.218590
-0.043725 0.012852 0.222205
-0.043445 0.013088 0.226173
-0.043187 0.013343 0.230470
-0.042798 0.013570 0.234274
-0.042134 0.013720 0.236743
-0.041732 0.013965 0.240868
-0.041402 0.014250 0.245659
-0.040920 0.014497 0.249804
-0.040329 0.014720 0.253518
-0.039862 0.015003 0.258280
-0.039033 0.015163 0.260925
-0.038567 0.015480 0.266264
-0.037989 0.015773 0.271174
-0.036323 0.015618 0.268400
-0.035180 0.015685 0.269439
-0.018180 0.015590 0.266637
-0.016898 0.015599 0.266721
-0.015716 0.015709 0.268542
-0.014421 0.015716 0.268614
-0.012604 0.015100 0.258016
-0.011457 0.015238 0.260327
-0.010144 0.015163 0.259000
-0.008868 0.015130 0.258396
-0.007636 0.015172 0.259074
-0.006407 0.015239 0.260195
-0.005163 0.015296 0.261127
-0.003900 0.015313 0.261400
-0.002643 0.015384 0.262582
-0.001366 0.015363 0.262203
-0.000093 0.015379 0.262475
0.001189 0.015468 0.263985
0.002452 0.015350 0.261957
0.006341 0.015523 0.264913
0.007626 0.015520 0.264879
0.008911 0.015517 0.264839
0.019166 0.015484 0.264540
0.020439 0.015476 0.264445
0.021989 0.015665 0.267730
0.038656 0.015571 0.267108
0.039600 0.015435 0.264865
0.041210 0.015559 0.267092
0.042051 0.015394 0.264357
0.043046 0.015293 0.262725
0.043165 0.014895 0.255998
0.044070 0.014784 0.254185
0.045339 0.014797 0.254516
0.046540 0.014788 0.254461
0.047686 0.014763 0.254128
0.048892 0.014757 0.254127
0.050063 0.014740 0.253953
0.051386 0.014769 0.254545
0.052605 0.014766 0.254615
0.053842 0.014769 0.254768
0.055178 0.014798 0.255380
0.056656 0.014863 0.256613
0.060060 0.015420 0.266339
0.061819 0.015540 0.268526
0.063261 0.015577 0.269282
0.064631 0.015595 0.269708
0.065979 0.015607 0.270035
0.067281 0.015608 0.270166
0.068624 0.015618 0.270461
0.069611 0.015548 0.269367
0.070574 0.015476 0.268225
0.071396 0.015375 0.266598
0.072680 0.015376 0.266726
0.073312 0.015242 0.264501
0.074018 0.015127 0.262612
0.073951 0.014861 0.258089
0.074934 0.014810 0.257317
0.075978 0.014774 0.256777
0.076897 0.014714 0.255843
0.078208 0.014730 0.256218
0.079626 0.014766 0.256928
0.081098 0.014810 0.257788
0.082500 0.014841 0.258405
0.084072 0.014900 0.259527
0.085553 0.014942 0.260342
0.095465 0.016434 0.286425
0.096669 0.016406 0.286022
0.100591 0.016834 0.293560
0.100657 0.016613 0.289791
0.103718 0.016660 0.290754
0.104672 0.016591 0.289617
0.106251 0.016622 0.290214
0.108483 0.016752 0.292553
0.109617 0.016712 0.291906
0.110625 0.016654 0.290937
0.112049 0.016659 0.291070
0.113265 0.016634 0.290659
0.114338 0.016588 0.289892
0.116141 0.016648 0.290968
0.117154 0.016595 0.290054
0.118525 0.016593 0.290031
0.119808 0.016579 0.289791
0.120976 0.016549 0.289273
0.122702 0.016596 0.290079
0.124451 0.016644 0.290912
0.125466 0.016595 0.290022
0.127017 0.016616 0.290370
0.128442 0.016621 0.290415
0.129920 0.016633 0.290567
0.131150 0.016612 0.290159
0.132521 0.016610 0.290058
0.133933 0.016613 0.290037
0.135386 0.016621 0.290092
0.137004 0.016649 0.290485
0.138613 0.016675 0.290837
0.139625 0.016629 0.289931
0.141224 0.016654 0.290238
0.142640 0.016656 0.290149
0.143391 0.016582 0.288712
0.146670 0.016799 0.292325
0.147797 0.016767 0.291607
0.149064 0.016752 0.291159
0.150711 0.016779 0.291437
0.152311 0.016800 0.291603
-0.115325 0.014350 0.232795
-0.116158 0.014593 0.236823
-0.113163 0.014355 0.233036
-0.112000 0.014346 0.232976
-0.111529 0.014428 0.234360
-0.111280 0.014539 0.236233
-0.110579 0.014594 0.237169
-0.111249 0.014832 0.241084
-0.111489 0.015017 0.244133
-0.111053 0.015114 0.245744
-0.111329 0.015311 0.248971
-0.111160 0.015450 0.251257
-0.110817 0.015568 0.253185
-0.110353 0.015671 0.254871
-0.109941 0.015784 0.256707
-0.109402 0.015881 0.258280
-0.108069 0.015864 0.257984
-0.107167 0.015910 0.258719
-0.106243 0.015954 0.259411
-0.104756 0.015914 0.258721
-0.104017 0.015987 0.259881
-0.103403 0.016082 0.261379
-0.102453 0.016126 0.262051
-0.102227 0.016287 0.264607
-0.102366 0.016510 0.268178
-0.101621 0.016594 0.269490
-0.101950 0.016859 0.273715
-0.101080 0.016929 0.274782
-0.099718 0.016917 0.274519
-0.100464 0.017268 0.280127
-0.048701 0.010259 0.165518
-0.047998 0.010276 0.165722
-0.047521 0.010343 0.166729
-0.047134 0.010433 0.168091
-0.046938 0.010568 0.170191
-0.046968 0.010760 0.173200
-0.046568 0.010858 0.174700
-0.046252 0.010981 0.176579
-0.045724 0.011056 0.177701
-0.045497 0.011208 0.180061
-0.045113 0.011327 0.181878
-0.044930 0.011502 0.184593
-0.044766 0.011689 0.187497
-0.044588 0.011879 0.190457
-0.044487 0.012099 0.193881
-0.044565 0.012377 0.198242
-0.044489 0.012624 0.202098
-0.044405 0.012880 0.206083
-0.044390 0.013168 0.210583
-0.044184 0.013411 0.214359
-0.044014 0.013676 0.218498
-0.043710 0.013913 0.222161
-0.043468 0.014181 0.226333
-0.043252 0.014471 0.230852
-0.042755 0.014681 0.234080
-0.042074 0.014836 0.236446
-0.041555 0.015059 0.239887
-0.041095 0.015317 0.243878
-0.040637 0.015591 0.248122
-0.040379 0.015960 0.253877
-0.039754 0.016202 0.257620
-0.038983 0.016400 0.260638
-0.038393 0.016688 0.265112
-0.037971 0.017072 0.271097
-0.036322 0.016913 0.268446
-0.035117 0.016955 0.269010
-0.033854 0.016972 0.269171
-0.016874 0.016868 0.266403
-0.015735 0.017033 0.268937
-0.014439 0.017041 0.269009
-0.012794 0.016599 0.261977
-0.011253 0.016208 0.255753
-0.010006 0.016197 0.255542
-0.008784 0.016230 0.256018
-0.007545 0.016236 0.256076
-0.006303 0.016238 0.256069
-0.005070 0.016266 0.256488
-0.003828 0.016280 0.256678
-0.002581 0.016273 0.256554
-0.001341 0.016339 0.257572
-0.000090 0.016351 0.257748
0.001193 0.016792 0.264682
0.002489 0.016868 0.265887
0.020757 0.017019 0.268600
0.022111 0.017057 0.269260
0.036341 0.016988 0.268966
0.037607 0.016971 0.268793
0.038640 0.016854 0.267032
0.039593 0.016711 0.264862
0.041124 0.016813 0.266572
0.042286 0.016763 0.265872
0.043269 0.016646 0.264127
0.043200 0.016143 0.256241
0.044092 0.016017 0.254345
0.045269 0.015999 0.254155
0.046566 0.016023 0.254639
0.047666 0.015980 0.254056
0.048813 0.015954 0.253751
0.050039 0.015955 0.253863
0.051244 0.015949 0.253873
0.052499 0.015958 0.254131
0.053660 0.015939 0.253939
0.054824 0.015922 0.253774
0.056355 0.016010 0.255278
0.060321 0.016771 0.267530
0.062147 0.016917 0.269981
0.063598 0.016958 0.270744
0.064684 0.016901 0.269961
0.066154 0.016945 0.270780
0.067409 0.016934 0.270709
0.068693 0.016930 0.270758
0.069815 0.016887 0.270182
0.070564 0.016757 0.268213
0.071217 0.016609 0.265956
0.072204 0.016542 0.265002
0.073054 0.016448 0.263593
0.073775 0.016328 0.261773
0.074191 0.016145 0.258947
0.074905 0.016032 0.257238
0.075859 0.015974 0.256396
0.076944 0.015944 0.256017
0.078068 0.015923 0.255776
0.079468 0.015959 0.256436
0.080968 0.016013 0.257392
0.082339 0.016040 0.257916
0.083727 0.016070 0.258479
0.085424 0.016157 0.259962
0.087893 0.016385 0.263720
0.098956 0.018187 0.292804
0.100185 0.018156 0.292388
0.100483 0.017960 0.289304
0.101895 0.017965 0.289462
0.103966 0.018085 0.291461
0.104777 0.017985 0.289918
0.106086 0.017972 0.289772
0.107600 0.017994 0.290180
0.109027 0.018001 0.290340
0.110243 0.017973 0.289939
0.111539 0.017959 0.289750
0.113081 0.017984 0.290194
0.114079 0.017924 0.289239
0.115371 0.017910 0.289042
0.117408 0.018011 0.290685
0.118481 0.017963 0.289924
0.119935 0.017973 0.290098
0.121143 0.017947 0.289672
0.122982 0.018014 0.290738
0.124394 0.018017 0.290776
0.125747 0.018012 0.290668
0.127347 0.018042 0.291118
0.128627 0.018026 0.290826
0.129965 0.018019 0.290662
0.131409 0.018026 0.290723
0.132719 0.018016 0.290482
0.134181 0.018025 0.290562
0.135494 0.018015 0.290312
0.137043 0.018036 0.290555
0.138335 0.018023 0.290241
0.140163 0.018079 0.291034
0.141176 0.018030 0.290122
0.142329 0.018000 0.289500
0.145003 0.018160 0.291940
0.146682 0.018195 0.292332
0.148035 0.018188 0.292054
0.149405 0.018184 0.291802
0.150690 0.018169 0.291373
0.152118 0.018172 0.291210
-0.118729 0.015756 0.237291
-0.115025 0.015410 0.232177
-0.113779 0.015390 0.231959
-0.112776 0.015402 0.232230
-0.112189 0.015472 0.233361
-0.116764 0.016263 0.245351
-0.116013 0.016319 0.246272
-0.115316 0.016385 0.247322
-0.111956 0.016070 0.242611
-0.112024 0.016245 0.245301
-0.111269 0.016304 0.246218
-0.110766 0.016401 0.247710
-0.110355 0.016514 0.249433
-0.110094 0.016652 0.251533
-0.109868 0.016798 0.253750
-0.109438 0.016916 0.255534
-0.109011 0.017037 0.257358
-0.108378 0.017128 0.258725
-0.107670 0.017210 0.259935
-0.106788 0.017265 0.260745
-0.105837 0.017310 0.261397
-0.105221 0.017411 0.262896
-0.104112 0.017433 0.263180
-0.103206 0.017489 0.263983
-0.101902 0.017479 0.263775
-0.100367 0.017428 0.262951
-0.099027 0.017410 0.262623
-0.101920 0.018145 0.273644
-0.044105 0.008989 0.135122
-0.043295 0.008953 0.134535
-0.043053 0.009036 0.135722
-0.042781 0.009114 0.136848
-0.042540 0.009202 0.138111
-0.048407 0.010804 0.161999
-0.047721 0.010822 0.162202
-0.046980 0.010828 0.162225
-0.046538 0.010905 0.163298
-0.046180 0.011004 0.164708
-0.045916 0.011130 0.166505
-0.045810 0.011298 0.168949
-0.045781 0.011493 0.171771
-0.045641 0.011665 0.174267
-0.045598 0.011870 0.177236
-0.045369 0.012033 0.179578
-0.045283 0.012240 0.182587
-0.045121 0.012435 0.185401
-0.044960 0.012638 0.188335
-0.045027 0.012915 0.192361
-0.044897 0.013145 0.195696
-0.044711 0.013369 0.198922
-0.044506 0.013597 0.202206
-0.044448 0.013880 0.206316
-0.044215 0.014120 0.209782
-0.043901 0.014345 0.213020
-0.043562 0.014573 0.216291
-0.043215 0.014809 0.219683
-0.042818 0.015038 0.222981
-0.042533 0.015321 0.227056
-0.042245 0.015616 0.231325
-0.041886 0.015901 0.235431
-0.041470 0.016179 0.239440
-0.041169 0.016520 0.244362
-0.040730 0.016823 0.248730
-0.040421 0.017200 0.254189
-0.039799 0.017463 0.257962
-0.038875 0.017606 0.259965
-0.038457 0.017996 0.265603
-0.037900 0.018345 0.270638
-0.036021 0.018057 0.266274
-0.034709 0.018041 0.265938
-0.033089 0.017859 0.263142
-0.017017 0.018314 0.268726
-0.015723 0.018324 0.268804
-0.014428 0.018332 0.268876
-0.012555 0.017536 0.257146
-0.011260 0.017461 0.255988
-0.010045 0.017506 0.256611
-0.008805 0.017515 0.256699
-0.007565 0.017527 0.256832
-0.006329 0.017552 0.257175
-0.005089 0.017580 0.257558
-0.003844 0.017605 0.257894
-0.002595 0.017617 0.258045
-0.001342 0.017619 0.258064
-0.000089 0.017590 0.257619
0.001198 0.018148 0.265776
0.002422 0.017665 0.258700
0.020627 0.018206 0.266960
0.021879 0.018170 0.266483
0.023158 0.018159 0.266375
0.024258 0.018016 0.264337
0.025040 0.017663 0.259227
0.026333 0.017687 0.259642
0.027598 0.017691 0.259768
0.028587 0.017525 0.257403
0.029798 0.017503 0.257156
0.031117 0.017545 0.257838
0.032389 0.017557 0.258093
0.033697 0.017587 0.258623
0.035021 0.017623 0.259235
0.036395 0.017681 0.260175
0.037806 0.017752 0.261311
0.039318 0.017865 0.263063
0.040786 0.017951 0.264422
0.042133 0.017980 0.264950
0.043247 0.017911 0.264029
0.043704 0.017581 0.259272
0.043997 0.017206 0.253834
0.045298 0.017235 0.254355
0.046566 0.017249 0.254675
0.047647 0.017196 0.253990
0.048950 0.017223 0.254496
0.050168 0.017220 0.254555
0.051397 0.017221 0.254666
0.052707 0.017248 0.255172
0.054018 0.017274 0.255666
0.055279 0.017283 0.255912
0.057514 0.017590 0.260561
0.060621 0.018144 0.268893
0.062159 0.018216 0.270065
0.063437 0.018210 0.270091
0.064760 0.018217 0.270308
0.066009 0.018203 0.270217
0.067301 0.018201 0.270307
0.068544 0.018186 0.270202
0.069725 0.018156 0.269861
0.070629 0.018056 0.268486
0.071327 0.017908 0.266392
0.072219 0.017812 0.265082
0.073114 0.017721 0.263833
0.074010 0.017634 0.262628
0.074265 0.017399 0.259229
0.075228 0.017334 0.258371
0.076209 0.017276 0.257600
0.077326 0.017250 0.257307
0.078550 0.017248 0.257375
0.080155 0.017329 0.258671
0.081887 0.017434 0.260331
0.083109 0.017430 0.260345
0.084722 0.017506 0.261565
0.086126 0.017537 0.262116
0.095680 0.019203 0.287103
0.096888 0.019170 0.286699
0.100437 0.019596 0.293138
0.100334 0.019307 0.288889
0.101582 0.019281 0.288584
0.104394 0.019550 0.292673
0.105478 0.019492 0.291868
0.106692 0.019459 0.291437
0.107940 0.019434 0.291107
0.109148 0.019401 0.290672
0.109833 0.019278 0.288868
0.111426 0.019315 0.289464
0.112901 0.019331 0.289736
0.113819 0.019253 0.288586
0.115295 0.019269 0.288853
0.116998 0.019323 0.289673
0.118651 0.019367 0.290341
0.119905 0.019345 0.290024
0.121286 0.019345 0.290013
0.122695 0.019349 0.290058
0.124077 0.019348 0.290032
0.125643 0.019376 0.290424
0.126851 0.019349 0.289979
0.128412 0.019375 0.290334
0.130241 0.019441 0.291272
0.131450 0.019414 0.290806
0.132628 0.019383 0.290272
0.134091 0.019393 0.290357
0.135445 0.019388 0.290195
0.137286 0.019452 0.291056
0.138689 0.019454 0.290970
0.139586 0.019384 0.289820
0.141268 0.019425 0.290295
0.143124 0.019487 0.291099
0.145115 0.019567 0.292145
0.146553 0.019572 0.292052
0.148080 0.019588 0.292122
0.149133 0.019542 0.291247
0.150618 0.019553 0.291209
0.152042 0.019555 0.291037
-0.122278 0.016905 0.237280
-0.120652 0.016834 0.236424
-0.119706 0.016858 0.236882
-0.118704 0.016875 0.237226
-0.117629 0.016881 0.237419
-0.117323 0.016999 0.239172
-0.116677 0.017069 0.240251
-0.116668 0.017235 0.242666
-0.116737 0.017416 0.245285
-0.115985 0.017477 0.246206
-0.115289 0.017547 0.247255
-0.114773 0.017647 0.248709
-0.113840 0.017684 0.249272
-0.113061 0.017746 0.250177
-0.112400 0.017828 0.251360
-0.111684 0.017902 0.252435
-0.110864 0.017962 0.253290
-0.109355 0.017910 0.252564
-0.108799 0.018014 0.254042
-0.107461 0.017990 0.253699
-0.108348 0.018342 0.258654
-0.100335 0.018662 0.262878
-0.098996 0.018643 0.262550
-0.044630 0.009743 0.136742
-0.044061 0.009760 0.136925
-0.043211 0.009714 0.136234
-0.042976 0.009807 0.137485
-0.043072 0.009980 0.139852
-0.046828 0.011020 0.154354
-0.046176 0.011039 0.154549
-0.045853 0.011138 0.155870
-0.045385 0.011205 0.156735
-0.045265 0.011361 0.158847
-0.045299 0.011562 0.161584
-0.045178 0.011730 0.163848
-0.045331 0.011976 0.167204
-0.045103 0.012128 0.169247
-0.045249 0.012388 0.172794
-0.045040 0.012559 0.175091
-0.045053 0.012799 0.178351
-0.044757 0.012959 0.180489
-0.045014 0.013288 0.184990
-0.045325 0.013647 0.189889
-0.045261 0.013906 0.193389
-0.044960 0.014100 0.195997
-0.044645 0.014299 0.198661
-0.044225 0.014472 0.200960
-0.044109 0.014754 0.204776
-0.043959 0.015037 0.208601
-0.043722 0.015303 0.212187
-0.043431 0.015562 0.215678
-0.043023 0.015791 0.218742
-0.042763 0.016087 0.222737
-0.042407 0.016362 0.226422
-0.042098 0.016669 0.230566
-0.041725 0.016967 0.234571
-0.041322 0.017268 0.238633
-0.041040 0.017639 0.243640
-0.040839 0.018068 0.249448
-0.040250 0.018345 0.253167
-0.039852 0.018730 0.258361
-0.038899 0.018870 0.260179
-0.038297 0.019196 0.264554
-0.037879 0.019639 0.270550
-0.036348 0.019516 0.268745
-0.035003 0.019488 0.268251
-0.033744 0.019508 0.268411
-0.016973 0.019567 0.268105
-0.015837 0.019769 0.270819
-0.014532 0.019779 0.270892
-0.012449 0.018626 0.255050
-0.011256 0.018696 0.255962
-0.010048 0.018758 0.256761
-0.008786 0.018721 0.256215
-0.007569 0.018785 0.257063
-0.006330 0.018806 0.257314
-0.005094 0.018852 0.257911
-0.003851 0.018892 0.258436
-0.002598 0.018902 0.258545
-0.001345 0.018925 0.258841
-0.000090 0.019041 0.260415
0.001199 0.019442 0.265886
0.002475 0.019324 0.264276
0.020799 0.019662 0.269234
0.022066 0.019627 0.268811
0.023356 0.019615 0.268703
0.024512 0.019498 0.267152
0.024988 0.018879 0.258727
0.026415 0.019003 0.260490
0.027729 0.019038 0.261044
0.028609 0.018785 0.257645
0.029845 0.018777 0.257609
0.031136 0.018803 0.258038
0.032455 0.018843 0.258669
0.033784 0.018886 0.259336
0.035004 0.018867 0.259153
0.036354 0.018916 0.259923
0.038010 0.019117 0.262766
0.039480 0.019214 0.264189
0.041006 0.019331 0.265892
0.042723 0.019528 0.268704
0.043616 0.019348 0.266327
0.044390 0.019127 0.263383
0.044120 0.018481 0.254584
0.045384 0.018495 0.254878
0.046566 0.018476 0.254716
0.047576 0.018391 0.253648
0.048742 0.018370 0.253453
0.050013 0.018387 0.253801
0.051317 0.018416 0.254304
0.052574 0.018427 0.254567
0.053722 0.018401 0.254302
0.055339 0.018532 0.256221
0.058998 0.019326 0.267320
0.060796 0.019491 0.269704
0.062295 0.019554 0.270690
0.063404 0.019494 0.269984
0.064732 0.019504 0.270226
0.065988 0.019491 0.270163
0.067243 0.019479 0.270106
0.068588 0.019492 0.270406
0.069651 0.019426 0.269606
0.070486 0.019301 0.267973
0.071080 0.019115 0.265497
0.072176 0.019068 0.264954
0.073149 0.018991 0.263987
0.074172 0.018929 0.263229
0.074950 0.018808 0.261645
0.075586 0.018655 0.259622
0.076660 0.018614 0.259147
0.077947 0.018625 0.259397
0.079210 0.018630 0.259558
0.080760 0.018702 0.260644
0.082483 0.018811 0.262247
0.083982 0.018866 0.263101
0.085358 0.018892 0.263547
0.086964 0.018967 0.264681
0.099812 0.021154 0.295369
0.101052 0.021118 0.294950
0.100592 0.020733 0.289646
0.102125 0.020763 0.290141
0.103730 0.020808 0.290824
0.104856 0.020756 0.290160
0.105944 0.020698 0.289405
0.107473 0.020726 0.289856
0.109311 0.020813 0.291113
0.110408 0.020758 0.290389
0.112145 0.020823 0.291336
0.113335 0.020786 0.290856
0.114234 0.020698 0.289641
0.116041 0.020774 0.290725
0.117202 0.020734 0.290179
0.118466 0.020713 0.289891
0.119958 0.020731 0.290152
0.121214 0.020709 0.289839
0.123083 0.020791 0.290972
0.124598 0.020812 0.291246
0.125922 0.020801 0.291063
0.127503 0.020832 0.291463
0.128699 0.020800 0.290976
0.130115 0.020804 0.290980
0.131459 0.020797 0.290816
0.132604 0.020758 0.290208
0.134074 0.020771 0.290308
0.135598 0.020792 0.290510
0.136730 0.020752 0.289863
0.138248 0.020772 0.290028
0.139872 0.020807 0.290395
0.141049 0.020775 0.289826
0.142875 0.020838 0.290572
0.144130 0.020818 0.290139
0.146299 0.020929 0.291522
0.147882 0.020955 0.291706
0.149141 0.020934 0.291237
0.150299 0.020900 0.290564
0.152049 0.020948 0.291021
-0.122252 0.018025 0.237211
-0.118340 0.017609 0.231876
-0.117441 0.017639 0.232384
-0.116760 0.017702 0.233326
-0.116309 0.017801 0.234740
-0.115777 0.017890 0.236007
-0.115315 0.017991 0.237433
-0.114959 0.018112 0.239101
-0.114324 0.018190 0.240204
-0.113465 0.018234 0.240845
-0.112472 0.018256 0.241205
-0.111546 0.018291 0.241709
-0.113810 0.018854 0.249199
-0.042820 0.008493 0.112192
-0.042832 0.008602 0.113600
-0.042439 0.008631 0.113956
-0.041697 0.008588 0.113368
-0.045035 0.009396 0.124000
-0.044122 0.009327 0.123047
-0.043717 0.009364 0.123504
-0.043439 0.009430 0.124338
-0.042961 0.009454 0.124610
-0.042534 0.009490 0.125043
-0.042286 0.009567 0.126018
-0.043204 0.009914 0.130542
-0.044471 0.010353 0.136265
-0.044505 0.010513 0.138319
-0.043785 0.010497 0.138054
-0.043776 0.010654 0.140059
-0.044157 0.010911 0.143388
-0.044774 0.011236 0.147596
-0.045119 0.011502 0.151027
-0.044828 0.011612 0.152404
-0.044953 0.011835 0.155259
-0.045197 0.012098 0.158627
-0.045309 0.012333 0.161637
-0.045291 0.012540 0.164280
-0.045535 0.012829 0.167978
-0.045511 0.013050 0.170800
-0.045237 0.013207 0.172772
-0.045099 0.013410 0.175344
-0.044975 0.013625 0.178066
-0.044828 0.013841 0.180804
-0.044571 0.014031 0.183197
-0.044417 0.014262 0.186116
-0.044532 0.014590 0.190302
-0.044587 0.014912 0.194406
-0.044397 0.015164 0.197590
-0.044316 0.015464 0.201408
-0.044193 0.015763 0.205200
-0.044083 0.016081 0.209229
-0.043688 0.016306 0.212059
-0.043311 0.016550 0.215119
-0.042889 0.016788 0.218103
-0.042462 0.017035 0.221212
-0.042198 0.017362 0.225348
-0.041967 0.017720 0.229892
-0.041611 0.018044 0.233977
-0.041114 0.018322 0.237478
-0.040778 0.018691 0.242139
-0.040496 0.019106 0.247405
-0.040177 0.019528 0.252760
-0.039828 0.019962 0.258259
-0.038933 0.020141 0.260461
-0.038421 0.020537 0.265469
-0.037642 0.020812 0.268917
-0.036386 0.020834 0.269088
-0.035191 0.020894 0.269751
-0.016960 0.020851 0.267977
-0.015636 0.020815 0.267462
-0.014348 0.020825 0.267534
-0.012465 0.019888 0.255440
-0.011240 0.019911 0.255687
-0.010039 0.019986 0.256605
-0.008809 0.020019 0.256991
-0.007563 0.020018 0.256943
-0.006326 0.020045 0.257248
-0.005089 0.020087 0.257756
-0.003844 0.020117 0.258123
-0.002597 0.020157 0.258614
-0.001342 0.020147 0.258469
-0.000088 0.020154 0.258546
0.001194 0.020620 0.264507
0.002488 0.020710 0.265664
0.003971 0.021774 0.279305
0.005327 0.021772 0.279282
0.006668 0.021726 0.278693
0.008074 0.021869 0.280542
0.009383 0.021747 0.278996
0.010770 0.021814 0.279867
0.020809 0.020977 0.269417
0.022107 0.020968 0.269360
0.024498 0.020780 0.267057
0.025281 0.020368 0.261814
0.026127 0.020043 0.257703
0.027489 0.020126 0.258835
0.028618 0.020038 0.257772
0.029836 0.020017 0.257577
0.031144 0.020056 0.258156
0.032508 0.020126 0.259137
0.033846 0.020176 0.259860
0.035146 0.020200 0.260252
0.036471 0.020237 0.260807
0.038013 0.020387 0.262836
0.039488 0.020493 0.264289
0.040831 0.020525 0.264801
0.042262 0.020599 0.265853
0.043236 0.020452 0.264054
0.043993 0.020214 0.261071
0.044690 0.019962 0.257917
0.045851 0.019926 0.257547
0.046984 0.019879 0.257047
0.047994 0.019784 0.255920
0.049204 0.019774 0.255894
0.050561 0.019823 0.256624
0.051819 0.019831 0.256833
0.053089 0.019843 0.257099
0.054542 0.019922 0.258221
0.057401 0.020498 0.265809
0.058892 0.020572 0.266878
0.060727 0.020760 0.269432
0.062085 0.020782 0.269818
0.063391 0.020784 0.269965
0.064663 0.020776 0.269970
0.065939 0.020769 0.269998
0.067247 0.020773 0.270155
0.068490 0.020756 0.270051
0.069653 0.020717 0.269645
0.070706 0.020646 0.268840
0.071253 0.020433 0.266172
0.072225 0.020348 0.265161
0.073413 0.020325 0.264968
0.074436 0.020258 0.264192
0.075472 0.020196 0.263493
0.076166 0.020047 0.261641
0.077486 0.020064 0.261964
0.078553 0.020016 0.261435
0.079653 0.019979 0.261033
0.081201 0.020052 0.262087
0.082601 0.020088 0.262642
0.084043 0.020133 0.263308
0.085442 0.020166 0.263824
0.086931 0.020219 0.264599
0.097142 0.022270 0.291527
0.098370 0.022233 0.291118
0.101174 0.022548 0.295324
0.101253 0.022255 0.291563
0.102814 0.022292 0.292113
0.104010 0.022249 0.291620
0.104978 0.022160 0.290507
0.106320 0.022151 0.290443
0.107752 0.022160 0.290619
0.108143 0.021958 0.288011
0.109257 0.021906 0.287368
0.111628 0.022104 0.290001
0.113090 0.022119 0.290231
0.115091 0.022238 0.291819
0.116407 0.022223 0.291646
0.117570 0.022180 0.291092
0.119000 0.022188 0.291198
0.120279 0.022167 0.290928
0.121537 0.022144 0.290609
0.122994 0.022156 0.290759
0.124070 0.022101 0.290007
0.126240 0.022239 0.291794
0.127798 0.022268 0.292131
0.129186 0.022266 0.292070
0.130262 0.022212 0.291300
0.131452 0.022178 0.290790
0.132863 0.022181 0.290764
0.134015 0.022142 0.290168
0.135192 0.022107 0.289625
0.136826 0.022147 0.290050
0.139164 0.022299 0.291932
0.140253 0.022250 0.291169
0.141958 0.022298 0.291673
0.142760 0.022205 0.290316
0.145083 0.022348 0.292035
0.146478 0.022347 0.291855
0.147870 0.022345 0.291655
0.149189 0.022333 0.291303
0.150538 0.022325 0.290996
0.151886 0.022317 0.290678
-0.044568 0.009277 0.115377
-0.042355 0.008925 0.110979
-0.042658 0.009101 0.113143
-0.042852 0.009258 0.115069
-0.045299 0.009912 0.123170
-0.045018 0.009978 0.123961
-0.044593 0.010013 0.124368
-0.044088 0.010032 0.124562
-0.043665 0.010070 0.124992
-0.043301 0.010122 0.125606
-0.042863 0.010159 0.126018
-0.043203 0.010384 0.128762
-0.043634 0.010637 0.131854
-0.044360 0.010970 0.135937
-0.043917 0.011020 0.136503
-0.043410 0.011055 0.136887
-0.043377 0.011214 0.138795
-0.043847 0.011510 0.142396
-0.044529 0.011871 0.146807
-0.045205 0.012242 0.151332
-0.044844 0.012340 0.152475
-0.044786 0.012526 0.154701
-0.044853 0.012753 0.157439
-0.045127 0.013048 0.161008
-0.044902 0.013207 0.162888
-0.045075 0.013490 0.166304
-0.045062 0.013726 0.169138
-0.044989 0.013953 0.171848
-0.044913 0.014187 0.174646
-0.044834 0.014428 0.177536
-0.044769 0.014684 0.180593
-0.044614 0.014920 0.183402
-0.044574 0.015204 0.186805
-0.044629 0.015533 0.190752
-0.044450 0.015792 0.193838
-0.044461 0.016131 0.197909
-0.044329 0.016432 0.201502
-0.044252 0.016767 0.205509
-0.044058 0.017073 0.209147
-0.043679 0.017319 0.212058
-0.043196 0.017534 0.214591
-0.042835 0.017811 0.217873
-0.042432 0.018083 0.221096
-0.042067 0.018386 0.224698
-0.041741 0.018723 0.228701
-0.041301 0.019025 0.232281
-0.041117 0.019465 0.237542
-0.040769 0.019850 0.242134
-0.040524 0.020309 0.247626
-0.040046 0.020677 0.251991
-0.039820 0.021201 0.258268
-0.039017 0.021441 0.261083
-0.038527 0.021876 0.266264
-0.037893 0.022256 0.270770
-0.036408 0.022145 0.269315
-0.035020 0.022087 0.268504
-0.018162 0.022035 0.266726
-0.016881 0.022047 0.266810
-0.015791 0.022332 0.270198
-0.014490 0.022342 0.270270
-0.012437 0.021080 0.254951
-0.011243 0.021157 0.255832
-0.010039 0.021232 0.256696
-0.008784 0.021206 0.256339
-0.007540 0.021200 0.256232
-0.006317 0.021268 0.257014
-0.005077 0.021293 0.257290
-0.003830 0.021297 0.257308
-0.002589 0.021349 0.257920
-0.001340 0.021384 0.258331
-0.000087 0.021337 0.257740
0.001188 0.021787 0.263169
0.002447 0.021624 0.261191
0.005324 0.023112 0.279175
0.006665 0.023063 0.278585
0.008070 0.023215 0.280434
0.009378 0.023086 0.278888
0.010206 0.021956 0.265257
0.011490 0.021950 0.265205
0.019419 0.022186 0.268269
0.020689 0.022153 0.267910
0.021864 0.022027 0.266441
0.023560 0.022412 0.271152
0.025125 0.021501 0.260253
0.025994 0.021181 0.256439
0.027279 0.021214 0.256902
0.028487 0.021187 0.256647
0.029694 0.021161 0.256401
0.030973 0.021187 0.256786
0.032250 0.021209 0.257130
0.033514 0.021221 0.257360
0.034776 0.021231 0.257561
0.035957 0.021193 0.257181
0.037461 0.021341 0.259068
0.039503 0.021776 0.264436
0.040808 0.021791 0.264704
0.047564 0.021377 0.260262
0.048772 0.021356 0.260110
0.050109 0.021391 0.260643
0.051579 0.021480 0.261832
0.052897 0.021503 0.262219
0.055840 0.022170 0.270462
0.057066 0.022140 0.270209
0.058177 0.022069 0.269441
0.059294 0.022002 0.268739
0.060785 0.022074 0.269733
0.062149 0.022098 0.270135
0.063357 0.022066 0.269861
0.064626 0.022057 0.269854
0.065896 0.022048 0.269856
0.067115 0.022023 0.269659
0.068371 0.022010 0.269616
0.069661 0.022009 0.269710
0.071114 0.022058 0.270425
0.072387 0.022051 0.270443
0.073396 0.021965 0.269491
0.074502 0.021910 0.268926
0.075352 0.021784 0.267475
0.076395 0.021716 0.266742
0.077432 0.021649 0.266015
0.078490 0.021589 0.265382
0.079812 0.021604 0.265651
0.080911 0.021558 0.265180
0.082346 0.021601 0.265805
0.083748 0.021635 0.266310
0.085009 0.021632 0.266357
0.086597 0.021711 0.267412
0.095810 0.023672 0.291646
0.097041 0.023632 0.291242
0.098404 0.023625 0.291239
0.099540 0.023565 0.290572
0.101101 0.023606 0.291142
0.102288 0.023559 0.290634
0.103578 0.023537 0.290423
0.104951 0.023534 0.290446
0.105562 0.023362 0.288383
0.108026 0.023600 0.291367
0.109102 0.023532 0.290574
0.110294 0.023491 0.290104
0.111887 0.023535 0.290679
0.112951 0.023468 0.289880
0.114232 0.023447 0.289645
0.115319 0.023387 0.288923
