ply
format ascii 1.0
element vertex 1679
property float x
property float y
property float z
end_header
0.087615 -0.063842 0.292563
0.089042 -0.063867 0.292713
0.090348 -0.063805 0.292464
0.091688 -0.063769 0.292330
0.093077 -0.063767 0.292351
0.094452 -0.063756 0.292325
0.095751 -0.063694 0.292065
0.097117 -0.063679 0.292012
0.098591 -0.063734 0.292276
0.099968 -0.063725 0.292241
0.101551 -0.063846 0.292801
0.102845 -0.063784 0.292517
0.104179 -0.063749 0.292349
0.105612 -0.063774 0.292453
0.106940 -0.063736 0.292263
0.108561 -0.063871 0.292860
0.110081 -0.063944 0.293167
0.111384 -0.063891 0.292892
0.112716 -0.063855 0.292687
0.114063 -0.063829 0.292523
0.115394 -0.063795 0.292312
0.116947 -0.063882 0.292653
0.118222 -0.063817 0.292289
0.119948 -0.063995 0.293029
0.121210 -0.063924 0.292620
0.122786 -0.064018 0.292962
0.124131 -0.063991 0.292739
0.125337 -0.063893 0.292188
0.126811 -0.063933 0.292255
0.128195 -0.063927 0.292104
0.129811 -0.064035 0.292467
0.131741 -0.064295 0.293510
0.132967 -0.064209 0.292965
0.134432 -0.064239 0.292939
0.135985 -0.064310 0.293087
0.137338 -0.064286 0.292794
0.138823 -0.064323 0.292769
0.140377 -0.064391 0.292872
0.141846 -0.064419 0.292780
0.143488 -0.064525 0.293028
0.145163 -0.064643 0.293318
0.146893 -0.064783 0.293696
0.148555 -0.064891 0.293909
0.150189 -0.064984 0.294044
0.151538 -0.064954 0.293603
0.152944 -0.064948 0.293259
0.154717 -0.065097 0.293595
-0.151906 -0.062217 0.289957
-0.150334 -0.062136 0.289851
-0.148424 -0.061912 0.289068
-0.147187 -0.061968 0.289573
-0.146299 -0.062173 0.290765
-0.144683 -0.062069 0.290502
-0.143197 -0.062020 0.290481
-0.141847 -0.062029 0.290722
-0.140241 -0.061926 0.290424
-0.138770 -0.061881 0.290387
-0.137369 -0.061867 0.290483
-0.136343 -0.062023 0.291369
-0.132633 -0.060948 0.286463
-0.129141 -0.059954 0.281918
-0.143457 -0.067291 0.316554
-0.142164 -0.067384 0.317117
-0.141690 -0.067872 0.319527
-0.140384 -0.067967 0.320083
-0.127890 -0.062589 0.294845
-0.124419 -0.061558 0.290065
-0.123184 -0.061621 0.290438
-0.121922 -0.061673 0.290748
-0.120614 -0.061703 0.290944
-0.119251 -0.061705 0.291004
-0.118004 -0.061768 0.291342
-0.116568 -0.061732 0.291210
-0.115017 -0.061634 0.290775
-0.113593 -0.061602 0.290649
-0.112299 -0.061641 0.290850
-0.110959 -0.061655 0.290928
-0.109633 -0.061678 0.291041
-0.108307 -0.061701 0.291150
-0.107030 -0.061753 0.291390
-0.105661 -0.061753 0.291378
-0.104419 -0.061829 0.291718
-0.103078 -0.061846 0.291779
-0.101745 -0.061870 0.291865
-0.100475 -0.061932 0.292130
-0.099081 -0.061919 0.292034
-0.097690 -0.061908 0.291941
-0.096254 -0.061867 0.291706
-0.094909 -0.061885 0.291744
-0.093487 -0.061852 0.291539
-0.092199 -0.061908 0.291749
-0.090719 -0.061835 0.291349
-0.089425 -0.061889 0.291544
-0.088167 -0.061970 0.291860
-0.086870 -0.062025 0.292055
-0.085549 -0.062065 0.292176
-0.084258 -0.062128 0.292399
-0.082917 -0.062156 0.292458
-0.081526 -0.062148 0.292341
-0.080166 -0.062163 0.292331
-0.078794 -0.062168 0.292278
-0.077351 -0.062118 0.291956
-0.075979 -0.062123 0.291896
-0.074597 -0.062120 0.291797
-0.073279 -0.062172 0.291955
-0.071940 -0.062207 0.292031
-0.070542 -0.062192 0.291871
-0.069215 -0.062240 0.292004
-0.067857 -0.062262 0.292016
-0.066471 -0.062259 0.291907
-0.065058 -0.062229 0.291674
-0.063714 -0.062266 0.291752
-0.062316 -0.062251 0.291587
-0.060885 -0.062201 0.291261
-0.059583 -0.062284 0.291552
-0.058206 -0.062291 0.291489
-0.056829 -0.062298 0.291429
-0.055410 -0.062258 0.291148
-0.054040 -0.062274 0.291125
-0.052751 -0.062385 0.291550
-0.051233 -0.062224 0.290706
-0.049953 -0.062352 0.291208
-0.048516 -0.062285 0.290806
-0.047121 -0.062271 0.290649
-0.045804 -0.062362 0.290982
-0.044412 -0.062353 0.290850
-0.043012 -0.062332 0.290664
-0.041423 -0.062026 0.289154
-0.040234 -0.062319 0.290433
-0.038853 -0.062326 0.290380
-0.037371 -0.062164 0.289546
-0.036067 -0.062299 0.290092
-0.034720 -0.062366 0.290326
-0.033296 -0.062296 0.289922
-0.031925 -0.062322 0.289972
-0.030580 -0.062405 0.290285
-0.029167 -0.062350 0.289958
-0.027758 -0.062299 0.289652
-0.026442 -0.062462 0.290340
-0.025029 -0.062404 0.290007
-0.023635 -0.062386 0.289865
-0.022245 -0.062379 0.289770
-0.020874 -0.062426 0.289933
-0.019483 -0.062415 0.289829
-0.018060 -0.062296 0.289224
-0.016672 -0.062287 0.289135
-0.015292 -0.062310 0.289196
-0.013894 -0.062254 0.288893
-0.012517 -0.062295 0.289040
-0.011127 -0.062271 0.288892
-0.009745 -0.062291 0.288948
-0.008356 -0.062265 0.288797
-0.006975 -0.062300 0.288930
-0.005590 -0.062312 0.288960
-0.004195 -0.062180 0.288328
-0.002816 -0.062285 0.288794
-0.001430 -0.062268 0.288698
-0.000044 -0.062157 0.288167
0.001340 -0.062187 0.288295
0.002726 -0.062227 0.288474
0.004111 -0.062241 0.288533
0.005498 -0.062257 0.288604
0.006892 -0.062328 0.288936
0.008270 -0.062262 0.288633
0.009664 -0.062311 0.288870
0.011072 -0.062432 0.289440
0.012432 -0.062285 0.288772
0.013820 -0.062290 0.288811
0.015247 -0.062455 0.289594
0.016634 -0.062442 0.289555
0.018039 -0.062493 0.289814
0.019437 -0.062514 0.289941
0.020833 -0.062526 0.290022
0.022206 -0.062473 0.289812
0.023605 -0.062492 0.289934
0.025011 -0.062530 0.290144
0.026393 -0.062504 0.290066
0.027805 -0.062550 0.290319
0.029186 -0.062524 0.290242
0.030565 -0.062496 0.290158
0.032053 -0.062684 0.291081
0.033402 -0.062595 0.290721
0.034738 -0.062491 0.290291
0.036232 -0.062667 0.291160
0.037579 -0.062585 0.290838
0.038928 -0.062514 0.290564
0.040364 -0.062580 0.290930
0.041713 -0.062513 0.290681
0.043115 -0.062526 0.290805
0.044536 -0.062565 0.291052
0.046023 -0.062692 0.291708
0.047292 -0.062522 0.290984
0.048657 -0.062487 0.290888
0.050106 -0.062557 0.291282
0.051413 -0.062451 0.290857
0.052830 -0.062482 0.291069
0.054187 -0.062441 0.290950
0.055646 -0.062517 0.291374
0.057061 -0.062541 0.291556
0.058408 -0.062490 0.291391
0.059837 -0.062528 0.291639
0.061272 -0.062570 0.291909
0.062666 -0.062570 0.291977
0.064033 -0.062542 0.291920
0.065428 -0.062544 0.291997
0.066808 -0.062531 0.292006
0.068160 -0.062491 0.291893
0.069526 -0.062468 0.291851
0.070901 -0.062452 0.291842
0.072308 -0.062464 0.291968
0.073658 -0.062428 0.291863
0.075046 -0.062425 0.291911
0.076432 -0.062420 0.291951
0.077771 -0.062378 0.291816
0.079139 -0.062360 0.291788
0.080546 -0.062373 0.291906
0.081906 -0.062349 0.291849
0.083371 -0.062405 0.292161
0.085023 -0.062597 0.293111
0.086273 -0.062491 0.292662
0.087793 -0.062581 0.293126
0.089104 -0.062522 0.292891
0.090433 -0.062477 0.292716
0.091779 -0.062444 0.292600
0.093129 -0.062415 0.292495
0.094486 -0.062393 0.292417
0.095763 -0.062318 0.292088
0.097135 -0.062306 0.292056
0.098671 -0.062399 0.292503
0.100210 -0.062490 0.292944
0.101645 -0.062516 0.293070
0.102967 -0.062472 0.292866
0.104420 -0.062507 0.293029
0.105734 -0.062460 0.292799
0.107322 -0.062573 0.293315
0.108505 -0.062450 0.292722
0.109969 -0.062490 0.292887
0.111453 -0.062540 0.293091
0.112747 -0.062484 0.292791
0.114008 -0.062411 0.292407
0.115370 -0.062395 0.292279
0.116734 -0.062379 0.292153
0.118020 -0.062323 0.291827
0.119375 -0.062305 0.291669
0.120900 -0.062374 0.291915
0.122555 -0.062508 0.292459
0.124072 -0.062570 0.292652
0.125291 -0.062481 0.292135
0.126680 -0.062478 0.292012
0.128270 -0.062573 0.292337
0.129836 -0.062655 0.292591
0.131428 -0.062748 0.292883
0.133238 -0.062941 0.293636
0.134492 -0.062870 0.293147
0.135910 -0.062877 0.293008
0.137503 -0.062963 0.293233
0.138946 -0.062980 0.293120
0.140457 -0.063027 0.293135
0.141900 -0.063043 0.292993
0.143470 -0.063114 0.293096
0.145119 -0.063219 0.293341
0.146739 -0.063308 0.293502
0.148517 -0.063464 0.293955
0.149981 -0.063484 0.293763
0.151583 -0.063560 0.293820
0.153218 -0.063650 0.293920
0.154983 -0.063791 0.294242
-0.148035 -0.062093 0.297326
-0.146817 -0.062172 0.297913
-0.145111 -0.062044 0.297496
-0.139138 -0.060071 0.288217
-0.138260 -0.060281 0.289392
-0.136702 -0.060196 0.289143
-0.135979 -0.060480 0.290658
-0.130923 -0.058823 0.282831
-0.128847 -0.058485 0.281331
-0.143480 -0.065803 0.316664
-0.142188 -0.065895 0.317227
-0.141640 -0.066337 0.319466
-0.127979 -0.061238 0.295090
-0.124401 -0.060178 0.290058
-0.123000 -0.060159 0.290037
-0.121736 -0.060208 0.290334
-0.120461 -0.060252 0.290600
-0.119139 -0.060274 0.290752
-0.117906 -0.060342 0.291119
-0.116558 -0.060352 0.291200
-0.115087 -0.060298 0.290965
-0.113560 -0.060213 0.290575
-0.112155 -0.060191 0.290483
-0.111092 -0.060354 0.291280
-0.109676 -0.060328 0.291156
-0.108290 -0.060317 0.291101
-0.105753 -0.059657 0.287908
-0.105479 -0.060274 0.290868
-0.104422 -0.060453 0.291715
-0.102970 -0.060406 0.291461
-0.101687 -0.060457 0.291680
-0.100474 -0.060552 0.292106
-0.099153 -0.060584 0.292222
-0.097665 -0.060513 0.291840
-0.096275 -0.060502 0.291742
-0.094959 -0.060538 0.291866
-0.093511 -0.060489 0.291578
-0.092145 -0.060493 0.291541
-0.090808 -0.060517 0.291597
-0.089490 -0.060554 0.291713
-0.088192 -0.060606 0.291896
-0.086860 -0.060636 0.291974
-0.085582 -0.060706 0.292237
-0.084236 -0.060728 0.292270
-0.082861 -0.060730 0.292203
-0.081475 -0.060724 0.292096
-0.080107 -0.060732 0.292053
-0.078702 -0.060712 0.291873
-0.077354 -0.060736 0.291900
-0.075934 -0.060702 0.291653
-0.074589 -0.060730 0.291696
-0.073277 -0.060785 0.291871
-0.071829 -0.060727 0.291505
-0.070567 -0.060828 0.291894
-0.069016 -0.060678 0.291082
-0.067686 -0.060721 0.291194
-0.066383 -0.060791 0.291433
-0.064972 -0.060762 0.291200
-0.063657 -0.060824 0.291402
-0.062309 -0.060857 0.291461
-0.060970 -0.060899 0.291569
-0.059611 -0.060924 0.291591
-0.058225 -0.060922 0.291482
-0.056843 -0.060923 0.291393
-0.055367 -0.060823 0.290815
-0.054039 -0.060884 0.291010
-0.052661 -0.060889 0.290942
-0.051308 -0.060925 0.291017
-0.049898 -0.060894 0.290772
-0.048501 -0.060877 0.290598
-0.047148 -0.060916 0.290692
-0.045756 -0.060906 0.290553
-0.044368 -0.060900 0.290434
-0.043003 -0.060928 0.290478
-0.041614 -0.060922 0.290359
-0.040241 -0.060939 0.290353
-0.038858 -0.060942 0.290283
-0.037500 -0.060987 0.290412
-0.036086 -0.060941 0.290111
-0.034668 -0.060882 0.289752
-0.032626 -0.059680 0.283956
-0.031900 -0.060883 0.289604
-0.030490 -0.060832 0.289286
-0.029177 -0.060978 0.289906
-0.027693 -0.060766 0.288829
-0.026353 -0.060860 0.289211
-0.025058 -0.061079 0.290185
-0.023580 -0.060849 0.289029
-0.022274 -0.061060 0.289974
-0.020911 -0.061136 0.290277
-0.019467 -0.060969 0.289430
-0.018124 -0.061115 0.290071
-0.016739 -0.061136 0.290120
-0.015307 -0.060972 0.289293
-0.013925 -0.060992 0.289346
-0.012543 -0.061019 0.289434
-0.011153 -0.061008 0.289343
-0.009744 -0.060878 0.288692
-0.008363 -0.060913 0.288822
-0.006998 -0.061090 0.289633
-0.005574 -0.060729 0.287895
-0.004195 -0.060764 0.288039
-0.002826 -0.061057 0.289408
-0.001431 -0.060825 0.288290
-0.000046 -0.060687 0.287621
0.001340 -0.060929 0.288760
0.002726 -0.060905 0.288637
0.004105 -0.060805 0.288159
0.005498 -0.060900 0.288606
0.006889 -0.060946 0.288824
0.008277 -0.060946 0.288829
0.009669 -0.060978 0.288987
0.011050 -0.060937 0.288806
0.012461 -0.061053 0.289369
0.013863 -0.061103 0.289620
0.015206 -0.060912 0.288736
0.016642 -0.061090 0.289600
0.018047 -0.061137 0.289849
0.019372 -0.060928 0.288884
0.020814 -0.061087 0.289667
0.022235 -0.061168 0.290087
0.023567 -0.061011 0.289378
0.025002 -0.061121 0.289936
0.026382 -0.061094 0.289848
0.027693 -0.060917 0.289052
0.029119 -0.060998 0.289480
0.030453 -0.060886 0.288996
0.031785 -0.060782 0.288555
0.033169 -0.060781 0.288599
0.034557 -0.060786 0.288678
0.035942 -0.060786 0.288736
0.037517 -0.061095 0.290261
0.038908 -0.061095 0.290318
0.040257 -0.061029 0.290065
0.041683 -0.061082 0.290379
0.043091 -0.061105 0.290554
0.044614 -0.061284 0.291473
0.045929 -0.061175 0.291019
0.047224 -0.061047 0.290481
0.048682 -0.061131 0.290949
0.050078 -0.061135 0.291036
0.051363 -0.061005 0.290490
0.052719 -0.060966 0.290375
0.054193 -0.061060 0.290897
0.055681 -0.061167 0.291476
0.057047 -0.061136 0.291404
0.058426 -0.061122 0.291407
0.059857 -0.061159 0.291662
0.061205 -0.061114 0.291517
0.062474 -0.060992 0.291010
0.063870 -0.060998 0.291112
0.065298 -0.061033 0.291349
0.066018 -0.060418 0.288488
0.067464 -0.060480 0.288852
0.069404 -0.060973 0.291276
0.070765 -0.060947 0.291223
0.072103 -0.060904 0.291084
0.073532 -0.060937 0.291311
0.074912 -0.060929 0.291341
0.076292 -0.060921 0.291367
0.077601 -0.060859 0.291128
0.079010 -0.060875 0.291270
0.080398 -0.060875 0.291327
0.081804 -0.060888 0.291445
0.083165 -0.060868 0.291402
0.084898 -0.061116 0.292643
0.086408 -0.061198 0.293084
0.087803 -0.061197 0.293129
0.089138 -0.061156 0.292974
0.090427 -0.061084 0.292672
0.091759 -0.061043 0.292512
0.093108 -0.061015 0.292410
0.094402 -0.060951 0.292137
0.095752 -0.060926 0.292041
0.097171 -0.060944 0.292151
0.098543 -0.060933 0.292115
0.099876 -0.060898 0.291961
0.101279 -0.060906 0.292012
0.102677 -0.060911 0.292040
0.104002 -0.060873 0.291857
0.105310 -0.060826 0.291630
0.106708 -0.060832 0.291646
0.108563 -0.061095 0.292891
0.109886 -0.061055 0.292678
0.111235 -0.061031 0.292535
0.112699 -0.061069 0.292688
0.114015 -0.061028 0.292449
0.115262 -0.060951 0.292033
0.116627 -0.060937 0.291915
0.117952 -0.060903 0.291693
0.119255 -0.060859 0.291413
0.121000 -0.061038 0.292200
0.122529 -0.061106 0.292439
0.124040 -0.061163 0.292625
0.125317 -0.061105 0.292248
0.126628 -0.061065 0.291947
0.128258 -0.061177 0.292370
0.129889 -0.061287 0.292772
0.131539 -0.061405 0.293198
0.132954 -0.061410 0.293080
0.134341 -0.061404 0.292894
0.135729 -0.061397 0.292698
0.137396 -0.061516 0.293087
0.138908 -0.061564 0.293127
0.140411 -0.061606 0.293131
0.141955 -0.061665 0.293203
0.143402 -0.061682 0.293059
0.145030 -0.061775 0.293265
0.146522 -0.061810 0.293179
0.148227 -0.061932 0.293496
0.149745 -0.061975 0.293420
0.151459 -0.062097 0.293706
0.152968 -0.062134 0.293571
0.154507 -0.062182 0.293474
-0.147087 -0.060868 0.298544
-0.145867 -0.060947 0.299126
-0.145262 -0.061287 0.300980
-0.144035 -0.061368 0.301553
-0.136061 -0.059138 0.290896
-0.133539 -0.058632 0.288540
-0.132228 -0.058653 0.288767
-0.131052 -0.058735 0.289286
-0.141734 -0.064869 0.319726
-0.127609 -0.059670 0.294274
-0.124097 -0.058663 0.289382
-0.123031 -0.058804 0.290141
-0.121630 -0.058786 0.290109
-0.120258 -0.058781 0.290137
-0.118651 -0.058660 0.289581
-0.117542 -0.058786 0.290239
-0.116245 -0.058819 0.290432
-0.114895 -0.058826 0.290489
-0.113599 -0.058861 0.290681
-0.112388 -0.058942 0.291090
-0.111116 -0.058992 0.291346
-0.109823 -0.059033 0.291544
-0.108418 -0.059013 0.291442
-0.107049 -0.059013 0.291428
-0.105741 -0.059047 0.291581
-0.104465 -0.059100 0.291822
-0.103080 -0.059092 0.291755
-0.101729 -0.059104 0.291782
-0.100424 -0.059143 0.291940
-0.098847 -0.059020 0.291295
-0.097446 -0.059002 0.291159
-0.096034 -0.058975 0.290981
-0.094642 -0.058961 0.290859
-0.093230 -0.058934 0.290668
-0.091952 -0.058991 0.290893
-0.090719 -0.059080 0.291268
-0.089318 -0.059060 0.291106
-0.088011 -0.059104 0.291251
-0.086741 -0.059173 0.291524
-0.085431 -0.059218 0.291669
-0.084149 -0.059283 0.291913
-0.082700 -0.059231 0.291580
-0.081371 -0.059266 0.291667
-0.079917 -0.059208 0.291300
-0.078586 -0.059241 0.291378
-0.077135 -0.059183 0.291006
-0.075941 -0.059324 0.291610
-0.074552 -0.059316 0.291479
-0.073168 -0.059311 0.291361
-0.071867 -0.059375 0.291581
-0.070516 -0.059398 0.291604
-0.069063 -0.059335 0.291197
-0.067700 -0.059349 0.291169
-0.066374 -0.059397 0.291306
-0.064901 -0.059312 0.290793
-0.063759 -0.059532 0.291775
-0.062194 -0.059359 0.290827
-0.060747 -0.059293 0.290408
-0.059332 -0.059256 0.290128
-0.058052 -0.059356 0.290516
-0.056690 -0.059374 0.290508
-0.055338 -0.059404 0.290557
-0.054067 -0.059526 0.291053
-0.052625 -0.059459 0.290630
-0.051284 -0.059508 0.290772
-0.050065 -0.059704 0.291629
-0.048535 -0.059531 0.290689
-0.047157 -0.059538 0.290632
-0.045821 -0.059601 0.290845
-0.044412 -0.059570 0.290601
-0.042971 -0.059493 0.290132
-0.041618 -0.059537 0.290256
-0.040249 -0.059561 0.290286
-0.038827 -0.059505 0.289925
-0.037445 -0.059507 0.289852
-0.036048 -0.059486 0.289667
-0.034387 -0.059010 0.287269
-0.032905 -0.058815 0.286238
-0.031755 -0.059222 0.288142
-0.030310 -0.059091 0.287434
-0.028932 -0.059084 0.287326
-0.027575 -0.059122 0.287440
-0.026170 -0.059056 0.287051
-0.024783 -0.059026 0.286842
-0.023414 -0.059039 0.286841
-0.022062 -0.059098 0.287067
-0.020633 -0.058943 0.286257
-0.019374 -0.059290 0.287887
-0.017952 -0.059151 0.287156
-0.016528 -0.058982 0.286286
-0.015188 -0.059109 0.286859
-0.013811 -0.059105 0.286796
-0.012445 -0.059154 0.286990
-0.011072 -0.059175 0.287053
-0.009701 -0.059216 0.287219
-0.008327 -0.059248 0.287338
-0.006951 -0.059281 0.287469
-0.005570 -0.059270 0.287389
-0.004186 -0.059219 0.287119
-0.002808 -0.059234 0.287171
-0.001428 -0.059227 0.287121
-0.000049 -0.059169 0.286828
0.001331 -0.059259 0.287251
0.002713 -0.059294 0.287412
0.004093 -0.059278 0.287333
0.005483 -0.059382 0.287834
0.006870 -0.059409 0.287966
0.008257 -0.059437 0.288105
0.009643 -0.059441 0.288132
0.011026 -0.059434 0.288110
0.012424 -0.059498 0.288432
0.013795 -0.059431 0.288126
0.015163 -0.059368 0.287841
0.016556 -0.059401 0.288022
0.017925 -0.059352 0.287812
0.019274 -0.059248 0.287332
0.020644 -0.059216 0.287207
0.022038 -0.059254 0.287429
0.023394 -0.059192 0.287161
0.024756 -0.059149 0.286993
0.026146 -0.059175 0.287158
0.027515 -0.059154 0.287102
0.028875 -0.059114 0.286955
0.030205 -0.059020 0.286547
0.031592 -0.059043 0.286705
0.032949 -0.059007 0.286587
0.034260 -0.058896 0.286101
0.035648 -0.058922 0.286282
0.037026 -0.058928 0.286373
0.038371 -0.058883 0.286212
0.039734 -0.058869 0.286208
0.041137 -0.058913 0.286481
0.042504 -0.058903 0.286501
0.043846 -0.058861 0.286361
0.045273 -0.058932 0.286776
0.046912 -0.059266 0.288471
0.048276 -0.059244 0.288433
0.049568 -0.059137 0.287982
0.051192 -0.059422 0.289442
0.052394 -0.059214 0.288503
0.054069 -0.059537 0.290152
0.055363 -0.059436 0.289731
0.056901 -0.059595 0.290583
0.058398 -0.059705 0.291192
0.059736 -0.059649 0.290998
0.061268 -0.059787 0.291745
0.062776 -0.059895 0.292347
0.064118 -0.059843 0.292170
0.065410 -0.059748 0.291780
0.066801 -0.059745 0.291840
0.068105 -0.059667 0.291531
0.069492 -0.059662 0.291583
0.070842 -0.059627 0.291482
0.072192 -0.059593 0.291387
0.073627 -0.059629 0.291630
0.075023 -0.059633 0.291720
0.076463 -0.059671 0.291970
0.077750 -0.059590 0.291640
0.079102 -0.059561 0.291561
0.080450 -0.059530 0.291472
0.081656 -0.059396 0.290875
0.083034 -0.059390 0.290903
0.084257 -0.059276 0.290395
0.085581 -0.059235 0.290248
0.087037 -0.059285 0.290542
0.088226 -0.059154 0.289946
0.090289 -0.059604 0.292197
0.091466 -0.059465 0.291555
0.092871 -0.059476 0.291643
0.094272 -0.059484 0.291716
0.095741 -0.059534 0.291992
0.097012 -0.059461 0.291659
0.098692 -0.059638 0.292547
0.100016 -0.059597 0.292362
0.101573 -0.059694 0.292854
0.102922 -0.059668 0.292733
0.104121 -0.059558 0.292194
0.105634 -0.059626 0.292529
0.107339 -0.059801 0.293378
0.108441 -0.059639 0.292572
0.109851 -0.059648 0.292598
0.111322 -0.059690 0.292781
0.112681 -0.059672 0.292659
0.114000 -0.059632 0.292431
0.115285 -0.059577 0.292117
0.116596 -0.059536 0.291867
0.117964 -0.059525 0.291755
0.119242 -0.059469 0.291418
0.120869 -0.059586 0.291920
0.122456 -0.059681 0.292307
0.123925 -0.059717 0.292397
0.125326 -0.059720 0.292317
0.126713 -0.059716 0.292195
0.128213 -0.059765 0.292322
0.129801 -0.059854 0.292634
0.131157 -0.059834 0.292408
0.132759 -0.059926 0.292718
0.134190 -0.059940 0.292635
0.135581 -0.059936 0.292455
0.137341 -0.060093 0.293048
0.138835 -0.060132 0.293057
0.140489 -0.060239 0.293380
0.141761 -0.060181 0.292895
0.143165 -0.060180 0.292671
0.144916 -0.060324 0.293137
0.146261 -0.060297 0.292762
0.148266 -0.060540 0.293684
0.149821 -0.060597 0.293684
0.151718 -0.060789 0.294329
0.153552 -0.060953 0.294818
0.155141 -0.061018 0.294811
-0.140238 -0.052649 0.262709
-0.139367 -0.052791 0.263683
-0.138391 -0.052896 0.264456
-0.137125 -0.052891 0.264669
-0.136137 -0.052994 0.265411
-0.135356 -0.053180 0.266558
-0.134652 -0.053401 0.267867
-0.133654 -0.053508 0.268596
-0.132638 -0.053609 0.269290
-0.131990 -0.053863 0.270738
-0.131977 -0.054384 0.273520
-0.130863 -0.054457 0.274040
-0.134662 -0.056596 0.284954
-0.133502 -0.056674 0.285483
-0.132028 -0.056618 0.285332
-0.130763 -0.056651 0.285619
-0.129655 -0.056755 0.286251
-0.128491 -0.056835 0.286760
-0.126515 -0.056554 0.285437
-0.130526 -0.058973 0.297732
-0.129314 -0.059058 0.298243
-0.123130 -0.056850 0.287160
-0.122280 -0.057083 0.288398
-0.121027 -0.057131 0.288694
-0.119707 -0.057148 0.288828
-0.118589 -0.057263 0.289449
-0.117365 -0.057329 0.289817
-0.116168 -0.057410 0.290253
-0.114857 -0.057436 0.290404
-0.113470 -0.057424 0.290357
-0.112315 -0.057530 0.290904
-0.111012 -0.057563 0.291072
-0.109785 -0.057637 0.291441
-0.108306 -0.057578 0.291133
-0.106973 -0.057596 0.291213
-0.105874 -0.057744 0.291937
-0.104384 -0.057678 0.291580
-0.103111 -0.057732 0.291825
-0.101732 -0.057728 0.291770
-0.100335 -0.057713 0.291657
-0.099075 -0.057778 0.291943
-0.097525 -0.057673 0.291366
-0.096185 -0.057691 0.291408
-0.094685 -0.057612 0.290955
-0.093285 -0.057593 0.290801
-0.092039 -0.057670 0.291129
-0.090622 -0.057641 0.290916
-0.089341 -0.057699 0.291139
-0.088101 -0.057784 0.291501
-0.086710 -0.057773 0.291370
-0.085345 -0.057778 0.291321
-0.084135 -0.057891 0.291811
-0.082660 -0.057822 0.291381
-0.081444 -0.057935 0.291866
-0.079771 -0.057722 0.290705
-0.078442 -0.057753 0.290778
-0.077155 -0.057818 0.291015
-0.075867 -0.057884 0.291256
-0.074498 -0.057890 0.291192
-0.073218 -0.057967 0.291484
-0.071938 -0.058046 0.291789
-0.070492 -0.057993 0.291424
-0.069172 -0.058043 0.291578
-0.067822 -0.058069 0.291611
-0.066388 -0.058023 0.291279
-0.065027 -0.058040 0.291266
-0.063807 -0.058187 0.291904
-0.062378 -0.058146 0.291593
-0.060959 -0.058112 0.291322
-0.059394 -0.057934 0.290330
-0.058165 -0.058084 0.290981
-0.056704 -0.058003 0.290477
-0.055370 -0.058052 0.290622
-0.054027 -0.058094 0.290731
-0.052632 -0.058080 0.290560
-0.051284 -0.058119 0.290657
-0.049913 -0.058133 0.290630
-0.048530 -0.058134 0.290539
-0.047157 -0.058149 0.290514
-0.045785 -0.058165 0.290498
-0.044367 -0.058120 0.290181
-0.043020 -0.058170 0.290339
-0.041638 -0.058175 0.290272
-0.040248 -0.058168 0.290147
-0.038917 -0.058250 0.290466
-0.037977 -0.058944 0.293840
-0.037215 -0.059977 0.298904
-0.035729 -0.059882 0.298343
-0.034307 -0.059889 0.298298
-0.032911 -0.059944 0.298487
-0.031441 -0.059863 0.298008
-0.029936 -0.059707 0.297155
-0.028516 -0.059710 0.297098
-0.027070 -0.059659 0.296773
-0.025649 -0.059661 0.296711
-0.024255 -0.059728 0.296980
-0.022831 -0.059727 0.296909
-0.021429 -0.059785 0.297136
-0.020006 -0.059790 0.297104
-0.018578 -0.059778 0.296992
-0.017143 -0.059743 0.296767
-0.015719 -0.059741 0.296707
-0.014234 -0.059488 0.295403
-0.012757 -0.059211 0.293986
-0.011312 -0.059037 0.293078
-0.009926 -0.059165 0.293679
-0.008500 -0.059051 0.293081
-0.007094 -0.059071 0.293147
-0.005697 -0.059181 0.293666
-0.004286 -0.059183 0.293653
-0.002883 -0.059359 0.294505
-0.001468 -0.059366 0.294520
-0.000053 -0.059473 0.295038
0.001365 -0.059458 0.294951
0.002784 -0.059495 0.295128
0.004203 -0.059496 0.295131
0.005621 -0.059480 0.295047
0.007039 -0.059481 0.295056
0.008456 -0.059468 0.294994
0.009870 -0.059440 0.294866
0.011293 -0.059467 0.295009
0.012701 -0.059419 0.294787
0.014128 -0.059459 0.295002
0.015539 -0.059431 0.294885
0.016970 -0.059478 0.295143
0.018379 -0.059445 0.295004
0.019836 -0.059561 0.295609
0.021260 -0.059570 0.295685
0.022671 -0.059543 0.295586
0.023423 -0.057891 0.287424
0.024814 -0.057912 0.287565
0.026178 -0.057874 0.287420
0.029045 -0.058084 0.288553
0.030404 -0.058030 0.288338
0.033241 -0.058148 0.289028
0.034669 -0.058216 0.289425
0.036022 -0.058156 0.289183
0.037458 -0.058232 0.289620
0.038883 -0.058283 0.289937
0.040158 -0.058115 0.289168
0.041597 -0.058187 0.289589
0.042959 -0.058151 0.289479
0.045744 -0.058161 0.289669
0.047031 -0.058037 0.289118
0.048436 -0.058060 0.289305
0.068178 -0.058342 0.291781
0.069567 -0.058338 0.291833
0.070917 -0.058302 0.291731
0.072268 -0.058269 0.291636
0.073704 -0.058303 0.291879
0.075101 -0.058307 0.291968
0.076541 -0.058343 0.292217
0.077829 -0.058263 0.291887
0.079182 -0.058234 0.291807
0.080531 -0.058203 0.291717
0.081736 -0.058072 0.291120
0.083115 -0.058066 0.291147
0.084338 -0.057953 0.290638
0.097491 -0.060084 0.301655
0.098783 -0.059997 0.301252
0.098771 -0.059131 0.296933
0.098613 -0.058204 0.292299
0.100122 -0.058272 0.292663
0.101516 -0.058273 0.292682
0.102915 -0.058276 0.292711
0.104328 -0.058287 0.292772
0.105835 -0.058350 0.293087
0.107141 -0.058302 0.292840
0.108504 -0.058285 0.292748
0.110019 -0.058349 0.293056
0.111454 -0.058371 0.293142
0.112928 -0.058411 0.293317
0.114194 -0.058344 0.292949
0.115526 -0.058313 0.292750
0.116854 -0.058280 0.292538
0.118157 -0.058235 0.292260
0.119470 -0.058196 0.292005
0.120847 -0.058189 0.291903
0.122352 -0.058243 0.292099
0.124198 -0.058456 0.293084
0.125206 -0.058275 0.292084
0.126687 -0.058315 0.292184
0.128102 -0.058324 0.292123
0.129426 -0.058292 0.291846
0.131348 -0.058527 0.292895
0.133006 -0.058641 0.293327
0.134629 -0.058737 0.293661
0.135866 -0.058665 0.293140
0.137516 -0.058770 0.293499
0.139056 -0.058827 0.293602
0.140336 -0.058773 0.293146
0.141872 -0.058827 0.293212
0.143321 -0.058844 0.293082
0.144934 -0.058927 0.293269
0.146188 -0.058865 0.292718
0.147839 -0.058962 0.292944
0.149411 -0.059025 0.292992
0.151360 -0.059235 0.293750
0.152833 -0.059256 0.293559
0.154526 -0.059362 0.293768
-0.139258 -0.051034 0.260972
-0.138038 -0.051041 0.261262
-0.136896 -0.051076 0.261690
-0.135769 -0.051119 0.262139
-0.134680 -0.051176 0.262653
-0.133740 -0.051292 0.263455
-0.132815 -0.051416 0.264290
-0.131976 -0.051575 0.265297
-0.131239 -0.051779 0.266520
-0.130580 -0.052017 0.267913
-0.129681 -0.052163 0.268825
-0.128770 -0.052308 0.269717
-0.127901 -0.052472 0.270703
-0.126954 -0.052608 0.271532
-0.126023 -0.052753 0.272402
-0.124870 -0.052808 0.272796
-0.123876 -0.052931 0.273536
-0.123536 -0.053340 0.275742
-0.124435 -0.054298 0.280782
-0.125206 -0.055219 0.285630
-0.126615 -0.056446 0.292049
-0.126070 -0.056819 0.294047
-0.124443 -0.056707 0.293526
-0.122621 -0.056502 0.292521
-0.120088 -0.055962 0.289767
-0.118171 -0.055699 0.288445
-0.117234 -0.055898 0.289506
-0.116165 -0.056038 0.290256
-0.114825 -0.056049 0.290330
-0.113613 -0.056124 0.290728
-0.112320 -0.056160 0.290920
-0.111004 -0.056186 0.291052
-0.109705 -0.056220 0.291223
-0.108343 -0.056223 0.291226
-0.107090 -0.056284 0.291523
-0.105766 -0.056308 0.291626
-0.104415 -0.056318 0.291652
-0.103129 -0.056364 0.291859
-0.101830 -0.056405 0.292031
-0.100309 -0.056321 0.291558
-0.098825 -0.056257 0.291181
-0.097686 -0.056389 0.291817
-0.096249 -0.056352 0.291570
-0.094794 -0.056302 0.291256
-0.093357 -0.056262 0.290989
-0.091963 -0.056248 0.290850
-0.090654 -0.056285 0.290977
-0.089261 -0.056271 0.290831
-0.087830 -0.056232 0.290559
-0.086564 -0.056299 0.290828
-0.085219 -0.056316 0.290841
-0.083517 -0.056094 0.289610
-0.082566 -0.056378 0.290993
-0.081010 -0.056251 0.290251
-0.079651 -0.056258 0.290203
-0.078491 -0.056410 0.290893
-0.077094 -0.056393 0.290718
-0.075777 -0.056435 0.290840
-0.074499 -0.056509 0.291123
-0.073087 -0.056482 0.290888
-0.071619 -0.056410 0.290420
-0.070425 -0.056554 0.291066
-0.069017 -0.056530 0.290842
-0.067594 -0.056492 0.290545
-0.066219 -0.056494 0.290453
-0.064885 -0.056531 0.290542
-0.063636 -0.056645 0.291029
-0.062212 -0.056606 0.290723
-0.060874 -0.056645 0.290822
-0.059521 -0.056672 0.290856
-0.058150 -0.056682 0.290807
-0.056814 -0.056728 0.290937
-0.055434 -0.056730 0.290850
-0.054109 -0.056792 0.291063
-0.052721 -0.056788 0.290943
-0.051317 -0.056767 0.290735
-0.049974 -0.056814 0.290875
-0.048580 -0.056804 0.290722
-0.047194 -0.056803 0.290619
-0.045812 -0.056807 0.290546
-0.044453 -0.056841 0.290622
-0.043059 -0.056832 0.290481
-0.041686 -0.056849 0.290478
-0.040378 -0.056961 0.290955
-0.039024 -0.057012 0.291129
-0.038028 -0.057611 0.294098
-0.036444 -0.057331 0.292579
-0.035024 -0.057295 0.292311
-0.033798 -0.057588 0.293724
-0.032338 -0.057491 0.293151
-0.030811 -0.057260 0.291894
-0.029548 -0.057522 0.293153
-0.028271 -0.057781 0.294399
-0.026745 -0.057531 0.293052
-0.025331 -0.057510 0.292876
-0.024004 -0.057694 0.293747
-0.022528 -0.057521 0.292803
-0.021041 -0.057294 0.291588
-0.019515 -0.056923 0.289640
-0.018181 -0.057098 0.290477
-0.016808 -0.057170 0.290790
-0.015345 -0.056919 0.289466
-0.014256 -0.058148 0.295669
-0.012777 -0.057878 0.294251
-0.011144 -0.056761 0.288536
-0.009700 -0.056421 0.286768
-0.008333 -0.056493 0.287104
-0.006965 -0.056589 0.287560
-0.005591 -0.056677 0.287982
-0.004218 -0.056821 0.288690
-0.002834 -0.056906 0.289101
-0.001447 -0.057008 0.289599
-0.000054 -0.056994 0.289515
0.001338 -0.056994 0.289502
0.002726 -0.056916 0.289102
0.004121 -0.056967 0.289357
0.005508 -0.056923 0.289129
0.006882 -0.056788 0.288449
0.008300 -0.056993 0.289491
0.009732 -0.057229 0.290699
0.011117 -0.057158 0.290352
0.012517 -0.057174 0.290445
0.013969 -0.057400 0.291611
0.015381 -0.057434 0.291808
0.016737 -0.057269 0.290991
0.018095 -0.057138 0.290354
0.019413 -0.056908 0.289215
0.020742 -0.056740 0.288393
0.022047 -0.056530 0.287359
0.023396 -0.056451 0.286994
0.024844 -0.056605 0.287822
0.026210 -0.056567 0.287672
0.027710 -0.056807 0.288938
0.029081 -0.056773 0.288810
0.030441 -0.056720 0.288595
0.031914 -0.056874 0.289430
0.033281 -0.056835 0.289284
0.034712 -0.056901 0.289681
0.036065 -0.056842 0.289439
0.037504 -0.056916 0.289876
0.038930 -0.056965 0.290193
0.040206 -0.056801 0.289422
0.041646 -0.056871 0.289843
0.043011 -0.056836 0.289733
0.044449 -0.056898 0.290121
0.045798 -0.056845 0.289921
0.047087 -0.056722 0.289370
0.048493 -0.056744 0.289556
0.049831 -0.056687 0.289340
0.065183 -0.055587 0.284644
0.066460 -0.055517 0.284362
0.067565 -0.055310 0.283375
0.068785 -0.055202 0.282899
0.070488 -0.055480 0.284394
0.072670 -0.056116 0.287729
0.074126 -0.056179 0.288123
0.075703 -0.056329 0.288965
0.077482 -0.056622 0.290536
0.078887 -0.056636 0.290675
0.080215 -0.056595 0.290528
0.081376 -0.056439 0.289795
0.082390 -0.056188 0.288567
0.083804 -0.056214 0.288760
0.093949 -0.056522 0.290676
0.095334 -0.056523 0.290714
0.100438 -0.058697 0.301926
0.099792 -0.057497 0.295780
0.100256 -0.056960 0.293044
0.101496 -0.056874 0.292617
0.102975 -0.056921 0.292874
0.104349 -0.056911 0.292829
0.105480 -0.056769 0.292103
0.106952 -0.056812 0.292326
0.108439 -0.056863 0.292577
0.109993 -0.056946 0.292996
0.111322 -0.056912 0.292804
0.112654 -0.056881 0.292621
0.113994 -0.056855 0.292453
0.115277 -0.056801 0.292139
0.116528 -0.056732 0.291744
0.117981 -0.056763 0.291853
0.119322 -0.056740 0.291674
0.120829 -0.056795 0.291893
0.122228 -0.056798 0.291840
0.123620 -0.056799 0.291761
0.125123 -0.056849 0.291932
0.126436 -0.056813 0.291652
0.127850 -0.056823 0.291598
0.129284 -0.056841 0.291579
0.130397 -0.056720 0.290831
0.132018 -0.056819 0.291209
0.134066 -0.057098 0.292497
0.135516 -0.057120 0.292454
0.136885 -0.057107 0.292225
0.138514 -0.057202 0.292534
0.139866 -0.057181 0.292243
0.141529 -0.057287 0.292586
0.142946 -0.057292 0.292403
0.144906 -0.057513 0.293306
0.146222 -0.057476 0.292882
0.147888 -0.057576 0.293143
0.149529 -0.057665 0.293331
0.150929 -0.057659 0.293025
0.152547 -0.057737 0.293126
0.154295 -0.057861 0.293449
-0.138537 -0.049529 0.259716
-0.137458 -0.049584 0.260255
-0.136464 -0.049671 0.260952
-0.135303 -0.049698 0.261322
-0.134394 -0.049820 0.262175
-0.133410 -0.049915 0.262881
-0.132482 -0.050034 0.263700
-0.131652 -0.050192 0.264716
-0.130890 -0.050379 0.265878
-0.130316 -0.050643 0.267435
-0.129699 -0.050896 0.268922
-0.128786 -0.051036 0.269807
-0.127719 -0.051118 0.270373
-0.126868 -0.051288 0.271399
-0.125799 -0.051373 0.271966
-0.124712 -0.051452 0.272494
-0.123790 -0.051602 0.273386
-0.122853 -0.051748 0.274254
-0.122140 -0.051994 0.275639
-0.121739 -0.052378 0.277753
-0.120971 -0.052612 0.279061
-0.122830 -0.054005 0.286517
-0.121038 -0.053807 0.285517
-0.124890 -0.056141 0.297953
-0.123779 -0.056272 0.298693
-0.122562 -0.056357 0.299179
-0.118460 -0.055102 0.292546
-0.116552 -0.054851 0.291233
-0.114507 -0.054528 0.289532
-0.113491 -0.054694 0.290419
-0.111897 -0.054581 0.289824
-0.110634 -0.054630 0.290079
-0.109817 -0.054902 0.291515
-0.108057 -0.054704 0.290450
-0.106909 -0.054815 0.291019
-0.105634 -0.054862 0.291247
-0.104217 -0.054837 0.291081
-0.103079 -0.054960 0.291698
-0.101776 -0.054996 0.291853
-0.100242 -0.054908 0.291340
-0.098994 -0.054975 0.291651
-0.097709 -0.055024 0.291856
-0.096184 -0.054937 0.291339
-0.094488 -0.054748 0.290281
-0.092885 -0.054609 0.289482
-0.091666 -0.054695 0.289870
-0.090334 -0.054715 0.289906
-0.088848 -0.054641 0.289441
-0.087496 -0.054648 0.289404
-0.086166 -0.054670 0.289442
-0.084780 -0.054656 0.289286
-0.083231 -0.054535 0.288565
-0.082009 -0.054628 0.288972
-0.080523 -0.054545 0.288447
-0.079425 -0.054727 0.289318
-0.078142 -0.054786 0.289537
-0.076914 -0.054885 0.289969
-0.075715 -0.055010 0.290535
-0.074080 -0.054817 0.289416
-0.073120 -0.055125 0.290946
-0.071832 -0.055194 0.291207
-0.070080 -0.054901 0.289561
-0.069034 -0.055160 0.290830
-0.067930 -0.055384 0.291905
-0.066441 -0.055296 0.291340
-0.064977 -0.055226 0.290868
-0.064070 -0.055637 0.292923
-0.062634 -0.055595 0.292601
-0.060810 -0.055201 0.290423
-0.059523 -0.055286 0.290765
-0.058090 -0.055238 0.290407
-0.056702 -0.055230 0.290262
-0.055383 -0.055291 0.290479
-0.053982 -0.055272 0.290273
-0.052616 -0.055289 0.290258
-0.051298 -0.055357 0.290515
-0.049951 -0.055398 0.290626
-0.048544 -0.055372 0.290393
-0.047231 -0.055456 0.290730
-0.045880 -0.055499 0.290859
-0.044472 -0.055474 0.290628
-0.043076 -0.055462 0.290471
-0.041718 -0.055501 0.290579
-0.040272 -0.055419 0.290062
-0.039192 -0.055856 0.292257
-0.037829 -0.055906 0.292427
-0.036138 -0.055457 0.289989
-0.034885 -0.055670 0.291021
-0.033580 -0.055815 0.291695
-0.032073 -0.055623 0.290606
-0.030647 -0.055560 0.290198
-0.029302 -0.055645 0.290567
-0.027961 -0.055746 0.291022
-0.026495 -0.055597 0.290173
-0.025100 -0.055587 0.290049
-0.023733 -0.055642 0.290271
-0.022333 -0.055625 0.290118
-0.020942 -0.055626 0.290062
-0.019488 -0.055449 0.289080
-0.018029 -0.055231 0.287886
-0.016645 -0.055226 0.287809
-0.015224 -0.055082 0.287012
-0.013817 -0.054971 0.286387
-0.012452 -0.055017 0.286583
-0.011066 -0.054973 0.286316
-0.009673 -0.054880 0.285792
-0.008298 -0.054867 0.285694
-0.006929 -0.054903 0.285848
-0.005549 -0.054846 0.285523
-0.004180 -0.054898 0.285771
-0.002809 -0.054977 0.286165
-0.001433 -0.054982 0.286170
-0.000056 -0.054948 0.285983
0.001315 -0.054740 0.284886
0.002687 -0.054776 0.285068
0.004087 -0.055162 0.287072
0.005442 -0.054890 0.285653
0.006838 -0.055060 0.286543
0.008237 -0.055199 0.287269
0.009593 -0.055043 0.286469
0.011012 -0.055248 0.287544
0.012393 -0.055237 0.287502
0.013709 -0.054963 0.286095
0.015144 -0.055176 0.287226
0.016453 -0.054931 0.285976
0.017735 -0.054643 0.284501
0.019181 -0.054862 0.285674
0.020556 -0.054863 0.285711
0.021767 -0.054454 0.283617
0.023182 -0.054573 0.284274
0.024631 -0.054754 0.285259
0.025941 -0.054624 0.284621
0.027311 -0.054626 0.284683
0.028817 -0.054888 0.286095
0.030176 -0.054857 0.285983
0.031493 -0.054757 0.285517
0.032962 -0.054918 0.286414
0.034265 -0.054801 0.285862
0.035576 -0.054705 0.285421
0.036974 -0.054745 0.285690
0.038410 -0.054835 0.286227
0.039777 -0.054825 0.286240
0.041218 -0.054913 0.286768
0.042765 -0.055134 0.287990
0.044024 -0.054979 0.287252
0.045301 -0.054857 0.286686
0.046873 -0.055088 0.287966
0.047904 -0.054689 0.285955
0.048935 -0.054311 0.284054
0.045261 -0.048873 0.255683
0.046825 -0.049229 0.257615
0.054164 -0.050313 0.263651
0.055361 -0.050254 0.263414
0.056697 -0.050321 0.263840
0.058768 -0.051023 0.267597
0.062202 -0.052853 0.277273
0.063448 -0.052787 0.277003
0.064570 -0.052623 0.276217
0.066249 -0.052909 0.277796
0.067781 -0.053070 0.278712
0.069440 -0.053322 0.280111
0.071353 -0.053755 0.282462
0.073221 -0.054139 0.284552
0.074981 -0.054431 0.286159
0.076440 -0.054498 0.286580
0.077523 -0.054299 0.285601
0.079012 -0.054386 0.286125
0.079940 -0.054090 0.284636
0.080715 -0.053703 0.282662
0.083883 -0.054894 0.288991
0.094031 -0.055191 0.290906
0.094052 -0.054402 0.286784
0.100523 -0.057313 0.302163
0.099691 -0.056037 0.295465
0.099917 -0.055383 0.292041
0.101514 -0.055496 0.292660
0.103104 -0.055602 0.293236
0.104420 -0.055559 0.293022
0.105506 -0.055397 0.292174
0.107181 -0.055545 0.292954
0.108571 -0.055543 0.292938
0.110140 -0.055631 0.293394
0.111612 -0.055669 0.293579
0.112864 -0.055597 0.293179
0.114247 -0.055591 0.293119
0.115678 -0.055608 0.293176
0.116851 -0.055502 0.292576
0.118204 -0.055482 0.292427
0.119877 -0.055612 0.293059
0.120850 -0.055418 0.291974
0.122404 -0.055492 0.292293
0.123800 -0.055493 0.292223
0.125051 -0.055430 0.291805
0.126605 -0.055501 0.292086
0.127877 -0.055448 0.291706
0.129400 -0.055504 0.291890
0.130869 -0.055536 0.291937
0.132428 -0.055605 0.292171
0.134008 -0.055681 0.292433
0.135408 -0.055682 0.292286
0.136739 -0.055654 0.291981
0.138434 -0.055774 0.292439
0.139928 -0.055811 0.292450
0.141576 -0.055908 0.292766
0.143113 -0.055960 0.292831
0.144728 -0.056041 0.293035
0.146149 -0.056045 0.292829
0.147704 -0.056101 0.292876
0.149379 -0.056201 0.293137
0.150798 -0.056204 0.292877
0.152304 -0.056238 0.292770
0.154123 -0.056387 0.293239
-0.137696 -0.047996 0.258229
-0.136837 -0.048124 0.259166
-0.135946 -0.048243 0.260044
-0.134704 -0.048239 0.260244
-0.133791 -0.048354 0.261075
-0.132819 -0.048449 0.261790
-0.131935 -0.048579 0.262679
-0.130970 -0.048681 0.263410
-0.129984 -0.048777 0.264099
-0.129217 -0.048958 0.265239
-0.128183 -0.049041 0.265835
-0.127788 -0.049372 0.267768
-0.126718 -0.049446 0.268304
-0.125647 -0.049522 0.268835
-0.124923 -0.049737 0.270117
-0.123960 -0.049861 0.270892
-0.123007 -0.049991 0.271697
-0.122065 -0.050128 0.272532
-0.121321 -0.050351 0.273824
-0.120566 -0.050574 0.275107
-0.120278 -0.051000 0.277490
-0.120144 -0.051501 0.280276
-0.120524 -0.052236 0.284328
-0.119943 -0.052566 0.286171
-0.119614 -0.053016 0.288657
-0.120212 -0.053892 0.293456
-0.118212 -0.053610 0.291945
-0.116080 -0.053260 0.290059
-0.116731 -0.054195 0.295161
-0.113386 -0.053274 0.290152
-0.112150 -0.053334 0.290480
-0.110829 -0.053355 0.290586
-0.109422 -0.053334 0.290461
-0.108172 -0.053390 0.290749
-0.107028 -0.053501 0.291332
-0.105699 -0.053521 0.291413
-0.104325 -0.053518 0.291366
-0.103061 -0.053573 0.291626
-0.101792 -0.053627 0.291878
-0.100430 -0.053632 0.291861
-0.099077 -0.053642 0.291867
-0.097798 -0.053694 0.292092
-0.096504 -0.053738 0.292275
-0.094769 -0.053535 0.291109
-0.093181 -0.053410 0.290364
-0.092012 -0.053526 0.290923
-0.090447 -0.053411 0.290227
-0.089304 -0.053545 0.290881
-0.088178 -0.053694 0.291613
-0.086585 -0.053559 0.290798
-0.084800 -0.053299 0.289305
-0.083460 -0.053314 0.289304
-0.082281 -0.053435 0.289872
-0.080730 -0.053315 0.289127
-0.078140 -0.052492 0.284575
-0.076816 -0.052506 0.284558
-0.075633 -0.052618 0.285073
-0.074414 -0.052710 0.285473
-0.073163 -0.052781 0.285761
-0.071932 -0.052870 0.286143
-0.070819 -0.053051 0.287024
-0.069735 -0.053261 0.288058
-0.068782 -0.053581 0.289687
-0.067662 -0.053782 0.290670
-0.066326 -0.053816 0.290749
-0.064978 -0.053843 0.290784
-0.063736 -0.053959 0.291307
-0.062256 -0.053874 0.290743
-0.060966 -0.053955 0.291070
-0.059592 -0.053963 0.291008
-0.058170 -0.053927 0.290706
-0.056796 -0.053935 0.290644
-0.055461 -0.053981 0.290786
-0.054101 -0.054005 0.290808
-0.052674 -0.053961 0.290470
-0.051329 -0.054002 0.290583
-0.049989 -0.054049 0.290735
-0.048594 -0.054039 0.290579
-0.047222 -0.054055 0.290563
-0.045842 -0.054062 0.290499
-0.044471 -0.054081 0.290502
-0.043078 -0.054073 0.290363
-0.041711 -0.054098 0.290401
-0.039658 -0.053205 0.285515
-0.039459 -0.054825 0.294115
-0.038087 -0.054874 0.294286
-0.035725 -0.053447 0.286544
-0.034346 -0.053434 0.286394
-0.033624 -0.054485 0.291941
-0.032115 -0.054297 0.290852
-0.030688 -0.054236 0.290444
-0.029341 -0.054320 0.290813
-0.027260 -0.052983 0.283582
-0.026121 -0.053434 0.285927
-0.024727 -0.053385 0.285596
-0.023404 -0.053492 0.286102
-0.022135 -0.053745 0.287387
-0.020755 -0.053743 0.287318
-0.019447 -0.053939 0.288307
-0.017873 -0.053373 0.285227
-0.016611 -0.053725 0.287053
-0.015269 -0.053854 0.287693
-0.013688 -0.053085 0.283538
-0.012470 -0.053709 0.286830
-0.010845 -0.052517 0.280426
-0.009462 -0.052323 0.279353
-0.008132 -0.052412 0.279795
-0.006874 -0.053086 0.283364
-0.005511 -0.053087 0.283338
-0.004135 -0.052925 0.282452
-0.002795 -0.053280 0.284327
-0.001427 -0.053283 0.284321
-0.000058 -0.053105 0.283360
0.001301 -0.052919 0.282357
0.002656 -0.052824 0.281841
0.004081 -0.053722 0.286627
0.005384 -0.052974 0.282635
0.006717 -0.052750 0.281442
0.008081 -0.052811 0.281775
0.008837 -0.049447 0.263837
0.010177 -0.049789 0.265669
0.012407 -0.053924 0.287750
0.013724 -0.053657 0.286342
0.015161 -0.053865 0.287473
0.016472 -0.053626 0.286223
0.017756 -0.053344 0.284746
0.018852 -0.052576 0.280676
0.020038 -0.052147 0.278420
0.021416 -0.052239 0.278949
0.023055 -0.052921 0.282626
0.024626 -0.053379 0.285114
0.026054 -0.053492 0.285767
0.027181 -0.053009 0.283232
0.026786 -0.049746 0.265842
0.028000 -0.049632 0.265280
0.029303 -0.049677 0.265572
0.030556 -0.049638 0.265420
0.031873 -0.049701 0.265812
0.035618 -0.053401 0.285662
0.037018 -0.053440 0.285931
0.038455 -0.053528 0.286468
0.039824 -0.053518 0.286481
0.041266 -0.053603 0.287009
0.041984 -0.052774 0.282640
0.043568 -0.053050 0.284190
0.045049 -0.053188 0.285003
0.046386 -0.053153 0.284890
0.048295 -0.053756 0.288198
0.044445 -0.048095 0.257916
0.045534 -0.047939 0.257152
0.046877 -0.048052 0.257828
0.048091 -0.048030 0.257782
0.049098 -0.047807 0.256659
0.050564 -0.048032 0.257937
0.051936 -0.048159 0.258694
0.053215 -0.048196 0.258965
0.054571 -0.048298 0.259590
0.055969 -0.048433 0.260388
0.057699 -0.048843 0.262668
0.060013 -0.049719 0.267456
0.062799 -0.050941 0.274108
0.063941 -0.050807 0.273463
0.065243 -0.050803 0.273520
0.066980 -0.051131 0.275362
0.068438 -0.051238 0.276012
0.069763 -0.051243 0.276110
0.071341 -0.051430 0.277194
0.073087 -0.051729 0.278879
0.074575 -0.051838 0.279538
0.075595 -0.051624 0.278450
0.079087 -0.053076 0.286350
0.080015 -0.052787 0.284859
0.080790 -0.052409 0.282884
0.076074 -0.048539 0.262055
0.077890 -0.048895 0.264030
0.079253 -0.048959 0.264432
0.079924 -0.048601 0.262549
0.081145 -0.048583 0.262498
0.082436 -0.048607 0.262673
0.083649 -0.048585 0.262597
0.084583 -0.048404 0.261656
0.085675 -0.048317 0.261222
0.095909 -0.053315 0.288277
0.099773 -0.054680 0.295692
0.101021 -0.054594 0.295256
0.101377 -0.054034 0.292253
0.102818 -0.054061 0.292414
0.104374 -0.054146 0.292890
0.105480 -0.053999 0.292102
0.107029 -0.054079 0.292540
0.108228 -0.053982 0.292015
0.109761 -0.054052 0.292389
0.111121 -0.054037 0.292295
0.112060 -0.053820 0.291102
0.113271 -0.053737 0.290629
0.114648 -0.053734 0.290581
0.115725 -0.053592 0.289777
0.118112 -0.054052 0.292223
0.119504 -0.054053 0.292174
0.120891 -0.054050 0.292102
0.122126 -0.053981 0.291661
0.123548 -0.053995 0.291663
0.125079 -0.054055 0.291908
0.126388 -0.054020 0.291626
0.127892 -0.054067 0.291785
0.129341 -0.054091 0.291805
0.130805 -0.054120 0.291847
0.132680 -0.054317 0.292782
0.134163 -0.054351 0.292829
0.135680 -0.054398 0.292935
0.136892 -0.054323 0.292374
0.138770 -0.054510 0.293217
0.140090 -0.054478 0.292863
0.141781 -0.054588 0.293267
0.143323 -0.054640 0.293340
0.144803 -0.054667 0.293272
0.146313 -0.054705 0.293247
0.147661 -0.054682 0.292884
0.149184 -0.054724 0.292852
0.150638 -0.054740 0.292670
0.152066 -0.054746 0.292419
0.153705 -0.054827 0.292555
-0.137211 -0.046598 0.257406
-0.136372 -0.046728 0.258368
-0.135501 -0.046850 0.259272
-0.134229 -0.046834 0.259401
-0.133322 -0.046947 0.260231
-0.132387 -0.047051 0.261008
-0.131399 -0.047139 0.261678
-0.130517 -0.047266 0.262561
-0.129668 -0.047409 0.263517
-0.128745 -0.047526 0.264326
-0.127748 -0.047619 0.264985
-0.126902 -0.047770 0.265963
-0.126156 -0.047962 0.267160
-0.125125 -0.048049 0.267762
-0.124245 -0.048196 0.268692
-0.123389 -0.048356 0.269684
-0.122401 -0.048467 0.270394
-0.121449 -0.048594 0.271189
-0.120666 -0.048793 0.272375
-0.120202 -0.049126 0.274304
-0.119366 -0.049313 0.275410
-0.118684 -0.049568 0.276893
-0.118207 -0.049916 0.278882
-0.118815 -0.050734 0.283497
-0.117620 -0.050793 0.283860
-0.116508 -0.050889 0.284427
-0.115474 -0.051022 0.285192
-0.114541 -0.051204 0.286220
-0.113601 -0.051386 0.287249
-0.115887 -0.053050 0.296554
-0.114673 -0.053132 0.297011
-0.110678 -0.051913 0.290185
-0.109517 -0.052008 0.290705
-0.108224 -0.052043 0.290881
-0.106947 -0.052086 0.291097
-0.105800 -0.052195 0.291676
-0.104474 -0.052218 0.291765
-0.103131 -0.052232 0.291805
-0.101907 -0.052307 0.292182
-0.100422 -0.052249 0.291811
-0.099119 -0.052286 0.291962
-0.097841 -0.052337 0.292189
-0.096468 -0.052337 0.292132
-0.095158 -0.052373 0.292269
-0.093427 -0.052175 0.291093
-0.093218 -0.052833 0.294693
-0.092173 -0.053030 0.295719
-0.092479 -0.054023 0.301176
-0.090780 -0.053857 0.300166
-0.089378 -0.053865 0.300125
-0.088498 -0.054193 0.301866
-0.087451 -0.054428 0.303081
-0.086079 -0.054465 0.303193
-0.084676 -0.054483 0.303198
-0.083414 -0.054594 0.303717
-0.082073 -0.054657 0.303964
-0.080476 -0.054549 0.303260
-0.078908 -0.054456 0.302640
-0.077257 -0.054302 0.301680
-0.075803 -0.054283 0.301467
-0.074493 -0.054368 0.301833
-0.073004 -0.054324 0.301481
-0.071119 -0.053977 0.299446
-0.067471 -0.052252 0.289768
-0.066318 -0.052427 0.290630
-0.065029 -0.052499 0.290925
-0.063555 -0.052422 0.290389
-0.062282 -0.052511 0.290773
-0.060969 -0.052570 0.290992
-0.059541 -0.052530 0.290662
-0.058178 -0.052547 0.290649
-0.056721 -0.052478 0.290160
-0.055405 -0.052539 0.290389
-0.053836 -0.052358 0.289281
-0.052622 -0.052521 0.290078
-0.051330 -0.052613 0.290477
-0.049939 -0.052607 0.290338
-0.048546 -0.052597 0.290182
-0.047223 -0.052665 0.290452
-0.045829 -0.052656 0.290304
-0.044464 -0.052680 0.290336
-0.043089 -0.052694 0.290313
-0.041694 -0.052685 0.290165
-0.039687 -0.051874 0.285604
-0.039364 -0.053284 0.293276
-0.037995 -0.053333 0.293448
-0.035925 -0.052362 0.288017
-0.034877 -0.052863 0.290686
-0.029731 -0.046936 0.258020
-0.028382 -0.046750 0.256924
-0.027108 -0.046676 0.256443
-0.026023 -0.046936 0.257801
-0.024645 -0.046667 0.256257
-0.023372 -0.046579 0.255709
-0.022115 -0.046515 0.255294
-0.020880 -0.046493 0.255113
-0.019676 -0.046541 0.255319
-0.018432 -0.046496 0.255018
-0.017573 -0.047486 0.260392
-0.017669 -0.051404 0.281824
-0.016444 -0.051810 0.283997
-0.015243 -0.052373 0.287033
-0.013868 -0.052394 0.287099
-0.011279 -0.047321 0.259261
-0.010054 -0.047426 0.259800
-0.008809 -0.047452 0.259911
-0.007552 -0.047410 0.259649
-0.006305 -0.047424 0.259694
-0.005064 -0.047506 0.260121
-0.003805 -0.047418 0.259619
-0.002555 -0.047419 0.259603
-0.001327 -0.048196 0.263841
-0.000055 -0.047557 0.260330
0.001245 -0.049415 0.270487
0.002548 -0.049425 0.270535
0.004084 -0.052410 0.286870
0.005442 -0.052188 0.285657
0.006778 -0.051884 0.283994
0.007463 -0.047533 0.260183
0.008745 -0.047688 0.261039
0.010062 -0.047975 0.262624
0.011244 -0.047622 0.260707
0.012499 -0.047619 0.260706
0.013753 -0.047613 0.260695
0.015006 -0.047604 0.260669
0.016272 -0.047636 0.260866
0.017489 -0.047529 0.260313
0.018751 -0.047550 0.260457
0.021469 -0.051028 0.279546
0.022803 -0.051003 0.279445
0.024198 -0.051107 0.280061
0.025731 -0.051477 0.282134
0.026772 -0.050875 0.278877
0.026337 -0.047660 0.261301
0.027604 -0.047675 0.261435
0.028803 -0.047578 0.260954
0.029988 -0.047467 0.260397
0.031226 -0.047446 0.260337
0.032410 -0.047346 0.259847
0.033592 -0.047251 0.259384
0.034796 -0.047194 0.259129
0.035992 -0.047129 0.258834
0.037202 -0.047087 0.258667
0.038542 -0.047206 0.259385
0.043617 -0.051749 0.284422
0.045100 -0.051883 0.285235
0.046438 -0.051848 0.285121
0.043450 -0.047123 0.259208
