ply
format ascii 1.0
element vertex 1744
property float x
property float y
property float z
end_header
-0.112657 0.008835 0.265954
-0.112034 0.008885 0.267437
-0.111361 0.008932 0.268826
-0.110570 0.008971 0.269953
-0.110237 0.009048 0.272232
-0.109981 0.009133 0.274752
-0.109632 0.009213 0.277091
-0.109316 0.009297 0.279564
-0.109012 0.009384 0.282125
-0.108814 0.009483 0.285021
-0.108570 0.009580 0.287862
-0.107907 0.009642 0.289647
-0.107439 0.009723 0.292006
-0.106607 0.009773 0.293416
-0.106742 0.009915 0.297557
-0.105962 0.009973 0.299222
-0.105193 0.010035 0.300956
-0.104397 0.010095 0.302661
-0.103641 0.010161 0.304525
-0.074529 0.010115 0.300292
-0.073214 0.010132 0.300614
-0.072063 0.010171 0.301639
-0.070764 0.010192 0.302077
-0.069424 0.010207 0.302362
-0.068084 0.010222 0.302666
-0.063074 0.010115 0.299007
-0.061733 0.010129 0.299286
-0.059940 0.010069 0.297347
-0.058257 0.010025 0.295878
-0.056918 0.010039 0.296138
-0.046502 0.009646 0.283695
-0.045193 0.009657 0.283906
-0.043010 0.009477 0.278485
-0.041310 0.009396 0.275954
-0.040352 0.009483 0.278391
-0.039392 0.009576 0.280988
-0.037568 0.009457 0.277399
-0.035549 0.009280 0.272070
-0.035951 0.009744 0.285578
-0.029778 0.008742 0.255981
-0.028346 0.008682 0.254134
-0.027108 0.008679 0.253943
-0.026045 0.008734 0.255470
-0.024771 0.008720 0.254985
-0.023581 0.008736 0.255368
-0.022381 0.008750 0.255696
-0.021166 0.008760 0.255900
-0.019951 0.008771 0.256129
-0.018812 0.008818 0.257448
-0.018546 0.009311 0.271768
-0.017238 0.009317 0.271854
-0.015780 0.009234 0.269393
-0.012849 0.009012 0.262787
-0.011428 0.008898 0.259424
-0.010090 0.008829 0.257354
-0.008858 0.008846 0.257811
-0.007604 0.008844 0.257709
-0.006351 0.008843 0.257639
-0.005110 0.008860 0.258114
-0.003865 0.008882 0.258722
-0.002625 0.008938 0.260323
-0.001358 0.008924 0.259906
-0.000095 0.008975 0.261389
0.001186 0.009057 0.263766
0.002482 0.009109 0.265254
0.007427 0.008854 0.257850
0.008650 0.008823 0.256969
0.009960 0.008877 0.258564
0.011372 0.008999 0.262146
0.012539 0.008923 0.259953
0.013846 0.008951 0.260801
0.015316 0.009071 0.264324
0.016678 0.009112 0.265583
0.019163 0.009718 0.283288
0.019527 0.009239 0.269367
0.020824 0.009234 0.269270
0.022129 0.009233 0.269283
0.023423 0.009227 0.269173
0.024704 0.009217 0.268951
0.025912 0.009182 0.268006
0.027319 0.009218 0.269115
0.028604 0.009211 0.268982
0.029797 0.009176 0.268054
0.031172 0.009198 0.268769
0.032448 0.009190 0.268618
0.033739 0.009187 0.268612
0.035155 0.009217 0.269572
0.036381 0.009196 0.269064
0.037514 0.009154 0.267934
0.038720 0.009133 0.267396
0.039733 0.009068 0.265610
0.041005 0.009065 0.265615
0.041885 0.008978 0.263167
0.042899 0.008924 0.261688
0.043156 0.008720 0.255809
0.044225 0.008687 0.254945
0.045447 0.008685 0.254986
0.046587 0.008668 0.254590
0.047782 0.008661 0.254507
0.049008 0.008661 0.254601
0.050231 0.008659 0.254676
0.051465 0.008660 0.254811
0.052799 0.008677 0.255427
0.054233 0.008710 0.256498
0.055639 0.008736 0.257392
0.057254 0.008794 0.259204
0.059794 0.008988 0.265040
0.062074 0.009135 0.269516
0.063428 0.009143 0.269876
0.064628 0.009129 0.269584
0.066029 0.009144 0.270127
0.067330 0.009144 0.270255
0.068615 0.009142 0.270317
0.069729 0.009118 0.269720
0.070151 0.009005 0.266518
0.070736 0.008918 0.264039
0.071613 0.008869 0.262716
0.072966 0.008880 0.263160
0.073667 0.008813 0.261280
0.074290 0.008739 0.259189
0.075027 0.008680 0.257557
0.075994 0.008650 0.256754
0.077074 0.008633 0.256355
0.078162 0.008617 0.255996
0.079265 0.008604 0.255693
0.080579 0.008613 0.256073
0.081805 0.008613 0.256165
0.082806 0.008590 0.255559
0.084760 0.008664 0.257869
0.098084 0.009743 0.290151
0.099300 0.009726 0.289738
0.100768 0.009734 0.290058
0.102207 0.009739 0.290285
0.105091 0.009749 0.290733
0.106311 0.009733 0.290339
0.107751 0.009738 0.290542
0.108909 0.009717 0.289989
0.110075 0.009698 0.289462
0.111722 0.009720 0.290196
0.112874 0.009700 0.289635
0.114174 0.009693 0.289459
0.115703 0.009705 0.289856
0.117169 0.009712 0.290079
0.119048 0.009752 0.291304
0.120418 0.009750 0.291264
0.121590 0.009733 0.290741
0.123063 0.009739 0.290935
0.124499 0.009742 0.291033
0.125754 0.009732 0.290701
0.127600 0.009767 0.291719
0.128846 0.009755 0.291347
0.130159 0.009749 0.291127
0.131642 0.009756 0.291276
0.132914 0.009746 0.290949
0.134185 0.009737 0.290617
0.135559 0.009736 0.290503
0.137060 0.009744 0.290648
0.139439 0.009813 0.292619
0.140709 0.009803 0.292237
0.142226 0.009811 0.292355
0.143627 0.009811 0.292220
0.144933 0.009804 0.291884
0.146350 0.009804 0.291760
0.147798 0.009807 0.291685
0.149141 0.009803 0.291390
0.150580 0.009805 0.291269
0.152393 0.009831 0.291852
-0.134259 0.009658 0.253196
-0.132156 0.009593 0.251638
-0.131380 0.009623 0.252587
-0.130429 0.009641 0.253201
-0.128785 0.009608 0.252456
-0.127410 0.009595 0.252216
-0.125977 0.009576 0.251846
-0.124911 0.009586 0.252193
-0.123234 0.009548 0.251294
-0.122127 0.009555 0.251537
-0.120703 0.009536 0.251116
-0.119738 0.009554 0.251644
-0.118342 0.009537 0.251255
-0.117437 0.009559 0.251902
-0.122059 0.010037 0.264534
-0.121064 0.010058 0.265119
-0.119501 0.010032 0.264452
-0.117695 0.009984 0.263221
-0.116672 0.010003 0.263723
-0.115517 0.010010 0.263928
-0.111974 0.009809 0.258615
-0.110877 0.009820 0.258889
-0.110102 0.009860 0.259925
-0.109783 0.009941 0.262065
-0.109603 0.010038 0.264584
-0.109874 0.010179 0.268256
-0.109135 0.010228 0.269513
-0.109318 0.010365 0.273099
-0.109634 0.010519 0.277100
-0.109270 0.010611 0.279453
-0.109542 0.010767 0.283503
-0.109157 0.010861 0.285926
-0.109471 0.011029 0.290259
-0.109641 0.011186 0.294311
-0.108860 0.011249 0.295875
-0.108190 0.011324 0.297781
-0.107672 0.011419 0.300159
-0.106033 0.011395 0.299430
-0.104379 0.011368 0.298640
-0.102638 0.011332 0.297573
-0.099767 0.011168 0.293157
-0.075325 0.011452 0.297959
-0.074025 0.011470 0.298284
-0.073373 0.011592 0.301290
-0.072574 0.011694 0.303799
-0.071569 0.011767 0.305537
-0.071075 0.011929 0.309578
-0.061946 0.011604 0.300346
-0.060595 0.011621 0.300621
-0.059238 0.011637 0.300890
-0.044203 0.010169 0.262136
-0.042997 0.010181 0.262336
-0.041821 0.010202 0.262750
-0.041584 0.010461 0.269281
-0.040606 0.010543 0.271285
-0.039606 0.010625 0.273278
-0.039551 0.010976 0.282157
-0.037055 0.010649 0.273639
-0.035772 0.010660 0.273809
-0.017074 0.010534 0.269295
-0.015881 0.010610 0.271165
-0.014574 0.010615 0.271238
-0.012845 0.010285 0.262740
-0.011325 0.010067 0.257127
-0.010083 0.010072 0.257214
-0.008821 0.010057 0.256801
-0.007593 0.010081 0.257368
-0.006350 0.010093 0.257640
-0.005109 0.010114 0.258138
-0.003862 0.010130 0.258531
-0.002618 0.010178 0.259731
-0.001356 0.010175 0.259629
-0.000095 0.010241 0.261300
0.001181 0.010294 0.262632
0.002443 0.010231 0.261029
0.009634 0.011217 0.286223
0.011023 0.011214 0.286173
0.012387 0.011190 0.285569
0.013751 0.011170 0.285105
0.015078 0.011127 0.284029
0.016457 0.011126 0.284044
0.017779 0.011089 0.283153
0.019158 0.011091 0.283237
0.020524 0.011085 0.283142
0.020345 0.010298 0.263099
0.022125 0.010537 0.269262
0.025905 0.010479 0.267959
0.033202 0.010735 0.274886
0.034504 0.010725 0.274726
0.035663 0.010673 0.273488
0.036968 0.010667 0.273429
0.037998 0.010585 0.271417
0.038773 0.010440 0.267786
0.039726 0.010350 0.265583
0.040932 0.010330 0.265165
0.041872 0.010246 0.263107
0.042823 0.010169 0.261247
0.043331 0.009995 0.256868
0.044327 0.009940 0.255553
0.045493 0.009924 0.255265
0.046611 0.009900 0.254742
0.047772 0.009885 0.254475
0.048938 0.009873 0.254257
0.050109 0.009862 0.254080
0.051339 0.009862 0.254209
0.052622 0.009873 0.254590
0.053966 0.009894 0.255254
0.055376 0.009926 0.256195
0.057073 0.010007 0.258401
0.059666 0.010239 0.264491
0.061982 0.010414 0.269137
0.063290 0.010416 0.269308
0.064497 0.010401 0.269055
0.065840 0.010409 0.269372
0.067185 0.010416 0.269690
0.068569 0.010430 0.270155
0.069713 0.010407 0.269674
0.070263 0.010297 0.266958
0.071039 0.010224 0.265185
0.072023 0.010184 0.264236
0.073157 0.010165 0.263863
0.073932 0.010098 0.262234
0.074273 0.009975 0.259142
0.074994 0.009906 0.257458
0.076195 0.009901 0.257445
0.077248 0.009878 0.256945
0.078342 0.009861 0.256595
0.079577 0.009862 0.256713
0.080783 0.009859 0.256730
0.082258 0.009888 0.257592
0.083281 0.009863 0.257036
0.084142 0.009820 0.255999
0.095389 0.010973 0.286145
0.096591 0.010954 0.285743
0.101838 0.011388 0.297152
0.101085 0.011148 0.290978
0.102227 0.011121 0.290352
0.104159 0.011180 0.291953
0.105388 0.011162 0.291564
0.106703 0.011154 0.291416
0.107872 0.011130 0.290875
0.109203 0.011124 0.290776
0.110942 0.011160 0.291746
0.111645 0.011091 0.290001
0.112882 0.011076 0.289660
0.115077 0.011155 0.291752
0.116498 0.011157 0.291850
0.117688 0.011138 0.291367
0.119014 0.011132 0.291222
0.120409 0.011132 0.291242
0.121641 0.011117 0.290864
0.123012 0.011116 0.290815
0.124459 0.011121 0.290939
0.126198 0.011151 0.291726
0.127618 0.011153 0.291757
0.129139 0.011164 0.292008
0.130621 0.011171 0.292156
0.131919 0.011163 0.291885
0.133531 0.011181 0.292295
0.134625 0.011155 0.291566
0.135906 0.011146 0.291239
0.137479 0.011160 0.291529
0.139228 0.011188 0.292169
0.140885 0.011208 0.292593
0.142214 0.011202 0.292321
0.143636 0.011204 0.292230
0.144913 0.011194 0.291833
0.146302 0.011192 0.291653
0.147798 0.011199 0.291674
0.149272 0.011204 0.291633
0.150585 0.011197 0.291266
0.151938 0.011193 0.290966
-0.132685 0.010732 0.250213
-0.131093 0.010699 0.249601
-0.129815 0.010691 0.249568
-0.129433 0.010757 0.251257
-0.127964 0.010734 0.250838
-0.126251 0.010689 0.249914
-0.124909 0.010675 0.249701
-0.123585 0.010663 0.249508
-0.121295 0.010566 0.247333
-0.119848 0.010542 0.246837
-0.118977 0.010568 0.247521
-0.117517 0.010541 0.246971
-0.116492 0.010554 0.247322
-0.115272 0.010549 0.247255
-0.113850 0.010525 0.246740
-0.112953 0.010550 0.247354
-0.112036 0.010574 0.247930
-0.110821 0.010569 0.247845
-0.110469 0.010648 0.249702
-0.109900 0.010707 0.251094
-0.109430 0.010777 0.252739
-0.109066 0.010859 0.254661
-0.108603 0.010933 0.256388
-0.109139 0.011111 0.260530
-0.109273 0.011251 0.263790
-0.109500 0.011404 0.267348
-0.109211 0.011506 0.269706
-0.109029 0.011622 0.272383
-0.109337 0.011794 0.276354
-0.108691 0.011865 0.277977
-0.108294 0.011966 0.280280
-0.107881 0.012067 0.282591
-0.106991 0.012117 0.283691
-0.106683 0.012235 0.286378
-0.105801 0.012290 0.287570
-0.108168 0.012728 0.297732
-0.104358 0.012777 0.298590
-0.100641 0.012491 0.291797
-0.099746 0.012552 0.293108
-0.076714 0.012634 0.292759
-0.076151 0.012773 0.295831
-0.075295 0.012867 0.297867
-0.074023 0.012893 0.298302
-0.072794 0.012927 0.298938
-0.071370 0.012927 0.298787
-0.070125 0.012961 0.299400
-0.071055 0.013406 0.309522
-0.045513 0.010564 0.242785
-0.044408 0.010578 0.242989
-0.043773 0.010708 0.245852
-0.042949 0.010798 0.247787
-0.042190 0.010909 0.250228
-0.041488 0.011043 0.253162
-0.041069 0.011262 0.258061
-0.040882 0.011560 0.264770
-0.040156 0.011719 0.268308
-0.039486 0.011907 0.272480
-0.039188 0.012224 0.279600
-0.036943 0.011934 0.272850
-0.034857 0.011675 0.266836
-0.017184 0.011917 0.271077
-0.015959 0.011984 0.272534
-0.014645 0.011990 0.272607
-0.012646 0.011381 0.258710
-0.011299 0.011289 0.256581
-0.010053 0.011288 0.256504
-0.008815 0.011297 0.256672
-0.007580 0.011314 0.257003
-0.006346 0.011337 0.257504
-0.005106 0.011361 0.258009
-0.003855 0.011368 0.258138
-0.002612 0.011418 0.259262
-0.001362 0.011492 0.260912
-0.000094 0.011500 0.261090
0.001185 0.011598 0.263305
0.002456 0.011559 0.262407
0.003731 0.011558 0.262392
0.020797 0.011832 0.268966
0.022215 0.011892 0.270383
0.025604 0.011641 0.264870
0.026870 0.011633 0.264744
0.034493 0.012051 0.274673
0.034997 0.011773 0.268416
0.036241 0.011754 0.268083
0.037493 0.011740 0.267840
0.038503 0.011653 0.265951
0.039634 0.011607 0.264997
0.040967 0.011621 0.265419
0.042101 0.011579 0.264571
0.043111 0.011507 0.263025
0.043494 0.011277 0.257860
0.044321 0.011171 0.255542
0.045404 0.011134 0.254793
0.046645 0.011136 0.254953
0.047810 0.011120 0.254701
0.048942 0.011098 0.254301
0.050123 0.011088 0.254173
0.051330 0.011084 0.254184
0.052604 0.011094 0.254528
0.054069 0.011143 0.255765
0.055606 0.011204 0.257282
0.057233 0.011280 0.259149
0.059585 0.011493 0.264154
0.061920 0.011694 0.268888
0.063364 0.011721 0.269644
0.064572 0.011705 0.269387
0.065963 0.011722 0.269898
0.067274 0.011724 0.270067
0.068678 0.011742 0.270603
0.069871 0.011724 0.270304
0.070645 0.011638 0.268430
0.071177 0.011515 0.265719
0.072213 0.011477 0.264950
0.073401 0.011464 0.264760
0.074190 0.011390 0.263162
0.074519 0.011249 0.260016
0.075204 0.011166 0.258192
0.076259 0.011139 0.257678
0.077258 0.011105 0.256992
0.078299 0.011078 0.256467
0.079534 0.011079 0.256585
0.080824 0.011088 0.256873
0.081994 0.011080 0.256777
0.083175 0.011073 0.256717
0.084482 0.011084 0.257043
0.098514 0.012559 0.291443
0.099736 0.012537 0.291028
0.100786 0.012495 0.290129
0.102506 0.012536 0.291152
0.103490 0.012487 0.290084
0.105309 0.012538 0.291352
0.106527 0.012518 0.290942
0.107951 0.012522 0.291095
0.109285 0.012515 0.290999
0.110616 0.012508 0.290895
0.111865 0.012493 0.290575
0.113140 0.012480 0.290326
0.114500 0.012477 0.290293
0.115955 0.012485 0.290493
0.117271 0.012477 0.290337
0.119013 0.012514 0.291221
0.120409 0.012515 0.291243
0.121901 0.012525 0.291485
0.123257 0.012521 0.291395
0.124630 0.012519 0.291337
0.126213 0.012538 0.291757
0.127682 0.012545 0.291899
0.129031 0.012541 0.291760
0.130218 0.012520 0.291250
0.131897 0.012548 0.291832
0.132951 0.012515 0.291020
0.134077 0.012490 0.290372
0.135682 0.012510 0.290752
0.137102 0.012512 0.290723
0.138424 0.012506 0.290475
0.139767 0.012501 0.290262
0.141945 0.012571 0.291758
0.143557 0.012589 0.292057
0.144837 0.012578 0.291668
0.146012 0.012558 0.291062
0.147609 0.012575 0.291287
0.149123 0.012584 0.291328
0.150845 0.012611 0.291754
0.152453 0.012627 0.291935
-0.132668 0.011917 0.250168
-0.130538 0.011831 0.248533
-0.129799 0.011871 0.249523
-0.126234 0.011869 0.249870
-0.122672 0.011643 0.245219
-0.123567 0.011840 0.249464
-0.119055 0.011517 0.242758
-0.117307 0.011459 0.241597
-0.116648 0.011506 0.242669
-0.115741 0.011530 0.243232
-0.114879 0.011558 0.243894
-0.114311 0.011617 0.245189
-0.113081 0.011610 0.245068
-0.112343 0.011653 0.246016
-0.112047 0.011743 0.247952
-0.110970 0.011753 0.248177
-0.110290 0.011805 0.249295
-0.109605 0.011858 0.250420
-0.108908 0.011911 0.251533
-0.108756 0.012025 0.253938
-0.108164 0.012092 0.255353
-0.108221 0.012235 0.258342
-0.108667 0.012425 0.262331
-0.108822 0.012585 0.265694
-0.108427 0.012685 0.267772
-0.108442 0.012836 0.270920
-0.108272 0.012969 0.273668
-0.107929 0.013083 0.276033
-0.108272 0.013285 0.280229
-0.106753 0.013260 0.279645
-0.106968 0.013453 0.283639
-0.075522 0.013810 0.288233
-0.074496 0.013875 0.289430
-0.075274 0.014284 0.297808
-0.070104 0.014387 0.299340
-0.046472 0.011123 0.230609
-0.045432 0.011139 0.230815
-0.044662 0.011223 0.232446
-0.043850 0.011301 0.233942
-0.043364 0.011470 0.237309
-0.042725 0.011605 0.239996
-0.042283 0.011803 0.243975
-0.041672 0.011964 0.247186
-0.041284 0.012201 0.251948
-0.040902 0.012453 0.257046
-0.040927 0.012849 0.265098
-0.039950 0.012946 0.266970
-0.039184 0.013120 0.270437
-0.038366 0.013288 0.273777
-0.036771 0.013189 0.271624
-0.034984 0.013011 0.267849
-0.017136 0.013195 0.270375
-0.015972 0.013317 0.272803
-0.014656 0.013324 0.272877
-0.012457 0.012448 0.254899
-0.011291 0.012526 0.256433
-0.010068 0.012552 0.256928
-0.008812 0.012540 0.256634
-0.007570 0.012546 0.256722
-0.006329 0.012556 0.256885
-0.005090 0.012576 0.257261
-0.003842 0.012582 0.257375
-0.002582 0.012534 0.256369
-0.001346 0.012618 0.258066
-0.000094 0.012788 0.261524
0.001178 0.012799 0.261748
0.002452 0.012811 0.261972
0.003725 0.012809 0.261937
0.020790 0.013132 0.268906
0.022022 0.013089 0.268067
0.025060 0.012651 0.259280
0.026257 0.012622 0.258742
0.027683 0.012699 0.260408
0.028737 0.012608 0.258600
0.030022 0.012620 0.258936
0.031344 0.012647 0.259566
0.032687 0.012680 0.260318
0.034028 0.012710 0.261009
0.035416 0.012754 0.262012
0.036692 0.012756 0.262143
0.038093 0.012800 0.263148
0.039341 0.012792 0.263064
0.040754 0.012836 0.264071
0.042242 0.012900 0.265491
0.043228 0.012812 0.263769
0.044124 0.012702 0.261621
0.044378 0.012419 0.255898
0.045352 0.012348 0.254524
0.046476 0.012320 0.254053
0.047706 0.012321 0.254174
0.048941 0.012323 0.254322
0.050212 0.012333 0.254649
0.051457 0.012337 0.254840
0.052939 0.012396 0.256175
0.054662 0.012508 0.258592
0.056126 0.012557 0.259711
0.057839 0.012658 0.261915
0.059686 0.012783 0.264625
0.062050 0.013012 0.269476
0.063278 0.012997 0.269300
0.064596 0.013002 0.269511
0.065942 0.013012 0.269832
0.067253 0.013014 0.270005
0.068605 0.013025 0.270338
0.069868 0.013018 0.270316
0.070935 0.012975 0.269552
0.071859 0.012909 0.268282
0.072462 0.012788 0.265883
0.073535 0.012753 0.265262
0.074683 0.012732 0.264931
0.075252 0.012614 0.262591
0.076140 0.012553 0.261422
0.076837 0.012463 0.259645
0.077859 0.012427 0.259007
0.079118 0.012430 0.259166
0.080671 0.012478 0.260266
0.082173 0.012517 0.261176
0.083452 0.012522 0.261357
0.085453 0.012633 0.263763
0.086689 0.012629 0.263770
0.095125 0.013659 0.285377
0.096324 0.013636 0.284976
0.099635 0.013908 0.290745
0.100623 0.013852 0.289669
0.101936 0.013843 0.289543
0.103897 0.013920 0.291234
0.105131 0.013899 0.290869
0.106774 0.013932 0.291625
0.108104 0.013924 0.291516
0.109555 0.013932 0.291725
0.110906 0.013926 0.291664
0.112096 0.013901 0.291180
0.113316 0.013880 0.290781
0.114847 0.013897 0.291175
0.116236 0.013897 0.291199
0.117369 0.013867 0.290581
0.118798 0.013871 0.290696
0.120273 0.013881 0.290915
0.121564 0.013870 0.290679
0.123417 0.013922 0.291771
0.124505 0.013888 0.291043
0.126357 0.013939 0.292088
0.127361 0.013896 0.291164
0.128816 0.013903 0.291270
0.130320 0.013915 0.291475
0.131680 0.013911 0.291345
0.133024 0.013906 0.291175
0.134323 0.013896 0.290899
0.135532 0.013877 0.290423
0.137278 0.013913 0.291086
0.138783 0.013924 0.291218
0.140532 0.013959 0.291840
0.142030 0.013968 0.291921
0.143427 0.013968 0.291779
0.144695 0.013955 0.291369
0.146529 0.013996 0.292079
0.147803 0.013984 0.291653
0.149404 0.014002 0.291861
0.150885 0.014009 0.291815
0.151944 0.013977 0.290943
-0.112026 0.012910 0.247903
-0.111571 0.012992 0.249517
-0.110583 0.013014 0.249956
-0.110300 0.013121 0.252007
-0.109939 0.013220 0.253916
-0.109815 0.013350 0.256412
-0.109511 0.013461 0.258534
-0.109387 0.013597 0.261127
-0.109287 0.013739 0.263830
-0.109820 0.013964 0.268135
-0.109225 0.014050 0.269749
-0.108840 0.014165 0.271921
-0.108248 0.014256 0.273613
-0.107904 0.014382 0.275978
-0.106729 0.014576 0.279589
-0.047694 0.010546 0.199710
-0.046814 0.010562 0.199917
-0.046092 0.010616 0.200824
-0.045202 0.010632 0.201025
-0.044908 0.010792 0.203947
-0.045835 0.011259 0.212663
-0.044884 0.011275 0.212865
-0.044303 0.011388 0.214877
-0.044170 0.011623 0.219209
-0.043793 0.011804 0.222516
-0.043449 0.012004 0.226163
-0.043063 0.012202 0.229776
-0.042592 0.012385 0.233114
-0.042139 0.012584 0.236736
-0.041732 0.012807 0.240830
-0.041517 0.013105 0.246304
-0.041050 0.013337 0.250559
-0.040696 0.013622 0.255786
-0.040323 0.013918 0.261224
-0.039455 0.014056 0.263700
-0.038820 0.014290 0.267964
-0.038060 0.014492 0.271636
-0.036576 0.014423 0.270225
-0.035190 0.014389 0.269472
-0.017314 0.014658 0.273240
-0.015907 0.014581 0.271749
-0.014597 0.014589 0.271822
-0.012479 0.013710 0.255392
-0.011234 0.013702 0.255197
-0.010037 0.013758 0.256202
-0.008795 0.013759 0.256182
-0.007564 0.013783 0.256586
-0.006329 0.013805 0.256957
-0.005084 0.013812 0.257067
-0.003846 0.013848 0.257709
-0.002596 0.013856 0.257831
-0.001347 0.013886 0.258364
-0.000092 0.013922 0.259031
0.001184 0.014136 0.262993
0.002445 0.014037 0.261158
0.003724 0.014076 0.261872
0.020566 0.014282 0.266049
0.021936 0.014332 0.267049
0.024976 0.013861 0.258438
0.026256 0.013874 0.258759
0.027578 0.013908 0.259455
0.028610 0.013799 0.257491
0.029952 0.013842 0.258364
0.031270 0.013871 0.258987
0.032579 0.013894 0.259497
0.033976 0.013951 0.260644
0.035343 0.013992 0.261502
0.036613 0.013994 0.261617
0.038073 0.014065 0.263043
0.039543 0.014135 0.264453
0.040878 0.014154 0.264908
0.042413 0.014239 0.266595
0.043514 0.014178 0.265551
0.046549 0.014732 0.276032
0.045077 0.013868 0.259957
0.046225 0.013836 0.259456
0.047228 0.013763 0.258192
0.048194 0.013684 0.256806
0.049335 0.013656 0.256398
0.050620 0.013669 0.256748
0.051831 0.013662 0.256720
0.053087 0.013666 0.256915
0.054731 0.013768 0.258943
0.056267 0.013839 0.260393
0.057956 0.013944 0.262473
0.060240 0.014184 0.267108
0.062033 0.014301 0.269429
0.063343 0.014304 0.269604
0.064741 0.014326 0.270143
0.066080 0.014335 0.270424
0.067484 0.014357 0.270956
0.068758 0.014351 0.270963
0.069931 0.014325 0.270579
0.071087 0.014296 0.270150
0.072227 0.014265 0.269679
0.072932 0.014150 0.267630
0.073827 0.014076 0.266338
0.075104 0.014076 0.266444
0.075766 0.013963 0.264404
0.076357 0.013840 0.262184
0.077495 0.013819 0.261887
0.078544 0.013783 0.261303
0.080085 0.013833 0.262350
0.081776 0.013907 0.263848
0.083155 0.013926 0.264311
0.084725 0.013977 0.265357
0.086727 0.014096 0.267708
0.088333 0.014148 0.268785
0.095734 0.015113 0.287217
0.096941 0.015088 0.286813
0.101286 0.015544 0.295574
0.100703 0.015242 0.289910
0.102070 0.015239 0.289934
0.103523 0.015249 0.290196
0.105178 0.015288 0.291006
0.106687 0.015305 0.291396
0.107944 0.015286 0.291091
0.109302 0.015282 0.291058
0.110669 0.015279 0.291047
0.111798 0.015243 0.290412
0.113158 0.015239 0.290381
0.114701 0.015260 0.290809
0.115902 0.015236 0.290365
0.117499 0.015263 0.290905
0.118872 0.015261 0.290878
0.120171 0.015249 0.290668
0.121582 0.015252 0.290721
0.122960 0.015251 0.290690
0.124195 0.015232 0.290316
0.125530 0.015226 0.290173
0.126831 0.015215 0.289948
0.128453 0.015243 0.290444
0.129848 0.015244 0.290413
0.131342 0.015256 0.290592
0.132777 0.015261 0.290626
0.134305 0.015277 0.290850
0.135965 0.015307 0.291343
0.137333 0.015304 0.291192
0.138796 0.015311 0.291234
0.140234 0.015316 0.291210
0.141552 0.015307 0.290924
0.143547 0.015371 0.292011
0.144793 0.015354 0.291552
0.145849 0.015318 0.290708
0.147661 0.015361 0.291358
0.149259 0.015381 0.291558
0.150807 0.015396 0.291644
0.152091 0.015383 0.291204
-0.111630 0.013884 0.244448
-0.110664 0.013907 0.244886
-0.111516 0.014161 0.249393
-0.110529 0.014185 0.249831
-0.109995 0.014269 0.251310
-0.109728 0.014389 0.253428
-0.110201 0.014609 0.257314
-0.109458 0.014672 0.258409
-0.109160 0.014796 0.260588
-0.109269 0.014979 0.263790
-0.108680 0.015070 0.265356
-0.108319 0.015194 0.267517
-0.107538 0.015262 0.268671
-0.106993 0.015365 0.270447
-0.105905 0.015392 0.270873
-0.105156 0.015470 0.272180
-0.104057 0.015497 0.272600
-0.103465 0.015601 0.274369
-0.102353 0.015629 0.274784
-0.045896 0.010248 0.178349
-0.044541 0.010133 0.176258
-0.045121 0.010461 0.181886
-0.047104 0.011135 0.193498
-0.046254 0.011152 0.193702
-0.045313 0.011148 0.193530
-0.044931 0.011284 0.195787
-0.044182 0.011331 0.196512
-0.043631 0.011433 0.198172
-0.043186 0.011567 0.200397
-0.044015 0.012057 0.208772
-0.043680 0.012243 0.211884
-0.043483 0.012477 0.215831
-0.043083 0.012663 0.218939
-0.042979 0.012948 0.223747
-0.042731 0.013202 0.228035
-0.042450 0.013460 0.232370
-0.042046 0.013691 0.236254
-0.041606 0.013923 0.240140
-0.041258 0.014201 0.244807
-0.040887 0.014486 0.249602
-0.040462 0.014768 0.254357
-0.040072 0.015082 0.259636
-0.039307 0.015270 0.262760
-0.038646 0.015512 0.266811
-0.038051 0.015798 0.271614
-0.036495 0.015692 0.269667
-0.035260 0.015721 0.270053
-0.035042 0.016223 0.278565
-0.017199 0.015877 0.271475
-0.015887 0.015880 0.271465
-0.014578 0.015888 0.271538
-0.012494 0.014968 0.255770
-0.011311 0.015044 0.257020
-0.010075 0.015059 0.257230
-0.008828 0.015061 0.257214
-0.007591 0.015083 0.257553
-0.006349 0.015102 0.257856
-0.005114 0.015151 0.258657
-0.003866 0.015179 0.259107
-0.002616 0.015228 0.259916
-0.001359 0.015288 0.260922
-0.000092 0.015352 0.262007
0.001184 0.015401 0.262836
0.002465 0.015429 0.263310
0.019288 0.015583 0.266224
0.020569 0.015574 0.266129
0.021941 0.015631 0.267151
0.025070 0.015170 0.259451
0.026064 0.015018 0.256904
0.027398 0.015066 0.257798
0.028557 0.015018 0.257046
0.029854 0.015043 0.257557
0.031105 0.015045 0.257657
0.032432 0.015081 0.258358
0.033734 0.015103 0.258823
0.035025 0.015119 0.259183
0.036372 0.015158 0.259930
0.038114 0.015352 0.263359
0.039778 0.015504 0.266058
0.041021 0.015487 0.265870
0.043755 0.016017 0.275067
0.045034 0.015999 0.274861
0.046531 0.016057 0.275961
0.048027 0.016112 0.277007
0.049199 0.016057 0.276184
0.050219 0.015958 0.274581
0.051235 0.015862 0.273040
0.052265 0.015775 0.271657
0.053284 0.015689 0.270291
0.054165 0.015567 0.268313
0.055025 0.015445 0.266325
0.056560 0.015515 0.267631
0.057317 0.015372 0.265279
0.058758 0.015414 0.266132
0.060523 0.015539 0.268394
0.062041 0.015595 0.269489
0.063435 0.015619 0.270022
0.064845 0.015646 0.270600
0.066160 0.015650 0.270776
0.067551 0.015670 0.271252
0.068829 0.015664 0.271266
0.069988 0.015632 0.270827
0.071059 0.015582 0.270067
0.072268 0.015563 0.269856
0.072831 0.015408 0.267279
0.073803 0.015344 0.266271
0.074902 0.015308 0.265747
0.075634 0.015199 0.263961
0.076532 0.015126 0.262804
0.077553 0.015080 0.262102
0.078807 0.015080 0.262195
0.080163 0.015099 0.262621
0.081536 0.015120 0.263089
0.083079 0.015172 0.264087
0.084777 0.015250 0.265537
0.086475 0.015326 0.266947
0.087940 0.015359 0.267604
0.097326 0.016754 0.292009
0.098554 0.016726 0.291598
0.099361 0.016628 0.289969
0.100561 0.016597 0.289515
0.103037 0.016550 0.288846
0.104483 0.016561 0.289095
0.106523 0.016664 0.290958
0.107960 0.016671 0.291142
0.109159 0.016642 0.290684
0.110500 0.016635 0.290609
0.111696 0.016607 0.290152
0.112940 0.016586 0.289827
0.114289 0.016581 0.289770
0.116014 0.016630 0.290648
0.117239 0.016607 0.290263
0.118708 0.016619 0.290480
0.120025 0.016609 0.290314
0.121269 0.016589 0.289974
0.122464 0.016564 0.289516
0.123990 0.016583 0.289835
0.125018 0.016536 0.288986
0.126007 0.016484 0.288060
0.128388 0.016614 0.290292
0.129668 0.016600 0.290004
0.131235 0.016623 0.290346
0.132879 0.016655 0.290841
0.134272 0.016655 0.290771
0.135664 0.016655 0.290687
0.137399 0.016697 0.291321
0.138837 0.016702 0.291307
0.139969 0.016670 0.290646
0.141409 0.016676 0.290617
0.142741 0.016668 0.290357
0.144250 0.016681 0.290442
0.146980 0.016834 0.292943
0.147498 0.016733 0.291016
0.149408 0.016790 0.291829
0.150944 0.016805 0.291888
0.152518 0.016823 0.292000
-0.111474 0.014565 0.236645
-0.111164 0.014671 0.238422
-0.110686 0.014757 0.239864
-0.110400 0.014870 0.241748
-0.110799 0.015079 0.245181
-0.110688 0.015223 0.247539
-0.110241 0.015322 0.249178
-0.110669 0.015547 0.252847
-0.109665 0.015574 0.253282
-0.109398 0.015706 0.255439
-0.108637 0.015770 0.256473
-0.107530 0.015785 0.256698
-0.106859 0.015865 0.257974
-0.105811 0.015889 0.258356
-0.104586 0.015888 0.258301
-0.103451 0.015900 0.258468
-0.102985 0.016017 0.260323
-0.102483 0.016131 0.262128
-0.101613 0.016189 0.263017
-0.101420 0.016357 0.265699
-0.101593 0.016590 0.269416
-0.101391 0.016766 0.272214
-0.100549 0.016840 0.273339
-0.048637 0.010245 0.165301
-0.047935 0.010262 0.165504
-0.047295 0.010294 0.165934
-0.047190 0.010445 0.168291
-0.046810 0.010539 0.169728
-0.046889 0.010742 0.172910
-0.046746 0.010900 0.175368
-0.046248 0.010980 0.176563
-0.045879 0.011093 0.178303
-0.045580 0.011229 0.180391
-0.045306 0.011375 0.182655
-0.045028 0.011527 0.184995
-0.044763 0.011688 0.187483
-0.044517 0.011860 0.190154
-0.044188 0.012018 0.192576
-0.043866 0.012183 0.195133
-0.043712 0.012404 0.198567
-0.043640 0.012658 0.202533
-0.043807 0.012995 0.207816
-0.043606 0.013235 0.211554
-0.043282 0.013449 0.214869
-0.043173 0.013742 0.219431
-0.043204 0.014095 0.224954
-0.043007 0.014389 0.229548
-0.042591 0.014624 0.233182
-0.042052 0.014828 0.236323
-0.041618 0.015082 0.240251
-0.041144 0.015335 0.244171
-0.040546 0.015556 0.247565
-0.040241 0.015905 0.253013
-0.039999 0.016303 0.259213
-0.039230 0.016503 0.262289
-0.038485 0.016728 0.265748
-0.038116 0.017138 0.272133
-0.036444 0.016969 0.269346
-0.035121 0.016957 0.269037
-0.035026 0.017559 0.278486
-0.029893 0.016231 0.257216
-0.028678 0.016246 0.257353
-0.027095 0.016044 0.254069
-0.025795 0.015999 0.253269
-0.024554 0.015987 0.253000
-0.023329 0.015986 0.252896
-0.022126 0.016000 0.253042
-0.021292 0.016299 0.257686
-0.020108 0.016351 0.258430
-0.018989 0.016465 0.260165
-0.016924 0.016918 0.267192
-0.015781 0.017082 0.269718
-0.014481 0.017090 0.269791
-0.012665 0.016431 0.259321
-0.011270 0.016233 0.256150
-0.010040 0.016252 0.256414
-0.008814 0.016285 0.256892
-0.007557 0.016262 0.256492
-0.006332 0.016311 0.257234
-0.005083 0.016310 0.257180
-0.003830 0.016288 0.256814
-0.002603 0.016411 0.258731
-0.001365 0.016632 0.262198
-0.000092 0.016751 0.264051
0.001189 0.016740 0.263873
0.002491 0.016881 0.266080
0.007303 0.016093 0.253676
0.008553 0.016126 0.254215
0.009842 0.016216 0.255651
0.010990 0.016079 0.253511
0.012250 0.016116 0.254123
0.013515 0.016153 0.254744
0.014845 0.016255 0.256379
0.016102 0.016267 0.256597
0.017567 0.016472 0.259878
0.019019 0.016639 0.262555
0.020401 0.016727 0.263997
0.021680 0.016725 0.264010
0.024905 0.016319 0.257786
0.025934 0.016181 0.255668
0.027214 0.016205 0.256110
0.028422 0.016185 0.255871
0.029660 0.016184 0.255926
0.030901 0.016184 0.256002
0.032208 0.016218 0.256610
0.033468 0.016226 0.256821
0.034673 0.016208 0.256621
0.035938 0.016218 0.256865
0.037399 0.016313 0.258456
0.039493 0.016669 0.264191
0.040728 0.016651 0.264005
0.044688 0.017192 0.272787
0.046511 0.017381 0.275884
0.050602 0.017412 0.276709
0.051872 0.017390 0.276475
0.053139 0.017368 0.276235
0.054002 0.017218 0.273970
0.054984 0.017113 0.272404
0.056525 0.017182 0.273621
0.057222 0.016997 0.270796
0.057503 0.016700 0.266174
0.059627 0.016939 0.270100
0.061114 0.016991 0.271045
0.062369 0.016978 0.270948
0.063574 0.016951 0.270645
0.064941 0.016969 0.271033
0.066167 0.016949 0.270835
0.067476 0.016951 0.270977
0.068820 0.016961 0.271260
0.069976 0.016926 0.270808
0.071018 0.016864 0.269937
0.072680 0.016950 0.271419
0.074070 0.016970 0.271853
0.074260 0.016719 0.267945
0.075792 0.016774 0.268927
0.077108 0.016780 0.269129
0.077822 0.016657 0.267257
0.079212 0.016680 0.267728
0.080169 0.016612 0.266747
0.081509 0.016625 0.267049
0.083225 0.016713 0.268559
0.084686 0.016748 0.269210
0.086086 0.016770 0.269655
0.087878 0.016866 0.271293
0.093681 0.017718 0.285089
0.094883 0.017688 0.284693
0.098346 0.018075 0.291000
0.099389 0.018012 0.290065
0.100683 0.017995 0.289880
0.105044 0.018031 0.290657
0.107724 0.018015 0.290513
0.109030 0.018001 0.290349
0.110418 0.018002 0.290401
0.111647 0.017976 0.290031
0.113072 0.017983 0.290169
0.114459 0.017983 0.290205
0.115892 0.017991 0.290347
0.117411 0.018011 0.290691
0.118552 0.017974 0.290100
0.119890 0.017967 0.289988
0.121184 0.017953 0.289769
0.122537 0.017949 0.289687
0.123922 0.017949 0.289674
0.125589 0.017989 0.290303
0.126959 0.017987 0.290231
0.128420 0.017997 0.290359
0.129519 0.017957 0.289664
0.130862 0.017951 0.289514
0.132679 0.018010 0.290395
0.133861 0.017982 0.289871
0.135560 0.018024 0.290452
0.137320 0.018072 0.291142
0.138851 0.018090 0.291324
0.140485 0.018120 0.291702
0.141589 0.018083 0.290972
0.142922 0.018075 0.290708
0.144645 0.018116 0.291218
0.146298 0.018147 0.291566
0.147871 0.018168 0.291732
0.149514 0.018197 0.292016
0.150944 0.018200 0.291863
0.152354 0.018200 0.291661
-0.114949 0.016500 0.249098
-0.111301 0.016141 0.243717
-0.110872 0.016246 0.245338
-0.110198 0.016317 0.246439
-0.109597 0.016400 0.247720
-0.109508 0.016563 0.250194
-0.108708 0.016621 0.251070
-0.108010 0.016695 0.252200
-0.107303 0.016770 0.253325
-0.106165 0.016779 0.253443
-0.105229 0.016820 0.254042
-0.104421 0.016882 0.254965
-0.103896 0.016992 0.256603
-0.103293 0.017092 0.258078
-0.102138 0.017102 0.258188
-0.101675 0.017230 0.260068
-0.100447 0.017229 0.260008
-0.099061 0.017201 0.259529
-0.101563 0.017856 0.269347
-0.043598 0.008885 0.133567
-0.042507 0.008790 0.132087
-0.042333 0.008885 0.133453
-0.042341 0.009021 0.135441
-0.042409 0.009174 0.137686
-0.048405 0.010803 0.161992
-0.047718 0.010821 0.162194
-0.046891 0.010808 0.161919
-0.046346 0.010860 0.162624
-0.046023 0.010967 0.164147
-0.045757 0.011091 0.165928
-0.045683 0.011267 0.168479
-0.045687 0.011469 0.171418
-0.045673 0.011674 0.174391
-0.045550 0.011857 0.177048
-0.045453 0.012055 0.179911
-0.045269 0.012237 0.182531
-0.045021 0.012408 0.184990
-0.044637 0.012548 0.186982
-0.044599 0.012792 0.190532
-0.044351 0.012985 0.193313
-0.044321 0.013252 0.197186
-0.044075 0.013465 0.200244
-0.043756 0.013664 0.203102
-0.043665 0.013945 0.207176
-0.043585 0.014242 0.211487
-0.043315 0.014490 0.215066
-0.043054 0.014753 0.218865
-0.042817 0.015038 0.222979
-0.042646 0.015361 0.227658
-0.042416 0.015680 0.232265
-0.042067 0.015970 0.236448
-0.041541 0.016207 0.239851
-0.041099 0.016491 0.243945
-0.040492 0.016725 0.247281
-0.040187 0.017100 0.252721
-0.039798 0.017463 0.257957
-0.039187 0.017748 0.262050
-0.038600 0.018063 0.266588
-0.038097 0.018441 0.272050
-0.036370 0.018232 0.268853
-0.035060 0.018223 0.268624
-0.035008 0.018894 0.278401
-0.029676 0.017347 0.255400
-0.028496 0.017379 0.255777
-0.027061 0.017251 0.253808
-0.025801 0.017228 0.253382
-0.024585 0.017234 0.253383
-0.023474 0.017318 0.254532
-0.022245 0.017319 0.254469
-0.021080 0.017373 0.255189
-0.020022 0.017527 0.257380
-0.018979 0.017716 0.260083
-0.018404 0.018400 0.270058
-0.017090 0.018393 0.269887
-0.015739 0.018342 0.269072
-0.014442 0.018351 0.269144
-0.012773 0.017840 0.261606
-0.011332 0.017573 0.257629
-0.010104 0.017609 0.258116
-0.008887 0.017678 0.259092
-0.007613 0.017638 0.258470
-0.006380 0.017695 0.259260
-0.005139 0.017754 0.260099
-0.003897 0.017848 0.261446
-0.002641 0.017929 0.262611
-0.001365 0.017913 0.262369
-0.000091 0.017981 0.263352
0.001194 0.018085 0.264860
0.002478 0.018067 0.264592
0.006218 0.017742 0.259839
0.007374 0.017491 0.256168
0.008588 0.017429 0.255278
0.009845 0.017461 0.255769
0.011073 0.017439 0.255455
0.012352 0.017494 0.256288
0.013613 0.017515 0.256622
0.014900 0.017563 0.257364
0.016203 0.017621 0.258258
0.017582 0.017748 0.260149
0.019031 0.017923 0.262759
0.020328 0.017942 0.263091
0.021792 0.018098 0.265426
0.024762 0.017467 0.256350
0.025960 0.017436 0.255962
0.027211 0.017443 0.256121
0.028408 0.017416 0.255793
0.029634 0.017407 0.255745
0.030859 0.017399 0.255702
0.032113 0.017407 0.255898
0.033328 0.017395 0.255793
0.034551 0.017387 0.255755
0.035795 0.017390 0.255886
0.037122 0.017431 0.256583
0.038635 0.017554 0.258488
0.040052 0.017628 0.259664
0.056501 0.018489 0.273541
0.055467 0.017737 0.262525
0.057053 0.017837 0.264121
0.059352 0.018152 0.268891
0.060909 0.018230 0.270168
0.062232 0.018237 0.270385
0.063588 0.018253 0.270735
0.064988 0.018281 0.271260
0.066203 0.018256 0.271012
0.067482 0.018250 0.271031
0.068788 0.018251 0.271163
0.069944 0.018213 0.270710
0.070955 0.018139 0.269726
0.072210 0.018130 0.269691
0.073130 0.018037 0.268427
0.074226 0.017991 0.267847
0.075522 0.017994 0.267995
0.076607 0.017947 0.267404
0.077947 0.017961 0.267708
0.079337 0.017985 0.268174
0.080461 0.017949 0.267740
0.081768 0.017955 0.267918
0.083553 0.018064 0.269636
0.085561 0.018217 0.272012
0.086114 0.018060 0.269759
0.088379 0.018261 0.272855
0.093646 0.019068 0.285001
0.094848 0.019036 0.284606
0.099107 0.019610 0.293266
0.099320 0.019378 0.289879
0.104135 0.019501 0.291945
0.105283 0.019456 0.291328
0.106420 0.019410 0.290696
0.107730 0.019396 0.290538
0.109011 0.019377 0.290306
0.110390 0.019376 0.290334
0.111648 0.019354 0.290041
0.112898 0.019331 0.289728
0.114313 0.019336 0.289837
0.115811 0.019355 0.290145
0.117229 0.019361 0.290243
0.118469 0.019337 0.289896
0.119821 0.019332 0.289821
0.121075 0.019311 0.289509
0.122329 0.019291 0.289192
0.123866 0.019315 0.289539
0.125753 0.019393 0.290677
0.127252 0.019410 0.290897
0.128108 0.019329 0.289646
0.129541 0.019337 0.289706
0.131570 0.019432 0.291072
0.132219 0.019323 0.289378
0.134175 0.019406 0.290539
0.135659 0.019419 0.290653
0.137359 0.019463 0.291211
0.138715 0.019457 0.291023
0.139927 0.019432 0.290527
0.141291 0.019428 0.290341
0.142576 0.019413 0.289985
0.145479 0.019617 0.292877
0.146387 0.019550 0.291721
0.147235 0.019476 0.290455
0.149482 0.019588 0.291928
0.150827 0.019580 0.291612
0.152459 0.019609 0.291835
-0.114921 0.017670 0.249030
-0.114270 0.017751 0.250212
-0.113234 0.017773 0.250560
-0.112548 0.017851 0.251690
-0.111779 0.017918 0.252649
-0.110599 0.017919 0.252684
-0.109062 0.017862 0.251888
-0.108018 0.017885 0.252217
-0.106737 0.017869 0.251991
-0.104108 0.017625 0.248533
-0.103402 0.017704 0.249635
-0.101925 0.017651 0.248874
-0.103866 0.018196 0.256532
-0.099029 0.018419 0.259457
-0.043423 0.009344 0.131193
-0.042877 0.009360 0.131371
-0.043873 0.009718 0.136341
-0.042910 0.009646 0.135283
-0.042975 0.009807 0.137482
-0.043245 0.010021 0.140414
-0.046637 0.010975 0.153722
-0.045987 0.010994 0.153916
-0.045368 0.011020 0.154221
-0.044951 0.011098 0.155234
-0.044796 0.011243 0.157202
-0.044850 0.011448 0.159981
-0.044971 0.011676 0.163097
-0.045313 0.011971 0.167136
-0.045234 0.012163 0.169738
-0.045420 0.012435 0.173447
-0.045240 0.012614 0.175865
-0.045196 0.012839 0.178915
-0.044937 0.013011 0.181218
-0.044831 0.013234 0.184238
-0.044806 0.013491 0.187715
-0.044681 0.013727 0.190909
-0.044382 0.013919 0.193480
-0.044025 0.014100 0.195901
-0.043856 0.014351 0.199281
-0.043526 0.014559 0.202067
-0.043428 0.014855 0.206083
-0.043291 0.015152 0.210095
-0.043194 0.015478 0.214503
-0.042899 0.015746 0.218114
-0.042714 0.016069 0.222481
-0.042462 0.016383 0.226718
-0.042396 0.016787 0.232198
-0.041935 0.017052 0.235752
-0.041735 0.017441 0.241014
-0.041028 0.017634 0.243569
-0.040433 0.017888 0.246968
-0.040099 0.018277 0.252219
-0.039971 0.018786 0.259133
-0.039141 0.018988 0.261796
-0.038507 0.019301 0.266007
-0.037892 0.019646 0.270639
-0.036379 0.019533 0.268978
-0.035103 0.019544 0.269014
-0.029783 0.018648 0.256385
-0.028539 0.018643 0.256220
-0.027409 0.018716 0.257134
-0.026144 0.018699 0.256810
-0.024796 0.018618 0.255618
-0.023708 0.018734 0.257129
-0.022425 0.018701 0.256591
-0.021346 0.018843 0.258468
-0.020108 0.018854 0.258546
-0.019096 0.019093 0.261749
-0.018393 0.019698 0.269967
-0.017054 0.019660 0.269387
-0.015670 0.019561 0.267973
-0.012765 0.019098 0.261518
-0.011456 0.019028 0.260512
-0.010234 0.019105 0.261513
-0.009000 0.019178 0.262471
-0.007715 0.019147 0.262005
-0.006462 0.019201 0.262710
-0.005200 0.019244 0.263275
-0.003925 0.019258 0.263439
-0.002650 0.019275 0.263646
-0.001375 0.019345 0.264588
-0.000092 0.019477 0.266385
0.001201 0.019478 0.266383
0.002491 0.019447 0.265955
0.006215 0.018993 0.259751
0.007378 0.018744 0.256354
0.008615 0.018726 0.256129
0.009859 0.018726 0.256145
0.011133 0.018779 0.256885
0.012386 0.018787 0.257017
0.013644 0.018802 0.257249
0.014987 0.018920 0.258908
0.016194 0.018862 0.258148
0.017670 0.019103 0.261485
0.019157 0.019323 0.264547
0.020433 0.019316 0.264491
0.021832 0.019419 0.265950
0.024750 0.018699 0.256267
0.025965 0.018679 0.256059
0.027226 0.018693 0.256307
0.028445 0.018677 0.256165
0.029682 0.018675 0.256200
0.030914 0.018669 0.256203
0.032147 0.018664 0.256213
0.033413 0.018679 0.256491
0.034622 0.018661 0.256329
0.035816 0.018636 0.256076
0.037183 0.018701 0.257050
0.038831 0.018898 0.259845
0.041135 0.019391 0.266728
0.058349 0.019540 0.270162
0.059567 0.019513 0.269898
0.061107 0.019590 0.271081
0.062423 0.019594 0.271247
0.063636 0.019566 0.270974
0.064930 0.019563 0.271051
0.066190 0.019551 0.270990
0.067465 0.019543 0.270996
0.068784 0.019548 0.271176
0.069968 0.019515 0.270832
0.071178 0.019490 0.270603
0.072665 0.019541 0.271417
0.074286 0.019625 0.272699
0.074874 0.019439 0.270210
0.076223 0.019452 0.270507
0.077732 0.019506 0.271357
0.079049 0.019510 0.271517
0.080175 0.019468 0.271030
0.081822 0.019551 0.272291
0.083138 0.019554 0.272430
0.084280 0.019517 0.272005
0.085737 0.019552 0.272591
0.087458 0.019646 0.273988
0.088861 0.019667 0.274362
0.094276 0.020562 0.286936
0.095486 0.020527 0.286538
0.098569 0.020891 0.291692
0.099683 0.020832 0.290953
0.100869 0.020790 0.290442
0.102265 0.020792 0.290540
0.103715 0.020805 0.290781
0.105011 0.020786 0.290587
0.106122 0.020732 0.289891
0.107257 0.020684 0.289273
0.109164 0.020785 0.290724
0.110568 0.020788 0.290809
0.112273 0.020847 0.291669
0.113400 0.020798 0.291021
0.114635 0.020770 0.290657
0.115971 0.020761 0.290549
0.117302 0.020751 0.290426
0.118704 0.020754 0.290473
0.120048 0.020747 0.290371
0.121296 0.020723 0.290034
0.122793 0.020742 0.290287
0.124133 0.020734 0.290159
0.125503 0.020732 0.290095
0.126650 0.020693 0.289515
0.128838 0.020823 0.291291
0.129465 0.020701 0.289527
0.130995 0.020724 0.289790
0.132991 0.020819 0.291055
0.134477 0.020834 0.291181
0.135794 0.020822 0.290929
0.137178 0.020820 0.290813
0.138786 0.020853 0.291157
0.140729 0.020934 0.292176
0.141596 0.020856 0.290950
0.143308 0.020902 0.291454
0.145098 0.020958 0.292088
0.146592 0.020971 0.292106
0.147895 0.020956 0.291732
0.149347 0.020963 0.291639
0.150873 0.020980 0.291674
0.152540 0.021016 0.291960
-0.043675 0.008663 0.114433
-0.043244 0.008685 0.114693
-0.042770 0.008698 0.114845
-0.042478 0.008749 0.115492
-0.045173 0.009425 0.124380
-0.044729 0.009455 0.124741
-0.043407 0.009298 0.122629
-0.043200 0.009378 0.123654
-0.042865 0.009433 0.124333
-0.042438 0.009469 0.124760
-0.042137 0.009534 0.125574
-0.042367 0.009722 0.128014
-0.044310 0.010315 0.135773
-0.044568 0.010528 0.138514
-0.044212 0.010599 0.139401
-0.043933 0.010692 0.140560
-0.044206 0.010924 0.143547
-0.044650 0.011205 0.147189
-0.044825 0.011428 0.150043
-0.044590 0.011551 0.151594
-0.044589 0.011739 0.154001
-0.044812 0.011995 0.157278
-0.044807 0.012196 0.159848
-0.045007 0.012461 0.163248
-0.045548 0.012832 0.168027
-0.045581 0.013070 0.171062
-0.045340 0.013237 0.173164
-0.045213 0.013444 0.175787
-0.045005 0.013634 0.178186
-0.044846 0.013847 0.180877
-0.044646 0.014055 0.183505
-0.044323 0.014232 0.185719
-0.044081 0.014442 0.188376
-0.043868 0.014671 0.191269
-0.043495 0.014856 0.193576
-0.043835 0.015296 0.199219
-0.043721 0.015595 0.203009
-0.043412 0.015836 0.206045
-0.043351 0.016181 0.210427
-0.043010 0.016435 0.213623
-0.042716 0.016720 0.217224
-0.042617 0.017097 0.222017
-0.042421 0.017454 0.226543
-0.042304 0.017863 0.231738
-0.041915 0.018176 0.235685
-0.041422 0.018459 0.239253
-0.041037 0.018809 0.243673
-0.040362 0.019042 0.246584
-0.039767 0.019329 0.250180
-0.039661 0.019878 0.257173
-0.039166 0.020262 0.262024
-0.038844 0.020763 0.268390
-0.038316 0.021185 0.273732
-0.036239 0.020750 0.268000
-0.035071 0.020823 0.268835
-0.029895 0.019961 0.257403
-0.028540 0.019882 0.256292
-0.027203 0.019809 0.255264
-0.026060 0.019877 0.256048
-0.024800 0.019858 0.255720
-0.023572 0.019864 0.255716
-0.022442 0.019958 0.256844
-0.021288 0.020041 0.257839
-0.020116 0.020115 0.258722
-0.019021 0.020282 0.260803
-0.018283 0.020880 0.268423
-0.016951 0.020839 0.267831
-0.015633 0.020811 0.267410
-0.014345 0.020821 0.267481
0.001195 0.020651 0.264911
0.002481 0.020651 0.264902
0.006111 0.019910 0.255401
0.007321 0.019831 0.254404
0.008581 0.019888 0.255143
0.009812 0.019874 0.254982
0.011069 0.019909 0.255448
0.012337 0.019954 0.256052
0.013615 0.020006 0.256745
0.014915 0.020078 0.257701
0.016151 0.020060 0.257512
0.017551 0.020234 0.259783
0.018956 0.020389 0.261813
0.020240 0.020403 0.262048
0.021886 0.020759 0.266668
0.024745 0.019935 0.256259
0.025980 0.019930 0.256256
0.027214 0.019924 0.256239
0.028458 0.019926 0.256334
0.029671 0.019907 0.256157
0.030929 0.019917 0.256368
0.032214 0.019945 0.256796
0.033465 0.019949 0.256935
0.034694 0.019940 0.256903
0.035981 0.019965 0.257307
0.037330 0.020021 0.258111
0.039090 0.020286 0.261627
0.041113 0.020668 0.266636
0.042356 0.020645 0.266443
0.057984 0.020707 0.268511
0.059194 0.020678 0.268249
0.060992 0.020851 0.270609
0.062256 0.020839 0.270561
0.063495 0.020818 0.270409
0.064734 0.020799 0.270268
0.066004 0.020790 0.270264
0.067292 0.020787 0.270335
0.068574 0.020782 0.270385
0.069896 0.020789 0.270585
0.071182 0.020785 0.270650
0.072414 0.020766 0.270510
0.074059 0.020864 0.271895
0.075040 0.020775 0.270839
0.076010 0.020686 0.269779
0.077279 0.020680 0.269800
0.078484 0.020657 0.269601
0.080016 0.020719 0.270518
0.081411 0.020745 0.270948
0.082535 0.020702 0.270478
0.084243 0.020804 0.271907
0.085175 0.020714 0.270827
0.086448 0.020709 0.270844
0.088674 0.020929 0.273805
0.094266 0.021925 0.286927
0.095477 0.021888 0.286529
0.098998 0.022375 0.292978
0.099697 0.022219 0.291012
0.100767 0.022148 0.290164
0.102032 0.022122 0.289890
0.103611 0.022164 0.290502
0.104972 0.022159 0.290492
0.106329 0.022152 0.290467
0.107690 0.022147 0.290452
0.108918 0.022115 0.290077
0.110429 0.022141 0.290450
0.111764 0.022130 0.290353
0.113309 0.022162 0.290794
0.114515 0.022127 0.290357
0.115855 0.022118 0.290263
0.117134 0.022098 0.290013
0.118431 0.022082 0.289805
0.119905 0.022099 0.290024
0.121265 0.022094 0.289959
0.122970 0.022152 0.290703
0.124403 0.022160 0.290787
0.125823 0.022166 0.290830
0.127874 0.022281 0.292304
0.129311 0.022288 0.292351
0.130303 0.022219 0.291391
0.131750 0.022228 0.291449
0.133140 0.022227 0.291370
0.134255 0.022181 0.290687
0.135892 0.022221 0.291123
0.137412 0.022242 0.291292
0.139135 0.022294 0.291872
0.140260 0.022251 0.291183
0.142107 0.022322 0.291979
0.143471 0.022316 0.291763
0.145876 0.022470 0.293631
0.146563 0.022360 0.292025
0.147863 0.022344 0.291643
0.149533 0.022384 0.291974
0.150786 0.022362 0.291475
0.152331 0.022382 0.291530
-0.042936 0.008522 0.106049
-0.042373 0.008509 0.105878
-0.041675 0.008468 0.105356
-0.044066 0.009062 0.112725
-0.044102 0.009179 0.114170
-0.042885 0.009036 0.112367
-0.042896 0.009151 0.113775
-0.042617 0.009207 0.114439
-0.045662 0.009991 0.124157
-0.045156 0.010008 0.124340
-0.044712 0.010040 0.124701
-0.044111 0.010037 0.124626
-0.043790 0.010099 0.125352
-0.043404 0.010147 0.125907
-0.042845 0.010155 0.125965
-0.042872 0.010304 0.127774
-0.043103 0.010507 0.130249
-0.044392 0.010978 0.136036
-0.043882 0.011011 0.136395
-0.043434 0.011061 0.136962
-0.043404 0.011221 0.138882
-0.043565 0.011436 0.141480
-0.044220 0.011789 0.145788
-0.044899 0.012159 0.150308
-0.044454 0.012233 0.151151
-0.044620 0.012479 0.154130
-0.044561 0.012670 0.156416
-0.044791 0.012951 0.159812
-0.044620 0.013124 0.161865
-0.044972 0.013459 0.165923
-0.044954 0.013693 0.168735
-0.044932 0.013935 0.171632
-0.044803 0.014152 0.174220
-0.044774 0.014409 0.177300
-0.044786 0.014689 0.180661
-0.044568 0.014904 0.183214
-0.044346 0.015126 0.185849
-0.044024 0.015322 0.188164
-0.043809 0.015564 0.191043
-0.043741 0.015870 0.194700
-0.043879 0.016265 0.199455
-0.043688 0.016554 0.202891
-0.043416 0.016824 0.206101
-0.043125 0.017099 0.209369
-0.042963 0.017439 0.213434
-0.042791 0.017792 0.217648
-0.042568 0.018141 0.221809
-0.042534 0.018590 0.227188
-0.042091 0.018880 0.230618
-0.041836 0.019271 0.235289
-0.041469 0.019631 0.239578
-0.041110 0.020016 0.244160
-0.040480 0.020287 0.247358
-0.040079 0.020694 0.252199
-0.039876 0.021231 0.258630
-0.039070 0.021471 0.261441
-0.038687 0.021967 0.267371
-0.038047 0.022346 0.271873
-0.036333 0.022100 0.268761
-0.034992 0.022070 0.268291
-0.029802 0.021138 0.256673
-0.028557 0.021133 0.256516
-0.027234 0.021066 0.255616
-0.025987 0.021056 0.255405
-0.024735 0.021039 0.255119
-0.023611 0.021136 0.256213
-0.022376 0.021139 0.256164
-0.021339 0.021339 0.258520
-0.020197 0.021454 0.259840
-0.019021 0.021545 0.260871
-0.018032 0.021877 0.264816
-0.016647 0.021741 0.263112
-0.015296 0.021631 0.261723
-0.014015 0.021609 0.261401
0.001178 0.021595 0.260850
0.002450 0.021655 0.261565
0.006132 0.021220 0.256319
