ply
format ascii 1.0
element vertex 1681
property float x
property float y
property float z
end_header
-0.001339 -0.030157 0.260205
-0.000080 -0.030185 0.260430
0.001186 -0.030304 0.261450
0.002473 -0.030558 0.263632
0.003863 -0.031479 0.271579
0.005177 -0.031476 0.271557
0.006523 -0.031626 0.272848
0.007850 -0.031645 0.273023
0.009209 -0.031772 0.274132
0.010615 -0.032006 0.276172
0.011970 -0.032054 0.276599
0.013416 -0.032311 0.278844
0.014820 -0.032428 0.279882
0.016136 -0.032348 0.279218
0.017688 -0.032718 0.282451
0.018812 -0.032300 0.278877
0.020152 -0.032284 0.278786
0.020632 -0.030978 0.267547
0.021780 -0.030770 0.265803
0.023952 -0.031951 0.276056
0.025272 -0.031932 0.275940
0.026590 -0.031911 0.275819
0.027300 -0.031198 0.269713
0.028527 -0.031113 0.269048
0.029943 -0.031233 0.270150
0.031153 -0.031138 0.269389
0.032354 -0.031040 0.268617
0.033646 -0.031034 0.268639
0.034903 -0.030999 0.268404
0.036151 -0.030957 0.268123
0.037415 -0.030932 0.267983
0.038516 -0.030778 0.266725
0.039623 -0.030638 0.265601
0.040662 -0.030457 0.264113
0.041304 -0.029998 0.260216
0.042213 -0.029754 0.258184
0.043662 -0.029894 0.259491
0.044533 -0.029642 0.257387
0.045686 -0.029585 0.256987
0.046937 -0.029594 0.257147
0.048148 -0.029577 0.257096
0.049429 -0.029603 0.257417
0.050723 -0.029636 0.257790
0.052147 -0.029741 0.258800
0.053608 -0.029862 0.259946
0.055053 -0.029968 0.260965
0.056490 -0.030066 0.261914
0.058046 -0.030221 0.263364
0.060169 -0.030658 0.267271
0.062170 -0.031017 0.270498
0.063691 -0.031125 0.271547
0.064871 -0.031067 0.271137
0.066324 -0.031139 0.271864
0.067670 -0.031159 0.272135
0.068961 -0.031153 0.272180
0.070217 -0.031132 0.272093
0.071456 -0.031104 0.271947
0.072725 -0.031090 0.271921
0.074087 -0.031115 0.272235
0.075439 -0.031136 0.272510
0.076787 -0.031154 0.272758
0.078147 -0.031176 0.273041
0.079578 -0.031226 0.273562
0.080923 -0.031241 0.273779
0.082297 -0.031266 0.274080
0.083837 -0.031353 0.274921
0.085188 -0.031367 0.275123
0.086662 -0.031425 0.275712
0.087845 -0.031378 0.275369
0.089470 -0.031488 0.276402
0.095381 -0.033081 0.290455
0.096610 -0.033028 0.290054
0.100659 -0.033926 0.298012
0.100034 -0.033247 0.292098
0.101196 -0.033171 0.291491
0.102660 -0.033196 0.291757
0.103985 -0.033175 0.291622
0.105534 -0.033225 0.292106
0.106864 -0.033207 0.291979
0.108118 -0.033165 0.291642
0.109413 -0.033137 0.291421
0.110888 -0.033163 0.291671
0.111841 -0.033034 0.290557
0.113206 -0.033029 0.290521
0.114739 -0.033073 0.290906
0.115657 -0.032940 0.289734
0.117026 -0.032937 0.289700
0.118754 -0.033034 0.290538
0.120450 -0.033120 0.291272
0.121917 -0.033142 0.291437
0.123270 -0.033133 0.291317
0.124794 -0.033169 0.291592
0.126091 -0.033145 0.291329
0.127612 -0.033179 0.291572
0.128903 -0.033154 0.291283
0.130215 -0.033135 0.291036
0.131539 -0.033119 0.290810
0.132844 -0.033098 0.290535
0.134241 -0.033101 0.290456
0.135815 -0.033147 0.290743
0.138096 -0.033363 0.292511
0.139546 -0.033376 0.292487
0.140989 -0.033386 0.292434
0.142540 -0.033422 0.292591
0.143786 -0.033386 0.292111
0.145260 -0.033404 0.292084
0.146879 -0.033454 0.292330
0.148272 -0.033452 0.292108
0.150048 -0.033536 0.292621
0.151370 -0.033518 0.292231
0.152538 -0.033466 0.291534
-0.129315 -0.026555 0.243469
-0.127894 -0.026499 0.243140
-0.126684 -0.026486 0.243196
-0.125592 -0.026497 0.243468
-0.123856 -0.026371 0.242471
-0.122785 -0.026386 0.242756
-0.122027 -0.026470 0.243659
-0.120245 -0.026330 0.242505
-0.119030 -0.026314 0.242469
-0.117985 -0.026335 0.242772
-0.116930 -0.026354 0.243050
-0.115886 -0.026376 0.243347
-0.114800 -0.026389 0.243549
-0.113825 -0.026428 0.243987
-0.112763 -0.026447 0.244234
-0.111607 -0.026445 0.244274
-0.110622 -0.026484 0.244684
-0.109338 -0.026451 0.244426
-0.108269 -0.026469 0.244641
-0.107329 -0.026520 0.245145
-0.106287 -0.026548 0.245423
-0.105678 -0.026684 0.246708
-0.105378 -0.026903 0.248743
-0.104910 -0.027083 0.250419
-0.104266 -0.027222 0.251702
-0.103850 -0.027424 0.253567
-0.104785 -0.027991 0.258806
-0.105023 -0.028383 0.262418
-0.104783 -0.028655 0.264905
-0.103542 -0.028655 0.264883
-0.102862 -0.028813 0.266310
-0.102372 -0.029029 0.268268
-0.105331 -0.030240 0.279417
-0.104549 -0.030394 0.280793
-0.107065 -0.031523 0.291170
-0.105822 -0.031560 0.291455
-0.103579 -0.031296 0.288955
-0.102625 -0.031420 0.290030
-0.101663 -0.031545 0.291107
-0.100057 -0.031471 0.290343
-0.098510 -0.031413 0.289732
-0.097201 -0.031431 0.289812
-0.095781 -0.031413 0.289558
-0.094405 -0.031409 0.289427
-0.093055 -0.031414 0.289378
-0.091675 -0.031408 0.289231
-0.090396 -0.031438 0.289401
-0.089125 -0.031472 0.289607
-0.087765 -0.031474 0.289521
-0.086062 -0.031352 0.288290
-0.084814 -0.031394 0.288567
-0.083369 -0.031363 0.288170
-0.084250 -0.032222 0.295937
-0.082445 -0.032064 0.294371
-0.081092 -0.032080 0.294396
-0.079704 -0.032083 0.294298
-0.078504 -0.032162 0.294901
-0.077146 -0.032179 0.294928
-0.075716 -0.032166 0.294677
-0.074564 -0.032273 0.295526
-0.073393 -0.032375 0.296331
-0.070583 -0.031744 0.290430
-0.069306 -0.031792 0.290732
-0.067360 -0.031528 0.288192
-0.066084 -0.031574 0.288477
-0.064960 -0.031695 0.289457
-0.063778 -0.031793 0.290218
-0.062492 -0.031842 0.290535
-0.061142 -0.031860 0.290570
-0.059820 -0.031895 0.290754
-0.058463 -0.031911 0.290775
-0.057118 -0.031936 0.290866
-0.055665 -0.031899 0.290401
-0.054275 -0.031898 0.290260
-0.052869 -0.031887 0.290039
-0.051463 -0.031876 0.289808
-0.050105 -0.031894 0.289848
-0.048730 -0.031903 0.289804
-0.047321 -0.031889 0.289557
-0.045936 -0.031891 0.289455
-0.044556 -0.031897 0.289389
-0.043117 -0.031859 0.288930
-0.041723 -0.031854 0.288767
-0.039998 -0.031587 0.286240
-0.039255 -0.032104 0.290812
-0.037163 -0.031515 0.285372
-0.035852 -0.031569 0.285757
-0.034510 -0.031599 0.285919
-0.029803 -0.028422 0.257089
-0.028664 -0.028520 0.257888
-0.027280 -0.028373 0.256470
-0.026130 -0.028466 0.257232
-0.025163 -0.028779 0.259975
-0.023822 -0.028674 0.258950
-0.022709 -0.028846 0.260434
-0.021459 -0.028855 0.260437
-0.020164 -0.028800 0.259877
-0.018951 -0.028864 0.260391
-0.017600 -0.028712 0.258955
-0.017152 -0.030122 0.271609
-0.015847 -0.030137 0.271687
-0.014541 -0.030151 0.271758
-0.012693 -0.028935 0.260746
-0.011367 -0.028769 0.259203
-0.010102 -0.028737 0.258876
-0.008866 -0.028790 0.259314
-0.007605 -0.028768 0.259079
-0.006353 -0.028777 0.259128
-0.005107 -0.028821 0.259502
-0.003858 -0.028881 0.260014
-0.002600 -0.028889 0.260063
-0.001343 -0.028939 0.260501
-0.000081 -0.028959 0.260664
0.001187 -0.029097 0.261897
0.002474 -0.029316 0.263861
0.003906 -0.030512 0.274623
0.005236 -0.030509 0.274601
0.006550 -0.030433 0.273921
0.007878 -0.030437 0.273966
0.009257 -0.030608 0.275514
0.010616 -0.030678 0.276166
0.011992 -0.030775 0.277054
0.013378 -0.030875 0.277979
0.014680 -0.030783 0.277175
0.016144 -0.031016 0.279304
0.017529 -0.031072 0.279848
0.018642 -0.030673 0.276294
0.019971 -0.030658 0.276203
0.020718 -0.029809 0.268599
0.022064 -0.029872 0.269206
0.023857 -0.030497 0.274896
0.024997 -0.030266 0.272871
0.026000 -0.029901 0.269635
0.026204 -0.028696 0.258823
0.027404 -0.028641 0.258390
0.028506 -0.028494 0.257123
0.029894 -0.028632 0.258436
0.031106 -0.028598 0.258192
0.032322 -0.028569 0.258007
0.033633 -0.028623 0.258568
0.034917 -0.028652 0.258905
0.036044 -0.028554 0.258098
0.037357 -0.028605 0.258637
0.038809 -0.028756 0.260084
0.040250 -0.028889 0.261373
0.041147 -0.028636 0.259166
0.042251 -0.028537 0.258358
0.043768 -0.028715 0.260057
0.044835 -0.028597 0.259073
0.046003 -0.028546 0.258708
0.047213 -0.028525 0.258605
0.048454 -0.028522 0.258675
0.049843 -0.028605 0.259518
0.051044 -0.028578 0.259367
0.052345 -0.028607 0.259725
0.053768 -0.028700 0.260666
0.055060 -0.028720 0.260948
0.056270 -0.028698 0.260843
0.058159 -0.029015 0.263824
0.060423 -0.029502 0.268352
0.062385 -0.029824 0.271384
0.063672 -0.029817 0.271419
0.064899 -0.029782 0.271205
0.066307 -0.029831 0.271746
0.067663 -0.029854 0.272059
0.068893 -0.029823 0.271870
0.070162 -0.029808 0.271838
0.071467 -0.029810 0.271948
0.072660 -0.029765 0.271635
0.074062 -0.029806 0.272107
0.075392 -0.029817 0.272301
0.076671 -0.029808 0.272312
0.078009 -0.029822 0.272525
0.079455 -0.029876 0.273107
0.080775 -0.029882 0.273245
0.082153 -0.029908 0.273571
0.083665 -0.029982 0.274326
0.085098 -0.030026 0.274806
0.086539 -0.030071 0.275294
0.087689 -0.030015 0.274855
0.089338 -0.030129 0.275970
0.095145 -0.031621 0.289712
0.096371 -0.031570 0.289313
0.099821 -0.032239 0.295509
0.100008 -0.031850 0.292003
0.101412 -0.031854 0.292098
0.102728 -0.031831 0.291934
0.103921 -0.031770 0.291429
0.105528 -0.031837 0.292079
0.106873 -0.031823 0.291991
0.108178 -0.031798 0.291796
0.109561 -0.031796 0.291806
0.110952 -0.031797 0.291835
0.112072 -0.031721 0.291154
0.113461 -0.031721 0.291172
0.114834 -0.031718 0.291145
0.116074 -0.031678 0.290779
0.117602 -0.031717 0.291129
0.118810 -0.031670 0.290681
0.120169 -0.031663 0.290601
0.122029 -0.031787 0.291713
0.123452 -0.031796 0.291757
0.124911 -0.031814 0.291879
0.126383 -0.031835 0.292017
0.127712 -0.031819 0.291817
0.129121 -0.031824 0.291794
0.130372 -0.031790 0.291406
0.131822 -0.031805 0.291458
0.133094 -0.031776 0.291106
0.134495 -0.031779 0.291031
0.136148 -0.031841 0.291484
0.137854 -0.031914 0.292030
0.139373 -0.031943 0.292157
0.140792 -0.031948 0.292062
0.142257 -0.031963 0.292048
0.143849 -0.032007 0.292280
0.145225 -0.032002 0.292056
0.146908 -0.032064 0.292431
0.147917 -0.031979 0.291455
0.149674 -0.032056 0.291942
0.151116 -0.032065 0.291792
0.152501 -0.032062 0.291517
-0.127447 -0.025031 0.239990
-0.126461 -0.025060 0.240452
-0.125165 -0.025028 0.240316
-0.124073 -0.025036 0.240557
-0.123171 -0.025083 0.241161
-0.121916 -0.025058 0.241068
-0.120781 -0.025058 0.241199
-0.119530 -0.025033 0.241088
-0.118580 -0.025072 0.241577
-0.117432 -0.025069 0.241657
-0.116458 -0.025104 0.242091
-0.115441 -0.025130 0.242432
-0.114382 -0.025147 0.242681
-0.113437 -0.025190 0.243171
-0.112417 -0.025217 0.243500
-0.111260 -0.025214 0.243527
-0.110218 -0.025237 0.243801
-0.109257 -0.025279 0.244254
-0.108339 -0.025332 0.244806
-0.107401 -0.025382 0.245318
-0.106557 -0.025455 0.246051
-0.105648 -0.025514 0.246641
-0.104916 -0.025618 0.247656
-0.104350 -0.025765 0.249085
-0.104170 -0.026011 0.251471
-0.103434 -0.026123 0.252550
-0.102871 -0.026282 0.254074
-0.104084 -0.026904 0.260068
-0.103799 -0.027148 0.262410
-0.103961 -0.027517 0.265949
-0.102908 -0.027569 0.266422
-0.102258 -0.027732 0.267959
-0.101422 -0.027848 0.269035
-0.101592 -0.028247 0.272837
-0.102053 -0.028737 0.277523
-0.103697 -0.029578 0.285584
-0.102461 -0.029609 0.285816
-0.100066 -0.029301 0.282776
-0.099097 -0.029408 0.283739
-0.097918 -0.029455 0.284114
-0.097017 -0.029588 0.285316
-0.095893 -0.029656 0.285884
-0.094790 -0.029732 0.286533
-0.093891 -0.029876 0.287823
-0.092894 -0.029992 0.288843
-0.091737 -0.030059 0.289391
-0.090440 -0.030082 0.289507
-0.089300 -0.030158 0.290138
-0.088095 -0.030215 0.290571
-0.086698 -0.030206 0.290378
-0.085426 -0.030242 0.290605
-0.084174 -0.030285 0.290910
-0.082775 -0.030277 0.290712
-0.082971 -0.030862 0.296202
-0.081224 -0.030732 0.294830
-0.079755 -0.030704 0.294436
-0.078329 -0.030691 0.294193
-0.077309 -0.030841 0.295498
-0.076215 -0.030966 0.296566
-0.074922 -0.031014 0.296890
-0.073441 -0.030983 0.296468
-0.072288 -0.031093 0.297386
-0.070980 -0.031140 0.297696
-0.067287 -0.030120 0.287819
-0.066170 -0.030236 0.288791
-0.064834 -0.030254 0.288830
-0.063677 -0.030358 0.289697
-0.062399 -0.030408 0.290041
-0.061089 -0.030444 0.290253
-0.059805 -0.030496 0.290610
-0.058482 -0.030529 0.290799
-0.057129 -0.030549 0.290850
-0.055726 -0.030541 0.290647
-0.054289 -0.030515 0.290267
-0.052897 -0.030512 0.290117
-0.051503 -0.030509 0.289958
-0.050128 -0.030517 0.289906
-0.048757 -0.030528 0.289885
-0.047405 -0.030552 0.289990
-0.046016 -0.030553 0.289879
-0.044641 -0.030564 0.289860
-0.043279 -0.030584 0.289933
-0.041876 -0.030576 0.289743
-0.039938 -0.030163 0.285722
-0.039294 -0.030734 0.291012
-0.037015 -0.030020 0.284147
-0.035830 -0.030173 0.285489
-0.034488 -0.030201 0.285652
-0.030088 -0.027442 0.259467
-0.028807 -0.027412 0.259094
-0.027587 -0.027440 0.259274
-0.026456 -0.027564 0.260355
-0.025179 -0.027539 0.260046
-0.023964 -0.027585 0.260396
-0.022780 -0.027673 0.261154
-0.021602 -0.027779 0.262081
-0.020298 -0.027726 0.261513
-0.019028 -0.027717 0.261358
-0.017751 -0.027693 0.261075
-0.017064 -0.028659 0.270117
-0.015766 -0.028674 0.270194
-0.014467 -0.028687 0.270266
-0.012884 -0.028087 0.264563
-0.011383 -0.027551 0.259472
-0.010094 -0.027460 0.258564
-0.008888 -0.027599 0.259841
-0.007608 -0.027521 0.259069
-0.006358 -0.027540 0.259212
-0.005113 -0.027592 0.259680
-0.003863 -0.027650 0.260198
-0.002609 -0.027718 0.260819
-0.001343 -0.027666 0.260311
-0.000083 -0.027871 0.262224
0.001195 -0.028038 0.263788
0.002488 -0.028204 0.265343
0.003777 -0.028228 0.265562
0.005079 -0.028315 0.266386
0.006385 -0.028378 0.266980
0.007699 -0.028451 0.267682
0.008941 -0.028278 0.266063
0.010162 -0.028089 0.264300
0.011388 -0.027953 0.263041
0.012661 -0.027950 0.263034
0.013896 -0.027871 0.262315
0.015174 -0.027883 0.262462
0.016547 -0.028055 0.264111
0.017826 -0.028054 0.264139
0.019186 -0.028172 0.265289
0.020576 -0.028316 0.266694
0.021781 -0.028203 0.265678
0.023813 -0.029115 0.274318
0.025125 -0.029097 0.274202
0.026020 -0.028620 0.269772
0.025942 -0.027171 0.256168
0.027240 -0.027230 0.256780
0.028421 -0.027171 0.256290
0.029637 -0.027149 0.256146
0.030928 -0.027195 0.256651
0.032158 -0.027186 0.256638
0.033451 -0.027229 0.257115
0.034725 -0.027253 0.257417
0.035947 -0.027237 0.257340
0.037198 -0.027243 0.257479
0.038618 -0.027368 0.258746
0.040616 -0.027882 0.263690
0.041845 -0.027853 0.263501
0.042797 -0.027647 0.261642
0.044375 -0.027845 0.263608
0.045354 -0.027667 0.262012
0.046318 -0.027490 0.260425
0.047714 -0.027572 0.261295
0.048821 -0.027486 0.260577
0.050153 -0.027528 0.261075
0.051384 -0.027515 0.261043
0.052648 -0.027519 0.261181
0.054083 -0.027610 0.262143
0.055376 -0.027626 0.262395
0.056840 -0.027725 0.263434
0.058496 -0.027911 0.265303
0.060701 -0.028346 0.269536
0.062303 -0.028487 0.270979
0.063557 -0.028466 0.270882
0.064880 -0.028476 0.271082
0.066150 -0.028464 0.271060
0.067502 -0.028485 0.271370
0.068747 -0.028462 0.271249
0.069988 -0.028439 0.271123
0.071322 -0.028453 0.271356
0.072605 -0.028446 0.271391
0.073912 -0.028450 0.271519
0.075364 -0.028508 0.272165
0.076681 -0.028513 0.272310
0.077998 -0.028519 0.272455
0.079401 -0.028555 0.272891
0.080677 -0.028545 0.272882
0.082102 -0.028587 0.273371
0.083562 -0.028640 0.273962
0.084866 -0.028639 0.274028
0.086416 -0.028719 0.274876
0.087491 -0.028642 0.274209
0.089160 -0.028758 0.275398
0.096342 -0.030624 0.293334
0.097582 -0.030574 0.292929
0.100272 -0.030974 0.296823
0.099762 -0.030388 0.291269
0.101267 -0.030423 0.291664
0.102771 -0.030457 0.292043
0.103630 -0.030301 0.290599
0.105521 -0.030447 0.292046
0.106955 -0.030460 0.292206
0.108152 -0.030405 0.291715
0.109665 -0.030440 0.292076
0.110994 -0.030423 0.291940
0.111648 -0.030224 0.290048
0.113606 -0.030378 0.291541
0.114899 -0.030353 0.291310
0.116159 -0.030320 0.290994
0.117539 -0.030319 0.290977
0.118924 -0.030319 0.290964
0.120335 -0.030326 0.291009
0.121567 -0.030288 0.290617
0.123073 -0.030318 0.290871
0.124416 -0.030307 0.290733
0.126198 -0.030403 0.291602
0.127199 -0.030311 0.290660
0.129187 -0.030453 0.291960
0.130512 -0.030438 0.291738
0.131647 -0.030379 0.291092
0.133152 -0.030406 0.291256
0.134551 -0.030408 0.291176
0.136461 -0.030524 0.292182
0.138112 -0.030581 0.292605
0.139828 -0.030651 0.293141
0.141202 -0.030645 0.292945
0.142598 -0.030645 0.292784
0.144024 -0.030650 0.292671
0.145440 -0.030653 0.292528
0.146760 -0.030637 0.292178
0.148410 -0.030688 0.292471
0.149726 -0.030671 0.292088
0.151212 -0.030688 0.292026
0.152569 -0.030679 0.291699
-0.126674 -0.023746 0.238571
-0.125479 -0.023733 0.238621
-0.124398 -0.023741 0.238874
-0.123466 -0.023778 0.239410
-0.122402 -0.023791 0.239685
-0.121411 -0.023817 0.240096
-0.120338 -0.023828 0.240340
-0.119318 -0.023850 0.240685
-0.118342 -0.023882 0.241115
-0.117469 -0.023934 0.241755
-0.116412 -0.023951 0.242015
-0.115371 -0.023970 0.242302
-0.114418 -0.024009 0.242774
-0.113420 -0.024039 0.243150
-0.112332 -0.024050 0.243330
-0.111246 -0.024062 0.243510
-0.110197 -0.024082 0.243765
-0.109232 -0.024122 0.244208
-0.108306 -0.024170 0.244740
-0.107365 -0.024217 0.245242
-0.106495 -0.024281 0.245912
-0.105682 -0.024359 0.246724
-0.104836 -0.024432 0.247471
-0.104265 -0.024570 0.248882
-0.103827 -0.024744 0.250643
-0.103199 -0.024876 0.251974
-0.102155 -0.024910 0.252302
-0.101353 -0.025004 0.253239
-0.100914 -0.025191 0.255112
-0.101396 -0.025615 0.259378
-0.100418 -0.025676 0.259964
-0.099416 -0.025733 0.260499
-0.098689 -0.025863 0.261773
-0.098322 -0.026091 0.264041
-0.102473 -0.027540 0.278650
-0.102277 -0.027843 0.281656
-0.102182 -0.028182 0.285019
-0.100415 -0.028063 0.283742
-0.098490 -0.027896 0.281979
-0.097028 -0.027857 0.281507
-0.095995 -0.027942 0.282286
-0.094967 -0.028031 0.283097
-0.093967 -0.028131 0.284016
-0.093535 -0.028406 0.286702
-0.092507 -0.028506 0.287611
-0.091566 -0.028635 0.288819
-0.090372 -0.028689 0.289257
-0.089059 -0.028706 0.289319
-0.087888 -0.028769 0.289851
-0.086768 -0.028852 0.290573
-0.085434 -0.028866 0.290595
-0.084047 -0.028861 0.290433
-0.082657 -0.028856 0.290255
-0.081564 -0.028955 0.291135
-0.081479 -0.029422 0.295706
-0.078960 -0.029011 0.291452
-0.077824 -0.029103 0.292246
-0.076743 -0.029219 0.293286
-0.075307 -0.029202 0.292982
-0.074130 -0.029286 0.293697
-0.072914 -0.029358 0.294286
-0.071521 -0.029361 0.294173
-0.070227 -0.029405 0.294481
-0.067513 -0.028843 0.288729
-0.066097 -0.028825 0.288412
-0.064783 -0.028852 0.288545
-0.063592 -0.028935 0.289248
-0.062221 -0.028939 0.289151
-0.060904 -0.028968 0.289312
-0.059641 -0.029025 0.289747
-0.058289 -0.029041 0.289773
-0.056930 -0.029053 0.289765
-0.055596 -0.029080 0.289901
-0.054265 -0.029110 0.290066
-0.052869 -0.029105 0.289892
-0.051513 -0.029123 0.289941
-0.050154 -0.029140 0.289981
-0.048735 -0.029122 0.289678
-0.047354 -0.029127 0.289599
-0.046007 -0.029153 0.289741
-0.044652 -0.029176 0.289847
-0.043263 -0.029178 0.289750
-0.041853 -0.029165 0.289502
-0.039953 -0.028798 0.285746
-0.039324 -0.029354 0.291150
-0.037009 -0.028646 0.284014
-0.035676 -0.028673 0.284175
-0.034340 -0.028699 0.284337
-0.030422 -0.026481 0.262262
-0.029116 -0.026442 0.261793
-0.027895 -0.026480 0.262083
-0.026658 -0.026506 0.262255
-0.025400 -0.026514 0.262247
-0.024140 -0.026520 0.262227
-0.022807 -0.026441 0.261374
-0.021654 -0.026575 0.262627
-0.020352 -0.026531 0.262113
-0.019024 -0.026446 0.261210
-0.017851 -0.026578 0.262447
-0.017171 -0.027522 0.271710
-0.015865 -0.027536 0.271788
-0.014558 -0.027549 0.271860
-0.012965 -0.026971 0.266109
-0.011395 -0.026319 0.259622
-0.010111 -0.026250 0.258902
-0.008895 -0.026359 0.259938
-0.007624 -0.026316 0.259475
-0.006364 -0.026301 0.259304
-0.005114 -0.026334 0.259601
-0.003862 -0.026372 0.259947
-0.002608 -0.026426 0.260455
-0.001345 -0.026407 0.260251
-0.000084 -0.026591 0.262049
0.001196 -0.026823 0.264330
0.002480 -0.026844 0.264533
0.003807 -0.027168 0.267719
0.005114 -0.027213 0.268160
0.006402 -0.027164 0.267689
0.007771 -0.027413 0.270146
0.009000 -0.027170 0.267763
0.010243 -0.027026 0.266364
0.011563 -0.027091 0.267025
0.012780 -0.026929 0.265454
0.014093 -0.026979 0.265977
0.015424 -0.027052 0.266723
0.016700 -0.027025 0.266493
0.018037 -0.027093 0.267203
0.019408 -0.027200 0.268292
0.020621 -0.027086 0.267216
0.021961 -0.027142 0.267816
0.023552 -0.027484 0.271246
0.024850 -0.027467 0.271132
0.024679 -0.025909 0.255808
0.025910 -0.025902 0.255791
0.027195 -0.025947 0.256299
0.028433 -0.025945 0.256341
0.029574 -0.025857 0.255543
0.030891 -0.025925 0.256280
0.032247 -0.026019 0.257287
0.033502 -0.026028 0.257447
0.034840 -0.026098 0.258216
0.035998 -0.026033 0.257650
0.037210 -0.026010 0.257505
0.038616 -0.026120 0.258672
0.041106 -0.026933 0.266809
0.042349 -0.026904 0.266617
0.043392 -0.026754 0.265222
0.044839 -0.026854 0.266307
0.046263 -0.026936 0.267210
0.047432 -0.026868 0.266634
0.048567 -0.026786 0.265909
0.049877 -0.026801 0.266159
0.051243 -0.026845 0.266698
0.052296 -0.026727 0.265623
0.053391 -0.026636 0.264813
0.054765 -0.026684 0.265399
0.055867 -0.026601 0.264672
0.057126 -0.026595 0.264711
0.058878 -0.026814 0.266990
0.060919 -0.027152 0.270459
0.062404 -0.027233 0.271369
0.063536 -0.027160 0.270747
0.064935 -0.027202 0.271266
0.066270 -0.027216 0.271509
0.067507 -0.027190 0.271348
0.068783 -0.027180 0.271354
0.070061 -0.027171 0.271365
0.071344 -0.027165 0.271402
0.072666 -0.027173 0.271585
0.073972 -0.027175 0.271703
0.075383 -0.027215 0.272197
0.076795 -0.027254 0.272682
0.078057 -0.027240 0.272627
0.079402 -0.027254 0.272860
0.080843 -0.027301 0.273415
0.082173 -0.027308 0.273578
0.083543 -0.027329 0.273871
0.084924 -0.027353 0.274190
0.086427 -0.027414 0.274888
0.087438 -0.027320 0.274019
0.089052 -0.027415 0.275041
0.095047 -0.028836 0.289371
0.096271 -0.028789 0.288971
0.100125 -0.029519 0.296367
0.099893 -0.029041 0.291632
0.101350 -0.029060 0.291886
0.102773 -0.029070 0.292032
0.103987 -0.029020 0.291587
0.105394 -0.029025 0.291683
0.106673 -0.028995 0.291423
0.108156 -0.029021 0.291719
0.109471 -0.029002 0.291553
0.110812 -0.028989 0.291454
0.111926 -0.028919 0.290764
0.114882 -0.029320 0.294813
0.115882 -0.029218 0.293800
0.117057 -0.029163 0.293244
0.118396 -0.029149 0.293100
0.119280 -0.029025 0.291839
0.120454 -0.028973 0.291301
0.121895 -0.028986 0.291408
0.123218 -0.028971 0.291224
0.124767 -0.029008 0.291563
0.126180 -0.029014 0.291573
0.127739 -0.029053 0.291907
0.128956 -0.029014 0.291453
0.130445 -0.029036 0.291606
0.132091 -0.029093 0.292092
0.133302 -0.029053 0.291606
0.134735 -0.029062 0.291597
0.136310 -0.029102 0.291884
0.137647 -0.029090 0.291646
0.139319 -0.029149 0.292105
0.140786 -0.029163 0.292112
0.142478 -0.029224 0.292570
0.143731 -0.029195 0.292113
0.145049 -0.029179 0.291779
0.147204 -0.029330 0.293102
0.147903 -0.029191 0.291514
0.149763 -0.029281 0.292206
0.151307 -0.029309 0.292256
0.152911 -0.029348 0.292402
-0.126147 -0.022519 0.237612
-0.125241 -0.022557 0.238199
-0.123952 -0.022527 0.238050
-0.122966 -0.022552 0.238469
-0.121955 -0.022572 0.238838
-0.120981 -0.022600 0.239272
-0.119828 -0.022595 0.239346
-0.118788 -0.022611 0.239638
-0.117906 -0.022658 0.240247
-0.116912 -0.022684 0.240628
-0.115998 -0.022726 0.241172
-0.115044 -0.022761 0.241634
-0.114141 -0.022807 0.242202
-0.113261 -0.022859 0.242823
-0.112300 -0.022895 0.243272
-0.111292 -0.022923 0.243621
-0.110235 -0.022940 0.243859
-0.109262 -0.022976 0.244284
-0.108351 -0.023026 0.244848
-0.107416 -0.023072 0.245364
-0.106469 -0.023116 0.245858
-0.105642 -0.023187 0.246634
-0.104946 -0.023289 0.247732
-0.104563 -0.023464 0.249595
-0.104251 -0.023659 0.251664
-0.103378 -0.023729 0.252409
-0.102701 -0.023847 0.253647
-0.101839 -0.023924 0.254449
-0.101337 -0.024088 0.256173
-0.100318 -0.024132 0.256613
-0.100312 -0.024424 0.259682
-0.098419 -0.024258 0.257877
-0.098611 -0.024608 0.261554
-0.098139 -0.024799 0.263538
-0.098026 -0.025087 0.266542
-0.103270 -0.026771 0.284374
-0.102107 -0.026817 0.284790
-0.100758 -0.026814 0.284693
-0.099032 -0.026710 0.283509
-0.096714 -0.026441 0.280574
-0.095550 -0.026484 0.280953
-0.094834 -0.026655 0.282675
-0.093389 -0.026622 0.282242
-0.093264 -0.026971 0.285843
-0.092358 -0.027100 0.287116
-0.091605 -0.027279 0.288910
-0.090300 -0.027297 0.288992
-0.088996 -0.027315 0.289080
-0.087920 -0.027405 0.289923
-0.086699 -0.027452 0.290306
-0.085471 -0.027499 0.290681
-0.084208 -0.027535 0.290946
-0.082723 -0.027499 0.290447
-0.081450 -0.027534 0.290687
-0.079612 -0.027375 0.288886
-0.079720 -0.027892 0.294214
-0.078450 -0.027936 0.294551
-0.077401 -0.028062 0.295750
-0.076229 -0.028147 0.296518
-0.074455 -0.028010 0.294932
-0.073455 -0.028163 0.296417
-0.075064 -0.029343 0.308691
-0.073743 -0.029402 0.309165
-0.067662 -0.027526 0.289308
-0.066241 -0.027508 0.288982
-0.064869 -0.027509 0.288867
-0.063684 -0.027593 0.289606
-0.062327 -0.027603 0.289583
-0.060962 -0.027610 0.289523
-0.059732 -0.027680 0.290124
-0.058289 -0.027653 0.289704
-0.056957 -0.027679 0.289840
-0.055576 -0.027681 0.289732
-0.054242 -0.027707 0.289875
-0.052896 -0.027728 0.289966
-0.051527 -0.027739 0.289944
-0.050175 -0.027759 0.290033
-0.048819 -0.027778 0.290104
-0.047445 -0.027788 0.290084
-0.046066 -0.027796 0.290041
-0.044731 -0.027831 0.290287
-0.043291 -0.027801 0.289854
-0.041828 -0.027755 0.289251
-0.040137 -0.027548 0.286983
-0.039353 -0.027972 0.291283
-0.036978 -0.027254 0.283698
-0.035659 -0.027289 0.283958
-0.033719 -0.026833 0.279110
-0.030284 -0.025101 0.260999
-0.029216 -0.025265 0.262614
-0.027936 -0.025252 0.262389
-0.026679 -0.025260 0.262385
-0.025433 -0.025279 0.262503
-0.024164 -0.025276 0.262397
-0.022951 -0.025336 0.262937
-0.021681 -0.025336 0.262866
-0.020324 -0.025228 0.261671
-0.019103 -0.025286 0.262203
-0.017897 -0.025373 0.263042
-0.017066 -0.026044 0.269944
-0.015770 -0.026062 0.270064
-0.012976 -0.025702 0.266234
-0.011488 -0.025265 0.261661
-0.010096 -0.024955 0.258404
-0.008884 -0.025066 0.259514
-0.007614 -0.025023 0.259035
-0.006354 -0.025000 0.258767
-0.005098 -0.024994 0.258669
-0.003853 -0.025046 0.259185
-0.002602 -0.025093 0.259655
-0.001341 -0.025050 0.259189
-0.000085 -0.025202 0.260745
0.001191 -0.025450 0.263298
0.002487 -0.025647 0.265336
0.003809 -0.025890 0.267845
0.005256 -0.026638 0.275590
0.006406 -0.025886 0.267815
0.007775 -0.026123 0.270274
0.009005 -0.025892 0.267890
0.010250 -0.025755 0.266489
0.011570 -0.025817 0.267151
0.012789 -0.025662 0.265579
0.014103 -0.025710 0.266102
0.015434 -0.025779 0.266848
0.016712 -0.025754 0.266618
0.018049 -0.025819 0.267328
0.019471 -0.025986 0.269101
0.020764 -0.025972 0.269005
0.021814 -0.025673 0.265959
0.023568 -0.026191 0.271372
0.024672 -0.024665 0.255675
0.026024 -0.024774 0.256858
0.027321 -0.024822 0.257421
0.028554 -0.024811 0.257366
0.029746 -0.024766 0.256970
0.031061 -0.024824 0.257640
0.032356 -0.024861 0.258095
0.033619 -0.024872 0.258283
0.034835 -0.024849 0.258121
0.036130 -0.024881 0.258538
0.037365 -0.024872 0.258520
0.038810 -0.024998 0.259912
0.041578 -0.025942 0.269820
0.042836 -0.025914 0.269626
0.044186 -0.025943 0.270018
0.045169 -0.025761 0.268214
0.046598 -0.025836 0.269089
0.047853 -0.025813 0.268947
0.049042 -0.025757 0.268458
0.050323 -0.025750 0.268491
0.051728 -0.025806 0.269169
0.052795 -0.025694 0.268110
0.054093 -0.025698 0.268247
0.055313 -0.025665 0.268008
0.056406 -0.025576 0.267180
0.057766 -0.025609 0.267633
0.059145 -0.025649 0.268153
0.061076 -0.025922 0.271112
0.062301 -0.025890 0.270877
0.063644 -0.025907 0.271165
0.064990 -0.025925 0.271453
0.066240 -0.025905 0.271343
0.067535 -0.025902 0.271423
0.068768 -0.025876 0.271252
0.070014 -0.025857 0.271146
0.071304 -0.025853 0.271211
0.072584 -0.025847 0.271242
0.073951 -0.025871 0.271589
0.075347 -0.025904 0.272035
0.076725 -0.025930 0.272402
0.078075 -0.025945 0.272658
0.079443 -0.025966 0.272973
0.080803 -0.025984 0.273251
0.082149 -0.025997 0.273472
0.083461 -0.025999 0.273575
0.084848 -0.026024 0.273919
0.086342 -0.026080 0.274591
0.087452 -0.026020 0.274040
0.089025 -0.026098 0.274936
0.096014 -0.027739 0.292293
0.097249 -0.027693 0.291889
0.098865 -0.027756 0.292620
0.099666 -0.027592 0.290952
0.101333 -0.027669 0.291820
0.102822 -0.027695 0.292157
0.103848 -0.027598 0.291183
0.105276 -0.027609 0.291345
0.106545 -0.027578 0.291065
0.107837 -0.027554 0.290848
0.109226 -0.027555 0.290893
0.110931 -0.027635 0.291763
0.111844 -0.027518 0.290548
0.113090 -0.027485 0.290213
0.115004 -0.027613 0.291573
0.116397 -0.027614 0.291590
0.117675 -0.027588 0.291315
0.119147 -0.027608 0.291517
0.120403 -0.027578 0.291182
0.121481 -0.027509 0.290423
0.122956 -0.027529 0.290613
0.124270 -0.027514 0.290411
0.126564 -0.027714 0.292474
0.127281 -0.027567 0.290875
0.128681 -0.027570 0.290846
0.130442 -0.027650 0.291616
0.131805 -0.027645 0.291479
0.133216 -0.027649 0.291437
0.134764 -0.027681 0.291682
0.136221 -0.027695 0.291717
0.137647 -0.027702 0.291672
0.139218 -0.027738 0.291919
0.140874 -0.027789 0.292324
0.142657 -0.027865 0.292970
0.144086 -0.027870 0.292866
0.145537 -0.027880 0.292796
0.146910 -0.027875 0.292554
0.148341 -0.027880 0.292417
0.149511 -0.027837 0.291755
0.151007 -0.027855 0.291720
0.152578 -0.027886 0.291810
-0.126023 -0.021369 0.237412
-0.124929 -0.021373 0.237638
-0.123759 -0.021365 0.237708
-0.122652 -0.021367 0.237889
-0.121682 -0.021393 0.238328
-0.120729 -0.021423 0.238798
-0.119658 -0.021432 0.239030
-0.118656 -0.021454 0.239394
-0.117824 -0.021507 0.240102
-0.116874 -0.021540 0.240569
-0.115877 -0.021564 0.240938
-0.114975 -0.021607 0.241503
-0.114053 -0.021647 0.242030
-0.113076 -0.021678 0.242439
-0.112055 -0.021700 0.242755
-0.111043 -0.021725 0.243087
-0.110017 -0.021747 0.243388
-0.109099 -0.021792 0.243927
-0.108218 -0.021845 0.244556
-0.107315 -0.021894 0.245138
-0.106566 -0.021977 0.246086
-0.105801 -0.022058 0.247009
-0.104961 -0.022125 0.247768
-0.104287 -0.022229 0.248935
-0.103868 -0.022390 0.250741
-0.103226 -0.022506 0.252036
-0.102501 -0.022607 0.253149
-0.101569 -0.022664 0.253770
-0.101236 -0.022858 0.255913
-0.100559 -0.022977 0.257222
-0.099855 -0.023094 0.258489
-0.099315 -0.023251 0.260215
-0.098844 -0.023429 0.262161
-0.098359 -0.023608 0.264114
-0.097681 -0.023745 0.265590
-0.097562 -0.024023 0.268641
-0.097066 -0.024214 0.270714
-0.100737 -0.025464 0.284614
-0.098306 -0.025184 0.281409
-0.096645 -0.025097 0.280352
-0.095345 -0.025102 0.280328
-0.094368 -0.025193 0.281262
-0.093243 -0.025248 0.281776
-0.092447 -0.025394 0.283310
-0.091983 -0.025636 0.285922
-0.091075 -0.025761 0.287209
-0.090023 -0.025848 0.288074
-0.088856 -0.025904 0.288591
-0.087682 -0.025960 0.289104
-0.086611 -0.026049 0.289977
-0.085410 -0.026101 0.290438
-0.084116 -0.026125 0.290590
-0.082933 -0.026186 0.291144
-0.081070 -0.026031 0.289291
-0.079964 -0.026117 0.290122
-0.079237 -0.026332 0.292387
-0.078140 -0.026430 0.293341
-0.076782 -0.026441 0.293339
-0.075711 -0.026554 0.294456
-0.074381 -0.026578 0.294590
-0.073100 -0.026621 0.294933
-0.072040 -0.026748 0.296203
-0.073786 -0.027943 0.309290
-0.067709 -0.026163 0.289458
-0.066349 -0.026170 0.289402
-0.064976 -0.026173 0.289290
-0.063662 -0.026199 0.289447
-0.062401 -0.026249 0.289864
-0.061012 -0.026247 0.289704
-0.059689 -0.026273 0.289857
-0.058332 -0.026285 0.289857
-0.056947 -0.026285 0.289726
-0.055641 -0.026323 0.290005
-0.054270 -0.026330 0.289956
-0.052890 -0.026334 0.289870
-0.051508 -0.026337 0.289769
-0.050237 -0.026399 0.290321
-0.048828 -0.026389 0.290087
-0.047464 -0.026404 0.290127
-0.046157 -0.026453 0.290537
-0.044756 -0.026450 0.290376
-0.043368 -0.026454 0.290300
-0.041856 -0.026379 0.289365
-0.040611 -0.026475 0.290296
-0.039255 -0.026502 0.290480
-0.037070 -0.025951 0.284329
-0.035656 -0.025917 0.283853
-0.034499 -0.026076 0.285487
-0.030415 -0.023943 0.262048
-0.029214 -0.023995 0.262518
-0.027989 -0.024030 0.262809
-0.026675 -0.023987 0.262263
-0.025450 -0.024026 0.262605
-0.024226 -0.024069 0.262994
-0.022801 -0.023907 0.261139
-0.021671 -0.024053 0.262660
-0.020377 -0.024024 0.262274
-0.019099 -0.024010 0.262060
-0.017813 -0.023985 0.261720
-0.017066 -0.024737 0.269856
-0.015776 -0.024761 0.270062
-0.013534 -0.025462 0.277592
-0.011527 -0.024076 0.262441
-0.010111 -0.023736 0.258685
-0.008863 -0.023750 0.258803
-0.007616 -0.023771 0.258994
-0.006355 -0.023746 0.258692
-0.005104 -0.023760 0.258818
-0.003860 -0.023826 0.259506
-0.002611 -0.023910 0.260402
-0.001348 -0.023901 0.260282
-0.000086 -0.023992 0.261266
0.001199 -0.024359 0.265245
0.002493 -0.024436 0.266081
0.003921 -0.025323 0.275736
0.005258 -0.025321 0.275714
0.006314 -0.024238 0.263928
0.007443 -0.023755 0.258684
0.008705 -0.023774 0.258904
0.010019 -0.023914 0.260442
0.011224 -0.023790 0.259109
0.012487 -0.023803 0.259273
0.013809 -0.023914 0.260506
0.015076 -0.023920 0.260603
0.016357 -0.023944 0.260900
0.017744 -0.024110 0.262753
0.019102 -0.024217 0.263958
0.020401 -0.024240 0.264248
0.021727 -0.024290 0.264843
0.024819 -0.023570 0.257151
0.026031 -0.023539 0.256875
0.027340 -0.023595 0.257545
0.028545 -0.023560 0.257231
0.029774 -0.023547 0.257163
0.031092 -0.023603 0.257839
0.032378 -0.023630 0.258214
0.033634 -0.023635 0.258342
0.034914 -0.023656 0.258649
0.036179 -0.023666 0.258834
0.037423 -0.023661 0.258864
0.039083 -0.023911 0.261687
0.041995 -0.024888 0.272470
0.043265 -0.024862 0.272274
0.044318 -0.024716 0.270769
0.045523 -0.024661 0.270260
0.047101 -0.024806 0.271943
0.048328 -0.024762 0.271565
0.049466 -0.024676 0.270726
0.050784 -0.024683 0.270896
0.052015 -0.024648 0.270614
0.052914 -0.024461 0.268664
0.054172 -0.024445 0.268590
0.055317 -0.024380 0.267980
0.056401 -0.024292 0.267112
0.057923 -0.024392 0.268315
0.059426 -0.024479 0.269383
0.061250 -0.024693 0.271841
0.062512 -0.024676 0.271756
0.063688 -0.024625 0.271310
0.065017 -0.024636 0.271527
0.066303 -0.024629 0.271562
0.067590 -0.024624 0.271605
0.068823 -0.024599 0.271433
0.070036 -0.024568 0.271195
0.071441 -0.024604 0.271697
0.072976 -0.024684 0.272673
0.074141 -0.024637 0.272256
0.075487 -0.024651 0.272506
0.077225 -0.024790 0.274146
0.078474 -0.024770 0.274022
0.079646 -0.024728 0.273641
0.081256 -0.024820 0.274752
0.082484 -0.024795 0.274561
0.083694 -0.024764 0.274312
0.085081 -0.024787 0.274646
0.086459 -0.024806 0.274940
0.087402 -0.024702 0.273863
0.088839 -0.024738 0.274339
0.095204 -0.026126 0.289804
0.096428 -0.026083 0.289403
0.098822 -0.026353 0.292474
0.099749 -0.026231 0.291176
0.100937 -0.026179 0.290664
0.102641 -0.026260 0.291627
0.104146 -0.026290 0.292007
0.105102 -0.026182 0.290853
0.106451 -0.026173 0.290798
0.107808 -0.026166 0.290763
0.109253 -0.026181 0.290956
0.110908 -0.026245 0.291696
0.111633 -0.026089 0.289994
0.113349 -0.026167 0.290875
0.114874 -0.026199 0.291242
0.116081 -0.026159 0.290798
0.117302 -0.026123 0.290393
0.118672 -0.026120 0.290358
0.119924 -0.026092 0.290029
0.121457 -0.026125 0.290372
0.122808 -0.026118 0.290270
0.124270 -0.026135 0.290421
0.125735 -0.026152 0.290568
0.126821 -0.026091 0.289834
0.128607 -0.026174 0.290693
0.130209 -0.026217 0.291109
0.131896 -0.026277 0.291696
0.133061 -0.026233 0.291117
0.135069 -0.026354 0.292364
0.136629 -0.026386 0.292612
0.138119 -0.026404 0.292696
0.139394 -0.026381 0.292314
0.141113 -0.026441 0.292849
0.142655 -0.026468 0.292995
0.144140 -0.026484 0.293008
0.145606 -0.026495 0.292967
0.147321 -0.026552 0.293408
0.148605 -0.026530 0.292973
0.149749 -0.026485 0.292259
0.151180 -0.026490 0.292095
0.152574 -0.026489 0.291846
-0.125740 -0.020196 0.236908
-0.124669 -0.020204 0.237172
-0.123598 -0.020211 0.237425
-0.122672 -0.020243 0.237953
-0.121633 -0.020256 0.238257
-0.120590 -0.020269 0.238547
-0.119519 -0.020277 0.238774
-0.118542 -0.020302 0.239184
-0.117533 -0.020322 0.239527
-0.116652 -0.020364 0.240129
-0.115823 -0.020417 0.240841
-0.114894 -0.020453 0.241348
-0.113904 -0.020478 0.241728
-0.113053 -0.020529 0.242402
-0.112122 -0.020567 0.242910
-0.111134 -0.020595 0.243296
-0.110085 -0.020612 0.243547
-0.109127 -0.020647 0.243998
-0.108193 -0.020687 0.244504
-0.107255 -0.020727 0.245007
-0.106372 -0.020779 0.245641
-0.105524 -0.020839 0.246364
-0.104672 -0.020899 0.247087
-0.103999 -0.020997 0.248248
-0.103503 -0.021134 0.249858
-0.103016 -0.021275 0.251519
-0.102361 -0.021385 0.252801
-0.101433 -0.021439 0.253426
-0.100657 -0.021527 0.254444
-0.100265 -0.021701 0.256464
-0.099991 -0.021904 0.258834
-0.099595 -0.022086 0.260939
-0.098977 -0.022222 0.262504
-0.098136 -0.022311 0.263505
-0.097872 -0.022536 0.266098
-0.097821 -0.022815 0.269338
-0.097840 -0.023119 0.272857
-0.099547 -0.023835 0.281234
-0.098211 -0.023832 0.281118
-0.096598 -0.023760 0.280196
-0.095419 -0.023795 0.280523
-0.094258 -0.023835 0.280911
-0.093168 -0.023895 0.281524
-0.092012 -0.023940 0.281953
-0.091557 -0.024170 0.284570
-0.090652 -0.024288 0.285848
-0.089745 -0.024408 0.287154
-0.088668 -0.024485 0.287952
-0.087534 -0.024548 0.288581
-0.086461 -0.024631 0.289441
-0.085417 -0.024725 0.290425
-0.084141 -0.024753 0.290640
-0.082874 -0.024786 0.290900
-0.081599 -0.024817 0.291138
-0.080301 -0.024842 0.291305
-0.079176 -0.024922 0.292118
-0.077694 -0.024891 0.291626
-0.076831 -0.025061 0.293481
-0.075727 -0.025157 0.294473
-0.074172 -0.025104 0.293715
-0.073040 -0.025194 0.294643
-0.072084 -0.025351 0.296335
-0.073827 -0.026482 0.309409
-0.067750 -0.024796 0.289581
-0.066349 -0.024788 0.289347
-0.065026 -0.024809 0.289461
-0.063663 -0.024816 0.289398
-0.062381 -0.024855 0.289719
-0.061012 -0.024860 0.289643
-0.059643 -0.024866 0.289576
-0.058245 -0.024860 0.289368
-0.056880 -0.024868 0.289325
-0.055579 -0.024904 0.289621
-0.054177 -0.024897 0.289396
-0.052776 -0.024889 0.289178
-0.051514 -0.024949 0.289739
-0.050116 -0.024944 0.289555
-0.048777 -0.024969 0.289719
-0.047426 -0.024989 0.289827
-0.044750 -0.025049 0.290266
-0.043369 -0.025056 0.290235
-0.041708 -0.024898 0.288276
-0.040306 -0.024887 0.288041
-0.038960 -0.024913 0.288224
-0.037100 -0.024599 0.284481
-0.035706 -0.024583 0.284183
-0.034513 -0.024708 0.285532
-0.030276 -0.022575 0.260784
-0.028985 -0.022549 0.260388
-0.027737 -0.022555 0.260370
-0.026553 -0.022616 0.260995
-0.025302 -0.022624 0.261002
-0.024058 -0.022639 0.261093
-0.022817 -0.022660 0.261252
-0.021623 -0.022731 0.262000
-0.020342 -0.022714 0.261738
-0.019136 -0.022785 0.262484
-0.017928 -0.022864 0.263325
-0.017216 -0.023635 0.272145
-0.015907 -0.023648 0.272228
-0.015080 -0.024443 0.281321
-0.013545 -0.024134 0.277710
-0.012205 -0.024143 0.277772
-0.009950 -0.022122 0.254478
-0.008765 -0.022245 0.255846
-0.007507 -0.022191 0.255193
-0.006280 -0.022226 0.255562
-0.005045 -0.022241 0.255713
-0.003825 -0.022356 0.257009
-0.002579 -0.022363 0.257069
-0.001329 -0.022304 0.256365
-0.000087 -0.022643 0.260254
0.001201 -0.023137 0.265919
0.002491 -0.023137 0.265910
0.005261 -0.024000 0.275832
0.006278 -0.022833 0.262425
0.007438 -0.022489 0.258483
0.008717 -0.022553 0.259230
0.009996 -0.022600 0.259787
0.011216 -0.022520 0.258887
0.012503 -0.022576 0.259550
0.013771 -0.022589 0.259732
0.015044 -0.022609 0.259994
0.016349 -0.022671 0.260735
0.017632 -0.022694 0.261035
0.018912 -0.022710 0.261267
0.020376 -0.022932 0.263864
0.021669 -0.022947 0.264088
0.024498 -0.023201 0.267113
0.025011 -0.022498 0.259079
0.026200 -0.022441 0.258487
0.027486 -0.022469 0.258871
0.028664 -0.022410 0.258254
0.029971 -0.022452 0.258808
0.031216 -0.022446 0.258816
0.032560 -0.022509 0.259615
0.033820 -0.022512 0.259721
0.034948 -0.022429 0.258848
0.036241 -0.022455 0.259222
0.037599 -0.022518 0.260033
0.039094 -0.022656 0.261712
0.040376 -0.022666 0.261912
0.041688 -0.022691 0.262299
0.043104 -0.022770 0.263303
0.044541 -0.022856 0.264384
0.045841 -0.022868 0.264619
0.047223 -0.022919 0.265309
0.048407 -0.022874 0.264886
0.049590 -0.022831 0.264484
0.050999 -0.022891 0.265283
0.052147 -0.022834 0.264724
0.053337 -0.022798 0.264405
0.054653 -0.022816 0.264716
0.055854 -0.022786 0.264475
0.057519 -0.022943 0.266401
0.059472 -0.023205 0.269550
0.061100 -0.023332 0.271134
0.062438 -0.023345 0.271390
0.063621 -0.023301 0.270986
0.065020 -0.023336 0.271498
0.066338 -0.023342 0.271667
0.067586 -0.023323 0.271551
0.068832 -0.023304 0.271434
0.070163 -0.023314 0.271653
0.071548 -0.023341 0.272071
0.073174 -0.023444 0.273376
0.074528 -0.023458 0.273644
0.075917 -0.023483 0.274030
0.077276 -0.023497 0.274296
0.078517 -0.023476 0.274145
0.079793 -0.023466 0.274118
0.080868 -0.023398 0.273414
0.081957 -0.023336 0.272781
0.083041 -0.023274 0.272148
0.084394 -0.023289 0.272406
0.085631 -0.023272 0.272285
0.086701 -0.023210 0.271645
0.088367 -0.023308 0.272864
0.097487 -0.024978 0.292564
0.098720 -0.024937 0.292154
0.099742 -0.024844 0.291140
0.101364 -0.024902 0.291878
0.102793 -0.024911 0.292046
0.103947 -0.024855 0.291436
0.105419 -0.024875 0.291717
0.106540 -0.024812 0.291030
0.107913 -0.024809 0.291037
0.109294 -0.024808 0.291059
0.110751 -0.024824 0.291276
0.112054 -0.024806 0.291084
0.113373 -0.024791 0.290933
0.115280 -0.024904 0.292270
0.116483 -0.024864 0.291805
0.117646 -0.024817 0.291246
0.119031 -0.024816 0.291236
0.120320 -0.024797 0.290991
0.121441 -0.024743 0.290338
0.122807 -0.024740 0.290273
0.124136 -0.024729 0.290117
0.125654 -0.024756 0.290390
0.127262 -0.024800 0.290854
0.128962 -0.024861 0.291508
0.130373 -0.024865 0.291492
0.131917 -0.024895 0.291757
0.133196 -0.024874 0.291430
0.134752 -0.024905 0.291697
0.136286 -0.024931 0.291898
0.137687 -0.024933 0.291803
0.139106 -0.024937 0.291734
0.140513 -0.024940 0.291629
0.142389 -0.025025 0.292476
0.143969 -0.025057 0.292689
0.145415 -0.025065 0.292614
0.146780 -0.025059 0.292363
0.148372 -0.025092 0.292550
0.149549 -0.025054 0.291906
0.151140 -0.025086 0.292057
0.152604 -0.025096 0.291943
-0.125586 -0.019048 0.236647
-0.124612 -0.019070 0.237090
-0.123523 -0.019074 0.237307
-0.122602 -0.019104 0.237841
-0.121657 -0.019131 0.238326
-0.120620 -0.019145 0.238626
-0.119564 -0.019155 0.238884
-0.118576 -0.019177 0.239271
-0.117611 -0.019202 0.239703
-0.116572 -0.019217 0.239982
-0.115591 -0.019241 0.240375
-0.114541 -0.019254 0.240622
-0.113519 -0.019272 0.240923
-0.112634 -0.019314 0.241516
-0.111662 -0.019342 0.241925
-0.110759 -0.019382 0.242484
-0.109796 -0.019413 0.242914
-0.108860 -0.019449 0.243406
-0.107988 -0.019497 0.244047
-0.107092 -0.019543 0.244640
-0.106278 -0.019604 0.245428
-0.105432 -0.019661 0.246152
-0.104684 -0.019737 0.247116
-0.103947 -0.019817 0.248124
-0.103367 -0.019930 0.249527
-0.103007 -0.020088 0.251496
-0.102448 -0.020210 0.253012
-0.101673 -0.020292 0.254020
-0.100820 -0.020361 0.254849
-0.100274 -0.020493 0.256481
-0.099563 -0.020595 0.257719
-0.099612 -0.020859 0.260975
-0.099040 -0.020997 0.262660
-0.098630 -0.021174 0.264819
-0.098105 -0.021330 0.266717
-0.097817 -0.021543 0.269312
-0.097646 -0.021787 0.272300
-0.097480 -0.022039 0.275377
-0.097928 -0.022438 0.280289
-0.096482 -0.022409 0.279838
-0.095339 -0.022450 0.280268
-0.094262 -0.022508 0.280901
-0.093113 -0.022550 0.281334
-0.092064 -0.022618 0.282086
-0.091412 -0.022787 0.284095
-0.090692 -0.022944 0.285947
-0.089854 -0.023075 0.287476
-0.088710 -0.023131 0.288056
-0.087551 -0.023184 0.288609
-0.086484 -0.023264 0.289486
-0.085339 -0.023325 0.290126
-0.084081 -0.023357 0.290400
-0.082883 -0.023406 0.290896
-0.081725 -0.023469 0.291550
-0.080350 -0.023471 0.291443
-0.078390 -0.023299 0.289178
-0.078282 -0.023681 0.293792
-0.077050 -0.023731 0.294275
-0.076298 -0.023933 0.296646
-0.074407 -0.023779 0.294604
-0.073229 -0.023851 0.295359
-0.072786 -0.024171 0.299173
-0.073169 -0.024782 0.306598
-0.067571 -0.023352 0.288768
-0.066436 -0.023437 0.289678
-0.065054 -0.023436 0.289534
-0.063529 -0.023383 0.288738
-0.062284 -0.023432 0.289214
-0.060934 -0.023444 0.289222
-0.059581 -0.023455 0.289221
-0.058224 -0.023465 0.289208
-0.056908 -0.023492 0.289406
-0.055528 -0.023494 0.289295
-0.054273 -0.023550 0.289852
-0.052914 -0.023563 0.289874
-0.051517 -0.023559 0.289693
-0.050368 -0.023671 0.290949
-0.048857 -0.023615 0.290127
-0.047498 -0.023632 0.290203
-0.046106 -0.023632 0.290083
-0.042975 -0.023444 0.287526
-0.041945 -0.023642 0.289845
-0.040026 -0.023336 0.285973
-0.038690 -0.023360 0.286155
-0.037038 -0.023188 0.283937
-0.035716 -0.023218 0.284190
-0.034464 -0.023297 0.285052
-0.030475 -0.021456 0.262429
-0.028940 -0.021257 0.259913
-0.027696 -0.021265 0.259918
-0.026641 -0.021426 0.261792
-0.025244 -0.021312 0.260326
-0.023997 -0.021322 0.260357
-0.022829 -0.021406 0.261311
-0.021596 -0.021436 0.261603
-0.020366 -0.021472 0.261971
-0.019198 -0.021584 0.263263
-0.017970 -0.021639 0.263866
-0.016996 -0.022030 0.268577
-0.015832 -0.022222 0.270851
-0.015091 -0.023095 0.281435
-0.013708 -0.023061 0.280968
-0.012482 -0.023312 0.283977
-0.011054 -0.023204 0.282615
-0.009685 -0.023205 0.282580
-0.008299 -0.023160 0.281989
-0.006896 -0.023040 0.280501
-0.005545 -0.023079 0.280936
-0.004184 -0.023088 0.281019
-0.002811 -0.023007 0.280013
-0.001446 -0.022904 0.278738
-0.000094 -0.022999 0.279881
0.006209 -0.021326 0.259506
0.007450 -0.021273 0.258875
0.008723 -0.021313 0.259372
0.009975 -0.021298 0.259206
0.011214 -0.021261 0.258782
0.012480 -0.021279 0.259024
0.013752 -0.021302 0.259333
0.015015 -0.021309 0.259450
0.016301 -0.021344 0.259912
0.017554 -0.021335 0.259838
0.018852 -0.021378 0.260396
0.020226 -0.021495 0.261876
0.021819 -0.021818 0.265854
0.023232 -0.021935 0.267333
0.024512 -0.021921 0.267220
0.025322 -0.021509 0.262253
0.026366 -0.021325 0.260077
0.027667 -0.021357 0.260524
0.028931 -0.021358 0.260601
0.030095 -0.021289 0.259829
0.031492 -0.021383 0.261047
0.032766 -0.021390 0.261210
0.034054 -0.021405 0.261471
0.035400 -0.021453 0.262144
0.036657 -0.021447 0.262149
0.038119 -0.021557 0.263581
0.039559 -0.021647 0.264772
0.041164 -0.021820 0.266974
0.042636 -0.021914 0.268217
0.044226 -0.022061 0.270108
0.045330 -0.021964 0.269018
0.046907 -0.022095 0.270721
0.048156 -0.022069 0.270503
0.048959 -0.021845 0.267859
0.050386 -0.021904 0.268680
0.051510 -0.021832 0.267895
0.052848 -0.021851 0.268239
0.054137 -0.021850 0.268331
0.055145 -0.021738 0.267059
0.056113 -0.021616 0.265664
0.057679 -0.021724 0.267100
0.059330 -0.021860 0.268869
0.061058 -0.022017 0.270907
0.062429 -0.022041 0.271315
0.063732 -0.022041 0.271421
0.064991 -0.022026 0.271342
0.066289 -0.022024 0.271431
0.067540 -0.022008 0.271331
0.068777 -0.021987 0.271183
0.070012 -0.021967 0.271036
0.071506 -0.022027 0.271880
0.073208 -0.022148 0.273475
0.074563 -0.022161 0.273742
0.077537 -0.022647 0.279847
0.078753 -0.022612 0.279510
0.080376 -0.022693 0.280606
0.081588 -0.022657 0.280259
0.082537 -0.022550 0.279032
0.082994 -0.022314 0.276206
0.083921 -0.022210 0.275010
0.084830 -0.022105 0.273791
0.085602 -0.021968 0.272173
0.086459 -0.021856 0.270868
0.087888 -0.021890 0.271363
0.095888 -0.023536 0.291847
0.097120 -0.023497 0.291442
0.100707 -0.024021 0.298018
0.101683 -0.023917 0.296790
0.100959 -0.023421 0.290698
0.102575 -0.023473 0.291413
0.104036 -0.023490 0.291672
0.105020 -0.023400 0.290602
0.106374 -0.023393 0.290568
0.107793 -0.023401 0.290704
0.110021 -0.023582 0.292987
0.111176 -0.023531 0.292387
0.112312 -0.023478 0.291751
0.113531 -0.023443 0.291334
0.114981 -0.023456 0.291509
0.116363 -0.023455 0.291504
0.117740 -0.023453 0.291479
0.119165 -0.023461 0.291568
0.120575 -0.023465 0.291609
0.121809 -0.023435 0.291222
0.123036 -0.023405 0.290821
0.124652 -0.023449 0.291330
0.126052 -0.023451 0.291318
0.127404 -0.023445 0.291189
0.128643 -0.023418 0.290798
0.129867 -0.023389 0.290373
0.131364 -0.023410 0.290551
0.132880 -0.023433 0.290754
0.134581 -0.023488 0.291344
0.136066 -0.023504 0.291446
0.137748 -0.023554 0.291952
0.139271 -0.023577 0.292104
0.141004 -0.023633 0.292673
0.142261 -0.023610 0.292238
0.143786 -0.023631 0.292345
0.145420 -0.023670 0.292654
0.146705 -0.023651 0.292245
0.148237 -0.023673 0.292316
0.149463 -0.023645 0.291772
0.150955 -0.023660 0.291736
0.152249 -0.023644 0.291304
-0.125641 -0.017932 0.236777
-0.124550 -0.017936 0.236998
-0.123558 -0.017954 0.237399
-0.122593 -0.017976 0.237847
-0.121582 -0.017992 0.238202
-0.120604 -0.018013 0.238616
-0.119565 -0.018025 0.238905
-0.118578 -0.018046 0.239294
-0.117530 -0.018057 0.239556
-0.116580 -0.018084 0.240012
-0.115545 -0.018098 0.240292
-0.114539 -0.018118 0.240630
-0.113556 -0.018141 0.241015
-0.112632 -0.018174 0.241522
-0.111654 -0.018199 0.241916
-0.110701 -0.018229 0.242365
-0.109741 -0.018258 0.242800
-0.108822 -0.018295 0.243328
-0.107944 -0.018339 0.243952
-0.107045 -0.018381 0.244535
-0.106187 -0.018431 0.245220
-0.105428 -0.018500 0.246145
-0.104604 -0.018558 0.246928
-0.103876 -0.018635 0.247955
-0.103356 -0.018752 0.249500
-0.103041 -0.018908 0.251575
-0.102580 -0.019042 0.253336
-0.101804 -0.019119 0.254342
-0.101008 -0.019195 0.255318
-0.100285 -0.019286 0.256500
