ply
format ascii 1.0
element vertex 1680
property float x
property float y
property float z
end_header
0.050314 -0.107310 0.294268
0.051716 -0.107321 0.294296
0.053123 -0.107342 0.294352
0.054459 -0.107221 0.294016
0.056157 -0.107802 0.295604
0.057465 -0.107623 0.295107
0.058836 -0.107567 0.294946
0.060348 -0.107767 0.295485
0.061734 -0.107738 0.295396
0.063096 -0.107669 0.295193
0.064519 -0.107704 0.295275
0.065955 -0.107758 0.295406
0.067384 -0.107799 0.295500
0.068857 -0.107909 0.295781
0.070295 -0.107959 0.295894
0.071785 -0.108085 0.296213
0.073166 -0.108046 0.296078
0.074584 -0.108062 0.296091
0.075979 -0.108044 0.296008
0.077413 -0.108082 0.296072
0.078790 -0.108039 0.295914
0.080347 -0.108241 0.296425
0.081689 -0.108151 0.296130
0.083178 -0.108256 0.296364
0.084619 -0.108294 0.296414
0.086003 -0.108260 0.296261
0.087478 -0.108341 0.296418
0.088871 -0.108318 0.296287
0.090231 -0.108256 0.296044
0.091707 -0.108334 0.296178
0.093092 -0.108303 0.296010
0.094532 -0.108336 0.296013
0.095915 -0.108303 0.295830
0.097346 -0.108325 0.295791
0.098850 -0.108426 0.295961
0.100254 -0.108416 0.295823
0.101746 -0.108500 0.295934
0.103342 -0.108691 0.296332
0.104932 -0.108871 0.296689
0.106725 -0.109253 0.297593
0.108195 -0.109299 0.297574
0.109606 -0.109286 0.297382
0.111082 -0.109336 0.297359
0.112608 -0.109434 0.297455
0.114088 -0.109484 0.297413
0.115662 -0.109623 0.297605
0.117097 -0.109628 0.297422
0.118747 -0.109832 0.297769
0.120299 -0.109941 0.297850
0.121837 -0.110035 0.297879
0.123209 -0.109979 0.297490
0.124872 -0.110180 0.297788
0.126255 -0.110133 0.297402
0.127740 -0.110175 0.297246
0.129355 -0.110325 0.297370
0.130754 -0.110292 0.296986
0.132347 -0.110419 0.297023
0.133987 -0.110584 0.297144
0.135572 -0.110700 0.297120
0.137156 -0.110812 0.297074
0.138887 -0.111040 0.297318
0.140914 -0.111497 0.298160
0.142759 -0.111802 0.298577
0.144375 -0.111923 0.298484
0.146092 -0.112118 0.298571
0.147649 -0.112189 0.298306
0.148990 -0.112095 0.297587
0.150635 -0.112231 0.297455
0.152099 -0.112229 0.296939
0.153493 -0.112176 0.296268
0.155144 -0.112310 0.296067
0.156656 -0.112342 0.295575
0.158459 -0.112580 0.295597
0.160313 -0.112849 0.295675
-0.153196 -0.109080 0.295168
-0.151352 -0.108780 0.294816
-0.149803 -0.108689 0.295009
-0.148652 -0.108886 0.295970
-0.147113 -0.108802 0.296147
-0.145638 -0.108763 0.296432
-0.144020 -0.108616 0.296406
-0.142297 -0.108387 0.296138
-0.141229 -0.108657 0.297220
-0.139348 -0.108301 0.296573
-0.137570 -0.108018 0.296113
-0.136006 -0.107899 0.296086
-0.134186 -0.107573 0.295480
-0.132692 -0.107504 0.295565
-0.131159 -0.107402 0.295545
-0.129812 -0.107451 0.295932
-0.128372 -0.107424 0.296096
-0.126864 -0.107339 0.296090
-0.125400 -0.107290 0.296173
-0.123511 -0.106871 0.295225
-0.122275 -0.107016 0.295822
-0.120653 -0.106822 0.295473
-0.119267 -0.106834 0.295685
-0.117889 -0.106855 0.295911
-0.116525 -0.106889 0.296167
-0.115056 -0.106826 0.296145
-0.113656 -0.106826 0.296290
-0.112146 -0.106723 0.296140
-0.110512 -0.106497 0.295641
-0.109192 -0.106572 0.295971
-0.107773 -0.106550 0.296026
-0.106242 -0.106417 0.295762
-0.104840 -0.106411 0.295847
-0.103494 -0.106463 0.296085
-0.102191 -0.106560 0.296444
-0.100566 -0.106321 0.295860
-0.099333 -0.106494 0.296419
-0.097863 -0.106415 0.296269
-0.096254 -0.106181 0.295684
-0.094630 -0.105923 0.295025
-0.093345 -0.106042 0.295413
-0.091980 -0.106073 0.295550
-0.090297 -0.105732 0.294645
-0.088966 -0.105801 0.294877
-0.087659 -0.105900 0.295191
-0.086153 -0.105758 0.294827
-0.084778 -0.105775 0.294903
-0.083422 -0.105815 0.295042
-0.082040 -0.105825 0.295090
-0.080648 -0.105822 0.295099
-0.079264 -0.105830 0.295136
-0.077852 -0.105800 0.295065
-0.076504 -0.105857 0.295231
-0.075053 -0.105772 0.295000
-0.073446 -0.105460 0.294132
-0.072229 -0.105706 0.294816
-0.070766 -0.105594 0.294502
-0.069292 -0.105462 0.294129
-0.067961 -0.105547 0.294358
-0.066582 -0.105560 0.294386
-0.065103 -0.105411 0.293957
-0.063772 -0.105500 0.294193
-0.062383 -0.105495 0.294163
-0.060878 -0.105290 0.293576
-0.059577 -0.105437 0.293965
-0.058208 -0.105467 0.294030
-0.056802 -0.105429 0.293904
-0.055387 -0.105374 0.293727
-0.054001 -0.105374 0.293703
-0.052612 -0.105365 0.293653
-0.051184 -0.105277 0.293384
-0.049824 -0.105326 0.293495
-0.048334 -0.105098 0.292830
-0.046926 -0.105039 0.292640
-0.045545 -0.105040 0.292614
-0.044203 -0.105133 0.292843
-0.042829 -0.105153 0.292870
-0.041453 -0.105170 0.292890
-0.040168 -0.105429 0.293581
-0.038811 -0.105509 0.293773
-0.037430 -0.105527 0.293794
-0.036068 -0.105604 0.293976
-0.034674 -0.105588 0.293902
-0.033314 -0.105679 0.294125
-0.031919 -0.105664 0.294054
-0.030523 -0.105644 0.293969
-0.029165 -0.105757 0.294255
-0.027799 -0.105855 0.294500
-0.026412 -0.105878 0.294534
-0.025044 -0.105984 0.294801
-0.023643 -0.105953 0.294688
-0.022239 -0.105907 0.294534
-0.020832 -0.105838 0.294315
-0.019424 -0.105758 0.294068
-0.018033 -0.105758 0.294045
-0.016640 -0.105753 0.294005
-0.015241 -0.105702 0.293842
-0.013846 -0.105671 0.293732
-0.012453 -0.105655 0.293666
-0.011053 -0.105566 0.293399
-0.009659 -0.105520 0.293253
-0.008271 -0.105533 0.293270
-0.006884 -0.105574 0.293367
-0.005494 -0.105567 0.293328
-0.004104 -0.105574 0.293333
-0.002717 -0.105663 0.293567
-0.001327 -0.105750 0.293795
0.000066 -0.105657 0.293524
0.001458 -0.105759 0.293794
0.002850 -0.105705 0.293635
0.004242 -0.105721 0.293669
0.005631 -0.105645 0.293449
0.007018 -0.105585 0.293275
0.008408 -0.105578 0.293247
0.009785 -0.105437 0.292851
0.011193 -0.105617 0.293345
0.012579 -0.105571 0.293212
0.013965 -0.105534 0.293107
0.015392 -0.105789 0.293812
0.016790 -0.105815 0.293883
0.018174 -0.105759 0.293728
0.019580 -0.105828 0.293918
0.020973 -0.105821 0.293900
0.022341 -0.105693 0.293547
0.023737 -0.105710 0.293595
0.025127 -0.105697 0.293563
0.026476 -0.105522 0.293080
0.027926 -0.105748 0.293710
0.029315 -0.105731 0.293667
0.030685 -0.105651 0.293450
0.032133 -0.105834 0.293962
0.033515 -0.105793 0.293853
0.034939 -0.105883 0.294109
0.036363 -0.105966 0.294343
0.037810 -0.106105 0.294736
0.039249 -0.106215 0.295046
0.040617 -0.106131 0.294818
0.042045 -0.106203 0.295022
0.043469 -0.106261 0.295188
0.044859 -0.106236 0.295123
0.046252 -0.106219 0.295080
0.047639 -0.106189 0.294998
0.049016 -0.106138 0.294860
0.050446 -0.106202 0.295039
0.051832 -0.106173 0.294960
0.053212 -0.106132 0.294845
0.054669 -0.106244 0.295155
0.056138 -0.106373 0.295511
0.057521 -0.106335 0.295404
0.058929 -0.106346 0.295428
0.060352 -0.106381 0.295520
0.061801 -0.106460 0.295731
0.063178 -0.106415 0.295597
0.064545 -0.106354 0.295417
0.066080 -0.106566 0.295992
0.067429 -0.106476 0.295727
0.068856 -0.106511 0.295807
0.070340 -0.106631 0.296120
0.071743 -0.106625 0.296080
0.073230 -0.106741 0.296378
0.074548 -0.106613 0.295993
0.075981 -0.106649 0.296063
0.077425 -0.106700 0.296170
0.078788 -0.106639 0.295964
0.080250 -0.106711 0.296124
0.081680 -0.106739 0.296159
0.083115 -0.106773 0.296205
0.084565 -0.106824 0.296295
0.085979 -0.106830 0.296255
0.087382 -0.106821 0.296170
0.088794 -0.106823 0.296114
0.090291 -0.106926 0.296330
0.091708 -0.106933 0.296274
0.093065 -0.106869 0.296019
0.094463 -0.106855 0.295896
0.096060 -0.107062 0.296382
0.097308 -0.106880 0.295784
0.098714 -0.106875 0.295670
0.100285 -0.107045 0.296034
0.101618 -0.106961 0.295688
0.103316 -0.107257 0.296388
0.105106 -0.107639 0.297318
0.106765 -0.107879 0.297847
0.108193 -0.107882 0.297715
0.109559 -0.107824 0.297409
0.111121 -0.107957 0.297621
0.112564 -0.107973 0.297501
0.113914 -0.107901 0.297131
0.115445 -0.108000 0.297223
0.116876 -0.108004 0.297043
0.118474 -0.108160 0.297275
0.119968 -0.108219 0.297227
0.121596 -0.108395 0.297492
0.122991 -0.108362 0.297175
0.124525 -0.108450 0.297177
0.126221 -0.108677 0.297548
0.127799 -0.108797 0.297614
0.129291 -0.108842 0.297464
0.130887 -0.108973 0.297535
0.132493 -0.109110 0.297609
0.133908 -0.109087 0.297235
0.135562 -0.109257 0.297372
0.137248 -0.109450 0.297556
0.138773 -0.109511 0.297365
0.140653 -0.109848 0.297910
0.142235 -0.109948 0.297792
0.143986 -0.110175 0.298002
0.145568 -0.110269 0.297834
0.146953 -0.110213 0.297243
0.148781 -0.110488 0.297525
0.150302 -0.110531 0.297163
0.151816 -0.110568 0.296763
0.153450 -0.110692 0.296574
0.155050 -0.110788 0.296291
0.156385 -0.110695 0.295477
0.158123 -0.110886 0.295399
0.159976 -0.111153 0.295496
-0.153002 -0.107503 0.295123
-0.151312 -0.107315 0.295056
-0.149708 -0.107185 0.295129
-0.148539 -0.107367 0.296045
-0.146963 -0.107256 0.296134
-0.145434 -0.107176 0.296296
-0.143855 -0.107059 0.296337
-0.142368 -0.107009 0.296548
-0.140809 -0.106903 0.296589
-0.139318 -0.106847 0.296753
-0.137767 -0.106744 0.296773
-0.136099 -0.106547 0.296519
-0.134766 -0.106611 0.296978
-0.132508 -0.105937 0.295367
-0.131012 -0.105864 0.295419
-0.129556 -0.105822 0.295545
-0.128060 -0.105748 0.295568
-0.126269 -0.105424 0.294885
-0.125049 -0.105576 0.295521
-0.123793 -0.105701 0.296071
-0.122014 -0.105377 0.295355
-0.120611 -0.105374 0.295526
-0.119456 -0.105590 0.296305
-0.118134 -0.105663 0.296673
-0.116838 -0.105760 0.297102
-0.115408 -0.105737 0.297184
-0.111753 -0.103650 0.291456
-0.112904 -0.106025 0.298265
-0.110442 -0.105023 0.295571
-0.108418 -0.104418 0.293984
-0.107339 -0.104719 0.294939
-0.106157 -0.104927 0.295628
-0.104336 -0.104500 0.294519
-0.103019 -0.104573 0.294814
-0.101660 -0.104605 0.294988
-0.100194 -0.104527 0.294844
-0.098704 -0.104421 0.294618
-0.097232 -0.104332 0.294432
-0.095741 -0.104219 0.294174
-0.094465 -0.104340 0.294571
-0.092851 -0.104087 0.293907
-0.091440 -0.104057 0.293868
-0.090184 -0.104204 0.294325
-0.088722 -0.104116 0.294112
-0.087431 -0.104227 0.294460
-0.086050 -0.104234 0.294508
-0.084766 -0.104361 0.294891
-0.083258 -0.104212 0.294491
-0.081841 -0.104172 0.294397
-0.080506 -0.104239 0.294600
-0.079064 -0.104167 0.294406
-0.077731 -0.104239 0.294617
-0.076393 -0.104305 0.294810
-0.074890 -0.104146 0.294362
-0.073391 -0.103986 0.293909
-0.072100 -0.104121 0.294285
-0.070701 -0.104101 0.294224
-0.069350 -0.104154 0.294366
-0.067975 -0.104172 0.294403
-0.066308 -0.103734 0.293155
-0.065203 -0.104175 0.294385
-0.063838 -0.104212 0.294473
-0.062281 -0.103928 0.293653
-0.060954 -0.104025 0.293908
-0.059567 -0.104022 0.293879
-0.058181 -0.104021 0.293853
-0.056777 -0.103988 0.293735
-0.055384 -0.103972 0.293665
-0.053953 -0.103884 0.293389
-0.052559 -0.103864 0.293307
-0.051155 -0.103822 0.293160
-0.049747 -0.103771 0.292987
-0.048360 -0.103760 0.292926
-0.046960 -0.103721 0.292787
-0.045599 -0.103770 0.292894
-0.044227 -0.103794 0.292932
-0.042845 -0.103797 0.292907
-0.041477 -0.103835 0.292985
-0.040131 -0.103932 0.293225
-0.038784 -0.104035 0.293484
-0.037381 -0.103988 0.293320
-0.036039 -0.104116 0.293648
-0.034675 -0.104188 0.293821
-0.033245 -0.104059 0.293426
-0.031883 -0.104141 0.293625
-0.030476 -0.104076 0.293411
-0.029076 -0.104031 0.293255
-0.027725 -0.104167 0.293607
-0.026265 -0.103884 0.292779
-0.024914 -0.104027 0.293155
-0.023597 -0.104334 0.293991
-0.022157 -0.104107 0.293324
-0.020810 -0.104312 0.293873
-0.019448 -0.104468 0.294289
-0.018037 -0.104365 0.293972
-0.016655 -0.104425 0.294116
-0.015252 -0.104356 0.293898
-0.013868 -0.104417 0.294048
-0.012459 -0.104277 0.293630
-0.011068 -0.104279 0.293614
-0.009677 -0.104275 0.293584
-0.008272 -0.104095 0.293058
-0.006893 -0.104244 0.293459
-0.005487 -0.103957 0.292635
-0.004103 -0.104033 0.292832
-0.002711 -0.103878 0.292382
-0.001327 -0.104053 0.292861
0.000061 -0.104235 0.293359
0.001444 -0.103667 0.291749
0.002844 -0.104272 0.293442
0.004233 -0.104216 0.293275
0.005616 -0.104071 0.292857
0.007013 -0.104183 0.293164
0.008396 -0.104094 0.292909
0.009800 -0.104254 0.293352
0.011180 -0.104140 0.293028
0.012574 -0.104174 0.293120
0.013981 -0.104295 0.293457
0.015394 -0.104435 0.293851
0.016771 -0.104330 0.293555
0.018177 -0.104407 0.293771
0.019603 -0.104579 0.294256
0.020946 -0.104312 0.293506
0.022339 -0.104315 0.293516
0.023757 -0.104425 0.293831
0.025117 -0.104281 0.293428
0.026496 -0.104230 0.293289
0.027928 -0.104378 0.293712
0.029352 -0.104485 0.294017
0.030710 -0.104359 0.293669
0.032123 -0.104422 0.293851
0.033535 -0.104477 0.294013
0.034931 -0.104476 0.294018
0.036371 -0.104604 0.294385
0.037774 -0.104622 0.294442
0.039206 -0.104713 0.294705
0.040644 -0.104814 0.294998
0.041992 -0.104685 0.294641
0.043439 -0.104801 0.294973
0.044853 -0.104833 0.295070
0.046208 -0.104729 0.294784
0.047603 -0.104721 0.294766
0.048998 -0.104711 0.294743
0.050409 -0.104735 0.294815
0.051798 -0.104714 0.294760
0.053145 -0.104611 0.294471
0.054630 -0.104779 0.294947
0.056102 -0.104913 0.295325
0.057495 -0.104896 0.295276
0.058941 -0.104975 0.295497
0.060341 -0.104969 0.295477
0.061726 -0.104939 0.295387
0.063135 -0.104949 0.295409
0.064638 -0.105111 0.295857
0.065986 -0.105020 0.295592
0.067329 -0.104926 0.295315
0.068889 -0.105166 0.295975
0.070250 -0.105098 0.295768
0.071641 -0.105078 0.295693
0.073071 -0.105113 0.295770
0.074520 -0.105175 0.295920
0.075813 -0.105019 0.295453
0.077300 -0.105130 0.295736
0.078783 -0.105233 0.295993
0.080196 -0.105241 0.295977
0.081614 -0.105255 0.295977
0.082998 -0.105224 0.295847
0.084534 -0.105386 0.296254
0.086095 -0.105571 0.296723
0.087327 -0.105353 0.296056
0.088783 -0.105409 0.296154
0.090139 -0.105345 0.295910
0.091579 -0.105382 0.295943
0.093008 -0.105403 0.295928
0.094303 -0.105274 0.295488
0.095789 -0.105360 0.295646
0.097187 -0.105347 0.295520
0.098563 -0.105311 0.295324
0.100067 -0.105411 0.295503
0.101510 -0.105444 0.295490
0.103034 -0.105560 0.295702
0.104637 -0.105753 0.296121
0.106289 -0.105989 0.296655
0.107536 -0.105820 0.296048
0.109124 -0.105987 0.296373
0.110629 -0.106069 0.296455
0.112227 -0.106238 0.296769
0.113593 -0.106185 0.296455
0.115034 -0.106203 0.296333
0.116622 -0.106355 0.296574
0.118484 -0.106749 0.297482
0.120043 -0.106865 0.297601
0.121441 -0.106835 0.297308
0.122989 -0.106937 0.297370
0.124443 -0.106956 0.297191
0.125919 -0.106993 0.297051
0.127513 -0.107128 0.297171
0.129063 -0.107224 0.297171
0.130681 -0.107374 0.297306
0.132264 -0.107491 0.297341
0.133880 -0.107632 0.297426
0.135601 -0.107854 0.297722
0.137171 -0.107952 0.297660
0.138677 -0.107999 0.297441
0.140355 -0.108177 0.297570
0.141908 -0.108255 0.297408
0.143569 -0.108414 0.297448
0.145157 -0.108514 0.297313
0.146814 -0.108664 0.297294
0.148315 -0.108696 0.296934
0.149969 -0.108839 0.296857
0.151679 -0.109019 0.296860
0.153288 -0.109124 0.296638
0.154842 -0.109187 0.296282
0.156394 -0.109248 0.295894
0.158070 -0.109394 0.295714
0.159818 -0.109586 0.295632
-0.153217 -0.106213 0.295855
-0.151211 -0.105808 0.295165
-0.149604 -0.105677 0.295220
-0.148292 -0.105754 0.295839
-0.146852 -0.105740 0.296189
-0.145372 -0.105697 0.296440
-0.143499 -0.105365 0.295865
-0.142183 -0.105440 0.296414
-0.140781 -0.105451 0.296773
-0.139051 -0.105215 0.296421
-0.137436 -0.105062 0.296289
-0.135768 -0.104865 0.296017
-0.134180 -0.104726 0.295897
-0.132673 -0.104649 0.295938
-0.131246 -0.104634 0.296143
-0.129622 -0.104460 0.295888
-0.128225 -0.104467 0.296132
-0.126790 -0.104443 0.296280
-0.124529 -0.103730 0.294461
-0.123506 -0.104044 0.295547
-0.121956 -0.103917 0.295370
-0.120416 -0.103795 0.295199
-0.119346 -0.104081 0.296179
-0.117776 -0.103933 0.295913
-0.116623 -0.104152 0.296688
-0.115006 -0.103959 0.296278
-0.113594 -0.103947 0.296379
-0.112226 -0.103977 0.296588
-0.110423 -0.103600 0.295631
-0.109132 -0.103698 0.296024
-0.107669 -0.103635 0.295947
-0.106111 -0.103477 0.295593
-0.104473 -0.103236 0.294996
-0.103406 -0.103560 0.296007
-0.100705 -0.102235 0.292297
-0.099943 -0.102869 0.294182
-0.099340 -0.103687 0.296588
-0.097650 -0.103377 0.295761
-0.096127 -0.103237 0.295418
-0.093720 -0.102131 0.292303
-0.092582 -0.102395 0.293105
-0.091621 -0.102866 0.294496
-0.089919 -0.102507 0.293504
-0.088565 -0.102539 0.293630
-0.087385 -0.102777 0.294339
-0.085924 -0.102687 0.294106
-0.084470 -0.102604 0.293888
-0.083222 -0.102771 0.294385
-0.081831 -0.102764 0.294379
-0.080275 -0.102548 0.293769
-0.078887 -0.102540 0.293755
-0.077511 -0.102550 0.293786
-0.076184 -0.102627 0.294007
-0.074514 -0.102234 0.292882
-0.073317 -0.102489 0.293607
-0.071899 -0.102439 0.293457
-0.070618 -0.102586 0.293867
-0.069189 -0.102519 0.293664
-0.067390 -0.101891 0.291851
-0.066404 -0.102491 0.293554
-0.065006 -0.102467 0.293469
-0.063539 -0.102332 0.293063
-0.062418 -0.102760 0.294268
-0.060945 -0.102615 0.293830
-0.059495 -0.102503 0.293485
-0.058193 -0.102647 0.293872
-0.056655 -0.102372 0.293057
-0.055269 -0.102364 0.293007
-0.053900 -0.102388 0.293046
-0.052433 -0.102223 0.292544
-0.051062 -0.102243 0.292571
-0.049656 -0.102189 0.292386
-0.048298 -0.102235 0.292485
-0.046925 -0.102251 0.292500
-0.045518 -0.102194 0.292302
-0.044216 -0.102373 0.292782
-0.042796 -0.102284 0.292494
-0.041451 -0.102373 0.292716
-0.040081 -0.102407 0.292780
-0.038696 -0.102401 0.292727
-0.037351 -0.102508 0.293000
-0.035993 -0.102583 0.293181
-0.034579 -0.102499 0.292906
-0.033230 -0.102608 0.293186
-0.031866 -0.102683 0.293366
-0.030446 -0.102572 0.293019
-0.029060 -0.102572 0.292986
-0.027719 -0.102736 0.293423
-0.026312 -0.102664 0.293187
-0.024855 -0.102378 0.292339
-0.023573 -0.102817 0.293565
-0.022176 -0.102783 0.293436
-0.020806 -0.102880 0.293686
-0.019424 -0.102922 0.293777
-0.018030 -0.102908 0.293711
-0.016639 -0.102909 0.293690
-0.015233 -0.102806 0.293371
-0.013835 -0.102742 0.293166
-0.012427 -0.102591 0.292710
-0.011033 -0.102521 0.292491
-0.009650 -0.102551 0.292554
-0.008262 -0.102531 0.292478
-0.006876 -0.102541 0.292488
-0.005487 -0.102496 0.292344
-0.004104 -0.102558 0.292504
-0.002719 -0.102615 0.292652
-0.001330 -0.102567 0.292502
0.000057 -0.102660 0.292753
0.001447 -0.102812 0.293174
0.002834 -0.102677 0.292778
0.004234 -0.102952 0.293554
0.005617 -0.102779 0.293052
0.007008 -0.102788 0.293071
0.008400 -0.102807 0.293119
0.009793 -0.102832 0.293187
0.011190 -0.102884 0.293329
0.012568 -0.102770 0.293001
0.013993 -0.103028 0.293736
0.015380 -0.102978 0.293593
0.016775 -0.102993 0.293634
0.018172 -0.103008 0.293679
0.019568 -0.103022 0.293720
0.020914 -0.102784 0.293044
0.022301 -0.102765 0.292995
0.023709 -0.102844 0.293223
0.025057 -0.102664 0.292715
0.026467 -0.102740 0.292940
0.027851 -0.102717 0.292878
0.029258 -0.102776 0.293054
0.030658 -0.102808 0.293153
0.032043 -0.102785 0.293094
0.033492 -0.102963 0.293612
0.034882 -0.102951 0.293586
0.036341 -0.103135 0.294119
0.037855 -0.103458 0.295048
0.039254 -0.103455 0.295048
0.040594 -0.103298 0.294611
0.042103 -0.103570 0.295395
0.043552 -0.103681 0.295720
0.044884 -0.103516 0.295257
0.046276 -0.103493 0.295201
0.047724 -0.103595 0.295502
0.049071 -0.103478 0.295174
0.050408 -0.103345 0.294802
0.051788 -0.103307 0.294698
0.053183 -0.103299 0.294680
0.054497 -0.103136 0.294222
0.055930 -0.103204 0.294418
0.057425 -0.103377 0.294914
0.058824 -0.103375 0.294910
0.060173 -0.103288 0.294660
0.061687 -0.103479 0.295204
0.063106 -0.103508 0.295283
0.064442 -0.103402 0.294975
0.065976 -0.103610 0.295561
0.067376 -0.103605 0.295538
0.068914 -0.103807 0.296105
0.070212 -0.103646 0.295631
0.071683 -0.103742 0.295890
0.073109 -0.103771 0.295954
0.074347 -0.103537 0.295267
0.075808 -0.103616 0.295467
0.077153 -0.103536 0.295214
0.078504 -0.103468 0.294991
0.079943 -0.103514 0.295090
0.081421 -0.103611 0.295329
0.082874 -0.103671 0.295462
0.084277 -0.103668 0.295409
0.085693 -0.103681 0.295400
0.087127 -0.103715 0.295445
0.088419 -0.103582 0.295011
0.089845 -0.103607 0.295022
0.091334 -0.103702 0.295228
0.092882 -0.103860 0.295610
0.094275 -0.103844 0.295489
0.095762 -0.103929 0.295652
0.097272 -0.104037 0.295875
0.098632 -0.103984 0.295633
0.100078 -0.104021 0.295644
0.101493 -0.104025 0.295552
0.103104 -0.104227 0.296018
0.104580 -0.104290 0.296081
0.106062 -0.104355 0.296146
0.107643 -0.104516 0.296474
0.108869 -0.104333 0.295818
0.110410 -0.104451 0.296010
0.111778 -0.104406 0.295731
0.113125 -0.104341 0.295390
0.114534 -0.104335 0.295205
0.115956 -0.104340 0.295044
0.117589 -0.104533 0.295405
0.119215 -0.104716 0.295726
0.121507 -0.105472 0.297657
0.122801 -0.105354 0.297109
0.124230 -0.105353 0.296882
0.125952 -0.105598 0.297335
0.127297 -0.105524 0.296881
0.128937 -0.105694 0.297101
0.130501 -0.105799 0.297125
0.132265 -0.106061 0.297579
0.133700 -0.106058 0.297272
0.135510 -0.106348 0.297775
0.137362 -0.106664 0.298337
0.138853 -0.106697 0.298090
0.140304 -0.106698 0.297740
0.141710 -0.106666 0.297282
0.143445 -0.106879 0.297490
0.144855 -0.106848 0.297003
0.146251 -0.106807 0.296471
0.148147 -0.107129 0.296926
0.149759 -0.107240 0.296780
0.151310 -0.107307 0.296489
0.153052 -0.107506 0.296542
0.154696 -0.107633 0.296375
0.156218 -0.107673 0.295948
0.157815 -0.107764 0.295635
0.159569 -0.107960 0.295584
-0.152669 -0.104398 0.295103
-0.150866 -0.104135 0.294787
-0.149420 -0.104116 0.295143
-0.148163 -0.104229 0.295859
-0.146505 -0.104059 0.295756
-0.145094 -0.104064 0.296132
-0.143610 -0.104017 0.296344
-0.141966 -0.103851 0.296203
-0.140388 -0.103731 0.296180
-0.138775 -0.103582 0.296058
-0.137289 -0.103527 0.296190
-0.135594 -0.103310 0.295847
-0.133854 -0.103056 0.295382
-0.132459 -0.103063 0.295656
-0.131130 -0.103123 0.296070
-0.129454 -0.102910 0.295686
-0.128312 -0.103119 0.296508
-0.124123 -0.100859 0.290214
-0.124248 -0.102092 0.293958
-0.121155 -0.100679 0.290074
-0.121543 -0.102161 0.294520
-0.120300 -0.102289 0.295058
-0.118235 -0.101713 0.293557
-0.117740 -0.102491 0.295953
-0.116640 -0.102754 0.296858
-0.113256 -0.100987 0.291887
-0.113001 -0.102002 0.294946
-0.111334 -0.101751 0.294342
-0.107953 -0.099907 0.289118
-0.106285 -0.099623 0.288398
-0.107559 -0.102125 0.295738
-0.103883 -0.099930 0.289472
-0.104288 -0.101655 0.294556
-0.101588 -0.100360 0.290881
-0.100051 -0.100194 0.290472
-0.099545 -0.101069 0.293079
-0.097737 -0.100629 0.291864
-0.096154 -0.100412 0.291291
-0.095021 -0.100665 0.292074
-0.093824 -0.100857 0.292678
-0.092204 -0.100593 0.291956
-0.090959 -0.100737 0.292410
-0.089679 -0.100846 0.292758
-0.088228 -0.100762 0.292543
-0.086263 -0.100081 0.290591
-0.085443 -0.100726 0.292485
-0.083929 -0.100561 0.292024
-0.082541 -0.100546 0.291992
-0.081488 -0.100944 0.293157
-0.079962 -0.100760 0.292631
-0.078726 -0.100941 0.293160
-0.077536 -0.101190 0.293881
-0.076029 -0.101026 0.293404
-0.074442 -0.100748 0.292592
-0.073459 -0.101293 0.294166
-0.072027 -0.101227 0.293964
-0.070146 -0.100515 0.291885
-0.069328 -0.101330 0.294235
-0.067896 -0.101261 0.294019
-0.066076 -0.100599 0.292078
-0.065089 -0.101203 0.293811
-0.063651 -0.101119 0.293543
-0.061998 -0.100681 0.292249
-0.060585 -0.100622 0.292052
-0.059267 -0.100722 0.292315
-0.057795 -0.100560 0.291816
-0.056457 -0.100626 0.291980
-0.055107 -0.100677 0.292096
-0.053715 -0.100650 0.291988
-0.052436 -0.100838 0.292502
-0.051003 -0.100735 0.292169
-0.049666 -0.100819 0.292378
-0.048302 -0.100852 0.292441
-0.046905 -0.100818 0.292307
-0.045565 -0.100906 0.292529
-0.044190 -0.100920 0.292533
-0.042810 -0.100923 0.292506
-0.041411 -0.100881 0.292349
-0.039993 -0.100789 0.292048
-0.038695 -0.101004 0.292634
-0.037294 -0.100954 0.292455
-0.035875 -0.100852 0.292123
-0.034549 -0.101014 0.292558
-0.033166 -0.101013 0.292520
-0.031836 -0.101185 0.292983
-0.030360 -0.100883 0.292076
-0.029014 -0.101009 0.292408
-0.027611 -0.100938 0.292168
-0.026247 -0.101008 0.292338
-0.024901 -0.101160 0.292748
-0.023531 -0.101230 0.292920
-0.022177 -0.101381 0.293327
-0.020804 -0.101455 0.293510
-0.019423 -0.101506 0.293630
-0.018053 -0.101619 0.293929
-0.016657 -0.101601 0.293851
-0.015218 -0.101286 0.292915
-0.013852 -0.101447 0.293356
-0.012447 -0.101327 0.292986
-0.011020 -0.100971 0.291935
-0.009628 -0.100889 0.291677
-0.008249 -0.100934 0.291786
-0.006859 -0.100844 0.291508
-0.005472 -0.100753 0.291229
-0.004097 -0.100907 0.291656
-0.002716 -0.100964 0.291807
-0.001330 -0.100820 0.291377
0.000052 -0.100992 0.291859
0.001441 -0.101247 0.292586
0.002823 -0.101037 0.291967
0.004214 -0.101169 0.292341
0.005621 -0.101527 0.293367
0.006998 -0.101316 0.292750
0.008394 -0.101389 0.292956
0.009804 -0.101595 0.293547
0.011184 -0.101476 0.293198
0.012599 -0.101665 0.293743
0.013985 -0.101608 0.293577
0.015390 -0.101680 0.293785
0.016795 -0.101742 0.293965
0.018161 -0.101579 0.293495
0.019558 -0.101596 0.293548
0.020933 -0.101506 0.293291
0.022281 -0.101304 0.292713
0.023714 -0.101491 0.293258
0.024948 -0.100849 0.291409
0.026385 -0.101054 0.292009
0.027891 -0.101491 0.293279
0.029273 -0.101453 0.293178
0.030626 -0.101323 0.292813
0.032095 -0.101573 0.293544
0.033516 -0.101655 0.293791
0.034925 -0.101695 0.293917
0.036343 -0.101759 0.294111
0.037716 -0.101695 0.293936
0.039261 -0.102083 0.295069
0.040584 -0.101887 0.294515
0.041794 -0.101430 0.293205
0.043448 -0.102046 0.294995
0.044758 -0.101838 0.294405
0.045891 -0.101254 0.292728
0.047520 -0.101765 0.294216
0.048819 -0.101562 0.293638
0.050162 -0.101458 0.293345
0.051604 -0.101556 0.293637
0.053018 -0.101592 0.293749
0.054436 -0.101635 0.293882
0.055917 -0.101792 0.294341
0.057338 -0.101832 0.294462
0.058811 -0.101961 0.294840
0.060044 -0.101679 0.294026
0.061658 -0.102039 0.295066
0.063024 -0.101983 0.294905
0.063999 -0.101309 0.292953
0.065845 -0.102012 0.294985
0.067237 -0.101998 0.294938
0.068516 -0.101818 0.294409
0.070027 -0.101981 0.294871
0.071553 -0.102160 0.295375
0.073055 -0.102298 0.295760
0.074364 -0.102166 0.295361
0.075765 -0.102163 0.295333
0.077116 -0.102092 0.295107
0.078702 -0.102332 0.295773
0.080135 -0.102366 0.295844
0.080713 -0.101326 0.292805
0.082879 -0.102280 0.295526
0.084304 -0.102304 0.295557
0.085542 -0.102103 0.294934
0.087032 -0.102206 0.295183
0.088477 -0.102252 0.295267
0.089978 -0.102361 0.295526
0.091447 -0.102431 0.295668
0.092881 -0.102459 0.295684
0.094220 -0.102384 0.295398
0.095672 -0.102432 0.295461
0.097132 -0.102487 0.295541
0.098418 -0.102359 0.295085
0.099868 -0.102403 0.295122
0.101430 -0.102559 0.295474
0.102958 -0.102676 0.295708
0.104458 -0.102763 0.295849
0.105965 -0.102855 0.295997
0.107371 -0.102846 0.295849
0.108684 -0.102751 0.295444
0.110148 -0.102798 0.295444
0.111661 -0.102890 0.295561
0.112785 -0.102625 0.294648
0.114265 -0.102686 0.294663
0.116017 -0.102988 0.295358
0.118341 -0.103783 0.297459
0.119790 -0.103802 0.297324
0.121026 -0.103637 0.296655
0.122743 -0.103884 0.297153
0.124057 -0.103787 0.296659
0.125495 -0.103796 0.296453
0.127169 -0.103997 0.296789
0.128545 -0.103952 0.296411
0.130280 -0.104195 0.296841
0.131968 -0.104396 0.297138
0.133492 -0.104465 0.297044
0.135006 -0.104524 0.296911
0.136788 -0.104786 0.297342
0.138450 -0.104953 0.297485
0.139980 -0.105016 0.297321
0.141474 -0.105052 0.297063
0.142971 -0.105089 0.296794
0.144607 -0.105227 0.296790
0.146139 -0.105286 0.296549
0.147795 -0.105433 0.296536
0.149614 -0.105692 0.296820
0.151358 -0.105893 0.296921
0.152918 -0.105964 0.296633
0.154625 -0.106133 0.296600
0.156133 -0.106164 0.296159
0.157736 -0.106258 0.295871
0.159620 -0.106538 0.296077
-0.154728 -0.103389 0.296180
-0.152571 -0.102897 0.295207
-0.150778 -0.102644 0.294900
-0.149468 -0.102717 0.295513
-0.147601 -0.102406 0.295003
-0.146306 -0.102490 0.295613
-0.144913 -0.102506 0.296014
-0.143243 -0.102324 0.295827
-0.141784 -0.102292 0.296057
-0.140299 -0.102240 0.296217
-0.138333 -0.101833 0.295332
-0.136963 -0.101861 0.295696
-0.135586 -0.101884 0.296033
-0.133640 -0.101476 0.295104
-0.132141 -0.101402 0.295134
-0.130739 -0.101403 0.295369
-0.129277 -0.101356 0.295456
-0.126448 -0.100225 0.292368
-0.123426 -0.098914 0.288740
-0.121830 -0.098729 0.288389
-0.119860 -0.098234 0.287118
-0.119120 -0.098747 0.288787
-0.117175 -0.098262 0.287527
-0.115851 -0.098292 0.287765
-0.115591 -0.099236 0.290674
-0.112834 -0.098035 0.287288
-0.111514 -0.098067 0.287510
-0.109891 -0.097830 0.286934
-0.108607 -0.097894 0.287231
-0.107124 -0.097778 0.286995
-0.105745 -0.097754 0.287023
-0.104438 -0.097798 0.287243
-0.103001 -0.097719 0.287096
-0.101534 -0.097609 0.286853
-0.100201 -0.097628 0.286980
-0.098929 -0.097707 0.287281
-0.097668 -0.097800 0.287615
-0.096341 -0.097827 0.287751
-0.095229 -0.098078 0.288541
-0.094408 -0.098640 0.290240
-0.092942 -0.098534 0.289971
-0.091644 -0.098606 0.290220
-0.090513 -0.098863 0.291010
-0.089162 -0.098884 0.291101
-0.087318 -0.098351 0.289555
-0.085021 -0.097283 0.286430
-0.083345 -0.096901 0.285323
-0.082594 -0.097600 0.287395
-0.084537 -0.101559 0.299063
-0.082915 -0.101298 0.298300
-0.078965 -0.098134 0.288986
-0.077708 -0.098265 0.289370
-0.076484 -0.098444 0.289893
-0.075434 -0.098855 0.291100
-0.073122 -0.097599 0.287391
-0.071672 -0.097468 0.286994
-0.070361 -0.097523 0.287145
-0.069212 -0.097811 0.287976
-0.067696 -0.097582 0.287284
-0.066419 -0.097694 0.287594
-0.065292 -0.098036 0.288579
-0.063901 -0.097988 0.288415
-0.062618 -0.098107 0.288742
-0.061358 -0.098268 0.289188
-0.060152 -0.098527 0.289921
-0.058760 -0.098484 0.289768
-0.057406 -0.098505 0.289798
-0.056180 -0.098753 0.290494
-0.054779 -0.098697 0.290299
-0.053495 -0.098855 0.290728
-0.052130 -0.098867 0.290730
-0.050720 -0.098794 0.290481
-0.049444 -0.098984 0.291003
-0.047999 -0.098838 0.290537
-0.046713 -0.099018 0.291029
-0.045380 -0.099109 0.291259
-0.043820 -0.098693 0.290001
-0.042596 -0.099032 0.290960
-0.040903 -0.098268 0.288678
-0.039589 -0.098393 0.289007
-0.038412 -0.098879 0.290397
-0.036848 -0.098368 0.288862
-0.035503 -0.098427 0.288997
-0.034192 -0.098585 0.289424
-0.032884 -0.098769 0.289928
-0.031481 -0.098670 0.289603
-0.030121 -0.098703 0.289664
-0.028791 -0.098845 0.290046
-0.027366 -0.098653 0.289449
-0.025944 -0.098458 0.288844
-0.024599 -0.098546 0.289069
-0.023169 -0.098286 0.288277
-0.021787 -0.098211 0.288025
-0.020440 -0.098295 0.288241
-0.019066 -0.098252 0.288086
-0.017722 -0.098366 0.288395
-0.016376 -0.098488 0.288723
-0.015022 -0.098582 0.288975
-0.013663 -0.098662 0.289183
-0.012300 -0.098725 0.289344
-0.010938 -0.098812 0.289577
-0.009566 -0.098825 0.289594
-0.008203 -0.098944 0.289922
-0.006828 -0.098951 0.289925
-0.005448 -0.098859 0.289638
-0.004080 -0.099007 0.290054
-0.002706 -0.099070 0.290224
-0.001328 -0.098970 0.289916
0.000048 -0.099221 0.290638
0.001430 -0.099383 0.291103
0.002809 -0.099304 0.290859
0.004194 -0.099412 0.291167
0.005586 -0.099592 0.291688
0.006982 -0.099757 0.292165
0.008363 -0.099688 0.291956
0.009758 -0.099779 0.292219
0.011143 -0.099754 0.292143
0.012506 -0.099565 0.291587
0.013892 -0.099575 0.291618
0.015156 -0.098790 0.289319
0.016544 -0.098873 0.289562
0.017977 -0.099194 0.290505
0.019543 -0.100150 0.293309
0.020765 -0.099332 0.290920
0.022120 -0.099215 0.290581
0.023662 -0.099898 0.292590
0.025019 -0.099768 0.292217
0.026390 -0.099704 0.292035
0.027801 -0.099791 0.292299
0.029242 -0.099972 0.292839
0.030717 -0.100245 0.293649
0.032136 -0.100321 0.293884
0.033476 -0.100155 0.293410
0.034903 -0.100251 0.293702
0.036294 -0.100240 0.293681
0.037682 -0.100222 0.293643
0.039095 -0.100268 0.293790
0.040474 -0.100229 0.293688
0.041842 -0.100166 0.293516
0.043574 -0.100947 0.295819
0.045058 -0.101125 0.296353
0.046462 -0.101117 0.296344
0.048087 -0.101578 0.297706
0.049243 -0.101047 0.296163
0.050195 -0.100141 0.293520
0.051551 -0.100067 0.293312
0.052962 -0.100102 0.293425
0.054351 -0.100093 0.293409
0.055795 -0.100184 0.293685
0.057254 -0.100297 0.294024
0.058481 -0.100007 0.293180
0.059898 -0.100048 0.293304
0.060987 -0.099551 0.291853
0.062411 -0.099612 0.292033
0.064069 -0.100035 0.293273
0.065451 -0.100019 0.293227
0.066898 -0.100100 0.293462
0.068302 -0.100114 0.293500
0.069663 -0.100066 0.293351
0.071056 -0.100065 0.293340
0.072447 -0.100061 0.293317
0.073681 -0.099846 0.292673
0.075200 -0.100016 0.293155
0.076554 -0.099965 0.292986
0.077782 -0.099754 0.292347
0.079526 -0.100200 0.293629
0.081146 -0.100477 0.294413
0.082493 -0.100414 0.294196
0.083780 -0.100279 0.293766
0.085153 -0.100251 0.293644
0.086606 -0.100316 0.293793
0.087805 -0.100089 0.293081
0.089144 -0.100027 0.292848
0.090601 -0.100097 0.292999
0.091888 -0.099979 0.292593
0.093489 -0.100201 0.293180
0.094754 -0.100063 0.292705
0.097002 -0.100951 0.295229
0.098053 -0.100586 0.294079
0.099127 -0.100254 0.293024
0.101284 -0.101012 0.295146
0.102723 -0.101042 0.295137
0.104204 -0.101112 0.295238
0.105727 -0.101221 0.295445
0.107149 -0.101231 0.295355
0.108613 -0.101280 0.295374
0.110035 -0.101289 0.295268
0.111488 -0.101326 0.295237
0.112865 -0.101294 0.294997
0.114283 -0.101299 0.294855
0.115960 -0.101530 0.295364
0.118209 -0.102250 0.297285
0.119645 -0.102259 0.297129
0.120915 -0.102127 0.296554
0.122616 -0.102357 0.297020
0.124003 -0.102324 0.296713
0.125803 -0.102628 0.297372
0.127164 -0.102571 0.296973
0.128529 -0.102518 0.296577
0.130300 -0.102787 0.297098
0.131885 -0.102904 0.297169
0.133798 -0.103273 0.297952
0.135386 -0.103385 0.297982
0.137309 -0.103747 0.298717
0.138771 -0.103758 0.298426
0.140031 -0.103618 0.297689
0.141409 -0.103569 0.297195
0.142934 -0.103625 0.296992
0.144385 -0.103629 0.296619
0.145702 -0.103536 0.295957
0.147488 -0.103775 0.296225
0.149559 -0.104209 0.297026
0.150909 -0.104136 0.296366
0.152586 -0.104288 0.296324
0.154446 -0.104560 0.296604
0.155766 -0.104466 0.295821
0.157434 -0.104605 0.295676
0.159367 -0.104915 0.295991
-0.154805 -0.101999 0.296621
-0.152643 -0.101511 0.295631
-0.150571 -0.101074 0.294769
-0.149384 -0.101229 0.295613
-0.147981 -0.101239 0.296020
-0.146325 -0.101075 0.295900
-0.144807 -0.101003 0.296036
-0.143254 -0.100907 0.296083
-0.141734 -0.100831 0.296177
-0.139923 -0.100545 0.295638
-0.137996 -0.100169 0.294820
-0.136759 -0.100292 0.295457
-0.135206 -0.100183 0.295397
-0.133479 -0.099941 0.294935
-0.132250 -0.100072 0.295559
-0.130984 -0.100177 0.296096
-0.129244 -0.099918 0.295547
-0.124956 -0.097661 0.289074
-0.122807 -0.097046 0.287441
-0.122562 -0.097938 0.290266
-0.121276 -0.098009 0.290649
-0.120031 -0.098115 0.291129
-0.132659 -0.113653 0.337895
-0.129824 -0.112578 0.334839
-0.127557 -0.111975 0.333177
-0.126243 -0.112204 0.333982
-0.123283 -0.110958 0.330388
-0.121382 -0.110645 0.329563
-0.120624 -0.111379 0.331851
-0.118859 -0.111191 0.331383
-0.117184 -0.111084 0.331149
-0.115844 -0.111295 0.331857
-0.114175 -0.111192 0.331623
-0.112351 -0.110933 0.330917
-0.110471 -0.110611 0.330015
-0.106846 -0.108508 0.323794
-0.102393 -0.107040 0.319502
-0.100744 -0.106886 0.319077
-0.097329 -0.106436 0.317795
-0.096253 -0.106902 0.319208
-0.096465 -0.108836 0.325002
-0.093621 -0.107330 0.320519
-0.092640 -0.107944 0.322363
-0.091413 -0.108288 0.323397
-0.089808 -0.108189 0.323103
-0.088504 -0.108454 0.323894
-0.086698 -0.108104 0.322845
-0.085118 -0.108027 0.322607
-0.083525 -0.107931 0.322311
-0.081998 -0.107919 0.322262
-0.080825 -0.108381 0.323627
-0.079590 -0.108776 0.324786
-0.078347 -0.109175 0.325958
-0.077178 -0.109696 0.327490
-0.075396 -0.109349 0.326428
-0.073874 -0.109372 0.326469
-0.072417 -0.109496 0.326807
-0.070266 -0.108552 0.323960
-0.067455 -0.106525 0.317878
-0.066102 -0.106760 0.318544
-0.064671 -0.106876 0.318857
-0.062938 -0.106489 0.317666
-0.061601 -0.106768 0.318460
-0.060573 -0.107611 0.320935
-0.059102 -0.107690 0.321130
-0.057595 -0.107705 0.321135
-0.056224 -0.107984 0.321924
-0.054532 -0.107644 0.320868
-0.052621 -0.106840 0.318429
-0.050882 -0.106347 0.316918
-0.048994 -0.105504 0.314365
-0.047271 -0.104975 0.312746
-0.045441 -0.104168 0.310301
-0.043744 -0.103623 0.308634
-0.042044 -0.103030 0.306825
-0.040575 -0.102983 0.306645
-0.039109 -0.102941 0.306481
-0.037723 -0.103115 0.306957
-0.036573 -0.103972 0.309466
-0.035151 -0.104097 0.309800
-0.033863 -0.104647 0.311395
-0.032514 -0.105051 0.312558
-0.031095 -0.105253 0.313119
-0.029647 -0.105375 0.313446
-0.028109 -0.105174 0.312809
-0.026486 -0.104615 0.311111
-0.024774 -0.103616 0.308107
-0.023178 -0.103008 0.306265
-0.021691 -0.102841 0.305734
-0.020253 -0.102892 0.305856
-0.018780 -0.102767 0.305454
-0.017341 -0.102817 0.305573
-0.015903 -0.102884 0.305742
-0.014446 -0.102831 0.305559
-0.013014 -0.102972 0.305952
-0.011579 -0.103109 0.306336
-0.010132 -0.103171 0.306496
-0.008697 -0.103397 0.307146
-0.007234 -0.103303 0.306847
-0.005773 -0.103212 0.306556
-0.004317 -0.103193 0.306482
-0.002860 -0.103083 0.306140
-0.001405 -0.102965 0.305773
0.000046 -0.102797 0.305261
0.001493 -0.102623 0.304734
0.002936 -0.102518 0.304410
0.004379 -0.102467 0.304251
0.005821 -0.102417 0.304095
0.007266 -0.102429 0.304124
0.008705 -0.102370 0.303944
0.010142 -0.102307 0.303752
0.011589 -0.102343 0.303857
0.013043 -0.102430 0.304112
0.014492 -0.102462 0.304209
0.015953 -0.102565 0.304516
0.017429 -0.102740 0.305036
0.018951 -0.103140 0.306230
0.020445 -0.103336 0.306816
0.021955 -0.103585 0.307563
0.023436 -0.103675 0.307836
0.024915 -0.103743 0.308047
0.026410 -0.103867 0.308423
0.027846 -0.103758 0.308109
0.029392 -0.104049 0.308984
0.030846 -0.104002 0.308858
0.031902 -0.102681 0.304945
0.033326 -0.102603 0.304728
0.035409 -0.104478 0.310312
0.036864 -0.104423 0.310161
0.038418 -0.104642 0.310828
0.039877 -0.104597 0.310708
0.041328 -0.104535 0.310539
0.042126 -0.102879 0.305637
0.043523 -0.102751 0.305272
0.045066 -0.102963 0.305916
0.046409 -0.102718 0.305204
0.047915 -0.102840 0.305582
0.049613 -0.103353 0.307123
0.051035 -0.103278 0.306915
0.052465 -0.103224 0.306768
0.053944 -0.103265 0.306904
0.055273 -0.103025 0.306205
0.056680 -0.102940 0.305965
0.058134 -0.102940 0.305977
0.059410 -0.102634 0.305077
0.060738 -0.102430 0.304481
0.062119 -0.102323 0.304172
0.063450 -0.102140 0.303636
0.064879 -0.102118 0.303577
0.066352 -0.102166 0.303722
0.067774 -0.102135 0.303633
0.069214 -0.102132 0.303623
0.070645 -0.102115 0.303572
0.072056 -0.102071 0.303437
0.073549 -0.102142 0.303644
0.074998 -0.102150 0.303661
0.076437 -0.102145 0.303635
0.077921 -0.102200 0.303785
0.079379 -0.102218 0.303823
0.081187 -0.102679 0.305173
0.082673 -0.102723 0.305282
0.083963 -0.102526 0.304671
0.085480 -0.102608 0.304885
0.087007 -0.102699 0.305124
0.088252 -0.102460 0.304379
0.089553 -0.102292 0.303840
0.090836 -0.102110 0.303255
0.092217 -0.102042 0.303003
0.093497 -0.101865 0.302427
0.094473 -0.101367 0.300891
0.095895 -0.101357 0.300798
0.097312 -0.101341 0.300683
0.098435 -0.101023 0.299669
0.099986 -0.101148 0.299961
0.101466 -0.101197 0.300026
0.102991 -0.101291 0.300215
0.104300 -0.101171 0.299765
0.105721 -0.101163 0.299640
0.106912 -0.100937 0.298863
0.107559 -0.100210 0.296597
0.108902 -0.100142 0.296277
0.110335 -0.100158 0.296195
0.111449 -0.099887 0.295260
0.113068 -0.100069 0.295657
0.114426 -0.100020 0.295361
0.115966 -0.100128 0.295522
0.117447 -0.100183 0.295520
0.118623 -0.099981 0.294746
0.119928 -0.099889 0.294294
0.121330 -0.099880 0.294073
0.122661 -0.099814 0.293675
0.123956 -0.099720 0.293185
0.125135 -0.099535 0.292419
0.126698 -0.099657 0.292544
0.129845 -0.101008 0.296262
0.131674 -0.101316 0.296904
0.133405 -0.101542 0.297293
0.134920 -0.101600 0.297179
0.136707 -0.101860 0.297640
0.138098 -0.101823 0.297218
0.139564 -0.101841 0.296944
0.141152 -0.101947 0.296910
0.142749 -0.102057 0.296874
0.144274 -0.102114 0.296666
0.145713 -0.102109 0.296263
0.147501 -0.102346 0.296545
0.149733 -0.102884 0.297677
0.151565 -0.103139 0.297969
0.152916 -0.103064 0.297289
0.154729 -0.103300 0.297486
0.156101 -0.103240 0.296805
0.157616 -0.103274 0.296376
0.159172 -0.103334 0.296000
-0.154173 -0.100147 0.295695
-0.152321 -0.099865 0.295281
-0.150788 -0.099789 0.295457
-0.149302 -0.099744 0.295707
-0.147850 -0.099720 0.296006
-0.146226 -0.099579 0.295939
-0.144750 -0.099537 0.296151
-0.143239 -0.099470 0.296275
-0.141590 -0.099305 0.296091
-0.139827 -0.099056 0.295644
-0.137940 -0.098714 0.294901
-0.136676 -0.098814 0.295469
-0.135021 -0.098632 0.295180
-0.133544 -0.098577 0.295258
-0.132165 -0.098594 0.295541
-0.130602 -0.098473 0.295398
-0.124147 -0.094621 0.284044
-0.122896 -0.094694 0.284457
-0.122911 -0.095755 0.287829
-0.138920 -0.110681 0.333088
-0.132788 -0.112155 0.338345
-0.129952 -0.111096 0.335284
-0.127685 -0.110502 0.333620
-0.126371 -0.110730 0.334425
-0.123410 -0.109502 0.330826
-0.121509 -0.109195 0.329999
-0.120752 -0.109921 0.332290
-0.118987 -0.109738 0.331822
-0.117312 -0.109633 0.331587
-0.115972 -0.109843 0.332296
-0.114304 -0.109744 0.332061
-0.112479 -0.109489 0.331354
-0.110598 -0.109173 0.330451
-0.106971 -0.107099 0.324222
-0.105567 -0.107223 0.324640
-0.102516 -0.105653 0.319924
-0.100866 -0.105502 0.319499
-0.099477 -0.105623 0.319894
-0.097450 -0.105062 0.318216
-0.096374 -0.105523 0.319630
-0.096587 -0.107433 0.325432
-0.093742 -0.105948 0.320944
-0.092760 -0.106556 0.322790
-0.091533 -0.106897 0.323825
-0.089928 -0.106800 0.323531
-0.088623 -0.107063 0.324324
-0.086816 -0.106719 0.323274
-0.085234 -0.106644 0.323036
-0.083641 -0.106551 0.322740
-0.082113 -0.106541 0.322691
-0.080939 -0.106998 0.324058
-0.079703 -0.107389 0.325219
-0.078460 -0.107785 0.326393
-0.077290 -0.108300 0.327928
-0.075507 -0.107959 0.326865
-0.073983 -0.107983 0.326907
-0.072525 -0.108106 0.327246
-0.070372 -0.107176 0.324395
-0.067558 -0.105176 0.318306
-0.066203 -0.105408 0.318973
-0.064770 -0.105525 0.319287
-0.063036 -0.105144 0.318095
-0.061697 -0.105420 0.318890
-0.060669 -0.106253 0.321369
-0.059196 -0.106332 0.321565
-0.057687 -0.106348 0.321570
-0.056315 -0.106624 0.322361
-0.054621 -0.106290 0.321304
-0.052708 -0.105497 0.318862
-0.050966 -0.105011 0.317349
-0.049075 -0.104180 0.314794
-0.047350 -0.103659 0.313173
-0.045518 -0.102863 0.310725
-0.043819 -0.102325 0.309057
-0.042115 -0.101740 0.307246
-0.040644 -0.101695 0.307065
-0.039177 -0.101655 0.306901
-0.037789 -0.101827 0.307378
-0.036637 -0.102674 0.309892
-0.035213 -0.102798 0.310227
-0.033923 -0.103341 0.311824
-0.032573 -0.103741 0.312989
-0.031151 -0.103941 0.313551
-0.029701 -0.104063 0.313879
-0.028160 -0.103864 0.313242
-0.026656 -0.103785 0.312964
-0.025126 -0.103590 0.312340
-0.023656 -0.103635 0.312440
-0.022019 -0.102903 0.310200
-0.020477 -0.102542 0.309078
-0.018978 -0.102361 0.308500
-0.017449 -0.101975 0.307307
-0.015951 -0.101714 0.306491
-0.014475 -0.101556 0.305988
-0.013029 -0.101598 0.306088
-0.011573 -0.101567 0.305968
-0.010114 -0.101488 0.305708
-0.008647 -0.101304 0.305130
-0.007197 -0.101272 0.305012
-0.005755 -0.101373 0.305298
-0.004299 -0.101215 0.304806
-0.002857 -0.101367 0.305246
-0.001410 -0.101560 0.305812
0.000042 -0.101261 0.304898
0.001490 -0.101256 0.304873
0.002939 -0.101316 0.305042
0.004385 -0.101243 0.304812
0.005842 -0.101415 0.305322
0.007299 -0.101506 0.305591
0.008751 -0.101505 0.305582
0.010226 -0.101745 0.306302
0.011679 -0.101727 0.306248
0.013196 -0.102206 0.307689
0.014709 -0.102561 0.308759
0.016148 -0.102382 0.308220
0.017626 -0.102463 0.308470
0.019074 -0.102366 0.308181
0.020458 -0.101967 0.306986
0.021904 -0.101905 0.306808
0.023306 -0.101663 0.306087
0.024772 -0.101710 0.306238
0.026158 -0.101443 0.305443
0.027551 -0.101228 0.304807
0.028980 -0.101160 0.304615
0.030462 -0.101274 0.304971
0.031951 -0.101401 0.305368
0.033377 -0.101324 0.305150
0.034893 -0.101516 0.305743
0.036283 -0.101341 0.305234
0.037784 -0.101477 0.305659
0.039263 -0.101545 0.305880
0.040682 -0.101459 0.305639
0.042189 -0.101592 0.306058
0.043589 -0.101465 0.305692
0.045134 -0.101673 0.306337
0.046478 -0.101430 0.305624
0.047986 -0.101550 0.306002
0.049492 -0.101657 0.306342
0.050844 -0.101449 0.305733
0.052401 -0.101653 0.306364
0.053892 -0.101719 0.306581
0.055398 -0.101811 0.306872
0.056895 -0.101880 0.307098
0.058440 -0.102031 0.307568
0.059766 -0.101801 0.306886
0.061405 -0.102103 0.307809
0.062908 -0.102168 0.308018
0.064314 -0.102078 0.307757
0.065718 -0.101987 0.307491
0.067264 -0.102117 0.307891
0.068722 -0.102109 0.307873
0.070101 -0.101988 0.307511
0.071650 -0.102114 0.307892
0.073208 -0.102247 0.308295
0.074594 -0.102139 0.307966
0.075897 -0.101925 0.307314
0.077185 -0.101697 0.306621
0.078405 -0.101391 0.305688
0.079890 -0.101431 0.305799
0.081329 -0.101414 0.305731
0.082896 -0.101554 0.306133
0.085284 -0.102676 0.309494
0.086665 -0.102569 0.309146
0.088295 -0.102755 0.309679
0.089672 -0.102647 0.309319
0.090503 -0.101925 0.307108
0.091806 -0.101751 0.306543
0.093181 -0.101659 0.306223
0.094283 -0.101278 0.305026
0.095609 -0.101145 0.304572
0.096944 -0.101025 0.304153
0.098481 -0.101117 0.304365
0.100074 -0.101262 0.304733
0.101323 -0.101059 0.304051
0.102707 -0.100995 0.303779
0.104419 -0.101251 0.304463
0.105687 -0.101076 0.303844
0.107291 -0.101222 0.304187
0.108284 -0.100796 0.302802
0.109788 -0.100849 0.302850
0.111122 -0.100748 0.302430
0.112850 -0.101001 0.303066
0.114402 -0.101092 0.303208
0.116266 -0.101453 0.304150
0.118348 -0.101994 0.305621
0.121494 -0.103426 0.309754
0.122847 -0.103317 0.309256
0.124286 -0.103280 0.308971
0.125777 -0.103288 0.308808
0.126845 -0.102952 0.307606
0.128233 -0.102881 0.307188
0.129577 -0.102776 0.306659
0.129633 -0.101663 0.303114
0.130961 -0.101561 0.302576
0.131680 -0.100995 0.300644
0.133429 -0.101222 0.301064
0.134732 -0.101110 0.300461
0.135923 -0.100917 0.299606
0.137613 -0.101094 0.299839
0.138719 -0.100843 0.298787
0.140072 -0.100775 0.298265
0.141213 -0.100557 0.297286
0.142783 -0.100646 0.297199
0.144403 -0.100768 0.297197
0.145675 -0.100647 0.296458
0.147459 -0.100878 0.296742
0.149210 -0.101083 0.296929
0.150749 -0.101141 0.296667
0.152507 -0.101344 0.296808
0.154302 -0.101567 0.296989
0.155470 -0.101377 0.295940
0.157032 -0.101444 0.295623
0.159218 -0.101911 0.296443
-0.153659 -0.098383 0.294981
-0.152032 -0.098248 0.294985
-0.150342 -0.098068 0.294839
-0.148676 -0.097902 0.294713
-0.147302 -0.097927 0.295146
-0.145862 -0.097908 0.295433
-0.144282 -0.097793 0.295416
-0.142790 -0.097737 0.295561
-0.141046 -0.097506 0.295160
-0.139254 -0.097236 0.294631
-0.137666 -0.097105 0.294505
-0.135933 -0.096869 0.294048
-0.134715 -0.096998 0.294687
-0.133262 -0.096958 0.294804
-0.130144 -0.095695 0.291184
-0.126125 -0.093734 0.285425
-0.123640 -0.092883 0.283030
-0.122999 -0.093415 0.284835
-0.140463 -0.109070 0.332972
-0.139043 -0.109191 0.333528
-0.138281 -0.109839 0.335681
-0.135243 -0.108672 0.332280
-0.134535 -0.109372 0.334577
-0.133108 -0.109497 0.335106
-0.132916 -0.110654 0.338788
-0.128835 -0.108562 0.332511
-0.126653 -0.108038 0.331027
-0.125478 -0.108372 0.332160
-0.123361 -0.107889 0.330786
-0.121019 -0.107195 0.328752
-0.120573 -0.108185 0.331878
-0.118669 -0.107875 0.331009
-0.116486 -0.107301 0.329321
-0.115173 -0.107522 0.330070
-0.113903 -0.107791 0.330957
-0.111595 -0.107071 0.328803
-0.108392 -0.105461 0.323908
-0.104865 -0.103485 0.317880
-0.103373 -0.103488 0.317930
-0.101406 -0.103010 0.316493
-0.099933 -0.103026 0.316570
-0.098701 -0.103297 0.317424
-0.097201 -0.103290 0.317422
-0.096366 -0.104000 0.319619
-0.095080 -0.104239 0.320364
-0.093604 -0.104275 0.320479
-0.092672 -0.104926 0.322484
-0.091219 -0.105002 0.322713
-0.089643 -0.104934 0.322501
-0.088154 -0.104969 0.322599
-0.086736 -0.105091 0.322963
-0.085016 -0.104844 0.322190
-0.083285 -0.104575 0.321345
-0.081996 -0.104862 0.322208
-0.080584 -0.104999 0.322606
-0.079005 -0.104920 0.322338
-0.077322 -0.104697 0.321625
-0.075828 -0.104726 0.321682
-0.074169 -0.104524 0.321030
-0.072225 -0.103904 0.319091
-0.070467 -0.103530 0.317907
-0.068866 -0.103376 0.317399
-0.067136 -0.103018 0.316262
-0.065622 -0.102983 0.316114
-0.064113 -0.102952 0.315979
-0.062524 -0.102792 0.315445
-0.060959 -0.102661 0.315002
-0.059469 -0.102655 0.314940
-0.057992 -0.102673 0.314948
-0.056306 -0.102310 0.313789
-0.054740 -0.102152 0.313261
-0.053219 -0.102072 0.312968
-0.051419 -0.101438 0.310978
-0.050025 -0.101591 0.311401
-0.048381 -0.101229 0.310246
-0.046900 -0.101196 0.310098
-0.045353 -0.101015 0.309498
-0.043601 -0.100350 0.307415
-0.042327 -0.100779 0.308681
-0.040495 -0.099861 0.305826
-0.039083 -0.099951 0.306058
-0.037886 -0.100616 0.308049
-0.036373 -0.100463 0.307537
-0.034977 -0.100636 0.308021
-0.033639 -0.100998 0.309087
-0.032389 -0.101668 0.311093
-0.030986 -0.101900 0.311763
-0.029533 -0.101982 0.311972
-0.028071 -0.102037 0.312101
-0.026593 -0.102042 0.312078
-0.025120 -0.102068 0.312119
-0.023572 -0.101769 0.311168
-0.022004 -0.101342 0.309826
-0.020519 -0.101263 0.309551
