ply
format ascii 1.0
element vertex 1681
property float x
property float y
property float z
end_header
0.102287 -0.058715 0.294905
0.103669 -0.058703 0.294854
0.105196 -0.058772 0.295208
0.106712 -0.058834 0.295517
0.108106 -0.058827 0.295479
0.109413 -0.058773 0.295200
0.110831 -0.058780 0.295219
0.112279 -0.058803 0.295311
0.113653 -0.058786 0.295200
0.115109 -0.058812 0.295296
0.116478 -0.058793 0.295161
0.117861 -0.058782 0.295059
0.119166 -0.058732 0.294755
0.120477 -0.058687 0.294467
0.121854 -0.058674 0.294335
0.123207 -0.058650 0.294139
0.124840 -0.058759 0.294600
0.126353 -0.058809 0.294760
0.128019 -0.058928 0.295256
0.129529 -0.058974 0.295377
0.130768 -0.058897 0.294871
0.132224 -0.058918 0.294848
0.133690 -0.058943 0.294836
0.135348 -0.059051 0.295229
0.137158 -0.059222 0.295927
0.138766 -0.059304 0.296167
0.140632 -0.059493 0.296929
0.141799 -0.059386 0.296203
0.143126 -0.059347 0.295803
0.144875 -0.059482 0.296260
0.146349 -0.059503 0.296132
0.147831 -0.059526 0.296008
0.149676 -0.059694 0.296583
0.151124 -0.059702 0.296351
0.152866 -0.059825 0.296675
0.154638 -0.059956 0.297025
0.156291 -0.060040 0.297124
-0.152785 -0.057005 0.292063
-0.151322 -0.056975 0.292167
-0.149778 -0.056913 0.292098
-0.148826 -0.057078 0.293174
-0.147246 -0.057002 0.293005
-0.145198 -0.056743 0.291876
-0.143859 -0.056758 0.292149
-0.142452 -0.056746 0.292271
-0.140929 -0.056688 0.292141
-0.139444 -0.056644 0.292073
-0.138107 -0.056659 0.292304
-0.136577 -0.056596 0.292114
-0.135303 -0.056638 0.292461
-0.133797 -0.056583 0.292297
-0.132382 -0.056565 0.292317
-0.131076 -0.056595 0.292572
-0.129656 -0.056575 0.292562
-0.128186 -0.056534 0.292429
-0.126939 -0.056590 0.292799
-0.125374 -0.056505 0.292423
-0.123978 -0.056495 0.292430
-0.122653 -0.056517 0.292596
-0.121210 -0.056485 0.292475
-0.119742 -0.056440 0.292280
-0.118490 -0.056497 0.292609
-0.116928 -0.056407 0.292162
-0.115523 -0.056391 0.292097
-0.114220 -0.056424 0.292283
-0.112883 -0.056442 0.292378
-0.111493 -0.056433 0.292332
-0.110262 -0.056506 0.292703
-0.109033 -0.056581 0.293083
-0.107552 -0.056526 0.292779
-0.106203 -0.056540 0.292830
-0.105082 -0.056678 0.293514
-0.103785 -0.056722 0.293714
-0.102573 -0.056816 0.294161
-0.101207 -0.056825 0.294169
-0.098905 -0.056302 0.291414
-0.097719 -0.056409 0.291918
-0.096439 -0.056463 0.292145
-0.094985 -0.056416 0.291845
-0.093761 -0.056506 0.292249
-0.092465 -0.056555 0.292438
-0.091118 -0.056573 0.292465
-0.089885 -0.056664 0.292865
-0.088598 -0.056723 0.293098
-0.087293 -0.056773 0.293279
-0.085982 -0.056821 0.293444
-0.084644 -0.056851 0.293520
-0.083324 -0.056895 0.293665
-0.081825 -0.056817 0.293173
-0.080433 -0.056811 0.293055
-0.079115 -0.056858 0.293205
-0.077702 -0.056838 0.293007
-0.076319 -0.056839 0.292921
-0.075019 -0.056903 0.293156
-0.073553 -0.056842 0.292745
-0.072236 -0.056896 0.292923
-0.070887 -0.056926 0.292977
-0.069517 -0.056939 0.292948
-0.068135 -0.056944 0.292871
-0.066803 -0.056992 0.293013
-0.065477 -0.057046 0.293192
-0.064055 -0.057018 0.292945
-0.062544 -0.056908 0.292277
-0.061274 -0.057017 0.292734
-0.059829 -0.056965 0.292362
-0.058460 -0.056984 0.292357
-0.057140 -0.057053 0.292607
-0.055739 -0.057043 0.292451
-0.054389 -0.057085 0.292567
-0.053010 -0.057100 0.292539
-0.051521 -0.056992 0.291887
-0.050250 -0.057128 0.292483
-0.048893 -0.057170 0.292596
-0.047453 -0.057114 0.292214
-0.046108 -0.057175 0.292426
-0.044766 -0.057242 0.292674
-0.043379 -0.057253 0.292635
-0.041915 -0.057161 0.292072
-0.040567 -0.057227 0.292316
-0.039144 -0.057188 0.292026
-0.037752 -0.057193 0.291962
-0.036394 -0.057251 0.292173
-0.035009 -0.057271 0.292193
-0.033605 -0.057260 0.292053
-0.032208 -0.057261 0.291974
-0.030805 -0.057250 0.291840
-0.029417 -0.057267 0.291854
-0.028007 -0.057241 0.291647
-0.026611 -0.057243 0.291585
-0.025207 -0.057228 0.291441
-0.023821 -0.057253 0.291503
-0.022438 -0.057290 0.291627
-0.021042 -0.057297 0.291603
-0.019642 -0.057294 0.291527
-0.018255 -0.057329 0.291654
-0.016869 -0.057377 0.291844
-0.015467 -0.057373 0.291776
-0.014084 -0.057445 0.292097
-0.012669 -0.057390 0.291772
-0.011260 -0.057351 0.291535
-0.009866 -0.057390 0.291695
-0.008457 -0.057335 0.291382
-0.007059 -0.057356 0.291460
-0.005654 -0.057310 0.291196
-0.002861 -0.057451 0.291866
-0.001468 -0.057823 0.293742
-0.000055 -0.057862 0.293925
0.001351 -0.057572 0.292442
0.004154 -0.057434 0.291729
0.005563 -0.057497 0.292044
0.006960 -0.057431 0.291714
0.008363 -0.057429 0.291705
0.009767 -0.057435 0.291744
0.011179 -0.057477 0.291971
0.012589 -0.057502 0.292114
0.013995 -0.057506 0.292153
0.015399 -0.057501 0.292147
0.016803 -0.057495 0.292139
0.018210 -0.057503 0.292208
0.019598 -0.057452 0.291980
0.020987 -0.057408 0.291789
0.022388 -0.057404 0.291802
0.023803 -0.057432 0.291985
0.025198 -0.057413 0.291928
0.026605 -0.057420 0.292009
0.028012 -0.057427 0.292091
0.029442 -0.057477 0.292392
0.030885 -0.057548 0.292808
0.032267 -0.057503 0.292632
0.033690 -0.057532 0.292832
0.035104 -0.057544 0.292955
0.036504 -0.057534 0.292961
0.037955 -0.057600 0.293359
0.039367 -0.057606 0.293457
0.040761 -0.057584 0.293411
0.042159 -0.057570 0.293408
0.043573 -0.057579 0.293521
0.045021 -0.057629 0.293850
0.046425 -0.057623 0.293890
0.047742 -0.057511 0.293394
0.049213 -0.057587 0.293858
0.050582 -0.057542 0.293702
0.051982 -0.057534 0.293737
0.053386 -0.057530 0.293795
0.054711 -0.057444 0.293434
0.056336 -0.057669 0.294662
0.057686 -0.057608 0.294431
0.059084 -0.057597 0.294455
0.060150 -0.057270 0.292864
0.061607 -0.057322 0.293209
0.063247 -0.057538 0.294396
0.064624 -0.057511 0.294335
0.066085 -0.057557 0.294653
0.067410 -0.057486 0.294367
0.068675 -0.057368 0.293842
0.070466 -0.057685 0.295543
0.071882 -0.057688 0.295639
0.073258 -0.057660 0.295571
0.074681 -0.057669 0.295691
0.076040 -0.057629 0.295561
0.077345 -0.057551 0.295233
0.078780 -0.057571 0.295403
0.080124 -0.057524 0.295233
0.081593 -0.057567 0.295518
0.082887 -0.057487 0.295175
0.084334 -0.057514 0.295376
0.085785 -0.057543 0.295584
0.087245 -0.057577 0.295819
0.088565 -0.057519 0.295572
0.089966 -0.057514 0.295601
0.091437 -0.057554 0.295856
0.092650 -0.057433 0.295276
0.094075 -0.057444 0.295377
0.095376 -0.057381 0.295092
0.096741 -0.057357 0.295005
0.098281 -0.057436 0.295444
0.099532 -0.057347 0.295010
0.100888 -0.057320 0.294893
0.102364 -0.057360 0.295117
0.103779 -0.057366 0.295161
0.105207 -0.057379 0.295237
0.106620 -0.057382 0.295261
0.108147 -0.057447 0.295593
0.109500 -0.057419 0.295440
0.110809 -0.057369 0.295170
0.112431 -0.057480 0.295724
0.113774 -0.057447 0.295529
0.114997 -0.057355 0.295026
0.116379 -0.057344 0.294931
0.117688 -0.057297 0.294649
0.119099 -0.057301 0.294617
0.120510 -0.057305 0.294579
0.121787 -0.057245 0.294207
0.123282 -0.057288 0.294356
0.124652 -0.057273 0.294197
0.126381 -0.057421 0.294868
0.127699 -0.057381 0.294566
0.129090 -0.057374 0.294425
0.130599 -0.057419 0.294543
0.131818 -0.057338 0.294000
0.133172 -0.057316 0.293755
0.135326 -0.057635 0.295245
0.136991 -0.057741 0.295636
0.138358 -0.057722 0.295370
0.140037 -0.057831 0.295751
0.141723 -0.057940 0.296123
0.143159 -0.057947 0.295956
0.144641 -0.057972 0.295870
0.146211 -0.058031 0.295948
0.147916 -0.058142 0.296276
0.149576 -0.058233 0.296488
0.151236 -0.058323 0.296679
0.152561 -0.058283 0.296195
0.154311 -0.058404 0.296514
0.155971 -0.058490 0.296637
-0.152782 -0.055611 0.292156
-0.150729 -0.055364 0.291115
-0.149630 -0.055467 0.291896
-0.148437 -0.055537 0.292492
-0.146709 -0.055407 0.292018
-0.145164 -0.055343 0.291885
-0.143899 -0.055386 0.292301
-0.142482 -0.055371 0.292401
-0.140981 -0.055323 0.292314
-0.139633 -0.055334 0.292531
-0.138221 -0.055321 0.292605
-0.136798 -0.055302 0.292643
-0.135164 -0.055197 0.292213
-0.133928 -0.055254 0.292630
-0.132513 -0.055238 0.292651
-0.130844 -0.055114 0.292093
-0.129492 -0.055123 0.292231
-0.128125 -0.055126 0.292324
-0.126731 -0.055117 0.292348
-0.125203 -0.055048 0.292051
-0.123854 -0.055058 0.292160
-0.122567 -0.055097 0.292413
-0.121248 -0.055121 0.292585
-0.119852 -0.055111 0.292564
-0.117964 -0.054872 0.291322
-0.117451 -0.055274 0.293478
-0.115292 -0.054902 0.291517
-0.113999 -0.054938 0.291719
-0.112449 -0.054850 0.291254
-0.111042 -0.054831 0.291147
-0.110063 -0.055025 0.292168
-0.108613 -0.054986 0.291945
-0.107386 -0.055059 0.292317
-0.106195 -0.055154 0.292795
-0.104730 -0.055107 0.292514
-0.103597 -0.055236 0.293165
-0.102383 -0.055324 0.293595
-0.100663 -0.055138 0.292562
-0.099271 -0.055129 0.292466
-0.097800 -0.055075 0.292129
-0.096516 -0.055127 0.292347
-0.095226 -0.055176 0.292550
-0.093837 -0.055169 0.292447
-0.092528 -0.055209 0.292596
-0.091247 -0.055268 0.292836
-0.089887 -0.055280 0.292827
-0.088585 -0.055329 0.293008
-0.087290 -0.055383 0.293216
-0.085820 -0.055326 0.292836
-0.084526 -0.055383 0.293054
-0.083280 -0.055475 0.293450
-0.081633 -0.055297 0.292421
-0.080394 -0.055395 0.292849
-0.079096 -0.055454 0.293069
-0.077655 -0.055414 0.292763
-0.076330 -0.055457 0.292894
-0.074902 -0.055425 0.292629
-0.073597 -0.055485 0.292843
-0.072171 -0.055454 0.292579
-0.070848 -0.055503 0.292735
-0.069530 -0.055557 0.292922
-0.068217 -0.055618 0.293141
-0.066881 -0.055663 0.293270
-0.065486 -0.055659 0.293146
-0.064268 -0.055809 0.293830
-0.062991 -0.055913 0.294272
-0.061224 -0.055577 0.292398
-0.059885 -0.055623 0.292536
-0.058423 -0.055555 0.292070
-0.057048 -0.055567 0.292032
-0.055732 -0.055640 0.292308
-0.054303 -0.055601 0.292001
-0.052911 -0.055599 0.291885
-0.051536 -0.055614 0.291865
-0.050190 -0.055663 0.292018
-0.048820 -0.055687 0.292042
-0.047453 -0.055716 0.292097
-0.046088 -0.055751 0.292178
-0.044719 -0.055782 0.292243
-0.043329 -0.055787 0.292176
-0.041933 -0.055786 0.292075
-0.040528 -0.055772 0.291908
-0.039154 -0.055802 0.291971
-0.037758 -0.055800 0.291875
-0.036346 -0.055775 0.291653
-0.034995 -0.055846 0.291939
-0.033625 -0.055891 0.292089
-0.032208 -0.055856 0.291827
-0.030831 -0.055893 0.291938
-0.029455 -0.055935 0.292083
-0.028064 -0.055952 0.292094
-0.026674 -0.055972 0.292126
-0.025288 -0.056005 0.292230
-0.023889 -0.056009 0.292186
-0.022550 -0.056164 0.292926
-0.021178 -0.056253 0.293331
-0.019710 -0.056081 0.292375
-0.018352 -0.056219 0.293036
-0.016991 -0.056374 0.293791
-0.015521 -0.056157 0.292614
-0.012659 -0.055932 0.291349
-0.011271 -0.055991 0.291616
-0.009855 -0.055909 0.291151
-0.008464 -0.055963 0.291401
-0.007074 -0.056055 0.291848
-0.005666 -0.056010 0.291586
-0.002866 -0.056086 0.291934
-0.001461 -0.056076 0.291869
0.004157 -0.056094 0.291922
0.005560 -0.056086 0.291879
0.006968 -0.056113 0.292021
0.008371 -0.056094 0.291931
0.009785 -0.056148 0.292218
0.011190 -0.056140 0.292187
0.012596 -0.056140 0.292206
0.014020 -0.056211 0.292591
0.015416 -0.056168 0.292391
0.016816 -0.056145 0.292294
0.018225 -0.056152 0.292356
0.019621 -0.056120 0.292221
0.020999 -0.056046 0.291869
0.022413 -0.056070 0.292035
0.023823 -0.056083 0.292138
0.025216 -0.056056 0.292040
0.026628 -0.056071 0.292161
0.028038 -0.056081 0.292265
0.029454 -0.056100 0.292412
0.030886 -0.056149 0.292719
0.032265 -0.056099 0.292513
0.033681 -0.056116 0.292660
0.035093 -0.056124 0.292764
0.036490 -0.056110 0.292752
0.037921 -0.056147 0.293005
0.039361 -0.056192 0.293309
0.040745 -0.056160 0.293206
0.042163 -0.056173 0.293347
0.043552 -0.056148 0.293285
0.044982 -0.056176 0.293507
0.046394 -0.056181 0.293605
0.047786 -0.056162 0.293579
0.049185 -0.056150 0.293597
0.050618 -0.056179 0.293823
0.052005 -0.056156 0.293783
0.053387 -0.056128 0.293715
0.054703 -0.056034 0.293306
0.056078 -0.056005 0.293232
0.057504 -0.056025 0.293421
0.058725 -0.055850 0.292586
0.060028 -0.055760 0.292194
0.061476 -0.055805 0.292513
0.063034 -0.055945 0.293331
0.064613 -0.056098 0.294211
0.066098 -0.056164 0.294642
0.067520 -0.056176 0.294783
0.069109 -0.056322 0.295634
0.070320 -0.056161 0.294867
0.071881 -0.056280 0.295571
0.073338 -0.056315 0.295832
0.074744 -0.056310 0.295885
0.076099 -0.056267 0.295735
0.077414 -0.056197 0.295444
0.078732 -0.056132 0.295171
0.080116 -0.056115 0.295154
0.081483 -0.056086 0.295074
0.082698 -0.055956 0.294455
0.084346 -0.056119 0.295377
0.085776 -0.056133 0.295513
0.087028 -0.056033 0.295044
0.088515 -0.056084 0.295371
0.089891 -0.056065 0.295324
0.091138 -0.055966 0.294857
0.092732 -0.056081 0.295509
0.093947 -0.055966 0.294952
0.095271 -0.055919 0.294742
0.096722 -0.055947 0.294926
0.098306 -0.056049 0.295501
0.099639 -0.056008 0.295313
0.100915 -0.055936 0.294958
0.102376 -0.055967 0.295145
0.103735 -0.055942 0.295031
0.105242 -0.055997 0.295331
0.106563 -0.055952 0.295102
0.108132 -0.056038 0.295554
0.109408 -0.055971 0.295198
0.111040 -0.056085 0.295791
0.112524 -0.056123 0.295976
0.113903 -0.056108 0.295877
0.115150 -0.056030 0.295435
0.116606 -0.056054 0.295527
0.117943 -0.056020 0.295311
0.119275 -0.055985 0.295077
0.120552 -0.055925 0.294708
0.121880 -0.055891 0.294463
0.123322 -0.055908 0.294485
0.125023 -0.056041 0.295109
0.126499 -0.056072 0.295185
0.127837 -0.056041 0.294928
0.129180 -0.056013 0.294678
0.130568 -0.056005 0.294526
0.131983 -0.056009 0.294423
0.133609 -0.056101 0.294776
0.135382 -0.056252 0.295430
0.136783 -0.056247 0.295254
0.138333 -0.056303 0.295384
0.140109 -0.056449 0.295977
0.141473 -0.056427 0.295680
0.142718 -0.056359 0.295126
0.144263 -0.056409 0.295184
0.145743 -0.056434 0.295091
0.147409 -0.056529 0.295354
0.149103 -0.056633 0.295651
0.150414 -0.056591 0.295169
0.152285 -0.056758 0.295766
0.154001 -0.056865 0.296032
0.155667 -0.056951 0.296176
-0.152364 -0.054070 0.291449
-0.150659 -0.053953 0.291069
-0.149303 -0.053960 0.291344
-0.148099 -0.054023 0.291907
-0.146642 -0.053994 0.291961
-0.145140 -0.053948 0.291908
-0.143558 -0.053871 0.291679
-0.142324 -0.053924 0.292143
-0.140839 -0.053883 0.292082
-0.139244 -0.053798 0.291775
-0.138075 -0.053878 0.292350
-0.136619 -0.053846 0.292310
-0.135217 -0.053836 0.292375
-0.133912 -0.053864 0.292640
-0.132381 -0.053801 0.292402
-0.130914 -0.053762 0.292289
-0.129448 -0.053724 0.292165
-0.128021 -0.053701 0.292119
-0.126505 -0.053640 0.291856
-0.125160 -0.053651 0.291976
-0.123699 -0.053612 0.291817
-0.122295 -0.053597 0.291784
-0.120985 -0.053624 0.291966
-0.119717 -0.053670 0.292248
-0.118152 -0.053582 0.291796
-0.116753 -0.053569 0.291741
-0.115574 -0.053657 0.292236
-0.113850 -0.053492 0.291340
-0.112713 -0.053602 0.291937
-0.111187 -0.053527 0.291525
-0.109874 -0.053554 0.291661
-0.108608 -0.053605 0.291922
-0.107321 -0.053647 0.292128
-0.106093 -0.053720 0.292499
-0.104781 -0.053752 0.292639
-0.103490 -0.053796 0.292842
-0.102279 -0.053883 0.293273
-0.100939 -0.053904 0.293339
-0.099300 -0.053763 0.292524
-0.098021 -0.053816 0.292759
-0.096655 -0.053823 0.292734
-0.095180 -0.053767 0.292372
-0.093871 -0.053806 0.292514
-0.092545 -0.053835 0.292607
-0.091244 -0.053881 0.292783
-0.089904 -0.053904 0.292834
-0.088507 -0.053894 0.292700
-0.087261 -0.053977 0.293070
-0.085927 -0.054007 0.293150
-0.084493 -0.053975 0.292886
-0.083107 -0.053972 0.292783
-0.081779 -0.054007 0.292884
-0.080401 -0.054011 0.292812
-0.079044 -0.054029 0.292811
-0.077714 -0.054066 0.292917
-0.076397 -0.054114 0.293078
-0.074984 -0.054095 0.292875
-0.073575 -0.054077 0.292679
-0.072165 -0.054059 0.292477
-0.070891 -0.054144 0.292835
-0.069476 -0.054122 0.292612
-0.068119 -0.054146 0.292635
-0.066773 -0.054180 0.292711
-0.065291 -0.054101 0.292181
-0.063825 -0.054034 0.291711
-0.062419 -0.054016 0.291508
-0.061172 -0.054137 0.292055
-0.059823 -0.054172 0.292138
-0.058390 -0.054131 0.291807
-0.057038 -0.054164 0.291879
-0.055688 -0.054202 0.291975
-0.054353 -0.054256 0.292162
-0.052963 -0.054257 0.292063
-0.051572 -0.054256 0.291955
-0.050204 -0.054282 0.291989
-0.048861 -0.054336 0.292177
-0.047461 -0.054328 0.292033
-0.046042 -0.054298 0.291768
-0.044704 -0.054364 0.292026
-0.043241 -0.054277 0.291462
-0.041867 -0.054300 0.291487
-0.040514 -0.054354 0.291682
-0.039144 -0.054387 0.291766
-0.037769 -0.054416 0.291831
-0.036403 -0.054461 0.291981
-0.035033 -0.054503 0.292122
-0.033632 -0.054498 0.292009
-0.032244 -0.054515 0.292018
-0.030842 -0.054510 0.291908
-0.029449 -0.054520 0.291883
-0.028051 -0.054521 0.291815
-0.026664 -0.054545 0.291871
-0.025255 -0.054524 0.291689
-0.023843 -0.054497 0.291473
-0.022485 -0.054595 0.291934
-0.021074 -0.054569 0.291732
-0.019662 -0.054538 0.291507
-0.018304 -0.054662 0.292112
-0.016861 -0.054534 0.291374
-0.015477 -0.054589 0.291620
-0.014207 -0.055099 0.294294
-0.012704 -0.054713 0.292193
-0.011278 -0.054614 0.291620
-0.009885 -0.054661 0.291831
-0.008500 -0.054784 0.292456
-0.007083 -0.054702 0.291984
-0.005677 -0.054682 0.291855
-0.002867 -0.054666 0.291720
-0.001463 -0.054661 0.291675
0.002748 -0.054656 0.291619
0.004151 -0.054650 0.291582
0.005550 -0.054606 0.291344
0.006959 -0.054653 0.291597
0.008365 -0.054666 0.291673
0.009767 -0.054655 0.291624
0.011151 -0.054555 0.291104
0.012565 -0.054607 0.291397
0.013998 -0.054728 0.292057
0.015318 -0.054420 0.290438
0.016761 -0.054566 0.291241
0.018219 -0.054733 0.292164
0.019615 -0.054706 0.292047
0.021023 -0.054712 0.292116
0.022432 -0.054717 0.292181
0.023838 -0.054718 0.292225
0.025274 -0.054783 0.292615
0.026642 -0.054700 0.292218
0.028052 -0.054709 0.292312
0.029488 -0.054763 0.292656
0.030868 -0.054715 0.292453
0.032298 -0.054754 0.292714
0.033720 -0.054778 0.292903
0.035078 -0.054701 0.292549
0.036504 -0.054729 0.292765
0.037933 -0.054762 0.293005
0.039360 -0.054788 0.293210
0.040763 -0.054780 0.293236
0.042102 -0.054690 0.292828
0.043568 -0.054766 0.293305
0.045052 -0.054858 0.293871
0.046443 -0.054834 0.293823
0.047647 -0.054598 0.292633
0.049290 -0.054864 0.294136
0.050674 -0.054835 0.294059
0.052087 -0.054839 0.294161
0.053459 -0.054798 0.294027
0.054807 -0.054737 0.293781
0.056197 -0.054720 0.293773
0.057524 -0.054644 0.293444
0.059005 -0.054714 0.293905
0.060494 -0.054787 0.294384
0.061472 -0.054406 0.292420
0.063241 -0.054726 0.294222
0.064639 -0.054718 0.294261
0.066011 -0.054688 0.294183
0.067358 -0.054639 0.294007
0.068700 -0.054588 0.293816
0.070221 -0.054679 0.294387
0.071781 -0.054796 0.295100
0.072957 -0.054621 0.294237
0.074426 -0.054668 0.294568
0.075798 -0.054643 0.294512
0.077137 -0.054596 0.294332
0.078320 -0.054442 0.293577
0.079805 -0.054499 0.293958
0.081251 -0.054528 0.294186
0.082784 -0.054614 0.294720
0.084129 -0.054575 0.294574
0.085731 -0.054700 0.295317
0.087177 -0.054724 0.295510
0.088434 -0.054631 0.295066
0.089843 -0.054633 0.295132
0.091191 -0.054598 0.294997
0.092698 -0.054658 0.295373
0.094230 -0.054731 0.295814
0.095239 -0.054502 0.294621
0.096882 -0.054637 0.295391
0.098346 -0.054669 0.295601
0.099572 -0.054570 0.295098
0.100897 -0.054527 0.294892
0.102430 -0.054596 0.295289
0.103496 -0.054417 0.294343
0.105031 -0.054487 0.294732
0.106481 -0.054511 0.294871
0.107710 -0.054423 0.294399
0.109045 -0.054390 0.294221
0.110438 -0.054386 0.294193
0.112293 -0.054607 0.295377
0.113057 -0.054299 0.293690
0.114344 -0.054246 0.293381
0.115973 -0.054355 0.293939
0.117416 -0.054375 0.294011
0.119090 -0.054500 0.294644
0.120318 -0.054421 0.294163
0.121590 -0.054363 0.293791
0.123020 -0.054376 0.293796
0.124353 -0.054346 0.293562
0.126413 -0.054632 0.295022
0.127814 -0.054629 0.294916
0.129296 -0.054661 0.294989
0.130583 -0.054610 0.294607
0.132019 -0.054622 0.294555
0.133518 -0.054660 0.294632
0.135357 -0.054835 0.295436
0.136787 -0.054841 0.295324
0.138366 -0.054908 0.295523
0.140057 -0.055016 0.295938
0.141649 -0.055084 0.296121
0.142844 -0.054997 0.295464
0.144312 -0.055017 0.295365
0.145920 -0.055089 0.295535
0.147620 -0.055194 0.295867
0.149423 -0.055335 0.296378
0.150706 -0.055282 0.295841
0.152128 -0.055281 0.295563
0.153766 -0.055358 0.295688
0.155424 -0.055440 0.295826
-0.152213 -0.052628 0.291248
-0.150480 -0.052504 0.290808
-0.149028 -0.052477 0.290888
-0.148010 -0.052604 0.291808
-0.146360 -0.052506 0.291472
-0.144715 -0.052408 0.291125
-0.143329 -0.052403 0.291280
-0.142029 -0.052430 0.291601
-0.140486 -0.052367 0.291408
-0.139127 -0.052372 0.291586
-0.137747 -0.052369 0.291707
-0.136363 -0.052364 0.291811
-0.135084 -0.052401 0.292132
-0.133744 -0.052414 0.292315
-0.132204 -0.052348 0.292050
-0.130741 -0.052312 0.291939
-0.129132 -0.052216 0.291486
-0.127653 -0.052171 0.291309
-0.126443 -0.052236 0.291739
-0.124915 -0.052170 0.291430
-0.123427 -0.052120 0.291197
-0.122173 -0.052168 0.291508
-0.120921 -0.052218 0.291826
-0.119247 -0.052085 0.291112
-0.117914 -0.052100 0.291217
-0.116363 -0.052018 0.290774
-0.114847 -0.051950 0.290400
-0.113830 -0.052108 0.291290
-0.112340 -0.052052 0.290970
-0.111020 -0.052073 0.291080
-0.109865 -0.052174 0.291631
-0.108532 -0.052191 0.291708
-0.107250 -0.052234 0.291922
-0.105906 -0.052247 0.291966
-0.104525 -0.052243 0.291907
-0.103232 -0.052283 0.292089
-0.101793 -0.052249 0.291855
-0.100536 -0.052309 0.292142
-0.099230 -0.052344 0.292289
-0.097797 -0.052313 0.292058
-0.096513 -0.052362 0.292270
-0.095177 -0.052384 0.292326
-0.093786 -0.052375 0.292212
-0.092591 -0.052478 0.292714
-0.091187 -0.052463 0.292557
-0.089887 -0.052509 0.292735
-0.088508 -0.052510 0.292657
-0.087097 -0.052491 0.292468
-0.085833 -0.052561 0.292775
-0.084352 -0.052499 0.292341
-0.083052 -0.052549 0.292530
-0.081761 -0.052608 0.292760
-0.080360 -0.052596 0.292600
-0.079067 -0.052655 0.292832
-0.077742 -0.052695 0.292957
-0.076371 -0.052705 0.292910
-0.075062 -0.052759 0.293109
-0.073509 -0.052640 0.292343
-0.072170 -0.052673 0.292423
-0.070814 -0.052695 0.292437
-0.069521 -0.052765 0.292721
-0.068149 -0.052776 0.292677
-0.066662 -0.052698 0.292136
-0.065391 -0.052791 0.292541
-0.064058 -0.052837 0.292689
-0.062611 -0.052788 0.292309
-0.061211 -0.052778 0.292145
-0.059879 -0.052828 0.292311
-0.058445 -0.052788 0.291984
-0.056986 -0.052723 0.291515
-0.055607 -0.052730 0.291446
-0.054254 -0.052764 0.291526
-0.052900 -0.052798 0.291608
-0.051537 -0.052825 0.291648
-0.050161 -0.052840 0.291628
-0.048834 -0.052909 0.291903
-0.047443 -0.052910 0.291806
-0.046100 -0.052967 0.292016
-0.044747 -0.053015 0.292183
-0.043273 -0.052920 0.291559
-0.041842 -0.052871 0.291192
-0.040443 -0.052861 0.291042
-0.039095 -0.052920 0.291273
-0.037704 -0.052924 0.291198
-0.036299 -0.052907 0.291017
-0.034952 -0.052977 0.291313
-0.033571 -0.052998 0.291345
-0.032175 -0.052997 0.291253
-0.030796 -0.053027 0.291334
-0.029413 -0.053049 0.291380
-0.028030 -0.053077 0.291457
-0.026649 -0.053109 0.291557
-0.025248 -0.053106 0.291469
-0.023851 -0.053109 0.291419
-0.022457 -0.053119 0.291408
-0.021053 -0.053109 0.291286
-0.019663 -0.053132 0.291354
-0.018218 -0.053002 0.290583
-0.016797 -0.052924 0.290103
-0.015415 -0.052964 0.290269
-0.013950 -0.052701 0.288784
-0.012582 -0.052787 0.289209
-0.009879 -0.053216 0.291479
-0.008469 -0.053165 0.291166
-0.007104 -0.053437 0.292623
-0.005686 -0.053348 0.292111
-0.001467 -0.053308 0.291823
0.001342 -0.053256 0.291516
0.002750 -0.053336 0.291946
0.004154 -0.053312 0.291807
0.005559 -0.053306 0.291773
0.006967 -0.053328 0.291897
0.008368 -0.053294 0.291718
0.009776 -0.053310 0.291813
0.011175 -0.053277 0.291650
0.012579 -0.053277 0.291664
0.013977 -0.053250 0.291533
0.015374 -0.053225 0.291423
0.016774 -0.053213 0.291383
0.018132 -0.053080 0.290681
0.019443 -0.052837 0.289385
0.020964 -0.053162 0.291196
0.022403 -0.053250 0.291718
0.023849 -0.053342 0.292263
0.025231 -0.053288 0.292012
0.028026 -0.053258 0.291941
0.029427 -0.053250 0.291951
0.030888 -0.053348 0.292539
0.032229 -0.053239 0.292000
0.033651 -0.053265 0.292205
0.035062 -0.053274 0.292316
0.036416 -0.053198 0.291964
0.037792 -0.053159 0.291814
0.039190 -0.053153 0.291847
0.040552 -0.053101 0.291631
0.041927 -0.053067 0.291518
0.043342 -0.053084 0.291687
0.044786 -0.053136 0.292047
0.046254 -0.053211 0.292536
0.047727 -0.053288 0.293037
0.049176 -0.053334 0.293370
0.050607 -0.053359 0.293587
0.052030 -0.053373 0.293749
0.053342 -0.053277 0.293304
0.054715 -0.053245 0.293208
0.056021 -0.053150 0.292772
0.057398 -0.053126 0.292722
0.058771 -0.053099 0.292659
0.059954 -0.052906 0.291680
0.061276 -0.052842 0.291413
0.063335 -0.053401 0.294583
0.064570 -0.053257 0.293875
0.065905 -0.053200 0.293644
0.067318 -0.053207 0.293767
0.068611 -0.053120 0.293373
0.069947 -0.053069 0.293176
0.071305 -0.053036 0.293080
0.073057 -0.053293 0.294582
0.074476 -0.053301 0.294706
0.075764 -0.053218 0.294324
0.077221 -0.053253 0.294600
0.078537 -0.053192 0.294337
0.079697 -0.053029 0.293510
0.081443 -0.053254 0.294833
0.082582 -0.053083 0.293954
0.084433 -0.053367 0.295596
0.085815 -0.053350 0.295568
0.087097 -0.053272 0.295201
0.088612 -0.053337 0.295624
0.089986 -0.053316 0.295567
0.091373 -0.053303 0.295555
0.092679 -0.053245 0.295282
0.094058 -0.053229 0.295246
0.095412 -0.053200 0.295132
0.096835 -0.053210 0.295227
0.098276 -0.053229 0.295372
0.099645 -0.053209 0.295296
0.100948 -0.053155 0.295026
0.102267 -0.053110 0.294805
0.103542 -0.053045 0.294464
0.104870 -0.053007 0.294273
0.106307 -0.053026 0.294388
0.107500 -0.052923 0.293825
0.108893 -0.052921 0.293812
0.110322 -0.052935 0.293888
0.111522 -0.052841 0.293356
0.112896 -0.052830 0.293282
0.114369 -0.052866 0.293458
0.115968 -0.052958 0.293942
0.117200 -0.052882 0.293486
0.118809 -0.052977 0.293969
0.120155 -0.052952 0.293787
0.121508 -0.052932 0.293620
0.122955 -0.052953 0.293670
0.124619 -0.053066 0.294225
0.126080 -0.053090 0.294282
0.127536 -0.053112 0.294314
0.128739 -0.053029 0.293760
0.130282 -0.053087 0.293974
0.131547 -0.053031 0.293551
0.133766 -0.053357 0.295232
0.134826 -0.053218 0.294331
0.136183 -0.053199 0.294080
0.137913 -0.053324 0.294618
0.139690 -0.053464 0.295228
0.141299 -0.053538 0.295459
0.142750 -0.053551 0.295344
0.144200 -0.053564 0.295213
0.145561 -0.053544 0.294890
0.147447 -0.053715 0.295607
0.149131 -0.053810 0.295891
0.150612 -0.053830 0.295752
0.152094 -0.053851 0.295597
0.153752 -0.053933 0.295765
0.155288 -0.053971 0.295676
-0.157245 -0.052460 0.298004
-0.152474 -0.051329 0.291833
-0.150674 -0.051186 0.291264
-0.149078 -0.051111 0.291063
-0.147851 -0.051162 0.291569
-0.146488 -0.051166 0.291798
-0.144904 -0.051093 0.291571
-0.143456 -0.051067 0.291600
-0.142055 -0.051057 0.291713
-0.140661 -0.051050 0.291827
-0.139067 -0.050969 0.291511
-0.137619 -0.050941 0.291486
-0.136371 -0.050987 0.291874
-0.135012 -0.050992 0.292020
-0.133611 -0.050981 0.292065
-0.132331 -0.051017 0.292367
-0.130362 -0.050785 0.291126
-0.128849 -0.050728 0.290877
-0.127415 -0.050701 0.290793
-0.126030 -0.050693 0.290811
-0.124878 -0.050780 0.291364
-0.123440 -0.050751 0.291246
-0.122049 -0.050741 0.291230
-0.120903 -0.050834 0.291796
-0.119877 -0.050980 0.292660
-0.117574 -0.050580 0.290386
-0.117525 -0.051152 0.293681
-0.116748 -0.051417 0.295210
-0.113465 -0.050571 0.290356
-0.112126 -0.050582 0.290411
-0.110755 -0.050579 0.290381
-0.109594 -0.050672 0.290901
-0.108445 -0.050774 0.291463
-0.107152 -0.050810 0.291642
-0.105849 -0.050842 0.291793
-0.104605 -0.050904 0.292110
-0.103281 -0.050928 0.292207
-0.101945 -0.050947 0.292267
-0.100609 -0.050966 0.292329
-0.099164 -0.050930 0.292065
-0.097854 -0.050963 0.292196
-0.096622 -0.051038 0.292566
-0.095226 -0.051028 0.292440
-0.093919 -0.051066 0.292587
-0.092383 -0.050979 0.292013
-0.091179 -0.051075 0.292488
-0.089887 -0.051124 0.292687
-0.088367 -0.051043 0.292139
-0.087083 -0.051098 0.292368
-0.085914 -0.051223 0.292997
-0.084411 -0.051150 0.292488
-0.083014 -0.051140 0.292339
-0.081897 -0.051304 0.293184
-0.080474 -0.051281 0.292951
-0.079093 -0.051282 0.292862
-0.077866 -0.051387 0.293356
-0.076509 -0.051407 0.293370
-0.075060 -0.051365 0.293028
-0.073674 -0.051366 0.292926
-0.072207 -0.051309 0.292494
-0.070746 -0.051254 0.292076
-0.069252 -0.051174 0.291508
-0.067944 -0.051229 0.291716
-0.066443 -0.051139 0.291091
-0.065272 -0.051304 0.291925
-0.063977 -0.051377 0.292228
-0.062295 -0.051135 0.290743
-0.061268 -0.051433 0.292326
-0.059918 -0.051467 0.292407
-0.058288 -0.051256 0.291099
-0.056947 -0.051296 0.291216
-0.055603 -0.051335 0.291326
-0.054219 -0.051338 0.291233
-0.052853 -0.051358 0.291241
-0.051511 -0.051405 0.291395
-0.050105 -0.051387 0.291190
-0.048745 -0.051418 0.291259
-0.047344 -0.051405 0.291082
-0.045938 -0.051387 0.290876
-0.044601 -0.051447 0.291116
-0.043185 -0.051418 0.290847
-0.041785 -0.051405 0.290679
-0.040428 -0.051446 0.290812
-0.039031 -0.051439 0.290676
-0.037651 -0.051453 0.290661
-0.036307 -0.051520 0.290947
-0.034936 -0.051553 0.291044
-0.033558 -0.051578 0.291099
-0.032203 -0.051642 0.291374
-0.030848 -0.051712 0.291688
-0.029456 -0.051722 0.291667
-0.028056 -0.051721 0.291583
-0.026729 -0.051861 0.292292
-0.025351 -0.051911 0.292504
-0.022555 -0.051941 0.292533
-0.021170 -0.051991 0.292751
-0.019696 -0.051814 0.291694
-0.018348 -0.051966 0.292492
-0.016909 -0.051864 0.291867
-0.015474 -0.051758 0.291217
-0.014124 -0.051944 0.292215
-0.012709 -0.051907 0.291958
-0.009917 -0.051997 0.292387
-0.007115 -0.052091 0.292845
-0.002869 -0.051801 0.291144
-0.001464 -0.051723 0.290687
-0.000064 -0.051794 0.291069
0.001338 -0.051787 0.291021
0.002739 -0.051770 0.290919
0.004143 -0.051798 0.291072
0.005546 -0.051808 0.291124
0.006949 -0.051807 0.291120
0.008355 -0.051822 0.291214
0.009758 -0.051824 0.291235
0.011158 -0.051808 0.291155
0.012574 -0.051860 0.291467
0.013980 -0.051867 0.291526
0.015376 -0.051837 0.291377
0.016835 -0.052006 0.292357
0.018224 -0.051951 0.292075
0.019613 -0.051902 0.291833
0.021064 -0.052013 0.292493
0.022432 -0.051918 0.292000
0.023813 -0.051864 0.291733
0.025232 -0.051890 0.291928
0.026611 -0.051839 0.291689
0.028010 -0.051829 0.291680
0.029362 -0.051737 0.291216
0.030828 -0.051844 0.291875
0.032235 -0.051848 0.291957
0.035000 -0.051782 0.291706
0.036399 -0.051776 0.291737
0.037850 -0.051840 0.292167
0.039091 -0.051624 0.291021
0.040535 -0.051681 0.291412
0.041957 -0.051707 0.291631
0.043307 -0.051646 0.291364
0.044814 -0.051770 0.292136
0.046086 -0.051623 0.291388
0.047439 -0.051573 0.291181
0.049282 -0.052042 0.293913
0.050665 -0.052014 0.293836
0.052041 -0.051979 0.293727
0.053398 -0.051928 0.293524
0.054800 -0.051923 0.293578
0.056029 -0.051758 0.292734
0.057370 -0.051702 0.292499
0.058907 -0.051821 0.293263
0.059956 -0.051515 0.291617
0.061278 -0.051452 0.291350
0.063237 -0.051915 0.294057
0.064565 -0.051851 0.293782
0.066002 -0.051875 0.294006
0.067360 -0.051838 0.293882
0.068704 -0.051791 0.293703
0.070094 -0.051781 0.293731
0.071398 -0.051708 0.293403
0.072853 -0.051745 0.293696
0.074135 -0.051661 0.293303
0.075443 -0.051597 0.293021
0.077366 -0.051948 0.295097
0.078103 -0.051505 0.292660
0.079537 -0.051529 0.292872
0.081419 -0.051837 0.294700
0.083101 -0.052010 0.295756
0.084270 -0.051861 0.294981
0.085391 -0.051688 0.294066
0.087008 -0.051816 0.294861
0.088309 -0.051755 0.294577
0.089435 -0.051594 0.293725
0.090967 -0.051669 0.294210
0.092982 -0.052012 0.296218
0.094298 -0.051960 0.295972
0.095635 -0.051920 0.295796
0.096951 -0.051870 0.295558
0.098238 -0.051807 0.295238
0.099592 -0.051780 0.295121
0.100786 -0.051672 0.294538
0.102175 -0.051665 0.294530
0.103496 -0.051625 0.294322
0.104792 -0.051573 0.294047
0.106287 -0.051619 0.294326
0.107504 -0.051531 0.293832
0.109037 -0.051595 0.294199
0.110402 -0.051578 0.294106
0.112067 -0.051701 0.294795
0.113357 -0.051649 0.294488
0.114587 -0.051572 0.294029
0.116177 -0.051656 0.294484
0.117496 -0.051620 0.294245
0.119055 -0.051688 0.294597
0.120249 -0.051598 0.294039
0.121664 -0.051604 0.294022
0.123081 -0.051611 0.293999
0.124501 -0.051619 0.293976
0.125932 -0.051631 0.293969
0.127204 -0.051579 0.293587
0.128607 -0.051580 0.293500
0.130038 -0.051592 0.293468
0.131372 -0.051566 0.293208
0.132957 -0.051637 0.293495
0.135222 -0.051969 0.295249
0.135925 -0.051700 0.293580
0.137833 -0.051889 0.294506
0.139587 -0.052018 0.295074
0.141228 -0.052102 0.295380
0.142615 -0.052092 0.295138
0.143872 -0.052035 0.294617
0.145488 -0.052107 0.294820
0.146935 -0.052118 0.294662
0.148361 -0.052122 0.294449
0.150253 -0.052288 0.295137
0.151756 -0.052317 0.295036
0.153566 -0.052449 0.295507
0.155269 -0.052543 0.295744
-0.157309 -0.051060 0.298214
-0.152432 -0.049925 0.291836
-0.150916 -0.049880 0.291809
-0.149031 -0.049711 0.291045
-0.147411 -0.049628 0.290772
-0.146182 -0.049677 0.291255
-0.144853 -0.049692 0.291533
-0.143403 -0.049666 0.291554
-0.142120 -0.049697 0.291904
-0.140669 -0.049670 0.291898
-0.139262 -0.049659 0.291972
-0.137810 -0.049630 0.291938
-0.136148 -0.049525 0.291442
-0.134966 -0.049594 0.291961
-0.133700 -0.049634 0.292297
-0.132090 -0.049545 0.291870
-0.130518 -0.049469 0.291507
-0.129099 -0.049450 0.291470
-0.127298 -0.049282 0.290552
-0.126193 -0.049383 0.291209
-0.124728 -0.049345 0.291035
-0.122895 -0.049158 0.289979
-0.122225 -0.049438 0.291665
-0.120482 -0.049285 0.290792
-0.118479 -0.049021 0.289258
-0.116403 -0.048720 0.287499
-0.114971 -0.048685 0.287303
-0.114577 -0.049094 0.289720
-0.113114 -0.049049 0.289455
-0.111674 -0.049014 0.289236
-0.110745 -0.049204 0.290347
-0.109525 -0.049269 0.290710
-0.108155 -0.049267 0.290671
-0.106895 -0.049315 0.290929
-0.105616 -0.049356 0.291136
-0.104157 -0.049313 0.290840
-0.102803 -0.049319 0.290832
-0.101551 -0.049375 0.291114
-0.099339 -0.048960 0.288611
-0.098278 -0.049107 0.289426
-0.096683 -0.048989 0.288668
-0.095036 -0.048841 0.287729
-0.093918 -0.048964 0.288388
-0.092217 -0.048782 0.287245
-0.091177 -0.048950 0.288162
-0.089742 -0.048908 0.287834
-0.088348 -0.048887 0.287631
-0.087525 -0.049187 0.289309
-0.085905 -0.049041 0.288364
-0.084740 -0.049154 0.288941
-0.083833 -0.049423 0.290431
-0.082437 -0.049408 0.290249
-0.081182 -0.049479 0.290566
-0.080049 -0.049627 0.291340
-0.078945 -0.049800 0.292252
-0.077011 -0.049445 0.290070
-0.075618 -0.049432 0.289886
-0.075041 -0.049961 0.292883
-0.072989 -0.049509 0.290130
-0.071727 -0.049587 0.290475
-0.070609 -0.049769 0.291433
-0.069081 -0.049664 0.290707
-0.067739 -0.049690 0.290754
-0.066403 -0.049723 0.290834
-0.065030 -0.049728 0.290753
-0.063666 -0.049742 0.290719
-0.062272 -0.049732 0.290549
-0.060819 -0.049672 0.290089
-0.059542 -0.049758 0.290477
-0.058213 -0.049803 0.290632
-0.056707 -0.049695 0.289890
-0.055415 -0.049774 0.290241
-0.054148 -0.049880 0.290748
-0.052772 -0.049890 0.290695
-0.051556 -0.050055 0.291546
-0.050135 -0.050023 0.291255
-0.048819 -0.050100 0.291591
-0.047518 -0.050195 0.292040
-0.045469 -0.049483 0.287791
-0.044305 -0.049720 0.289070
-0.043206 -0.050047 0.290869
-0.041747 -0.049965 0.290293
-0.040308 -0.049902 0.289828
-0.039045 -0.050060 0.290651
-0.037671 -0.050084 0.290691
-0.036269 -0.050070 0.290517
-0.034890 -0.050088 0.290532
-0.033508 -0.050103 0.290533
-0.032118 -0.050108 0.290472
-0.030777 -0.050192 0.290877
-0.029389 -0.050204 0.290867
-0.027999 -0.050214 0.290848
-0.026637 -0.050278 0.291141
-0.025237 -0.050275 0.291051
-0.023850 -0.050298 0.291110
-0.022382 -0.050141 0.290135
-0.021028 -0.050239 0.290638
-0.019674 -0.050349 0.291214
-0.018225 -0.050214 0.290376
-0.016835 -0.050232 0.290422
-0.015478 -0.050363 0.291127
-0.013955 -0.049924 0.288544
-0.011368 -0.050774 0.293367
-0.009942 -0.050706 0.292935
-0.005559 -0.049361 0.285068
-0.004253 -0.050158 0.289650
-0.002863 -0.050258 0.290204
-0.001468 -0.050380 0.290889
-0.000066 -0.050142 0.289503
0.002743 -0.050486 0.291468
0.004144 -0.050440 0.291202
0.005552 -0.050474 0.291396
0.006957 -0.050477 0.291413
0.008347 -0.050390 0.290918
0.011142 -0.050343 0.290670
0.012519 -0.050243 0.290110
0.014002 -0.050550 0.291906
0.015199 -0.049860 0.287940
0.016585 -0.049853 0.287929
0.018218 -0.050533 0.291888
0.019667 -0.050642 0.292552
0.021069 -0.050621 0.292465
0.022394 -0.050431 0.291405
0.023805 -0.050447 0.291538
0.025208 -0.050443 0.291561
0.026529 -0.050284 0.290694
0.027955 -0.050330 0.291008
0.029371 -0.050355 0.291206
0.030782 -0.050368 0.291342
0.032206 -0.050403 0.291601
0.033611 -0.050404 0.291672
0.034994 -0.050374 0.291559
0.036390 -0.050364 0.291569
0.037745 -0.050301 0.291270
0.039126 -0.050275 0.291189
0.040484 -0.050221 0.290953
0.041849 -0.050180 0.290791
0.043201 -0.050128 0.290562
0.044580 -0.050107 0.290521
0.046071 -0.050211 0.291201
0.047375 -0.050110 0.290700
0.049026 -0.050373 0.292305
0.050410 -0.050353 0.292273
0.051641 -0.050186 0.291386
0.053084 -0.050228 0.291720
0.054405 -0.050156 0.291385
0.055718 -0.050079 0.291027
0.057016 -0.049994 0.290618
0.058340 -0.049935 0.290364
0.059585 -0.049812 0.289736
0.060941 -0.049785 0.289672
0.063205 -0.050486 0.293837
0.064604 -0.050480 0.293891
0.065995 -0.050467 0.293907
0.067300 -0.050391 0.293555
0.068621 -0.050330 0.293284
0.069993 -0.050307 0.293241
0.071291 -0.050234 0.292902
0.072628 -0.050190 0.292730
0.073994 -0.050167 0.292684
0.075283 -0.050095 0.292344
0.076627 -0.050060 0.292226
0.078007 -0.050050 0.292247
0.079393 -0.050045 0.292293
0.080787 -0.050044 0.292367
0.082206 -0.050058 0.292525
0.083540 -0.050021 0.292382
0.085174 -0.050162 0.293279
0.086626 -0.050193 0.293525
0.088071 -0.050219 0.293744
0.089220 -0.050078 0.292983
0.090618 -0.050078 0.293047
0.091985 -0.050063 0.293011
0.093212 -0.049972 0.292534
0.094598 -0.049968 0.292563
0.095925 -0.049933 0.292406
0.097245 -0.049896 0.292233
0.098685 -0.049921 0.292415
0.100061 -0.049912 0.292402
0.101804 -0.050085 0.293446
0.103236 -0.050102 0.293572
0.104492 -0.050034 0.293196
0.105797 -0.049991 0.292961
0.107174 -0.049983 0.292926
0.108474 -0.049940 0.292680
0.109742 -0.049883 0.292347
0.111050 -0.049846 0.292123
0.112393 -0.049824 0.291989
0.113941 -0.049894 0.292379
0.115328 -0.049892 0.292344
0.116812 -0.049931 0.292545
0.118179 -0.049920 0.292447
0.119485 -0.049884 0.292192
0.120738 -0.049826 0.291806
0.122126 -0.049826 0.291745
0.123767 -0.049927 0.292272
0.125244 -0.049960 0.292395
0.126225 -0.049797 0.291360
0.127796 -0.049868 0.291686
0.129552 -0.050009 0.292412
0.131170 -0.050094 0.292801
0.132051 -0.049898 0.291542
0.133596 -0.049955 0.291750
0.135269 -0.050059 0.292217
0.137436 -0.050340 0.293716
0.139052 -0.050417 0.294003
0.140795 -0.050538 0.294539
0.142448 -0.050624 0.294860
0.143904 -0.050639 0.294754
0.145389 -0.050664 0.294695
0.146956 -0.050716 0.294784
0.148588 -0.050790 0.294983
0.150435 -0.050935 0.295581
0.151595 -0.050848 0.294814
0.153547 -0.051024 0.295565
0.155082 -0.051060 0.295486
-0.157372 -0.049659 0.298417
-0.152347 -0.048509 0.291752
-0.150692 -0.048420 0.291451
-0.148866 -0.048274 0.290795
-0.147690 -0.048339 0.291390
-0.146178 -0.048293 0.291311
-0.144696 -0.048257 0.291276
-0.143310 -0.048252 0.291421
-0.142010 -0.048277 0.291732
-0.140534 -0.048242 0.291669
-0.139193 -0.048252 0.291874
-0.137733 -0.048222 0.291819
-0.136216 -0.048171 0.291629
-0.134798 -0.048154 0.291636
-0.133457 -0.048164 0.291801
-0.132017 -0.048139 0.291740
-0.130551 -0.048104 0.291609
-0.129183 -0.048104 0.291686
-0.127847 -0.048117 0.291828
-0.126405 -0.048090 0.291721
-0.125721 -0.048353 0.293370
-0.122301 -0.048091 0.291858
-0.117395 -0.046685 0.283350
-0.116586 -0.046895 0.284642
-0.114815 -0.046718 0.283582
-0.113293 -0.046639 0.283111
-0.112246 -0.046756 0.283827
-0.111226 -0.046888 0.284620
-0.110041 -0.046953 0.285002
-0.108836 -0.047010 0.285335
-0.107597 -0.047054 0.285580
-0.106496 -0.047160 0.286200
-0.105279 -0.047218 0.286515
-0.103762 -0.047140 0.286007
-0.102321 -0.047095 0.285694
-0.101083 -0.047144 0.285945
-0.099846 -0.047195 0.286202
-0.098582 -0.047233 0.286384
-0.097396 -0.047312 0.286801
-0.095985 -0.047281 0.286553
-0.094918 -0.047422 0.287337
-0.094279 -0.047783 0.289459
-0.092771 -0.047709 0.288932
-0.091155 -0.047576 0.288049
-0.090147 -0.047761 0.289089
-0.088865 -0.047804 0.289268
-0.087269 -0.047677 0.288416
-0.085327 -0.047354 0.286374
-0.084033 -0.047386 0.286477
-0.082736 -0.047418 0.286577
-0.081536 -0.047507 0.287019
-0.080123 -0.047474 0.286719
-0.078648 -0.047401 0.286181
-0.077100 -0.047281 0.285357
-0.075762 -0.047289 0.285301
-0.074614 -0.047417 0.285970
-0.073075 -0.047297 0.285140
-0.071762 -0.047321 0.285179
-0.070473 -0.047363 0.285324
-0.069280 -0.047472 0.285873
-0.067950 -0.047490 0.285871
-0.066760 -0.047608 0.286474
-0.065514 -0.047691 0.286858
-0.064279 -0.047785 0.287313
-0.063015 -0.047861 0.287660
-0.061785 -0.047968 0.288188
-0.060403 -0.047958 0.288015
-0.059161 -0.048062 0.288529
-0.057905 -0.048159 0.288997
-0.056060 -0.047760 0.286488
-0.054749 -0.047806 0.286656
-0.053454 -0.047869 0.286925
-0.052068 -0.047853 0.286716
-0.050720 -0.047870 0.286710
-0.049366 -0.047884 0.286684
-0.047997 -0.047883 0.286571
-0.046645 -0.047900 0.286566
-0.045331 -0.047958 0.286807
-0.043828 -0.047813 0.285840
-0.042513 -0.047872 0.286090
-0.041517 -0.048305 0.288575
-0.039831 -0.047937 0.286284
-0.038428 -0.047897 0.285945
-0.037631 -0.048636 0.290263
-0.035737 -0.047959 0.286130
-0.034405 -0.048014 0.286366
-0.033151 -0.048187 0.287312
-0.031743 -0.048140 0.286946
-0.030408 -0.048206 0.287256
-0.029074 -0.048280 0.287613
-0.027705 -0.048300 0.287656
-0.026329 -0.048311 0.287640
-0.024886 -0.048192 0.286859
-0.023505 -0.048185 0.286751
-0.022163 -0.048265 0.287156
-0.020780 -0.048258 0.287051
-0.019416 -0.048301 0.287245
-0.018043 -0.048323 0.287319
-0.016686 -0.048397 0.287705
-0.015336 -0.048505 0.288292
-0.013909 -0.048368 0.287430
-0.012527 -0.048375 0.287425
-0.011133 -0.048332 0.287126
-0.009737 -0.048267 0.286704
-0.008359 -0.048284 0.286767
-0.006968 -0.048222 0.286366
-0.005582 -0.048174 0.286055
-0.004209 -0.048229 0.286360
-0.002825 -0.048176 0.286019
-0.001448 -0.048217 0.286246
-0.000068 -0.048236 0.286346
0.001312 -0.048190 0.286061
0.002699 -0.048322 0.286839
0.004081 -0.048314 0.286787
0.005464 -0.048313 0.286779
0.006853 -0.048356 0.287037
0.008235 -0.048338 0.286939
0.009632 -0.048407 0.287357
0.011014 -0.048388 0.287257
0.012403 -0.048402 0.287356
0.013796 -0.048426 0.287520
0.015200 -0.048481 0.287870
0.016585 -0.048471 0.287837
0.018034 -0.048636 0.288848
0.019448 -0.048688 0.289192
0.020846 -0.048698 0.289287
0.022274 -0.048770 0.289758
0.023681 -0.048790 0.289921
0.025066 -0.048766 0.289823
0.026488 -0.048813 0.290149
0.027912 -0.048859 0.290474
0.029335 -0.048898 0.290760
0.030792 -0.048986 0.291343
0.032193 -0.048983 0.291387
0.033576 -0.048954 0.291274
0.034989 -0.048968 0.291421
0.036481 -0.049088 0.292204
0.037993 -0.049224 0.293086
0.039477 -0.049317 0.293709
0.040788 -0.049193 0.293047
0.042519 -0.049567 0.295355
0.044301 -0.049975 0.297865
0.045900 -0.050158 0.299034
0.047185 -0.049996 0.298155
0.048493 -0.049869 0.297476
0.049606 -0.049553 0.295677
0.051026 -0.049552 0.295762
0.052466 -0.049571 0.295959
0.053781 -0.049474 0.295467
0.055141 -0.049421 0.295244
0.056574 -0.049436 0.295422
0.057959 -0.049408 0.295347
0.059306 -0.049350 0.295093
0.060799 -0.049414 0.295568
0.062076 -0.049304 0.294996
0.063512 -0.049321 0.295190
0.064997 -0.049375 0.295607
0.066384 -0.049353 0.295570
0.067778 -0.049338 0.295572
0.069202 -0.049345 0.295704
0.070603 -0.049335 0.295735
0.072153 -0.049428 0.296379
0.073710 -0.049522 0.297034
0.075365 -0.049677 0.298052
0.076986 -0.049804 0.298900
0.079243 -0.050330 0.302147
0.080572 -0.050259 0.301807
0.082099 -0.050311 0.302202
0.083510 -0.050293 0.302172
0.085105 -0.050383 0.302793
0.086496 -0.050351 0.302683
0.088005 -0.050389 0.302984
0.089680 -0.050518 0.303835
0.091394 -0.050665 0.304789
0.092709 -0.050589 0.304404
0.096230 -0.051702 0.311164
0.094240 -0.049864 0.300165
0.095721 -0.049891 0.300381
0.097006 -0.049815 0.299982
0.097850 -0.049519 0.298251
0.101817 -0.050789 0.305948
0.104480 -0.051383 0.309566
0.105670 -0.051245 0.308776
0.107197 -0.051272 0.308975
0.108415 -0.051153 0.308286
0.109221 -0.050845 0.306455
0.110135 -0.050595 0.304968
0.111887 -0.050731 0.305802
0.113256 -0.050692 0.305581
0.114671 -0.050674 0.305477
0.116201 -0.050707 0.305675
0.117423 -0.050607 0.305063
0.118837 -0.050591 0.304952
0.120097 -0.050510 0.304443
0.121021 -0.050292 0.303101
0.122465 -0.050292 0.303070
0.123554 -0.050148 0.302160
0.124805 -0.050073 0.301658
0.125329 -0.049711 0.299420
0.126567 -0.049637 0.298911
0.138804 -0.052090 0.313333
0.137961 -0.051222 0.308003
0.139746 -0.051338 0.308579
0.141979 -0.051614 0.310106
0.144107 -0.051846 0.311363
0.145425 -0.051786 0.310847
0.146896 -0.051780 0.310651
0.148411 -0.051790 0.310535
0.149979 -0.051818 0.310515
0.151317 -0.051767 0.310010
0.153428 -0.051978 0.311064
0.155248 -0.052088 0.311496
0.154062 -0.051197 0.305932
0.154377 -0.050817 0.303412
0.155104 -0.050578 0.301726
0.154913 -0.050047 0.298286
0.156321 -0.050038 0.297944
-0.156769 -0.048053 0.297355
-0.152791 -0.047258 0.292678
-0.151145 -0.047175 0.292399
-0.149313 -0.047033 0.291736
-0.147749 -0.046973 0.291570
-0.146339 -0.046962 0.291694
-0.144812 -0.046913 0.291569
-0.143516 -0.046938 0.291895
-0.142079 -0.046918 0.291925
-0.140743 -0.046930 0.292152
-0.139158 -0.046859 0.291847
-0.137717 -0.046836 0.291827
-0.136136 -0.046764 0.291498
-0.134870 -0.046800 0.291830
-0.133517 -0.046807 0.291966
-0.132164 -0.046813 0.292096
-0.131056 -0.046908 0.292765
-0.129541 -0.046857 0.292520
-0.125753 -0.045974 0.287070
-0.123085 -0.045486 0.284078
-0.125795 -0.046997 0.293559
-0.132678 -0.051839 0.323939
-0.130750 -0.051678 0.322944
-0.128822 -0.051513 0.321920
-0.127151 -0.051449 0.321514
-0.125538 -0.051406 0.321239
-0.124148 -0.051455 0.321532
-0.123037 -0.051622 0.322555
-0.122008 -0.051828 0.323818
-0.120945 -0.052025 0.325015
-0.120364 -0.052437 0.327550
-0.120846 -0.053329 0.333076
-0.119861 -0.053588 0.334644
-0.118833 -0.053835 0.336130
-0.099363 -0.049635 0.309422
-0.098509 -0.049941 0.311245
-0.097117 -0.049980 0.311395
-0.095524 -0.049915 0.310897
-0.094238 -0.050010 0.311395
-0.093668 -0.050494 0.314314
-0.093027 -0.050956 0.317082
-0.091647 -0.051021 0.317381
-0.090960 -0.051480 0.320132
-0.090041 -0.051822 0.322143
-0.087464 -0.051205 0.318195
-0.085996 -0.051226 0.318215
-0.084617 -0.051302 0.318572
-0.067190 -0.050669 0.313303
-0.065787 -0.050736 0.313590
-0.064409 -0.050826 0.314024
-0.062693 -0.050647 0.312793
-0.061038 -0.050510 0.311822
-0.059322 -0.050314 0.310494
-0.057868 -0.050337 0.310509
-0.056348 -0.050302 0.310173
-0.054914 -0.050343 0.310308
-0.053466 -0.050374 0.310381
-0.052015 -0.050404 0.310447
-0.050554 -0.050426 0.310467
-0.049063 -0.050419 0.310306
-0.047572 -0.050410 0.310143
-0.046057 -0.050375 0.309815
-0.044496 -0.050287 0.309160
-0.043059 -0.050336 0.309356
0.001391 -0.049699 0.303585
0.002855 -0.049699 0.303574
0.004320 -0.049697 0.303557
0.010126 -0.049443 0.302029
0.011581 -0.049432 0.301978
0.013067 -0.049541 0.302662
0.014543 -0.049594 0.303006
0.016073 -0.049806 0.304329
0.017557 -0.049849 0.304620
0.019037 -0.049878 0.304829
0.020554 -0.049991 0.305553
0.022023 -0.049979 0.305522
0.023506 -0.050000 0.305693
0.024990 -0.050018 0.305849
0.026453 -0.049996 0.305768
0.027932 -0.050004 0.305866
0.029308 -0.049837 0.304898
0.030771 -0.049826 0.304892
0.032219 -0.049792 0.304748
0.033736 -0.049864 0.305251
0.035181 -0.049828 0.305094
0.036656 -0.049836 0.305214
0.038096 -0.049796 0.305044
0.038854 -0.048902 0.299636
0.040340 -0.048955 0.300035
0.041639 -0.048784 0.299069
0.043125 -0.048838 0.299477
0.044573 -0.048846 0.299606
0.046052 -0.048886 0.299934
0.047713 -0.049111 0.301400
0.049079 -0.049028 0.300979
0.050590 -0.049091 0.301453
0.052066 -0.049117 0.301705
0.053590 -0.049185 0.302214
0.054925 -0.049081 0.301666
0.057200 -0.049801 0.306187
0.058602 -0.049744 0.305931
0.060111 -0.049778 0.306236
0.061795 -0.049952 0.307399
0.063031 -0.049764 0.306340
0.064598 -0.049840 0.306905
0.065991 -0.049781 0.306642
0.067535 -0.049836 0.307078
0.068918 -0.049772 0.306781
0.070326 -0.049729 0.306614
0.072624 -0.050304 0.310258
0.074010 -0.050237 0.309941
0.075391 -0.050170 0.309619
0.075373 -0.049191 0.303674
0.076659 -0.049085 0.303111
0.078085 -0.049070 0.303111
0.082277 -0.049855 0.308136
0.083629 -0.049783 0.307783
0.085029 -0.049743 0.307618
0.086691 -0.049854 0.308389
0.088247 -0.049902 0.308766
0.090059 -0.050090 0.310010
0.091402 -0.050016 0.309629
0.093473 -0.050336 0.311685
0.094818 -0.050261 0.311291
0.096307 -0.050263 0.311376
0.097644 -0.050187 0.310971
0.100471 -0.050119 0.310670
0.101796 -0.050043 0.310251
0.103334 -0.050072 0.310484
0.104726 -0.050031 0.310273
0.106260 -0.050057 0.310480
