ply
format ascii 1.0
element vertex 1745
property float x
property float y
property float z
end_header
0.011025 0.056597 0.256223
0.012267 0.056658 0.256513
0.013518 0.056743 0.256915
0.014752 0.056748 0.256955
0.015991 0.056771 0.257082
0.017231 0.056793 0.257204
0.018512 0.056939 0.257891
0.019973 0.057585 0.260847
0.021491 0.058308 0.264152
0.022932 0.058754 0.266205
0.024379 0.059167 0.268114
0.025537 0.058873 0.266820
0.026896 0.059048 0.267652
0.028307 0.059316 0.268911
0.029464 0.059051 0.267754
0.030888 0.059321 0.269025
0.032163 0.059294 0.268951
0.033435 0.059264 0.268865
0.034803 0.059401 0.269538
0.035938 0.059144 0.268425
0.037085 0.058924 0.267479
0.038244 0.058736 0.266681
0.039211 0.058276 0.264652
0.040272 0.057979 0.263360
0.041375 0.057760 0.262421
0.042059 0.056984 0.258957
0.043208 0.056865 0.258474
0.044312 0.056696 0.257764
0.045226 0.056299 0.256022
0.046180 0.055971 0.254590
0.047523 0.056120 0.255330
0.048641 0.056002 0.254852
0.049908 0.056057 0.255164
0.051181 0.056115 0.255490
0.052676 0.056409 0.256894
0.053862 0.056366 0.256759
0.055293 0.056575 0.257776
0.057313 0.057365 0.261436
0.059404 0.058191 0.265265
0.061026 0.058531 0.266880
0.062785 0.058988 0.269026
0.064153 0.059065 0.269440
0.065481 0.059104 0.269679
0.066951 0.059266 0.270480
0.068100 0.059144 0.269981
0.069362 0.059122 0.269941
0.070575 0.059061 0.269716
0.071774 0.058990 0.269447
0.073167 0.059077 0.269900
0.074570 0.059170 0.270374
0.075936 0.059230 0.270701
0.077314 0.059298 0.271059
0.078613 0.059304 0.271133
0.080235 0.059549 0.272296
0.081465 0.059500 0.272114
0.082905 0.059604 0.272627
0.084508 0.059820 0.273649
0.086158 0.060062 0.274787
0.087839 0.060318 0.275989
0.089208 0.060355 0.276186
0.090957 0.060645 0.277533
0.096197 0.063220 0.289338
0.097436 0.063130 0.288943
0.098379 0.062854 0.287689
0.100130 0.063094 0.288795
0.102209 0.063532 0.290801
0.102710 0.062990 0.288317
0.104473 0.063226 0.289390
0.106188 0.063427 0.290297
0.107516 0.063395 0.290133
0.108831 0.063356 0.289929
0.110260 0.063384 0.290027
0.111673 0.063401 0.290070
0.112939 0.063336 0.289730
0.114389 0.063374 0.289856
0.115609 0.063286 0.289397
0.117281 0.063443 0.290056
0.118465 0.063337 0.289498
0.119735 0.063278 0.289152
0.121218 0.063331 0.289312
0.122707 0.063387 0.289474
0.123760 0.063218 0.288604
0.125088 0.063192 0.288377
0.126601 0.063259 0.288563
0.128445 0.063488 0.289481
0.130048 0.063595 0.289830
0.131590 0.063669 0.290023
0.133010 0.063683 0.289933
0.134581 0.063769 0.290156
0.135625 0.063606 0.289235
0.137135 0.063662 0.289301
0.138845 0.063809 0.289769
0.140674 0.064007 0.290455
0.141987 0.063969 0.290058
0.143854 0.064178 0.290770
0.145191 0.064149 0.290388
0.146522 0.064118 0.289984
0.148181 0.064230 0.290209
0.149535 0.064208 0.289819
0.151331 0.064375 0.290263
0.153223 0.064580 0.290858
-0.046117 0.019411 0.086238
-0.045719 0.019417 0.086354
-0.041547 0.021997 0.099086
-0.042200 0.022596 0.101805
-0.041745 0.022609 0.101882
-0.041273 0.022613 0.101916
-0.040868 0.022654 0.102114
-0.042116 0.023623 0.106495
-0.041821 0.023740 0.107030
-0.041140 0.023637 0.106577
-0.041374 0.024065 0.108510
-0.040916 0.024096 0.108651
-0.040866 0.024370 0.109891
-0.040789 0.024636 0.111086
-0.042142 0.025783 0.116257
-0.041657 0.025821 0.116423
-0.041096 0.025813 0.116377
-0.040778 0.025958 0.117024
-0.040470 0.026114 0.117718
-0.039975 0.026153 0.117879
-0.041393 0.027462 0.123763
-0.040927 0.027539 0.124096
-0.040757 0.027822 0.125352
-0.040633 0.028144 0.126783
-0.040202 0.028261 0.127288
-0.039970 0.028523 0.128442
-0.039358 0.028518 0.128395
-0.040164 0.029556 0.133041
-0.040649 0.030387 0.136749
-0.043425 0.034083 0.153276
-0.042762 0.034131 0.153452
-0.043131 0.035018 0.157399
-0.042831 0.035383 0.158999
-0.042477 0.035716 0.160453
-0.042388 0.036288 0.162978
-0.043745 0.038143 0.171259
-0.044203 0.039268 0.176259
-0.043326 0.039228 0.176028
-0.042554 0.039284 0.176226
-0.042177 0.039714 0.178099
-0.052155 0.050109 0.224650
-0.051156 0.050173 0.224865
-0.050766 0.050848 0.227819
-0.048814 0.049954 0.223745
-0.048001 0.050212 0.224828
-0.047197 0.050491 0.226009
-0.046128 0.050494 0.225948
-0.045340 0.050811 0.227295
-0.044845 0.051481 0.230218
-0.044811 0.052726 0.235715
-0.044670 0.053905 0.240910
-0.044072 0.054581 0.243854
-0.043468 0.055286 0.246925
-0.042092 0.055022 0.245667
-0.041261 0.055474 0.247609
-0.040566 0.056142 0.250516
-0.041684 0.059435 0.265129
-0.043397 0.063807 0.284548
-0.042211 0.064062 0.285602
-0.039784 0.062390 0.278065
-0.039579 0.064205 0.286075
-0.038250 0.064261 0.286243
-0.035365 0.061611 0.274364
-0.034222 0.061910 0.275620
-0.031484 0.059230 0.263620
-0.029634 0.058069 0.258387
-0.028296 0.057854 0.257365
-0.027181 0.058097 0.258383
-0.025887 0.057960 0.257712
-0.024627 0.057892 0.257347
-0.023418 0.057941 0.257510
-0.022192 0.057953 0.257508
-0.020973 0.057985 0.257595
-0.019786 0.058115 0.258120
-0.018652 0.058430 0.259474
-0.017745 0.059549 0.264394
-0.016295 0.058879 0.261373
-0.015055 0.058921 0.261517
-0.013897 0.059319 0.263242
-0.012587 0.059084 0.262159
-0.011301 0.058925 0.261417
-0.010026 0.058788 0.260779
-0.008786 0.058846 0.261002
-0.007490 0.058483 0.259365
-0.006248 0.058492 0.259382
-0.005020 0.058659 0.260098
-0.003796 0.059015 0.261657
-0.002553 0.059256 0.262708
-0.001292 0.059172 0.262319
-0.000035 0.060071 0.266293
0.001240 0.060010 0.266010
0.002505 0.059755 0.264875
0.003878 0.061390 0.272115
0.005153 0.061040 0.270562
0.006099 0.057716 0.255831
0.007325 0.057708 0.255797
0.008580 0.057900 0.256653
0.009794 0.057804 0.256238
0.011041 0.057899 0.256669
0.012270 0.057891 0.256646
0.013518 0.057965 0.256990
0.014765 0.058021 0.257258
0.015985 0.057972 0.257059
0.017187 0.057868 0.256622
0.018520 0.058193 0.258088
0.020020 0.058964 0.261536
0.021818 0.060472 0.268255
0.023088 0.060430 0.268103
0.024428 0.060568 0.268748
0.025615 0.060330 0.267729
0.027060 0.060692 0.269377
0.028394 0.060784 0.269827
0.029626 0.060659 0.269315
0.031194 0.061204 0.271779
0.032455 0.061128 0.271490
0.033635 0.060909 0.270565
0.035066 0.061145 0.271666
0.036262 0.060969 0.270935
0.037282 0.060518 0.268986
0.038237 0.059997 0.266724
0.039157 0.059455 0.264369
0.040121 0.059013 0.262458
0.041346 0.058968 0.262316
0.042327 0.058589 0.260686
0.043097 0.057948 0.257892
0.044007 0.057526 0.256071
0.045051 0.057296 0.255106
0.046028 0.056995 0.253824
0.047226 0.056976 0.253801
0.048492 0.057039 0.254139
0.049697 0.057028 0.254153
0.050988 0.057114 0.254597
0.052414 0.057344 0.255679
0.053607 0.057314 0.255607
0.054947 0.057440 0.256227
0.056985 0.058273 0.260004
0.059816 0.059864 0.267165
0.061455 0.060220 0.268817
0.062690 0.060175 0.268678
0.064022 0.060222 0.268946
0.065496 0.060399 0.269795
0.066821 0.060434 0.270010
0.068086 0.060414 0.269978
0.069211 0.060273 0.269404
0.070462 0.060244 0.269331
0.072072 0.060518 0.270610
0.073561 0.060683 0.271396
0.074834 0.060667 0.271374
0.076147 0.060683 0.271493
0.077699 0.060885 0.272444
0.079444 0.061230 0.274031
0.081271 0.061626 0.275843
0.082929 0.061883 0.277034
0.084675 0.062197 0.278474
0.086185 0.062330 0.279104
0.088034 0.062700 0.280793
0.089428 0.062741 0.281001
0.090595 0.062622 0.280494
0.092061 0.062712 0.280915
0.096292 0.064655 0.289635
0.097534 0.064564 0.289240
0.098228 0.064118 0.287252
0.100160 0.064481 0.288882
0.101889 0.064706 0.289888
0.102964 0.064515 0.289026
0.104261 0.064466 0.288796
0.105918 0.064638 0.289549
0.107368 0.064681 0.289719
0.108763 0.064690 0.289734
0.110336 0.064803 0.290206
0.111934 0.064927 0.290725
0.113155 0.064833 0.290258
0.114484 0.064803 0.290068
0.115946 0.064846 0.290205
0.117299 0.064829 0.290062
0.118507 0.064733 0.289559
0.119851 0.064713 0.289387
0.121299 0.064748 0.289459
0.122923 0.064876 0.289932
0.124036 0.064733 0.289191
0.125574 0.064814 0.289438
0.127009 0.064840 0.289431
0.128522 0.064904 0.289588
0.130279 0.065089 0.290273
0.131667 0.065088 0.290117
0.133571 0.065339 0.291076
0.135218 0.065460 0.291444
0.136749 0.065524 0.291542
0.137989 0.065448 0.291011
0.139442 0.065473 0.290918
0.140922 0.065511 0.290867
0.142245 0.065475 0.290478
0.143800 0.065546 0.290549
0.145211 0.065550 0.290311
0.146759 0.065615 0.290332
0.148387 0.065714 0.290485
0.149693 0.065671 0.289993
0.151435 0.065817 0.290325
0.153112 0.065933 0.290504
-0.045632 0.019616 0.085291
-0.041622 0.022505 0.099253
-0.042001 0.022968 0.101314
-0.041834 0.023139 0.102089
-0.040775 0.022815 0.100679
-0.040841 0.023120 0.102039
-0.041560 0.023807 0.105082
-0.041575 0.024102 0.106397
-0.041033 0.024078 0.106297
-0.041079 0.024402 0.107733
-0.040799 0.024538 0.108338
-0.040286 0.024536 0.108331
-0.039904 0.024614 0.108677
-0.039776 0.024853 0.109732
-0.039829 0.025213 0.111318
-0.041058 0.026337 0.116273
-0.039873 0.025922 0.114435
-0.039015 0.025711 0.113494
-0.041069 0.027440 0.121113
-0.040558 0.027480 0.121275
-0.040914 0.028117 0.124070
-0.040171 0.028006 0.123563
-0.040591 0.028714 0.126668
-0.040021 0.028733 0.126730
-0.039793 0.029001 0.127891
-0.039987 0.029590 0.130464
-0.039811 0.029920 0.131891
-0.040605 0.031000 0.136625
-0.042289 0.033898 0.149294
-0.042885 0.034957 0.153923
-0.042436 0.035187 0.154896
-0.043080 0.036346 0.159958
-0.042965 0.036896 0.162336
-0.043668 0.038180 0.167941
-0.044001 0.039183 0.172305
-0.043666 0.039617 0.174164
-0.042530 0.039328 0.172842
-0.042433 0.040007 0.175775
-0.052392 0.050382 0.221295
-0.051411 0.050446 0.221510
-0.049008 0.049089 0.215489
-0.049653 0.050792 0.222893
-0.048742 0.050942 0.223485
-0.047809 0.051076 0.224003
-0.046913 0.051256 0.224725
-0.045874 0.051285 0.224782
-0.045173 0.051702 0.226541
-0.045269 0.053074 0.232481
-0.045369 0.054519 0.238735
-0.044166 0.054433 0.238286
-0.043170 0.054603 0.238956
-0.042372 0.055040 0.240795
-0.041505 0.055410 0.242341
-0.040964 0.056248 0.245930
-0.040256 0.056900 0.248706
-0.044660 0.065034 0.284177
-0.043350 0.065096 0.284365
-0.042612 0.066049 0.288445
-0.039967 0.064012 0.279468
-0.039579 0.065573 0.286204
-0.038249 0.065630 0.286372
-0.035435 0.063050 0.275039
-0.033974 0.062771 0.273752
-0.031329 0.060197 0.262458
-0.029658 0.059356 0.258726
-0.028306 0.059110 0.257589
-0.027094 0.059147 0.257687
-0.025892 0.059209 0.257898
-0.024658 0.059202 0.257810
-0.023407 0.059152 0.257536
-0.022207 0.059231 0.257824
-0.020937 0.059122 0.257296
-0.019759 0.059278 0.257925
-0.018648 0.059666 0.259567
-0.017682 0.060609 0.263620
-0.016280 0.060084 0.261293
-0.015027 0.060072 0.261196
-0.013899 0.060600 0.263454
-0.012501 0.059938 0.260537
-0.011255 0.059945 0.260534
-0.009996 0.059871 0.260177
-0.008737 0.059780 0.259753
-0.007483 0.059689 0.259332
-0.006248 0.059754 0.259589
-0.005018 0.059913 0.260255
-0.003788 0.060169 0.261346
-0.002547 0.060430 0.262463
-0.001290 0.060444 0.262511
-0.000033 0.061351 0.266436
0.001247 0.061497 0.267060
0.002506 0.060995 0.264871
0.003873 0.062573 0.271718
0.005176 0.062579 0.271742
0.006381 0.061644 0.267683
0.007363 0.059224 0.257176
0.008613 0.059345 0.257708
0.009923 0.059796 0.259675
0.011113 0.059503 0.258414
0.012363 0.059556 0.258658
0.013640 0.059718 0.259374
0.014978 0.060098 0.261042
0.016238 0.060131 0.261207
0.017460 0.060029 0.260786
0.018878 0.060568 0.263151
0.020195 0.060736 0.263908
0.021688 0.061383 0.266751
0.022877 0.061144 0.265744
0.024248 0.061392 0.266857
0.025363 0.060998 0.265179
0.026685 0.061117 0.265735
0.028067 0.061356 0.266812
0.029241 0.061139 0.265910
0.030625 0.061359 0.266912
0.031975 0.061499 0.267566
0.033095 0.061200 0.266314
0.034391 0.061237 0.266522
0.035674 0.061250 0.266628
0.036870 0.061117 0.266100
0.037904 0.060734 0.264488
0.038851 0.060239 0.262384
0.039863 0.059874 0.260848
0.041194 0.059996 0.261434
0.042094 0.059501 0.259334
0.042890 0.058891 0.256731
0.043568 0.058158 0.253590
0.044871 0.058276 0.254159
0.046066 0.058251 0.254110
0.047232 0.058192 0.253909
0.048615 0.058396 0.254857
0.049923 0.058502 0.255378
0.051218 0.058588 0.255811
0.052480 0.058633 0.256066
0.053922 0.058873 0.257174
0.055500 0.059247 0.258865
0.057225 0.059759 0.261160
0.059531 0.060842 0.265952
0.061240 0.061282 0.267938
0.062989 0.061744 0.270015
0.064008 0.061486 0.268944
0.065443 0.061629 0.269630
0.066909 0.061796 0.270415
0.067970 0.061590 0.269568
0.069291 0.061622 0.269760
0.070420 0.061485 0.269213
0.071760 0.061534 0.269481
0.072952 0.061457 0.269191
0.073950 0.061222 0.268207
0.075390 0.061354 0.268829
0.077237 0.061807 0.270859
0.079176 0.062318 0.273138
0.080949 0.062684 0.274783
0.082750 0.063060 0.276464
0.084725 0.063554 0.278663
0.086365 0.063785 0.279707
0.087917 0.063946 0.280439
0.089543 0.064154 0.281379
0.090795 0.064093 0.281129
0.092344 0.064239 0.281788
0.096232 0.065986 0.289463
0.097474 0.065894 0.289069
0.098381 0.065581 0.287701
0.100637 0.066163 0.290258
0.101867 0.066065 0.289823
0.103073 0.065954 0.289326
0.104525 0.066001 0.289517
0.105827 0.065953 0.289287
0.107291 0.066006 0.289497
0.108653 0.065996 0.289420
0.110142 0.066062 0.289673
0.111555 0.066081 0.289715
0.112935 0.066081 0.289665
0.114206 0.066017 0.289330
0.115648 0.066052 0.289423
0.117038 0.066058 0.289377
0.118275 0.065978 0.288950
0.119688 0.065996 0.288947
0.120968 0.065942 0.288617
0.122327 0.065931 0.288471
0.124550 0.066381 0.290331
0.126002 0.066415 0.290363
0.127466 0.066454 0.290407
0.128859 0.066456 0.290278
0.130587 0.066628 0.290885
0.131626 0.066449 0.289948
0.133120 0.066501 0.290010
0.134808 0.066647 0.290473
0.136232 0.066662 0.290349
0.137636 0.066666 0.290170
0.139335 0.066812 0.290593
0.140827 0.066856 0.290563
0.142266 0.066875 0.290409
0.143664 0.066874 0.290157
0.145089 0.066885 0.289946
0.146755 0.067006 0.290196
0.148626 0.067218 0.290821
0.150035 0.067218 0.290519
0.151541 0.067262 0.290385
0.153119 0.067336 0.290370
-0.045863 0.020126 0.085681
-0.041536 0.022927 0.099035
-0.042184 0.023548 0.101743
-0.041681 0.023535 0.101706
-0.042021 0.024002 0.103745
-0.040602 0.023464 0.101435
-0.040633 0.023761 0.102732
-0.041215 0.024391 0.105469
-0.041259 0.024715 0.106878
-0.040760 0.024717 0.106893
-0.040298 0.024741 0.107006
-0.039979 0.024856 0.107505
-0.039757 0.025034 0.108277
-0.038925 0.024828 0.107385
-0.038961 0.025178 0.108894
-0.040043 0.026221 0.113404
-0.039835 0.026437 0.114330
-0.039389 0.026498 0.114587
-0.040190 0.027412 0.118529
-0.039690 0.027452 0.118688
-0.038951 0.027325 0.118127
-0.041115 0.029261 0.126479
-0.040496 0.029244 0.126386
-0.040323 0.029553 0.127702
-0.040388 0.030048 0.129819
-0.040543 0.030627 0.132297
-0.040173 0.030821 0.133110
-0.040137 0.031281 0.135071
-0.042777 0.034430 0.148605
-0.042135 0.034478 0.148777
-0.042214 0.035127 0.151546
-0.042525 0.035995 0.155251
-0.043088 0.037111 0.160024
-0.043148 0.037825 0.163062
-0.043149 0.038513 0.165985
-0.042602 0.038728 0.166865
-0.042586 0.039443 0.169901
-0.042595 0.040208 0.173150
-0.053257 0.051258 0.220671
-0.051759 0.050811 0.218685
-0.049482 0.049566 0.213264
-0.049573 0.050690 0.218037
-0.049297 0.051479 0.221366
-0.048722 0.051983 0.223465
-0.047770 0.052099 0.223897
-0.046734 0.052125 0.223943
-0.045931 0.052420 0.225142
-0.046499 0.054329 0.233271
-0.046278 0.055389 0.237749
-0.045241 0.055500 0.238152
-0.043921 0.055259 0.237050
-0.043246 0.055841 0.239473
-0.042342 0.056149 0.240723
-0.041495 0.056553 0.242379
-0.040639 0.056966 0.244078
-0.039967 0.057670 0.247024
-0.039709 0.059031 0.252779
-0.044214 0.067780 0.290160
-0.042874 0.067842 0.290347
-0.039910 0.065254 0.279194
-0.039521 0.066845 0.285918
-0.035462 0.064416 0.275383
-0.034075 0.064274 0.274704
-0.031544 0.061876 0.264388
-0.029581 0.060440 0.258189
-0.028199 0.060117 0.256746
-0.027115 0.060430 0.258020
-0.025816 0.060270 0.257280
-0.024576 0.060238 0.257088
-0.023365 0.060281 0.257214
-0.022167 0.060362 0.257508
-0.020880 0.060195 0.256744
-0.019743 0.060469 0.257859
-0.018579 0.060690 0.258756
-0.017745 0.062096 0.264706
-0.016314 0.061471 0.261996
-0.015033 0.061356 0.261464
-0.013900 0.061878 0.263649
-0.012540 0.061388 0.261525
-0.011165 0.060717 0.258632
-0.009882 0.060434 0.257394
-0.008682 0.060655 0.258305
-0.007418 0.060426 0.257303
-0.006177 0.060335 0.256891
-0.004964 0.060537 0.257729
-0.003758 0.060991 0.259641
-0.002518 0.061052 0.259885
-0.001283 0.061506 0.261801
-0.000030 0.062152 0.264539
0.001241 0.062334 0.265305
0.002512 0.062343 0.265336
0.003838 0.063248 0.269180
0.005125 0.063221 0.269064
0.006377 0.062862 0.267536
0.007729 0.063440 0.269998
0.008990 0.063207 0.269010
0.010221 0.062852 0.267509
0.011477 0.062712 0.266925
0.012737 0.062619 0.266540
0.014020 0.062647 0.266673
0.015266 0.062517 0.266137
0.016527 0.062468 0.265948
0.017852 0.062644 0.266723
0.019093 0.062523 0.266231
0.020253 0.062169 0.264752
0.021559 0.062280 0.265251
0.022832 0.062288 0.265315
0.023972 0.061950 0.263910
0.025079 0.061563 0.262295
0.026444 0.061818 0.263418
0.027802 0.062035 0.264381
0.028905 0.061688 0.262941
0.030140 0.061638 0.262773
0.031497 0.061833 0.263647
0.032604 0.061542 0.262451
0.033818 0.061465 0.262169
0.035119 0.061547 0.262567
0.036206 0.061260 0.261391
0.037374 0.061126 0.260868
0.038520 0.060965 0.260232
0.039574 0.060673 0.259038
0.040981 0.060923 0.260161
0.042207 0.060898 0.260105
0.043410 0.060842 0.259920
0.043360 0.059082 0.252455
0.044692 0.059247 0.253218
0.045935 0.059291 0.253459
0.047073 0.059199 0.253121
0.048383 0.059323 0.253706
0.049679 0.059424 0.254197
0.050961 0.059504 0.254595
0.052298 0.059644 0.255247
0.053417 0.059532 0.254826
0.054737 0.059646 0.255371
0.057250 0.061026 0.261335
0.059638 0.062217 0.266493
0.061384 0.062701 0.268626
0.062789 0.062826 0.269216
0.063930 0.062686 0.268671
0.065279 0.062752 0.269008
0.066714 0.062895 0.269677
0.067881 0.062786 0.269262
0.068921 0.062565 0.268366
0.069958 0.062350 0.267493
0.070857 0.062022 0.266129
0.072048 0.061956 0.265895
0.073552 0.062156 0.266798
0.074906 0.062226 0.267139
0.076476 0.062470 0.268224
0.078279 0.062892 0.270076
0.080121 0.063332 0.271998
0.082332 0.064044 0.275092
0.084084 0.064383 0.276577
0.085799 0.064684 0.277897
0.087466 0.064939 0.279020
0.089217 0.065248 0.280367
0.090433 0.065163 0.280020
0.092056 0.065369 0.280918
0.096813 0.067763 0.291218
0.098064 0.067670 0.290821
0.098286 0.066879 0.287426
0.100051 0.067145 0.288567
0.102020 0.067539 0.290252
0.103123 0.067357 0.289457
0.104173 0.067146 0.288531
0.105759 0.067280 0.289088
0.107210 0.067327 0.289260
0.108472 0.067255 0.288915
0.109769 0.067206 0.288666
0.111365 0.067340 0.289194
0.112715 0.067322 0.289067
0.114048 0.067296 0.288896
0.115644 0.067423 0.289375
0.117049 0.067437 0.289363
0.118481 0.067466 0.289407
0.119619 0.067329 0.288731
0.121081 0.067375 0.288832
0.122930 0.067633 0.289835
0.123615 0.067252 0.288090
0.125913 0.067747 0.290090
0.127322 0.067759 0.290009
0.128567 0.067684 0.289546
0.130097 0.067758 0.289715
0.131623 0.067829 0.289859
0.133156 0.067902 0.290002
0.135182 0.068222 0.291187
0.136526 0.068194 0.290878
0.137949 0.068207 0.290729
0.139605 0.068333 0.291050
0.140905 0.068284 0.290614
0.142364 0.068312 0.290495
0.143908 0.068380 0.290530
0.145439 0.068440 0.290520
0.147138 0.068578 0.290822
0.148710 0.068654 0.290848
0.150028 0.068612 0.290362
0.151388 0.068590 0.289944
0.153077 0.068717 0.290135
-0.045560 0.020401 0.085072
-0.041550 0.023402 0.099054
-0.042853 0.024410 0.103344
-0.042820 0.024671 0.104472
-0.042482 0.024761 0.104871
-0.041780 0.024637 0.104367
-0.041595 0.024820 0.105156
-0.041544 0.025088 0.106305
-0.040952 0.025031 0.106076
-0.040551 0.025092 0.106341
-0.040387 0.025302 0.107240
-0.040046 0.025406 0.107683
-0.039613 0.025453 0.107885
-0.038770 0.025234 0.106959
-0.040401 0.026641 0.112920
-0.039885 0.026651 0.112958
-0.039344 0.026644 0.112926
-0.038604 0.026501 0.112311
-0.038453 0.026763 0.113413
-0.040218 0.028385 0.120276
-0.040947 0.029312 0.124191
-0.041073 0.029828 0.126360
-0.040712 0.030000 0.127074
-0.040618 0.030377 0.128651
-0.040131 0.030466 0.129010
-0.039730 0.030625 0.129662
-0.039407 0.030850 0.130590
-0.038984 0.031003 0.131212
-0.042363 0.034233 0.144853
-0.041738 0.034280 0.145023
-0.041881 0.034970 0.147911
-0.042736 0.036287 0.153448
-0.042101 0.036364 0.153738
-0.043285 0.038042 0.160790
-0.043283 0.038718 0.163609
-0.042711 0.038900 0.164338
-0.043280 0.040147 0.169563
-0.042945 0.040588 0.171377
-0.054163 0.052173 0.220235
-0.053191 0.052240 0.220456
-0.050979 0.051068 0.215452
-0.050608 0.051729 0.218178
-0.050355 0.052542 0.221544
-0.049575 0.052827 0.222681
-0.048572 0.052881 0.222847
-0.047591 0.052964 0.223129
-0.047315 0.053852 0.226803
-0.047415 0.055219 0.232494
-0.046594 0.055553 0.233833
-0.045269 0.055288 0.232648
-0.044232 0.055371 0.232926
-0.043493 0.055839 0.234829
-0.043422 0.057213 0.240537
-0.042313 0.057257 0.240651
-0.041268 0.057392 0.241148
-0.040530 0.057975 0.243526
-0.040337 0.059394 0.249415
-0.039652 0.060151 0.252524
-0.039943 0.066644 0.279551
-0.035206 0.065258 0.273521
-0.034014 0.065471 0.274343
-0.031517 0.063088 0.264290
-0.029773 0.062077 0.259993
-0.028315 0.061601 0.257937
-0.027129 0.061699 0.258287
-0.025878 0.061653 0.258036
-0.024580 0.061484 0.257273
-0.023334 0.061435 0.257015
-0.022149 0.061549 0.257440
-0.020872 0.061408 0.256797
-0.019693 0.061553 0.257355
-0.018631 0.062109 0.259633
-0.017831 0.063682 0.266163
-0.016305 0.062699 0.262013
-0.015168 0.063179 0.263978
-0.014141 0.064246 0.268394
-0.012547 0.062692 0.261866
-0.011162 0.061951 0.258736
-0.009888 0.061722 0.257751
-0.008662 0.061765 0.257901
-0.007412 0.061625 0.257291
-0.006184 0.061658 0.257402
-0.004972 0.061895 0.258369
-0.003731 0.061817 0.258026
-0.002477 0.061343 0.256027
-0.001259 0.061733 0.257640
-0.000027 0.062393 0.260385
0.001248 0.063826 0.266356
0.002517 0.063675 0.265715
0.003898 0.065512 0.273379
0.005207 0.065508 0.273358
0.006523 0.065584 0.273677
0.007835 0.065596 0.273726
0.009168 0.065755 0.274394
0.010412 0.065319 0.272584
0.011749 0.065492 0.273316
0.012995 0.065177 0.272016
0.014282 0.065107 0.271739
0.015518 0.064836 0.270622
0.016765 0.064646 0.269851
0.018017 0.064503 0.269273
0.019195 0.064132 0.267749
0.020073 0.062864 0.262481
0.021610 0.063691 0.265962
0.022801 0.063463 0.265040
0.023856 0.062899 0.262716
0.024929 0.062437 0.260818
0.026260 0.062634 0.261678
0.027619 0.062877 0.262729
0.028718 0.062532 0.261328
0.029875 0.062337 0.260550
0.031289 0.062672 0.261995
0.032418 0.062432 0.261034
0.033601 0.062310 0.260570
0.034948 0.062490 0.261369
0.036078 0.062284 0.260554
0.037220 0.062111 0.259880
0.038441 0.062075 0.259778
0.039596 0.061940 0.259262
0.040970 0.062145 0.260173
0.042063 0.061923 0.259295
0.043262 0.061866 0.259111
0.043361 0.060283 0.252533
0.044627 0.060363 0.252921
0.045877 0.060419 0.253208
0.046956 0.060252 0.252562
0.048224 0.060330 0.252944
0.049460 0.060366 0.253145
0.050729 0.060438 0.253502
0.052108 0.060634 0.254380
0.053122 0.060408 0.253483
0.054380 0.060461 0.253763
0.056121 0.061039 0.256242
0.059618 0.063461 0.266461
0.061370 0.063963 0.268624
0.062822 0.064137 0.269413
0.063962 0.063993 0.268860
0.065253 0.064002 0.268950
0.066639 0.064103 0.269425
0.067963 0.064141 0.269634
0.068928 0.063845 0.268438
0.070001 0.063658 0.267700
0.070897 0.063319 0.266320
0.072558 0.063664 0.267814
0.074025 0.063830 0.268552
0.075069 0.063630 0.267752
0.076459 0.063726 0.268194
0.078062 0.063994 0.269354
0.079510 0.064128 0.269951
0.081076 0.064351 0.270920
0.083126 0.064945 0.273446
0.084693 0.065149 0.274331
0.086083 0.065213 0.274623
0.087172 0.065050 0.273955
0.088795 0.065285 0.274958
0.090432 0.065523 0.275970
0.096590 0.068983 0.290551
0.097838 0.068888 0.290155
0.098315 0.068260 0.287507
0.100105 0.068549 0.288717
0.101723 0.068713 0.289400
0.102934 0.068602 0.288917
0.104120 0.068477 0.288369
0.105608 0.068552 0.288658
0.107126 0.068643 0.289011
0.108351 0.068547 0.288570
0.109819 0.068606 0.288771
0.111604 0.068858 0.289782
0.113015 0.068876 0.289804
0.114468 0.068919 0.289921
0.115785 0.068879 0.289684
0.116923 0.068736 0.289004
0.118434 0.068812 0.289241
0.119642 0.068713 0.288734
0.120846 0.068613 0.288215
0.122342 0.068681 0.288389
0.124650 0.069196 0.290437
0.126230 0.069301 0.290752
0.127405 0.069183 0.290122
0.128789 0.069181 0.289969
0.130536 0.069371 0.290611
0.131718 0.069260 0.289982
0.133060 0.069234 0.289701
0.134905 0.069468 0.290495
0.136544 0.069592 0.290817
0.137725 0.069483 0.290151
0.139124 0.069484 0.289938
0.140931 0.069687 0.290552
0.142591 0.069814 0.290836
0.144064 0.069848 0.290720
0.145573 0.069898 0.290656
0.147057 0.069936 0.290525
0.148681 0.070038 0.290650
0.150447 0.070205 0.291026
0.151883 0.070216 0.290737
0.153502 0.070311 0.290779
-0.045451 0.020759 0.084823
-0.043109 0.024766 0.102755
-0.042684 0.024800 0.102923
-0.042409 0.024923 0.103457
-0.042417 0.025217 0.104699
-0.042216 0.025393 0.105447
-0.041739 0.025404 0.105511
-0.041342 0.025465 0.105779
-0.041109 0.025630 0.106476
-0.041014 0.025886 0.107549
-0.040321 0.025766 0.107060
-0.039992 0.025879 0.107535
-0.040366 0.026455 0.109934
-0.038935 0.025848 0.107413
-0.040437 0.027198 0.113022
-0.039923 0.027210 0.113068
-0.039257 0.027117 0.112680
-0.038893 0.027233 0.113154
-0.041501 0.029462 0.122409
-0.040550 0.029192 0.121277
-0.040769 0.029769 0.123661
-0.040793 0.030217 0.125511
-0.040034 0.030090 0.124968
-0.040476 0.030876 0.128215
-0.040300 0.031207 0.129569
-0.040044 0.031485 0.130704
-0.039948 0.031900 0.132402
-0.040358 0.032738 0.135857
-0.042090 0.034693 0.143942
-0.041469 0.034740 0.144111
-0.041528 0.035369 0.146691
-0.041381 0.035840 0.148611
-0.043141 0.038008 0.157565
-0.043781 0.039248 0.162668
-0.043106 0.039331 0.162976
-0.042692 0.039661 0.164301
-0.042443 0.040159 0.166324
-0.053108 0.051197 0.211986
-0.052174 0.051263 0.212202
-0.051922 0.052015 0.215256
-0.051025 0.052136 0.215703
-0.051410 0.053601 0.221701
-0.050537 0.053786 0.222407
-0.049266 0.053548 0.221360
-0.048378 0.053725 0.222029
-0.049058 0.055690 0.230083
-0.048578 0.056396 0.232935
-0.047468 0.056388 0.232834
-0.046419 0.056453 0.233036
-0.045222 0.056336 0.232488
-0.044120 0.056336 0.232419
-0.043485 0.056948 0.234877
-0.043150 0.057994 0.239122
-0.042164 0.058199 0.239900
-0.040854 0.057955 0.238829
-0.040096 0.058503 0.241017
-0.039706 0.059635 0.245614
-0.039633 0.061328 0.252515
-0.043380 0.069220 0.284933
-0.041496 0.068348 0.281265
-0.039884 0.067879 0.279262
-0.039795 0.070060 0.288160
-0.035407 0.066947 0.275214
-0.033997 0.066751 0.274338
-0.031318 0.063946 0.262748
-0.029711 0.063191 0.259581
-0.028338 0.062887 0.258275
-0.027120 0.062916 0.258335
-0.025824 0.062758 0.257631
-0.024559 0.062665 0.257193
-0.023322 0.062636 0.257020
-0.022112 0.062680 0.257151
-0.020827 0.062506 0.256385
-0.019732 0.062916 0.258019
-0.018644 0.063401 0.259964
-0.017802 0.064856 0.265883
-0.016296 0.063928 0.262035
-0.015225 0.064694 0.265134
-0.014068 0.065204 0.267186
-0.012601 0.064231 0.263163
-0.011190 0.063359 0.259556
-0.009906 0.063085 0.258402
-0.008675 0.063115 0.258498
-0.007442 0.063139 0.258568
-0.006202 0.063095 0.258366
-0.004969 0.063129 0.258482
-0.003730 0.063079 0.258257
-0.002491 0.063004 0.257935
-0.001259 0.063068 0.258183
-0.000024 0.062921 0.257567
0.001232 0.064145 0.262570
0.002481 0.063960 0.261803
0.003866 0.066223 0.271061
0.005201 0.066701 0.273014
0.006441 0.066019 0.270222
0.007772 0.066344 0.271557
0.009087 0.066454 0.272012
0.010320 0.066015 0.270220
0.011626 0.066086 0.270519
0.012903 0.065996 0.270163
0.014171 0.065876 0.269687
0.015446 0.065810 0.269433
0.016670 0.065552 0.268397
0.017956 0.065559 0.268443
0.019198 0.065412 0.267866
0.020368 0.065054 0.266427
0.021478 0.064557 0.264418
0.022834 0.064815 0.265502
0.023899 0.064262 0.263268
0.024932 0.063684 0.260934
0.026123 0.063545 0.260397
0.027407 0.063635 0.260800
0.028512 0.063318 0.259539
0.029656 0.063109 0.258722
0.031070 0.063471 0.260245
0.032293 0.063429 0.260115
0.033463 0.063289 0.259585
0.034779 0.063427 0.260194
0.035964 0.063322 0.259811
0.037225 0.063356 0.259995
0.038446 0.063320 0.259896
0.039492 0.063007 0.258660
0.040857 0.063206 0.259529
0.042101 0.063214 0.259611
0.043302 0.063157 0.259427
0.043308 0.061409 0.252296
0.044643 0.061589 0.253087
0.045942 0.061709 0.253635
0.047044 0.061567 0.253103
0.048315 0.061648 0.253487
0.049528 0.061652 0.253557
0.050712 0.061621 0.253478
0.052093 0.061824 0.254369
0.053133 0.061624 0.253594
0.054222 0.061487 0.253086
0.056116 0.062249 0.256273
0.059195 0.064266 0.264630
0.061014 0.064858 0.267120
0.062767 0.065358 0.269230
0.063884 0.065189 0.268585
0.065146 0.065171 0.268560
0.066603 0.065345 0.269328
0.067730 0.065195 0.268754
0.068838 0.065032 0.268130
0.069897 0.064830 0.267341
0.070770 0.064466 0.265881
0.072207 0.064619 0.266555
0.073445 0.064592 0.266480
0.074481 0.064390 0.265686
0.075659 0.064317 0.265417
0.077060 0.064432 0.265924
0.078528 0.064598 0.266639
0.079533 0.064385 0.265783
0.081660 0.065072 0.268645
0.083304 0.065358 0.269849
0.084640 0.065399 0.270033
0.086822 0.066081 0.272867
0.087635 0.065717 0.271373
0.089615 0.066226 0.273482
0.100299 0.072029 0.297451
0.098847 0.069998 0.289060
0.100233 0.070005 0.289080
0.101717 0.070080 0.289372
0.103053 0.070052 0.289238
0.104103 0.069832 0.288305
0.105314 0.069725 0.287835
0.107168 0.070041 0.289103
0.108425 0.069963 0.288741
0.109520 0.069784 0.287955
0.111569 0.070209 0.289657
0.112785 0.070107 0.289175
0.114200 0.070129 0.289199
0.115569 0.070122 0.289099
0.117086 0.070205 0.289358
0.118231 0.070065 0.288695
0.119684 0.070109 0.288777
0.121236 0.070209 0.289086
0.123552 0.070744 0.291175
0.124594 0.070545 0.290239
0.126379 0.070767 0.291020
0.127692 0.070723 0.290700
0.129195 0.070784 0.290800
0.130707 0.070848 0.290905
0.131761 0.070665 0.289986
0.133261 0.070722 0.290043
0.135383 0.071105 0.291423
0.136939 0.071186 0.291552
0.138377 0.071205 0.291414
0.139888 0.071260 0.291414
0.141258 0.071243 0.291106
0.142755 0.071289 0.291045
0.144291 0.071354 0.291045
0.145816 0.071412 0.291005
0.147338 0.071467 0.290937
0.148912 0.071547 0.290952
0.150869 0.071807 0.291687
0.152337 0.071831 0.291445
0.153909 0.071904 0.291382
-0.045856 0.021355 0.085534
-0.045504 0.021381 0.085739
-0.043180 0.025294 0.102908
-0.042754 0.025328 0.103078
-0.042177 0.025273 0.102877
-0.042037 0.025482 0.103749
-0.041817 0.025646 0.104439
-0.040876 0.025367 0.103320
-0.043275 0.027179 0.110717
-0.042699 0.027144 0.110588
-0.042274 0.027205 0.110848
-0.041994 0.027361 0.111496
-0.041300 0.027250 0.111049
-0.040873 0.027313 0.111312
-0.040722 0.027565 0.112342
-0.040251 0.027604 0.112503
-0.041458 0.030009 0.122290
-0.040069 0.029412 0.119847
-0.039906 0.029710 0.121050
-0.041447 0.031304 0.127533
-0.041044 0.031455 0.128133
-0.040478 0.031483 0.128234
-0.040162 0.031710 0.129141
-0.040652 0.032590 0.132705
-0.040441 0.032926 0.134053
-0.040140 0.033200 0.135144
-0.040573 0.034099 0.138778
-0.040464 0.034564 0.140644
-0.041060 0.035656 0.145061
-0.043919 0.038785 0.157757
-0.043233 0.038837 0.157934
-0.042745 0.039070 0.158850
-0.042215 0.039275 0.159643
-0.041607 0.039412 0.160163
-0.053005 0.051137 0.207763
-0.052091 0.051202 0.207978
-0.051320 0.051414 0.208783
-0.052374 0.053496 0.217186
-0.051351 0.053500 0.217142
-0.051215 0.054445 0.220921
-0.050339 0.054628 0.221604
-0.049866 0.055264 0.224123
-0.049241 0.055756 0.226058
-0.049338 0.057107 0.231471
-0.048242 0.057106 0.231401
-0.046915 0.056824 0.230197
-0.045930 0.056955 0.230661
-0.045012 0.057177 0.231495
-0.043932 0.057198 0.231518
-0.043489 0.058071 0.234982
-0.043055 0.059002 0.238686
-0.042216 0.059414 0.240287
-0.040927 0.059199 0.239350
-0.040123 0.059692 0.241277
-0.040597 0.062171 0.251229
-0.040051 0.063192 0.255284
-0.043315 0.070476 0.284634
-0.041434 0.069587 0.280970
-0.039741 0.068965 0.278386
-0.039734 0.071330 0.287856
-0.038398 0.071389 0.288023
-0.035440 0.068328 0.275606
-0.034256 0.068581 0.276558
-0.031178 0.064913 0.261703
-0.029581 0.064152 0.258576
-0.028130 0.063655 0.256513
-0.026993 0.063854 0.257259
-0.025752 0.063816 0.257050
-0.024486 0.063707 0.256559
-0.023254 0.063683 0.256408
-0.022108 0.063903 0.257243
-0.020770 0.063564 0.255831
-0.019679 0.063984 0.257476
-0.018712 0.064889 0.261071
-0.017977 0.066785 0.268654
-0.016405 0.065626 0.263951
-0.015351 0.066520 0.267503
-0.014079 0.066545 0.267567
-0.012326 0.064074 0.257595
-0.011051 0.063812 0.256513
-0.009853 0.063991 0.257199
-0.008601 0.063817 0.256474
-0.007398 0.064017 0.257249
-0.006177 0.064105 0.257579
-0.004952 0.064182 0.257869
-0.003718 0.064156 0.257745
-0.002485 0.064129 0.257619
-0.001253 0.064136 0.257634
-0.000021 0.064239 0.258036
0.001227 0.064983 0.261015
0.002549 0.066926 0.268811
0.003865 0.067441 0.270871
0.005160 0.067436 0.270851
0.006398 0.066832 0.268422
0.007723 0.067189 0.269859
0.008974 0.066895 0.268681
0.010229 0.066698 0.267897
0.011464 0.066425 0.266811
0.012744 0.066442 0.266888
0.013989 0.066292 0.266302
0.015233 0.066161 0.265791
0.016511 0.066188 0.265918
0.017797 0.066240 0.266144
0.019059 0.066199 0.266003
0.020343 0.066238 0.266184
0.021519 0.065941 0.265017
0.022794 0.065961 0.265122
0.023924 0.065582 0.263631
0.024910 0.064868 0.260793
0.026063 0.064634 0.259882
0.027340 0.064714 0.260239
0.028368 0.064225 0.258308
0.029574 0.064161 0.258091
0.030965 0.064490 0.259450
0.032156 0.064391 0.259094
0.033376 0.064355 0.258990
0.034669 0.064459 0.259452
0.035896 0.064436 0.259403
0.037172 0.064500 0.259705
0.038416 0.064505 0.259774
0.039517 0.064277 0.258901
0.040862 0.064449 0.259642
0.042064 0.064391 0.259458
0.043264 0.064333 0.259275
0.043204 0.062456 0.251760
0.044437 0.062501 0.251988
0.045737 0.062634 0.252573
0.046840 0.062497 0.252073
0.048088 0.062557 0.252364
0.049375 0.062662 0.252836
0.050752 0.062873 0.253740
0.051974 0.062888 0.253850
0.053342 0.063075 0.254653
0.054910 0.063484 0.256356
0.055926 0.063251 0.255462
0.059266 0.065600 0.265004
0.061122 0.066242 0.267647
0.062792 0.066662 0.269393
0.064095 0.066682 0.269520
0.065191 0.066491 0.268797
0.066467 0.066486 0.268825
0.067678 0.066419 0.268596
0.068754 0.066223 0.267848
0.069715 0.065925 0.266686
0.070744 0.065702 0.265821
0.071685 0.065405 0.264660
0.072824 0.065297 0.264259
0.073800 0.065049 0.263286
0.075002 0.065005 0.263139
0.075917 0.064717 0.262002
0.077177 0.064728 0.262075
0.078540 0.064824 0.262485
0.079987 0.064985 0.263158
0.081497 0.065191 0.264011
0.082951 0.065347 0.264656
0.084935 0.065909 0.266944
0.085910 0.065683 0.266038
0.087576 0.065984 0.267263
0.098920 0.073465 0.297562
0.100201 0.073366 0.297157
0.099693 0.071978 0.291528
0.100243 0.071382 0.289100
0.101810 0.071516 0.289626
0.103389 0.071654 0.290165
0.104347 0.071364 0.288963
0.105715 0.071359 0.288906
0.107198 0.071430 0.289158
0.108756 0.071548 0.289591
0.110041 0.071487 0.289291
0.111692 0.071661 0.289939
0.112842 0.071515 0.289282
0.115160 0.072102 0.291587
0.116228 0.071902 0.290699
0.117413 0.071778 0.290114
0.119072 0.071943 0.290690
0.120393 0.071903 0.290427
0.121895 0.071971 0.290592
0.123107 0.071867 0.290058
0.124961 0.072137 0.291019
0.126308 0.072111 0.290780
0.127614 0.072062 0.290440
0.128922 0.072016 0.290099
0.130841 0.072308 0.291112
0.132206 0.072291 0.290870
0.133375 0.072168 0.290191
0.135123 0.072357 0.290759
0.136934 0.072576 0.291430
0.138409 0.072614 0.291367
0.139945 0.072684 0.291413
0.141525 0.072774 0.291531
0.142761 0.072687 0.290925
0.144205 0.072706 0.290735
0.146167 0.072984 0.291561
0.147691 0.073040 0.291486
0.148978 0.072979 0.290928
0.150640 0.073100 0.291081
0.152246 0.073193 0.291104
0.153726 0.073224 0.290864
-0.045770 0.021725 0.085324
-0.042410 0.025321 0.101056
-0.042683 0.025773 0.102890
-0.042649 0.026048 0.104015
-0.042550 0.026289 0.105001
-0.041913 0.026199 0.104667
-0.042535 0.026904 0.107502
-0.042345 0.027107 0.108328
-0.042181 0.027330 0.109238
-0.041674 0.027334 0.109267
-0.041406 0.027497 0.109929
-0.041068 0.027618 0.110419
-0.040555 0.027622 0.110442
-0.040408 0.027879 0.111474
-0.040163 0.029631 0.118474
-0.040172 0.030054 0.120159
-0.041568 0.031543 0.126101
-0.041080 0.031623 0.126412
-0.040733 0.031817 0.127173
-0.040226 0.031889 0.127448
-0.041118 0.033089 0.132228
-0.040906 0.033425 0.133550
-0.041496 0.034436 0.137569
-0.040563 0.034195 0.136587
-0.040670 0.034838 0.139131
-0.040699 0.035433 0.141482
-0.040827 0.036137 0.144264
-0.041290 0.037165 0.148339
-0.042685 0.039082 0.155961
-0.043155 0.040205 0.160408
-0.041872 0.039705 0.158378
-0.053422 0.051577 0.205689
-0.052519 0.051643 0.205905
-0.052752 0.052850 0.210669
-0.052925 0.054042 0.215364
-0.052137 0.054280 0.216259
-0.051243 0.054415 0.216745
-0.050294 0.054496 0.217010
-0.051584 0.057056 0.227149
-0.050900 0.057497 0.228843
-0.049817 0.057495 0.228775
-0.048536 0.057260 0.227780
-0.047721 0.057576 0.228975
-0.046747 0.057711 0.229450
-0.045658 0.057708 0.229376
-0.044687 0.057857 0.229905
-0.043743 0.058049 0.230605
-0.042866 0.058342 0.231703
-0.042523 0.059397 0.235831
-0.042374 0.060786 0.241280
-0.041329 0.060932 0.241794
-0.040295 0.061103 0.242409
-0.039655 0.061900 0.245506
-0.039991 0.064314 0.255012
-0.043251 0.071727 0.284332
-0.041504 0.071048 0.281566
-0.040285 0.071258 0.282327
-0.039674 0.072594 0.287548
-0.035908 0.070564 0.279371
-0.034351 0.070098 0.277459
-0.031067 0.065930 0.260902
-0.029419 0.065031 0.257286
-0.028127 0.064875 0.256612
-0.026942 0.064964 0.256906
-0.025733 0.065000 0.256993
-0.024457 0.064864 0.256402
-0.023287 0.065006 0.256913
-0.022079 0.065055 0.257058
-0.020779 0.064822 0.256090
-0.019728 0.065385 0.258266
-0.018749 0.066278 0.261750
-0.017860 0.067636 0.267071
-0.016446 0.067064 0.264771
-0.015367 0.067880 0.267952
-0.014094 0.067906 0.268015
-0.012167 0.064477 0.254451
-0.010960 0.064523 0.254600
-0.009781 0.064761 0.255509
-0.008578 0.064894 0.256004
-0.007380 0.065107 0.256819
-0.006147 0.065044 0.256548
-0.004932 0.065188 0.257096
-0.003703 0.065180 0.257046
-0.002476 0.065203 0.257119
-0.001247 0.065226 0.257194
-0.000018 0.065090 0.256646
0.001249 0.067269 0.265230
0.002533 0.067695 0.266902
0.003858 0.068564 0.270320
0.005144 0.068484 0.270003
0.006366 0.067747 0.267096
0.007667 0.067960 0.267938
0.008949 0.067969 0.267977
0.010147 0.067413 0.265790
0.011383 0.067207 0.264988
0.012654 0.067226 0.265073
0.013892 0.067083 0.264521
0.015153 0.067065 0.264466
0.016382 0.066919 0.263905
0.017632 0.066876 0.263754
0.018961 0.067116 0.264725
0.020235 0.067143 0.264852
0.021401 0.066829 0.263641
0.022776 0.067166 0.264997
0.023839 0.066598 0.262783
0.024716 0.065591 0.258838
0.025939 0.065556 0.258732
0.027053 0.065258 0.257592
0.028096 0.064824 0.255913
0.029380 0.064959 0.256480
0.030668 0.065092 0.257043
0.031976 0.065254 0.257723
0.033311 0.065458 0.258567
0.034532 0.065431 0.258501
0.035822 0.065533 0.258946
0.037051 0.065519 0.258938
0.038375 0.065669 0.259575
0.039499 0.065477 0.258859
0.040858 0.065675 0.259690
0.042109 0.065694 0.259810
0.043115 0.065339 0.258454
0.045243 0.066656 0.263714
0.044940 0.064418 0.254910
0.046176 0.064446 0.255067
0.047450 0.064524 0.255422
0.048484 0.064279 0.254504
0.049713 0.064299 0.254630
0.051062 0.064469 0.255352
0.052290 0.064482 0.255452
0.053382 0.064330 0.254900
0.054971 0.064772 0.256696
0.056287 0.064878 0.257165
0.059734 0.067384 0.267148
0.061300 0.067708 0.268481
0.062813 0.067962 0.269532
0.064025 0.067885 0.269277
0.065193 0.067767 0.268852
0.066446 0.067739 0.268783
0.067702 0.067715 0.268731
0.068856 0.067592 0.268286
0.069998 0.067462 0.267807
0.071011 0.067214 0.266862
0.071920 0.066878 0.265562
0.072938 0.066653 0.264703
0.074130 0.066593 0.264493
0.075068 0.066309 0.263395
0.075950 0.065986 0.262139
0.076732 0.065588 0.260581
0.077566 0.065247 0.259247
0.078711 0.065174 0.258974
0.080318 0.065479 0.260201
0.081993 0.065830 0.261607
0.083726 0.066217 0.263152
0.084422 0.065783 0.261435
0.086379 0.066331 0.263612
0.097192 0.073566 0.292363
0.098452 0.073468 0.291966
0.098686 0.072617 0.288575
0.100411 0.072872 0.289571
0.101853 0.072918 0.289733
0.103523 0.073123 0.290520
0.104525 0.072857 0.289434
0.105631 0.072669 0.288650
0.107426 0.072955 0.289743
0.108598 0.072815 0.289138
0.109720 0.072646 0.288411
0.111224 0.072730 0.288686
0.112580 0.072717 0.288565
0.114057 0.072781 0.288745
0.115619 0.072897 0.289124
0.117263 0.073061 0.289687
0.118675 0.073079 0.289663
0.120426 0.073302 0.290442
0.121999 0.073414 0.290771
0.123704 0.073601 0.291390
0.124986 0.073535 0.291000
0.126308 0.073494 0.290698
0.127764 0.073531 0.290695
0.129312 0.073619 0.290886
0.130602 0.073560 0.290485
0.132722 0.073965 0.291903
0.133850 0.073814 0.291119
0.135141 0.073755 0.290687
0.136920 0.073961 0.291286
0.138343 0.073972 0.291106
0.139672 0.073934 0.290719
0.141089 0.073941 0.290501
0.142881 0.074144 0.291034
0.144208 0.074103 0.290600
0.146288 0.074446 0.291655
0.147702 0.074447 0.291354
0.149529 0.074654 0.291843
0.150977 0.074670 0.291566
0.152427 0.074686 0.291277
0.154121 0.074820 0.291429
-0.046933 0.022697 0.087442
-0.046388 0.022635 0.087309
-0.042628 0.025931 0.101557
-0.042263 0.026001 0.101861
-0.042279 0.026309 0.103097
-0.042196 0.026562 0.104114
-0.041407 0.026372 0.103390
-0.041869 0.026983 0.105806
-0.041462 0.027042 0.106058
-0.041250 0.027231 0.106815
-0.041498 0.027733 0.108796
-0.040775 0.027590 0.108248
-0.040953 0.028060 0.110105
-0.040973 0.028433 0.111576
-0.040943 0.028781 0.112946
-0.041282 0.031031 0.121779
-0.040298 0.030718 0.120543
-0.040415 0.031247 0.122611
-0.041602 0.032630 0.128028
-0.041308 0.032875 0.128980
-0.041386 0.033428 0.131134
-0.041147 0.033738 0.132334
-0.040977 0.034115 0.133798
-0.040792 0.034491 0.135252
-0.040809 0.035052 0.137433
-0.040152 0.035044 0.137378
-0.040279 0.035730 0.140044
-0.040314 0.036357 0.142476
-0.041713 0.038255 0.149886
-0.043095 0.040203 0.157489
-0.042921 0.040741 0.159567
-0.042223 0.040794 0.159740
-0.054401 0.054504 0.213332
-0.053378 0.054488 0.213219
-0.052732 0.054861 0.214632
-0.052284 0.055461 0.216927
-0.050897 0.055069 0.215340
-0.052471 0.057928 0.226466
-0.051810 0.058389 0.228211
-0.050728 0.058385 0.228135
-0.049080 0.057715 0.225458
-0.048227 0.057971 0.226401
-0.047456 0.058339 0.227778
-0.046396 0.058361 0.227804
-0.045395 0.058459 0.228128
-0.044536 0.058751 0.229207
-0.043642 0.059009 0.230152
-0.042928 0.059530 0.232124
-0.042176 0.060025 0.233993
-0.042193 0.061671 0.240343
-0.041281 0.062013 0.241612
-0.040359 0.062358 0.242892
-0.039503 0.062828 0.244662
-0.044274 0.072548 0.282441
-0.042973 0.072614 0.282625
-0.041643 0.072634 0.282634
-0.040223 0.072495 0.282019
-0.036052 0.072190 0.280631
-0.034370 0.071466 0.277751
-0.030817 0.066637 0.258926
-0.029381 0.066177 0.257080
-0.028125 0.066101 0.256729
-0.026951 0.066216 0.257122
-0.025750 0.066276 0.257301
-0.024446 0.066062 0.256418
-0.023284 0.066232 0.257026
-0.022067 0.066251 0.257052
-0.020716 0.065849 0.255448
-0.019730 0.066632 0.258441
-0.018652 0.067187 0.260549
-0.017879 0.068996 0.267522
-0.016368 0.068019 0.263693
-0.015314 0.068936 0.267206
-0.014045 0.068961 0.267269
-0.012100 0.065342 0.253208
-0.010869 0.065206 0.252650
-0.009738 0.065714 0.254591
-0.008519 0.065686 0.254454
-0.007291 0.065563 0.253954
-0.006113 0.065938 0.255385
-0.004891 0.065895 0.255195
-0.003678 0.066003 0.255595
-0.002460 0.066074 0.255856
-0.001235 0.065943 0.255331
-0.000015 0.066161 0.256166
0.001251 0.068480 0.265132
0.002565 0.069762 0.270089
0.003827 0.069244 0.268078
0.005105 0.069203 0.267918
0.006326 0.068560 0.265427
0.007565 0.068297 0.264410
0.008842 0.068395 0.264791
0.010049 0.068002 0.263275
0.011238 0.067583 0.261662
0.012528 0.067796 0.262498
0.013758 0.067674 0.262036
0.015033 0.067778 0.262451
0.016304 0.067847 0.262736
0.017554 0.067821 0.262654
0.018892 0.068119 0.263829
0.020205 0.068297 0.264538
0.021428 0.068164 0.264050
0.022872 0.068712 0.266195
0.024074 0.068514 0.265458
0.024865 0.067222 0.260482
0.025811 0.066454 0.257535
0.027037 0.066443 0.257523
0.028071 0.065981 0.255767
0.029265 0.065918 0.255556
0.030554 0.066066 0.256166
0.031845 0.066207 0.256749
0.033095 0.066253 0.256969
0.034380 0.066366 0.257447
0.035515 0.066190 0.256806
0.036721 0.066155 0.256710
0.038181 0.066563 0.258335
0.039408 0.066552 0.258339
0.040626 0.066528 0.258289
0.042313 0.067251 0.261141
0.043674 0.067429 0.261878
0.045181 0.067816 0.263428
0.046478 0.067874 0.263704
0.047951 0.068181 0.264943
0.049557 0.068655 0.266833
0.050870 0.068710 0.267095
0.052654 0.069383 0.269763
0.053970 0.069422 0.269961
0.055129 0.069261 0.269387
0.056674 0.069582 0.270683
0.057603 0.069149 0.269047
0.059153 0.069463 0.270315
0.060185 0.069169 0.269219
0.061410 0.069105 0.269014
0.062825 0.069252 0.269633
0.063961 0.069093 0.269056
0.065153 0.068998 0.268731
0.066360 0.068923 0.268477
0.067586 0.068870 0.268313
0.068688 0.068695 0.267668
0.069842 0.068577 0.267245
0.070913 0.068383 0.266525
0.071937 0.068151 0.265654
0.072819 0.067795 0.264298
0.073874 0.067611 0.263605
0.074888 0.067395 0.262789
0.075825 0.067117 0.261729
0.076712 0.066805 0.260534
0.077482 0.066402 0.258980
0.078725 0.066412 0.259032
0.080085 0.066518 0.259457
0.081589 0.066738 0.260327
0.083237 0.067068 0.261618
0.083957 0.066651 0.259995
0.085747 0.067084 0.261682
0.086878 0.066996 0.261332
0.098797 0.075112 0.292979
0.100058 0.075012 0.292576
0.100247 0.074122 0.289085
0.101708 0.074184 0.289300
0.103216 0.074278 0.289636
0.104334 0.074093 0.288880
0.105670 0.074064 0.288730
0.107201 0.074172 0.289102
0.108752 0.074291 0.289513
0.109816 0.074077 0.288624
0.111358 0.074188 0.288989
0.113145 0.074457 0.289965
0.114488 0.074431 0.289785
0.116144 0.074606 0.290383
0.117231 0.074416 0.289549
0.118885 0.074586 0.290109
0.120198 0.074541 0.289825
0.121435 0.074450 0.289355
0.122978 0.074546 0.289605
0.124427 0.074585 0.289619
0.126071 0.074737 0.290066
0.127431 0.074720 0.289849
0.128880 0.074754 0.289820
0.130795 0.075056 0.290815
0.132276 0.075104 0.290819
0.133687 0.075112 0.290656
0.135368 0.075270 0.291060
0.136946 0.075368 0.291222
0.138373 0.075381 0.291044
0.139801 0.075395 0.290857
0.141249 0.075419 0.290694
0.142769 0.075480 0.290664
0.144537 0.075670 0.291114
0.145951 0.075673 0.290829
0.148079 0.076042 0.291935
0.149650 0.076121 0.291910
0.151012 0.076093 0.291460
0.152716 0.076236 0.291648
0.154462 0.076397 0.291886
-0.046448 0.022879 0.086484
-0.043069 0.026685 0.102587
-0.042376 0.026553 0.102113
-0.042377 0.026858 0.103317
-0.042282 0.027110 0.104311
-0.041703 0.027052 0.104115
-0.041281 0.027097 0.104309
-0.041078 0.027288 0.105062
-0.040773 0.027415 0.105571
-0.041459 0.028220 0.108686
-0.040736 0.028074 0.108137
-0.039466 0.027543 0.106101
-0.041405 0.029266 0.112747
-0.041436 0.029667 0.114302
-0.041238 0.031573 0.121654
-0.041110 0.031918 0.122976
-0.041510 0.032688 0.125939
-0.041042 0.032787 0.126311
-0.040798 0.033071 0.127396
-0.041201 0.033896 0.130560
-0.041294 0.034486 0.132820
-0.041057 0.034815 0.134073
-0.040878 0.035204 0.135553
-0.040459 0.035396 0.136272
-0.040428 0.035938 0.138340
-0.040281 0.036394 0.140074
-0.040260 0.036980 0.142305
-0.040712 0.038028 0.146314
-0.040344 0.038334 0.147463
-0.042867 0.041445 0.159400
-0.055267 0.055374 0.212885
-0.054331 0.055444 0.213108
-0.053220 0.055334 0.212637
-0.052954 0.056115 0.215591
-0.052675 0.056912 0.218603
-0.053302 0.058740 0.225571
-0.052096 0.058581 0.224910
-0.050740 0.058244 0.223560
-0.049665 0.058221 0.223420
-0.048851 0.058511 0.224476
-0.047894 0.058638 0.224907
-0.046944 0.058780 0.225392
-0.045982 0.058914 0.225848
-0.045136 0.059204 0.226905
-0.044214 0.059408 0.227627
-0.043316 0.059655 0.228516
-0.042520 0.060059 0.230004
-0.041994 0.060876 0.233071
-0.041478 0.061752 0.236364
-0.040979 0.062701 0.239935
-0.039947 0.062866 0.240507
-0.045301 0.073387 0.280688
-0.044390 0.074088 0.283297
-0.042924 0.073878 0.282425
-0.041568 0.073850 0.282248
-0.040124 0.073660 0.281451
-0.037346 0.073451 0.280520
-0.035967 0.073357 0.280098
-0.034264 0.072569 0.277026
-0.030788 0.067812 0.258809
-0.029402 0.067455 0.257390
-0.028075 0.067209 0.256397
-0.026932 0.067402 0.257081
-0.025676 0.067314 0.256692
-0.024414 0.067205 0.256224
-0.023176 0.067151 0.255969
-0.022065 0.067479 0.257174
-0.020753 0.067199 0.256059
