ply
format ascii 1.0
element vertex 1745
property float x
property float y
property float z
end_header
0.050753 0.031336 0.271057
0.051994 0.031298 0.270826
0.053546 0.031443 0.272188
0.054879 0.031457 0.272406
0.056128 0.031423 0.272217
0.057397 0.031401 0.272130
0.058578 0.031333 0.271646
0.059584 0.031177 0.270393
0.061106 0.031291 0.271487
0.062294 0.031233 0.271088
0.063417 0.031145 0.270428
0.064816 0.031194 0.270955
0.066016 0.031147 0.270651
0.067293 0.031137 0.270666
0.068561 0.031124 0.270652
0.069847 0.031119 0.270710
0.071399 0.031230 0.271778
0.073406 0.031533 0.274515
0.075104 0.031695 0.276023
0.075775 0.031426 0.273771
0.077006 0.031393 0.273585
0.078230 0.031359 0.273380
0.079501 0.031345 0.273347
0.080874 0.031370 0.273659
0.081918 0.031270 0.272868
0.082929 0.031160 0.271991
0.084486 0.031255 0.272904
0.084976 0.030958 0.270396
0.086240 0.030949 0.270386
0.088348 0.031237 0.272983
0.093766 0.032671 0.285585
0.094974 0.032618 0.285192
0.098020 0.033188 0.290248
0.099165 0.033108 0.289611
0.100593 0.033124 0.289805
0.102004 0.033133 0.289941
0.103176 0.033065 0.289402
0.104466 0.033037 0.289199
0.105756 0.033009 0.289000
0.107212 0.033033 0.289247
0.108960 0.033145 0.290263
0.110394 0.033160 0.290422
0.111630 0.033116 0.290058
0.113078 0.033135 0.290239
0.114479 0.033140 0.290295
0.115790 0.033119 0.290114
0.117075 0.033091 0.289869
0.118515 0.033107 0.290001
0.119770 0.033072 0.289677
0.121356 0.033128 0.290142
0.122242 0.032993 0.288936
0.123688 0.033011 0.289056
0.125943 0.033242 0.291035
0.127365 0.033251 0.291057
0.128688 0.033233 0.290844
0.130001 0.033214 0.290605
0.131474 0.033235 0.290712
0.132884 0.033240 0.290670
0.134178 0.033216 0.290366
0.135715 0.033253 0.290578
0.137248 0.033287 0.290762
0.138580 0.033272 0.290511
0.139930 0.033262 0.290287
0.141171 0.033227 0.289831
0.142507 0.033214 0.289561
0.145347 0.033549 0.292307
0.147112 0.033631 0.292843
0.148031 0.033520 0.291683
0.149062 0.033437 0.290747
0.150468 0.033438 0.290538
0.152076 0.033484 0.290700
-0.041289 0.011635 0.098573
-0.041300 0.011770 0.099716
-0.040776 0.011754 0.099578
-0.043502 0.012686 0.107466
-0.043544 0.012847 0.108825
-0.043239 0.012909 0.109337
-0.042775 0.012924 0.109455
-0.042393 0.012964 0.109781
-0.042248 0.013079 0.110739
-0.042440 0.013302 0.112613
-0.043108 0.013683 0.115811
-0.043107 0.013857 0.117266
-0.042872 0.013961 0.118113
-0.042594 0.014052 0.118862
-0.042455 0.014193 0.120021
-0.042439 0.014379 0.121565
-0.043098 0.014802 0.125105
-0.043102 0.015009 0.126817
-0.043400 0.015325 0.129449
-0.043661 0.015637 0.132044
-0.043886 0.015945 0.134599
-0.043663 0.016097 0.135837
-0.043155 0.016146 0.136208
-0.043092 0.016367 0.138019
-0.043369 0.016725 0.140987
-0.043503 0.017038 0.143575
-0.043785 0.017421 0.146739
-0.043563 0.017611 0.148287
-0.043428 0.017844 0.150186
-0.043705 0.018257 0.153598
-0.043783 0.018599 0.156410
-0.044298 0.019141 0.160905
-0.044388 0.019516 0.163984
-0.044277 0.019814 0.166418
-0.044055 0.020073 0.168516
-0.044031 0.020432 0.171460
-0.043742 0.020681 0.173469
-0.043777 0.021095 0.176860
-0.043556 0.021399 0.179331
-0.043452 0.021774 0.182389
-0.043539 0.022262 0.186395
-0.043664 0.022790 0.190726
-0.043554 0.023215 0.194198
-0.043378 0.023623 0.197522
-0.043105 0.023995 0.200538
-0.042762 0.024344 0.203364
-0.042348 0.024667 0.205973
-0.041842 0.024952 0.208252
-0.041329 0.025246 0.210612
-0.040847 0.025574 0.213254
-0.040781 0.026186 0.218256
-0.042363 0.027916 0.232574
-0.041301 0.027950 0.232761
-0.040820 0.028390 0.236321
-0.040325 0.028845 0.240006
-0.039978 0.029436 0.244817
-0.039932 0.030291 0.251828
-0.039659 0.031022 0.257794
-0.038961 0.031456 0.261298
-0.038555 0.032163 0.267063
-0.037875 0.032683 0.271274
-0.036292 0.032432 0.269088
-0.035006 0.032438 0.269040
-0.031607 0.031625 0.262103
-0.029647 0.030896 0.255969
-0.028474 0.030959 0.256410
-0.027243 0.030963 0.256356
-0.026024 0.030981 0.256427
-0.024764 0.030950 0.256090
-0.023599 0.031042 0.256772
-0.022420 0.031122 0.257360
-0.021183 0.031128 0.257336
-0.019979 0.031187 0.257755
-0.018891 0.031446 0.259830
-0.018120 0.032306 0.266880
-0.016619 0.031897 0.263436
-0.015354 0.031913 0.263510
0.001204 0.032158 0.265115
0.002470 0.031939 0.263310
0.003859 0.032920 0.271395
0.005173 0.032918 0.271373
0.006231 0.031620 0.260680
0.007505 0.031671 0.261109
0.008784 0.031726 0.261577
0.009977 0.031494 0.259677
0.011239 0.031508 0.259810
0.012521 0.031570 0.260345
0.013780 0.031568 0.260356
0.015096 0.031685 0.261345
0.016354 0.031672 0.261273
0.017720 0.031854 0.262814
0.019026 0.031911 0.263324
0.020299 0.031910 0.263359
0.021935 0.032444 0.267814
0.023898 0.033377 0.275566
0.025215 0.033356 0.275451
0.024577 0.030881 0.255060
0.025834 0.030909 0.255349
0.027101 0.030946 0.255721
0.028342 0.030951 0.255820
0.029633 0.031009 0.256362
0.030867 0.031004 0.256389
0.032169 0.031066 0.256972
0.033444 0.031097 0.257302
0.034776 0.031177 0.258043
0.035976 0.031137 0.257790
0.037254 0.031166 0.258103
0.038580 0.031231 0.258726
0.041670 0.032675 0.270780
0.042931 0.032641 0.270587
0.043929 0.032415 0.268804
0.045108 0.032332 0.268202
0.046372 0.032312 0.268129
0.047524 0.032217 0.267440
0.048775 0.032193 0.267331
0.049949 0.032120 0.266825
0.051237 0.032123 0.266942
0.052852 0.032325 0.268723
0.054329 0.032435 0.269736
0.055698 0.032477 0.270186
0.057068 0.032518 0.270627
0.058238 0.032445 0.270123
0.059561 0.032459 0.270341
0.060901 0.032481 0.270630
0.062189 0.032475 0.270680
0.063375 0.032417 0.270301
0.064646 0.032404 0.270294
0.065876 0.032372 0.270126
0.067153 0.032363 0.270150
0.068454 0.032366 0.270274
0.069777 0.032379 0.270483
0.071194 0.032435 0.271044
0.072934 0.032632 0.272793
0.074724 0.032845 0.274670
0.075422 0.032578 0.272535
0.076613 0.032531 0.272228
0.078003 0.032567 0.272627
0.079106 0.032485 0.272025
0.080736 0.032618 0.273228
0.081687 0.032477 0.272130
0.082910 0.032447 0.271960
0.084321 0.032490 0.272402
0.084942 0.032232 0.270314
0.086196 0.032218 0.270272
0.087979 0.032399 0.271867
0.092949 0.033732 0.283121
0.094147 0.033677 0.282732
0.097480 0.034377 0.288670
0.099279 0.034524 0.289965
0.100619 0.034509 0.289898
0.101954 0.034493 0.289818
0.103159 0.034434 0.289372
0.104488 0.034417 0.289275
0.105784 0.034390 0.289088
0.107198 0.034401 0.289219
0.108730 0.034450 0.289659
0.110062 0.034434 0.289556
0.111733 0.034524 0.290331
0.113022 0.034495 0.290099
0.114471 0.034515 0.290275
0.115732 0.034478 0.289970
0.117003 0.034445 0.289689
0.118307 0.034423 0.289489
0.119665 0.034416 0.289416
0.120789 0.034343 0.288780
0.123260 0.034651 0.291332
0.123535 0.034341 0.288686
0.126069 0.034658 0.291311
0.127143 0.034572 0.290533
0.128675 0.034611 0.290797
0.130124 0.034627 0.290861
0.131685 0.034672 0.291158
0.132960 0.034642 0.290813
0.134381 0.034649 0.290779
0.135728 0.034638 0.290578
0.137048 0.034620 0.290309
0.138382 0.034606 0.290063
0.139535 0.034547 0.289433
0.141035 0.034575 0.289514
0.142337 0.034554 0.289176
0.145928 0.035083 0.293435
0.146960 0.034993 0.292496
0.148148 0.034942 0.291867
0.149512 0.034932 0.291576
0.150756 0.034895 0.291043
0.152032 0.034866 0.290562
-0.040596 0.012031 0.098017
-0.043765 0.013119 0.106879
-0.043696 0.013251 0.107946
-0.043560 0.013365 0.108867
-0.043183 0.013406 0.109198
-0.042798 0.013447 0.109516
-0.042446 0.013499 0.109924
-0.042346 0.013633 0.111001
-0.042456 0.013839 0.112661
-0.042869 0.014150 0.115174
-0.042909 0.014344 0.116735
-0.042617 0.014432 0.117420
-0.042279 0.014505 0.117993
-0.042035 0.014613 0.118844
-0.041836 0.014740 0.119846
-0.041857 0.014950 0.121516
-0.042752 0.015481 0.125798
-0.043472 0.015963 0.129679
-0.043645 0.016255 0.132010
-0.043619 0.016481 0.133799
-0.043483 0.016671 0.135295
-0.043260 0.016832 0.136559
-0.043069 0.017011 0.137963
-0.043220 0.017333 0.140523
-0.043687 0.017794 0.144205
-0.043672 0.018069 0.146384
-0.043595 0.018328 0.148420
-0.043517 0.018595 0.150520
-0.043639 0.018957 0.153392
-0.043660 0.019287 0.155996
-0.044078 0.019807 0.160135
-0.044187 0.020203 0.163273
-0.044140 0.020541 0.165936
-0.044232 0.020958 0.169226
-0.043999 0.021233 0.171372
-0.043783 0.021526 0.173667
-0.043622 0.021859 0.176273
-0.043496 0.022222 0.179122
-0.043436 0.022635 0.182364
-0.043369 0.023060 0.185711
-0.043391 0.023551 0.189580
-0.043375 0.024043 0.193449
-0.043357 0.024554 0.197473
-0.042923 0.024848 0.199744
-0.042712 0.025286 0.203178
-0.042370 0.025666 0.206138
-0.041905 0.025987 0.208626
-0.041369 0.026279 0.210873
-0.040990 0.026688 0.214059
-0.041007 0.027383 0.219534
-0.041287 0.028293 0.226733
-0.041244 0.029026 0.232504
-0.040863 0.029555 0.236641
-0.040364 0.030026 0.240312
-0.040084 0.030693 0.245545
-0.039922 0.031493 0.251844
-0.039836 0.032405 0.259030
-0.039022 0.032764 0.261796
-0.038634 0.033516 0.267702
-0.038039 0.034135 0.272543
-0.036367 0.033797 0.269737
-0.035058 0.033784 0.269536
-0.033795 0.033816 0.269693
-0.031578 0.032858 0.261955
-0.029676 0.032162 0.256319
-0.028503 0.032229 0.256766
-0.027288 0.032253 0.256876
-0.026060 0.032265 0.256886
-0.024824 0.032266 0.256815
-0.023614 0.032302 0.257031
-0.022417 0.032362 0.257430
-0.021183 0.032373 0.257447
-0.020048 0.032544 0.258747
-0.018999 0.032889 0.261421
-0.017952 0.033286 0.264513
-0.016589 0.033113 0.263082
-0.015240 0.032942 0.261662
0.001187 0.032935 0.261201
0.002461 0.033070 0.262266
0.005169 0.034199 0.271215
0.006230 0.032872 0.260700
0.007445 0.032665 0.259066
0.008728 0.032776 0.259957
0.009936 0.032612 0.258671
0.011157 0.032522 0.257978
0.012428 0.032581 0.258467
0.013688 0.032605 0.258684
0.014931 0.032585 0.258548
0.016203 0.032628 0.258923
0.017487 0.032686 0.259419
0.018796 0.032782 0.260219
0.020246 0.033093 0.262735
0.021763 0.033473 0.265795
0.023878 0.034677 0.275407
0.024740 0.032323 0.256819
0.025962 0.032299 0.256684
0.027210 0.032308 0.256813
0.028387 0.032235 0.256298
0.029584 0.032191 0.256011
0.030802 0.032172 0.255922
0.032035 0.032169 0.255969
0.033261 0.032159 0.255965
0.034507 0.032169 0.256116
0.035690 0.032121 0.255809
0.037021 0.032205 0.256555
0.038559 0.032459 0.258656
0.041350 0.033717 0.268773
0.042602 0.033682 0.268582
0.043263 0.033197 0.264795
0.044238 0.032972 0.263092
0.045631 0.033063 0.263912
0.046635 0.032875 0.262498
0.047705 0.032742 0.261529
0.048729 0.032585 0.260369
0.049984 0.032587 0.260476
0.051596 0.032815 0.262395
0.052988 0.032896 0.263138
0.054716 0.033177 0.265485
0.056009 0.033187 0.265663
0.057247 0.033165 0.265585
0.058820 0.033334 0.267035
0.060595 0.033607 0.269322
0.062014 0.033676 0.269976
0.063272 0.033656 0.269917
0.064476 0.033609 0.269638
0.065695 0.033570 0.269430
0.066914 0.033534 0.269237
0.068331 0.033597 0.269839
0.069605 0.033588 0.269862
0.070549 0.033422 0.268631
0.071758 0.033386 0.268436
0.073209 0.033462 0.269141
0.074438 0.033436 0.269021
0.075730 0.033438 0.269130
0.077058 0.033456 0.269360
0.078432 0.033493 0.269743
0.079678 0.033474 0.269680
0.080810 0.033410 0.269244
0.082543 0.033592 0.270789
0.083601 0.033497 0.270104
0.084632 0.033395 0.269357
0.085682 0.033303 0.268689
0.087574 0.033537 0.270643
0.093951 0.035456 0.286202
0.095164 0.035399 0.285808
0.098044 0.035955 0.290364
0.098678 0.035684 0.288231
0.100737 0.035928 0.290257
0.101979 0.035878 0.289907
0.103260 0.035842 0.289669
0.104574 0.035820 0.289529
0.105839 0.035781 0.289252
0.107386 0.035836 0.289737
0.108717 0.035820 0.289633
0.110200 0.035853 0.289925
0.111727 0.035900 0.290320
0.113149 0.035912 0.290429
0.114436 0.035881 0.290188
0.115773 0.035867 0.290071
0.116991 0.035816 0.289658
0.118212 0.035768 0.289252
0.119675 0.035793 0.289435
0.121936 0.036053 0.291514
0.123366 0.036064 0.291572
0.124551 0.036005 0.291049
0.126149 0.036064 0.291483
0.127470 0.036045 0.291266
0.128802 0.036028 0.291066
0.130184 0.036026 0.290974
0.131662 0.036049 0.291084
0.132841 0.035992 0.290527
0.134265 0.036001 0.290502
0.135677 0.036007 0.290439
0.137091 0.036013 0.290368
0.138526 0.036025 0.290330
0.139856 0.036009 0.290063
0.140980 0.035941 0.289363
0.142942 0.036086 0.290365
0.144580 0.036146 0.290679
0.146628 0.036308 0.291789
0.147777 0.036245 0.291087
0.148423 0.036062 0.289400
0.150003 0.036106 0.289533
0.151759 0.036192 0.289983
-0.044088 0.013568 0.106448
-0.043659 0.013590 0.106622
-0.043515 0.013703 0.107501
-0.043413 0.013831 0.108502
-0.042954 0.013848 0.108624
-0.042532 0.013876 0.108840
-0.042247 0.013951 0.109413
-0.042084 0.014069 0.110321
-0.042235 0.014295 0.112081
-0.043018 0.014744 0.115581
-0.043303 0.015032 0.117815
-0.043882 0.015431 0.120915
-0.043386 0.015456 0.121090
-0.042648 0.015396 0.120587
-0.042732 0.015634 0.122426
-0.042170 0.015640 0.122435
-0.042689 0.016052 0.125625
-0.043136 0.016448 0.128690
-0.043662 0.016886 0.132077
-0.043583 0.017099 0.133705
-0.043442 0.017294 0.135185
-0.042959 0.017357 0.135629
-0.042685 0.017507 0.136754
-0.042813 0.017829 0.139220
-0.043203 0.018272 0.142629
-0.043356 0.018627 0.145348
-0.043267 0.018889 0.147330
-0.043235 0.019183 0.149571
-0.043386 0.019570 0.152529
-0.043504 0.019955 0.155467
-0.043860 0.020465 0.159375
-0.043965 0.020874 0.162487
-0.044050 0.021287 0.165631
-0.044018 0.021657 0.168442
-0.044067 0.022082 0.171676
-0.043894 0.022410 0.174146
-0.043619 0.022697 0.176298
-0.043516 0.023086 0.179248
-0.043407 0.023488 0.182288
-0.043473 0.024003 0.186202
-0.043411 0.024467 0.189717
-0.043358 0.024956 0.193424
-0.043124 0.025360 0.196465
-0.042838 0.025750 0.199399
-0.042637 0.026211 0.202876
-0.042254 0.026579 0.205630
-0.041891 0.026976 0.208614
-0.041369 0.027288 0.210935
-0.041026 0.027737 0.214313
-0.041082 0.028486 0.219999
-0.041302 0.029390 0.226886
-0.041158 0.030077 0.232092
-0.040762 0.030613 0.236128
-0.040247 0.031089 0.239694
-0.039868 0.031699 0.244299
-0.039695 0.032516 0.250493
-0.039621 0.033467 0.257713
-0.038972 0.033978 0.261546
-0.038503 0.034685 0.266885
-0.038295 0.035685 0.274472
-0.036295 0.035026 0.269303
-0.035085 0.035109 0.269842
-0.031548 0.034087 0.261802
-0.029625 0.033340 0.255975
-0.028421 0.033371 0.256128
-0.027278 0.033480 0.256882
-0.026022 0.033455 0.256606
-0.024784 0.033451 0.256500
-0.023605 0.033531 0.257038
-0.022388 0.033562 0.257202
-0.021171 0.033597 0.257404
-0.019997 0.033710 0.258199
-0.018897 0.033969 0.260123
-0.018121 0.034892 0.267127
-0.016727 0.034672 0.265379
-0.015577 0.034967 0.267581
-0.014505 0.035503 0.271632
0.001188 0.034180 0.261153
0.002451 0.034179 0.261145
0.006198 0.033947 0.259371
0.007396 0.033691 0.257425
0.008643 0.033699 0.257496
0.009896 0.033722 0.257687
0.011123 0.033663 0.257256
0.012381 0.033700 0.257560
0.013638 0.033729 0.257802
0.014891 0.033741 0.257927
0.016164 0.033796 0.258378
0.017388 0.033746 0.258032
0.018663 0.033795 0.258444
0.020037 0.034007 0.260104
0.021997 0.035127 0.268719
0.024653 0.033444 0.255993
0.025933 0.033499 0.256473
0.027194 0.033526 0.256736
0.028328 0.033401 0.255837
0.029573 0.033412 0.255987
0.030817 0.033421 0.256121
0.032036 0.033402 0.256048
0.033314 0.033444 0.256440
0.034548 0.033441 0.256489
0.035657 0.033322 0.255645
0.037058 0.033474 0.256888
0.038720 0.033843 0.259805
0.041012 0.034723 0.266645
0.042254 0.034687 0.266455
0.043291 0.034491 0.265036
0.044251 0.034246 0.263237
0.045379 0.034141 0.262522
0.046457 0.034005 0.261564
0.047461 0.033824 0.260259
0.048593 0.033740 0.259704
0.049778 0.033696 0.259463
0.051153 0.033780 0.260203
0.052818 0.034048 0.262357
0.054228 0.034141 0.263172
0.055645 0.034236 0.263996
0.056900 0.034228 0.264033
0.058658 0.034516 0.266353
0.060178 0.034655 0.267526
0.061899 0.034902 0.269529
0.063239 0.034928 0.269827
0.064497 0.034908 0.269776
0.065818 0.034923 0.269987
0.067053 0.034892 0.269846
0.068386 0.034913 0.270105
0.069689 0.034918 0.270235
0.070608 0.034733 0.268901
0.071358 0.034473 0.266983
0.072759 0.034532 0.267530
0.073984 0.034507 0.267421
0.075129 0.034445 0.267033
0.076329 0.034411 0.266850
0.077180 0.034222 0.265475
0.078525 0.034256 0.265815
0.079703 0.034216 0.265589
0.081015 0.034235 0.265809
0.082697 0.034406 0.267216
0.084107 0.034461 0.267717
0.084930 0.034277 0.266359
0.087029 0.034607 0.268986
0.088453 0.034662 0.269477
0.098007 0.037855 0.294372
0.099251 0.037794 0.293963
0.100004 0.037550 0.292124
0.100678 0.037284 0.290107
0.102001 0.037262 0.289986
0.103361 0.037254 0.289969
0.104530 0.037178 0.289419
0.105806 0.037142 0.289174
0.107703 0.037321 0.290603
0.109158 0.037345 0.290815
0.110620 0.037370 0.291036
0.111821 0.037308 0.290568
0.113275 0.037331 0.290755
0.114557 0.037297 0.290495
0.115736 0.037231 0.289978
0.117088 0.037221 0.289894
0.118278 0.037161 0.289409
0.119552 0.037128 0.289130
0.121222 0.037217 0.289797
0.123578 0.037513 0.292063
0.124828 0.037469 0.291682
0.126062 0.037423 0.291267
0.127394 0.037405 0.291074
0.128783 0.037405 0.291003
0.130173 0.037405 0.290927
0.131571 0.037407 0.290859
0.132768 0.037353 0.290341
0.134329 0.037401 0.290612
0.135782 0.037418 0.290633
0.137089 0.037395 0.290329
0.138407 0.037375 0.290046
0.139787 0.037372 0.289881
0.141112 0.037355 0.289593
0.142710 0.037410 0.289849
0.144566 0.037530 0.290604
0.146372 0.037635 0.291228
0.147777 0.037636 0.291035
0.148891 0.037564 0.290259
0.150445 0.037603 0.290330
0.151729 0.037574 0.289866
-0.043090 0.013751 0.104038
-0.043560 0.014061 0.106381
-0.043130 0.014084 0.106550
-0.042849 0.014156 0.107095
-0.042462 0.014195 0.107381
-0.042245 0.014292 0.108107
-0.041915 0.014353 0.108559
-0.041653 0.014440 0.109196
-0.041904 0.014708 0.111210
-0.042392 0.015067 0.113906
-0.043276 0.015578 0.117749
-0.042954 0.015663 0.118366
-0.042218 0.015596 0.117840
-0.042026 0.015732 0.118841
-0.041346 0.015687 0.118465
-0.040744 0.015670 0.118307
-0.041821 0.016307 0.123086
-0.043013 0.017007 0.128338
-0.043205 0.017327 0.130709
-0.043127 0.017546 0.132322
-0.042885 0.017704 0.133468
-0.042612 0.017853 0.134551
-0.042505 0.018078 0.136197
-0.042689 0.018435 0.138838
-0.042922 0.018824 0.141724
-0.043095 0.019200 0.144498
-0.043105 0.019513 0.146802
-0.043162 0.019859 0.149344
-0.043418 0.020309 0.152669
-0.043727 0.020800 0.156296
-0.043675 0.021133 0.158733
-0.043919 0.021623 0.162348
-0.043814 0.021956 0.164780
-0.044048 0.022473 0.168594
-0.043900 0.022812 0.171062
-0.043944 0.023265 0.174385
-0.043856 0.023664 0.177297
-0.043634 0.024005 0.179776
-0.043619 0.024476 0.183223
-0.043574 0.024948 0.186679
-0.043513 0.025431 0.190209
-0.043284 0.025835 0.193141
-0.042977 0.026208 0.195845
-0.042794 0.026676 0.199252
-0.042425 0.027045 0.201924
-0.042128 0.027479 0.205074
-0.041751 0.027880 0.207974
-0.041482 0.028374 0.211571
-0.041256 0.028924 0.215578
-0.041227 0.029644 0.220843
-0.041173 0.030382 0.226250
-0.041107 0.031151 0.231878
-0.040659 0.031666 0.235608
-0.040139 0.032152 0.239127
-0.039813 0.032827 0.244046
-0.039849 0.033849 0.251546
-0.039731 0.034802 0.258523
-0.038977 0.035239 0.261670
-0.038600 0.036060 0.267657
-0.038474 0.037177 0.275849
-0.036334 0.036361 0.269689
-0.035051 0.036372 0.269674
-0.029586 0.034528 0.255733
-0.028409 0.034592 0.256124
-0.027165 0.034575 0.255920
-0.025966 0.034619 0.256162
-0.024760 0.034655 0.256355
-0.023536 0.034670 0.256392
-0.022345 0.034737 0.256815
-0.021159 0.034822 0.257370
-0.019985 0.034936 0.258152
-0.018815 0.035075 0.259114
-0.018070 0.036081 0.266486
-0.016611 0.035708 0.263669
-0.015724 0.036604 0.270227
-0.014489 0.036778 0.271463
-0.013495 0.037661 0.277923
-0.012095 0.037478 0.276528
-0.010744 0.037422 0.276070
-0.009418 0.037452 0.276252
-0.008092 0.037487 0.276474
-0.006727 0.037324 0.275239
-0.005350 0.036994 0.272779
-0.004030 0.036982 0.272659
-0.002697 0.036777 0.271128
-0.001378 0.036530 0.269292
-0.000077 0.037021 0.272897
0.002465 0.035621 0.262559
0.006117 0.034734 0.256029
0.007376 0.034833 0.256761
0.008625 0.034864 0.257004
0.009860 0.034837 0.256818
0.011108 0.034854 0.256964
0.012361 0.034885 0.257211
0.013625 0.034938 0.257624
0.014889 0.034980 0.257964
0.016145 0.035000 0.258142
0.017386 0.034986 0.258073
0.018685 0.035082 0.258818
0.020109 0.035386 0.261102
0.021676 0.035892 0.264885
0.024732 0.034789 0.256889
0.025935 0.034738 0.256567
0.027093 0.034634 0.255861
0.028283 0.034578 0.255505
0.029552 0.034620 0.255877
0.030767 0.034597 0.255772
0.032063 0.034664 0.256334
0.033406 0.034774 0.257220
0.034840 0.034969 0.258730
0.036376 0.035248 0.260870
0.037701 0.035311 0.261417
0.039094 0.035431 0.262383
0.040724 0.035752 0.264847
0.041942 0.035703 0.264565
0.043041 0.035558 0.263573
0.043922 0.035246 0.261350
0.045000 0.035105 0.260393
0.046072 0.034968 0.259460
0.047102 0.034807 0.258356
0.048104 0.034633 0.257154
0.049418 0.034688 0.257652
0.050787 0.034777 0.258405
0.052256 0.034929 0.259625
0.053845 0.035152 0.261375
0.055400 0.035343 0.262893
0.056495 0.035239 0.262211
0.058110 0.035456 0.263925
0.060042 0.035854 0.266980
0.061654 0.036047 0.268518
0.062924 0.036037 0.268538
0.064360 0.036120 0.269255
0.065633 0.036111 0.269280
0.066912 0.036105 0.269333
0.068364 0.036191 0.270067
0.069648 0.036186 0.270123
0.070802 0.036115 0.269687
0.071562 0.035849 0.267793
0.072472 0.035666 0.266517
0.073894 0.035738 0.267138
0.074572 0.035453 0.265093
0.075630 0.035355 0.264445
0.076698 0.035265 0.263852
0.077416 0.035019 0.262097
0.078769 0.035064 0.262508
0.080266 0.035171 0.263383
0.081616 0.035211 0.263755
0.083101 0.035306 0.264542
0.084360 0.035305 0.264598
0.085773 0.035367 0.265128
0.088397 0.035919 0.269331
0.097162 0.038915 0.291858
0.098396 0.038853 0.291453
0.099333 0.038676 0.290185
0.100875 0.038737 0.290694
0.102209 0.038717 0.290596
0.103662 0.038743 0.290828
0.104776 0.038642 0.290113
0.106112 0.038625 0.290021
0.107758 0.038720 0.290762
0.109206 0.038742 0.290951
0.110418 0.038681 0.290511
0.111954 0.038733 0.290919
0.113078 0.038643 0.290253
0.114313 0.038593 0.289877
0.115796 0.038627 0.290127
0.116994 0.038566 0.289657
0.118037 0.038455 0.288814
0.120139 0.038689 0.290542
0.121266 0.038606 0.289891
0.122991 0.038714 0.290662
0.124198 0.038658 0.290196
0.126106 0.038819 0.291351
0.127442 0.038802 0.291163
0.128837 0.038803 0.291103
0.130174 0.038787 0.290905
0.131727 0.038835 0.291178
0.133127 0.038838 0.291098
0.134537 0.038843 0.291029
0.135847 0.038819 0.290737
0.137179 0.038802 0.290485
0.138573 0.038803 0.290354
0.139937 0.038795 0.290150
0.141433 0.038824 0.290207
0.142828 0.038824 0.290044
0.144447 0.038885 0.290316
0.146249 0.038993 0.290932
0.147790 0.039031 0.291005
0.149036 0.038990 0.290484
0.150553 0.039021 0.290478
0.152070 0.039051 0.290454
-0.043798 0.014476 0.105747
-0.043371 0.014499 0.105920
-0.043073 0.014567 0.106410
-0.042712 0.014614 0.106754
-0.042218 0.014617 0.106767
-0.041930 0.014692 0.107306
-0.041692 0.014786 0.107984
-0.041744 0.014987 0.109438
-0.042195 0.015338 0.111987
-0.042105 0.015499 0.113143
-0.041933 0.015633 0.114104
-0.041375 0.015625 0.114023
-0.041149 0.015744 0.114867
-0.040907 0.015860 0.115687
-0.040395 0.015872 0.115751
-0.040057 0.015955 0.116324
-0.039929 0.016124 0.117529
-0.042239 0.017297 0.126042
-0.042690 0.017731 0.129168
-0.042510 0.017911 0.130443
-0.042709 0.018260 0.132939
-0.042707 0.018531 0.134871
-0.042685 0.018801 0.136794
-0.042752 0.019120 0.139066
-0.043014 0.019537 0.142050
-0.043007 0.019844 0.144225
-0.043319 0.020309 0.147554
-0.043250 0.020609 0.149674
-0.043388 0.021019 0.152592
-0.043404 0.021382 0.155171
-0.043626 0.021861 0.158584
-0.043633 0.022248 0.161322
-0.043725 0.022692 0.164480
-0.043869 0.023180 0.167945
-0.043973 0.023665 0.171384
-0.043861 0.024049 0.174093
-0.043697 0.024419 0.176696
-0.043667 0.024880 0.179956
-0.043619 0.025348 0.183265
-0.043559 0.025829 0.186662
-0.043461 0.026307 0.190032
-0.043229 0.026722 0.192947
-0.042999 0.027157 0.196000
-0.042682 0.027555 0.198785
-0.042281 0.027914 0.201293
-0.042076 0.028424 0.204881
-0.041732 0.028861 0.207943
-0.041546 0.029432 0.211965
-0.041423 0.030077 0.216516
-0.041333 0.030780 0.221478
-0.041424 0.031657 0.227700
-0.041103 0.032259 0.231932
-0.040545 0.032704 0.235028
-0.040242 0.033384 0.239818
-0.039898 0.034070 0.244650
-0.039773 0.034990 0.251157
-0.039513 0.035845 0.257189
-0.038866 0.036393 0.261018
-0.038332 0.037087 0.265895
-0.038436 0.038466 0.275678
-0.036241 0.037561 0.269097
-0.035092 0.037714 0.270095
-0.031983 0.037114 0.265615
-0.029708 0.035907 0.256886
-0.028433 0.035856 0.256438
-0.027206 0.035864 0.256415
-0.026017 0.035924 0.256762
-0.024781 0.035922 0.256677
-0.023572 0.035962 0.256889
-0.022398 0.036063 0.257541
-0.021188 0.036114 0.257831
-0.020038 0.036280 0.258951
-0.018758 0.036218 0.258444
-0.018050 0.037329 0.266315
-0.016500 0.036737 0.262035
-0.015412 0.037159 0.264988
-0.014159 0.037224 0.265403
-0.013480 0.038963 0.277744
-0.012081 0.038774 0.276350
-0.010731 0.038715 0.275892
-0.009407 0.038746 0.276073
-0.008082 0.038783 0.276296
-0.006718 0.038614 0.275061
-0.005172 0.037053 0.263917
-0.003891 0.036989 0.263433
-0.002630 0.037160 0.264631
-0.001335 0.036713 0.261432
-0.000073 0.037196 0.264856
0.001224 0.037737 0.268696
0.002464 0.036852 0.262389
0.006096 0.035838 0.255174
0.007358 0.035978 0.256177
0.008611 0.036042 0.256642
0.009861 0.036077 0.256907
0.011108 0.036092 0.257033
0.012354 0.036102 0.257125
0.013597 0.036103 0.257152
0.014842 0.036109 0.257226
0.016096 0.036132 0.257419
0.017356 0.036166 0.257699
0.018646 0.036253 0.258351
0.020094 0.036618 0.260992
0.021719 0.037242 0.265483
0.034190 0.036858 0.263340
0.035616 0.037020 0.264571
0.036902 0.037030 0.264719
0.038514 0.037356 0.267130
0.039763 0.037320 0.266952
0.040934 0.037215 0.266283
0.041974 0.037001 0.264835
0.043254 0.037006 0.264951
0.043745 0.036354 0.260369
0.044739 0.036145 0.258956
0.045677 0.035903 0.257307
0.046717 0.035752 0.256310
0.047732 0.035589 0.255234
0.048863 0.035520 0.254821
0.050111 0.035536 0.255027
0.051526 0.035667 0.256059
0.052820 0.035711 0.256463
0.054167 0.035787 0.257101
0.055711 0.035987 0.258629
0.057391 0.036265 0.260718
0.059685 0.036910 0.265451
0.061651 0.037329 0.268560
0.063113 0.037432 0.269400
0.064485 0.037480 0.269836
0.065744 0.037460 0.269790
0.066984 0.037431 0.269671
0.068381 0.037489 0.270182
0.069666 0.037484 0.270243
0.070637 0.037314 0.269105
0.071005 0.036837 0.265754
0.071982 0.036687 0.264759
0.073174 0.036650 0.264575
0.074074 0.036470 0.263363
0.075175 0.036394 0.262892
0.075959 0.036169 0.261349
0.077054 0.036097 0.260906
0.078148 0.036027 0.260474
0.079379 0.036021 0.260505
0.081111 0.036239 0.262154
0.082463 0.036284 0.262542
0.083722 0.036286 0.262625
0.085515 0.036517 0.264358
0.088052 0.037054 0.268305
0.096701 0.040110 0.290500
0.097930 0.040046 0.290097
0.100968 0.040714 0.294985
0.100787 0.040082 0.290461
0.102105 0.040056 0.290318
0.103414 0.040027 0.290150
0.104765 0.040015 0.290098
0.105868 0.039909 0.289365
0.107256 0.039913 0.289417
0.109224 0.040129 0.291008
0.110509 0.040092 0.290757
0.111637 0.039999 0.290097
0.113179 0.040056 0.290512
0.114510 0.040037 0.290377
0.115642 0.039950 0.289738
0.117055 0.039960 0.289802
0.118385 0.039943 0.289658
0.119619 0.039894 0.289275
0.121876 0.040183 0.291339
0.123400 0.040227 0.291614
0.124747 0.040213 0.291463
0.126107 0.040203 0.291335
0.127363 0.040160 0.290963
0.128754 0.040160 0.290892
0.130264 0.040197 0.291080
0.131734 0.040221 0.291164
0.133075 0.040206 0.290954
0.134451 0.040201 0.290812
0.135866 0.040208 0.290744
0.137156 0.040178 0.290398
0.138516 0.040169 0.290195
0.139987 0.040192 0.290210
0.141178 0.040135 0.289637
0.142748 0.040185 0.289831
0.144684 0.040337 0.290741
0.146212 0.040373 0.290804
0.147570 0.040362 0.290514
0.149122 0.040403 0.290590
0.150479 0.040392 0.290271
0.151731 0.040352 0.289739
-0.043272 0.014794 0.104478
-0.043405 0.015010 0.106002
-0.043054 0.015062 0.106365
-0.042758 0.015133 0.106870
-0.042273 0.015140 0.106909
-0.042021 0.015231 0.107542
-0.041726 0.015308 0.108078
-0.041433 0.015388 0.108630
-0.041992 0.015790 0.111453
-0.042424 0.016154 0.114006
-0.042154 0.016257 0.114713
-0.041788 0.016324 0.115169
-0.041483 0.016418 0.115807
-0.041111 0.016488 0.116274
-0.040585 0.016496 0.116308
-0.040327 0.016615 0.117120
-0.040288 0.016829 0.118600
-0.041566 0.017607 0.124047
-0.042262 0.018158 0.127889
-0.042351 0.018459 0.129973
-0.042569 0.018826 0.132520
-0.042730 0.019179 0.134962
-0.042532 0.019379 0.136323
-0.042724 0.019766 0.138996
-0.042730 0.020077 0.141135
-0.043036 0.020541 0.144346
-0.043126 0.020915 0.146926
-0.043381 0.021383 0.150154
-0.043358 0.021727 0.152514
-0.043393 0.022113 0.155162
-0.043480 0.022539 0.158089
-0.043434 0.022909 0.160623
-0.043359 0.023277 0.163138
-0.043385 0.023714 0.166128
-0.043212 0.024056 0.168455
-0.043733 0.024804 0.173627
-0.043552 0.025176 0.176154
-0.043398 0.025578 0.178889
-0.043566 0.026190 0.183091
-0.043578 0.026730 0.186791
-0.043372 0.027157 0.189694
-0.043225 0.027640 0.192984
-0.042912 0.028035 0.195657
-0.042576 0.028432 0.198345
-0.042181 0.028808 0.200878
-0.042006 0.029354 0.204599
-0.041610 0.029768 0.207400
-0.041510 0.030419 0.211844
-0.041186 0.030935 0.215344
-0.041378 0.031874 0.221789
-0.041251 0.032611 0.226824
-0.040997 0.033284 0.231407
-0.040514 0.033804 0.234926
-0.039841 0.034190 0.237512
-0.039747 0.035110 0.243808
-0.040004 0.036405 0.252700
-0.039473 0.037043 0.257025
-0.041137 0.039846 0.276373
-0.039854 0.039888 0.276554
-0.038568 0.039928 0.276731
-0.036321 0.038941 0.269792
-0.034958 0.038864 0.269166
-0.033698 0.038900 0.269321
-0.031949 0.038353 0.265443
-0.030039 0.037559 0.259859
-0.028457 0.037123 0.256759
-0.027173 0.037054 0.256203
-0.026031 0.037183 0.257014
-0.024779 0.037159 0.256774
-0.023548 0.037165 0.256741
-0.022316 0.037170 0.256710
-0.021154 0.037299 0.257534
-0.019959 0.037384 0.258055
-0.018728 0.037408 0.258156
-0.017828 0.038143 0.263167
-0.016514 0.038036 0.262373
-0.015171 0.037842 0.260982
-0.013940 0.037915 0.261436
-0.012642 0.037801 0.260604
-0.011268 0.037413 0.257882
-0.010022 0.037407 0.257803
-0.008798 0.037489 0.258334
-0.007517 0.037322 0.257148
-0.006289 0.037399 0.257646
-0.005067 0.037560 0.258729
-0.003842 0.037795 0.260324
-0.002598 0.037998 0.261703
-0.001328 0.037804 0.260351
-0.000071 0.038329 0.263951
0.001225 0.038993 0.268517
0.002454 0.037943 0.261274
0.006164 0.037475 0.258058
0.007382 0.037333 0.257083
0.008635 0.037376 0.257389
0.009883 0.037395 0.257537
0.011133 0.037413 0.257675
0.012364 0.037371 0.257407
0.013626 0.037422 0.257782
0.014875 0.037431 0.257871
0.016156 0.037512 0.258462
0.017383 0.037465 0.258173
0.018643 0.037490 0.258382
0.020053 0.037797 0.260534
0.021197 0.037594 0.259180
0.034158 0.038088 0.263169
0.035583 0.038256 0.264399
0.036867 0.038266 0.264547
0.038058 0.038182 0.264038
0.039517 0.038363 0.265373
0.040781 0.038350 0.265363
0.042138 0.038423 0.265947
0.043137 0.038174 0.264305
0.043827 0.037673 0.260924
0.044275 0.036999 0.256337
0.045325 0.036851 0.255391
0.046516 0.036821 0.255270
0.047526 0.036654 0.254198
0.048598 0.036541 0.253502
0.049771 0.036508 0.253358
0.051154 0.036627 0.254276
0.052477 0.036698 0.254856
0.053643 0.036659 0.254673
0.055243 0.036912 0.256518
0.057143 0.037349 0.259650
0.059596 0.038122 0.265111
0.061409 0.038461 0.267564
0.062780 0.038516 0.268039
0.064178 0.038584 0.268606
0.065580 0.038652 0.269172
0.066851 0.038641 0.269190
0.068173 0.038660 0.269412
0.069425 0.038639 0.269357
0.070273 0.038398 0.267769
0.070367 0.037761 0.263411
0.071448 0.037667 0.262840
0.072621 0.037624 0.262619
0.073592 0.037479 0.261691
0.074421 0.037268 0.260295
0.075305 0.037091 0.259135
0.076460 0.037050 0.258928
0.077285 0.036854 0.257632
0.078430 0.036814 0.257421
0.079801 0.036880 0.257950
0.081275 0.036991 0.258788
0.082521 0.036996 0.258886
0.083685 0.036964 0.258726
0.085934 0.037406 0.261874
0.097780 0.041953 0.293768
0.099024 0.041887 0.293360
0.099494 0.041499 0.290700
0.100803 0.041468 0.290527
0.102109 0.041435 0.290346
0.103685 0.041512 0.290926
0.104943 0.041461 0.290603
0.106544 0.041546 0.291224
0.107790 0.041491 0.290867
0.108966 0.041411 0.290327
0.110344 0.041409 0.290328
0.111632 0.041374 0.290088
0.112700 0.041258 0.289283
0.113998 0.041229 0.289075
0.115820 0.041388 0.290180
0.117210 0.041390 0.290180
0.118742 0.041442 0.290521
0.119839 0.041342 0.289795
0.121288 0.041365 0.289921
0.122853 0.041426 0.290306
0.124415 0.041485 0.290669
0.126079 0.041576 0.291249
0.127477 0.041579 0.291201
0.128947 0.041604 0.291304
0.130399 0.041624 0.291356
0.131729 0.041604 0.291124
0.133228 0.041637 0.291257
0.134487 0.041596 0.290854
0.136174 0.041686 0.291365
0.137632 0.041705 0.291367
0.139125 0.041734 0.291428
0.140582 0.041752 0.291398
0.142025 0.041765 0.291327
0.143529 0.041796 0.291367
0.144988 0.041813 0.291297
0.146612 0.041877 0.291541
0.147861 0.041833 0.291027
0.151726 0.042524 0.295601
0.150904 0.041900 0.291025
0.152467 0.041944 0.291074
-0.042242 0.014923 0.101989
-0.043532 0.015555 0.106312
-0.043095 0.015578 0.106466
-0.042468 0.015531 0.106148
-0.042135 0.015593 0.106561
-0.041659 0.015602 0.106619
-0.041123 0.015589 0.106520
-0.041331 0.015861 0.108367
-0.041815 0.016247 0.110989
-0.042068 0.016551 0.113056
-0.041485 0.016531 0.112900
-0.040900 0.016509 0.112730
-0.041050 0.016787 0.114609
-0.040840 0.016924 0.115517
-0.040541 0.017027 0.116192
-0.040221 0.017123 0.116825
-0.040123 0.017319 0.118127
-0.040579 0.017761 0.121116
-0.042580 0.018903 0.128867
-0.042041 0.018934 0.129040
-0.042340 0.019348 0.131825
-0.042186 0.019566 0.133263
-0.042119 0.019830 0.135019
-0.042424 0.020280 0.138042
-0.042892 0.020824 0.141695
-0.042913 0.021164 0.143959
-0.043387 0.021742 0.147839
-0.043367 0.022088 0.150134
-0.043498 0.022523 0.153037
-0.043495 0.022903 0.155559
-0.043274 0.023179 0.157371
-0.043104 0.023492 0.159435
-0.042978 0.023840 0.161737
-0.043157 0.024374 0.165294
-0.043434 0.024984 0.169359
-0.043511 0.025500 0.172786
-0.043569 0.026024 0.176266
-0.043713 0.026621 0.180235
-0.043638 0.027106 0.183438
-0.043455 0.027542 0.186313
-0.043280 0.028002 0.189343
-0.043058 0.028450 0.192292
-0.042677 0.028810 0.194640
-0.042492 0.029321 0.198010
-0.042232 0.029803 0.201179
-0.041940 0.030284 0.204340
-0.041592 0.030746 0.207374
-0.041404 0.031352 0.211370
-0.041180 0.031960 0.215381
-0.041148 0.032753 0.220632
-0.041170 0.033630 0.226450
-0.041075 0.034458 0.231931
-0.040812 0.035187 0.236736
-0.040100 0.035559 0.239142
-0.040105 0.036606 0.246091
-0.039963 0.037579 0.252535
-0.039813 0.041173 0.276372
-0.038254 0.040922 0.274584
-0.036464 0.040397 0.270962
-0.034984 0.040189 0.269473
-0.034521 0.041178 0.276011
-0.031915 0.039588 0.265266
-0.030078 0.038860 0.260299
-0.028536 0.038467 0.257586
-0.027186 0.038308 0.256441
-0.025944 0.038293 0.256267
-0.024825 0.038468 0.257359
-0.023589 0.038470 0.257300
-0.022289 0.038362 0.256509
-0.021167 0.038567 0.257816
-0.019995 0.038699 0.258632
-0.018617 0.038425 0.256741
-0.017774 0.039295 0.262496
-0.016438 0.039124 0.261293
-0.015139 0.039022 0.260562
-0.013923 0.039131 0.261240
-0.012553 0.038790 0.258912
-0.011324 0.038857 0.259322
-0.010043 0.038740 0.258497
-0.008797 0.038742 0.258474
-0.007538 0.038680 0.258027
-0.006306 0.038760 0.258535
-0.005082 0.038940 0.259706
-0.003838 0.039031 0.260286
-0.002596 0.039244 0.261689
-0.001327 0.039090 0.260644
-0.000070 0.039667 0.264482
0.001214 0.039872 0.265833
0.002485 0.039671 0.264490
0.006196 0.038913 0.259437
0.007409 0.038702 0.258039
0.008643 0.038647 0.257682
0.009871 0.038584 0.257272
0.011126 0.038626 0.257570
0.012365 0.038610 0.257486
0.013624 0.038654 0.257804
0.014884 0.038695 0.258102
0.016158 0.038761 0.258573
0.017430 0.038812 0.258949
0.018963 0.039400 0.262904
0.020295 0.039522 0.263759
0.021847 0.040033 0.267211
0.034882 0.040187 0.268828
0.036173 0.040182 0.268865
0.037400 0.040108 0.268448
0.038480 0.039888 0.267046
0.039694 0.039816 0.266643
0.040659 0.039506 0.264645
0.041985 0.039555 0.265055
0.043234 0.039531 0.264977
0.043655 0.038773 0.259977
0.043904 0.037908 0.254258
0.045074 0.037864 0.254043
0.046300 0.037868 0.254154
0.047423 0.037790 0.253714
0.048611 0.037766 0.253638
0.049894 0.037815 0.254052
0.051217 0.037890 0.254648
0.052654 0.038046 0.255778
0.053987 0.038120 0.256368
0.055267 0.038155 0.256687
0.057183 0.038618 0.259892
0.059470 0.039306 0.264612
0.061352 0.039703 0.267378
0.062722 0.039759 0.267846
0.064078 0.039804 0.268243
0.065632 0.039968 0.269439
0.066860 0.039931 0.269278
0.068091 0.039897 0.269140
0.069418 0.039919 0.269380
0.070319 0.039701 0.267992
0.070505 0.039093 0.263973
0.071641 0.039024 0.263594
0.072906 0.039027 0.263694
0.073665 0.038763 0.261992
0.074112 0.038347 0.259255
0.075129 0.038234 0.258569
0.076101 0.038102 0.257749
0.076906 0.037893 0.256402
0.078242 0.037947 0.256838
0.079372 0.037901 0.256593
0.080311 0.037767 0.255747
0.081543 0.037773 0.255845
0.082693 0.037741 0.255685
0.084340 0.037933 0.257041
0.085655 0.037972 0.257361
0.096470 0.042163 0.285815
0.099737 0.042984 0.291431
0.100520 0.042726 0.289729
0.101660 0.042625 0.289086
0.103539 0.042832 0.290529
0.104681 0.042733 0.289892
0.105461 0.042491 0.288273
0.107549 0.042775 0.290226
0.108766 0.042710 0.289802
0.110372 0.042797 0.290404
0.111704 0.042777 0.290276
0.112968 0.042732 0.289972
0.114570 0.042814 0.290523
0.115582 0.042676 0.289578
0.117156 0.042747 0.290041
0.118592 0.042766 0.290147
0.119810 0.042707 0.289714
0.121070 0.042664 0.289385
0.122511 0.042685 0.289482
0.124321 0.042833 0.290430
0.126070 0.042956 0.291208
0.127219 0.042875 0.290586
0.128726 0.042915 0.290779
0.130117 0.042915 0.290696
0.131524 0.042921 0.290639
0.132988 0.042945 0.290697
0.134686 0.043043 0.291247
0.136463 0.043164 0.291942
0.137974 0.043200 0.292048
0.139456 0.043225 0.292076
0.140912 0.043242 0.292034
0.142543 0.043312 0.292339
0.143840 0.043280 0.291944
0.145885 0.043471 0.293043
0.146606 0.043268 0.291471
0.148014 0.043270 0.291264
0.150332 0.043535 0.292818
0.152049 0.043622 0.293162
0.153017 0.043495 0.292050
-0.042373 0.015452 0.102305
-0.043709 0.016122 0.106744
-0.043338 0.016170 0.107067
-0.042659 0.016104 0.106626
-0.042338 0.016173 0.107077
-0.041816 0.016165 0.107023
-0.041445 0.016217 0.107358
-0.041183 0.016313 0.107983
-0.041716 0.016731 0.110733
-0.041542 0.016871 0.111650
-0.040922 0.016832 0.111374
-0.040605 0.016918 0.111927
-0.040456 0.017078 0.112960
-0.040731 0.017422 0.115217
-0.040532 0.017571 0.116176
-0.039830 0.017503 0.115699
-0.039407 0.017557 0.116030
-0.039698 0.017936 0.118502
-0.040214 0.018428 0.121722
-0.042255 0.019643 0.129714
-0.042595 0.020092 0.132639
-0.042567 0.020378 0.134484
-0.042036 0.020428 0.134776
-0.042566 0.021003 0.138524
-0.042573 0.021334 0.140662
-0.042424 0.021597 0.142344
-0.042801 0.022140 0.145869
-0.043290 0.022759 0.149896
-0.043221 0.023101 0.152094
-0.043321 0.023546 0.154968
-0.043277 0.023927 0.157413
-0.043155 0.024277 0.159658
-0.043099 0.024678 0.162229
-0.043270 0.025226 0.165765
-0.043272 0.025693 0.168769
-0.043187 0.026126 0.171542
-0.042923 0.026464 0.173696
-0.043052 0.027063 0.177552
-0.043247 0.027729 0.181845
-0.043286 0.028319 0.185637
-0.043134 0.028806 0.188755
-0.042929 0.029278 0.191766
-0.042641 0.029713 0.194532
-0.042497 0.030269 0.198094
-0.042185 0.030729 0.201015
-0.042012 0.031313 0.204751
-0.041693 0.031814 0.207943
-0.041365 0.032332 0.211238
-0.041348 0.033125 0.216332
-0.041333 0.033960 0.221694
-0.041353 0.034869 0.227534
-0.041121 0.035609 0.232269
-0.040329 0.035890 0.234013
-0.039965 0.036581 0.238420
-0.039274 0.037003 0.241080
-0.043314 0.042043 0.273810
-0.042049 0.042088 0.274000
-0.040499 0.041841 0.272288
-0.039549 0.042218 0.274643
-0.038213 0.042196 0.274397
-0.036454 0.041688 0.270999
-0.035139 0.041669 0.270781
-0.034483 0.042459 0.275822
-0.033189 0.042497 0.275974
-0.029778 0.039713 0.257813
-0.028500 0.039656 0.257364
-0.027224 0.039598 0.256908
-0.026032 0.039663 0.257251
-0.024793 0.039657 0.257140
-0.023551 0.039648 0.257009
-0.022311 0.039639 0.256883
-0.021077 0.039643 0.256843
-0.019951 0.039861 0.258190
-0.018759 0.039969 0.258830
-0.017837 0.040707 0.263549
-0.016464 0.040453 0.261850
-0.015182 0.040396 0.261425
-0.013979 0.040560 0.262440
-0.012617 0.040247 0.260367
-0.011384 0.040326 0.260835
-0.010085 0.040160 0.259719
-0.008808 0.040046 0.258948
-0.007547 0.039983 0.258507
-0.006314 0.040066 0.259016
-0.005077 0.040168 0.259648
-0.003827 0.040193 0.259785
-0.002580 0.040292 0.260407
-0.001322 0.040262 0.260194
-0.000067 0.040561 0.262113
0.001204 0.040766 0.263430
0.002470 0.040680 0.262864
0.003876 0.042167 0.272471
0.005172 0.042016 0.271494
0.006315 0.040928 0.264471
0.007623 0.041095 0.265556
0.008872 0.040940 0.264564
0.010157 0.040974 0.264798
0.011453 0.041037 0.265220
0.012701 0.040930 0.264553
0.014017 0.041044 0.265311
0.015326 0.041119 0.265826
0.016531 0.040927 0.264612
0.017925 0.041196 0.266385
0.019319 0.041428 0.267925
0.020352 0.040905 0.264580
0.021929 0.041473 0.268296
0.023797 0.042498 0.274971
0.025109 0.042472 0.274858
0.026371 0.042369 0.274241
0.027699 0.042377 0.274352
0.028878 0.042168 0.273051
0.030113 0.042053 0.272370
0.031249 0.041816 0.270900
0.032579 0.041848 0.271171
0.033847 0.041800 0.270923
0.034847 0.041437 0.268642
0.036137 0.041432 0.268680
0.037433 0.041435 0.268772
0.038592 0.041289 0.267903
0.039677 0.041078 0.266609
0.040770 0.040887 0.265444
0.042145 0.040983 0.266146
0.043286 0.040851 0.265370
0.044515 0.040808 0.265173
0.043650 0.038901 0.252859
0.044900 0.038931 0.253134
0.046219 0.039017 0.253779
0.047322 0.038921 0.253237
0.048577 0.038953 0.253525
0.049806 0.038962 0.253668
0.051093 0.039015 0.254098
0.052469 0.039131 0.254944
0.053660 0.039108 0.254877
0.055055 0.039231 0.255765
0.056815 0.039603 0.258277
0.059089 0.040310 0.262975
0.061424 0.041028 0.267752
0.062571 0.040939 0.267260
0.063986 0.041025 0.267914
0.065555 0.041206 0.269181
0.066823 0.041192 0.269183
0.068109 0.041191 0.269263
0.069287 0.041126 0.268922
0.070178 0.040895 0.267502
0.070521 0.040360 0.264083
0.071646 0.040283 0.263658
0.072726 0.040183 0.263085
0.073331 0.039829 0.260845
0.073895 0.039465 0.258534
0.074683 0.039230 0.257069
0.075623 0.039082 0.256168
0.076852 0.039084 0.256254
0.078079 0.039087 0.256336
0.079138 0.039006 0.255867
0.080649 0.039146 0.256852
0.081834 0.039127 0.256784
0.082966 0.039084 0.256554
0.084988 0.039454 0.259040
0.093572 0.042817 0.281173
0.094764 0.042750 0.280783
0.099022 0.044049 0.289362
0.100002 0.043873 0.288254
0.101609 0.043975 0.288957
0.102614 0.043816 0.287949
0.103847 0.043757 0.287593
0.106097 0.044123 0.290022
0.107412 0.044095 0.289862
0.108675 0.044047 0.289562
0.110256 0.044128 0.290104
0.111632 0.044125 0.290091
0.112968 0.044107 0.289970
0.114338 0.044102 0.289932
0.115731 0.044107 0.289947
0.116955 0.044047 0.289535
0.118295 0.044032 0.289410
0.119595 0.044002 0.289181
0.120881 0.043969 0.288918
0.122364 0.044006 0.289118
0.123839 0.044040 0.289286
0.125824 0.044252 0.290616
0.127559 0.044373 0.291338
0.129071 0.044415 0.291528
0.130184 0.044319 0.290815
0.131579 0.044321 0.290729
0.133038 0.044344 0.290770
0.134505 0.044369 0.290818
0.136130 0.044445 0.291189
0.137514 0.044442 0.291030
0.139400 0.044598 0.291909
0.141024 0.044670 0.292215
0.142732 0.044765 0.292671
0.143860 0.044679 0.291927
0.145586 0.044779 0.292381
0.146817 0.044725 0.291826
0.148043 0.044671 0.291254
0.149735 0.044758 0.291586
0.151293 0.044803 0.291631
0.152298 0.044685 0.290602
-0.043213 0.016250 0.104331
-0.043897 0.016696 0.107203
-0.043379 0.016691 0.107168
-0.042708 0.016626 0.106749
-0.042149 0.016603 0.106602
-0.041639 0.016599 0.106572
-0.041332 0.016678 0.107068
-0.040252 0.016442 0.105547
-0.040257 0.016649 0.106866
-0.040612 0.017008 0.109157
-0.041043 0.017409 0.111711
-0.040828 0.017542 0.112549
-0.040005 0.017414 0.111710
-0.039283 0.018302 0.117278
-0.042600 0.020130 0.128958
-0.042060 0.020163 0.129130
-0.042091 0.020474 0.131087
-0.042125 0.020796 0.133110
-0.042506 0.021302 0.136303
-0.042897 0.021827 0.139625
-0.042952 0.022196 0.141938
-0.042687 0.022409 0.143249
-0.042679 0.022765 0.145479
-0.042849 0.023230 0.148398
-0.043206 0.023814 0.152070
-0.043338 0.024291 0.155060
-0.043289 0.024680 0.157490
-0.043110 0.025009 0.159528
-0.043154 0.025481 0.162472
-0.043166 0.025951 0.165406
-0.042938 0.026290 0.167505
-0.042942 0.026789 0.170612
-0.042802 0.027214 0.173249
-0.042824 0.027760 0.176659
-0.042867 0.028343 0.180294
-0.043169 0.029125 0.185190
-0.043056 0.029652 0.188468
-0.042853 0.030139 0.191484
-0.042529 0.030560 0.194078
-0.042382 0.031130 0.197615
-0.042296 0.031771 0.201605
-0.042184 0.032423 0.205654
-0.041811 0.032900 0.208598
-0.041554 0.033493 0.212272
-0.041341 0.034153 0.216367
-0.041342 0.035028 0.221818
-0.041255 0.035872 0.227072
-0.040958 0.036574 0.231426
-0.040694 0.037347 0.236218
-0.039722 0.037494 0.237057
-0.041830 0.040642 0.256865
-0.042004 0.043356 0.273809
-0.040534 0.043185 0.272630
-0.039096 0.043039 0.271609
-0.038513 0.043856 0.276665
-0.036500 0.043044 0.271449
-0.034978 0.042774 0.269650
-0.034639 0.043984 0.277187
-0.033339 0.044023 0.277340
-0.029843 0.041044 0.258490
-0.028527 0.040935 0.257726
-0.027258 0.040887 0.257344
-0.026006 0.040861 0.257105
-0.024785 0.040884 0.257173
-0.023553 0.040890 0.257141
-0.022259 0.040784 0.256408
-0.021064 0.040856 0.256798
-0.019905 0.041012 0.257717
-0.018772 0.041247 0.259131
-0.017737 0.041745 0.262202
-0.016383 0.041512 0.260680
-0.015171 0.041632 0.261382
-0.014022 0.041958 0.263382
-0.012576 0.041375 0.259675
-0.011257 0.041126 0.258070
-0.010017 0.041139 0.258116
-0.008758 0.041068 0.257635
-0.007507 0.041018 0.257289
-0.006270 0.041037 0.257378
-0.005044 0.041164 0.258145
-0.003806 0.041242 0.258615
-0.002578 0.041551 0.260529
-0.001315 0.041335 0.259160
-0.000065 0.041659 0.261177
0.001217 0.042435 0.266036
0.002485 0.042163 0.264324
0.003873 0.043432 0.272272
0.005168 0.043276 0.271296
0.006457 0.043139 0.270442
0.007732 0.042971 0.269393
0.009022 0.042924 0.269111
0.010285 0.042777 0.268201
0.011546 0.042651 0.267431
0.012837 0.042653 0.267464
0.014134 0.042672 0.267606
0.015410 0.042631 0.267371
0.016711 0.042658 0.267574
0.018081 0.042845 0.268776
0.019304 0.042683 0.267800
0.020614 0.042721 0.268074
0.021988 0.042878 0.269104
0.023162 0.042650 0.267715
0.024146 0.042115 0.264404
0.025285 0.041888 0.263031
0.026656 0.042051 0.264108
0.027855 0.041940 0.263463
0.029010 0.041774 0.262476
0.030195 0.041664 0.261850
0.031557 0.041797 0.262743
0.032846 0.041826 0.262991
0.033996 0.041684 0.262162
0.035371 0.041816 0.263063
0.036756 0.041951 0.263986
0.038081 0.042012 0.264439
0.039354 0.042012 0.264513
0.040478 0.041859 0.263625
0.042117 0.042230 0.266044
0.043217 0.042056 0.265022
0.044444 0.042012 0.264826
0.043651 0.040113 0.252938
0.044801 0.040055 0.252646
0.046032 0.040070 0.252822
0.047218 0.040046 0.252753
0.048422 0.040038 0.252784
0.049648 0.040048 0.252932
0.050918 0.040093 0.253294
0.052241 0.040175 0.253901
0.053483 0.040194 0.254102
0.054841 0.040296 0.254832
0.056532 0.040633 0.257052
0.058794 0.041358 0.261723
0.061343 0.042250 0.267456
0.062713 0.042310 0.267926
0.063865 0.042224 0.267465
0.065495 0.042450 0.268987
0.066802 0.042463 0.269155
0.068057 0.042443 0.269113
0.069246 0.042383 0.268817
0.070039 0.042086 0.267021
0.070658 0.041699 0.264643
0.071694 0.041566 0.263878
0.072686 0.041413 0.262985
0.073308 0.041057 0.260804
0.073519 0.040488 0.257260
0.074363 0.040279 0.256004
0.075485 0.040226 0.255736
0.076530 0.040134 0.255214
0.077677 0.040097 0.255046
0.078753 0.040026 0.254653
0.080127 0.040106 0.255220
0.081537 0.040200 0.255880
0.082667 0.040157 0.255656
0.084333 0.040371 0.257068
0.086178 0.040663 0.258977
0.095851 0.044588 0.284026
0.098066 0.044983 0.286587
0.099732 0.045119 0.287493
0.101150 0.045141 0.287668
0.103432 0.045542 0.290258
0.104613 0.045454 0.289725
0.106131 0.045513 0.290125
0.107591 0.045546 0.290354
0.109011 0.045561 0.290462
0.110361 0.045547 0.290381
0.111576 0.045478 0.289946
0.112997 0.045494 0.290043
0.114561 0.045566 0.290492
0.115421 0.045360 0.289163
0.116954 0.045420 0.289524
0.118302 0.045408 0.289414
0.119332 0.045275 0.288532
0.120796 0.045308 0.288699
0.122254 0.045338 0.288838
0.123913 0.045440 0.289435
0.125818 0.045630 0.290578
