ply
format ascii 1.0
element vertex 1745
property float x
property float y
property float z
end_header
0.041703 0.032971 0.262913
0.042745 0.032799 0.261621
0.043864 0.032694 0.260871
0.045009 0.032612 0.260311
0.046028 0.032447 0.259084
0.046909 0.032196 0.257169
0.047943 0.032060 0.256171
0.049327 0.032158 0.257051
0.050585 0.032172 0.257252
0.051985 0.032273 0.258157
0.053539 0.032463 0.259770
0.054686 0.032403 0.259386
0.056058 0.032476 0.260068
0.057527 0.032601 0.261164
0.060168 0.033370 0.267428
0.061995 0.033665 0.269891
0.063356 0.033700 0.270273
0.064494 0.033618 0.269712
0.065774 0.033611 0.269758
0.067083 0.033619 0.269920
0.068373 0.033617 0.270005
0.069680 0.033624 0.270153
0.070868 0.033573 0.269844
0.071663 0.033342 0.268083
0.072640 0.033203 0.267051
0.073656 0.033085 0.266193
0.074678 0.032974 0.265389
0.075683 0.032859 0.264553
0.076409 0.032629 0.262786
0.077287 0.032470 0.261589
0.078305 0.032374 0.260897
0.079760 0.032459 0.261659
0.081134 0.032509 0.262134
0.082636 0.032607 0.263003
0.083990 0.032646 0.263383
0.085363 0.032690 0.263811
0.087769 0.033123 0.267368
0.097225 0.036166 0.291999
0.098459 0.036107 0.291593
0.099735 0.036066 0.291318
0.100817 0.035956 0.290490
0.101901 0.035850 0.289685
0.103398 0.035890 0.290056
0.104547 0.035810 0.289454
0.105598 0.035699 0.288592
0.107519 0.035881 0.290096
0.108832 0.035858 0.289938
0.110325 0.035894 0.290253
0.111664 0.035879 0.290155
0.112978 0.035857 0.289990
0.114462 0.035889 0.290254
0.115780 0.035869 0.290089
0.117217 0.035885 0.290216
0.118409 0.035827 0.289735
0.119756 0.035817 0.289630
0.121079 0.035799 0.289464
0.122436 0.035793 0.289375
0.124892 0.036103 0.291847
0.125977 0.036015 0.291085
0.127570 0.036073 0.291494
0.128759 0.036016 0.290969
0.129983 0.035970 0.290525
0.131418 0.035983 0.290546
0.132899 0.036008 0.290655
0.134285 0.036006 0.290545
0.135516 0.035964 0.290094
0.137174 0.036035 0.290545
0.138911 0.036125 0.291137
0.140185 0.036094 0.290745
0.141071 0.035964 0.289549
0.143212 0.036154 0.290914
0.144802 0.036202 0.291126
0.146308 0.036228 0.291150
0.147506 0.036179 0.290553
0.149099 0.036226 0.290719
0.150626 0.036257 0.290738
0.152347 0.036333 0.291107
-0.044302 0.013634 0.106966
-0.043872 0.013656 0.107141
-0.043605 0.013731 0.107723
-0.043423 0.013834 0.108528
-0.042976 0.013854 0.108678
-0.042611 0.013902 0.109042
-0.042315 0.013974 0.109591
-0.042080 0.014067 0.110309
-0.042155 0.014268 0.111869
-0.043012 0.014742 0.115567
-0.043157 0.014981 0.117419
-0.043853 0.015420 0.120834
-0.043357 0.015446 0.121010
-0.042873 0.015477 0.121225
-0.042829 0.015670 0.122702
-0.041939 0.015554 0.121764
-0.042453 0.015963 0.124933
-0.042990 0.016392 0.128256
-0.043555 0.016844 0.131752
-0.043543 0.017083 0.133581
-0.043128 0.017169 0.134207
-0.042673 0.017241 0.134724
-0.042425 0.017400 0.135919
-0.042082 0.017524 0.136843
-0.043370 0.018343 0.143179
-0.043689 0.018770 0.146463
-0.043667 0.019063 0.148689
-0.043502 0.019302 0.150493
-0.043542 0.019641 0.153076
-0.043549 0.019977 0.155632
-0.043610 0.020349 0.158466
-0.043701 0.020748 0.161509
-0.043955 0.021241 0.165274
-0.044031 0.021664 0.168495
-0.043958 0.022027 0.171249
-0.043753 0.022338 0.173587
-0.043586 0.022679 0.176165
-0.043534 0.023096 0.179320
-0.043381 0.023474 0.182175
-0.043431 0.023980 0.186020
-0.043405 0.024464 0.189688
-0.043433 0.025000 0.193759
-0.043054 0.025319 0.196145
-0.042819 0.025739 0.199314
-0.042675 0.026234 0.203056
-0.042269 0.026588 0.205701
-0.041950 0.027014 0.208906
-0.041442 0.027337 0.211309
-0.041212 0.027863 0.215280
-0.041012 0.028437 0.219622
-0.041138 0.029273 0.225984
-0.041142 0.030066 0.232003
-0.040846 0.030677 0.236614
-0.040410 0.031214 0.240661
-0.040138 0.031914 0.245954
-0.039926 0.032705 0.251947
-0.039601 0.033451 0.257588
-0.038897 0.033913 0.261047
-0.038338 0.034537 0.265745
-0.038213 0.035608 0.273879
-0.036018 0.034758 0.267242
-0.034840 0.034864 0.267957
-0.029623 0.033337 0.255951
-0.028444 0.033398 0.256338
-0.027191 0.033374 0.256068
-0.025999 0.033425 0.256382
-0.024802 0.033476 0.256689
-0.023563 0.033471 0.256579
-0.022370 0.033535 0.256997
-0.021147 0.033559 0.257108
-0.019946 0.033623 0.257535
-0.018734 0.033677 0.257885
-0.018098 0.034847 0.266783
-0.016603 0.034415 0.263416
-0.015558 0.034922 0.267238
-0.014331 0.035077 0.268368
-0.012948 0.034841 0.266519
-0.011632 0.034755 0.265810
-0.010403 0.034940 0.267183
-0.009077 0.034804 0.266106
-0.007779 0.034746 0.265625
-0.006499 0.034768 0.265761
-0.005245 0.034968 0.267263
-0.003976 0.035169 0.268777
-0.002681 0.035227 0.269196
-0.001380 0.035255 0.269396
-0.000079 0.035921 0.274469
0.001248 0.035922 0.274466
0.006146 0.033663 0.257201
0.007387 0.033647 0.257090
0.008644 0.033703 0.257524
0.009856 0.033587 0.256657
0.011120 0.033655 0.257192
0.012388 0.033719 0.257707
0.013636 0.033724 0.257765
0.014902 0.033768 0.258128
0.016179 0.033827 0.258615
0.017427 0.033822 0.258612
0.018704 0.033869 0.259011
0.020035 0.034002 0.260069
0.021866 0.034918 0.267120
0.023144 0.034898 0.267015
0.025671 0.034825 0.266567
0.026692 0.034480 0.263983
0.028118 0.034666 0.265462
0.029269 0.034511 0.264343
0.030500 0.034459 0.264007
0.031890 0.034584 0.265032
0.033075 0.034486 0.264352
0.035235 0.035373 0.271231
0.036511 0.035342 0.271066
0.037784 0.035309 0.270896
0.038726 0.034979 0.268445
0.039560 0.034577 0.265437
0.040954 0.034674 0.266265
0.042130 0.034586 0.265679
0.042850 0.034140 0.262332
0.043926 0.033995 0.261308
0.044867 0.033756 0.259557
0.045870 0.033575 0.258256
0.046816 0.033363 0.256717
0.047818 0.033202 0.255562
0.049029 0.033190 0.255561
0.050332 0.033239 0.256029
0.051685 0.033317 0.256726
0.052941 0.033331 0.256927
0.054396 0.033467 0.258070
0.055770 0.033548 0.258789
0.057572 0.033877 0.261422
0.059735 0.034400 0.265559
0.061795 0.034843 0.269077
0.063243 0.034930 0.269846
0.064423 0.034869 0.269468
0.065818 0.034923 0.269987
0.067084 0.034909 0.269974
0.068373 0.034907 0.270053
0.069687 0.034917 0.270229
0.070872 0.034863 0.269906
0.071580 0.034581 0.267816
0.072230 0.034281 0.265583
0.073475 0.034269 0.265581
0.074363 0.034094 0.264312
0.074972 0.033799 0.262107
0.075790 0.033606 0.260693
0.076793 0.033500 0.259953
0.077559 0.033296 0.258443
0.079175 0.033457 0.259770
0.080549 0.033512 0.260274
0.081807 0.033518 0.260394
0.083303 0.033621 0.261257
0.084297 0.033520 0.260540
0.088301 0.034602 0.269014
0.097384 0.037615 0.292503
0.098621 0.037554 0.292096
0.099781 0.037467 0.291473
0.100892 0.037363 0.290723
0.102237 0.037348 0.290657
0.103494 0.037302 0.290342
0.104809 0.037277 0.290191
0.106234 0.037292 0.290341
0.107729 0.037330 0.290675
0.109056 0.037310 0.290543
0.110275 0.037254 0.290128
0.111826 0.037310 0.290582
0.113367 0.037361 0.290991
0.114698 0.037343 0.290854
0.115813 0.037256 0.290170
0.117228 0.037266 0.290241
0.118485 0.037226 0.289916
0.119809 0.037208 0.289751
0.121122 0.037187 0.289559
0.122385 0.037151 0.289243
0.124690 0.037428 0.291361
0.125895 0.037373 0.290879
0.127126 0.037327 0.290461
0.128630 0.037361 0.290658
0.129798 0.037297 0.290089
0.130950 0.037230 0.289485
0.132506 0.037279 0.289769
0.133839 0.037264 0.289551
0.135766 0.037413 0.290598
0.137283 0.037448 0.290742
0.138491 0.037398 0.290221
0.139837 0.037386 0.289985
0.141366 0.037422 0.290114
0.143149 0.037525 0.290741
0.144539 0.037523 0.290551
0.146164 0.037582 0.290815
0.147617 0.037596 0.290720
0.148882 0.037562 0.290241
0.150385 0.037588 0.290215
0.151829 0.037599 0.290056
-0.043185 0.013782 0.104268
-0.043836 0.014150 0.107053
-0.043251 0.014123 0.106848
-0.042921 0.014180 0.107275
-0.042649 0.014258 0.107855
-0.042377 0.014337 0.108446
-0.042092 0.014414 0.109016
-0.041824 0.014499 0.109644
-0.042003 0.014743 0.111472
-0.042483 0.015099 0.114152
-0.043147 0.015532 0.117398
-0.042709 0.015573 0.117691
-0.042297 0.015626 0.118061
-0.042053 0.015743 0.118917
-0.041145 0.015610 0.117891
-0.040818 0.015698 0.118521
-0.043575 0.016991 0.128246
-0.043042 0.017019 0.128422
-0.043313 0.017370 0.131038
-0.043245 0.017594 0.132684
-0.042935 0.017724 0.133625
-0.042598 0.017847 0.134507
-0.042442 0.018051 0.135994
-0.042695 0.018437 0.138859
-0.043005 0.018861 0.141996
-0.043316 0.019298 0.145236
-0.043396 0.019645 0.147794
-0.043277 0.019912 0.149741
-0.043275 0.020242 0.152167
-0.043527 0.020705 0.155582
-0.043545 0.021069 0.158259
-0.043766 0.021547 0.161783
-0.043823 0.021960 0.164812
-0.044189 0.022545 0.169136
-0.043948 0.022837 0.171248
-0.043760 0.023168 0.173655
-0.043560 0.023504 0.176101
-0.043476 0.023918 0.179122
-0.043619 0.024476 0.183223
-0.043554 0.024937 0.186592
-0.043572 0.025466 0.190467
-0.043468 0.025945 0.193963
-0.043293 0.026401 0.197288
-0.042896 0.026739 0.199726
-0.042661 0.027196 0.203048
-0.042280 0.027578 0.205811
-0.041768 0.027892 0.208063
-0.041667 0.028501 0.212518
-0.041524 0.029112 0.216977
-0.041205 0.029627 0.220723
-0.040892 0.030174 0.224702
-0.040926 0.031014 0.230855
-0.040730 0.031721 0.236020
-0.040555 0.032485 0.241607
-0.040329 0.033252 0.247209
-0.040100 0.034063 0.253132
-0.040103 0.035127 0.260938
-0.039435 0.035654 0.264749
-0.038391 0.035864 0.266202
-0.038006 0.036725 0.272493
-0.036187 0.036214 0.268599
-0.034662 0.035969 0.266683
-0.029856 0.034843 0.258067
-0.028415 0.034598 0.256171
-0.027176 0.034590 0.256029
-0.026018 0.034687 0.256670
-0.024780 0.034683 0.256558
-0.023552 0.034694 0.256566
-0.022366 0.034770 0.257061
-0.021171 0.034841 0.257514
-0.020014 0.034988 0.258532
-0.018884 0.035204 0.260066
-0.017965 0.035871 0.264933
-0.016552 0.035581 0.262735
-0.015386 0.035817 0.264417
-0.014252 0.036176 0.267019
-0.012979 0.036219 0.267288
-0.011509 0.035662 0.263127
-0.010307 0.035900 0.264840
-0.009047 0.035975 0.265361
-0.007646 0.035421 0.261238
-0.006419 0.035617 0.262654
-0.005164 0.035710 0.263312
-0.003903 0.035812 0.264034
-0.002644 0.036047 0.265746
-0.001354 0.035906 0.264691
-0.000076 0.036446 0.268661
0.001232 0.036724 0.270700
0.006137 0.034848 0.256866
0.007400 0.034947 0.257605
0.008621 0.034847 0.256880
0.009849 0.034797 0.256522
0.011152 0.034993 0.257985
0.012371 0.034912 0.257408
0.013626 0.034940 0.257640
0.014943 0.035108 0.258909
0.016178 0.035070 0.258659
0.017464 0.035143 0.259229
0.018806 0.035310 0.260499
0.020068 0.035314 0.260575
0.021416 0.035462 0.261708
0.022893 0.035793 0.264201
0.024429 0.036177 0.267085
0.025648 0.036077 0.266403
0.026668 0.035720 0.263820
0.028093 0.035912 0.265299
0.029243 0.035752 0.264181
0.030472 0.035698 0.263846
0.031861 0.035828 0.264870
0.033046 0.035726 0.264191
0.034320 0.035726 0.264259
0.035591 0.035722 0.264308
0.037147 0.035995 0.266404
0.038466 0.036027 0.266718
0.039599 0.035889 0.265776
0.040919 0.035924 0.266115
0.042540 0.036211 0.268332
0.043426 0.035876 0.265932
0.043822 0.035166 0.260756
0.044271 0.034537 0.256179
0.045337 0.034410 0.255321
0.046510 0.034369 0.255107
0.047535 0.034224 0.254115
0.048719 0.034197 0.254006
0.049950 0.034204 0.254144
0.051166 0.034200 0.254208
0.052504 0.034277 0.254867
0.053802 0.034323 0.255307
0.055208 0.034436 0.256237
0.056769 0.034638 0.257832
0.059930 0.035787 0.266482
0.061633 0.036035 0.268426
0.063048 0.036108 0.269066
0.064340 0.036109 0.269173
0.065643 0.036116 0.269320
0.066970 0.036136 0.269565
0.068214 0.036111 0.269473
0.069550 0.036135 0.269744
0.070641 0.036033 0.269074
0.071203 0.035669 0.266449
0.072080 0.035474 0.265077
0.073057 0.035333 0.264113
0.073854 0.035111 0.262539
0.074616 0.034881 0.260900
0.075430 0.034682 0.259492
0.076173 0.034457 0.257888
0.077474 0.034488 0.258195
0.078639 0.034458 0.258042
0.080146 0.034576 0.259003
0.081493 0.034623 0.259423
0.082590 0.034564 0.259048
0.083927 0.034606 0.259422
0.085746 0.034842 0.261255
0.096818 0.038777 0.290827
0.098048 0.038715 0.290423
0.099876 0.038888 0.291773
0.100698 0.038669 0.290185
0.102189 0.038710 0.290539
0.103542 0.038698 0.290494
0.104416 0.038509 0.289117
0.106202 0.038658 0.290266
0.107624 0.038671 0.290399
0.108954 0.038652 0.290279
0.110401 0.038675 0.290466
0.111575 0.038602 0.289934
0.113405 0.038755 0.291091
0.114626 0.038699 0.290672
0.116130 0.038738 0.290964
0.117307 0.038669 0.290433
0.118611 0.038642 0.290216
0.120099 0.038676 0.290444
0.121320 0.038624 0.290022
0.123119 0.038754 0.290964
0.124633 0.038793 0.291212
0.125753 0.038710 0.290535
0.127113 0.038702 0.290411
0.128599 0.038732 0.290565
0.129741 0.038659 0.289938
0.131067 0.038641 0.289719
0.132757 0.038730 0.290289
0.134342 0.038787 0.290609
0.136159 0.038908 0.291405
0.137432 0.038874 0.291022
0.138909 0.038897 0.291058
0.140814 0.039038 0.291969
0.142060 0.038996 0.291493
0.143495 0.039006 0.291397
0.145076 0.039055 0.291581
0.146427 0.039041 0.291286
0.147810 0.039036 0.291044
0.149149 0.039020 0.290704
0.150699 0.039059 0.290759
0.152030 0.039040 0.290376
-0.043873 0.014501 0.105930
-0.043446 0.014524 0.106103
-0.043251 0.014627 0.106851
-0.042833 0.014656 0.107058
-0.042307 0.014647 0.106991
-0.042058 0.014736 0.107633
-0.041923 0.014868 0.108583
-0.041834 0.015019 0.109674
-0.042172 0.015330 0.111927
-0.042118 0.015504 0.113178
-0.041864 0.015607 0.113915
-0.041254 0.015579 0.113690
-0.041130 0.015736 0.114813
-0.040879 0.015849 0.115606
-0.040366 0.015861 0.115669
-0.040147 0.015990 0.116584
-0.039995 0.016151 0.117725
-0.042249 0.017301 0.126071
-0.042597 0.017692 0.128886
-0.042080 0.017731 0.129127
-0.042540 0.018187 0.132412
-0.042593 0.018481 0.134508
-0.042743 0.018827 0.136980
-0.042804 0.019143 0.139234
-0.043019 0.019540 0.142067
-0.043010 0.019845 0.144235
-0.043439 0.020366 0.147964
-0.043307 0.020636 0.149873
-0.043382 0.021016 0.152571
-0.043303 0.021333 0.154811
-0.043486 0.021791 0.158076
-0.043659 0.022261 0.161418
-0.043785 0.022723 0.164704
-0.043939 0.023217 0.168216
-0.043926 0.023639 0.171200
-0.043761 0.023994 0.173699
-0.043614 0.024372 0.176362
-0.043639 0.024864 0.179839
-0.043454 0.025252 0.182572
-0.043323 0.025689 0.185650
-0.043311 0.026216 0.189374
-0.043349 0.026796 0.193483
-0.043210 0.027290 0.196960
-0.042843 0.027659 0.199536
-0.042484 0.028049 0.202261
-0.042275 0.028559 0.205850
-0.042025 0.029064 0.209404
-0.041711 0.029549 0.212804
-0.041622 0.030222 0.217556
-0.041283 0.030742 0.221211
-0.041184 0.031474 0.226381
-0.041131 0.032281 0.232089
-0.040815 0.032921 0.236590
-0.040610 0.033689 0.242013
-0.040292 0.034407 0.247066
-0.040128 0.035303 0.253398
-0.039863 0.036162 0.259467
-0.038902 0.036427 0.261264
-0.038176 0.036936 0.264811
-0.038274 0.038304 0.274517
-0.036107 0.037422 0.268102
-0.034866 0.037472 0.268358
-0.029750 0.035959 0.257256
-0.028401 0.035815 0.256148
-0.027174 0.035822 0.256111
-0.025970 0.035860 0.256305
-0.024787 0.035932 0.256743
-0.023565 0.035951 0.256811
-0.022362 0.036006 0.257129
-0.021167 0.036078 0.257578
-0.020024 0.036256 0.258778
-0.018817 0.036332 0.259260
-0.017823 0.036860 0.262969
-0.016451 0.036628 0.261255
-0.015208 0.036667 0.261478
-0.014118 0.037116 0.264632
-0.012743 0.036834 0.262569
-0.011433 0.036695 0.261536
-0.010259 0.037012 0.263756
-0.008921 0.036743 0.261797
-0.007595 0.036444 0.259637
-0.006405 0.036816 0.262250
-0.005164 0.036997 0.263515
-0.003893 0.037014 0.263615
-0.002629 0.037139 0.264478
-0.001350 0.037111 0.264261
-0.000075 0.037971 0.270372
0.001228 0.037860 0.269576
0.002531 0.037860 0.269567
0.006171 0.036279 0.258316
0.007392 0.036143 0.257353
0.008643 0.036173 0.257574
0.009872 0.036115 0.257180
0.011153 0.036240 0.258086
0.012407 0.036257 0.258226
0.013675 0.036312 0.258642
0.014932 0.036329 0.258790
0.016241 0.036459 0.259752
0.017489 0.036443 0.259670
0.018781 0.036515 0.260218
0.020111 0.036649 0.261213
0.021392 0.036680 0.261482
0.023283 0.037698 0.268783
0.024661 0.037820 0.269705
0.025818 0.037607 0.268242
0.027046 0.037514 0.267638
0.028462 0.037678 0.268866
0.029637 0.037523 0.267821
0.030672 0.037210 0.265653
0.032063 0.037338 0.266631
0.033289 0.037270 0.266216
0.034403 0.037087 0.264975
0.035550 0.036951 0.264077
0.037016 0.037145 0.265538
0.038015 0.036872 0.263664
0.039107 0.036704 0.262545
0.040571 0.036886 0.263923
0.042288 0.037279 0.266819
0.043531 0.037243 0.266647
0.043752 0.036359 0.260407
0.044151 0.035669 0.255549
0.045155 0.035492 0.254366
0.046323 0.035450 0.254144
0.047473 0.035396 0.253848
0.048704 0.035404 0.253993
0.049986 0.035447 0.254389
0.051320 0.035525 0.255035
0.052716 0.035640 0.255955
0.054069 0.035722 0.256636
0.055492 0.035845 0.257612
0.057513 0.036342 0.261270
0.059594 0.036853 0.265045
0.061674 0.037343 0.268660
0.063073 0.037409 0.269232
0.064232 0.037332 0.268774
0.065700 0.037435 0.269608
0.066984 0.037431 0.269672
0.068184 0.037381 0.269407
0.069475 0.037381 0.269500
0.070524 0.037254 0.268674
0.070789 0.036725 0.264945
0.071646 0.036516 0.263524
0.073053 0.036589 0.264140
0.073513 0.036194 0.261367
0.073997 0.035824 0.258775
0.075031 0.035727 0.258154
0.076010 0.035608 0.257369
0.076867 0.035436 0.256203
0.078184 0.035479 0.256582
0.079462 0.035502 0.256821
0.080542 0.035438 0.256425
0.081563 0.035350 0.255852
0.083007 0.035446 0.256605
0.084819 0.035693 0.258454
0.086656 0.035944 0.260323
0.098629 0.040332 0.292166
0.100138 0.040379 0.292558
0.100747 0.040066 0.290344
0.102019 0.040022 0.290072
0.103512 0.040065 0.290423
0.104720 0.039997 0.289972
0.106031 0.039971 0.289812
0.107429 0.039977 0.289884
0.108865 0.039997 0.290052
0.110198 0.039979 0.289939
0.111603 0.039987 0.290009
0.113048 0.040009 0.290176
0.114278 0.039956 0.289788
0.115602 0.039936 0.289637
0.117076 0.039968 0.289855
0.118139 0.039860 0.289054
0.120499 0.040187 0.291402
0.121650 0.040109 0.290799
0.123258 0.040181 0.291279
0.124542 0.040146 0.290984
0.126129 0.040209 0.291384
0.126941 0.040027 0.289999
0.128657 0.040130 0.290673
0.130156 0.040164 0.290840
0.131563 0.040169 0.290788
0.132913 0.040157 0.290600
0.134265 0.040146 0.290409
0.135810 0.040192 0.290624
0.137276 0.040213 0.290653
0.138840 0.040263 0.290874
0.140333 0.040291 0.290927
0.142240 0.040437 0.291817
0.143628 0.040433 0.291619
0.144944 0.040410 0.291263
0.146602 0.040481 0.291579
0.147997 0.040479 0.291356
0.149322 0.040458 0.290981
0.150396 0.040369 0.290111
0.151796 0.040369 0.289862
-0.043477 0.015035 0.106178
-0.043107 0.015080 0.106495
-0.042765 0.015136 0.106887
-0.042321 0.015157 0.107031
-0.042156 0.015280 0.107888
-0.041879 0.015364 0.108472
-0.041771 0.015513 0.109516
-0.042142 0.015846 0.111853
-0.042612 0.016225 0.114512
-0.042289 0.016309 0.115079
-0.041827 0.016340 0.115278
-0.041577 0.016455 0.116070
-0.041266 0.016550 0.116712
-0.040650 0.016523 0.116495
-0.040412 0.016650 0.117366
-0.040246 0.016812 0.118474
-0.042900 0.018173 0.128030
-0.042366 0.018202 0.128204
-0.042509 0.018528 0.130460
-0.042231 0.018677 0.131468
-0.042517 0.019084 0.134289
-0.042287 0.019267 0.135538
-0.042571 0.019695 0.138498
-0.042725 0.020074 0.141119
-0.043011 0.020529 0.144262
-0.043218 0.020960 0.147238
-0.043355 0.021370 0.150065
-0.043406 0.021751 0.152685
-0.043527 0.022181 0.155642
-0.043406 0.022500 0.157819
-0.043471 0.022929 0.160760
-0.043448 0.023325 0.163473
-0.043541 0.023799 0.166728
-0.043469 0.024199 0.169460
-0.043810 0.024848 0.173931
-0.043590 0.025198 0.176306
-0.043514 0.025646 0.179370
-0.043229 0.025987 0.181674
-0.043266 0.026539 0.185453
-0.043205 0.027052 0.188961
-0.043283 0.027677 0.193242
-0.042976 0.028077 0.195950
-0.042676 0.028499 0.198810
-0.042392 0.028952 0.201882
-0.042228 0.029509 0.205678
-0.041927 0.029995 0.208976
-0.041858 0.030674 0.213619
-0.041490 0.031163 0.216935
-0.041288 0.031805 0.221309
-0.041222 0.032588 0.226664
-0.041086 0.033356 0.231910
-0.040935 0.034155 0.237367
-0.040433 0.034698 0.241044
-0.040181 0.035494 0.246470
-0.039664 0.036096 0.250555
-0.039823 0.037371 0.259302
-0.040370 0.039104 0.271220
-0.039111 0.039144 0.271399
-0.038022 0.039363 0.272813
-0.036388 0.039013 0.270292
-0.034973 0.038881 0.269280
-0.029729 0.037171 0.257174
-0.028391 0.037037 0.256163
-0.027168 0.037048 0.256159
-0.025985 0.037116 0.256557
-0.024762 0.037133 0.256596
-0.023537 0.037147 0.256619
-0.022329 0.037192 0.256864
-0.021115 0.037231 0.257062
-0.019973 0.037409 0.258230
-0.018798 0.037548 0.259122
-0.017946 0.038394 0.264905
-0.016500 0.038005 0.262162
-0.015357 0.038304 0.264171
-0.014312 0.038925 0.268399
-0.012818 0.038328 0.264238
-0.011488 0.038145 0.262928
-0.010163 0.037932 0.261422
-0.008847 0.037699 0.259775
-0.007569 0.037580 0.258921
-0.006337 0.037683 0.259602
-0.005095 0.037772 0.260190
-0.003860 0.037978 0.261584
-0.002616 0.038256 0.263481
-0.001334 0.037990 0.261630
-0.000072 0.038800 0.267193
0.001226 0.039032 0.268783
0.002474 0.038254 0.263419
0.006223 0.037838 0.260553
0.007481 0.037832 0.260521
0.008772 0.037971 0.261491
0.010097 0.038202 0.263094
0.011302 0.037981 0.261591
0.012603 0.038093 0.262379
0.013919 0.038225 0.263313
0.015184 0.038208 0.263223
0.016494 0.038296 0.263862
0.017911 0.038603 0.266016
0.019251 0.038714 0.266813
0.020482 0.038606 0.266113
0.022079 0.039158 0.269964
0.023830 0.039908 0.275180
0.025144 0.039884 0.275067
0.026450 0.039851 0.274896
0.027700 0.039741 0.274191
0.028920 0.039600 0.273280
0.030284 0.039659 0.273750
0.031477 0.039499 0.272710
0.032802 0.039510 0.272852
0.034138 0.039533 0.273084
0.035385 0.039456 0.272621
0.036616 0.039367 0.272079
0.037825 0.039261 0.271423
0.038979 0.039106 0.270430
0.039869 0.038705 0.267738
0.040823 0.038390 0.265636
0.042313 0.038583 0.267053
0.043256 0.038279 0.265034
0.043709 0.037573 0.260225
0.043798 0.036601 0.253577
0.044990 0.036578 0.253505
0.046294 0.036646 0.254055
0.047415 0.036568 0.253604
0.048693 0.036613 0.254000
0.049924 0.036621 0.254141
0.051170 0.036639 0.254355
0.052565 0.036760 0.255286
0.053763 0.036741 0.255243
0.055097 0.036814 0.255840
0.057001 0.037256 0.259002
0.059872 0.038298 0.266340
0.061447 0.038485 0.267730
0.062803 0.038529 0.268133
0.064167 0.038577 0.268561
0.065563 0.038642 0.269103
0.066847 0.038639 0.269174
0.068107 0.038623 0.269152
0.069346 0.038595 0.269053
0.070174 0.038344 0.267389
0.070494 0.037830 0.263888
0.071737 0.037819 0.263901
0.072696 0.037663 0.262892
0.073076 0.037216 0.259856
0.073546 0.036829 0.257234
0.074504 0.036696 0.256379
0.075649 0.036657 0.256183
0.076706 0.036578 0.255701
0.077980 0.036603 0.255945
0.079358 0.036675 0.256517
0.080593 0.036680 0.256615
0.081768 0.036658 0.256524
0.082828 0.036586 0.256077
0.084142 0.036626 0.256414
0.095554 0.040998 0.287080
0.096770 0.040933 0.286682
0.099556 0.041525 0.290879
0.100623 0.041393 0.290008
0.101977 0.041382 0.289971
0.103262 0.041343 0.289738
0.104682 0.041358 0.289881
0.105962 0.041319 0.289633
0.107230 0.041276 0.289357
0.108892 0.041383 0.290130
0.110127 0.041327 0.289755
0.113117 0.041924 0.293947
0.113360 0.041500 0.290979
0.114727 0.041493 0.290926
0.116021 0.041460 0.290684
0.117103 0.041352 0.289916
0.118840 0.041476 0.290763
0.120386 0.041531 0.291118
0.121621 0.041479 0.290716
0.122908 0.041445 0.290438
0.124295 0.041445 0.290388
0.125616 0.041424 0.290181
0.127235 0.041500 0.290646
0.128690 0.041522 0.290724
0.129990 0.041493 0.290441
0.131503 0.041533 0.290625
0.132946 0.041549 0.290639
0.134229 0.041516 0.290296
0.135674 0.041533 0.290294
0.137269 0.041595 0.290598
0.139107 0.041729 0.291390
0.141024 0.041883 0.292314
0.142258 0.041834 0.291805
0.143917 0.041909 0.292154
0.145293 0.041901 0.291910
0.146562 0.041862 0.291443
0.148370 0.041977 0.292029
0.149672 0.041948 0.291599
0.150877 0.041892 0.290972
0.152227 0.041877 0.290616
-0.043835 0.015486 0.105835
-0.043407 0.015510 0.106007
-0.043234 0.015628 0.106809
-0.042547 0.015560 0.106344
-0.041612 0.015399 0.105238
-0.041167 0.015418 0.105358
-0.040785 0.015461 0.105643
-0.041131 0.015784 0.107842
-0.041472 0.016113 0.110078
-0.042265 0.016629 0.113587
-0.041586 0.016571 0.113174
-0.040397 0.016306 0.111344
-0.041216 0.016855 0.115073
-0.041062 0.017016 0.116145
-0.040836 0.017151 0.117039
-0.040453 0.017222 0.117499
-0.040110 0.017313 0.118088
-0.040307 0.017643 0.120307
-0.040241 0.017865 0.121788
-0.042938 0.019338 0.131791
-0.042385 0.019369 0.131965
-0.042331 0.019633 0.133722
-0.042173 0.019855 0.135194
-0.042677 0.020401 0.138864
-0.042860 0.020808 0.141586
-0.042847 0.021132 0.143738
-0.043123 0.021610 0.146941
-0.043253 0.022030 0.149741
-0.043438 0.022492 0.152825
-0.043534 0.022923 0.155698
-0.043392 0.023242 0.157799
-0.043232 0.023561 0.159907
-0.043064 0.023889 0.162064
-0.043320 0.024466 0.165918
-0.043611 0.025086 0.170053
-0.043812 0.025676 0.173982
-0.043560 0.026019 0.176229
-0.043418 0.026441 0.179017
-0.043294 0.026892 0.181993
-0.043322 0.027458 0.185741
-0.043224 0.027966 0.189098
-0.043140 0.028504 0.192654
-0.042875 0.028943 0.195543
-0.042613 0.029404 0.198576
-0.042378 0.029906 0.201874
-0.042247 0.030505 0.205833
-0.041938 0.031002 0.209096
-0.041848 0.031688 0.213638
-0.041636 0.032314 0.217767
-0.041360 0.032921 0.221765
-0.041042 0.033527 0.225750
-0.041203 0.034565 0.232649
-0.040813 0.035187 0.236740
-0.040145 0.035598 0.239409
-0.039853 0.036376 0.244543
-0.039624 0.037260 0.250391
-0.040314 0.041692 0.279852
-0.039013 0.041734 0.280030
-0.036347 0.040267 0.270092
-0.034726 0.039893 0.267487
-0.029782 0.038478 0.257743
-0.028476 0.038386 0.257040
-0.027198 0.038325 0.256555
-0.026021 0.038407 0.257024
-0.024806 0.038438 0.257160
-0.023557 0.038418 0.256954
-0.022322 0.038419 0.256890
-0.021100 0.038445 0.256997
-0.019949 0.038611 0.258043
-0.018785 0.038772 0.259056
-0.017849 0.039461 0.263599
-0.016411 0.039060 0.260866
-0.015305 0.039449 0.263413
-0.014178 0.039850 0.266038
-0.012632 0.039035 0.260550
-0.011288 0.038731 0.258478
-0.010020 0.038648 0.257883
-0.008791 0.038713 0.258280
-0.007535 0.038663 0.257912
-0.006303 0.038739 0.258388
-0.005073 0.038867 0.259218
-0.003844 0.039091 0.260687
-0.002599 0.039300 0.262064
-0.001326 0.039063 0.260466
-0.000069 0.039583 0.263922
0.001214 0.039897 0.266004
0.002461 0.039294 0.261979
0.003726 0.039293 0.261964
0.015169 0.039436 0.263043
0.016478 0.039527 0.263682
0.017894 0.039844 0.265834
0.019369 0.040243 0.268532
0.020655 0.040223 0.268439
0.022110 0.040515 0.270429
0.023547 0.040742 0.271996
0.024809 0.040659 0.271485
0.026007 0.040484 0.270372
0.027330 0.040512 0.270616
0.028546 0.040386 0.269828
0.029742 0.040242 0.268932
0.030940 0.040114 0.268136
0.032242 0.040125 0.268275
0.033546 0.040138 0.268429
0.034812 0.040106 0.268289
0.035970 0.039957 0.267358
0.037204 0.039899 0.267045
0.038412 0.039818 0.266578
0.039681 0.039803 0.266557
0.040542 0.039393 0.263887
0.042151 0.039712 0.266107
0.043576 0.039844 0.267074
0.044814 0.039802 0.266875
0.043612 0.037656 0.252567
0.044950 0.037760 0.253346
0.046192 0.037779 0.253561
0.047301 0.037692 0.253061
0.048540 0.037711 0.253267
0.049773 0.037723 0.253436
0.051033 0.037755 0.253738
0.052253 0.037756 0.253833
0.053542 0.037806 0.254255
0.054848 0.037865 0.254741
0.056396 0.038086 0.256314
0.058865 0.038906 0.261919
0.061519 0.039811 0.268104
0.062869 0.039852 0.268475
0.064051 0.039787 0.268131
0.065535 0.039909 0.269041
0.066826 0.039911 0.269142
0.068005 0.039847 0.268801
0.069312 0.039858 0.268968
0.070308 0.039694 0.267948
0.070936 0.039332 0.265587
0.071787 0.039104 0.264132
0.072979 0.039066 0.263956
0.073132 0.038483 0.260097
0.073523 0.038042 0.257193
0.074574 0.037952 0.256657
0.075537 0.037820 0.255840
0.076643 0.037763 0.255523
0.077798 0.037732 0.255379
0.079203 0.037821 0.256045
0.080555 0.037882 0.256524
0.081803 0.037893 0.256660
0.082918 0.037843 0.256378
0.084888 0.038179 0.258712
0.094978 0.042105 0.285373
0.096187 0.042039 0.284977
0.099424 0.042849 0.290515
0.100248 0.042610 0.288946
0.101625 0.042610 0.288985
0.103596 0.042856 0.290688
0.104608 0.042703 0.289688
0.105966 0.042694 0.289656
0.107416 0.042722 0.289865
0.108520 0.042613 0.289144
0.110011 0.042657 0.289455
0.111610 0.042741 0.290032
0.112757 0.042652 0.289429
0.114344 0.042729 0.289951
0.115748 0.042738 0.289995
0.117064 0.042713 0.289812
0.119019 0.042920 0.291191
0.120172 0.042836 0.290589
0.121532 0.042827 0.290490
0.122832 0.042797 0.290240
0.124238 0.042804 0.290238
0.126329 0.043045 0.291807
0.126669 0.042690 0.289332
0.128773 0.042930 0.290884
0.130208 0.042945 0.290898
0.131790 0.043008 0.291226
0.133271 0.043036 0.291315
0.134551 0.043000 0.290955
0.136148 0.043064 0.291268
0.137555 0.043068 0.291161
0.139206 0.043148 0.291552
0.140706 0.043179 0.291608
0.142860 0.043408 0.292989
0.144118 0.043364 0.292508
0.145606 0.043388 0.292482
0.146821 0.043332 0.291898
0.148228 0.043332 0.291686
0.149953 0.043425 0.292080
0.153946 0.044166 0.296819
0.154816 0.044006 0.295483
-0.042473 0.015488 0.102546
-0.043584 0.016076 0.106440
-0.043293 0.016153 0.106956
-0.042552 0.016064 0.106360
-0.042176 0.016111 0.106667
-0.041877 0.016189 0.107178
-0.041492 0.016235 0.107479
-0.041113 0.016285 0.107798
-0.041326 0.016574 0.109698
-0.041183 0.016726 0.110686
-0.040611 0.016704 0.110527
-0.040200 0.016749 0.110808
-0.040128 0.016939 0.112043
-0.040638 0.017383 0.114954
-0.040415 0.017521 0.115842
-0.039852 0.017513 0.115764
-0.039616 0.017650 0.116645
-0.039356 0.017781 0.117482
-0.039469 0.018086 0.119465
-0.042623 0.019815 0.130844
-0.042395 0.019998 0.132015
-0.042386 0.020291 0.133913
-0.042022 0.020421 0.134730
-0.042559 0.021000 0.138502
-0.042576 0.021336 0.140671
-0.042370 0.021569 0.142162
-0.042534 0.022002 0.144961
-0.043159 0.022690 0.149444
-0.043193 0.023086 0.151993
-0.043286 0.023527 0.154842
-0.043232 0.023902 0.157252
-0.043108 0.024251 0.159484
-0.043184 0.024727 0.162549
-0.043561 0.025395 0.166879
-0.043641 0.025912 0.170209
-0.043522 0.026329 0.172874
-0.043174 0.026619 0.174712
-0.043236 0.027179 0.178313
-0.043250 0.027730 0.181855
-0.043206 0.028267 0.185294
-0.042951 0.028684 0.187954
-0.042815 0.029200 0.191257
-0.042597 0.029682 0.194332
-0.042625 0.030360 0.198689
-0.042350 0.030849 0.201803
-0.042133 0.031403 0.205343
-0.042047 0.032084 0.209707
-0.041702 0.032595 0.212958
-0.041767 0.033460 0.218522
-0.041519 0.034113 0.222693
-0.041279 0.034807 0.227130
-0.041157 0.035640 0.232473
-0.040407 0.035960 0.234468
-0.040193 0.036790 0.239782
-0.039154 0.036890 0.240341
-0.043550 0.042273 0.275305
-0.042279 0.042318 0.275496
-0.040698 0.042047 0.273631
-0.039594 0.042267 0.274961
-0.038238 0.042223 0.274576
-0.036579 0.041830 0.271923
-0.035223 0.041768 0.271424
-0.029664 0.039562 0.256831
-0.028415 0.039538 0.256595
-0.027199 0.039562 0.256669
-0.026002 0.039616 0.256948
-0.024761 0.039607 0.256811
-0.023543 0.039634 0.256916
-0.022321 0.039657 0.257000
-0.021061 0.039613 0.256647
-0.019915 0.039790 0.257732
-0.018785 0.040023 0.259180
-0.017945 0.040954 0.265146
-0.016352 0.040178 0.260068
-0.015422 0.041035 0.265561
-0.014365 0.041680 0.269689
-0.012570 0.040097 0.259400
-0.011245 0.039833 0.257646
-0.010001 0.039824 0.257550
-0.008742 0.039745 0.257003
-0.007512 0.039794 0.257285
-0.006279 0.039843 0.257573
-0.005035 0.039837 0.257508
-0.003805 0.039965 0.258312
-0.002556 0.039920 0.258002
-0.001314 0.040016 0.258605
-0.000067 0.040296 0.260402
0.001202 0.040686 0.262910
0.002449 0.040334 0.260632
0.003707 0.040336 0.260640
0.015022 0.040305 0.260563
0.016285 0.040318 0.260677
0.017628 0.040512 0.261963
0.018890 0.040507 0.261964
0.020254 0.040707 0.263300
0.022003 0.041612 0.269196
0.023175 0.041385 0.267775
0.024212 0.040954 0.265034
0.025314 0.040672 0.263257
0.026589 0.040679 0.263357
0.027851 0.040668 0.263339
0.028975 0.040465 0.262082
0.030152 0.040349 0.261392
0.031457 0.040406 0.261826
0.032793 0.040499 0.262490
0.034080 0.040525 0.262726
0.035317 0.040492 0.262586
0.036560 0.040468 0.262502
0.037920 0.040571 0.263239
0.039202 0.040586 0.263412
0.040261 0.040377 0.262135
0.041893 0.040737 0.264552
0.043134 0.040707 0.264437
0.044359 0.040664 0.264241
0.043805 0.039039 0.253756
0.045071 0.039078 0.254096
0.046290 0.039077 0.254171
0.047405 0.038990 0.253685
0.048617 0.038985 0.253734
0.049890 0.039028 0.254098
0.051127 0.039040 0.254266
0.052448 0.039116 0.254841
0.053763 0.039183 0.255365
0.054999 0.039191 0.255504
0.056617 0.039465 0.257376
0.058867 0.040159 0.261989
0.061212 0.040886 0.266826
0.062805 0.041092 0.268261
0.064116 0.041109 0.268459
0.065472 0.041153 0.268837
0.066885 0.041231 0.269435
0.068128 0.041203 0.269340
0.069251 0.041105 0.268784
0.070439 0.041048 0.268498
0.071143 0.040716 0.266411
0.072486 0.040755 0.266749
0.073278 0.040488 0.265084
0.073467 0.039903 0.261330
0.073641 0.039329 0.257647
0.074588 0.039180 0.256743
0.075855 0.039202 0.256954
0.076753 0.039034 0.255927
0.077936 0.039015 0.255866
0.079235 0.039053 0.256181
0.080381 0.039016 0.256000
0.081691 0.039059 0.256337
0.082850 0.039029 0.256194
0.083871 0.038936 0.255634
0.085172 0.038973 0.255933
0.095765 0.043202 0.283749
0.099133 0.044098 0.289686
0.099755 0.043765 0.287542
0.101463 0.043912 0.288543
0.102317 0.043689 0.287115
0.104914 0.044207 0.290549
0.106128 0.044135 0.290107
0.107434 0.044104 0.289924
0.108868 0.044126 0.290079
0.110052 0.044046 0.289567
0.111410 0.044037 0.289514
0.112928 0.044091 0.289866
0.114314 0.044093 0.289872
0.115671 0.044084 0.289796
0.116973 0.044054 0.289580
0.118468 0.044096 0.289832
0.119839 0.044092 0.289772
0.121168 0.044073 0.289603
0.122531 0.044066 0.289512
0.123889 0.044058 0.289401
0.125395 0.044102 0.289627
0.127558 0.044373 0.291336
0.128735 0.044299 0.290771
0.130213 0.044329 0.290880
0.131582 0.044322 0.290735
0.133120 0.044371 0.290949
0.134578 0.044393 0.290976
0.136017 0.044408 0.290946
0.137629 0.044479 0.291272
0.139085 0.044498 0.291250
0.140377 0.044465 0.290875
0.142063 0.044556 0.291301
0.144288 0.044812 0.292796
0.145670 0.044805 0.292551
0.146694 0.044688 0.291581
0.148372 0.044771 0.291902
0.149783 0.044772 0.291678
0.151011 0.044719 0.291088
0.151967 0.044587 0.289969
-0.042966 0.016157 0.103735
-0.043890 0.016693 0.107184
-0.043408 0.016702 0.107240
-0.042665 0.016609 0.106641
-0.041872 0.016494 0.105901
-0.041801 0.016664 0.106988
-0.041361 0.016689 0.107143
-0.040372 0.016491 0.105861
-0.040486 0.016744 0.107472
-0.040567 0.016990 0.109036
-0.040689 0.017259 0.110747
-0.040459 0.017384 0.111531
-0.039875 0.017358 0.111345
-0.039297 0.018309 0.117318
-0.038067 0.017989 0.115238
-0.042344 0.020299 0.130003
-0.042023 0.020441 0.130875
-0.042025 0.020747 0.132792
-0.042262 0.021179 0.135520
-0.042650 0.021702 0.138822
-0.042754 0.022094 0.141286
-0.042544 0.022334 0.142772
-0.042717 0.022786 0.145610
-0.042892 0.023254 0.148549
-0.043124 0.023769 0.151782
-0.043273 0.024254 0.154826
-0.043296 0.024685 0.157518
-0.043164 0.025040 0.159726
-0.043190 0.025502 0.162609
-0.043173 0.025955 0.165430
-0.043398 0.026572 0.169302
-0.043306 0.027015 0.172056
-0.043067 0.027382 0.174322
-0.043085 0.027930 0.177738
-0.042992 0.028426 0.180820
-0.043013 0.029019 0.184520
-0.042707 0.029411 0.186938
-0.042699 0.030030 0.190793
-0.042497 0.030537 0.193932
-0.042373 0.031123 0.197573
-0.042384 0.031838 0.202027
-0.042163 0.032407 0.205553
-0.041824 0.032910 0.208659
-0.041837 0.033722 0.213719
-0.041749 0.034490 0.218500
-0.041504 0.035165 0.222689
-0.041347 0.035952 0.227578
-0.041038 0.036646 0.231880
-0.040408 0.037084 0.234560
-0.039936 0.037695 0.238331
-0.041471 0.040293 0.254659
-0.043028 0.043070 0.272107
-0.041772 0.043116 0.272295
-0.040631 0.043289 0.273286
-0.039128 0.043074 0.271826
-0.038269 0.043578 0.274910
-0.036537 0.043088 0.271725
-0.035182 0.043022 0.271217
-0.029646 0.040773 0.256784
-0.028378 0.040721 0.256377
-0.027149 0.040723 0.256315
-0.025950 0.040772 0.256548
-0.024716 0.040770 0.256460
-0.023482 0.040766 0.256366
-0.022255 0.040776 0.256356
-0.021024 0.040779 0.256315
-0.019889 0.040980 0.257514
-0.018773 0.041251 0.259154
-0.017948 0.042243 0.265332
-0.016459 0.041705 0.261892
-0.015664 0.042982 0.269862
-0.014374 0.043011 0.269990
-0.012532 0.041231 0.258774
-0.011161 0.040776 0.255876
-0.009938 0.040817 0.256092
-0.008701 0.040802 0.255964
-0.007473 0.040831 0.256115
-0.006243 0.040862 0.256276
-0.005018 0.040954 0.256829
-0.003778 0.040935 0.256686
-0.002539 0.040923 0.256594
-0.001308 0.041117 0.257792
-0.000065 0.041347 0.259222
0.001208 0.042125 0.264089
0.002481 0.042108 0.263976
0.003755 0.042106 0.263961
0.015203 0.042058 0.263782
0.016313 0.041642 0.261201
0.017760 0.042084 0.264006
0.019341 0.042763 0.268301
0.020625 0.042742 0.268208
0.022029 0.042958 0.269608
0.023240 0.042792 0.268611
0.024306 0.042393 0.266153
0.025408 0.042092 0.264314
0.026509 0.041819 0.262648
0.027786 0.041836 0.262810
0.028946 0.041681 0.261897
0.030038 0.041447 0.260485
0.031246 0.041385 0.260153
0.032600 0.041513 0.261024
0.033992 0.041678 0.262127
0.035283 0.041712 0.262411
0.036593 0.041766 0.262818
0.037917 0.041831 0.263303
0.039280 0.041933 0.264015
0.040438 0.041818 0.263366
0.042068 0.042182 0.265737
0.043334 0.042170 0.265742
0.044565 0.042126 0.265546
0.044044 0.040474 0.255212
0.045033 0.040262 0.253955
0.046339 0.040337 0.254506
0.047392 0.040194 0.253684
0.048626 0.040206 0.253846
0.049966 0.040305 0.254550
0.051206 0.040319 0.254724
0.052489 0.040366 0.255107
0.053946 0.040542 0.256301
0.055168 0.040537 0.256354
0.057026 0.040989 0.259301
0.059430 0.041806 0.264555
0.061330 0.042241 0.267401
0.062585 0.042224 0.267377
0.063959 0.042286 0.267859
0.065397 0.042387 0.268585
0.066716 0.042408 0.268807
0.068049 0.042438 0.269081
0.069346 0.042444 0.269203
0.070288 0.042236 0.267973
0.071253 0.042050 0.266872
0.072212 0.041866 0.265784
0.073560 0.041911 0.266147
0.073735 0.041297 0.262325
0.073957 0.040729 0.258791
0.074789 0.040510 0.257473
0.075915 0.040455 0.257193
0.077259 0.040516 0.257647
0.078764 0.040659 0.258616
0.080060 0.040690 0.258878
0.081951 0.041018 0.261027
0.083341 0.041090 0.261540
0.084242 0.040922 0.260526
0.085952 0.041146 0.262004
0.095113 0.044879 0.285828
0.096326 0.044809 0.285433
0.098352 0.045115 0.287424
0.099533 0.045029 0.286920
0.101242 0.045182 0.287930
0.103558 0.045597 0.290612
0.104688 0.045487 0.289934
0.105963 0.045441 0.289666
0.107395 0.045463 0.289826
0.108658 0.045413 0.289523
0.110054 0.045420 0.289573
0.111502 0.045448 0.289753
0.112997 0.045494 0.290042
0.114450 0.045522 0.290213
0.115681 0.045462 0.289813
0.116915 0.045405 0.289427
0.118432 0.045457 0.289732
0.119648 0.045394 0.289295
0.121552 0.045591 0.290505
0.122907 0.045580 0.290382
0.124835 0.045779 0.291589
0.126030 0.045707 0.291068
0.127239 0.045642 0.290579
0.128868 0.045728 0.291041
0.130085 0.045667 0.290560
0.131460 0.045662 0.290430
0.132890 0.045676 0.290409
0.134250 0.045666 0.290224
0.135709 0.045689 0.290244
0.136809 0.045592 0.289490
0.139584 0.046050 0.292246
0.141041 0.046068 0.292197
0.142443 0.046068 0.292024
0.143751 0.046038 0.291645
0.145246 0.046067 0.291635
0.146553 0.046037 0.291235
0.148395 0.046174 0.291878
0.149771 0.046165 0.291581
0.151220 0.046178 0.291413
0.152484 0.046135 0.290876
-0.043159 0.016533 0.103021
-0.042590 0.016500 0.102825
-0.043545 0.017064 0.106341
-0.043024 0.017055 0.106292
-0.042084 0.016879 0.105190
-0.040664 0.016503 0.102846
-0.040534 0.016648 0.103746
-0.040075 0.016660 0.103816
-0.039586 0.016659 0.103804
-0.039495 0.016828 0.104846
-0.040908 0.017651 0.109957
-0.040702 0.017787 0.110790
-0.040284 0.017832 0.111056
-0.038963 0.018703 0.116335
-0.037925 0.018464 0.114823
-0.042327 0.020905 0.129970
-0.041862 0.020979 0.130392
-0.041533 0.021124 0.131257
-0.041308 0.021328 0.132482
-0.042706 0.022388 0.139027
-0.042771 0.022772 0.141365
-0.042580 0.023030 0.142919
-0.042295 0.023244 0.144197
-0.042906 0.023965 0.148624
-0.043214 0.024539 0.152130
-0.043180 0.024935 0.154526
-0.042819 0.025152 0.155815
-0.042877 0.025627 0.158698
-0.043035 0.026180 0.162062
-0.043313 0.026827 0.166006
-0.043234 0.027273 0.168702
-0.043244 0.027794 0.171854
-0.043110 0.028239 0.174539
-0.043111 0.028792 0.177889
-0.043068 0.029338 0.181188
-0.042835 0.029774 0.183807
-0.042639 0.030254 0.186696
-0.042527 0.030815 0.190083
-0.042337 0.031343 0.193259
-0.042260 0.031980 0.197107
-0.042341 0.032769 0.201886
-0.041918 0.033194 0.204422
-0.041670 0.033782 0.207958
-0.041585 0.034534 0.212504
-0.041837 0.035610 0.219039
-0.041629 0.036339 0.223436
-0.041244 0.036949 0.227092
-0.040689 0.037435 0.229990
-0.039846 0.037675 0.231378
-0.040776 0.039654 0.243434
-0.041426 0.041469 0.254478
-0.040686 0.041960 0.257395
-0.042454 0.045148 0.276851
-0.041173 0.045195 0.277037
-0.040097 0.045477 0.278669
-0.038801 0.045522 0.278845
-0.036618 0.044492 0.272438
-0.035008 0.044107 0.269992
-0.029849 0.042296 0.258657
-0.028374 0.041950 0.256458
-0.027123 0.041918 0.256188
-0.025959 0.042023 0.256755
-0.024705 0.041988 0.256467
-0.023471 0.041983 0.256367
-0.022269 0.042040 0.256651
-0.021071 0.042110 0.257010
-0.019916 0.042280 0.257990
-0.018812 0.042589 0.259813
-0.017979 0.043600 0.265920
-0.016574 0.043271 0.263862
-0.015778 0.044610 0.271971
-0.014475 0.044629 0.272040
-0.012324 0.041779 0.254623
-0.011111 0.041826 0.254866
-0.009870 0.041769 0.254481
-0.008658 0.041835 0.254846
-0.007443 0.041910 0.255276
-0.006218 0.041943 0.255446
-0.004992 0.041990 0.255706
-0.003767 0.042073 0.256188
-0.002540 0.042196 0.256917
-0.001300 0.042174 0.256768
-0.000062 0.042271 0.257349
0.001196 0.042910 0.261228
0.002475 0.043245 0.263260
0.007698 0.044068 0.268273
0.008991 0.044060 0.268234
0.010157 0.043514 0.264928
0.011414 0.043433 0.264452
0.012659 0.043327 0.263825
0.013929 0.043320 0.263804
0.015187 0.043280 0.263585
0.016296 0.042852 0.261006
0.017741 0.043307 0.263810
0.019266 0.043882 0.267350
0.020504 0.043772 0.266720
0.021878 0.043949 0.267836
0.023096 0.043810 0.267035
0.024189 0.043461 0.264953
0.025234 0.043065 0.262586
0.026409 0.042918 0.261743
0.027655 0.042895 0.261656
0.028735 0.042627 0.260078
0.029825 0.042396 0.258724
0.031101 0.042437 0.259033
0.032292 0.042362 0.258639
0.033759 0.042642 0.260412
0.035069 0.042711 0.260902
0.036381 0.042778 0.261379
0.037758 0.042913 0.262276
0.039048 0.042945 0.262541
0.040362 0.042999 0.262951
0.041983 0.043368 0.265278
0.043140 0.043249 0.264629
0.044313 0.043153 0.264123
0.044121 0.041769 0.255732
0.045142 0.041579 0.254644
0.046448 0.041653 0.255175
0.047536 0.041533 0.254522
0.048856 0.041617 0.255118
0.050256 0.041763 0.256094
0.051604 0.041860 0.256774
0.053010 0.041998 0.257702
0.054413 0.042128 0.258582
0.055832 0.042264 0.259504
0.057250 0.042393 0.260378
0.059462 0.043092 0.264761
0.061268 0.043474 0.267192
0.062730 0.043600 0.268056
0.064022 0.043606 0.268180
0.065404 0.043672 0.268671
0.066860 0.043784 0.269442
0.068097 0.043751 0.269322
0.069427 0.043777 0.269570
0.070659 0.043743 0.269438
0.071406 0.043413 0.267490
0.072672 0.043406 0.267527
0.073704 0.043262 0.266712
0.074288 0.042864 0.264334
0.074417 0.042221 0.260440
0.075244 0.041989 0.259078
0.076577 0.042041 0.259470
0.077387 0.041810 0.258108
0.078834 0.041925 0.258878
0.080210 0.041999 0.259397
0.081734 0.042146 0.260366
0.083305 0.042314 0.261456
0.084642 0.042359 0.261788
0.086139 0.042482 0.262597
0.094275 0.045828 0.283332
0.095477 0.045757 0.282940
0.099871 0.047196 0.291884
0.100044 0.046629 0.288413
0.101531 0.046680 0.288766
0.102369 0.046437 0.287289
0.104682 0.046859 0.289927
0.106011 0.046836 0.289807
0.107389 0.046834 0.289813
0.108636 0.046777 0.289467
0.109968 0.046757 0.289349
0.111553 0.046844 0.289886
0.113122 0.046921 0.290359
0.114395 0.046876 0.290066
0.115502 0.046764 0.289358
0.116985 0.046806 0.289589
0.118206 0.046742 0.289165
0.119058 0.046536 0.287853
0.121504 0.046951 0.290371
0.123097 0.047031 0.290809
0.124457 0.047020 0.290683
0.125863 0.047027 0.290655
0.127342 0.047060 0.290786
0.128613 0.047017 0.290432
0.129961 0.047003 0.290248
0.131319 0.046992 0.290080
0.132696 0.046989 0.289945
0.134178 0.047021 0.290026
0.135421 0.046971 0.289582
0.136721 0.046941 0.289253
0.138704 0.047144 0.290349
0.141161 0.047502 0.292390
0.142479 0.047473 0.292036
0.143907 0.047482 0.291899
0.145353 0.047496 0.291784
0.146864 0.047530 0.291784
0.148028 0.047453 0.291082
0.149758 0.047557 0.291479
0.151333 0.047610 0.291551
0.151715 0.047290 0.289325
-0.043805 0.017273 0.104560
-0.043381 0.017300 0.104732
-0.043279 0.017458 0.105690
-0.042928 0.017517 0.106053
-0.042135 0.017396 0.105319
-0.040319 0.016844 0.101976
-0.041776 0.017662 0.106927
-0.041339 0.017690 0.107092
-0.040810 0.017679 0.107016
-0.040412 0.017725 0.107286
-0.040552 0.018011 0.109006
-0.040660 0.018291 0.110682
-0.040962 0.018665 0.112935
-0.041535 0.020523 0.124028
-0.042668 0.021384 0.129199
-0.042127 0.021418 0.129371
-0.041717 0.021521 0.129957
-0.041134 0.021536 0.130016
-0.041763 0.022196 0.133963
-0.042350 0.022854 0.137892
-0.042550 0.023320 0.140657
-0.042260 0.023528 0.141867
-0.042654 0.024130 0.145450
-0.043014 0.024732 0.149028
-0.043337 0.025332 0.152591
-0.043273 0.025723 0.154890
-0.043322 0.026195 0.157680
-0.043307 0.026645 0.160329
-0.042965 0.026905 0.161835
-0.042927 0.027369 0.164567
-0.042875 0.027842 0.167343
-0.043171 0.028562 0.171605
-0.043209 0.029136 0.174987
-0.043136 0.029656 0.178042
-0.042976 0.030136 0.180852
-0.042755 0.030591 0.183512
-0.042534 0.031066 0.186288
-0.042438 0.031654 0.189738
-0.042255 0.032202 0.192942
-0.042192 0.032867 0.196851
-0.042278 0.033681 0.201645
-0.042024 0.034256 0.205005
-0.041926 0.034988 0.209306
-0.041886 0.035806 0.214112
-0.041758 0.036587 0.218699
-0.041724 0.037493 0.224023
-0.041591 0.038355 0.229083
-0.040544 0.038398 0.229256
-0.042383 0.041252 0.246199
-0.041254 0.041299 0.246383
-0.040186 0.041410 0.246958
-0.040183 0.042659 0.254310
-0.038972 0.042664 0.254247
-0.043291 0.048917 0.291404
-0.041939 0.048966 0.291594
-0.040584 0.049014 0.291777
-0.036370 0.045490 0.270707
-0.035300 0.045783 0.272358
-0.029610 0.043191 0.256693
-0.028295 0.043064 0.255858
-0.027038 0.043016 0.255499
-0.025883 0.043134 0.256129
-0.024672 0.043166 0.256249
-0.023440 0.043162 0.256156
-0.022241 0.043223 0.256450
-0.021062 0.043331 0.257026
-0.019927 0.043550 0.258267
-0.018705 0.043595 0.258473
-0.018100 0.045186 0.267846
-0.016582 0.044569 0.264137
-0.015936 0.046386 0.274854
-0.014620 0.046407 0.274923
-0.012302 0.042933 0.254299
-0.011065 0.042884 0.253970
-0.009869 0.043000 0.254618
-0.008639 0.042980 0.254467
-0.007411 0.042965 0.254348
-0.006207 0.043108 0.255161
-0.004981 0.043143 0.255343
-0.003757 0.043215 0.255749
-0.002530 0.043300 0.256233
-0.001296 0.043328 0.256384
-0.000060 0.043351 0.256506
0.001202 0.044306 0.262149
0.002468 0.044351 0.262404
0.003763 0.044704 0.264490
0.005038 0.044700 0.264469
0.006312 0.044695 0.264442
0.007557 0.044517 0.263392
0.008781 0.044287 0.262042
0.009946 0.043849 0.259465
0.011210 0.043902 0.259794
0.012473 0.043938 0.260025
0.013697 0.043842 0.259480
0.014970 0.043907 0.259888
0.016148 0.043705 0.258719
0.017539 0.044065 0.260881
0.019040 0.044637 0.264301
0.020374 0.044767 0.265111
0.021683 0.044833 0.265539
0.023060 0.045022 0.266706
0.024175 0.044708 0.264890
0.025185 0.044240 0.262163
0.026278 0.043956 0.260530
0.027393 0.043733 0.259260
0.028539 0.043576 0.258386
0.029685 0.043433 0.257594
0.030925 0.043432 0.257647
0.032164 0.043430 0.257696
0.033566 0.043640 0.259007
0.034958 0.043824 0.260162
0.036206 0.043820 0.260203
0.037653 0.044048 0.261629
0.039089 0.044249 0.262897
0.040757 0.044693 0.265605
0.042333 0.045011 0.267571
0.043553 0.044943 0.267244
0.044974 0.045080 0.268141
0.045917 0.044745 0.266223
0.047064 0.044619 0.265557
0.048333 0.044614 0.265609
0.049509 0.044525 0.265160
0.050946 0.044670 0.266104
0.052241 0.044686 0.266283
0.053581 0.044738 0.266679
0.054906 0.044776 0.266991
0.056231 0.044812 0.267292
0.057659 0.044927 0.268059
0.058499 0.044588 0.266124
0.060007 0.044762 0.267248
0.061434 0.044870 0.267976
0.062585 0.044775 0.267497
0.064065 0.044916 0.268421
0.065506 0.045023 0.269148
0.066818 0.045040 0.269332
0.068130 0.045056 0.269507
0.069440 0.045070 0.269672
0.070746 0.045081 0.269818
0.072025 0.045074 0.269859
0.072678 0.044683 0.267593
0.073944 0.044676 0.267627
0.075004 0.044546 0.266924
0.076437 0.044639 0.267551
0.077203 0.044346 0.265862
0.078296 0.044246 0.265334
0.080329 0.044673 0.267958
0.080967 0.044322 0.265918
0.082314 0.044365 0.266233
0.083677 0.044414 0.266585
