ply
format ascii 1.0
element vertex 1680
property float x
property float y
property float z
end_header
0.076385 -0.090071 0.292411
0.077911 -0.090229 0.292928
0.079494 -0.090445 0.293628
0.080879 -0.090434 0.293588
0.082273 -0.090432 0.293575
0.083608 -0.090367 0.293355
0.085012 -0.090376 0.293374
0.086281 -0.090244 0.292929
0.087604 -0.090173 0.292678
0.089081 -0.090259 0.292934
0.090693 -0.090477 0.293615
0.091900 -0.090291 0.292979
0.093379 -0.090373 0.293210
0.094998 -0.090586 0.293863
0.096923 -0.091081 0.295422
0.098228 -0.090987 0.295067
0.099739 -0.091084 0.295328
0.100748 -0.090727 0.294108
0.102371 -0.090923 0.294680
0.103740 -0.090893 0.294510
0.104919 -0.090699 0.293803
0.106386 -0.090756 0.293904
0.107714 -0.090693 0.293612
0.109138 -0.090713 0.293580
0.110668 -0.090819 0.293819
0.111860 -0.090648 0.293156
0.113310 -0.090688 0.293167
0.114899 -0.090836 0.293522
0.116221 -0.090773 0.293185
0.117694 -0.090828 0.293221
0.119058 -0.090798 0.292975
0.120753 -0.091018 0.293525
0.122359 -0.091166 0.293838
0.123880 -0.091249 0.293928
0.125324 -0.091274 0.293822
0.126821 -0.091336 0.293824
0.128330 -0.091406 0.293840
0.129751 -0.091411 0.293640
0.131267 -0.091484 0.293644
0.132754 -0.091534 0.293563
0.134302 -0.091625 0.293602
0.135803 -0.091682 0.293519
0.137259 -0.091708 0.293325
0.138917 -0.091867 0.293541
0.140394 -0.091903 0.293353
0.142168 -0.092132 0.293762
0.144003 -0.092396 0.294267
0.145686 -0.092557 0.294430
0.147273 -0.092654 0.294372
0.148934 -0.092797 0.294438
0.150520 -0.092889 0.294330
0.152103 -0.092979 0.294192
0.153478 -0.092940 0.293632
0.154868 -0.092911 0.293083
0.156349 -0.092937 0.292686
-0.151582 -0.090000 0.292205
-0.150271 -0.090052 0.292739
-0.148861 -0.090046 0.293067
-0.147563 -0.090107 0.293600
-0.146054 -0.090040 0.293701
-0.144446 -0.089911 0.293583
-0.143026 -0.089897 0.293827
-0.141494 -0.089811 0.293824
-0.139759 -0.089594 0.293379
-0.137643 -0.089126 0.292095
-0.136607 -0.089355 0.293084
-0.134160 -0.088657 0.291018
-0.131089 -0.087527 0.287520
-0.144285 -0.097349 0.320008
-0.142932 -0.097459 0.320581
-0.141357 -0.097419 0.320650
-0.140002 -0.097531 0.321209
-0.125065 -0.088080 0.290245
-0.123819 -0.088169 0.290690
-0.122668 -0.088329 0.291361
-0.121219 -0.088275 0.291318
-0.120093 -0.088458 0.292050
-0.118697 -0.088443 0.292121
-0.116900 -0.088127 0.291189
-0.116132 -0.088588 0.292814
-0.114113 -0.088094 0.291279
-0.112886 -0.088207 0.291741
-0.111712 -0.088365 0.292347
-0.110243 -0.088291 0.292177
-0.108924 -0.088337 0.292398
-0.107664 -0.088432 0.292776
-0.106313 -0.088454 0.292905
-0.104891 -0.088417 0.292834
-0.103397 -0.088318 0.292550
-0.101740 -0.088075 0.291783
-0.100384 -0.088089 0.291867
-0.098836 -0.087934 0.291381
-0.097539 -0.088000 0.291624
-0.096211 -0.088040 0.291777
-0.094804 -0.088008 0.291684
-0.093602 -0.088168 0.292226
-0.092261 -0.088200 0.292337
-0.090990 -0.088300 0.292673
-0.089707 -0.088393 0.292978
-0.088232 -0.088296 0.292654
-0.086975 -0.088418 0.293049
-0.085610 -0.088432 0.293083
-0.084022 -0.088213 0.292341
-0.082538 -0.088097 0.291939
-0.081193 -0.088128 0.292020
-0.079874 -0.088190 0.292200
-0.078533 -0.088228 0.292299
-0.077079 -0.088139 0.291976
-0.075778 -0.088225 0.292228
-0.074379 -0.088199 0.292107
-0.072985 -0.088177 0.291997
-0.071621 -0.088191 0.292008
-0.070261 -0.088212 0.292035
-0.068892 -0.088221 0.292022
-0.067622 -0.088359 0.292438
-0.066278 -0.088406 0.292548
-0.064825 -0.088306 0.292170
-0.063553 -0.088454 0.292612
-0.062180 -0.088466 0.292601
-0.060757 -0.088404 0.292347
-0.059358 -0.088375 0.292201
-0.057891 -0.088241 0.291705
-0.056519 -0.088250 0.291683
-0.055196 -0.088337 0.291917
-0.053719 -0.088177 0.291337
-0.052343 -0.088178 0.291286
-0.051002 -0.088240 0.291436
-0.049614 -0.088221 0.291320
-0.048223 -0.088197 0.291187
-0.046816 -0.088140 0.290945
-0.045466 -0.088192 0.291060
-0.044093 -0.088200 0.291032
-0.042699 -0.088167 0.290872
-0.041319 -0.088161 0.290797
-0.039979 -0.088242 0.291013
-0.038594 -0.088226 0.290907
-0.037189 -0.088161 0.290644
-0.035865 -0.088295 0.291032
-0.034478 -0.088273 0.290911
-0.033099 -0.088275 0.290869
-0.031703 -0.088226 0.290660
-0.030366 -0.088346 0.291008
-0.028988 -0.088354 0.290987
-0.027502 -0.088018 0.289835
-0.026231 -0.088371 0.290953
-0.024855 -0.088385 0.290959
-0.023422 -0.088191 0.290277
-0.022085 -0.088359 0.290791
-0.020706 -0.088365 0.290772
-0.019320 -0.088342 0.290659
-0.017929 -0.088293 0.290463
-0.016564 -0.088375 0.290700
-0.015181 -0.088365 0.290634
-0.013801 -0.088369 0.290616
-0.012435 -0.088484 0.290967
-0.011052 -0.088484 0.290937
-0.009670 -0.088494 0.290948
-0.008283 -0.088465 0.290827
-0.006901 -0.088473 0.290830
-0.005520 -0.088522 0.290970
-0.004135 -0.088490 0.290848
-0.002752 -0.088521 0.290934
-0.001368 -0.088539 0.290976
0.000017 -0.088599 0.291163
0.001403 -0.088629 0.291249
0.002789 -0.088614 0.291191
0.004180 -0.088722 0.291536
0.005562 -0.088638 0.291254
0.006947 -0.088619 0.291189
0.008346 -0.088758 0.291644
0.009719 -0.088613 0.291166
0.011125 -0.088772 0.291689
0.012521 -0.088819 0.291848
0.013888 -0.088677 0.291386
0.015297 -0.088802 0.291803
0.016666 -0.088693 0.291453
0.018040 -0.088624 0.291235
0.019433 -0.088654 0.291347
0.020811 -0.088616 0.291234
0.022197 -0.088613 0.291238
0.023581 -0.088600 0.291211
0.024963 -0.088586 0.291181
0.026375 -0.088672 0.291481
0.027785 -0.088742 0.291733
0.029190 -0.088789 0.291907
0.030577 -0.088781 0.291902
0.031952 -0.088741 0.291796
0.033335 -0.088725 0.291765
0.034721 -0.088718 0.291766
0.036042 -0.088550 0.291240
0.037424 -0.088539 0.291232
0.038841 -0.088610 0.291494
0.040200 -0.088547 0.291312
0.041577 -0.088527 0.291275
0.042935 -0.088470 0.291119
0.044409 -0.088646 0.291726
0.045745 -0.088545 0.291423
0.046804 -0.087930 0.289429
0.048599 -0.088692 0.291968
0.050035 -0.088777 0.292275
0.051403 -0.088737 0.292175
0.052790 -0.088734 0.292194
0.054211 -0.088784 0.292390
0.055597 -0.088777 0.292394
0.056973 -0.088754 0.292348
0.058302 -0.088661 0.292068
0.059722 -0.088708 0.292249
0.061098 -0.088687 0.292207
0.062407 -0.088573 0.291855
0.063822 -0.088611 0.292007
0.065219 -0.088622 0.292066
0.066592 -0.088602 0.292019
0.068019 -0.088653 0.292207
0.069438 -0.088690 0.292350
0.070781 -0.088633 0.292176
0.072238 -0.088716 0.292466
0.073652 -0.088744 0.292572
0.075057 -0.088762 0.292639
0.076646 -0.088991 0.293404
0.078097 -0.089055 0.293621
0.079481 -0.089043 0.293583
0.080870 -0.089036 0.293560
0.082359 -0.089137 0.293890
0.083637 -0.089010 0.293466
0.084989 -0.088964 0.293308
0.086325 -0.088904 0.293095
0.087679 -0.088864 0.292947
0.089132 -0.088923 0.293124
0.090447 -0.088845 0.292844
0.091878 -0.088883 0.292940
0.093279 -0.088890 0.292931
0.094713 -0.088928 0.293021
0.096156 -0.088973 0.293128
0.097429 -0.088861 0.292715
0.098935 -0.088962 0.292997
0.100336 -0.088967 0.292957
0.101916 -0.089130 0.293430
0.103453 -0.089249 0.293757
0.104850 -0.089247 0.293678
0.106260 -0.089256 0.293627
0.107709 -0.089296 0.293674
0.109121 -0.089305 0.293612
0.110442 -0.089241 0.293304
0.111878 -0.089270 0.293293
0.113318 -0.089301 0.293282
0.114764 -0.089336 0.293277
0.116304 -0.089442 0.293498
0.117755 -0.089479 0.293482
0.119154 -0.089474 0.293323
0.120709 -0.089587 0.293539
0.122194 -0.089645 0.293566
0.123580 -0.089629 0.293345
0.125122 -0.089727 0.293483
0.126665 -0.089822 0.293604
0.128343 -0.090011 0.294019
0.129764 -0.090016 0.293824
0.131242 -0.090061 0.293747
0.132724 -0.090107 0.293663
0.134176 -0.090132 0.293499
0.135714 -0.090214 0.293507
0.137224 -0.090276 0.293437
0.138824 -0.090394 0.293537
0.140456 -0.090531 0.293685
0.142004 -0.090612 0.293633
0.143890 -0.090905 0.294253
0.145585 -0.091072 0.294450
0.147237 -0.091209 0.294532
0.148815 -0.091298 0.294443
0.150485 -0.091441 0.294511
0.152226 -0.091624 0.294688
0.153602 -0.091586 0.294136
0.155227 -0.091696 0.294038
0.156538 -0.091620 0.293325
-0.151964 -0.088813 0.293159
-0.150562 -0.088813 0.293516
-0.148946 -0.088685 0.293436
-0.147583 -0.088707 0.293835
-0.146023 -0.088611 0.293828
-0.144345 -0.088440 0.293559
-0.142737 -0.088309 0.293408
-0.141413 -0.088354 0.293825
-0.139858 -0.088253 0.293748
-0.138230 -0.088104 0.293496
-0.136089 -0.087622 0.292122
-0.133370 -0.086753 0.289444
-0.130225 -0.085588 0.285759
-0.144170 -0.095748 0.319897
-0.142821 -0.095857 0.320469
-0.142266 -0.096509 0.322844
-0.140905 -0.096622 0.323407
-0.125073 -0.086705 0.290372
-0.123686 -0.086694 0.290482
-0.122239 -0.086640 0.290439
-0.121118 -0.086819 0.291168
-0.119795 -0.086855 0.291413
-0.118338 -0.086794 0.291321
-0.116891 -0.086739 0.291243
-0.115444 -0.086683 0.291153
-0.114046 -0.086663 0.291176
-0.112636 -0.086633 0.291161
-0.111411 -0.086746 0.291620
-0.110018 -0.086730 0.291637
-0.108624 -0.086713 0.291644
-0.107500 -0.086914 0.292378
-0.106128 -0.086916 0.292438
-0.104737 -0.086904 0.292443
-0.103417 -0.086950 0.292641
-0.101952 -0.086875 0.292423
-0.100512 -0.086819 0.292265
-0.099131 -0.086813 0.292270
-0.097761 -0.086818 0.292307
-0.096374 -0.086806 0.292284
-0.095085 -0.086885 0.292559
-0.093729 -0.086903 0.292628
-0.092298 -0.086852 0.292458
-0.091002 -0.086927 0.292711
-0.089629 -0.086931 0.292718
-0.088187 -0.086866 0.292493
-0.086739 -0.086794 0.292238
-0.085442 -0.086874 0.292491
-0.084064 -0.086872 0.292466
-0.082652 -0.086835 0.292318
-0.081340 -0.086903 0.292523
-0.079995 -0.086938 0.292612
-0.078600 -0.086918 0.292517
-0.077165 -0.086854 0.292266
-0.075801 -0.086868 0.292279
-0.074448 -0.086896 0.292335
-0.072982 -0.086790 0.291940
-0.071700 -0.086903 0.292279
-0.070378 -0.086972 0.292466
-0.068985 -0.086953 0.292359
-0.067725 -0.087105 0.292824
-0.066355 -0.087120 0.292826
-0.064956 -0.087095 0.292694
-0.063544 -0.087053 0.292502
-0.062131 -0.087007 0.292296
-0.060783 -0.087052 0.292394
-0.059344 -0.086966 0.292051
-0.057885 -0.086846 0.291595
-0.056527 -0.086876 0.291640
-0.055151 -0.086879 0.291593
-0.053759 -0.086856 0.291461
-0.052409 -0.086903 0.291562
-0.051023 -0.086888 0.291458
-0.049687 -0.086963 0.291654
-0.048289 -0.086929 0.291483
-0.046943 -0.086991 0.291635
-0.045553 -0.086971 0.291511
-0.044118 -0.086863 0.291092
-0.042799 -0.086983 0.291438
-0.041372 -0.086884 0.291051
-0.039979 -0.086852 0.290892
-0.038647 -0.086958 0.291191
-0.037225 -0.086858 0.290805
-0.035861 -0.086893 0.290868
-0.034503 -0.086947 0.290998
-0.033132 -0.086970 0.291025
-0.031724 -0.086894 0.290718
-0.030365 -0.086952 0.290865
-0.028987 -0.086958 0.290837
-0.027594 -0.086919 0.290661
-0.026224 -0.086953 0.290729
-0.024856 -0.086996 0.290828
-0.023461 -0.086944 0.290613
-0.022100 -0.087021 0.290831
-0.020724 -0.087042 0.290861
-0.019331 -0.086992 0.290655
-0.017950 -0.086998 0.290638
-0.016570 -0.087003 0.290620
-0.015180 -0.086956 0.290433
-0.013786 -0.086871 0.290115
-0.012416 -0.086943 0.290327
-0.011031 -0.086904 0.290171
-0.009646 -0.086864 0.290011
-0.008269 -0.086887 0.290061
-0.006888 -0.086887 0.290041
-0.005515 -0.086998 0.290389
-0.004134 -0.087018 0.290436
-0.002753 -0.087056 0.290548
-0.001371 -0.087097 0.290670
0.000013 -0.087154 0.290846
0.001399 -0.087216 0.291043
0.002782 -0.087152 0.290819
0.004169 -0.087184 0.290918
0.005560 -0.087270 0.291200
0.006941 -0.087208 0.290988
0.008325 -0.087188 0.290922
0.009717 -0.087241 0.291099
0.011113 -0.087315 0.291346
0.012493 -0.087259 0.291163
0.013863 -0.087155 0.290822
0.015285 -0.087364 0.291525
0.016670 -0.087348 0.291480
0.017995 -0.087039 0.290459
0.019420 -0.087224 0.291089
0.020820 -0.087281 0.291292
0.022182 -0.087180 0.290971
0.023570 -0.087187 0.291011
0.024961 -0.087205 0.291090
0.026362 -0.087251 0.291263
0.027757 -0.087276 0.291367
0.029183 -0.087392 0.291775
0.030538 -0.087292 0.291466
0.031902 -0.087227 0.291272
0.033305 -0.087267 0.291431
0.034634 -0.087121 0.290970
0.036044 -0.087178 0.291189
0.037398 -0.087104 0.290971
0.038800 -0.087141 0.291124
0.040221 -0.087216 0.291403
0.041565 -0.087126 0.291132
0.042958 -0.087139 0.291208
0.044367 -0.087185 0.291394
0.045708 -0.087098 0.291134
0.047118 -0.087143 0.291315
0.048559 -0.087240 0.291671
0.049951 -0.087248 0.291731
0.051367 -0.087294 0.291917
0.052766 -0.087311 0.292004
0.054200 -0.087384 0.292281
0.055592 -0.087386 0.292319
0.057000 -0.087413 0.292442
0.058373 -0.087386 0.292380
0.059663 -0.087239 0.291918
0.061097 -0.087304 0.292165
0.062466 -0.087275 0.292096
0.063724 -0.087096 0.291524
0.065304 -0.087356 0.292418
0.066603 -0.087236 0.292041
0.067949 -0.087181 0.291881
0.069440 -0.087311 0.292337
0.070845 -0.087330 0.292419
0.072260 -0.087360 0.292538
0.073612 -0.087314 0.292399
0.075108 -0.087437 0.292824
0.076506 -0.087444 0.292859
0.077690 -0.087210 0.292086
0.079260 -0.087410 0.292760
0.080885 -0.087663 0.293613
0.082208 -0.087585 0.293351
0.083572 -0.087553 0.293243
0.084939 -0.087525 0.293145
0.086230 -0.087421 0.292787
0.087586 -0.087385 0.292653
0.088975 -0.087382 0.292628
0.090543 -0.087552 0.293178
0.091832 -0.087452 0.292818
0.093183 -0.087413 0.292660
0.094682 -0.087512 0.292958
0.096099 -0.087532 0.292989
0.097407 -0.087455 0.292688
0.098821 -0.087473 0.292704
0.100381 -0.087619 0.293140
0.102037 -0.087843 0.293832
0.103506 -0.087902 0.293966
0.104944 -0.087933 0.294002
0.106266 -0.087868 0.293709
0.107685 -0.087883 0.293680
0.109141 -0.087928 0.293742
0.110359 -0.087782 0.293162
0.111780 -0.087799 0.293119
0.113200 -0.087816 0.293066
0.114687 -0.087883 0.293174
0.116225 -0.087987 0.293399
0.117665 -0.088015 0.293360
0.119134 -0.088063 0.293383
0.120681 -0.088168 0.293585
0.122214 -0.088261 0.293736
0.123675 -0.088299 0.293696
0.125149 -0.088345 0.293676
0.126631 -0.088397 0.293661
0.128005 -0.088372 0.293385
0.129591 -0.088493 0.293580
0.131130 -0.088579 0.293649
0.132598 -0.088616 0.293544
0.134067 -0.088653 0.293427
0.135456 -0.088637 0.293121
0.137114 -0.088796 0.293381
0.138814 -0.088977 0.293702
0.140283 -0.089009 0.293515
0.142013 -0.089203 0.293851
0.143775 -0.089414 0.294225
0.145619 -0.089671 0.294733
0.147370 -0.089866 0.295022
0.148957 -0.089958 0.294956
0.150699 -0.090142 0.295170
0.152214 -0.090187 0.294914
0.153797 -0.090271 0.294768
0.155375 -0.090351 0.294586
0.156703 -0.090285 0.293910
-0.151506 -0.087136 0.292485
-0.149854 -0.086988 0.292336
-0.148752 -0.087160 0.293248
-0.147382 -0.087177 0.293625
-0.145640 -0.086972 0.293237
-0.144066 -0.086864 0.293165
-0.142748 -0.086910 0.293597
-0.141012 -0.086700 0.293152
-0.139712 -0.086758 0.293597
-0.138184 -0.086672 0.293547
-0.136587 -0.086542 0.293333
-0.133231 -0.085284 0.289279
-0.131452 -0.085019 0.288581
-0.143599 -0.093850 0.318765
-0.142256 -0.093959 0.319334
-0.141529 -0.094481 0.321296
-0.140177 -0.094593 0.321856
-0.125258 -0.085452 0.290905
-0.123803 -0.085395 0.290854
-0.122157 -0.085204 0.290338
-0.120858 -0.085254 0.290632
-0.119837 -0.085502 0.291597
-0.118274 -0.085366 0.291243
-0.116782 -0.085278 0.291045
-0.115362 -0.085242 0.291016
-0.114127 -0.085344 0.291449
-0.112762 -0.085348 0.291545
-0.111317 -0.085293 0.291429
-0.110117 -0.085426 0.291950
-0.108757 -0.085436 0.292046
-0.107355 -0.085414 0.292025
-0.106109 -0.085517 0.292425
-0.104747 -0.085528 0.292504
-0.103261 -0.085437 0.292231
-0.101831 -0.085390 0.292102
-0.100422 -0.085360 0.292025
-0.099016 -0.085332 0.291951
-0.097686 -0.085369 0.292096
-0.096335 -0.085389 0.292176
-0.094972 -0.085399 0.292218
-0.093636 -0.085434 0.292342
-0.092232 -0.085407 0.292248
-0.090919 -0.085465 0.292441
-0.089543 -0.085465 0.292431
-0.088064 -0.085364 0.292073
-0.086626 -0.085301 0.291845
-0.085368 -0.085416 0.292219
-0.084086 -0.085511 0.292521
-0.082743 -0.085546 0.292615
-0.081474 -0.085659 0.292974
-0.080134 -0.085701 0.293087
-0.078793 -0.085744 0.293199
-0.077485 -0.085824 0.293439
-0.075908 -0.085604 0.292649
-0.074577 -0.085658 0.292793
-0.073055 -0.085491 0.292180
-0.071744 -0.085571 0.292408
-0.070399 -0.085611 0.292499
-0.068949 -0.085523 0.292149
-0.067744 -0.085741 0.292846
-0.066292 -0.085649 0.292482
-0.064869 -0.085592 0.292236
-0.063568 -0.085698 0.292542
-0.062157 -0.085656 0.292344
-0.060832 -0.085734 0.292555
-0.059469 -0.085759 0.292586
-0.057945 -0.085550 0.291817
-0.056579 -0.085568 0.291821
-0.055195 -0.085562 0.291741
-0.053774 -0.085493 0.291450
-0.052424 -0.085540 0.291549
-0.051025 -0.085505 0.291373
-0.049664 -0.085534 0.291414
-0.048307 -0.085574 0.291489
-0.046899 -0.085521 0.291252
-0.045536 -0.085551 0.291294
-0.044126 -0.085490 0.291031
-0.042750 -0.085496 0.290993
-0.041361 -0.085474 0.290860
-0.039991 -0.085492 0.290866
-0.038628 -0.085526 0.290924
-0.037245 -0.085517 0.290839
-0.035834 -0.085440 0.290524
-0.034460 -0.085450 0.290507
-0.033120 -0.085549 0.290790
-0.031702 -0.085445 0.290385
-0.030326 -0.085449 0.290349
-0.028976 -0.085534 0.290590
-0.027598 -0.085538 0.290555
-0.026220 -0.085544 0.290528
-0.024843 -0.085556 0.290524
-0.023451 -0.085513 0.290335
-0.022066 -0.085490 0.290217
-0.020690 -0.085503 0.290220
-0.019306 -0.085484 0.290117
-0.017910 -0.085404 0.289806
-0.016539 -0.085443 0.289904
-0.015167 -0.085481 0.289998
-0.013776 -0.085409 0.289724
-0.012405 -0.085455 0.289851
-0.011032 -0.085504 0.289986
-0.009644 -0.085429 0.289707
-0.008267 -0.085453 0.289764
-0.006898 -0.085577 0.290161
-0.005510 -0.085479 0.289807
-0.004136 -0.085603 0.290210
-0.002758 -0.085728 0.290616
-0.001372 -0.085587 0.290123
0.000009 -0.085750 0.290663
0.001395 -0.085811 0.290858
0.002776 -0.085691 0.290442
0.004165 -0.085794 0.290784
0.005551 -0.085801 0.290800
0.006931 -0.085743 0.290602
0.008313 -0.085715 0.290507
0.009699 -0.085730 0.290557
0.011080 -0.085705 0.290474
0.012459 -0.085670 0.290359
0.013857 -0.085754 0.290650
0.015241 -0.085749 0.290641
0.016634 -0.085793 0.290799
0.018021 -0.085799 0.290829
0.019406 -0.085795 0.290830
0.020792 -0.085793 0.290838
0.022168 -0.085756 0.290729
0.023545 -0.085725 0.290643
0.024918 -0.085684 0.290522
0.026295 -0.085660 0.290462
0.027721 -0.085790 0.290922
0.029120 -0.085827 0.291074
0.030504 -0.085819 0.291071
0.031867 -0.085755 0.290877
0.033180 -0.085568 0.290271
0.034630 -0.085734 0.290862
0.035945 -0.085567 0.290324
0.037330 -0.085573 0.290374
0.038715 -0.085575 0.290414
0.040095 -0.085570 0.290428
0.041524 -0.085663 0.290776
0.042915 -0.085677 0.290857
0.044326 -0.085727 0.291060
0.045712 -0.085727 0.291093
0.047082 -0.085699 0.291032
0.048526 -0.085802 0.291414
0.049950 -0.085865 0.291664
0.051374 -0.085926 0.291906
0.052743 -0.085893 0.291826
0.054129 -0.085889 0.291847
0.055510 -0.085876 0.291836
0.056865 -0.085825 0.291698
0.058157 -0.085684 0.291251
0.059532 -0.085669 0.291231
0.060980 -0.085757 0.291564
0.062131 -0.085433 0.290490
0.063587 -0.085533 0.290860
0.065054 -0.085643 0.291264
0.066285 -0.085444 0.290613
0.067829 -0.085649 0.291334
0.069219 -0.085654 0.291378
0.070644 -0.085702 0.291564
0.072106 -0.085793 0.291893
0.073460 -0.085754 0.291777
0.074840 -0.085744 0.291763
0.076291 -0.085817 0.292023
0.077724 -0.085866 0.292203
0.079332 -0.086104 0.293022
0.080570 -0.085938 0.292465
0.082119 -0.086104 0.293035
0.083423 -0.086013 0.292723
0.084613 -0.085808 0.292024
0.086029 -0.085835 0.292111
0.087432 -0.085848 0.292149
0.089067 -0.086086 0.292946
0.090457 -0.086083 0.292920
0.092003 -0.086226 0.293386
0.093378 -0.086207 0.293297
0.094770 -0.086205 0.293261
0.096202 -0.086238 0.293339
0.097579 -0.086221 0.293244
0.098848 -0.086110 0.292825
0.100403 -0.086249 0.293249
0.101724 -0.086185 0.292980
0.103503 -0.086506 0.294011
0.104871 -0.086479 0.293855
0.106200 -0.086421 0.293588
0.107694 -0.086497 0.293770
0.109023 -0.086440 0.293494
0.110364 -0.086394 0.293249
0.111655 -0.086311 0.292870
0.113007 -0.086276 0.292651
0.114577 -0.086407 0.292982
0.116068 -0.086475 0.293096
0.117607 -0.086577 0.293315
0.119082 -0.086630 0.293360
0.120552 -0.086678 0.293380
0.122135 -0.086805 0.293659
0.123529 -0.086796 0.293470
0.125004 -0.086844 0.293460
0.126510 -0.086912 0.293510
0.127986 -0.086958 0.293477
0.129413 -0.086971 0.293319
0.130895 -0.087019 0.293270
0.132317 -0.087027 0.293075
0.133802 -0.087075 0.293006
0.135332 -0.087152 0.293018
0.136886 -0.087242 0.293063
0.138644 -0.087459 0.293522
0.140401 -0.087671 0.293948
0.141862 -0.087696 0.293732
0.143695 -0.087947 0.294261
0.145581 -0.088226 0.294866
0.147365 -0.088438 0.295228
0.149245 -0.088704 0.295752
0.150895 -0.088828 0.295787
0.152280 -0.088796 0.295284
0.154022 -0.088970 0.295447
0.155624 -0.089061 0.295316
0.156961 -0.089000 0.294662
-0.155209 -0.087019 0.296735
-0.151813 -0.085900 0.293278
-0.150206 -0.085783 0.293219
-0.148872 -0.085819 0.293673
-0.146902 -0.085488 0.292849
-0.145580 -0.085530 0.293292
-0.144310 -0.085604 0.293829
-0.142447 -0.085324 0.293139
-0.140837 -0.085192 0.292943
-0.139486 -0.085216 0.293270
-0.138106 -0.085223 0.293525
-0.136406 -0.085030 0.293082
-0.133785 -0.084253 0.290611
-0.130640 -0.083127 0.286921
-0.143372 -0.092186 0.318392
-0.142034 -0.092295 0.318959
-0.140869 -0.092519 0.319917
-0.139526 -0.092630 0.320473
-0.125137 -0.083988 0.290720
-0.123633 -0.083898 0.290547
-0.122268 -0.083902 0.290689
-0.121058 -0.084013 0.291195
-0.119673 -0.084004 0.291277
-0.118363 -0.084049 0.291536
-0.116684 -0.083829 0.290871
-0.115365 -0.083865 0.291087
-0.113988 -0.083860 0.291153
-0.112572 -0.083826 0.291110
-0.111186 -0.083814 0.291137
-0.109960 -0.083924 0.291581
-0.108698 -0.084009 0.291932
-0.107280 -0.083974 0.291861
-0.105967 -0.084021 0.292068
-0.104660 -0.084075 0.292294
-0.103196 -0.084001 0.292072
-0.101796 -0.083980 0.292025
-0.100357 -0.083924 0.291855
-0.098930 -0.083878 0.291712
-0.097584 -0.083900 0.291802
-0.096291 -0.083969 0.292049
-0.094883 -0.083939 0.291948
-0.093499 -0.083928 0.291911
-0.092163 -0.083962 0.292024
-0.090758 -0.083932 0.291913
-0.089462 -0.084005 0.292155
-0.088102 -0.084018 0.292186
-0.086635 -0.083929 0.291857
-0.085358 -0.084023 0.292161
-0.084113 -0.084153 0.292587
-0.082712 -0.084129 0.292477
-0.081352 -0.084146 0.292502
-0.080053 -0.084229 0.292757
-0.078613 -0.084163 0.292491
-0.077033 -0.083941 0.291683
-0.075784 -0.084080 0.292123
-0.074362 -0.084029 0.291901
-0.072967 -0.084006 0.291777
-0.071655 -0.084080 0.291989
-0.070340 -0.084154 0.292195
-0.069015 -0.084218 0.292366
-0.067554 -0.084116 0.291960
-0.066212 -0.084161 0.292063
-0.064889 -0.084232 0.292255
-0.063422 -0.084115 0.291795
-0.062087 -0.084173 0.291940
-0.060764 -0.084250 0.292149
-0.059350 -0.084201 0.291920
-0.057946 -0.084165 0.291735
-0.056662 -0.084305 0.292162
-0.055278 -0.084301 0.292086
-0.053920 -0.084337 0.292150
-0.052540 -0.084339 0.292098
-0.051168 -0.084355 0.292091
-0.049827 -0.084424 0.292271
-0.048442 -0.084421 0.292198
-0.047024 -0.084358 0.291921
-0.045597 -0.084275 0.291573
-0.044218 -0.084279 0.291525
-0.042797 -0.084200 0.291195
-0.041409 -0.084184 0.291079
-0.040002 -0.084126 0.290820
-0.038662 -0.084210 0.291053
-0.037297 -0.084244 0.291116
-0.035852 -0.084094 0.290541
-0.034553 -0.084288 0.291157
-0.033165 -0.084272 0.291047
-0.031658 -0.083938 0.289841
-0.030335 -0.084086 0.290300
-0.028963 -0.084104 0.290313
-0.027551 -0.084005 0.289923
-0.026191 -0.084058 0.290056
-0.024826 -0.084103 0.290167
-0.023437 -0.084067 0.289999
-0.022034 -0.083976 0.289642
-0.020645 -0.083927 0.289430
-0.019278 -0.083965 0.289522
-0.017860 -0.083775 0.288828
-0.016490 -0.083795 0.288862
-0.015132 -0.083887 0.289144
-0.013735 -0.083759 0.288671
-0.012369 -0.083808 0.288810
-0.011003 -0.083878 0.289021
-0.009630 -0.083902 0.289078
-0.008263 -0.083993 0.289368
-0.006884 -0.083979 0.289293
-0.005509 -0.084028 0.289441
-0.004135 -0.084125 0.289758
-0.002757 -0.084182 0.289937
-0.001373 -0.084052 0.289474
0.000006 -0.084189 0.289931
0.001391 -0.084421 0.290719
0.002767 -0.084126 0.289696
0.004154 -0.084251 0.290120
0.005541 -0.084316 0.290337
0.006909 -0.084134 0.289706
0.008296 -0.084188 0.289892
0.009679 -0.084205 0.289953
0.011067 -0.084250 0.290108
0.012441 -0.084183 0.289884
0.013822 -0.084179 0.289875
0.015221 -0.084275 0.290214
0.016607 -0.084287 0.290266
0.017995 -0.084307 0.290346
0.019393 -0.084368 0.290572
0.020752 -0.084261 0.290217
0.022132 -0.084246 0.290183
0.023520 -0.084265 0.290268
0.024882 -0.084192 0.290036
0.026264 -0.084187 0.290043
0.027645 -0.084183 0.290050
0.029177 -0.084617 0.291572
0.030518 -0.084484 0.291138
0.031825 -0.084270 0.290427
0.033247 -0.084365 0.290785
0.034626 -0.084350 0.290762
0.035975 -0.084263 0.290492
0.037324 -0.084184 0.290253
0.038700 -0.084169 0.290232
0.040088 -0.084180 0.290305
0.041496 -0.084232 0.290515
0.042856 -0.084185 0.290388
0.044238 -0.084183 0.290417
0.045668 -0.084268 0.290747
0.047114 -0.084378 0.291164
0.048514 -0.084402 0.291280
0.049969 -0.084518 0.291718
0.051405 -0.084596 0.292023
0.052816 -0.084628 0.292171
0.054203 -0.084623 0.292189
0.055589 -0.084616 0.292202
0.056871 -0.084454 0.291679
0.058260 -0.084455 0.291718
0.059742 -0.084589 0.292215
0.060718 -0.084015 0.290265
0.062326 -0.084323 0.291362
0.063882 -0.084547 0.292170
0.065220 -0.084480 0.291970
0.066580 -0.084444 0.291873
0.068076 -0.084578 0.292364
0.069439 -0.084544 0.292275
0.070840 -0.084556 0.292343
0.072230 -0.084557 0.292370
0.073535 -0.084458 0.292049
0.075010 -0.084556 0.292406
0.076372 -0.084524 0.292315
0.077668 -0.084423 0.291980
0.079074 -0.084442 0.292058
0.080539 -0.084521 0.292343
0.081939 -0.084532 0.292386
0.083224 -0.084425 0.292023
0.084675 -0.084488 0.292241
0.086085 -0.084508 0.292308
0.087429 -0.084463 0.292148
0.088877 -0.084520 0.292334
0.090465 -0.084705 0.292962
0.091782 -0.084634 0.292701
0.093313 -0.084760 0.293116
0.094813 -0.084854 0.293418
0.096162 -0.084813 0.293247
0.097444 -0.084715 0.292873
0.098953 -0.084813 0.293175
0.100257 -0.084736 0.292862
0.101555 -0.084656 0.292538
0.103128 -0.084804 0.292994
0.104359 -0.084670 0.292473
0.105692 -0.084622 0.292242
0.107300 -0.084792 0.292758
0.108749 -0.084834 0.292824
0.110188 -0.084867 0.292853
0.111544 -0.084836 0.292654
0.113030 -0.084903 0.292789
0.114650 -0.085068 0.293251
0.116365 -0.085299 0.293934
0.117819 -0.085335 0.293936
0.119233 -0.085342 0.293829
0.120717 -0.085398 0.293885
0.122139 -0.085409 0.293776
0.123459 -0.085350 0.293417
0.124839 -0.085332 0.293191
0.126202 -0.085304 0.292921
0.127665 -0.085343 0.292871
0.129222 -0.085443 0.293020
0.130727 -0.085507 0.293036
0.132270 -0.085594 0.293117
0.133798 -0.085669 0.293149
0.135255 -0.085699 0.293009
0.136766 -0.085761 0.292972
0.138625 -0.086038 0.293653
0.140379 -0.086245 0.294081
0.141859 -0.086281 0.293911
0.143475 -0.086398 0.294002
0.145525 -0.086771 0.294952
0.147284 -0.086965 0.295273
0.149221 -0.087260 0.295921
0.150918 -0.087410 0.296057
0.152616 -0.087558 0.296168
0.153916 -0.087476 0.295486
0.155564 -0.087592 0.295452
0.157000 -0.087587 0.294991
-0.155290 -0.085634 0.297096
-0.151532 -0.084332 0.292930
-0.148845 -0.083608 0.290748
-0.147659 -0.083721 0.291460
-0.147063 -0.084174 0.293343
-0.144832 -0.083692 0.291951
-0.143588 -0.083776 0.292521
-0.141954 -0.083631 0.292279
-0.140663 -0.083689 0.292729
-0.139064 -0.083562 0.292525
-0.137929 -0.083715 0.293285
-0.136321 -0.083580 0.293029
-0.133885 -0.082931 0.290953
-0.129608 -0.081115 0.284770
-0.142504 -0.090122 0.316587
-0.141176 -0.090229 0.317151
-0.140009 -0.090443 0.318078
-0.138676 -0.090553 0.318630
-0.125753 -0.083014 0.292246
-0.123745 -0.082594 0.290899
-0.122134 -0.082432 0.290453
-0.120693 -0.082383 0.290396
-0.119628 -0.082592 0.291241
-0.118251 -0.082588 0.291328
-0.116716 -0.082473 0.291014
-0.115267 -0.082416 0.290900
-0.113948 -0.082453 0.291107
-0.112558 -0.082438 0.291125
-0.111199 -0.082446 0.291218
-0.109911 -0.082507 0.291495
-0.108595 -0.082549 0.291694
-0.107322 -0.082625 0.292009
-0.106042 -0.082698 0.292305
-0.104625 -0.082664 0.292223
-0.103324 -0.082723 0.292460
-0.102000 -0.082764 0.292629
-0.100415 -0.082592 0.292040
-0.098999 -0.082556 0.291927
-0.097704 -0.082622 0.292168
-0.096298 -0.082594 0.292075
-0.094913 -0.082584 0.292041
-0.093570 -0.082610 0.292129
-0.092141 -0.082561 0.291948
-0.090793 -0.082584 0.292015
-0.089470 -0.082630 0.292165
-0.088110 -0.082644 0.292193
-0.086814 -0.082719 0.292438
-0.085513 -0.082791 0.292668
-0.084195 -0.082849 0.292844
-0.082882 -0.082915 0.293045
-0.081503 -0.082916 0.293013
-0.080139 -0.082932 0.293032
-0.078793 -0.082967 0.293116
-0.077181 -0.082719 0.292200
-0.075829 -0.082746 0.292251
-0.074426 -0.082717 0.292100
-0.073084 -0.082756 0.292192
-0.071742 -0.082797 0.292285
-0.070347 -0.082776 0.292162
-0.069054 -0.082879 0.292470
-0.067659 -0.082859 0.292345
-0.066222 -0.082788 0.292037
-0.064936 -0.082904 0.292392
-0.063531 -0.082873 0.292224
-0.062115 -0.082824 0.291992
-0.060777 -0.082880 0.292127
-0.059376 -0.082851 0.291965
-0.057986 -0.082837 0.291852
-0.056611 -0.082843 0.291811
-0.055264 -0.082891 0.291921
-0.053893 -0.082906 0.291910
-0.052513 -0.082907 0.291849
-0.051181 -0.082985 0.292063
-0.049814 -0.083011 0.292091
-0.048454 -0.083050 0.292165
-0.047040 -0.082996 0.291912
-0.045674 -0.083026 0.291954
-0.044305 -0.083052 0.291984
-0.042860 -0.082935 0.291510
-0.041475 -0.082927 0.291422
-0.040071 -0.082881 0.291202
-0.038622 -0.082737 0.290634
-0.037340 -0.082950 0.291326
-0.035685 -0.082320 0.289056
-0.034418 -0.082573 0.289886
-0.033158 -0.082863 0.290849
-0.031654 -0.082542 0.289670
-0.030311 -0.082632 0.289934
-0.028987 -0.082782 0.290408
-0.027587 -0.082724 0.290153
-0.026211 -0.082731 0.290130
-0.024828 -0.082719 0.290039
-0.023417 -0.082606 0.289598
-0.022023 -0.082542 0.289330
-0.020672 -0.082643 0.289643
-0.019284 -0.082598 0.289444
-0.017881 -0.082478 0.288986
-0.016521 -0.082557 0.289225
-0.015135 -0.082508 0.289019
-0.013759 -0.082502 0.288965
-0.012394 -0.082574 0.289186
-0.011005 -0.082488 0.288855
-0.009626 -0.082462 0.288735
-0.008252 -0.082477 0.288762
-0.006876 -0.082467 0.288704
-0.005504 -0.082515 0.288849
-0.004129 -0.082547 0.288942
-0.002755 -0.082628 0.289208
-0.001377 -0.082651 0.289274
0.000002 -0.082679 0.289361
0.001384 -0.082802 0.289778
0.002762 -0.082715 0.289466
0.004146 -0.082779 0.289681
0.005534 -0.082888 0.290058
0.006907 -0.082769 0.289641
0.008292 -0.082807 0.289772
0.009685 -0.082898 0.290092
0.011059 -0.082831 0.289861
0.012441 -0.082828 0.289853
0.013838 -0.082913 0.290160
0.015228 -0.082946 0.290284
0.016624 -0.083005 0.290502
0.018004 -0.082980 0.290427
0.019380 -0.082942 0.290309
0.020778 -0.082994 0.290506
0.022150 -0.082944 0.290350
0.023518 -0.082885 0.290164
0.024898 -0.082874 0.290146
0.026298 -0.082927 0.290353
0.027661 -0.082860 0.290144
0.029017 -0.082783 0.289902
0.030419 -0.082836 0.290112
0.031807 -0.082849 0.290189
0.033181 -0.082825 0.290135
0.034574 -0.082848 0.290246
0.035966 -0.082868 0.290349
0.037354 -0.082878 0.290415
0.038729 -0.082856 0.290374
0.040103 -0.082836 0.290339
0.041502 -0.082867 0.290484
0.042778 -0.082658 0.289787
0.044123 -0.082591 0.289589
0.045685 -0.082924 0.290793
0.046674 -0.082225 0.288380
0.048015 -0.082169 0.288222
0.050054 -0.083277 0.292146
0.051549 -0.083446 0.292779
0.052890 -0.083361 0.292520
0.054242 -0.083300 0.292343
0.055577 -0.083214 0.292081
0.057006 -0.083270 0.292317
0.058276 -0.083097 0.291745
0.059633 -0.083054 0.291631
0.061107 -0.083171 0.292078
0.062330 -0.082949 0.291335
0.063677 -0.082898 0.291190
0.065210 -0.083085 0.291883
0.066519 -0.082986 0.291566
0.067845 -0.082912 0.291336
0.069245 -0.082928 0.291425
0.070632 -0.082930 0.291458
0.071832 -0.082715 0.290729
0.073339 -0.082856 0.291248
0.074735 -0.082867 0.291311
0.075784 -0.082501 0.290044
0.077484 -0.082845 0.291271
0.079068 -0.083053 0.292021
0.080481 -0.083078 0.292121
0.081679 -0.082885 0.291452
0.083012 -0.082832 0.291275
0.084458 -0.082892 0.291491
0.085594 -0.082650 0.290641
0.086861 -0.082540 0.290254
0.088232 -0.082532 0.290221
0.089320 -0.082263 0.289266
0.090470 -0.082058 0.288532
0.091987 -0.082187 0.288969
0.095025 -0.083652 0.294098
0.096622 -0.083823 0.294675
0.097903 -0.083720 0.294281
0.099117 -0.083563 0.293693
0.100528 -0.083574 0.293692
0.101910 -0.083561 0.293601
0.103212 -0.083483 0.293277
0.104520 -0.083412 0.292973
0.106054 -0.083521 0.293295
0.107482 -0.083545 0.293311
0.108926 -0.083581 0.293363
0.110255 -0.083528 0.293096
0.111625 -0.083507 0.292937
0.113152 -0.083603 0.293179
0.114373 -0.083473 0.292622
0.115809 -0.083501 0.292611
0.117690 -0.083846 0.293703
0.119126 -0.083868 0.293658
0.120582 -0.083905 0.293652
0.122178 -0.084037 0.293973
0.123570 -0.084027 0.293788
0.124984 -0.084032 0.293644
0.126273 -0.083954 0.293203
0.127726 -0.083985 0.293133
0.129249 -0.084061 0.293211
0.130728 -0.084107 0.293172
0.132236 -0.084171 0.293183
0.133835 -0.084290 0.293376
0.135166 -0.084240 0.292970
0.136701 -0.084316 0.292990
0.138446 -0.084519 0.293438
0.140324 -0.084799 0.294137
0.141978 -0.084939 0.294336
0.143349 -0.084908 0.293930
0.145176 -0.085145 0.294437
0.147040 -0.085400 0.294986
0.149057 -0.085736 0.295802
0.150649 -0.085825 0.295745
0.152447 -0.086028 0.296063
0.153845 -0.086004 0.295581
0.155514 -0.086130 0.295597
0.157347 -0.086343 0.295893
-0.153120 -0.083026 0.293138
-0.151493 -0.082902 0.293044
-0.149876 -0.082780 0.292942
-0.148593 -0.082843 0.293477
-0.146828 -0.082636 0.293042
-0.145182 -0.082492 0.292816
-0.143440 -0.082291 0.292374
-0.142126 -0.082334 0.292783
-0.140518 -0.082206 0.292571
-0.139164 -0.082225 0.292872
-0.137794 -0.082235 0.293129
-0.136094 -0.082046 0.292666
-0.133894 -0.081550 0.291091
-0.129925 -0.079955 0.285579
-0.141941 -0.088265 0.315454
-0.140620 -0.088372 0.316014
-0.139355 -0.088516 0.316698
-0.138030 -0.088625 0.317247
-0.125256 -0.081304 0.291180
-0.123487 -0.081044 0.290375
-0.121814 -0.080842 0.289771
-0.120595 -0.080940 0.290233
-0.119477 -0.081109 0.290943
-0.117941 -0.080996 0.290632
-0.116624 -0.081031 0.290846
-0.115222 -0.081007 0.290843
-0.113926 -0.081059 0.291103
-0.112649 -0.081125 0.291409
-0.111301 -0.081142 0.291531
-0.109976 -0.081176 0.291705
-0.108675 -0.081229 0.291944
-0.107361 -0.081274 0.292148
-0.105982 -0.081270 0.292170
-0.104439 -0.081138 0.291728
-0.103124 -0.081182 0.291911
-0.101850 -0.081261 0.292215
-0.100246 -0.081075 0.291560
-0.098945 -0.081132 0.291777
-0.097547 -0.081110 0.291703
-0.096183 -0.081116 0.291727
-0.094783 -0.081092 0.291638
-0.093422 -0.081101 0.291663
-0.092122 -0.081164 0.291876
-0.090662 -0.081085 0.291580
-0.089288 -0.081083 0.291555
-0.088068 -0.081223 0.292033
-0.086740 -0.081266 0.292165
-0.085432 -0.081329 0.292362
-0.084171 -0.081441 0.292731
-0.082809 -0.081456 0.292752
-0.081411 -0.081437 0.292644
-0.080084 -0.081489 0.292791
-0.078523 -0.081299 0.292068
-0.077144 -0.081296 0.292011
-0.075794 -0.081324 0.292066
-0.074449 -0.081358 0.292137
-0.073069 -0.081355 0.292075
-0.071685 -0.081346 0.291991
-0.070352 -0.081398 0.292121
-0.068979 -0.081403 0.292086
-0.067567 -0.081362 0.291881
-0.066109 -0.081263 0.291466
-0.064775 -0.081315 0.291594
-0.063378 -0.081289 0.291439
-0.061980 -0.081261 0.291278
-0.060690 -0.081376 0.291628
-0.059306 -0.081368 0.291533
-0.057934 -0.081375 0.291497
-0.056628 -0.081480 0.291807
-0.055287 -0.081537 0.291947
-0.053905 -0.081536 0.291877
-0.052491 -0.081484 0.291627
-0.051137 -0.081525 0.291709
-0.049735 -0.081491 0.291520
-0.048363 -0.081506 0.291510
-0.046990 -0.081519 0.291492
-0.045608 -0.081516 0.291417
-0.044178 -0.081426 0.291030
-0.042783 -0.081397 0.290866
-0.041360 -0.081312 0.290497
-0.039981 -0.081308 0.290421
-0.038674 -0.081457 0.290894
-0.036819 -0.080420 0.287132
-0.035442 -0.080387 0.286957
-0.034082 -0.080395 0.286925
-0.032751 -0.080472 0.287146
-0.031333 -0.080333 0.286595
-0.030116 -0.080720 0.287920
-0.028756 -0.080744 0.287954
-0.026969 -0.079511 0.283507
-0.025651 -0.079603 0.283788
-0.024384 -0.079874 0.284703
-0.023026 -0.079859 0.284605
-0.021762 -0.080189 0.285737
-0.020458 -0.080410 0.286483
-0.019123 -0.080530 0.286869
-0.017763 -0.080554 0.286915
-0.016423 -0.080679 0.287323
-0.015062 -0.080722 0.287439
-0.013691 -0.080707 0.287352
-0.012324 -0.080720 0.287367
-0.010949 -0.080671 0.287161
-0.009582 -0.080682 0.287175
-0.008217 -0.080723 0.287296
-0.006846 -0.080697 0.287177
-0.005476 -0.080685 0.287113
-0.004109 -0.080709 0.287180
-0.002740 -0.080721 0.287203
-0.001371 -0.080716 0.287172
-0.000001 -0.080693 0.287076
0.001369 -0.080752 0.287275
0.002740 -0.080780 0.287367
0.004108 -0.080719 0.287142
0.005480 -0.080760 0.287283
0.006857 -0.080833 0.287542
0.008225 -0.080801 0.287426
0.009607 -0.080891 0.287749
0.010993 -0.080985 0.288085
0.012382 -0.081080 0.288429
0.013797 -0.081312 0.289262
0.015196 -0.081411 0.289625
0.016579 -0.081416 0.289656
0.017980 -0.081505 0.289985
0.019369 -0.081527 0.290078
0.020766 -0.081578 0.290276
0.022143 -0.081547 0.290185
0.023533 -0.081566 0.290275
0.024931 -0.081609 0.290450
0.026312 -0.081597 0.290430
0.027705 -0.081619 0.290536
0.029067 -0.081551 0.290321
0.030465 -0.081586 0.290475
0.031841 -0.081561 0.290416
0.033171 -0.081427 0.289970
0.034555 -0.081430 0.290011
0.035886 -0.081313 0.289628
0.037206 -0.081179 0.289188
0.038616 -0.081244 0.289456
0.039958 -0.081168 0.289219
0.041343 -0.081179 0.289296
0.042821 -0.081368 0.290008
0.044272 -0.081495 0.290500
0.045807 -0.081762 0.291493
0.047132 -0.081652 0.291139
0.048562 -0.081725 0.291441
0.049994 -0.081795 0.291731
0.051376 -0.081783 0.291729
0.052825 -0.081876 0.292103
0.054168 -0.081802 0.291879
0.055677 -0.081978 0.292547
0.057151 -0.082094 0.293003
0.058617 -0.082194 0.293399
0.060125 -0.082346 0.293982
0.061599 -0.082446 0.294379
0.063115 -0.082596 0.294954
0.064567 -0.082658 0.295213
0.066058 -0.082765 0.295632
0.067428 -0.082721 0.295508
0.068805 -0.082686 0.295420
0.070266 -0.082752 0.295687
0.071568 -0.082631 0.295286
0.072929 -0.082581 0.295137
0.074215 -0.082450 0.294697
0.075502 -0.082325 0.294278
0.076944 -0.082371 0.294465
0.078261 -0.082283 0.294172
0.079613 -0.082234 0.294017
0.081042 -0.082265 0.294145
0.082356 -0.082181 0.293857
0.083816 -0.082242 0.294086
0.085274 -0.082300 0.294301
0.086812 -0.082431 0.294777
0.088335 -0.082544 0.295182
0.090081 -0.082859 0.296307
0.091410 -0.082786 0.296040
0.092637 -0.082625 0.295456
0.094293 -0.082846 0.296231
0.095479 -0.082653 0.295522
0.095692 -0.081634 0.291860
0.097563 -0.082040 0.293284
0.099204 -0.082244 0.293982
0.100588 -0.082232 0.293902
0.101705 -0.082004 0.293046
0.103175 -0.082063 0.293213
0.104749 -0.082203 0.293661
0.105798 -0.081932 0.292635
0.107243 -0.081972 0.292712
0.108966 -0.082219 0.293527
0.110276 -0.082153 0.293213
0.111609 -0.082105 0.292959
0.113024 -0.082118 0.292916
0.114392 -0.082097 0.292745
0.115836 -0.082130 0.292760
0.117454 -0.082284 0.293196
0.118973 -0.082366 0.293370
0.120574 -0.082502 0.293726
0.121991 -0.082511 0.293621
0.123526 -0.082598 0.293785
0.124954 -0.082613 0.293683
0.126272 -0.082555 0.293313
0.127778 -0.082620 0.293372
0.129262 -0.082670 0.293364
0.130709 -0.082694 0.293258
0.132245 -0.082775 0.293338
0.133659 -0.082777 0.293132
0.135111 -0.082803 0.292996
0.136616 -0.082861 0.292961
0.138367 -0.083065 0.293429
0.140168 -0.083294 0.293975
0.141621 -0.083314 0.293766
0.143160 -0.083384 0.293721
0.144842 -0.083535 0.293943
0.146497 -0.083667 0.294087
0.148310 -0.083886 0.294520
0.150337 -0.084221 0.295339
0.151806 -0.084240 0.295033
0.153087 -0.084155 0.294347
0.154897 -0.084360 0.294655
0.156405 -0.084397 0.294361
-0.153100 -0.081605 0.293287
-0.151568 -0.081533 0.293368
-0.150028 -0.081456 0.293413
-0.148717 -0.081504 0.293891
-0.146537 -0.081071 0.292622
-0.145031 -0.081006 0.292668
-0.143497 -0.080925 0.292638
-0.142071 -0.080904 0.292812
-0.140630 -0.080873 0.292940
-0.139304 -0.080909 0.293297
-0.137923 -0.080913 0.293529
-0.136620 -0.080964 0.293919
-0.132189 -0.079143 0.287497
-0.128984 -0.078027 0.283616
-0.141723 -0.086633 0.315083
-0.140407 -0.086739 0.315642
-0.139800 -0.087289 0.317811
-0.138473 -0.087398 0.318362
-0.125633 -0.080163 0.292140
-0.123374 -0.079594 0.290188
-0.121885 -0.079514 0.290014
-0.120615 -0.079578 0.290353
-0.119322 -0.079627 0.290632
-0.117935 -0.079614 0.290677
-0.116470 -0.079549 0.290520
-0.115044 -0.079508 0.290448
-0.113769 -0.079571 0.290750
-0.112501 -0.079642 0.291071
-0.111204 -0.079693 0.291316
-0.109917 -0.079753 0.291585
-0.108576 -0.079776 0.291710
-0.107295 -0.079843 0.291996
-0.105936 -0.079853 0.292065
-0.104366 -0.079703 0.291542
-0.102993 -0.079701 0.291557
-0.101683 -0.079748 0.291746
-0.100206 -0.079665 0.291454
-0.098816 -0.079649 0.291401
-0.097425 -0.079631 0.291340
-0.096080 -0.079652 0.291413
-0.094642 -0.079595 0.291198
-0.093296 -0.079615 0.291260
-0.092001 -0.079679 0.291482
-0.090550 -0.079608 0.291204
-0.089220 -0.079644 0.291313
-0.087968 -0.079751 0.291680
-0.086673 -0.079822 0.291911
-0.085394 -0.079911 0.292201
-0.084032 -0.079924 0.292215
-0.082754 -0.080017 0.292519
-0.081391 -0.080032 0.292532
-0.079863 -0.079881 0.291939
-0.078258 -0.079647 0.291036
-0.076992 -0.079756 0.291389
-0.075720 -0.079862 0.291727
-0.074380 -0.079900 0.291813
-0.073089 -0.079992 0.292096
-0.071760 -0.080046 0.292235
-0.070433 -0.080104 0.292391
-0.069093 -0.080150 0.292498
-0.067692 -0.080126 0.292350
-0.066223 -0.080018 0.291896
-0.064905 -0.080092 0.292102
-0.063535 -0.080103 0.292080
-0.062073 -0.079998 0.291631
-0.060762 -0.080086 0.291888
-0.059408 -0.080121 0.291949
-0.058030 -0.080124 0.291893
-0.056687 -0.080176 0.292017
-0.055332 -0.080213 0.292085
-0.053944 -0.080204 0.291985
-0.052600 -0.080262 0.292130
-0.051217 -0.080263 0.292064
-0.049776 -0.080169 0.291656
-0.048469 -0.080292 0.292036
-0.047093 -0.080306 0.292018
-0.045635 -0.080176 0.291480
-0.044314 -0.080284 0.291808
-0.042670 -0.079799 0.289980
-0.041288 -0.079786 0.289868
-0.039975 -0.079910 0.290255
-0.038589 -0.079892 0.290128
-0.037650 -0.080834 0.293485
-0.036553 -0.081494 0.295822
-0.034984 -0.081114 0.294382
-0.033738 -0.081482 0.295659
-0.019508 -0.080740 0.292460
-0.015256 -0.080352 0.290938
0.005545 -0.080387 0.290765
0.021449 -0.082845 0.299750
0.022871 -0.082813 0.299653
0.024271 -0.082708 0.299298
0.025628 -0.082479 0.298493
0.027056 -0.082491 0.298562
0.028425 -0.082327 0.297997
0.029869 -0.082387 0.298244
0.031250 -0.082279 0.297881
0.032724 -0.082411 0.298394
0.034198 -0.082531 0.298861
0.035644 -0.082578 0.299067
0.037047 -0.082525 0.298911
0.051447 -0.080513 0.292069
0.052899 -0.080604 0.292443
0.054242 -0.080530 0.292219
0.055753 -0.080702 0.292887
0.057229 -0.080816 0.293343
0.058696 -0.080913 0.293739
0.060206 -0.081062 0.294322
0.061682 -0.081160 0.294719
0.063199 -0.081307 0.295294
0.066144 -0.081472 0.295972
0.067515 -0.081427 0.295847
0.068894 -0.081392 0.295759
0.070356 -0.081455 0.296025
0.071659 -0.081335 0.295623
0.073021 -0.081285 0.295474
0.074307 -0.081155 0.295033
0.075596 -0.081032 0.294613
0.079709 -0.080939 0.294350
0.097445 -0.082926 0.301623
0.098756 -0.082822 0.301225
0.099549 -0.082293 0.299278
0.101322 -0.082578 0.300285
0.100433 -0.080715 0.293479
0.101758 -0.080658 0.293234
0.103219 -0.080709 0.293377
0.104669 -0.080749 0.293477
0.105821 -0.080562 0.292743
0.107240 -0.080581 0.292751
0.108677 -0.080612 0.292801
0.110024 -0.080577 0.292601
0.111429 -0.080584 0.292549
0.112973 -0.080691 0.292849
0.114396 -0.080709 0.292825
0.116012 -0.080862 0.293278
0.117550 -0.080957 0.293516
0.119203 -0.081128 0.294021
0.120532 -0.081077 0.293712
0.122152 -0.081221 0.294102
0.123528 -0.081201 0.293888
0.124978 -0.081229 0.293842
0.126374 -0.081223 0.293659
0.127724 -0.081186 0.293360
0.129156 -0.081202 0.293240
0.130732 -0.081308 0.293432
0.132211 -0.081352 0.293391
0.133873 -0.081505 0.293734
0.135456 -0.081608 0.293883
0.136970 -0.081669 0.293866
0.138307 -0.081623 0.293454
0.139990 -0.081779 0.293759
0.141402 -0.081777 0.293477
0.143099 -0.081937 0.293766
0.144772 -0.082080 0.293979
0.146360 -0.082173 0.293997
0.148306 -0.082463 0.294704
0.150279 -0.082763 0.295425
0.152225 -0.083042 0.296055
0.153282 -0.082835 0.294936
0.155018 -0.082996 0.295109
0.156798 -0.083177 0.295332
-0.152080 -0.079661 0.291515
-0.150635 -0.079631 0.291736
-0.149068 -0.079536 0.291702
-0.147557 -0.079470 0.291758
-0.146290 -0.079535 0.292283
-0.144738 -0.079446 0.292225
-0.143364 -0.079453 0.292510
-0.141851 -0.079382 0.292494
-0.140209 -0.079237 0.292195
-0.138794 -0.079219 0.292349
-0.137102 -0.079042 0.291902
-0.134902 -0.078564 0.290336
-0.133636 -0.078627 0.290753
-0.128103 -0.076154 0.281778
-0.141247 -0.084849 0.314130
-0.139937 -0.084954 0.314688
-0.138998 -0.085288 0.316084
-0.137680 -0.085396 0.316631
-0.125571 -0.078738 0.292075
-0.123171 -0.078089 0.289786
-0.120931 -0.077528 0.287814
-0.120096 -0.077865 0.289168
-0.118921 -0.077988 0.289718
-0.117433 -0.077905 0.289496
-0.116360 -0.078099 0.290298
-0.115149 -0.078205 0.290762
-0.113716 -0.078159 0.290659
-0.112460 -0.078237 0.291006
-0.111222 -0.078329 0.291401
-0.109877 -0.078346 0.291513
-0.108558 -0.078383 0.291690
-0.107281 -0.078452 0.291981
-0.106002 -0.078521 0.292269
-0.104470 -0.078403 0.291850
-0.103109 -0.078411 0.291900
-0.101838 -0.078489 0.292203
-0.100340 -0.078392 0.291848
-0.098955 -0.078381 0.291812
-0.097625 -0.078415 0.291938
-0.096232 -0.078398 0.291869
-0.094712 -0.078276 0.291404
-0.092990 -0.077981 0.290291
-0.091706 -0.078050 0.290531
-0.090530 -0.078215 0.291123
-0.089097 -0.078158 0.290887
-0.087822 -0.078242 0.291170
-0.086598 -0.078374 0.291630
-0.085355 -0.078493 0.292037
-0.084084 -0.078589 0.292358
-0.082729 -0.078609 0.292392
-0.081200 -0.078462 0.291802
-0.079690 -0.078330 0.291262
-0.078615 -0.078626 0.292316
-0.076971 -0.078355 0.291257
-0.075615 -0.078372 0.291267
-0.074338 -0.078473 0.291590
-0.073014 -0.078528 0.291736
-0.071644 -0.078534 0.291702
-0.070258 -0.078522 0.291597
-0.068944 -0.078593 0.291797
-0.067593 -0.078623 0.291847
-0.066160 -0.078558 0.291542
-0.064797 -0.078575 0.291538
-0.063391 -0.078538 0.291338
-0.062069 -0.078607 0.291527
-0.060761 -0.078698 0.291794
-0.059387 -0.078704 0.291751
-0.058033 -0.078740 0.291814
-0.056683 -0.078782 0.291900
-0.055298 -0.078776 0.291810
-0.053970 -0.078854 0.292029
-0.052552 -0.078800 0.291760
-0.051187 -0.078825 0.291784
-0.049820 -0.078850 0.291804
-0.048381 -0.078758 0.291397
-0.047033 -0.078814 0.291533
-0.045625 -0.078768 0.291296
-0.044236 -0.078754 0.291177
-0.042844 -0.078734 0.291038
-0.041351 -0.078522 0.290185
-0.040076 -0.078722 0.290859
-0.038655 -0.078641 0.290495
-0.038603 -0.081442 0.300777
-0.036613 -0.080210 0.296165
-0.035042 -0.079837 0.294724
-0.033794 -0.080200 0.296003
-0.020928 -0.079438 0.292718
-0.019542 -0.079473 0.292804
-0.018155 -0.079507 0.292884
-0.016666 -0.079064 0.291214
-0.015284 -0.079093 0.291282
-0.013900 -0.079119 0.291344
0.004162 -0.079133 0.291131
0.005551 -0.079128 0.291110
0.006940 -0.079121 0.291082
0.022904 -0.081513 0.300007
0.023788 -0.079674 0.293261
0.025130 -0.079490 0.292610
0.026408 -0.079134 0.291325
0.027896 -0.079411 0.292372
0.029241 -0.079274 0.291897
0.030664 -0.079351 0.292213
0.031998 -0.079199 0.291688
0.033447 -0.079334 0.292219
0.034893 -0.079451 0.292685
0.036266 -0.079399 0.292532
0.044459 -0.070281 0.259311
0.045654 -0.070218 0.259120
0.046546 -0.069704 0.257264
0.048238 -0.070384 0.259814
0.049451 -0.070348 0.259722
0.050850 -0.070573 0.260594
0.052358 -0.070934 0.261966
0.053920 -0.071350 0.263543
0.055173 -0.071347 0.263571
0.056494 -0.071430 0.263917
0.060408 -0.074717 0.276101
0.061657 -0.074637 0.275847
0.063954 -0.075803 0.280195
0.065436 -0.075976 0.280870
0.066864 -0.076079 0.281290
0.068436 -0.076340 0.282291
0.069928 -0.076503 0.282924
0.071397 -0.076634 0.283443
0.073269 -0.077185 0.285514
0.077341 -0.078562 0.290663
0.078630 -0.078469 0.290343
0.079915 -0.078375 0.290017
0.101426 -0.081238 0.300615
0.100555 -0.079420 0.293860
0.101836 -0.079329 0.293487
0.103215 -0.079315 0.293399
0.104704 -0.079385 0.293613
0.105928 -0.079255 0.293082
0.107314 -0.079247 0.292998
0.108664 -0.079214 0.292815
0.110125 -0.079261 0.292921
0.111569 -0.079296 0.292974
0.113096 -0.079387 0.293231
0.114593 -0.079456 0.293395
0.115955 -0.079430 0.293205
0.117609 -0.079602 0.293739
0.119115 -0.079671 0.293882
0.120457 -0.079631 0.293614
0.121920 -0.079670 0.293630
0.123446 -0.079749 0.293787
0.124967 -0.079823 0.293914
0.126272 -0.079759 0.293524
0.127560 -0.079685 0.293091
0.129135 -0.079790 0.293305
0.130585 -0.079817 0.293221
0.132241 -0.079968 0.293579
0.133686 -0.079989 0.293453
