ply
format ascii 1.0
element vertex 1681
property float x
property float y
property float z
end_header
-0.029288 -0.017988 0.287526
-0.027904 -0.017992 0.287492
-0.026517 -0.017994 0.287423
-0.025131 -0.017997 0.287384
-0.023711 -0.017974 0.286938
-0.022347 -0.017993 0.287166
-0.020979 -0.018012 0.287383
-0.019552 -0.017979 0.286793
-0.018187 -0.018002 0.287095
-0.016817 -0.018025 0.287388
-0.015447 -0.018051 0.287751
-0.014041 -0.018037 0.287468
-0.012659 -0.018053 0.287669
-0.011284 -0.018086 0.288145
-0.009864 -0.018046 0.287452
-0.008469 -0.018045 0.287404
-0.007087 -0.018077 0.287884
-0.005680 -0.018044 0.287312
-0.004284 -0.018038 0.287188
-0.002891 -0.018050 0.287355
-0.001495 -0.018034 0.287086
-0.000100 -0.018004 0.286592
0.001292 -0.018005 0.286605
0.002675 -0.017951 0.285736
0.004059 -0.017934 0.285453
0.005464 -0.017993 0.286403
0.006851 -0.017982 0.286234
0.008231 -0.017959 0.285883
0.009672 -0.018057 0.287450
0.011061 -0.018046 0.287288
0.012441 -0.018023 0.286944
0.013876 -0.018076 0.287825
0.015255 -0.018053 0.287494
0.016644 -0.018046 0.287411
0.018041 -0.018048 0.287475
0.019429 -0.018040 0.287399
0.020836 -0.018049 0.287597
0.022234 -0.018051 0.287680
0.023617 -0.018041 0.287569
0.025014 -0.018042 0.287643
0.026432 -0.018057 0.287950
0.027832 -0.018059 0.288046
0.029215 -0.018051 0.287977
0.030572 -0.018027 0.287676
0.032006 -0.018049 0.288105
0.033385 -0.018040 0.288030
0.034683 -0.017990 0.287307
0.036146 -0.018025 0.287960
0.037529 -0.018019 0.287952
0.038895 -0.018006 0.287832
0.040239 -0.017984 0.287573
0.041615 -0.017977 0.287559
0.042930 -0.017946 0.287149
0.044318 -0.017945 0.287242
0.045646 -0.017922 0.286968
0.046781 -0.017826 0.285533
0.048469 -0.017940 0.287466
0.050036 -0.018004 0.288602
0.051606 -0.018066 0.289704
0.052763 -0.017984 0.288499
0.054115 -0.017971 0.288398
0.055559 -0.017988 0.288785
0.056868 -0.017962 0.288476
0.058199 -0.017944 0.288302
0.059605 -0.017949 0.288499
0.060950 -0.017936 0.288406
0.062380 -0.017948 0.288717
0.063824 -0.017963 0.289081
0.064467 -0.017757 0.285884
0.065939 -0.017784 0.286427
0.067884 -0.017934 0.288962
0.069361 -0.017957 0.289448
0.070969 -0.018012 0.290459
0.072265 -0.017988 0.290179
0.073639 -0.017983 0.290223
0.074990 -0.017974 0.290182
0.076336 -0.017963 0.290122
0.077629 -0.017941 0.289873
0.078953 -0.017926 0.289745
0.080300 -0.017917 0.289710
0.081547 -0.017887 0.289321
0.082835 -0.017866 0.289089
0.084135 -0.017848 0.288907
0.085477 -0.017840 0.288877
0.086746 -0.017817 0.288603
0.087965 -0.017785 0.288175
0.089927 -0.017901 0.290158
0.091012 -0.017843 0.289295
0.092441 -0.017852 0.289532
0.093871 -0.017861 0.289766
0.095273 -0.017865 0.289908
0.096748 -0.017882 0.290264
0.098294 -0.017911 0.290819
0.099591 -0.017895 0.290628
0.101276 -0.017949 0.291558
0.102707 -0.017956 0.291742
0.104118 -0.017960 0.291858
0.105072 -0.017885 0.290707
0.106924 -0.017964 0.292036
0.108186 -0.017943 0.291733
0.109450 -0.017923 0.291442
0.110824 -0.017921 0.291442
0.112017 -0.017890 0.290965
0.113715 -0.017939 0.291794
0.115181 -0.017951 0.292009
0.116526 -0.017945 0.291908
0.117867 -0.017937 0.291794
0.119086 -0.017912 0.291379
0.120522 -0.017919 0.291492
0.122014 -0.017935 0.291728
0.123462 -0.017944 0.291847
0.124837 -0.017942 0.291785
0.126097 -0.017924 0.291451
0.127319 -0.017901 0.291028
0.129015 -0.017944 0.291678
0.130440 -0.017949 0.291698
0.131742 -0.017937 0.291436
0.133244 -0.017953 0.291606
0.134666 -0.017957 0.291587
0.136138 -0.017968 0.291665
0.138523 -0.018098 0.293666
0.139441 -0.018036 0.292535
0.140750 -0.018025 0.292228
0.142227 -0.018035 0.292256
0.143570 -0.018029 0.291999
0.144840 -0.018014 0.291586
0.146367 -0.018030 0.291676
0.148189 -0.018082 0.292332
0.149595 -0.018083 0.292147
0.151067 -0.018092 0.292075
0.152445 -0.018090 0.291808
-0.139219 -0.014889 0.262464
-0.138313 -0.014924 0.263280
-0.137396 -0.014959 0.264076
-0.136461 -0.014993 0.264836
-0.135974 -0.015077 0.266478
-0.135544 -0.015168 0.268251
-0.134733 -0.015219 0.269284
-0.133904 -0.015269 0.270290
-0.133182 -0.015331 0.271520
-0.132307 -0.015377 0.272448
-0.131427 -0.015424 0.273375
-0.130102 -0.015419 0.273375
-0.129629 -0.015515 0.275172
-0.128089 -0.015485 0.274707
-0.126346 -0.015429 0.273785
-0.126883 -0.015654 0.277827
-0.123670 -0.015415 0.273645
-0.122773 -0.015464 0.274545
-0.122206 -0.015555 0.276204
-0.120674 -0.015524 0.275684
-0.119683 -0.015563 0.276396
-0.118724 -0.015608 0.277192
-0.117685 -0.015642 0.277811
-0.116725 -0.015688 0.278625
-0.115743 -0.015732 0.279395
-0.114688 -0.015767 0.280001
-0.114027 -0.015857 0.281590
-0.113356 -0.015949 0.283185
-0.112356 -0.015995 0.283979
-0.111609 -0.016079 0.285438
-0.110640 -0.016133 0.286351
-0.109601 -0.016178 0.287098
-0.108692 -0.016244 0.288206
-0.107688 -0.016297 0.289083
-0.107761 -0.016516 0.292905
-0.106797 -0.016580 0.293968
-0.105482 -0.016590 0.294079
-0.102378 -0.016316 0.289136
-0.101202 -0.016345 0.289579
-0.099946 -0.016363 0.289801
-0.098667 -0.016377 0.289959
-0.097346 -0.016384 0.289996
-0.095993 -0.016386 0.289934
-0.094630 -0.016387 0.289842
-0.093035 -0.016347 0.289026
-0.091549 -0.016325 0.288531
-0.090196 -0.016326 0.288446
-0.088980 -0.016353 0.288807
-0.087536 -0.016338 0.288428
-0.086275 -0.016358 0.288649
-0.085076 -0.016390 0.289090
-0.083660 -0.016380 0.288800
-0.082156 -0.016353 0.288191
-0.081141 -0.016424 0.289312
-0.079682 -0.016405 0.288862
-0.078254 -0.016393 0.288513
-0.076967 -0.016410 0.288686
-0.075645 -0.016421 0.288734
-0.074303 -0.016427 0.288712
-0.072968 -0.016435 0.288722
-0.071614 -0.016440 0.288657
-0.070315 -0.016457 0.288821
-0.069030 -0.016478 0.289056
-0.067712 -0.016492 0.289169
-0.066350 -0.016496 0.289093
-0.065016 -0.016507 0.289151
-0.063697 -0.016523 0.289282
-0.062320 -0.016524 0.289162
-0.060970 -0.016532 0.289164
-0.059646 -0.016548 0.289303
-0.058296 -0.016557 0.289329
-0.056946 -0.016567 0.289364
-0.055604 -0.016580 0.289445
-0.054198 -0.016574 0.289205
-0.052839 -0.016582 0.289211
-0.051383 -0.016560 0.288688
-0.050040 -0.016573 0.288789
-0.048724 -0.016597 0.289072
-0.047315 -0.016590 0.288816
-0.045990 -0.016612 0.289076
-0.044502 -0.016575 0.288310
-0.043205 -0.016610 0.288783
-0.041888 -0.016638 0.289161
-0.040012 -0.016439 0.285583
-0.038665 -0.016451 0.285677
-0.037321 -0.016465 0.285809
-0.035859 -0.016427 0.285025
-0.034396 -0.016384 0.284183
-0.032944 -0.016344 0.283381
-0.031625 -0.016369 0.283718
-0.030300 -0.016394 0.284040
-0.028951 -0.016406 0.284161
-0.027561 -0.016397 0.283902
-0.026227 -0.016420 0.284223
-0.024880 -0.016439 0.284450
-0.023507 -0.016440 0.284399
-0.022129 -0.016440 0.284309
-0.020760 -0.016446 0.284332
-0.019399 -0.016459 0.284491
-0.018047 -0.016482 0.284827
-0.016657 -0.016473 0.284597
-0.015279 -0.016474 0.284550
-0.013919 -0.016498 0.284907
-0.012536 -0.016496 0.284824
-0.011139 -0.016472 0.284371
-0.009767 -0.016484 0.284534
-0.008474 -0.016658 0.287488
-0.006921 -0.016288 0.281059
-0.005567 -0.016317 0.281544
-0.004190 -0.016276 0.280796
-0.002830 -0.016297 0.281143
-0.001466 -0.016310 0.281344
-0.000099 -0.016324 0.281572
0.001270 -0.016342 0.281872
0.002640 -0.016349 0.281989
0.004013 -0.016360 0.282171
0.005390 -0.016378 0.282487
0.006776 -0.016412 0.283084
0.008145 -0.016400 0.282872
0.009521 -0.016402 0.282924
0.010899 -0.016406 0.283025
0.012258 -0.016386 0.282696
0.013656 -0.016415 0.283222
0.014917 -0.016290 0.281097
0.016324 -0.016332 0.281849
0.017794 -0.016424 0.283489
0.019155 -0.016411 0.283297
0.020544 -0.016422 0.283530
0.021928 -0.016427 0.283678
0.023306 -0.016428 0.283743
0.024675 -0.016422 0.283704
0.026060 -0.016427 0.283854
0.027433 -0.016425 0.283872
0.028789 -0.016413 0.283735
0.030203 -0.016433 0.284162
0.031584 -0.016435 0.284268
0.033029 -0.016468 0.284920
0.034417 -0.016472 0.285061
0.035803 -0.016474 0.285181
0.037180 -0.016472 0.285239
0.038576 -0.016478 0.285432
0.039921 -0.016463 0.285262
0.041285 -0.016457 0.285242
0.042603 -0.016433 0.284925
0.043974 -0.016430 0.284975
0.045288 -0.016407 0.284673
0.046567 -0.016373 0.284188
0.047920 -0.016366 0.284174
0.049219 -0.016342 0.283856
0.050482 -0.016307 0.283358
0.051809 -0.016294 0.283244
0.053152 -0.016287 0.283227
0.055163 -0.016479 0.286692
0.056348 -0.016422 0.285808
0.057607 -0.016388 0.285334
0.059112 -0.016425 0.286079
0.060370 -0.016392 0.285630
0.061700 -0.016380 0.285539
0.063067 -0.016379 0.285624
0.064465 -0.016385 0.285848
0.065911 -0.016403 0.286275
0.067230 -0.016389 0.286150
0.068621 -0.016393 0.286332
0.069918 -0.016374 0.286128
0.071584 -0.016442 0.287420
0.072940 -0.016436 0.287443
0.074270 -0.016426 0.287367
0.075708 -0.016439 0.287710
0.077042 -0.016429 0.287655
0.078389 -0.016423 0.287651
0.079805 -0.016431 0.287899
0.081182 -0.016431 0.288003
0.082619 -0.016442 0.288312
0.084078 -0.016458 0.288693
0.085664 -0.016498 0.289489
0.087098 -0.016507 0.289756
0.088519 -0.016514 0.289972
0.090056 -0.016542 0.290558
0.091198 -0.016498 0.289869
0.093776 -0.016711 0.293699
0.095269 -0.016727 0.294066
0.095444 -0.016514 0.290414
0.096988 -0.016541 0.290970
0.098547 -0.016570 0.291554
0.099820 -0.016551 0.291284
0.101316 -0.016569 0.291662
0.102500 -0.016536 0.291144
0.103606 -0.016491 0.290416
0.105202 -0.016524 0.291060
0.106184 -0.016462 0.290006
0.107243 -0.016413 0.289185
0.109614 -0.016563 0.291873
0.110969 -0.016558 0.291817
0.112257 -0.016543 0.291585
0.113520 -0.016525 0.291290
0.115039 -0.016544 0.291646
0.116568 -0.016565 0.292011
0.117984 -0.016569 0.292085
0.119185 -0.016542 0.291622
0.120464 -0.016528 0.291354
0.121886 -0.016533 0.291425
0.123139 -0.016515 0.291087
0.124790 -0.016550 0.291680
0.126115 -0.016542 0.291499
0.127308 -0.016517 0.291010
0.128944 -0.016549 0.291525
0.130547 -0.016577 0.291946
0.131871 -0.016569 0.291731
0.133225 -0.016564 0.291574
0.134675 -0.016572 0.291618
0.135977 -0.016561 0.291335
0.138199 -0.016662 0.292993
0.139493 -0.016650 0.292661
0.140898 -0.016651 0.292550
0.142390 -0.016662 0.292609
0.143578 -0.016638 0.292035
0.145066 -0.016649 0.292060
0.146660 -0.016672 0.292282
0.147998 -0.016665 0.291979
0.149204 -0.016644 0.291407
0.150636 -0.016648 0.291267
0.151987 -0.016643 0.290957
-0.141860 -0.013902 0.267463
-0.140929 -0.013935 0.268279
-0.139895 -0.013957 0.268896
-0.138663 -0.013960 0.269129
-0.137781 -0.013999 0.270036
-0.137179 -0.014067 0.271502
-0.136126 -0.014090 0.272082
-0.135130 -0.014119 0.272777
-0.135481 -0.014291 0.276221
-0.134214 -0.014294 0.276389
-0.133457 -0.014352 0.277609
-0.132985 -0.014442 0.279443
-0.131972 -0.014474 0.280154
-0.130954 -0.014507 0.280860
-0.129807 -0.014526 0.281292
-0.128783 -0.014559 0.281992
-0.127511 -0.014564 0.282149
-0.126251 -0.014571 0.282329
-0.124747 -0.014550 0.281950
-0.122959 -0.014495 0.280909
-0.121088 -0.014428 0.279644
-0.119343 -0.014376 0.278639
-0.118215 -0.014397 0.279062
-0.117209 -0.014434 0.279778
-0.116172 -0.014469 0.280431
-0.115191 -0.014510 0.281228
-0.114119 -0.014542 0.281813
-0.113237 -0.014598 0.282884
-0.112357 -0.014656 0.283978
-0.111468 -0.014715 0.285072
-0.110602 -0.014778 0.286246
-0.109749 -0.014844 0.287480
-0.108414 -0.014846 0.287462
-0.107950 -0.014969 0.289777
-0.107442 -0.015088 0.292029
-0.106904 -0.015207 0.294253
-0.105712 -0.015234 0.294708
-0.102311 -0.014940 0.288935
-0.101069 -0.014957 0.289186
-0.099863 -0.014980 0.289545
-0.098427 -0.014969 0.289238
-0.097177 -0.014986 0.289476
-0.095923 -0.015003 0.289707
-0.094394 -0.014977 0.289103
-0.093210 -0.015006 0.289552
-0.091604 -0.014967 0.288685
-0.090169 -0.014955 0.288343
-0.088799 -0.014953 0.288199
-0.087432 -0.014952 0.288063
-0.085930 -0.014928 0.287472
-0.084616 -0.014936 0.287506
-0.083412 -0.014964 0.287918
-0.082031 -0.014960 0.287729
-0.080763 -0.014978 0.287937
-0.079545 -0.015005 0.288337
-0.078150 -0.015000 0.288105
-0.076750 -0.014993 0.287844
-0.075449 -0.015006 0.287957
-0.074263 -0.015043 0.288528
-0.072855 -0.015035 0.288242
-0.071594 -0.015058 0.288547
-0.070316 -0.015079 0.288796
-0.068946 -0.015080 0.288673
-0.067682 -0.015104 0.289006
-0.066303 -0.015104 0.288855
-0.064970 -0.015114 0.288913
-0.063657 -0.015129 0.289065
-0.062334 -0.015143 0.289190
-0.060965 -0.015146 0.289107
-0.059593 -0.015148 0.289008
-0.058244 -0.015157 0.289035
-0.056848 -0.015153 0.288824
-0.055481 -0.015157 0.288766
-0.054144 -0.015170 0.288875
-0.052790 -0.015179 0.288905
-0.051427 -0.015185 0.288889
-0.050071 -0.015194 0.288927
-0.048760 -0.015218 0.289243
-0.047351 -0.015211 0.288989
-0.046050 -0.015240 0.289412
-0.044685 -0.015249 0.289453
-0.042991 -0.015143 0.287310
-0.040234 -0.015145 0.287122
-0.038750 -0.015106 0.286253
-0.037409 -0.015121 0.286431
-0.035874 -0.015057 0.285098
-0.034411 -0.015018 0.284257
-0.032958 -0.014981 0.283454
-0.031639 -0.015004 0.283792
-0.030314 -0.015027 0.284114
-0.028963 -0.015038 0.284235
-0.027574 -0.015029 0.283976
-0.026239 -0.015051 0.284298
-0.024891 -0.015068 0.284525
-0.023517 -0.015069 0.284474
-0.022140 -0.015069 0.284384
-0.020770 -0.015074 0.284407
-0.019408 -0.015086 0.284566
-0.018055 -0.015108 0.284903
-0.016665 -0.015099 0.284672
-0.015286 -0.015100 0.284626
-0.013926 -0.015122 0.284983
-0.012543 -0.015120 0.284901
-0.011145 -0.015099 0.284447
-0.009772 -0.015110 0.284610
-0.006925 -0.014929 0.281134
-0.005571 -0.014957 0.281619
-0.004192 -0.014919 0.280871
-0.002832 -0.014938 0.281218
-0.001467 -0.014950 0.281420
-0.000100 -0.014963 0.281647
0.001270 -0.014979 0.281948
0.002641 -0.014986 0.282065
0.004014 -0.014996 0.282247
0.005391 -0.015012 0.282563
0.006778 -0.015044 0.283159
0.008148 -0.015032 0.282948
0.009524 -0.015034 0.283000
0.010903 -0.015038 0.283101
0.012263 -0.015020 0.282772
0.013661 -0.015046 0.283298
0.014923 -0.014932 0.281172
0.016331 -0.014970 0.281924
0.017801 -0.015055 0.283565
0.019162 -0.015042 0.283372
0.020552 -0.015052 0.283605
0.021937 -0.015057 0.283753
0.023315 -0.015058 0.283818
0.024685 -0.015053 0.283779
0.026070 -0.015057 0.283929
0.027444 -0.015055 0.283947
0.028800 -0.015044 0.283810
0.030215 -0.015063 0.284236
0.031597 -0.015065 0.284342
0.033042 -0.015095 0.284995
0.034431 -0.015098 0.285135
0.035817 -0.015100 0.285255
0.037195 -0.015098 0.285313
0.038591 -0.015104 0.285506
0.039936 -0.015090 0.285336
0.041301 -0.015084 0.285316
0.042620 -0.015062 0.284999
0.043991 -0.015059 0.285048
0.045305 -0.015038 0.284746
0.046585 -0.015007 0.284260
0.047938 -0.015001 0.284246
0.049238 -0.014978 0.283928
0.050501 -0.014947 0.283430
0.051828 -0.014935 0.283316
0.053171 -0.014928 0.283298
0.055183 -0.015105 0.286764
0.056369 -0.015052 0.285880
0.057628 -0.015021 0.285405
0.059133 -0.015054 0.286150
0.060391 -0.015025 0.285701
0.061722 -0.015014 0.285610
0.063089 -0.015012 0.285694
0.064488 -0.015018 0.285918
0.065934 -0.015034 0.286345
0.067253 -0.015021 0.286220
0.068644 -0.015025 0.286402
0.069941 -0.015008 0.286197
0.071608 -0.015070 0.287490
0.072964 -0.015065 0.287512
0.074294 -0.015055 0.287436
0.075732 -0.015067 0.287779
0.077066 -0.015058 0.287723
0.078414 -0.015052 0.287720
0.079830 -0.015060 0.287967
0.081207 -0.015059 0.288071
0.082644 -0.015070 0.288380
0.084104 -0.015085 0.288761
0.085690 -0.015121 0.289557
0.087124 -0.015130 0.289824
0.088545 -0.015136 0.290039
0.090082 -0.015161 0.290625
0.091349 -0.015141 0.290333
0.095642 -0.015616 0.299527
0.096911 -0.015590 0.299120
0.098020 -0.015540 0.298239
0.098233 -0.015351 0.294693
0.098664 -0.015201 0.291886
0.099826 -0.015166 0.291292
0.101114 -0.015151 0.291072
0.102520 -0.015154 0.291189
0.103744 -0.015131 0.290795
0.105091 -0.015125 0.290743
0.106310 -0.015102 0.290344
0.107618 -0.015091 0.290189
0.109199 -0.015119 0.290761
0.110947 -0.015169 0.291754
0.112198 -0.015151 0.291429
0.113740 -0.015171 0.291852
0.115151 -0.015174 0.291927
0.116524 -0.015172 0.291900
0.117906 -0.015172 0.291891
0.119119 -0.015150 0.291462
0.120504 -0.015149 0.291450
0.121749 -0.015132 0.291099
0.123260 -0.015148 0.291378
0.124584 -0.015140 0.291203
0.126103 -0.015156 0.291477
0.127355 -0.015140 0.291124
0.128407 -0.015101 0.290318
0.130271 -0.015158 0.291337
0.131800 -0.015174 0.291583
0.133154 -0.015170 0.291430
0.134502 -0.015166 0.291255
0.135917 -0.015169 0.291219
0.137832 -0.015227 0.292230
0.139568 -0.015265 0.292832
0.140783 -0.015245 0.292327
0.142185 -0.015246 0.292204
0.143700 -0.015259 0.292299
0.145046 -0.015254 0.292039
0.146821 -0.015294 0.292622
0.148529 -0.015326 0.293046
0.149928 -0.015326 0.292844
0.151152 -0.015308 0.292288
0.152473 -0.015300 0.291914
-0.138367 -0.012322 0.260896
-0.135983 -0.012218 0.258881
-0.134016 -0.012150 0.257613
-0.132685 -0.012139 0.257541
-0.131962 -0.012184 0.258646
-0.130392 -0.012151 0.258083
-0.128821 -0.012117 0.257494
-0.127744 -0.012129 0.257880
-0.126851 -0.012159 0.258635
-0.125928 -0.012187 0.259335
-0.125099 -0.012225 0.260233
-0.124193 -0.012256 0.260977
-0.122806 -0.012239 0.260704
-0.122754 -0.012357 0.263282
-0.123444 -0.012552 0.267509
-0.128701 -0.013221 0.281819
-0.127455 -0.013228 0.282031
-0.126593 -0.013276 0.283097
-0.125322 -0.013282 0.283253
-0.124057 -0.013288 0.283419
-0.123042 -0.013322 0.284158
-0.121858 -0.013338 0.284511
-0.120288 -0.013312 0.283955
-0.118824 -0.013297 0.283634
-0.116556 -0.013190 0.281357
-0.115159 -0.013181 0.281149
-0.114298 -0.013234 0.282254
-0.113241 -0.013265 0.282891
-0.112264 -0.013306 0.283737
-0.111355 -0.013357 0.284777
-0.110518 -0.013417 0.286022
-0.109555 -0.013464 0.286965
-0.108780 -0.013535 0.288425
-0.108292 -0.013644 0.290688
-0.107914 -0.013770 0.293302
-0.106872 -0.013813 0.294154
-0.105689 -0.013839 0.294634
-0.102266 -0.013569 0.288796
-0.100951 -0.013575 0.288836
-0.099694 -0.013588 0.289042
-0.098424 -0.013601 0.289215
-0.096526 -0.013526 0.287523
-0.095483 -0.013570 0.288363
-0.093883 -0.013535 0.287522
-0.092464 -0.013526 0.287217
-0.091144 -0.013531 0.287221
-0.089859 -0.013541 0.287333
-0.088489 -0.013539 0.287175
-0.087178 -0.013546 0.287208
-0.085908 -0.013560 0.287378
-0.084607 -0.013569 0.287455
-0.083306 -0.013579 0.287532
-0.081919 -0.013574 0.287314
-0.080655 -0.013591 0.287531
-0.079437 -0.013615 0.287922
-0.078030 -0.013608 0.287637
-0.076690 -0.013612 0.287596
-0.075445 -0.013634 0.287919
-0.074157 -0.013648 0.288088
-0.072917 -0.013673 0.288463
-0.071661 -0.013695 0.288789
-0.070338 -0.013704 0.288858
-0.069068 -0.013725 0.289156
-0.067747 -0.013736 0.289253
-0.066397 -0.013742 0.289234
-0.065032 -0.013745 0.289155
-0.063699 -0.013755 0.289224
-0.062362 -0.013765 0.289286
-0.061023 -0.013774 0.289349
-0.059685 -0.013784 0.289420
-0.058294 -0.013783 0.289248
-0.056968 -0.013797 0.289401
-0.055591 -0.013799 0.289303
-0.054138 -0.013782 0.288806
-0.052789 -0.013791 0.288862
-0.051416 -0.013794 0.288789
-0.050069 -0.013804 0.288877
-0.048711 -0.013812 0.288918
-0.047344 -0.013818 0.288910
-0.045999 -0.013831 0.289050
-0.044643 -0.013842 0.289141
-0.043227 -0.013833 0.288845
-0.041879 -0.013847 0.289013
-0.040419 -0.013823 0.288397
-0.038854 -0.013761 0.286981
-0.037509 -0.013775 0.287159
-0.034905 -0.013310 0.277353
-0.033637 -0.013338 0.277826
-0.032314 -0.013345 0.277867
-0.030918 -0.013322 0.277284
-0.029606 -0.013334 0.277441
-0.028286 -0.013343 0.277545
-0.026898 -0.013320 0.276973
-0.025667 -0.013376 0.278052
-0.024297 -0.013363 0.277684
-0.022907 -0.013336 0.277041
-0.021591 -0.013351 0.277288
-0.020251 -0.013353 0.277251
-0.018897 -0.013345 0.277013
-0.017483 -0.013290 0.275814
-0.015913 -0.013099 0.271777
-0.014608 -0.013111 0.271959
-0.013303 -0.013124 0.272174
-0.011947 -0.013084 0.271307
-0.010658 -0.013118 0.271966
-0.009358 -0.013146 0.272499
-0.008039 -0.013152 0.272592
-0.006712 -0.013146 0.272426
-0.005398 -0.013166 0.272803
-0.004068 -0.013149 0.272433
-0.002739 -0.013123 0.271872
-0.001421 -0.013147 0.272352
-0.000097 -0.013129 0.271955
0.001225 -0.013135 0.272063
0.002546 -0.013132 0.271996
0.003861 -0.013109 0.271528
0.005194 -0.013143 0.272238
0.006515 -0.013138 0.272134
0.007820 -0.013109 0.271536
0.009159 -0.013136 0.272110
0.010466 -0.013117 0.271743
0.011755 -0.013082 0.271031
0.013092 -0.013101 0.271463
0.014396 -0.013087 0.271203
0.015755 -0.013122 0.271951
0.017066 -0.013114 0.271833
0.018338 -0.013079 0.271150
0.019768 -0.013155 0.272755
0.021129 -0.013177 0.273275
0.022353 -0.013117 0.272076
0.023730 -0.013148 0.272771
0.025084 -0.013163 0.273153
0.026359 -0.013138 0.272692
0.027669 -0.013132 0.272626
0.028990 -0.013131 0.272685
0.030364 -0.013153 0.273214
0.031759 -0.013182 0.273892
0.033161 -0.013212 0.274588
0.034498 -0.013214 0.274717
0.035814 -0.013209 0.274685
0.037125 -0.013202 0.274632
0.038392 -0.013180 0.274269
0.039724 -0.013182 0.274393
0.041024 -0.013173 0.274296
0.042342 -0.013170 0.274334
0.043664 -0.013169 0.274402
0.045147 -0.013214 0.275456
0.046579 -0.013243 0.276159
0.048277 -0.013344 0.278356
0.049708 -0.013367 0.278953
0.051217 -0.013410 0.279947
0.052606 -0.013419 0.280260
0.054013 -0.013433 0.280657
0.055352 -0.013430 0.280697
0.056639 -0.013414 0.280480
0.058024 -0.013422 0.280759
0.059273 -0.013398 0.280385
0.060468 -0.013364 0.279778
0.061672 -0.013333 0.279251
0.062854 -0.013299 0.278649
0.064023 -0.013264 0.278021
0.065142 -0.013220 0.277213
0.066269 -0.013179 0.276469
0.067521 -0.013165 0.276273
0.068789 -0.013153 0.276149
0.070089 -0.013149 0.276163
0.071530 -0.013170 0.276721
0.072994 -0.013195 0.277352
0.074550 -0.013235 0.278309
0.076541 -0.013350 0.280830
0.078661 -0.013483 0.283730
0.080346 -0.013538 0.284996
0.081891 -0.013568 0.285734
0.083473 -0.013603 0.286576
0.085150 -0.013652 0.287715
0.086618 -0.013667 0.288125
0.088265 -0.013709 0.289108
0.089835 -0.013738 0.289813
0.091373 -0.013761 0.290394
0.092992 -0.013796 0.291214
0.094437 -0.013804 0.291472
0.097835 -0.014093 0.297663
0.098888 -0.014041 0.296645
0.098910 -0.013847 0.292604
0.099881 -0.013788 0.291442
0.101740 -0.013852 0.292864
0.102982 -0.013832 0.292493
0.104083 -0.013793 0.291735
0.105724 -0.013826 0.292487
0.106912 -0.013800 0.291981
0.108297 -0.013799 0.292015
0.109624 -0.013791 0.291888
0.110855 -0.013772 0.291508
0.112110 -0.013756 0.291196
0.113514 -0.013758 0.291270
0.115213 -0.013796 0.292084
0.116545 -0.013789 0.291952
0.117946 -0.013791 0.291989
0.119167 -0.013771 0.291581
0.120501 -0.013765 0.291445
0.121998 -0.013778 0.291697
0.123467 -0.013787 0.291870
0.124800 -0.013781 0.291713
0.126153 -0.013778 0.291598
0.127455 -0.013769 0.291359
0.128867 -0.013771 0.291366
0.130601 -0.013808 0.292081
0.131912 -0.013800 0.291839
0.133342 -0.013805 0.291850
0.134821 -0.013814 0.291957
0.136367 -0.013830 0.292194
0.137806 -0.013834 0.292185
0.139406 -0.013855 0.292506
0.140813 -0.013857 0.292404
0.142210 -0.013857 0.292269
0.143744 -0.013871 0.292406
0.145217 -0.013878 0.292400
0.146337 -0.013852 0.291675
0.148062 -0.013883 0.292145
0.149557 -0.013892 0.292140
0.150875 -0.013885 0.291774
0.152157 -0.013875 0.291330
-0.133955 -0.010731 0.252592
-0.133172 -0.010764 0.253544
-0.131995 -0.010765 0.253743
-0.130602 -0.010748 0.253511
-0.129206 -0.010731 0.253256
-0.127740 -0.010708 0.252845
-0.126657 -0.010716 0.253180
-0.125627 -0.010730 0.253616
-0.124571 -0.010741 0.253997
-0.123508 -0.010752 0.254360
-0.122716 -0.010787 0.255283
-0.122148 -0.010843 0.256688
-0.121339 -0.010878 0.257598
-0.121124 -0.010967 0.259792
-0.121278 -0.011093 0.262823
-0.123014 -0.011367 0.269370
-0.127476 -0.011901 0.282081
-0.126613 -0.011944 0.283147
-0.125342 -0.011949 0.283303
-0.124078 -0.011955 0.283469
-0.120036 -0.011690 0.277218
-0.120666 -0.011880 0.281730
-0.120478 -0.011993 0.284405
-0.118728 -0.011951 0.283403
-0.118087 -0.012020 0.285051
-0.116911 -0.012037 0.285424
-0.115453 -0.012024 0.285103
-0.114155 -0.012028 0.285169
-0.112715 -0.012017 0.284876
-0.112159 -0.012101 0.286829
-0.111155 -0.012138 0.287665
-0.110157 -0.012177 0.288536
-0.109269 -0.012229 0.289713
-0.109871 -0.012451 0.294919
-0.108333 -0.012433 0.294433
-0.106874 -0.012425 0.294153
-0.103306 -0.012167 0.287980
-0.101884 -0.012159 0.287708
-0.100672 -0.012176 0.288025
-0.099708 -0.012224 0.289072
-0.097868 -0.012164 0.287569
-0.096826 -0.012203 0.288401
-0.095640 -0.012225 0.288824
-0.094024 -0.012192 0.287940
-0.092783 -0.012207 0.288194
-0.091124 -0.012167 0.287142
-0.090222 -0.012229 0.288479
-0.088197 -0.012137 0.286209
-0.086796 -0.012130 0.285931
-0.085242 -0.012101 0.285134
-0.084025 -0.012120 0.285459
-0.082542 -0.012101 0.284877
-0.081248 -0.012109 0.284940
-0.079273 -0.012014 0.282585
-0.078255 -0.012063 0.283618
-0.077473 -0.012152 0.285562
-0.075807 -0.012102 0.284261
-0.074239 -0.012066 0.283294
-0.072930 -0.012072 0.283298
-0.071671 -0.012087 0.283508
-0.070484 -0.012115 0.284022
-0.069488 -0.012177 0.285341
-0.068423 -0.012229 0.286429
-0.067394 -0.012290 0.287720
-0.066186 -0.012320 0.288287
-0.064903 -0.012338 0.288554
-0.063599 -0.012352 0.288741
-0.062353 -0.012378 0.289213
-0.061003 -0.012384 0.289221
-0.059675 -0.012395 0.289344
-0.058278 -0.012392 0.289136
-0.056890 -0.012391 0.288973
-0.055549 -0.012401 0.289051
-0.054177 -0.012403 0.288979
-0.052807 -0.012407 0.288924
-0.051424 -0.012407 0.288801
-0.050068 -0.012415 0.288836
-0.048669 -0.012412 0.288632
-0.047291 -0.012414 0.288548
-0.044467 -0.012399 0.287961
-0.043114 -0.012408 0.288050
-0.041724 -0.012407 0.287900
-0.039728 -0.012220 0.283427
-0.039314 -0.012523 0.290340
-0.037954 -0.012536 0.290521
-0.035021 -0.012010 0.278235
-0.033686 -0.012012 0.278184
-0.032348 -0.012014 0.278120
-0.030942 -0.011990 0.277457
-0.029499 -0.011948 0.276393
-0.028107 -0.011924 0.275740
-0.026614 -0.011853 0.274003
-0.025325 -0.011870 0.274313
-0.023967 -0.011854 0.273865
-0.022585 -0.011825 0.273101
-0.021273 -0.011830 0.273156
-0.019917 -0.011811 0.272630
-0.018563 -0.011790 0.272082
-0.017140 -0.011718 0.270364
-0.015863 -0.011743 0.270865
-0.014541 -0.011736 0.270663
-0.013189 -0.011701 0.269800
-0.011887 -0.011708 0.269898
-0.010584 -0.011715 0.270016
-0.009291 -0.011737 0.270493
-0.007976 -0.011735 0.270394
-0.006665 -0.011739 0.270457
-0.005357 -0.011751 0.270690
-0.004046 -0.011761 0.270913
-0.002728 -0.011753 0.270708
-0.001415 -0.011771 0.271092
-0.000098 -0.011765 0.270950
0.001221 -0.011786 0.271412
0.002540 -0.011784 0.271370
0.003853 -0.011766 0.270951
0.005188 -0.011807 0.271882
0.006547 -0.011876 0.273480
0.007854 -0.011842 0.272705
0.009161 -0.011818 0.272164
0.010496 -0.011831 0.272490
0.011813 -0.011824 0.272351
0.013094 -0.011785 0.271484
0.014389 -0.011765 0.271060
0.015747 -0.011796 0.271792
0.017117 -0.011830 0.272609
0.018214 -0.011684 0.269293
0.019570 -0.011712 0.269993
0.021166 -0.011872 0.273725
0.022038 -0.011630 0.268203
0.023453 -0.011687 0.269556
0.025084 -0.011839 0.273128
0.026346 -0.011810 0.272531
0.027734 -0.011838 0.273242
0.029013 -0.011819 0.272862
0.030413 -0.011849 0.273625
0.031850 -0.011890 0.274649
0.033156 -0.011881 0.274518
0.034525 -0.011894 0.274906
0.035852 -0.011892 0.274952
0.037205 -0.011899 0.275193
0.038439 -0.011868 0.274574
0.039710 -0.011851 0.274265
0.041008 -0.011843 0.274159
0.042324 -0.011840 0.274188
0.043626 -0.011833 0.274138
0.045298 -0.011924 0.276350
0.047083 -0.012039 0.279115
0.048510 -0.012059 0.279671
0.050026 -0.012099 0.280710
0.051432 -0.012111 0.281092
0.052913 -0.012140 0.281868
0.054302 -0.012146 0.282128
0.055575 -0.012127 0.281798
0.056879 -0.012115 0.281644
0.058147 -0.012097 0.281328
0.059216 -0.012039 0.280091
0.060211 -0.011969 0.278568
0.061155 -0.011892 0.276887
0.062188 -0.011835 0.275673
0.063281 -0.011791 0.274780
0.064450 -0.011764 0.274246
0.065668 -0.011746 0.273941
0.066955 -0.011741 0.273934
0.068330 -0.011751 0.274286
0.069788 -0.011775 0.274956
0.071292 -0.011806 0.275785
0.073115 -0.011887 0.277794
0.075167 -0.012002 0.280593
0.077433 -0.012147 0.284084
0.079118 -0.012197 0.285361
0.080970 -0.012271 0.287195
0.082449 -0.012287 0.287666
0.084042 -0.012318 0.288515
0.085505 -0.012331 0.288901
0.086837 -0.012324 0.288839
0.088426 -0.012353 0.289621
0.089910 -0.012367 0.290040
0.091173 -0.012350 0.289745
0.092625 -0.012360 0.290053
0.094092 -0.012371 0.290396
0.097857 -0.012679 0.297720
0.098528 -0.012583 0.295555
0.099896 -0.012578 0.295510
0.100166 -0.012437 0.292265
0.099932 -0.012238 0.287652
0.102679 -0.012404 0.291626
0.103909 -0.012386 0.291242
0.105390 -0.012397 0.291557
0.106665 -0.012384 0.291301
0.108023 -0.012380 0.291269
0.109583 -0.012400 0.291774
0.110914 -0.012394 0.291659
0.112191 -0.012382 0.291404
0.113488 -0.012372 0.291200
0.114872 -0.012372 0.291217
0.116537 -0.012402 0.291932
0.117902 -0.012400 0.291880
0.119099 -0.012380 0.291413
0.120547 -0.012387 0.291559
0.121874 -0.012381 0.291402
0.123225 -0.012377 0.291299
0.124566 -0.012373 0.291168
0.126222 -0.012400 0.291760
0.127820 -0.012420 0.292198
0.129252 -0.012424 0.292241
0.130737 -0.012434 0.292394
0.132120 -0.012433 0.292305
0.133663 -0.012447 0.292560
0.135026 -0.012445 0.292409
0.136415 -0.012444 0.292305
0.137935 -0.012456 0.292470
0.139486 -0.012470 0.292684
0.140654 -0.012450 0.292085
0.142079 -0.012453 0.292014
0.143530 -0.012459 0.291985
0.145304 -0.012491 0.292591
0.146645 -0.012487 0.292307
0.148001 -0.012484 0.292043
0.149591 -0.012500 0.292224
0.150925 -0.012495 0.291890
0.152236 -0.012488 0.291502
-0.132852 -0.009455 0.250528
-0.131530 -0.009444 0.250431
-0.130210 -0.009434 0.250324
-0.129219 -0.009447 0.250840
-0.127649 -0.009418 0.250217
-0.126605 -0.009427 0.250610
-0.125243 -0.009413 0.250365
-0.124115 -0.009417 0.250574
-0.123140 -0.009432 0.251087
-0.122428 -0.009467 0.252144
-0.121686 -0.009502 0.253149
-0.121026 -0.009543 0.254337
-0.120515 -0.009597 0.255854
-0.120122 -0.009662 0.257649
-0.119573 -0.009715 0.259133
-0.118936 -0.009762 0.260447
-0.118537 -0.009830 0.262305
-0.117891 -0.009879 0.263643
-0.116849 -0.009895 0.264108
-0.116264 -0.009950 0.265619
-0.115353 -0.009979 0.266404
-0.115211 -0.010076 0.268993
-0.114786 -0.010149 0.270967
-0.114757 -0.010260 0.273923
-0.115764 -0.010467 0.279441
-0.118723 -0.010857 0.289846
-0.118318 -0.010945 0.292176
-0.117362 -0.010984 0.293178
-0.115764 -0.010962 0.292578
-0.114577 -0.010980 0.293009
-0.113113 -0.010971 0.292729
-0.111446 -0.010942 0.291907
-0.110191 -0.010954 0.292153
-0.109712 -0.011043 0.294485
-0.106056 -0.010811 0.288238
-0.104425 -0.010783 0.287403
-0.103079 -0.010783 0.287340
-0.101944 -0.010806 0.287869
-0.100715 -0.010819 0.288139
-0.099286 -0.010811 0.287838
-0.098057 -0.010825 0.288113
-0.096874 -0.010844 0.288535
-0.095505 -0.010843 0.288403
-0.094297 -0.010860 0.288763
-0.093024 -0.010870 0.288929
-0.092810 -0.011007 0.292440
-0.091936 -0.011067 0.293943
-0.090811 -0.011099 0.294678
-0.089635 -0.011126 0.295267
-0.088295 -0.011133 0.295330
-0.087104 -0.011159 0.295902
-0.085981 -0.011195 0.296729
-0.084843 -0.011230 0.297530
-0.083735 -0.011271 0.298471
-0.082489 -0.011294 0.298945
-0.081204 -0.011312 0.299295
-0.077757 -0.011025 0.291554
-0.076500 -0.011043 0.291898
-0.077524 -0.011397 0.301123
-0.076214 -0.011415 0.301457
-0.073289 -0.011188 0.295301
-0.072835 -0.011335 0.299059
-0.071405 -0.011334 0.298889
-0.067397 -0.010916 0.287707
-0.066189 -0.010943 0.288280
-0.064816 -0.010943 0.288143
-0.063535 -0.010959 0.288425
-0.062276 -0.010980 0.288833
-0.060911 -0.010982 0.288759
-0.059567 -0.010989 0.288794
-0.058259 -0.011002 0.289014
-0.056880 -0.011003 0.288892
-0.055536 -0.011011 0.288954
-0.054218 -0.011024 0.289169
-0.052835 -0.011025 0.289046
-0.051458 -0.011027 0.288964
-0.050074 -0.011027 0.288844
-0.048770 -0.011046 0.289200
-0.047356 -0.011040 0.288913
-0.045991 -0.011045 0.288931
-0.044673 -0.011063 0.289265
-0.043151 -0.011029 0.288266
-0.041796 -0.011038 0.288365
-0.040311 -0.011011 0.287556
-0.039326 -0.011125 0.290396
-0.037747 -0.011072 0.288900
-0.036935 -0.011249 0.293406
-0.035576 -0.011267 0.293760
-0.034308 -0.011316 0.294941
-0.033091 -0.011387 0.296688
-0.031756 -0.011423 0.297497
-0.030458 -0.011475 0.298772
-0.029017 -0.011477 0.298709
-0.027582 -0.011481 0.298714
-0.026170 -0.011495 0.299001
-0.024638 -0.011456 0.297891
-0.023192 -0.011454 0.297762
-0.021608 -0.011379 0.295743
-0.020150 -0.011365 0.295298
-0.018135 -0.011011 0.286020
-0.016971 -0.011157 0.289750
-0.015850 -0.011360 0.294968
-0.014528 -0.011446 0.297142
-0.013071 -0.011433 0.296727
-0.011632 -0.011434 0.296703
-0.010224 -0.011471 0.297621
-0.008772 -0.011461 0.297313
-0.007313 -0.011437 0.296666
-0.005855 -0.011405 0.295798
-0.004402 -0.011362 0.294655
-0.002969 -0.011359 0.294542
-0.001530 -0.011299 0.292975
-0.000106 -0.011322 0.293561
0.001321 -0.011322 0.293558
0.002625 -0.010818 0.280486
0.004210 -0.011419 0.296045
0.005649 -0.011418 0.296021
0.007086 -0.011415 0.295970
0.008551 -0.011450 0.296869
0.009989 -0.011444 0.296728
0.011426 -0.011439 0.296614
0.012866 -0.011436 0.296585
0.014309 -0.011438 0.296651
0.015750 -0.011437 0.296657
0.017134 -0.011399 0.295703
0.018608 -0.011421 0.296334
0.019952 -0.011367 0.294962
0.021372 -0.011360 0.294829
0.022792 -0.011354 0.294723
0.024122 -0.011306 0.293538
0.025532 -0.011299 0.293419
0.027030 -0.011330 0.294280
0.028242 -0.011244 0.292112
0.029839 -0.011312 0.293949
0.031248 -0.011305 0.293857
0.032631 -0.011291 0.293554
0.034018 -0.011278 0.293321
0.035325 -0.011242 0.292448
0.036658 -0.011216 0.291861
0.038052 -0.011210 0.291788
0.039353 -0.011178 0.291049
0.040716 -0.011165 0.290811
0.042028 -0.011140 0.290246
0.043063 -0.011045 0.287872
0.044613 -0.011084 0.288993
0.045739 -0.011018 0.287390
0.047052 -0.011000 0.287022
0.048606 -0.011038 0.288118
0.049943 -0.011026 0.287912
0.051238 -0.011006 0.287483
0.052545 -0.010989 0.287155
0.053862 -0.010975 0.286897
0.055177 -0.010961 0.286653
0.056319 -0.010915 0.285549
0.057397 -0.010858 0.284186
0.058375 -0.010786 0.282406
0.059166 -0.010683 0.279831
0.059923 -0.010579 0.277214
0.060523 -0.010452 0.274005
0.061595 -0.010411 0.273025
0.062773 -0.010388 0.272553
0.064017 -0.010378 0.272384
0.065224 -0.010362 0.272070
0.066535 -0.010362 0.272198
0.067827 -0.010360 0.272251
0.069268 -0.010380 0.272890
0.071177 -0.010469 0.275322
0.073650 -0.010635 0.279810
0.075562 -0.010716 0.282054
0.077469 -0.010794 0.284198
0.079215 -0.010846 0.285696
0.081345 -0.010949 0.288509
0.082691 -0.010945 0.288497
0.084257 -0.010969 0.289239
0.085971 -0.011011 0.290461
0.087356 -0.011011 0.290551
0.089024 -0.011046 0.291566
0.090481 -0.011054 0.291871
0.091891 -0.011056 0.292017
0.093192 -0.011045 0.291817
0.094594 -0.011046 0.291933
0.096186 -0.011069 0.292626
0.099430 -0.011279 0.298251
0.099403 -0.011117 0.294045
0.100011 -0.011030 0.291805
0.102057 -0.011101 0.293761
0.102773 -0.011028 0.291886
0.103918 -0.011002 0.291258
0.104095 -0.010876 0.287970
0.106437 -0.010976 0.290672
0.107977 -0.010992 0.291143
0.109317 -0.010987 0.291064
0.110580 -0.010975 0.290779
0.112102 -0.010989 0.291171
0.113411 -0.010982 0.291000
0.114890 -0.010991 0.291262
0.116344 -0.010998 0.291447
0.117829 -0.011007 0.291700
0.118911 -0.010979 0.290954
0.120314 -0.010981 0.290995
0.121730 -0.010984 0.291061
0.123227 -0.010994 0.291307
0.124721 -0.011004 0.291534
0.126331 -0.011024 0.292016
0.127627 -0.011016 0.291761
0.128955 -0.011011 0.291576
0.130808 -0.011050 0.292557
0.132576 -0.011082 0.293322
0.133810 -0.011069 0.292890
0.135206 -0.011069 0.292808
0.136640 -0.011073 0.292798
0.138030 -0.011072 0.292681
0.139396 -0.011070 0.292506
0.140862 -0.011076 0.292530
0.142233 -0.011074 0.292343
0.144103 -0.011111 0.293163
0.145515 -0.011113 0.293029
0.146581 -0.011087 0.292193
0.148160 -0.011101 0.292371
0.149599 -0.011105 0.292256
0.151089 -0.011112 0.292224
0.152219 -0.011092 0.291488
-0.131663 -0.008192 0.248297
-0.130277 -0.008178 0.248058
-0.129010 -0.008172 0.248029
-0.128011 -0.008182 0.248505
-0.127000 -0.008192 0.248954
-0.125924 -0.008198 0.249271
-0.124791 -0.008200 0.249469
-0.123743 -0.008208 0.249831
-0.123025 -0.008238 0.250862
-0.122119 -0.008256 0.251515
-0.121196 -0.008273 0.252136
-0.120453 -0.008303 0.253139
-0.119675 -0.008332 0.254078
-0.118923 -0.008362 0.255082
-0.118212 -0.008396 0.256187
-0.117587 -0.008437 0.257495
-0.117120 -0.008491 0.259174
-0.116806 -0.008557 0.261220
-0.116261 -0.008607 0.262783
-0.115387 -0.008633 0.263617
-0.114654 -0.008671 0.264791
-0.113964 -0.008713 0.266083
-0.113019 -0.008736 0.266797
-0.112372 -0.008783 0.268231
-0.111995 -0.008852 0.270343
-0.118741 -0.009492 0.289887
-0.115517 -0.009341 0.285256
-0.114944 -0.009404 0.287135
-0.113597 -0.009404 0.287096
-0.111981 -0.009381 0.286366
-0.111059 -0.009416 0.287410
-0.109208 -0.009373 0.286039
-0.107696 -0.009358 0.285533
-0.106139 -0.009339 0.284888
-0.104561 -0.009317 0.284170
-0.103186 -0.009314 0.283988
-0.102085 -0.009335 0.284561
-0.100909 -0.009350 0.284938
-0.099756 -0.009367 0.285388
-0.098584 -0.009383 0.285795
-0.097379 -0.009397 0.286114
-0.096250 -0.009418 0.286666
-0.095102 -0.009438 0.287178
-0.094067 -0.009470 0.288047
-0.093518 -0.009552 0.290452
-0.092561 -0.009595 0.291644
-0.091413 -0.009619 0.292259
-0.090124 -0.009629 0.292435
-0.088953 -0.009651 0.293007
-0.087538 -0.009648 0.292782
-0.086146 -0.009647 0.292631
-0.084898 -0.009662 0.292975
-0.083453 -0.009655 0.292641
-0.081902 -0.009636 0.291919
-0.080427 -0.009625 0.291455
-0.079138 -0.009636 0.291661
-0.077774 -0.009638 0.291599
-0.076516 -0.009654 0.291942
-0.075305 -0.009677 0.292485
-0.073906 -0.009675 0.292309
-0.073254 -0.009774 0.295139
-0.072100 -0.009808 0.296022
-0.069771 -0.009680 0.292029
-0.067409 -0.009542 0.287738
-0.066312 -0.009582 0.288791
-0.065003 -0.009592 0.288951
-0.063605 -0.009589 0.288724
-0.062382 -0.009613 0.289301
-0.061041 -0.009619 0.289352
-0.059661 -0.009619 0.289222
-0.058319 -0.009626 0.289288
-0.056932 -0.009626 0.289131
-0.055620 -0.009638 0.289366
-0.054218 -0.009635 0.289146
-0.052806 -0.009630 0.288865
-0.051527 -0.009650 0.289323
-0.050052 -0.009633 0.288685
-0.048550 -0.009610 0.287863
-0.047107 -0.009598 0.287366
-0.045794 -0.009612 0.287663
-0.044445 -0.009620 0.287758
-0.043022 -0.009611 0.287371
-0.041663 -0.009616 0.287420
-0.040317 -0.009625 0.287569
-0.038878 -0.009612 0.287052
-0.037483 -0.009609 0.286853
-0.036456 -0.009704 0.289566
-0.035612 -0.009857 0.294021
-0.035130 -0.010127 0.301965
-0.033702 -0.010136 0.302127
-0.030467 -0.010032 0.298823
-0.029188 -0.010089 0.300425
-0.027756 -0.010097 0.300560
-0.026321 -0.010104 0.300689
-0.024645 -0.010015 0.297942
-0.023199 -0.010014 0.297813
-0.021708 -0.009991 0.297063
-0.019971 -0.009845 0.292638
-0.017938 -0.009518 0.282866
-0.016907 -0.009714 0.288618
-0.015675 -0.009819 0.291670
-0.014553 -0.010021 0.297605
-0.013092 -0.010008 0.297161
-0.011642 -0.010001 0.296923
-0.010219 -0.010019 0.297401
-0.008758 -0.010001 0.296818
-0.007296 -0.009972 0.295916
-0.005836 -0.009934 0.294756
-0.004389 -0.009900 0.293735
-0.002959 -0.009893 0.293496
-0.001528 -0.009857 0.292420
-0.000106 -0.009819 0.291278
0.001238 -0.009280 0.275256
0.002570 -0.009257 0.274582
0.004178 -0.009906 0.293822
0.005606 -0.009905 0.293799
0.007039 -0.009911 0.293993
0.008479 -0.009924 0.294377
0.009892 -0.009905 0.293835
0.011322 -0.009906 0.293894
0.012763 -0.009916 0.294195
0.014146 -0.009883 0.293254
0.015534 -0.009859 0.292566
0.016921 -0.009839 0.292003
0.018422 -0.009883 0.293348
0.019691 -0.009805 0.291074
0.020892 -0.009705 0.288176
0.022280 -0.009700 0.288072
0.023666 -0.009694 0.287960
0.025125 -0.009718 0.288724
0.026879 -0.009847 0.292613
0.028280 -0.009840 0.292482
0.029797 -0.009872 0.293507
0.031163 -0.009854 0.293030
0.032582 -0.009853 0.293085
0.033928 -0.009831 0.292515
0.035227 -0.009798 0.291612
0.036526 -0.009767 0.290781
0.037879 -0.009753 0.290438
0.039230 -0.009739 0.290117
0.040537 -0.009715 0.289508
0.041811 -0.009686 0.288726
0.042744 -0.009582 0.285720
0.044624 -0.009690 0.289041
0.045440 -0.009567 0.285483
0.046464 -0.009494 0.283415
0.047568 -0.009442 0.281943
0.048907 -0.009437 0.281917
0.050252 -0.009434 0.281932
0.051496 -0.009413 0.281400
0.052747 -0.009394 0.280938
0.054085 -0.009391 0.280961
0.055344 -0.009375 0.280586
0.056526 -0.009346 0.279853
0.057567 -0.009297 0.278478
0.058624 -0.009252 0.277248
0.059565 -0.009191 0.275541
0.060705 -0.009163 0.274811
0.061808 -0.009131 0.273951
0.062965 -0.009108 0.273367
0.064312 -0.009112 0.273622
0.065561 -0.009103 0.273460
0.066853 -0.009100 0.273484
0.068059 -0.009086 0.273166
0.069442 -0.009096 0.273560
0.070961 -0.009122 0.274470
0.073259 -0.009246 0.278310
0.075274 -0.009331 0.280963
0.076698 -0.009340 0.281356
0.078072 -0.009344 0.281563
0.080027 -0.009415 0.283822
0.081812 -0.009465 0.285415
0.083462 -0.009497 0.286496
0.084730 -0.009486 0.286255
0.086247 -0.009502 0.286850
0.087865 -0.009529 0.287760
0.089535 -0.009561 0.288809
0.090840 -0.009553 0.288667
0.092108 -0.009542 0.288413
0.093919 -0.009587 0.289840
0.095057 -0.009562 0.289180
0.099448 -0.009861 0.298296
0.100166 -0.009792 0.296292
0.100385 -0.009677 0.292887
0.101243 -0.009626 0.291410
0.102360 -0.009601 0.290707
0.103723 -0.009599 0.290707
0.105255 -0.009613 0.291173
0.106550 -0.009605 0.290978
0.108176 -0.009626 0.291675
0.109485 -0.009619 0.291505
0.110838 -0.009617 0.291453
0.112177 -0.009613 0.291364
0.113452 -0.009604 0.291106
0.114871 -0.009607 0.291212
0.116482 -0.009625 0.291793
0.117750 -0.009616 0.291506
0.118971 -0.009603 0.291101
0.120202 -0.009591 0.290726
0.121566 -0.009589 0.290671
0.123264 -0.009614 0.291398
0.124728 -0.009620 0.291554
0.126215 -0.009628 0.291752
0.127795 -0.009643 0.292150
0.129176 -0.009643 0.292081
0.130597 -0.009645 0.292092
0.132150 -0.009657 0.292385
0.133619 -0.009663 0.292478
0.134876 -0.009654 0.292100
0.136266 -0.009654 0.292003
0.137682 -0.009656 0.291953
0.139070 -0.009656 0.291832
0.140421 -0.009653 0.291623
0.141848 -0.009656 0.291563
0.143387 -0.009666 0.291718
0.145166 -0.009692 0.292338
0.146465 -0.009686 0.291975
0.147928 -0.009691 0.291928
0.149486 -0.009701 0.292049
0.150842 -0.009699 0.291762
0.152349 -0.009706 0.291752
-0.131100 -0.006985 0.247247
-0.129727 -0.006973 0.247021
-0.128799 -0.006986 0.247632
-0.127321 -0.006968 0.247174
-0.126399 -0.006981 0.247785
-0.125469 -0.006994 0.248378
-0.124234 -0.006990 0.248363
-0.123415 -0.007009 0.249175
-0.122536 -0.007025 0.249872
-0.121736 -0.007047 0.250733
-0.121072 -0.007076 0.251884
-0.120198 -0.007094 0.252606
-0.119386 -0.007116 0.253467
-0.118691 -0.007145 0.254587
-0.117945 -0.007172 0.255612
-0.117443 -0.007215 0.257183
-0.116563 -0.007235 0.257944
-0.115830 -0.007264 0.259040
-0.115090 -0.007294 0.260137
-0.114377 -0.007326 0.261311
-0.113736 -0.007364 0.262673
-0.113189 -0.007408 0.264274
-0.112301 -0.007431 0.265101
-0.111569 -0.007465 0.266315
-0.110648 -0.007487 0.267092
-0.110739 -0.007579 0.270350
-0.110188 -0.007628 0.272097
-0.111419 -0.007803 0.278329
-0.112414 -0.007966 0.284104
-0.111419 -0.007990 0.284925
-0.110112 -0.007992 0.284953
-0.109514 -0.008046 0.286836
-0.109363 -0.008135 0.289948
-0.108190 -0.008149 0.290388
-0.108007 -0.008239 0.293528
-0.106813 -0.008253 0.293964
-0.105569 -0.008263 0.294266
-0.104096 -0.008256 0.293929
-0.102097 -0.008206 0.292077
-0.100780 -0.008211 0.292151
-0.098370 -0.008125 0.289017
-0.097034 -0.008127 0.288992
-0.095700 -0.008129 0.288973
-0.094509 -0.008144 0.289391
-0.093851 -0.008206 0.291477
-0.092580 -0.008215 0.291693
-0.091422 -0.008234 0.292277
-0.089839 -0.008215 0.291498
-0.088294 -0.008200 0.290823
-0.086940 -0.008202 0.290770
-0.085447 -0.008190 0.290243
-0.083944 -0.008177 0.289670
-0.082691 -0.008189 0.289955
-0.081330 -0.008190 0.289867
-0.079999 -0.008194 0.289889
-0.078709 -0.008203 0.290064
-0.077506 -0.008221 0.290578
-0.076265 -0.008236 0.290967
-0.074951 -0.008243 0.291091
-0.073639 -0.008251 0.291234
-0.072218 -0.008247 0.290948
-0.070817 -0.008245 0.290736
-0.069490 -0.008252 0.290832
-0.067365 -0.008162 0.287532
-0.066190 -0.008186 0.288243
-0.064899 -0.008196 0.288472
-0.063577 -0.008203 0.288575
-0.062316 -0.008219 0.288974
-0.061010 -0.008229 0.289184
-0.059665 -0.008234 0.289222
-0.058339 -0.008242 0.289365
-0.057003 -0.008249 0.289470
-0.055614 -0.008248 0.289315
-0.054257 -0.008252 0.289328
-0.052913 -0.008259 0.289428
-0.051515 -0.008257 0.289235
-0.050053 -0.008245 0.288667
-0.048577 -0.008230 0.288003
-0.047209 -0.008232 0.287966
-0.045787 -0.008225 0.287597
-0.044430 -0.008230 0.287637
-0.043056 -0.008232 0.287574
-0.041687 -0.008235 0.287560
-0.040424 -0.008260 0.288303
-0.038785 -0.008207 0.286342
-0.037312 -0.008186 0.285519
-0.035959 -0.008192 0.285595
-0.034821 -0.008249 0.287469
-0.029888 -0.007374 0.256885
-0.028706 -0.007389 0.257317
-0.027899 -0.007506 0.261314
-0.025941 -0.007310 0.254401
-0.025051 -0.007411 0.257822
-0.023771 -0.007401 0.257387
-0.022535 -0.007404 0.257416
-0.021359 -0.007428 0.258179
-0.020137 -0.007438 0.258469
-0.018925 -0.007454 0.258949
-0.018780 -0.007922 0.275145
-0.017433 -0.007917 0.274877
-0.016289 -0.008009 0.278036
-0.015679 -0.008405 0.291714
-0.012514 -0.007374 0.255872
-0.011296 -0.007389 0.256362
-0.010081 -0.007411 0.257064
-0.008840 -0.007417 0.257241
-0.007588 -0.007415 0.257128
-0.006389 -0.007473 0.259112
-0.005113 -0.007448 0.258227
-0.003857 -0.007445 0.258076
-0.002611 -0.007469 0.258904
-0.001353 -0.007470 0.258899
-0.000095 -0.007528 0.260893
0.001217 -0.007808 0.270608
0.002534 -0.007815 0.270824
0.005607 -0.008479 0.293843
0.006115 -0.007370 0.255402
0.007368 -0.007380 0.255772
0.008612 -0.007380 0.255795
0.009875 -0.007395 0.256318
0.011119 -0.007393 0.256288
0.012386 -0.007406 0.256736
0.013656 -0.007418 0.257189
0.014928 -0.007428 0.257587
0.016208 -0.007441 0.258071
0.017511 -0.007462 0.258834
0.018977 -0.007545 0.261745
0.020523 -0.007647 0.265339
0.023671 -0.008299 0.288003
0.025131 -0.008319 0.288767
0.026885 -0.008429 0.292657
0.024939 -0.007427 0.257907
0.026249 -0.007443 0.258538
0.027582 -0.007464 0.259338
0.028745 -0.007440 0.258553
0.030012 -0.007443 0.258731
0.031280 -0.007446 0.258920
0.032576 -0.007455 0.259319
0.033907 -0.007472 0.259966
0.035079 -0.007453 0.259401
0.036306 -0.007447 0.259273
0.037894 -0.007513 0.261659
0.042754 -0.008202 0.285762
0.043769 -0.008134 0.283484
0.044826 -0.008078 0.281609
0.046474 -0.008128 0.283456
0.044585 -0.007574 0.264244
0.045774 -0.007560 0.263841
0.050263 -0.008076 0.281972
0.048167 -0.007535 0.263192
0.052758 -0.008041 0.280978
0.050591 -0.007518 0.262794
0.052049 -0.007546 0.263864
0.053472 -0.007567 0.264716
0.055141 -0.007622 0.266730
0.056839 -0.007678 0.268792
0.058027 -0.007664 0.268410
0.059753 -0.007720 0.270484
0.061228 -0.007742 0.271369
0.062388 -0.007724 0.270847
0.063850 -0.007743 0.271641
0.065244 -0.007754 0.272124
0.066499 -0.007748 0.272024
0.067780 -0.007745 0.272034
0.069032 -0.007739 0.271934
0.070532 -0.007761 0.272799
0.072324 -0.007813 0.274744
0.073742 -0.007824 0.275231
0.075055 -0.007824 0.275317
0.075824 -0.007767 0.273444
0.080041 -0.008060 0.283860
0.081826 -0.008103 0.285453
0.083476 -0.008130 0.286534
0.079203 -0.007590 0.267572
0.086261 -0.008135 0.286888
0.087880 -0.008158 0.287798
0.089550 -0.008185 0.288847
0.090855 -0.008179 0.288704
0.092123 -0.008169 0.288451
0.093933 -0.008207 0.289878
0.095071 -0.008186 0.289218
0.100159 -0.008381 0.296266
0.100836 -0.008321 0.294196
0.101270 -0.008242 0.291483
0.102397 -0.008221 0.290806
0.103871 -0.008229 0.291118
0.104878 -0.008199 0.290126
0.106136 -0.008190 0.289844
0.108257 -0.008247 0.291889
0.109436 -0.008231 0.291373
0.110870 -0.008235 0.291535
0.112247 -0.008234 0.291544
0.113552 -0.008228 0.291358
0.114860 -0.008223 0.291183
0.116209 -0.008221 0.291109
0.117674 -0.008227 0.291315
0.118621 -0.008196 0.290245
0.120004 -0.008197 0.290248
0.121391 -0.008198 0.290254
0.122876 -0.008205 0.290482
0.124311 -0.008209 0.290581
0.125986 -0.008228 0.291227
0.127730 -0.008251 0.292005
0.129006 -0.008244 0.291699
0.130397 -0.008245 0.291649
0.131869 -0.008250 0.291770
0.133445 -0.008262 0.292104
0.134810 -0.008261 0.291964
0.136233 -0.008263 0.291941
0.137647 -0.008265 0.291885
0.139185 -0.008274 0.292081
0.140578 -0.008274 0.291959
0.141913 -0.008271 0.291707
0.143604 -0.008289 0.292169
0.145096 -0.008294 0.292208
0.146588 -0.008300 0.292231
0.147652 -0.008282 0.291395
0.148706 -0.008263 0.290539
0.150788 -0.008302 0.291672
0.152248 -0.008306 0.291573
-0.130641 -0.005792 0.246391
-0.129637 -0.005798 0.246859
