ply
format ascii 1.0
element vertex 1679
property float x
property float y
property float z
end_header
-0.118349 -0.035083 0.231338
-0.117354 -0.035111 0.231685
-0.116352 -0.035138 0.232012
-0.115431 -0.035191 0.232498
-0.114449 -0.035226 0.232859
-0.113535 -0.035282 0.233353
-0.112638 -0.035345 0.233883
-0.111738 -0.035408 0.234408
-0.110799 -0.035461 0.234850
-0.109833 -0.035505 0.235235
-0.109234 -0.035671 0.236414
-0.108271 -0.035719 0.236811
-0.107248 -0.035749 0.237075
-0.106701 -0.035939 0.238400
-0.105903 -0.036049 0.239179
-0.104961 -0.036111 0.239640
-0.104037 -0.036181 0.240145
-0.103185 -0.036277 0.240820
-0.102336 -0.036377 0.241513
-0.101335 -0.036425 0.241850
-0.100382 -0.036491 0.242307
-0.099701 -0.036659 0.243433
-0.098854 -0.036768 0.244168
-0.097938 -0.036855 0.244743
-0.097124 -0.036982 0.245585
-0.096421 -0.037155 0.246724
-0.095832 -0.037377 0.248183
-0.095768 -0.037812 0.251051
-0.095943 -0.038353 0.254618
-0.095834 -0.038793 0.257509
-0.095180 -0.039021 0.258986
-0.094774 -0.039358 0.261182
-0.094149 -0.039611 0.262820
-0.093944 -0.040051 0.265687
-0.093659 -0.040467 0.268396
-0.097169 -0.042557 0.282199
-0.095302 -0.042318 0.280547
-0.094097 -0.042369 0.280823
-0.092546 -0.042265 0.280058
-0.091574 -0.042425 0.281048
-0.090632 -0.042604 0.282158
-0.090521 -0.043186 0.285926
-0.090020 -0.043596 0.288553
-0.088985 -0.043756 0.289524
-0.087629 -0.043761 0.289463
-0.086509 -0.043885 0.290193
-0.085386 -0.044012 0.290935
-0.084188 -0.044104 0.291444
-0.082913 -0.044159 0.291699
-0.081670 -0.044232 0.292078
-0.080496 -0.044346 0.292724
-0.080639 -0.045202 0.298264
-0.079347 -0.045270 0.298600
-0.077790 -0.045187 0.297937
-0.076764 -0.045415 0.299322
-0.075295 -0.045384 0.299003
-0.073875 -0.045382 0.298873
-0.072694 -0.045530 0.299729
-0.071374 -0.045595 0.300037
-0.067610 -0.044070 0.289883
-0.066490 -0.044241 0.290887
-0.065158 -0.044275 0.290993
-0.063717 -0.044235 0.290611
-0.062436 -0.044306 0.290962
-0.061165 -0.044389 0.291383
-0.059564 -0.044230 0.290223
-0.058147 -0.044203 0.289930
-0.057142 -0.044496 0.291730
-0.055582 -0.044361 0.290730
-0.054096 -0.044279 0.290075
-0.052852 -0.044397 0.290731
-0.051512 -0.044438 0.290885
-0.050041 -0.044365 0.290294
-0.048717 -0.044422 0.290555
-0.047390 -0.044481 0.290824
-0.045917 -0.044400 0.290188
-0.044572 -0.044444 0.290365
-0.043287 -0.044551 0.290956
-0.041734 -0.044381 0.289743
-0.040130 -0.044143 0.288088
-0.038830 -0.044234 0.288579
-0.037482 -0.044276 0.288751
-0.036100 -0.044279 0.288678
-0.034947 -0.044575 0.290512
-0.030453 -0.040457 0.263589
-0.029288 -0.040595 0.264408
-0.027791 -0.040266 0.262185
-0.026663 -0.040466 0.263410
-0.025497 -0.040625 0.264369
-0.024073 -0.040369 0.262632
-0.022774 -0.040305 0.262143
-0.021559 -0.040391 0.262640
-0.020282 -0.040365 0.262406
-0.019030 -0.040388 0.262490
-0.018017 -0.040957 0.266135
-0.016978 -0.041551 0.269934
-0.015575 -0.041281 0.268125
-0.014344 -0.041455 0.269205
-0.013128 -0.041713 0.270838
-0.011577 -0.040847 0.265169
-0.010170 -0.040338 0.261828
-0.008936 -0.040469 0.262639
-0.007653 -0.040385 0.262061
-0.006390 -0.040392 0.262079
-0.005136 -0.040473 0.262576
-0.003881 -0.040595 0.263340
-0.002619 -0.040734 0.264225
-0.001341 -0.040655 0.263693
-0.000068 -0.040951 0.265600
0.001218 -0.041083 0.266448
0.002518 -0.041313 0.267930
0.003830 -0.041509 0.269199
0.005187 -0.041971 0.272195
0.006621 -0.042740 0.277191
0.007312 -0.039262 0.254640
0.008583 -0.039454 0.255896
0.009846 -0.039562 0.256609
0.011121 -0.039692 0.257468
0.012367 -0.039698 0.257527
0.013635 -0.039770 0.258015
0.014910 -0.039850 0.258557
0.016209 -0.039974 0.259394
0.017585 -0.040258 0.261265
0.018924 -0.040423 0.262374
0.020232 -0.040506 0.262948
0.021660 -0.040804 0.264928
0.023322 -0.041487 0.269407
0.024540 -0.041349 0.268556
0.025442 -0.040718 0.264512
0.026488 -0.040369 0.262292
0.027582 -0.040120 0.260731
0.028902 -0.040206 0.261347
0.030124 -0.040157 0.261083
0.031312 -0.040066 0.260555
0.032592 -0.040095 0.260810
0.033890 -0.040144 0.261192
0.035090 -0.040078 0.260831
0.036434 -0.040175 0.261528
0.037606 -0.040082 0.260996
0.039001 -0.040224 0.261995
0.040739 -0.040701 0.265175
0.042175 -0.040856 0.266263
0.043559 -0.040953 0.266976
0.044666 -0.040791 0.266001
0.046105 -0.040933 0.267011
0.047384 -0.040930 0.267072
0.048609 -0.040880 0.266833
0.050095 -0.041048 0.268010
0.051292 -0.040976 0.267627
0.052599 -0.040993 0.267825
0.053954 -0.041046 0.268258
0.055160 -0.040986 0.267956
0.056489 -0.041017 0.268249
0.057634 -0.040917 0.267680
0.059280 -0.041169 0.269415
0.060883 -0.041381 0.270894
0.062134 -0.041350 0.270778
0.063523 -0.041410 0.271261
0.064893 -0.041455 0.271646
0.066274 -0.041506 0.272066
0.067530 -0.041478 0.271969
0.068799 -0.041458 0.271927
0.070182 -0.041507 0.272333
0.071547 -0.041544 0.272657
0.072867 -0.041553 0.272800
0.074101 -0.041514 0.272627
0.075417 -0.041522 0.272756
0.076679 -0.041500 0.272691
0.077821 -0.041415 0.272207
0.079158 -0.041434 0.272408
0.080239 -0.041321 0.271738
0.081603 -0.041356 0.272033
0.082975 -0.041393 0.272343
0.084363 -0.041437 0.272696
0.085902 -0.041552 0.273519
0.087300 -0.041597 0.273873
0.088731 -0.041656 0.274317
0.090317 -0.041785 0.275219
0.095985 -0.043772 0.288358
0.099845 -0.044890 0.295771
0.099865 -0.044274 0.291758
0.101300 -0.044294 0.291929
0.102776 -0.044331 0.292211
0.104091 -0.044299 0.292027
0.105359 -0.044248 0.291715
0.106870 -0.044298 0.292071
0.108170 -0.044262 0.291845
0.109515 -0.044243 0.291737
0.110994 -0.044280 0.291981
0.112395 -0.044284 0.292009
0.113705 -0.044253 0.291799
0.115249 -0.044312 0.292177
0.116681 -0.044328 0.292261
0.118117 -0.044345 0.292348
0.119546 -0.044358 0.292405
0.121092 -0.044415 0.292738
0.122388 -0.044379 0.292456
0.123673 -0.044341 0.292147
0.125132 -0.044364 0.292240
0.126446 -0.044337 0.291990
0.127939 -0.044372 0.292143
0.129092 -0.044289 0.291513
0.130871 -0.044421 0.292286
0.132654 -0.044551 0.293038
0.134009 -0.044537 0.292829
0.135393 -0.044532 0.292673
0.136813 -0.044539 0.292586
0.138353 -0.044585 0.292741
0.139847 -0.044615 0.292782
0.141213 -0.044604 0.292542
0.142649 -0.044615 0.292437
0.144114 -0.044635 0.292377
0.145453 -0.044615 0.292049
0.147197 -0.044719 0.292516
0.148587 -0.044715 0.292259
0.149682 -0.044623 0.291415
0.151248 -0.044671 0.291477
0.152691 -0.044683 0.291285
-0.122132 -0.033824 0.229573
-0.121251 -0.033881 0.230157
-0.120168 -0.033882 0.230349
-0.119243 -0.033928 0.230839
-0.118226 -0.033949 0.231145
-0.117228 -0.033975 0.231480
-0.116358 -0.034040 0.232068
-0.115327 -0.034059 0.232329
-0.114406 -0.034110 0.232808
-0.113544 -0.034180 0.233408
-0.112651 -0.034242 0.233944
-0.111780 -0.034313 0.234526
-0.110799 -0.034350 0.234880
-0.109950 -0.034430 0.235513
-0.109088 -0.034507 0.236121
-0.108235 -0.034589 0.236755
-0.107309 -0.034649 0.237231
-0.106438 -0.034728 0.237831
-0.105754 -0.034871 0.238861
-0.104764 -0.034914 0.239204
-0.103877 -0.034994 0.239789
-0.103145 -0.035128 0.240737
-0.102242 -0.035206 0.241300
-0.101165 -0.035225 0.241452
-0.100401 -0.035355 0.242358
-0.099603 -0.035476 0.243196
-0.098723 -0.035570 0.243845
-0.097853 -0.035670 0.244529
-0.096954 -0.035761 0.245150
-0.096334 -0.035959 0.246497
-0.095668 -0.036145 0.247753
-0.095627 -0.036574 0.250671
-0.096091 -0.037210 0.255002
-0.095829 -0.037576 0.257484
-0.095297 -0.037845 0.259291
-0.094824 -0.038145 0.261304
-0.093911 -0.038274 0.262138
-0.093729 -0.038707 0.265055
-0.092463 -0.038699 0.264945
-0.095547 -0.040536 0.277461
-0.095735 -0.041178 0.281791
-0.093995 -0.040997 0.280486
-0.092537 -0.040937 0.279997
-0.091185 -0.040922 0.279819
-0.090401 -0.041164 0.281400
-0.089999 -0.041592 0.284237
-0.089834 -0.042143 0.287916
-0.089069 -0.042425 0.289751
-0.087638 -0.042394 0.289444
-0.086475 -0.042494 0.290029
-0.085454 -0.042668 0.291117
-0.084019 -0.042637 0.290806
-0.082884 -0.042760 0.291543
-0.081658 -0.042840 0.291980
-0.080157 -0.042776 0.291432
-0.079508 -0.043172 0.294018
-0.079388 -0.043874 0.298689
-0.077692 -0.043716 0.297495
-0.076669 -0.043937 0.298882
-0.075431 -0.044042 0.299475
-0.073859 -0.043951 0.298737
-0.072682 -0.044097 0.299606
-0.071363 -0.044160 0.299914
-0.067369 -0.042537 0.288776
-0.066347 -0.042763 0.290186
-0.065070 -0.042830 0.290520
-0.063799 -0.042904 0.290905
-0.062411 -0.042901 0.290763
-0.061124 -0.042969 0.291104
-0.059774 -0.042994 0.291156
-0.058295 -0.042927 0.290580
-0.056949 -0.042956 0.290656
-0.055642 -0.043017 0.290950
-0.054152 -0.042936 0.290283
-0.052786 -0.042952 0.290274
-0.051411 -0.042960 0.290214
-0.050093 -0.043020 0.290499
-0.048739 -0.043049 0.290587
-0.047334 -0.043035 0.290377
-0.045921 -0.043013 0.290114
-0.044654 -0.043129 0.290792
-0.043267 -0.043134 0.290715
-0.041771 -0.043027 0.289888
-0.040286 -0.042925 0.289097
-0.038939 -0.042967 0.289276
-0.037581 -0.043001 0.289403
-0.036121 -0.042916 0.288732
-0.034960 -0.043192 0.290497
-0.030977 -0.039862 0.268009
-0.029180 -0.039178 0.263329
-0.027900 -0.039157 0.263107
-0.026827 -0.039438 0.264920
-0.025418 -0.039229 0.263439
-0.024167 -0.039254 0.263536
-0.022941 -0.039326 0.263949
-0.021729 -0.039431 0.264580
-0.020483 -0.039485 0.264883
-0.019303 -0.039681 0.266130
-0.018130 -0.039920 0.267675
-0.016977 -0.040243 0.269784
-0.015602 -0.040053 0.268455
-0.014485 -0.040548 0.271722
-0.013193 -0.040602 0.272034
-0.011457 -0.039152 0.262280
-0.010118 -0.038867 0.260332
-0.008887 -0.038977 0.261032
-0.007573 -0.038701 0.259150
-0.006316 -0.038660 0.258844
-0.005081 -0.038773 0.259572
-0.003846 -0.038953 0.260754
-0.002589 -0.038988 0.260967
-0.001338 -0.039257 0.262756
-0.000070 -0.039709 0.265766
0.001228 -0.040197 0.269019
0.002507 -0.039869 0.266817
0.003849 -0.040429 0.270562
0.005194 -0.040724 0.272541
0.006405 -0.040064 0.268123
0.007299 -0.037975 0.254151
0.008599 -0.038296 0.256309
0.009875 -0.038445 0.257321
0.011134 -0.038498 0.257693
0.012358 -0.038436 0.257292
0.013635 -0.038532 0.257959
0.014909 -0.038603 0.258465
0.016193 -0.038688 0.259058
0.017460 -0.038724 0.259333
0.018757 -0.038814 0.259976
0.020110 -0.039005 0.261290
0.021669 -0.039546 0.264958
0.023272 -0.040106 0.268754
0.024443 -0.039899 0.267414
0.025388 -0.039362 0.263870
0.026542 -0.039187 0.262748
0.027692 -0.039020 0.261685
0.028944 -0.039006 0.261647
0.030135 -0.038915 0.261097
0.031357 -0.038869 0.260846
0.032642 -0.038901 0.261130
0.033918 -0.038922 0.261332
0.035145 -0.038886 0.261162
0.036245 -0.038716 0.260093
0.037655 -0.038879 0.261257
0.039188 -0.039154 0.263179
0.040519 -0.039215 0.263669
0.041596 -0.039035 0.262533
0.042986 -0.039150 0.263389
0.044220 -0.039121 0.263273
0.045315 -0.038974 0.262367
0.046582 -0.038978 0.262479
0.047857 -0.038989 0.262637
0.048970 -0.038871 0.261923
0.050155 -0.038814 0.261630
0.051680 -0.039017 0.263083
0.052972 -0.039038 0.263313
0.054616 -0.039312 0.265245
0.056043 -0.039420 0.266065
0.057353 -0.039443 0.266312
0.059277 -0.039879 0.269341
0.060822 -0.040046 0.270560
0.062043 -0.039997 0.270323
0.063491 -0.040094 0.271064
0.064924 -0.040177 0.271719
0.066240 -0.040187 0.271873
0.067508 -0.040167 0.271827
0.068788 -0.040155 0.271831
0.070095 -0.040159 0.271946
0.071478 -0.040205 0.272345
0.072846 -0.040241 0.272675
0.074109 -0.040220 0.272612
0.075430 -0.040230 0.272761
0.076762 -0.040245 0.272945
0.077895 -0.040157 0.272427
0.079189 -0.040154 0.272478
0.080157 -0.039988 0.271427
0.081546 -0.040034 0.271810
0.082858 -0.040041 0.271928
0.084048 -0.039990 0.271648
0.085522 -0.040074 0.272280
0.086665 -0.040003 0.271854
0.087855 -0.039954 0.271584
0.089322 -0.040032 0.272166
0.097844 -0.043224 0.293919
0.099089 -0.043156 0.293512
0.100071 -0.042978 0.292341
0.101415 -0.042957 0.292244
0.102471 -0.042817 0.291328
0.103698 -0.042751 0.290913
0.105477 -0.042911 0.292031
0.106885 -0.042918 0.292103
0.107687 -0.042685 0.290533
0.109402 -0.042815 0.291432
0.110888 -0.042853 0.291700
0.112046 -0.042765 0.291102
0.113519 -0.042798 0.291323
0.114765 -0.042746 0.290955
0.116022 -0.042699 0.290620
0.118086 -0.042946 0.292280
0.120034 -0.043146 0.293612
0.121192 -0.043061 0.292993
0.122374 -0.042986 0.292440
0.123922 -0.043040 0.292754
0.125211 -0.043003 0.292448
0.126445 -0.042949 0.292012
0.127825 -0.042945 0.291909
0.129148 -0.042922 0.291671
0.130512 -0.042913 0.291516
0.132487 -0.043103 0.292704
0.133973 -0.043132 0.292789
0.135466 -0.043162 0.292872
0.136814 -0.043146 0.292632
0.138501 -0.043236 0.293100
0.140028 -0.043275 0.293211
0.141394 -0.043264 0.292970
0.142869 -0.043286 0.292944
0.144180 -0.043258 0.292569
0.145653 -0.043279 0.292512
0.147208 -0.043324 0.292602
0.148698 -0.043349 0.292547
0.149944 -0.043303 0.291998
0.151323 -0.043295 0.291698
0.152772 -0.043308 0.291517
-0.121881 -0.032664 0.229156
-0.121041 -0.032729 0.229809
-0.120064 -0.032759 0.230199
-0.118970 -0.032757 0.230358
-0.118091 -0.032814 0.230925
-0.117199 -0.032869 0.231466
-0.116282 -0.032919 0.231957
-0.115363 -0.032968 0.232439
-0.114451 -0.033021 0.232936
-0.113624 -0.033099 0.233606
-0.112721 -0.033156 0.234121
-0.111819 -0.033215 0.234639
-0.110930 -0.033279 0.235185
-0.110043 -0.033345 0.235737
-0.109205 -0.033428 0.236399
-0.108326 -0.033499 0.236975
-0.107399 -0.033557 0.237448
-0.106482 -0.033620 0.237948
-0.105641 -0.033708 0.238621
-0.104780 -0.033791 0.239254
-0.103910 -0.033873 0.239876
-0.103004 -0.033946 0.240418
-0.102136 -0.034032 0.241057
-0.101311 -0.034136 0.241808
-0.100378 -0.034204 0.242306
-0.099555 -0.034312 0.243081
-0.098856 -0.034466 0.244173
-0.097999 -0.034568 0.244893
-0.097345 -0.034745 0.246137
-0.096543 -0.034872 0.247025
-0.096089 -0.035130 0.248836
-0.095619 -0.035389 0.250641
-0.095920 -0.035942 0.254535
-0.095936 -0.036402 0.257756
-0.095451 -0.036681 0.259693
-0.094656 -0.036847 0.260824
-0.094163 -0.037135 0.262819
-0.093593 -0.037401 0.264651
-0.093637 -0.037923 0.268286
-0.095109 -0.039045 0.276164
-0.094904 -0.039501 0.279318
-0.093934 -0.039646 0.280273
-0.092380 -0.039546 0.279491
-0.091149 -0.039583 0.279675
-0.090201 -0.039745 0.280741
-0.089687 -0.040107 0.283213
-0.089202 -0.040493 0.285848
-0.088672 -0.040870 0.288417
-0.087528 -0.040971 0.289036
-0.086303 -0.041038 0.289405
-0.085235 -0.041182 0.290320
-0.084018 -0.041258 0.290751
-0.082760 -0.041315 0.291050
-0.081509 -0.041379 0.291391
-0.080191 -0.041410 0.291497
-0.078912 -0.041462 0.291755
-0.078714 -0.042095 0.296091
-0.077598 -0.042251 0.297071
-0.076260 -0.042289 0.297223
-0.074956 -0.042349 0.297519
-0.073696 -0.042435 0.298007
-0.072417 -0.042514 0.298439
-0.071103 -0.042576 0.298746
-0.067854 -0.041458 0.290780
-0.066413 -0.041420 0.290398
-0.065062 -0.041439 0.290406
-0.063692 -0.041447 0.290338
-0.062424 -0.041522 0.290743
-0.061049 -0.041528 0.290662
-0.059675 -0.041535 0.290590
-0.058227 -0.041490 0.290153
-0.056882 -0.041517 0.290227
-0.055597 -0.041592 0.290624
-0.054151 -0.041546 0.290183
-0.052831 -0.041597 0.290425
-0.051351 -0.041522 0.289780
-0.049893 -0.041461 0.289241
-0.048614 -0.041549 0.289740
-0.047304 -0.041616 0.290092
-0.045803 -0.041513 0.289264
-0.044499 -0.041588 0.289675
-0.043238 -0.041710 0.290411
-0.041811 -0.041674 0.290058
-0.040173 -0.041419 0.288172
-0.038901 -0.041536 0.288885
-0.037551 -0.041575 0.289058
-0.036137 -0.041545 0.288744
-0.034920 -0.041747 0.290052
-0.030825 -0.038382 0.266588
-0.029320 -0.038090 0.264476
-0.027897 -0.037884 0.262965
-0.026862 -0.038211 0.265151
-0.025467 -0.038031 0.263832
-0.024153 -0.037960 0.263263
-0.022936 -0.038043 0.263769
-0.021680 -0.038067 0.263866
-0.020489 -0.038216 0.264831
-0.019319 -0.038427 0.266230
-0.018034 -0.038422 0.266137
-0.016970 -0.038923 0.269550
-0.015630 -0.038821 0.268790
-0.014515 -0.039313 0.272145
-0.013317 -0.039655 0.274462
-0.012284 -0.040615 0.281062
-0.010732 -0.039887 0.275981
-0.009418 -0.039963 0.276464
-0.008066 -0.039879 0.275845
-0.006768 -0.040077 0.277188
-0.005503 -0.040618 0.280900
-0.004048 -0.039657 0.274227
-0.002760 -0.040191 0.277896
-0.001390 -0.039393 0.272365
-0.000074 -0.039450 0.272741
0.001241 -0.039371 0.272185
0.002532 -0.038987 0.269528
0.003872 -0.039375 0.272201
0.005211 -0.039550 0.273412
0.006531 -0.039545 0.273385
0.007384 -0.037183 0.257059
0.008641 -0.037248 0.257522
0.009912 -0.037346 0.258216
0.011155 -0.037330 0.258122
0.012412 -0.037359 0.258343
0.013682 -0.037417 0.258766
0.014949 -0.037459 0.259084
0.016220 -0.037504 0.259421
0.017484 -0.037526 0.259608
0.018762 -0.037573 0.259968
0.020138 -0.037798 0.261566
0.021599 -0.038147 0.264023
0.023295 -0.038850 0.268936
0.024418 -0.038573 0.267064
0.025216 -0.037835 0.262007
0.026536 -0.037913 0.262601
0.027704 -0.037778 0.261724
0.028881 -0.037666 0.261006
0.030119 -0.037639 0.260879
0.031351 -0.037607 0.260717
0.032697 -0.037710 0.261495
0.034086 -0.037851 0.262547
0.035362 -0.037862 0.262693
0.036637 -0.037872 0.262831
0.037957 -0.037925 0.263274
0.039230 -0.037929 0.263381
0.040475 -0.037908 0.263308
0.041821 -0.037979 0.263881
0.043219 -0.038091 0.264742
0.044570 -0.038158 0.265287
0.045867 -0.038174 0.265487
0.047270 -0.038277 0.266287
0.048527 -0.038259 0.266246
0.049839 -0.038283 0.266503
0.051221 -0.038359 0.267122
0.052637 -0.038456 0.267888
0.053858 -0.038409 0.267652
0.055344 -0.038549 0.268717
0.056474 -0.038441 0.268049
0.057712 -0.038409 0.267920
0.059086 -0.038466 0.268413
0.060567 -0.038590 0.269368
0.061949 -0.038647 0.269856
0.063366 -0.038723 0.270475
0.064763 -0.038783 0.270990
0.066199 -0.038865 0.271650
0.067619 -0.038933 0.272221
0.069103 -0.039036 0.273027
0.070299 -0.038975 0.272687
0.071769 -0.039065 0.273407
0.073334 -0.039203 0.274456
0.074686 -0.039224 0.274691
0.075669 -0.039053 0.273580
0.076506 -0.038815 0.271992
0.077787 -0.038806 0.272009
0.078851 -0.038691 0.271276
0.079747 -0.038498 0.270000
0.081109 -0.038533 0.270318
0.082741 -0.038693 0.271513
0.084367 -0.038846 0.272650
0.085979 -0.038987 0.273706
0.087306 -0.038997 0.273839
0.088950 -0.039146 0.274943
0.090208 -0.039123 0.274841
0.097893 -0.041849 0.294044
0.099139 -0.041783 0.293636
0.101557 -0.042207 0.296662
0.101411 -0.041568 0.292215
0.102813 -0.041572 0.292285
0.103706 -0.041373 0.290923
0.105119 -0.041384 0.291029
0.106955 -0.041559 0.292286
0.108531 -0.041630 0.292805
0.109247 -0.041373 0.291015
0.110595 -0.041359 0.290926
0.112037 -0.041381 0.291081
0.113734 -0.041494 0.291876
0.115289 -0.041554 0.292289
0.116909 -0.041635 0.292847
0.118442 -0.041684 0.293170
0.119584 -0.041596 0.292523
0.121215 -0.041678 0.293064
0.122358 -0.041592 0.292418
0.123663 -0.041563 0.292162
0.125064 -0.041566 0.292125
0.126338 -0.041527 0.291789
0.127629 -0.041494 0.291487
0.129137 -0.041532 0.291674
0.130431 -0.041501 0.291366
0.131857 -0.041513 0.291347
0.133340 -0.041542 0.291442
0.134527 -0.041479 0.290881
0.136100 -0.041535 0.291147
0.137904 -0.041660 0.291882
0.139872 -0.041831 0.292931
0.141227 -0.041817 0.292674
0.142497 -0.041779 0.292234
0.144088 -0.041834 0.292440
0.145603 -0.041867 0.292471
0.147020 -0.041871 0.292292
0.148525 -0.041900 0.292272
0.149876 -0.041885 0.291934
0.151325 -0.041898 0.291775
0.152687 -0.041886 0.291433
-0.121796 -0.031551 0.229048
-0.120806 -0.031575 0.229413
-0.119842 -0.031606 0.229820
-0.118783 -0.031613 0.230040
-0.117741 -0.031624 0.230284
-0.116862 -0.031680 0.230841
-0.116094 -0.031768 0.231619
-0.115214 -0.031826 0.232177
-0.114310 -0.031878 0.232684
-0.113573 -0.031979 0.233534
-0.112689 -0.032040 0.234085
-0.111759 -0.032088 0.234540
-0.110885 -0.032155 0.235116
-0.109949 -0.032204 0.235560
-0.109132 -0.032290 0.236263
-0.108254 -0.032359 0.236837
-0.107344 -0.032420 0.237345
-0.106492 -0.032500 0.237986
-0.105627 -0.032577 0.238604
-0.104809 -0.032671 0.239334
-0.103929 -0.032748 0.239931
-0.103097 -0.032841 0.240644
-0.102306 -0.032950 0.241467
-0.101393 -0.033022 0.242008
-0.100547 -0.033117 0.242719
-0.099784 -0.033242 0.243642
-0.099049 -0.033380 0.244649
-0.098241 -0.033496 0.245495
-0.097433 -0.033614 0.246354
-0.096745 -0.033778 0.247538
-0.096275 -0.034022 0.249308
-0.095804 -0.034272 0.251117
-0.095500 -0.034590 0.253410
-0.095455 -0.035009 0.256452
-0.094991 -0.035285 0.258428
-0.095052 -0.035764 0.261896
-0.094563 -0.036047 0.263917
-0.094742 -0.036596 0.267878
-0.094164 -0.036862 0.269772
-0.093935 -0.037275 0.272728
-0.095242 -0.038317 0.280283
-0.093978 -0.038340 0.280377
-0.092439 -0.038249 0.279635
-0.091235 -0.038296 0.279902
-0.090030 -0.038345 0.280175
-0.089278 -0.038590 0.281881
-0.089114 -0.039101 0.285525
-0.088438 -0.039400 0.287614
-0.087416 -0.039551 0.288621
-0.086206 -0.039622 0.289034
-0.085124 -0.039754 0.289894
-0.084003 -0.039872 0.290649
-0.082704 -0.039908 0.290802
-0.081413 -0.039949 0.290992
-0.080358 -0.040109 0.292047
-0.078965 -0.040104 0.291893
-0.078777 -0.040721 0.296267
-0.077489 -0.040781 0.296591
-0.076407 -0.040955 0.297729
-0.075039 -0.040978 0.297779
-0.073490 -0.040902 0.297106
-0.072370 -0.041067 0.298176
-0.071058 -0.041126 0.298483
-0.067648 -0.039950 0.289825
-0.066482 -0.040078 0.290625
-0.065135 -0.040099 0.290656
-0.063766 -0.040107 0.290594
-0.062481 -0.040170 0.290929
-0.061116 -0.040184 0.290901
-0.059719 -0.040176 0.290723
-0.058249 -0.040118 0.290176
-0.056932 -0.040165 0.290393
-0.055613 -0.040213 0.290621
-0.054200 -0.040193 0.290357
-0.052868 -0.040235 0.290539
-0.051507 -0.040256 0.290571
-0.050120 -0.040257 0.290458
-0.048734 -0.040259 0.290361
-0.047385 -0.040293 0.290486
-0.045875 -0.040188 0.289619
-0.044554 -0.040247 0.289932
-0.043234 -0.040312 0.290285
-0.041796 -0.040266 0.289848
-0.040296 -0.040156 0.288949
-0.038948 -0.040195 0.289128
-0.037475 -0.040103 0.288362
-0.036113 -0.040128 0.288440
-0.034808 -0.040221 0.289009
-0.031126 -0.037460 0.269086
-0.029153 -0.036607 0.262869
-0.027856 -0.036563 0.262472
-0.026805 -0.036852 0.264472
-0.025386 -0.036641 0.262878
-0.024103 -0.036614 0.262611
-0.022869 -0.036663 0.262886
-0.021672 -0.036780 0.263658
-0.020463 -0.036890 0.264380
-0.019322 -0.037144 0.266141
-0.018218 -0.037513 0.268720
-0.017010 -0.037708 0.270061
-0.015706 -0.037703 0.269968
-0.014692 -0.038459 0.275327
-0.013405 -0.038576 0.276116
-0.012298 -0.039300 0.281248
-0.010945 -0.039313 0.281302
-0.009586 -0.039313 0.281259
-0.008245 -0.039392 0.281791
-0.006893 -0.039446 0.282145
-0.005510 -0.039303 0.281087
-0.004136 -0.039146 0.279941
-0.002765 -0.038889 0.278081
-0.001426 -0.039016 0.278969
-0.000076 -0.038524 0.275443
0.001249 -0.038328 0.274026
0.002536 -0.037771 0.270038
0.003870 -0.038055 0.272067
0.005194 -0.038117 0.272507
0.006436 -0.037677 0.269368
0.007433 -0.036187 0.258725
0.008657 -0.036076 0.257939
0.009927 -0.036158 0.258542
0.011198 -0.036226 0.259045
0.012433 -0.036177 0.258717
0.013702 -0.036224 0.259075
0.014971 -0.036265 0.259394
0.016230 -0.036276 0.259504
0.017527 -0.036365 0.260173
0.018808 -0.036411 0.260536
0.020149 -0.036559 0.261636
0.021474 -0.036663 0.262423
0.023010 -0.037096 0.265569
0.024279 -0.037074 0.265459
0.025157 -0.036487 0.261311
0.026560 -0.036683 0.262767
0.027744 -0.036571 0.262022
0.028937 -0.036480 0.261431
0.030084 -0.036342 0.260502
0.031383 -0.036391 0.260915
0.032724 -0.036481 0.261630
0.034025 -0.036523 0.262001
0.035355 -0.036592 0.262564
0.036596 -0.036567 0.262463
0.037818 -0.036525 0.262236
0.039156 -0.036595 0.262816
0.040428 -0.036600 0.262929
0.041704 -0.036609 0.263071
0.043104 -0.036723 0.263971
0.044295 -0.036657 0.263581
0.045908 -0.036933 0.265655
0.045919 -0.035942 0.258606
0.047113 -0.035904 0.258421
0.048104 -0.035717 0.257162
0.049308 -0.035694 0.257080
0.050342 -0.035552 0.256143
0.051519 -0.035515 0.255968
0.052941 -0.035645 0.256992
0.054330 -0.035747 0.257816
0.056551 -0.036380 0.262469
0.058420 -0.036764 0.265333
0.060189 -0.037070 0.267631
0.061709 -0.037212 0.268755
0.063271 -0.037374 0.270017
0.064592 -0.037390 0.270222
0.066012 -0.037461 0.270828
0.067522 -0.037580 0.271777
0.068787 -0.037560 0.271726
0.069975 -0.037500 0.271382
0.071408 -0.037571 0.271985
0.073109 -0.037778 0.273569
0.074074 -0.037604 0.272396
0.075059 -0.037446 0.271333
0.075766 -0.037156 0.269320
0.076437 -0.036860 0.267249
0.077357 -0.036691 0.266101
0.077607 -0.036214 0.262721
0.078800 -0.036187 0.262592
0.080132 -0.036222 0.262920
0.081234 -0.036155 0.262496
0.082917 -0.036344 0.263931
0.084416 -0.036448 0.264748
0.085790 -0.036495 0.265153
0.087522 -0.036691 0.266633
0.096830 -0.040012 0.290827
0.098061 -0.039949 0.290423
0.101622 -0.040824 0.296833
0.101504 -0.040217 0.292466
0.103090 -0.040293 0.293059
0.104429 -0.040271 0.292938
0.105754 -0.040244 0.292776
0.107090 -0.040223 0.292647
0.107795 -0.039967 0.290811
0.109965 -0.040255 0.292923
0.111172 -0.040187 0.292442
0.112207 -0.040060 0.291521
0.113611 -0.040066 0.291562
0.115447 -0.040222 0.292694
0.116822 -0.040216 0.292636
0.118182 -0.040204 0.292535
0.119519 -0.040186 0.292374
0.120721 -0.040123 0.291881
0.122287 -0.040180 0.292263
0.123690 -0.040184 0.292241
0.125063 -0.040178 0.292143
0.126335 -0.040140 0.291804
0.127587 -0.040096 0.291415
0.128998 -0.040103 0.291385
0.130272 -0.040068 0.291041
0.131692 -0.040077 0.291014
0.133122 -0.040089 0.290998
0.134661 -0.040134 0.291208
0.136410 -0.040240 0.291848
0.138496 -0.040442 0.293177
0.140046 -0.040485 0.293341
0.140949 -0.040342 0.292146
0.142462 -0.040374 0.292213
0.143900 -0.040385 0.292112
0.145438 -0.040424 0.292197
0.146941 -0.040452 0.292196
0.148376 -0.040461 0.292041
0.149723 -0.040446 0.291702
0.151103 -0.040440 0.291414
0.152611 -0.040468 0.291359
-0.121164 -0.030303 0.227908
-0.120614 -0.030435 0.229095
-0.119676 -0.030472 0.229548
-0.118505 -0.030449 0.229545
-0.117730 -0.030529 0.230304
-0.116845 -0.030581 0.230847
-0.116068 -0.030663 0.231603
-0.115171 -0.030715 0.232123
-0.114349 -0.030787 0.232794
-0.113509 -0.030857 0.233432
-0.112584 -0.030904 0.233895
-0.111773 -0.030984 0.234598
-0.110871 -0.031040 0.235110
-0.109990 -0.031103 0.235671
-0.109053 -0.031151 0.236111
-0.108236 -0.031235 0.236816
-0.107342 -0.031299 0.237357
-0.106352 -0.031335 0.237688
-0.105605 -0.031445 0.238567
-0.104755 -0.031526 0.239222
-0.104209 -0.031701 0.240586
-0.103260 -0.031757 0.241034
-0.102353 -0.031826 0.241583
-0.101702 -0.031978 0.242750
-0.100738 -0.032033 0.243180
-0.100382 -0.032286 0.245102
-0.099358 -0.032327 0.245413
-0.098930 -0.032565 0.247213
-0.098125 -0.032683 0.248099
-0.097546 -0.032881 0.249581
-0.096705 -0.032993 0.250414
-0.095973 -0.033146 0.251549
-0.096230 -0.033649 0.255335
-0.095635 -0.033863 0.256921
-0.095720 -0.034326 0.260395
-0.095142 -0.034561 0.262126
-0.095159 -0.035020 0.265561
-0.094728 -0.035325 0.267816
-0.094573 -0.035743 0.270921
-0.094516 -0.036209 0.274391
-0.093855 -0.036454 0.276173
-0.093752 -0.036925 0.279670
-0.092341 -0.036888 0.279309
-0.091224 -0.036968 0.279837
-0.090138 -0.037063 0.280474
-0.089172 -0.037212 0.281511
-0.088692 -0.037571 0.284134
-0.088341 -0.037996 0.287255
-0.087370 -0.038164 0.288427
-0.086087 -0.038199 0.288587
-0.085117 -0.038376 0.289821
-0.084068 -0.038523 0.290822
-0.082713 -0.038532 0.290780
-0.081692 -0.038700 0.291936
-0.080272 -0.038681 0.291681
-0.078746 -0.038610 0.291027
-0.078668 -0.039258 0.295796
-0.077384 -0.039318 0.296126
-0.076081 -0.039370 0.296397
-0.074786 -0.039428 0.296711
-0.073433 -0.039457 0.296806
-0.072206 -0.039557 0.297431
-0.070897 -0.039615 0.297738
-0.067980 -0.038758 0.291176
-0.066359 -0.038620 0.290013
-0.064999 -0.038631 0.289974
-0.063708 -0.038685 0.290252
-0.062349 -0.038699 0.290235
-0.061000 -0.038720 0.290268
-0.059777 -0.038824 0.290920
-0.058362 -0.038805 0.290655
-0.056997 -0.038820 0.290640
-0.055651 -0.038848 0.290731
-0.054296 -0.038872 0.290785
-0.052916 -0.038878 0.290712
-0.051474 -0.038838 0.290290
-0.050032 -0.038796 0.289857
-0.048668 -0.038814 0.289872
-0.047348 -0.038869 0.290168
-0.045960 -0.038870 0.290060
-0.044625 -0.038917 0.290293
-0.043281 -0.038959 0.290496
-0.041874 -0.038946 0.290289
-0.040523 -0.038985 0.290475
-0.037496 -0.038737 0.288417
-0.036110 -0.038737 0.288313
-0.034959 -0.038997 0.290154
-0.033594 -0.039031 0.290310
-0.029412 -0.035653 0.265098
-0.027743 -0.035154 0.261306
-0.026732 -0.035480 0.263645
-0.025453 -0.035466 0.263467
-0.024143 -0.035404 0.262932
-0.022942 -0.035506 0.263612
-0.021700 -0.035551 0.263881
-0.020722 -0.036063 0.267614
-0.019557 -0.036295 0.269268
-0.018474 -0.036723 0.272383
-0.017232 -0.036875 0.273449
-0.015765 -0.036533 0.270853
-0.014709 -0.037167 0.275503
-0.004199 -0.038358 0.284018
-0.002827 -0.038363 0.284035
-0.001454 -0.038367 0.284045
0.001248 -0.037041 0.274203
0.002534 -0.036458 0.269884
0.003883 -0.036874 0.272960
0.005221 -0.037000 0.273892
0.006424 -0.036315 0.268821
0.007534 -0.035420 0.262208
0.008729 -0.035124 0.260025
0.010007 -0.035196 0.260573
0.011266 -0.035194 0.260576
0.012497 -0.035111 0.259981
0.013732 -0.035053 0.259574
0.015010 -0.035108 0.260009
0.016280 -0.035135 0.260243
0.017525 -0.035108 0.260074
0.018792 -0.035126 0.260244
0.020134 -0.035272 0.261366
0.021533 -0.035496 0.263071
0.023076 -0.035919 0.266251
0.024348 -0.035897 0.266141
0.025245 -0.035352 0.262150
0.026733 -0.035647 0.264400
0.027875 -0.035475 0.263181
0.029045 -0.035353 0.262334
0.030180 -0.035199 0.261253
0.031451 -0.035210 0.261401
0.032763 -0.035264 0.261871
0.034108 -0.035349 0.262567
0.035392 -0.035366 0.262769
0.036736 -0.035440 0.263391
0.037992 -0.035427 0.263375
0.039284 -0.035447 0.263598
0.040605 -0.035492 0.264009
0.041714 -0.035353 0.263062
0.043301 -0.035617 0.265107
0.044530 -0.035579 0.264908
0.044254 -0.034374 0.256022
0.045442 -0.034340 0.255855
0.046639 -0.034316 0.255757
0.047859 -0.034308 0.255788
0.049117 -0.034328 0.256021
0.050217 -0.034239 0.255447
0.051509 -0.034282 0.255858
0.052987 -0.034444 0.257156
0.054552 -0.034654 0.258809
0.056401 -0.035031 0.261719
0.058065 -0.035279 0.263662
0.060110 -0.035742 0.267222
0.061867 -0.036019 0.269388
0.063362 -0.036135 0.270349
0.064679 -0.036147 0.270531
0.066043 -0.036184 0.270904
0.067479 -0.036259 0.271557
0.068790 -0.036265 0.271690
0.069988 -0.036212 0.271384
0.070976 -0.036054 0.270292
0.072198 -0.036019 0.270116
0.073113 -0.035834 0.268820
0.074101 -0.035691 0.267830
0.075100 -0.035558 0.266915
0.075517 -0.035158 0.263994
0.076410 -0.034990 0.262808
0.077264 -0.034810 0.261529
0.078135 -0.034642 0.260344
0.079416 -0.034659 0.260541
0.080841 -0.034737 0.261194
0.082533 -0.034926 0.262682
0.084226 -0.035110 0.264127
0.085135 -0.034966 0.263103
0.087055 -0.035235 0.265189
0.098041 -0.039114 0.294441
0.099287 -0.039052 0.294032
0.101038 -0.039188 0.295107
0.101537 -0.038841 0.292544
0.102738 -0.038768 0.292041
0.104019 -0.038728 0.291773
0.105233 -0.038663 0.291322
0.106546 -0.038636 0.291149
0.107812 -0.038594 0.290852
0.110808 -0.039163 0.295161
0.110473 -0.038556 0.290599
0.111821 -0.038544 0.290516
0.114021 -0.038822 0.292616
0.114383 -0.038475 0.289999
0.116806 -0.038822 0.292600
0.118150 -0.038806 0.292464
0.119394 -0.038758 0.292078
0.120899 -0.038794 0.292323
0.122016 -0.038707 0.291628
0.123448 -0.038721 0.291686
0.124969 -0.038761 0.291941
0.126275 -0.038735 0.291684
0.127711 -0.038749 0.291722
0.129093 -0.038747 0.291626
0.130268 -0.038683 0.291058
0.131920 -0.038760 0.291548
0.133305 -0.038759 0.291432
0.134150 -0.038602 0.290138
0.136264 -0.038809 0.291573
0.137887 -0.038874 0.291929
0.139349 -0.038892 0.291924
0.141038 -0.038973 0.292376
0.142312 -0.038940 0.291955
0.143895 -0.038990 0.292152
0.145242 -0.038976 0.291857
0.146784 -0.039014 0.291940
0.148168 -0.039009 0.291693
0.149559 -0.039007 0.291446
0.151049 -0.039030 0.291376
0.152383 -0.039013 0.290993
-0.120602 -0.029083 0.226899
-0.120049 -0.029209 0.228067
-0.119356 -0.029303 0.228976
-0.118240 -0.029294 0.229071
-0.117470 -0.029371 0.229832
-0.116665 -0.029442 0.230528
-0.116118 -0.029579 0.231739
-0.115196 -0.029622 0.232208
-0.114321 -0.029678 0.232769
-0.113490 -0.029747 0.233423
-0.112601 -0.029802 0.233958
-0.111742 -0.029866 0.234556
-0.110842 -0.029921 0.235073
-0.109977 -0.029986 0.235664
-0.109106 -0.030051 0.236246
-0.108236 -0.030117 0.236834
-0.107406 -0.030197 0.237516
-0.106581 -0.030279 0.238214
-0.105731 -0.030356 0.238865
-0.104868 -0.030430 0.239490
-0.104204 -0.030565 0.240583
-0.103594 -0.030719 0.241820
-0.102701 -0.030791 0.242410
-0.101807 -0.030865 0.243003
-0.101108 -0.031000 0.244076
-0.100554 -0.031183 0.245521
-0.099768 -0.031298 0.246423
-0.098891 -0.031387 0.247114
-0.098002 -0.031474 0.247783
-0.097035 -0.031537 0.248265
-0.097485 -0.032069 0.252425
-0.096561 -0.032156 0.253081
-0.096423 -0.032510 0.255836
-0.095490 -0.032601 0.256518
-0.095499 -0.033021 0.259776
-0.096259 -0.033715 0.265185
-0.095511 -0.033892 0.266524
-0.094818 -0.034093 0.268050
-0.094577 -0.034465 0.270909
-0.094627 -0.034954 0.274685
-0.093952 -0.035185 0.276433
-0.093362 -0.035455 0.278479
-0.092249 -0.035531 0.278997
-0.091232 -0.035647 0.279826
-0.090211 -0.035765 0.280667
-0.089253 -0.035912 0.281728
-0.088517 -0.036154 0.283535
-0.088118 -0.036543 0.286489
-0.087250 -0.036747 0.287988
-0.086094 -0.036834 0.288567
-0.085044 -0.036970 0.289525
-0.084029 -0.037126 0.290638
-0.082624 -0.037112 0.290418
-0.081357 -0.037161 0.290685
-0.080784 -0.037534 0.293484
-0.078263 -0.036999 0.289185
-0.078318 -0.037684 0.294422
-0.077571 -0.038001 0.296779
-0.075631 -0.037736 0.294581
-0.074437 -0.037839 0.295263
-0.073556 -0.038108 0.297235
-0.072009 -0.038036 0.296551
-0.070704 -0.038092 0.296858
-0.067685 -0.037208 0.289843
-0.066482 -0.037306 0.290481
-0.065179 -0.037351 0.290705
-0.063819 -0.037365 0.290687
-0.062516 -0.037413 0.290934
-0.061144 -0.037421 0.290873
-0.059824 -0.037463 0.291070
-0.058451 -0.037472 0.291016
-0.057031 -0.037451 0.290728
-0.055670 -0.037469 0.290744
-0.054303 -0.037484 0.290734
-0.052880 -0.037460 0.290425
-0.051547 -0.037500 0.290611
-0.050147 -0.037492 0.290434
-0.048723 -0.037465 0.290104
-0.047378 -0.037500 0.290258
-0.046000 -0.037510 0.290213
-0.044588 -0.037491 0.289955
-0.043256 -0.037542 0.290233
-0.041885 -0.037560 0.290266
-0.040128 -0.037222 0.287545
-0.039335 -0.037786 0.291790
-0.037221 -0.037075 0.286197
-0.035917 -0.037148 0.286663
-0.034577 -0.037188 0.286874
-0.031524 -0.035314 0.272320
-0.029257 -0.034194 0.263602
-0.027867 -0.034045 0.262369
-0.026868 -0.034382 0.264884
-0.025327 -0.034025 0.262055
-0.024089 -0.034059 0.262241
-0.022883 -0.034145 0.262833
-0.021542 -0.034027 0.261850
-0.020479 -0.034361 0.264353
-0.019353 -0.034627 0.266337
-0.018601 -0.035649 0.274134
-0.016927 -0.034924 0.268499
-0.015538 -0.034714 0.266830
-0.014263 -0.034747 0.267027
0.001223 -0.035027 0.268819
0.002513 -0.034884 0.267720
0.003830 -0.035083 0.269242
0.005165 -0.035308 0.270969
0.006355 -0.034647 0.265903
0.007602 -0.034465 0.264515
0.008773 -0.034046 0.261306
0.010064 -0.034136 0.262016
0.011303 -0.034048 0.261358
0.012536 -0.033963 0.260722
0.013792 -0.033950 0.260645
0.015073 -0.033996 0.261032
0.016305 -0.033932 0.260570
0.017609 -0.034016 0.261252
0.018910 -0.034083 0.261803
0.020357 -0.034389 0.264196
0.021611 -0.034351 0.263948
0.023362 -0.035064 0.269471
0.024649 -0.035043 0.269359
0.025527 -0.034470 0.265011
0.026900 -0.034588 0.265975
0.028055 -0.034429 0.264810
0.029240 -0.034317 0.264013
0.030300 -0.034076 0.262223
0.031644 -0.034160 0.262932
0.032880 -0.034125 0.262734
0.034231 -0.034208 0.263443
0.035590 -0.034292 0.264166
0.036870 -0.034298 0.264283
0.038189 -0.034338 0.264668
0.039471 -0.034343 0.264787
0.040622 -0.034237 0.264050
0.041926 -0.034263 0.264333
0.043332 -0.034367 0.265226
0.044561 -0.034330 0.265027
0.044457 -0.033296 0.257129
0.045599 -0.033227 0.256676
0.046778 -0.033187 0.256453
0.047964 -0.033154 0.256286
0.049138 -0.033114 0.256071
0.050348 -0.033101 0.256056
0.051625 -0.033130 0.256373
0.052808 -0.033100 0.256229
0.054007 -0.033080 0.256168
0.055522 -0.033251 0.257583
0.057088 -0.033444 0.259171
0.059136 -0.033905 0.262837
0.061394 -0.034465 0.267275
0.063236 -0.034774 0.269759
0.064566 -0.034793 0.270008
0.065839 -0.034782 0.270017
0.067350 -0.034895 0.270986
0.068638 -0.034890 0.271041
0.069850 -0.034848 0.270803
0.070965 -0.034759 0.270205
0.071792 -0.034535 0.268553
0.073054 -0.034524 0.268558
0.074306 -0.034510 0.268532
0.074815 -0.034156 0.265862
0.075501 -0.033894 0.263903
0.075705 -0.033427 0.260350
0.076967 -0.033435 0.260488
0.078191 -0.033427 0.260498
0.079049 -0.033265 0.259307
0.080635 -0.033409 0.260500
0.082347 -0.033601 0.262064
0.083888 -0.033718 0.263040
0.084890 -0.033618 0.262322
0.086617 -0.033804 0.263833
0.095948 -0.036909 0.288132
0.097166 -0.036851 0.287731
0.100461 -0.037570 0.293403
0.101131 -0.037302 0.291356
0.102678 -0.037360 0.291856
0.103870 -0.037289 0.291342
0.105002 -0.037198 0.290672
0.106496 -0.037237 0.291004
0.107520 -0.037112 0.290054
0.109385 -0.037277 0.291365
0.110625 -0.037228 0.290996
0.112444 -0.037372 0.292133
0.113207 -0.037166 0.290527
0.114987 -0.037295 0.291533
0.116598 -0.037366 0.292084
0.118285 -0.037460 0.292802
0.119445 -0.037387 0.292210
0.120565 -0.037303 0.291525
0.122203 -0.037380 0.292087
0.123441 -0.037333 0.291685
0.124815 -0.037329 0.291597
0.126312 -0.037361 0.291790
0.127660 -0.037348 0.291627
0.129067 -0.037353 0.291590
0.130499 -0.037365 0.291601
0.131956 -0.037384 0.291656
0.133397 -0.037398 0.291663
0.134848 -0.037414 0.291679
0.136227 -0.037411 0.291531
0.137622 -0.037411 0.291405
0.138983 -0.037403 0.291197
0.140543 -0.037448 0.291394
0.141921 -0.037444 0.291199
0.143526 -0.037499 0.291452
0.145069 -0.037537 0.291560
0.146696 -0.037596 0.291818
0.148005 -0.037573 0.291428
0.149236 -0.037531 0.290876
0.150813 -0.037575 0.290984
0.152301 -0.037598 0.290902
-0.121266 -0.028158 0.228193
-0.120331 -0.028191 0.228645
-0.119422 -0.028231 0.229144
-0.118548 -0.028280 0.229708
-0.117443 -0.028275 0.229816
-0.116665 -0.028349 0.230563
-0.115891 -0.028425 0.231319
-0.115019 -0.028479 0.231880
-0.114220 -0.028552 0.232592
-0.113332 -0.028603 0.233124
-0.112601 -0.028696 0.233983
-0.111699 -0.028747 0.234491
-0.110806 -0.028801 0.235017
-0.110005 -0.028880 0.235744
-0.109033 -0.028916 0.236106
-0.108183 -0.028985 0.236736
-0.107396 -0.029073 0.237509
-0.106487 -0.029129 0.238016
-0.105644 -0.029205 0.238679
-0.104949 -0.029323 0.239685
-0.104925 -0.029634 0.242257
-0.104179 -0.029746 0.243193
-0.103265 -0.029811 0.243744
-0.102668 -0.029971 0.245062
-0.101731 -0.030033 0.245582
-0.100844 -0.030112 0.246230
-0.100235 -0.030277 0.247576
-0.099550 -0.030423 0.248755
-0.098718 -0.030527 0.249589
-0.098509 -0.030828 0.252030
-0.098033 -0.031052 0.253836
-0.096962 -0.031091 0.254123
-0.096730 -0.031402 0.256637
-0.096059 -0.031578 0.258033
-0.096944 -0.032276 0.263692
-0.096164 -0.032431 0.264906
-0.095367 -0.032584 0.266101
-0.095022 -0.032898 0.268604
-0.094544 -0.033173 0.270791
-0.094463 -0.033598 0.274185
-0.093949 -0.033877 0.276395
-0.093337 -0.034129 0.278373
-0.092324 -0.034240 0.279193
-0.091384 -0.034381 0.280261
-0.090296 -0.034470 0.280897
-0.089296 -0.034595 0.281828
-0.088501 -0.034805 0.283445
-0.088207 -0.035222 0.286738
-0.087276 -0.035393 0.288028
-0.086157 -0.035492 0.288732
-0.085472 -0.035776 0.290935
-0.084665 -0.036018 0.292790
-0.083207 -0.035986 0.292416
-0.082059 -0.036089 0.293140
-0.081035 -0.036252 0.294343
-0.078813 -0.035875 0.291164
-0.078520 -0.036378 0.295123
-0.077074 -0.036356 0.294820
-0.076284 -0.036647 0.297060
-0.074987 -0.036702 0.297380
-0.073002 -0.036416 0.294935
-0.072365 -0.036804 0.297950
-0.071054 -0.036859 0.298259
-0.067834 -0.035905 0.290412
-0.066423 -0.035888 0.290153
-0.065246 -0.036000 0.290932
-0.063925 -0.036036 0.291092
-0.062525 -0.036028 0.290902
-0.061223 -0.036078 0.291173
-0.059898 -0.036116 0.291353
-0.058511 -0.036117 0.291238
-0.057095 -0.036101 0.290978
-0.055680 -0.036084 0.290712
-0.054282 -0.036077 0.290538
-0.052935 -0.036105 0.290638
-0.051551 -0.036109 0.290548
-0.050167 -0.036113 0.290457
-0.048766 -0.036106 0.290275
-0.047426 -0.036143 0.290457
-0.046034 -0.036142 0.290333
-0.044670 -0.036165 0.290398
-0.043330 -0.036208 0.290631
-0.041916 -0.036191 0.290383
-0.040256 -0.035953 0.288363
-0.039372 -0.036415 0.291959
-0.037005 -0.035490 0.284439
-0.035923 -0.035774 0.286609
-0.034427 -0.035651 0.285530
-0.032092 -0.034613 0.277124
-0.030548 -0.034376 0.275128
-0.029275 -0.034436 0.275524
-0.028060 -0.034573 0.276532
-0.026776 -0.034634 0.276940
-0.025290 -0.034428 0.275210
-0.023981 -0.034452 0.275327
-0.022821 -0.034707 0.277288
-0.021437 -0.034631 0.276609
-0.020156 -0.034723 0.277274
-0.018973 -0.035009 0.279494
-0.017526 -0.034814 0.277878
-0.015954 -0.034318 0.273860
-0.014638 -0.034334 0.273932
0.001222 -0.033759 0.268981
0.002508 -0.033544 0.267263
0.003856 -0.034030 0.271132
0.005172 -0.034051 0.271303
0.006375 -0.033475 0.266720
0.007668 -0.033481 0.266769
0.008852 -0.033080 0.263591
0.010095 -0.032976 0.262771
0.011356 -0.032944 0.262539
0.012559 -0.032767 0.261151
0.013852 -0.032835 0.261713
0.015115 -0.032828 0.261686
0.016387 -0.032838 0.261801
0.017701 -0.032927 0.262544
0.019015 -0.033002 0.263186
0.020352 -0.033106 0.264053
0.021650 -0.033139 0.264359
0.023317 -0.033699 0.268880
0.024534 -0.033585 0.268022
0.025607 -0.033296 0.265765
0.027041 -0.033481 0.267298
0.028242 -0.033373 0.266500
0.029422 -0.033251 0.265588
0.030520 -0.033051 0.264055
0.031755 -0.033008 0.263778
0.033096 -0.033075 0.264385
0.034377 -0.033080 0.264497
0.035618 -0.033047 0.264306
0.036975 -0.033120 0.264966
0.038213 -0.033085 0.264763
0.039604 -0.033180 0.265609
0.040720 -0.033047 0.264622
0.041976 -0.033031 0.264580
0.043436 -0.033172 0.265794
0.044668 -0.033136 0.265594
0.044422 -0.032036 0.256862
0.045659 -0.032036 0.256952
0.046791 -0.031965 0.256468
0.048008 -0.031953 0.256462
0.049144 -0.031890 0.256044
0.050376 -0.031890 0.256139
0.051571 -0.031868 0.256051
0.052744 -0.031833 0.255864
0.053896 -0.031788 0.255590
0.055217 -0.031841 0.256112
0.056983 -0.032145 0.258643
0.059402 -0.032795 0.263970
0.061594 -0.033295 0.268091
0.063302 -0.033518 0.269989
0.064593 -0.033517 0.270072
0.065972 -0.033560 0.270515
0.067355 -0.033603 0.270961
0.068770 -0.033660 0.271516
0.070009 -0.033631 0.271376
0.071055 -0.033512 0.270504
0.071978 -0.033340 0.269207
0.072786 -0.033122 0.267534
0.074338 -0.033243 0.268607
0.074851 -0.032905 0.265954
0.074906 -0.032379 0.261786
0.075186 -0.031966 0.258531
0.076713 -0.032088 0.259596
0.077528 -0.031914 0.258257
0.078556 -0.031831 0.257660
0.079774 -0.031826 0.257694
0.081141 -0.031880 0.258197
0.082546 -0.031947 0.258807
0.083822 -0.031963 0.259000
0.085056 -0.031963 0.259055
0.086172 -0.031919 0.258755
0.097134 -0.035472 0.287614
0.101501 -0.036551 0.296422
0.101466 -0.036037 0.292304
0.102783 -0.036010 0.292137
0.104347 -0.036070 0.292665
0.105500 -0.035988 0.292038
0.106883 -0.035986 0.292049
0.108217 -0.035967 0.291926
0.109523 -0.035939 0.291726
0.111006 -0.035970 0.291994
0.112071 -0.035866 0.291161
0.113452 -0.035865 0.291155
0.115032 -0.035925 0.291648
0.116602 -0.035981 0.292097
0.118100 -0.036014 0.292351
0.119164 -0.035916 0.291530
0.120506 -0.035902 0.291393
0.121874 -0.035896 0.291313
0.123487 -0.035962 0.291807
0.124954 -0.035984 0.291939
0.126269 -0.035962 0.291707
0.127654 -0.035961 0.291632
0.129006 -0.035951 0.291475
0.130229 -0.035905 0.291021
0.132021 -0.036015 0.291826
0.133091 -0.035928 0.291023
0.134736 -0.035997 0.291470
0.136281 -0.036037 0.291680
0.137788 -0.036067 0.291792
0.139218 -0.036077 0.291729
0.140754 -0.036113 0.291872
0.142153 -0.036114 0.291717
0.143636 -0.036136 0.291722
0.145083 -0.036148 0.291638
0.146717 -0.036207 0.291912
0.148014 -0.036182 0.291500
0.149421 -0.036184 0.291294
0.150882 -0.036199 0.291178
0.152482 -0.036246 0.291310
-0.121193 -0.027056 0.228097
-0.120383 -0.027116 0.228786
-0.119480 -0.027156 0.229294
-0.118587 -0.027199 0.229820
-0.117649 -0.027233 0.230254
-0.116818 -0.027292 0.230897
-0.116064 -0.027370 0.231695
-0.115075 -0.027394 0.232023
-0.114252 -0.027459 0.232685
-0.113473 -0.027535 0.233440
-0.112597 -0.027589 0.233999
-0.111820 -0.027669 0.234766
-0.111136 -0.027774 0.235740
-0.110308 -0.027844 0.236412
-0.109440 -0.027905 0.237006
-0.108771 -0.028020 0.238039
-0.107986 -0.028106 0.238828
-0.107117 -0.028172 0.239438
-0.106387 -0.028277 0.240368
-0.105664 -0.028385 0.241327
-0.105065 -0.028530 0.242587
-0.104241 -0.028616 0.243343
-0.103685 -0.028779 0.244742
-0.102873 -0.028873 0.245553
-0.101886 -0.028919 0.245956
-0.101138 -0.029036 0.246948
-0.100389 -0.029155 0.247954
-0.100027 -0.029390 0.249944
-0.098526 -0.029293 0.249098
-0.099767 -0.030018 0.255241
-0.098600 -0.030027 0.255295
-0.099527 -0.030682 0.260832
-0.098606 -0.030777 0.261601
-0.097820 -0.030917 0.262749
-0.097051 -0.031066 0.263967
-0.096390 -0.031254 0.265511
-0.095814 -0.031475 0.267331
-0.095072 -0.031646 0.268724
-0.094837 -0.031993 0.271606
-0.094591 -0.032346 0.274532
-0.094045 -0.032605 0.276653
-0.093564 -0.032893 0.279022
-0.092711 -0.033058 0.280336
-0.091628 -0.033144 0.280978
-0.090614 -0.033257 0.281853
-0.089746 -0.033429 0.283214
-0.088835 -0.033590 0.284478
-0.088076 -0.033813 0.286273
-0.087528 -0.034126 0.288820
-0.086627 -0.034310 0.290264
-0.085814 -0.034534 0.292053
-0.084671 -0.034631 0.292761
-0.083483 -0.034713 0.293338
-0.082210 -0.034762 0.293630
-0.081054 -0.034862 0.294360
-0.079997 -0.035009 0.295483
-0.078720 -0.035064 0.295819
-0.077309 -0.035060 0.295662
-0.076024 -0.035114 0.295989
-0.074669 -0.035137 0.296059
-0.073785 -0.035387 0.298036
-0.072174 -0.035291 0.297098
-0.070867 -0.035343 0.297406
-0.067786 -0.034495 0.290138
-0.066544 -0.034567 0.290614
-0.065221 -0.034599 0.290752
-0.063870 -0.034616 0.290771
-0.062514 -0.034632 0.290777
-0.061095 -0.034613 0.290490
-0.059778 -0.034653 0.290691
-0.058493 -0.034713 0.291069
-0.057034 -0.034671 0.290585
-0.055712 -0.034712 0.290803
-0.054318 -0.034709 0.290649
-0.052928 -0.034708 0.290519
-0.051564 -0.034725 0.290534
-0.050143 -0.034704 0.290236
-0.048768 -0.034713 0.290194
-0.047414 -0.034740 0.290296
-0.046035 -0.034749 0.290254
-0.044686 -0.034782 0.290411
-0.043237 -0.034736 0.289914
-0.041864 -0.034751 0.289926
-0.039820 -0.034190 0.285140
-0.039853 -0.035438 0.295433
-0.037084 -0.034193 0.284951
-0.035707 -0.034186 0.284788
-0.033839 -0.033689 0.280548
-0.032157 -0.033344 0.277584
-0.030762 -0.033280 0.276955
-0.029579 -0.033450 0.278280
-0.028310 -0.033534 0.278895
-0.027011 -0.033590 0.279270
-0.025527 -0.033409 0.277685
-0.024168 -0.033381 0.277373
-0.022900 -0.033482 0.278135
-0.021558 -0.033481 0.278059
-0.020200 -0.033454 0.277766
-0.018970 -0.033650 0.279329
-0.017543 -0.033502 0.278034
-0.015888 -0.032856 0.272613
-0.012310 -0.030513 0.253081
-0.011091 -0.030525 0.253135
-0.009843 -0.030451 0.252479
-0.008703 -0.030736 0.254807
-0.007513 -0.030909 0.256206
-0.006300 -0.031039 0.257248
-0.005051 -0.031012 0.256999
-0.003814 -0.031063 0.257400
-0.002575 -0.031142 0.258035
-0.001344 -0.031565 0.261520
-0.000080 -0.031967 0.264837
0.001202 -0.031968 0.264834
0.002481 -0.031921 0.264436
0.003842 -0.032612 0.270160
0.005152 -0.032620 0.270226
0.006418 -0.032409 0.268486
0.007703 -0.032344 0.267952
0.008921 -0.032058 0.265596
0.010192 -0.032010 0.265218
0.011447 -0.031930 0.264573
0.012712 -0.031891 0.264272
0.013991 -0.031889 0.264278
0.015263 -0.031874 0.264186
0.016589 -0.031965 0.264974
0.017831 -0.031892 0.264406
0.019233 -0.032097 0.266139
0.020535 -0.032118 0.266359
0.021704 -0.031942 0.264945
0.023321 -0.032407 0.268850
0.024585 -0.032359 0.268505
0.025648 -0.032065 0.266117
0.027122 -0.032288 0.268027
0.028338 -0.032196 0.267330
0.029455 -0.032007 0.265816
0.030663 -0.031926 0.265215
0.031923 -0.031905 0.265108
0.033295 -0.031993 0.265909
0.034521 -0.031939 0.265534
0.035822 -0.031956 0.265750
0.037179 -0.032020 0.266360
0.038361 -0.031933 0.265717
0.039692 -0.031973 0.266129
0.041014 -0.032003 0.266463
0.042021 -0.031793 0.264797
0.043382 -0.031855 0.265401
0.044432 -0.031691 0.264125
0.044595 -0.030922 0.257800
0.045783 -0.030886 0.257591
0.047234 -0.031024 0.258831
0.048241 -0.030871 0.257649
0.049380 -0.030809 0.257218
0.050630 -0.030816 0.257372
0.051827 -0.030792 0.257263
0.052982 -0.030745 0.256961
0.054193 -0.030732 0.256943
0.055577 -0.030814 0.257730
0.057074 -0.030955 0.259003
0.059208 -0.031428 0.263055
0.061507 -0.031967 0.267663
