ply
format ascii 1.0
element vertex 1679
property float x
property float y
property float z
end_header
-0.133357 -0.079278 0.293336
-0.132134 -0.079375 0.293863
-0.130610 -0.080142 0.297010
-0.129372 -0.080243 0.297524
-0.127426 -0.079902 0.296391
-0.125514 -0.079575 0.295299
-0.124037 -0.079520 0.295207
-0.122871 -0.079665 0.295850
-0.121399 -0.079613 0.295753
-0.119972 -0.079589 0.295755
-0.118603 -0.079605 0.295895
-0.117201 -0.079598 0.295943
-0.115686 -0.079513 0.295694
-0.113833 -0.079192 0.294559
-0.111413 -0.078463 0.291901
-0.109895 -0.078359 0.291561
-0.108350 -0.078233 0.291133
-0.107160 -0.078364 0.291652
-0.105613 -0.078234 0.291197
-0.104084 -0.078113 0.290773
-0.102834 -0.078202 0.291121
-0.101607 -0.078311 0.291538
-0.100057 -0.078171 0.291025
-0.098721 -0.078196 0.291122
-0.097565 -0.078367 0.291757
-0.096137 -0.078321 0.291580
-0.094766 -0.078320 0.291569
-0.091160 -0.076446 0.284579
-0.090774 -0.077256 0.287577
-0.092874 -0.080239 0.298659
-0.091329 -0.080117 0.298176
-0.089001 -0.079292 0.295079
-0.088947 -0.080500 0.299540
-0.087441 -0.080411 0.299175
-0.086150 -0.080521 0.299544
-0.085588 -0.081327 0.302499
-0.084223 -0.081384 0.302667
-0.082923 -0.081507 0.303076
-0.082266 -0.082277 0.305890
-0.080204 -0.081646 0.303491
-0.079083 -0.081967 0.304628
-0.077951 -0.082286 0.305759
-0.076187 -0.081940 0.304413
-0.074827 -0.082023 0.304659
-0.074095 -0.082811 0.307525
-0.068836 -0.078470 0.291341
-0.067442 -0.078448 0.291197
-0.066057 -0.078435 0.291086
-0.064777 -0.078550 0.291447
-0.063462 -0.078626 0.291665
-0.062080 -0.078621 0.291577
-0.060714 -0.078637 0.291569
-0.059378 -0.078693 0.291708
-0.058009 -0.078707 0.291692
-0.056497 -0.078523 0.290942
-0.055222 -0.078667 0.291408
-0.053853 -0.078682 0.291392
-0.052471 -0.078678 0.291307
-0.051163 -0.078789 0.291648
-0.049801 -0.078819 0.291692
-0.048432 -0.078841 0.291704
-0.047033 -0.078813 0.291531
-0.045638 -0.078791 0.291382
-0.044278 -0.078829 0.291455
-0.042898 -0.078835 0.291408
-0.041359 -0.078537 0.290240
-0.039492 -0.077575 0.286624
-0.040136 -0.081653 0.301623
-0.038733 -0.081716 0.301789
-0.035775 -0.078375 0.289390
-0.034344 -0.078247 0.288855
-0.030395 -0.072133 0.266231
-0.029026 -0.071877 0.265231
-0.027858 -0.072117 0.266066
-0.026574 -0.072069 0.265836
-0.025263 -0.071934 0.265291
-0.024041 -0.072056 0.265691
-0.022770 -0.072036 0.265574
-0.021462 -0.071889 0.264987
-0.020174 -0.071793 0.264590
-0.018907 -0.071768 0.264456
-0.017623 -0.071669 0.264051
-0.017476 -0.076533 0.281929
-0.016155 -0.076640 0.282288
-0.014875 -0.076980 0.283502
-0.013431 -0.076451 0.281517
-0.011333 -0.071666 0.263870
-0.010039 -0.071416 0.262919
-0.008818 -0.071681 0.263870
-0.007530 -0.071404 0.262826
-0.006276 -0.071402 0.262794
-0.005040 -0.071645 0.263671
-0.003783 -0.071679 0.263776
-0.002534 -0.071948 0.264748
-0.001275 -0.072196 0.265648
-0.000007 -0.072345 0.266182
0.001272 -0.072871 0.268108
0.002578 -0.073594 0.270759
0.003866 -0.073517 0.270470
0.005215 -0.074337 0.273482
0.006509 -0.074206 0.273000
0.007525 -0.071472 0.262942
0.008800 -0.071632 0.263533
0.010079 -0.071777 0.264071
0.011247 -0.071190 0.261917
0.012535 -0.071403 0.262709
0.013819 -0.071555 0.263280
0.015118 -0.071752 0.264015
0.016416 -0.071917 0.264636
0.017676 -0.071900 0.264589
0.018971 -0.072021 0.265051
0.020387 -0.072556 0.267038
0.021984 -0.073632 0.271022
0.023273 -0.073617 0.270991
0.024594 -0.073698 0.271314
0.025959 -0.073896 0.272068
0.026581 -0.072062 0.265343
0.027739 -0.071780 0.264332
0.029021 -0.071831 0.264550
0.030116 -0.071434 0.263119
0.031386 -0.071467 0.263272
0.032645 -0.071472 0.263325
0.033957 -0.071588 0.263789
0.035216 -0.071588 0.263824
0.036550 -0.071738 0.264411
0.037922 -0.071948 0.265223
0.039151 -0.071881 0.265014
0.040677 -0.072347 0.266773
0.041826 -0.072135 0.266031
0.043356 -0.072572 0.267684
0.044459 -0.072290 0.266686
0.044957 -0.071068 0.262216
0.046164 -0.071002 0.262014
0.047179 -0.070652 0.260761
0.048122 -0.070214 0.259188
0.049284 -0.070111 0.258848
0.050480 -0.070059 0.258694
0.051759 -0.070122 0.258968
0.053063 -0.070215 0.259351
0.054395 -0.070340 0.259852
0.055784 -0.070532 0.260601
0.057546 -0.071177 0.263022
0.059657 -0.072217 0.266901
0.061648 -0.073070 0.270092
0.063299 -0.073495 0.271699
0.065025 -0.073988 0.273556
0.066591 -0.074282 0.274679
0.068005 -0.074399 0.275143
0.069467 -0.074563 0.275783
0.070823 -0.074610 0.275985
0.071810 -0.074272 0.274765
0.073016 -0.074170 0.274411
0.073383 -0.073233 0.270970
0.074401 -0.072968 0.270009
0.075331 -0.072626 0.268764
0.075275 -0.071361 0.264096
0.076135 -0.070991 0.262742
0.076623 -0.070293 0.260167
0.077592 -0.070051 0.259279
0.078898 -0.070116 0.259523
0.080188 -0.070164 0.259703
0.081855 -0.070536 0.261080
0.083533 -0.070907 0.262445
0.084718 -0.070854 0.262240
0.086262 -0.071098 0.263130
0.087762 -0.071300 0.263860
0.099360 -0.079583 0.294492
0.100632 -0.079482 0.294087
0.101706 -0.079227 0.293113
0.103108 -0.079233 0.293094
0.104707 -0.079388 0.293622
0.105870 -0.079212 0.292922
0.107286 -0.079227 0.292922
0.108633 -0.079192 0.292731
0.110152 -0.079281 0.292993
0.111510 -0.079254 0.292819
0.112868 -0.079227 0.292640
0.114231 -0.079204 0.292467
0.115689 -0.079247 0.292531
0.117477 -0.079513 0.293408
0.119197 -0.079726 0.294084
0.120488 -0.079651 0.293689
0.121958 -0.079695 0.293722
0.123488 -0.079776 0.293886
0.124843 -0.079744 0.293623
0.126287 -0.079768 0.293559
0.127739 -0.079797 0.293501
0.129298 -0.079891 0.293675
0.130888 -0.080002 0.293900
0.132311 -0.080010 0.293735
0.133806 -0.080061 0.293717
0.135444 -0.080195 0.293992
0.137052 -0.080309 0.294182
0.138216 -0.080163 0.293406
0.139757 -0.080236 0.293421
0.141425 -0.080381 0.293683
0.142522 -0.080200 0.292745
0.144819 -0.080692 0.294247
0.146490 -0.080829 0.294437
0.148038 -0.080896 0.294356
0.149663 -0.081003 0.294406
0.151237 -0.081081 0.294334
0.152289 -0.080880 0.293232
0.153734 -0.080890 0.292877
0.155240 -0.080931 0.292620
-0.151817 -0.078124 0.291183
-0.146790 -0.076234 0.284452
-0.147902 -0.077526 0.289580
-0.148128 -0.078375 0.293043
-0.146671 -0.078340 0.293194
-0.144888 -0.078129 0.292669
-0.143772 -0.078277 0.293478
-0.142603 -0.078399 0.294177
-0.140583 -0.078052 0.293101
-0.137562 -0.077136 0.289874
-0.138010 -0.078166 0.293951
-0.136885 -0.078317 0.294715
-0.133993 -0.077450 0.291634
-0.131873 -0.077017 0.290171
-0.125659 -0.074158 0.279554
-0.125281 -0.074719 0.281816
-0.125802 -0.075834 0.286159
-0.124325 -0.075756 0.285995
-0.123377 -0.076002 0.287048
-0.122658 -0.076396 0.288649
-0.121592 -0.076581 0.289453
-0.120407 -0.076694 0.289979
-0.119400 -0.076925 0.290941
-0.117930 -0.076859 0.290776
-0.116825 -0.077032 0.291507
-0.115341 -0.076957 0.291291
-0.114161 -0.077085 0.291838
-0.113104 -0.077301 0.292710
-0.111842 -0.077379 0.293056
-0.109947 -0.077017 0.291728
-0.108557 -0.077004 0.291715
-0.107165 -0.076989 0.291688
-0.105879 -0.077050 0.291947
-0.104354 -0.076938 0.291540
-0.102954 -0.076915 0.291469
-0.101547 -0.076887 0.291372
-0.100140 -0.076859 0.291271
-0.098812 -0.076891 0.291391
-0.097512 -0.076946 0.291594
-0.096198 -0.076991 0.291757
-0.094663 -0.076859 0.291243
-0.093419 -0.076962 0.291617
-0.094369 -0.078903 0.298948
-0.093087 -0.079008 0.299322
-0.090996 -0.078420 0.297064
-0.090101 -0.078859 0.298698
-0.089052 -0.079176 0.299861
-0.087546 -0.079090 0.299497
-0.086254 -0.079199 0.299867
-0.085693 -0.079992 0.302825
-0.084327 -0.080050 0.302994
-0.083026 -0.080171 0.303403
-0.082369 -0.080930 0.306222
-0.080306 -0.080310 0.303820
-0.079185 -0.080627 0.304959
-0.078051 -0.080942 0.306092
-0.076287 -0.080602 0.304745
-0.074925 -0.080685 0.304992
-0.074194 -0.081461 0.307862
-0.072828 -0.081559 0.308162
-0.068923 -0.078758 0.297514
-0.065913 -0.076887 0.290378
-0.064562 -0.076911 0.290401
-0.063304 -0.077049 0.290854
-0.062119 -0.077285 0.291676
-0.060804 -0.077366 0.291911
-0.059480 -0.077440 0.292119
-0.058164 -0.077527 0.292378
-0.056751 -0.077486 0.292151
-0.054981 -0.076943 0.290035
-0.053962 -0.077452 0.291882
-0.052467 -0.077286 0.291182
-0.051095 -0.077296 0.291150
-0.049816 -0.077453 0.291670
-0.048412 -0.077419 0.291469
-0.047022 -0.077405 0.291347
-0.045646 -0.077414 0.291310
-0.044251 -0.077391 0.291154
-0.042798 -0.077262 0.290601
-0.041395 -0.077219 0.290369
-0.039636 -0.076484 0.287541
-0.039707 -0.079356 0.298270
-0.038320 -0.079418 0.298435
-0.035704 -0.076839 0.288681
-0.034650 -0.077550 0.291291
-0.030341 -0.070733 0.265627
-0.029023 -0.070599 0.265071
-0.027776 -0.070635 0.265152
-0.026584 -0.070821 0.265797
-0.025277 -0.070702 0.265300
-0.024144 -0.071085 0.266688
-0.022827 -0.070937 0.266086
-0.021460 -0.070610 0.264812
-0.020229 -0.070713 0.265157
-0.018896 -0.070456 0.264150
-0.017659 -0.070543 0.264437
-0.017507 -0.075308 0.282257
-0.015873 -0.073964 0.277181
-0.014904 -0.075758 0.283866
-0.013555 -0.075784 0.283926
-0.011312 -0.070262 0.263209
-0.010033 -0.070094 0.262552
-0.008793 -0.070199 0.262917
-0.007512 -0.069956 0.261982
-0.006263 -0.069967 0.262002
-0.005018 -0.070045 0.262272
-0.003776 -0.070223 0.262921
-0.002526 -0.070365 0.263437
-0.001274 -0.070694 0.264654
-0.000010 -0.070842 0.265195
0.001260 -0.071045 0.265944
0.002558 -0.071827 0.268863
0.003841 -0.071813 0.268807
0.005205 -0.072927 0.272972
0.006482 -0.072636 0.271879
0.007496 -0.069970 0.261902
0.008703 -0.069617 0.260584
0.010002 -0.069996 0.262007
0.011197 -0.069643 0.260690
0.012437 -0.069615 0.260594
0.013721 -0.069815 0.261354
0.014998 -0.069946 0.261857
0.016287 -0.070109 0.262482
0.017545 -0.070126 0.262561
0.018801 -0.070131 0.262600
0.020182 -0.070574 0.264277
0.021708 -0.071441 0.267545
0.023114 -0.071839 0.269061
0.024524 -0.072207 0.270466
0.025658 -0.071765 0.268835
0.026652 -0.070994 0.265977
0.027751 -0.070558 0.264373
0.028903 -0.070289 0.263396
0.030026 -0.069976 0.262254
0.031208 -0.069819 0.261700
0.032426 -0.069750 0.261479
0.033659 -0.069719 0.261398
0.034957 -0.069821 0.261816
0.036198 -0.069804 0.261791
0.037481 -0.069867 0.262066
0.038822 -0.070030 0.262715
0.040140 -0.070143 0.263180
0.041443 -0.070224 0.263526
0.042706 -0.070233 0.263602
0.043877 -0.070096 0.263128
0.044821 -0.069613 0.261357
0.045749 -0.069132 0.259596
0.047045 -0.069218 0.259959
0.047996 -0.068805 0.258451
0.049038 -0.068539 0.257494
0.050353 -0.068659 0.257987
0.051599 -0.068682 0.258114
0.052961 -0.068854 0.258802
0.054309 -0.068999 0.259390
0.055629 -0.069104 0.259826
0.057355 -0.069698 0.262099
0.059362 -0.070601 0.265536
0.061388 -0.071488 0.268909
0.063059 -0.071934 0.270626
0.064804 -0.072444 0.272585
0.066400 -0.072771 0.273852
0.067882 -0.072963 0.274609
0.069253 -0.073031 0.274899
0.070387 -0.072851 0.274253
0.071450 -0.072605 0.273357
0.072349 -0.072204 0.271879
0.073230 -0.071800 0.270380
0.073934 -0.071239 0.268293
0.074538 -0.070602 0.265914
0.075289 -0.070123 0.264130
0.075561 -0.069221 0.260749
0.076534 -0.068980 0.259854
0.077412 -0.068664 0.258671
0.078278 -0.068345 0.257480
0.079553 -0.068388 0.257647
0.080876 -0.068471 0.257958
0.082316 -0.068649 0.258626
0.083814 -0.068869 0.259448
0.085444 -0.069189 0.260647
0.086449 -0.069002 0.259926
0.097268 -0.076542 0.288311
0.100661 -0.078110 0.294192
0.101610 -0.077765 0.292862
0.103115 -0.077849 0.293143
0.104685 -0.077979 0.293593
0.105928 -0.077865 0.293118
0.107329 -0.077869 0.293083
0.108757 -0.077892 0.293111
0.110262 -0.077969 0.293335
0.111616 -0.077938 0.293151
0.113030 -0.077950 0.293116
0.114281 -0.077850 0.292657
0.115708 -0.077871 0.292644
0.117452 -0.078102 0.293416
0.118923 -0.078149 0.293484
0.120537 -0.078287 0.293888
0.122053 -0.078358 0.294035
0.123440 -0.078347 0.293859
0.124821 -0.078331 0.293662
0.126297 -0.078375 0.293679
0.127798 -0.078434 0.293741
0.129169 -0.078412 0.293490
0.130671 -0.078469 0.293526
0.132219 -0.078553 0.293649
0.133816 -0.078663 0.293862
0.135241 -0.078671 0.293681
0.136483 -0.078573 0.293093
0.138092 -0.078687 0.293282
0.139704 -0.078800 0.293456
0.140291 -0.078338 0.291479
0.142455 -0.078757 0.292766
0.145156 -0.079462 0.295096
0.146788 -0.079574 0.295208
0.147932 -0.079421 0.294324
0.149636 -0.079569 0.294539
0.150884 -0.079474 0.293838
0.152251 -0.079443 0.293357
0.153696 -0.079452 0.293011
0.154893 -0.079334 0.292177
-0.152079 -0.076858 0.291852
-0.150845 -0.076938 0.292471
-0.151185 -0.077829 0.296165
-0.145979 -0.075855 0.288937
-0.139734 -0.073299 0.279462
-0.138798 -0.073506 0.280500
-0.137957 -0.073767 0.281735
-0.135935 -0.073396 0.280542
-0.134389 -0.073277 0.280301
-0.132766 -0.073114 0.279878
-0.131270 -0.073018 0.279701
-0.129508 -0.072770 0.278931
-0.127841 -0.072571 0.278338
-0.126231 -0.072402 0.277847
-0.125332 -0.072641 0.278912
-0.124134 -0.072709 0.279316
-0.122960 -0.072794 0.279772
-0.122094 -0.073065 0.280936
-0.121209 -0.073330 0.282071
-0.120629 -0.073788 0.283941
-0.119832 -0.074121 0.285325
-0.119027 -0.074458 0.286714
-0.118109 -0.074731 0.287850
-0.117319 -0.075092 0.289320
-0.116164 -0.075225 0.289905
-0.115056 -0.075392 0.290613
-0.113911 -0.075539 0.291237
-0.113028 -0.075865 0.292546
-0.111709 -0.075904 0.292739
-0.109896 -0.075603 0.291619
-0.108419 -0.075529 0.291365
-0.107365 -0.075751 0.292251
-0.105835 -0.075639 0.291840
-0.104272 -0.075501 0.291322
-0.102722 -0.075368 0.290821
-0.101393 -0.075396 0.290936
-0.100149 -0.075489 0.291295
-0.098745 -0.075462 0.291189
-0.097481 -0.075544 0.291494
-0.096135 -0.075563 0.291557
-0.094400 -0.075272 0.290418
-0.092915 -0.075176 0.290025
-0.091794 -0.075375 0.290770
-0.092423 -0.077040 0.297164
-0.091064 -0.077073 0.297259
-0.089268 -0.076731 0.295906
-0.088262 -0.077068 0.297168
-0.087457 -0.077594 0.299154
-0.086063 -0.077607 0.299160
-0.084776 -0.077719 0.299542
-0.083568 -0.077908 0.300218
-0.082353 -0.078097 0.300895
-0.081011 -0.078170 0.301120
-0.079875 -0.078448 0.302130
-0.078525 -0.078522 0.302355
-0.077367 -0.078795 0.303345
-0.076069 -0.078933 0.303811
-0.074749 -0.079052 0.304203
-0.073944 -0.079732 0.306750
-0.072584 -0.079828 0.307050
-0.067864 -0.076159 0.292869
-0.066022 -0.075633 0.290777
-0.064606 -0.075583 0.290518
-0.063358 -0.075732 0.291018
-0.062072 -0.075841 0.291367
-0.060616 -0.075745 0.290922
-0.059225 -0.075724 0.290771
-0.057860 -0.075738 0.290753
-0.056563 -0.075844 0.291086
-0.055182 -0.075840 0.290995
-0.053829 -0.075875 0.291057
-0.052497 -0.075943 0.291242
-0.051154 -0.075997 0.291378
-0.049800 -0.076039 0.291466
-0.048362 -0.075951 0.291056
-0.046957 -0.075911 0.290827
-0.045585 -0.075923 0.290804
-0.044258 -0.076014 0.291081
-0.043007 -0.076246 0.291898
-0.041208 -0.075490 0.288932
-0.039593 -0.075030 0.287106
-0.039688 -0.077892 0.297987
-0.038302 -0.077953 0.298153
-0.035795 -0.075651 0.289282
-0.034621 -0.076094 0.290911
-0.030519 -0.069869 0.267056
-0.029107 -0.069531 0.265706
-0.027790 -0.069399 0.265149
-0.026615 -0.069628 0.265971
-0.025254 -0.069366 0.264918
-0.023987 -0.069352 0.264813
-0.022800 -0.069578 0.265629
-0.021496 -0.069454 0.265110
-0.020274 -0.069596 0.265605
-0.018941 -0.069351 0.264626
-0.017785 -0.069765 0.266164
-0.016860 -0.071218 0.271668
-0.015728 -0.071964 0.274474
-0.014539 -0.072562 0.276720
-0.013223 -0.072587 0.276779
-0.011332 -0.069107 0.263479
-0.010028 -0.068787 0.262230
-0.008795 -0.068932 0.262756
-0.007494 -0.068507 0.261109
-0.006257 -0.068611 0.261483
-0.005010 -0.068634 0.261551
-0.003766 -0.068725 0.261878
-0.002519 -0.068852 0.262345
-0.001268 -0.068955 0.262724
-0.000013 -0.069090 0.263226
0.001250 -0.069420 0.264473
0.002538 -0.070084 0.266993
0.003815 -0.070106 0.267072
0.005158 -0.071028 0.270581
0.006425 -0.070739 0.269478
0.007468 -0.068493 0.260922
0.008683 -0.068245 0.259981
0.009981 -0.068622 0.261422
0.011175 -0.068285 0.260145
0.012419 -0.068288 0.260166
0.013684 -0.068397 0.260591
0.014977 -0.068613 0.261427
0.016238 -0.068660 0.261621
0.017506 -0.068731 0.261908
0.018767 -0.068763 0.262051
0.020092 -0.069013 0.263025
0.021563 -0.069704 0.265681
0.022990 -0.070187 0.267546
0.024300 -0.070276 0.267914
0.025459 -0.069945 0.266679
0.026527 -0.069406 0.264652
0.027676 -0.069116 0.263579
0.028814 -0.068828 0.262513
0.029945 -0.068545 0.261468
0.031080 -0.068296 0.260550
0.032295 -0.068233 0.260345
0.033595 -0.068349 0.260826
0.034817 -0.068302 0.260687
0.036056 -0.068292 0.260686
0.037288 -0.068269 0.260639
0.038552 -0.068306 0.260820
0.039840 -0.068380 0.261144
0.041033 -0.068291 0.260846
0.042283 -0.068299 0.260920
0.043394 -0.068090 0.260165
0.044463 -0.067826 0.259201
0.045559 -0.067618 0.258450
0.046821 -0.067662 0.258662
0.047866 -0.067396 0.257688
0.048973 -0.067229 0.257097
0.050289 -0.067350 0.257603
0.051629 -0.067497 0.258208
0.052847 -0.067481 0.258190
0.054445 -0.067940 0.259989
0.055812 -0.068096 0.260630
0.057379 -0.068485 0.262161
0.059362 -0.069343 0.265488
0.061398 -0.070225 0.268907
0.063110 -0.070708 0.270800
0.064830 -0.071181 0.272652
0.066521 -0.071604 0.274311
0.067852 -0.071630 0.274451
0.069190 -0.071664 0.274614
0.070334 -0.071497 0.274012
0.071272 -0.071132 0.272647
0.071834 -0.070411 0.269912
0.072822 -0.070126 0.268847
0.073551 -0.069605 0.266879
0.074099 -0.068934 0.264330
0.074772 -0.068399 0.262299
0.075326 -0.067775 0.259924
0.076039 -0.067312 0.258165
0.077169 -0.067226 0.257848
0.078136 -0.067004 0.257005
0.079270 -0.066930 0.256727
0.080597 -0.067018 0.257069
0.082184 -0.067316 0.258214
0.083843 -0.067663 0.259542
0.085258 -0.067807 0.260087
0.086564 -0.067860 0.260282
0.099711 -0.077065 0.295569
0.100986 -0.076964 0.295162
0.101643 -0.076402 0.292981
0.102987 -0.076365 0.292808
0.104464 -0.076426 0.293004
0.105787 -0.076374 0.292762
0.107168 -0.076365 0.292681
0.108482 -0.076309 0.292411
0.110089 -0.076458 0.292922
0.111453 -0.076436 0.292773
0.112719 -0.076348 0.292363
0.113978 -0.076258 0.291939
0.115375 -0.076261 0.291864
0.117108 -0.076483 0.292621
0.119337 -0.077021 0.294575
0.120726 -0.077010 0.294424
0.121975 -0.076910 0.293925
0.123379 -0.076910 0.293799
0.124773 -0.076904 0.293640
0.126299 -0.076978 0.293777
0.127735 -0.076996 0.293694
0.129500 -0.077210 0.294346
0.130995 -0.077260 0.294363
0.132280 -0.077186 0.293897
0.133637 -0.077156 0.293586
0.135226 -0.077259 0.293772
0.136527 -0.077196 0.293318
0.137952 -0.077204 0.293119
0.139475 -0.077267 0.293115
0.140934 -0.077293 0.292960
0.142540 -0.077398 0.293091
0.144703 -0.077800 0.294333
0.146029 -0.077749 0.293846
0.147669 -0.077865 0.293970
0.149284 -0.077965 0.294024
0.150622 -0.077920 0.293512
0.152022 -0.077908 0.293108
0.153409 -0.077888 0.292661
0.154768 -0.077856 0.292147
-0.150453 -0.072660 0.280198
-0.149482 -0.072838 0.281231
-0.147891 -0.072715 0.281087
-0.141481 -0.070199 0.271664
-0.140304 -0.070257 0.272177
-0.138951 -0.070228 0.272338
-0.138644 -0.070731 0.274554
-0.137887 -0.071012 0.275898
-0.136943 -0.071202 0.276876
-0.135571 -0.071170 0.276982
-0.134539 -0.071318 0.277777
-0.133634 -0.071537 0.278836
-0.132205 -0.071478 0.278801
-0.130561 -0.071299 0.278288
-0.128661 -0.070976 0.277202
-0.127012 -0.070787 0.276625
-0.125970 -0.070935 0.277357
-0.125045 -0.071153 0.278356
-0.123889 -0.071243 0.278843
-0.122989 -0.071484 0.279912
-0.121911 -0.071625 0.280585
-0.121005 -0.071872 0.281662
-0.120074 -0.072109 0.282695
-0.119129 -0.072343 0.283708
-0.118334 -0.072675 0.285097
-0.117543 -0.073017 0.286519
-0.116811 -0.073403 0.288111
-0.116040 -0.073775 0.289635
-0.115082 -0.074035 0.290718
-0.113946 -0.074185 0.291361
-0.112849 -0.074364 0.292114
-0.112057 -0.074752 0.293677
-0.109867 -0.074205 0.291565
-0.108511 -0.074215 0.291633
-0.107133 -0.074210 0.291637
-0.105616 -0.074107 0.291250
-0.104169 -0.074051 0.291044
-0.102712 -0.073987 0.290797
-0.101377 -0.074010 0.290891
-0.100150 -0.074113 0.291296
-0.098690 -0.074045 0.291021
-0.097555 -0.074222 0.291706
-0.096329 -0.074335 0.292133
-0.094339 -0.073852 0.290215
-0.091474 -0.072660 0.285509
-0.093720 -0.075553 0.296848
-0.092449 -0.075656 0.297220
-0.091417 -0.075960 0.298381
-0.089757 -0.075744 0.297491
-0.088493 -0.075861 0.297910
-0.087500 -0.076217 0.299263
-0.086032 -0.076165 0.299011
-0.084739 -0.076268 0.299365
-0.083547 -0.076468 0.300094
-0.082294 -0.076617 0.300625
-0.080970 -0.076705 0.300910
-0.079535 -0.076689 0.300785
-0.078372 -0.076939 0.301706
-0.077278 -0.077268 0.302930
-0.075947 -0.077368 0.303253
-0.074521 -0.077373 0.303203
-0.073746 -0.078068 0.305855
-0.072390 -0.078163 0.306155
-0.066855 -0.073657 0.288436
-0.066083 -0.074321 0.290965
-0.064901 -0.074543 0.291761
-0.063660 -0.074704 0.292320
-0.062228 -0.074645 0.292012
-0.060846 -0.074643 0.291930
-0.059564 -0.074768 0.292345
-0.058146 -0.074723 0.292092
-0.056653 -0.074578 0.291450
-0.055302 -0.074618 0.291529
-0.054017 -0.074750 0.291970
-0.052636 -0.074754 0.291907
-0.051268 -0.074776 0.291918
-0.049921 -0.074831 0.292060
-0.048566 -0.074878 0.292166
-0.046925 -0.074473 0.290511
-0.045630 -0.074611 0.290974
-0.044342 -0.074767 0.291511
-0.042862 -0.074600 0.290789
-0.041458 -0.074559 0.290556
-0.039510 -0.073503 0.286371
-0.039429 -0.075970 0.295913
-0.038053 -0.076030 0.296077
-0.035780 -0.074235 0.289020
-0.034513 -0.074467 0.289858
-0.030916 -0.069483 0.270397
-0.029308 -0.068731 0.267412
-0.027981 -0.068598 0.266839
-0.026770 -0.068751 0.267381
-0.025365 -0.068395 0.265944
-0.024064 -0.068298 0.265516
-0.022818 -0.068358 0.265696
-0.021551 -0.068353 0.265630
-0.020296 -0.068392 0.265735
-0.019092 -0.068619 0.266572
-0.017883 -0.068857 0.267457
-0.016976 -0.070388 0.273361
-0.015568 -0.069921 0.271506
-0.014526 -0.071167 0.276309
-0.013142 -0.070815 0.274906
-0.011292 -0.067594 0.262369
-0.009995 -0.067295 0.261178
-0.008775 -0.067503 0.261960
-0.007485 -0.067157 0.260591
-0.006241 -0.067162 0.260586
-0.005003 -0.067256 0.260933
-0.003760 -0.067331 0.261204
-0.002517 -0.067459 0.261683
-0.001268 -0.067562 0.262068
-0.000016 -0.067739 0.262741
0.001245 -0.068013 0.263795
0.002525 -0.068546 0.265856
0.003815 -0.068873 0.267119
0.005138 -0.069496 0.269531
0.006409 -0.069312 0.268817
0.007490 -0.067474 0.261686
0.008685 -0.067036 0.259993
0.009964 -0.067277 0.260933
0.011179 -0.067083 0.260189
0.012398 -0.066945 0.259660
0.013661 -0.067052 0.260088
0.014937 -0.067195 0.260656
0.016212 -0.067316 0.261143
0.017499 -0.067465 0.261738
0.018744 -0.067441 0.261663
0.020090 -0.067760 0.262923
0.021491 -0.068217 0.264722
0.022938 -0.068761 0.266856
0.024178 -0.068659 0.266491
0.025292 -0.068228 0.264845
0.026394 -0.067806 0.263239
0.027446 -0.067301 0.261311
0.028638 -0.067168 0.260825
0.029705 -0.066766 0.259299
0.030930 -0.066735 0.259213
0.032145 -0.066686 0.259062
0.033424 -0.066768 0.259418
0.034704 -0.066847 0.259764
0.035962 -0.066879 0.259930
0.037152 -0.066787 0.259614
0.038416 -0.066830 0.259822
0.039930 -0.067291 0.261659
0.040996 -0.066991 0.260538
0.042050 -0.066691 0.259416
0.043453 -0.066945 0.260448
0.044477 -0.066617 0.259217
0.045729 -0.066640 0.259351
0.047027 -0.066726 0.259733
0.048055 -0.066435 0.258646
0.049224 -0.066348 0.258353
0.050331 -0.066184 0.257760
0.051660 -0.066312 0.258306
0.052975 -0.066417 0.258759
0.054369 -0.066613 0.259570
0.055715 -0.066744 0.260125
0.057359 -0.067217 0.262015
0.059507 -0.068249 0.266082
0.061341 -0.068885 0.268608
0.063119 -0.069434 0.270791
0.064861 -0.069921 0.272734
0.066400 -0.070176 0.273770
0.067752 -0.070226 0.274007
0.069057 -0.070227 0.274047
0.070167 -0.070032 0.273326
0.070957 -0.069531 0.271406
0.071603 -0.068910 0.269016
0.072216 -0.068280 0.266586
0.073087 -0.067910 0.265170
0.073882 -0.067484 0.263534
0.074344 -0.066772 0.260778
0.075429 -0.066635 0.260265
0.076114 -0.066154 0.258404
0.077045 -0.065899 0.257422
0.078202 -0.065842 0.257214
0.079787 -0.066142 0.258396
0.081135 -0.066239 0.258781
0.082969 -0.066724 0.260678
0.084845 -0.067228 0.262647
0.086366 -0.067440 0.263473
0.088087 -0.067800 0.264871
0.097309 -0.073842 0.288461
0.100544 -0.075235 0.293887
0.101715 -0.075067 0.293208
0.103077 -0.075043 0.293086
0.104296 -0.074917 0.292561
0.105540 -0.074811 0.292109
0.107071 -0.074909 0.292448
0.108169 -0.074706 0.291605
0.109058 -0.074365 0.290220
0.111286 -0.074934 0.292377
0.112515 -0.074825 0.291884
0.113859 -0.074794 0.291687
0.115318 -0.074838 0.291778
0.116865 -0.074938 0.292076
0.118750 -0.075249 0.293193
0.120544 -0.075496 0.294050
0.121863 -0.075443 0.293730
0.123263 -0.075442 0.293602
0.124780 -0.075511 0.293739
0.126231 -0.075538 0.293707
0.127728 -0.075593 0.293769
0.129273 -0.075674 0.293928
0.130752 -0.075715 0.293919
0.132195 -0.075735 0.293817
0.133509 -0.075681 0.293419
0.134932 -0.075689 0.293250
0.136313 -0.075674 0.292980
0.137836 -0.075738 0.293002
0.139224 -0.075726 0.292721
0.140925 -0.075883 0.293082
0.142277 -0.075851 0.292697
0.143805 -0.075912 0.292658
0.145789 -0.076211 0.293520
0.147526 -0.076376 0.293851
0.149019 -0.076412 0.293672
0.150463 -0.076423 0.293378
0.151865 -0.076412 0.292987
0.153281 -0.076409 0.292609
0.154705 -0.076410 0.292226
-0.147242 -0.069789 0.274381
-0.146265 -0.069948 0.275338
-0.145811 -0.070362 0.277286
-0.143807 -0.070029 0.276277
-0.142291 -0.069930 0.276173
-0.141806 -0.070340 0.278068
-0.139652 -0.069923 0.276680
-0.137926 -0.069714 0.276102
-0.137437 -0.070132 0.277994
-0.134081 -0.069081 0.274050
-0.133936 -0.069681 0.276642
-0.133334 -0.070052 0.278315
-0.131230 -0.069634 0.276844
-0.130873 -0.070144 0.279051
-0.129586 -0.070160 0.279286
-0.128115 -0.070076 0.279113
-0.125727 -0.069484 0.276905
-0.125011 -0.069814 0.278358
-0.123995 -0.069981 0.279156
-0.122746 -0.070018 0.279428
-0.121946 -0.070316 0.280731
-0.120931 -0.070495 0.281551
-0.120296 -0.070902 0.283277
-0.119310 -0.071108 0.284194
-0.118441 -0.071391 0.285407
-0.117551 -0.071666 0.286586
-0.116709 -0.071978 0.287902
-0.115808 -0.072261 0.289097
-0.114843 -0.072509 0.290148
-0.114020 -0.072855 0.291581
-0.113327 -0.073293 0.293379
-0.112622 -0.073734 0.295183
-0.109737 -0.072741 0.291240
-0.108392 -0.072757 0.291329
-0.106986 -0.072732 0.291249
-0.105466 -0.072627 0.290845
-0.104089 -0.072621 0.290827
-0.102859 -0.072717 0.291215
-0.101438 -0.072679 0.291065
-0.100119 -0.072715 0.291203
-0.098830 -0.072773 0.291427
-0.097599 -0.072877 0.291827
-0.096317 -0.072945 0.292081
-0.094690 -0.072750 0.291276
-0.094195 -0.073432 0.293982
-0.093276 -0.073799 0.295418
-0.092013 -0.073900 0.295789
-0.090815 -0.074058 0.296382
-0.089642 -0.074242 0.297077
-0.088219 -0.074221 0.296949
-0.087113 -0.074471 0.297899
-0.085797 -0.074546 0.298148
-0.084363 -0.074519 0.297989
-0.083284 -0.074811 0.299098
-0.081849 -0.074787 0.298945
-0.080630 -0.074964 0.299589
-0.079470 -0.075203 0.300481
-0.078211 -0.075355 0.301023
-0.077049 -0.075608 0.301965
-0.075830 -0.075813 0.302714
-0.074326 -0.075737 0.302339
-0.073153 -0.076000 0.303316
-0.071808 -0.076093 0.303614
-0.067108 -0.072562 0.289452
-0.065976 -0.072821 0.290412
-0.064621 -0.072842 0.290419
-0.063353 -0.072962 0.290823
-0.062087 -0.073091 0.291262
-0.060753 -0.073144 0.291395
-0.059415 -0.073194 0.291515
-0.058104 -0.073281 0.291785
-0.056746 -0.073312 0.291830
-0.055349 -0.073293 0.291674
-0.054009 -0.073349 0.291822
-0.052625 -0.073347 0.291735
-0.051224 -0.073322 0.291558
-0.049898 -0.073405 0.291811
-0.048494 -0.073375 0.291614
-0.047130 -0.073408 0.291666
-0.045712 -0.073353 0.291374
-0.044309 -0.073321 0.291171
-0.042156 -0.072007 0.285878
-0.040691 -0.071817 0.285052
-0.039598 -0.072295 0.286881
-0.039069 -0.073874 0.293074
-0.037705 -0.073933 0.293237
-0.035779 -0.072851 0.288876
-0.034735 -0.073550 0.291583
-0.031096 -0.068585 0.271837
-0.029334 -0.067509 0.267513
-0.027948 -0.067240 0.266388
-0.026876 -0.067735 0.268294
-0.025418 -0.067260 0.266358
-0.024106 -0.067141 0.265834
-0.022897 -0.067314 0.266470
-0.021616 -0.067281 0.266288
-0.020300 -0.067128 0.265639
-0.019141 -0.067509 0.267098
-0.017915 -0.067692 0.267782
-0.017081 -0.069500 0.274891
-0.015523 -0.068414 0.270553
-0.014487 -0.069645 0.275386
-0.013191 -0.069744 0.275741
-0.011295 -0.066339 0.262245
-0.009982 -0.065943 0.260649
-0.008772 -0.066207 0.261665
-0.007490 -0.065931 0.260548
-0.006233 -0.065801 0.260010
-0.004997 -0.065890 0.260343
-0.003762 -0.066057 0.260983
-0.002518 -0.066160 0.261371
-0.001271 -0.066301 0.261915
-0.000019 -0.066492 0.262656
0.001245 -0.066910 0.264299
0.002531 -0.067510 0.266660
0.003827 -0.067865 0.268056
0.005152 -0.068435 0.270306
0.006419 -0.068162 0.269227
0.007520 -0.066506 0.262686
0.008705 -0.065967 0.260563
0.009966 -0.066066 0.260957
0.011199 -0.065975 0.260607
0.012398 -0.065720 0.259609
0.013649 -0.065763 0.259793
0.014909 -0.065837 0.260100
0.016198 -0.066021 0.260843
0.017479 -0.066147 0.261358
0.018661 -0.065907 0.260428
0.020037 -0.066337 0.262150
0.021544 -0.067126 0.265296
0.022954 -0.067541 0.266959
0.024244 -0.067579 0.267139
0.025297 -0.066984 0.264819
0.026381 -0.066524 0.263032
0.027405 -0.065961 0.260837
0.028583 -0.065802 0.260243
0.029658 -0.065429 0.258806
0.030872 -0.065381 0.258652
0.032065 -0.065292 0.258336
0.033319 -0.065330 0.258526
0.034613 -0.065442 0.259012
0.035873 -0.065482 0.259212
0.037077 -0.065421 0.259012
0.038369 -0.065516 0.259433
0.039746 -0.065742 0.260375
0.041008 -0.065772 0.260539
0.042134 -0.065590 0.259862
0.043400 -0.065628 0.260061
0.044692 -0.065703 0.260403
0.045817 -0.065534 0.259784
0.047147 -0.065659 0.260326
0.048254 -0.065476 0.259648
0.049328 -0.065258 0.258833
0.050587 -0.065290 0.259009
0.051920 -0.065413 0.259543
0.053236 -0.065509 0.259973
0.054864 -0.065976 0.261876
0.056398 -0.066312 0.263257
0.057859 -0.066550 0.264248
0.059687 -0.067190 0.266839
0.061498 -0.067785 0.269247
0.063278 -0.068321 0.271423
0.064885 -0.068654 0.272791
0.066310 -0.068784 0.273352
0.067676 -0.068850 0.273656
0.068949 -0.068820 0.273580
0.070204 -0.068773 0.273432
0.071138 -0.068420 0.272067
0.071749 -0.067774 0.269534
0.072290 -0.067085 0.266828
0.073503 -0.067033 0.266652
0.074091 -0.066422 0.264253
0.074555 -0.065723 0.261497
0.075538 -0.065497 0.260623
0.076174 -0.064981 0.258591
0.077267 -0.064867 0.258154
0.078361 -0.064755 0.257726
0.080019 -0.065106 0.259137
0.081857 -0.065592 0.261080
0.083563 -0.065958 0.262541
0.085563 -0.066542 0.264871
0.087273 -0.066887 0.266242
0.095826 -0.072391 0.288147
0.097068 -0.072295 0.287755
0.101765 -0.074740 0.297471
0.101518 -0.073536 0.292659
0.102991 -0.073592 0.292862
0.104262 -0.073506 0.292487
0.105647 -0.073501 0.292433
0.107040 -0.073502 0.292397
0.108411 -0.073487 0.292293
0.109774 -0.073467 0.292162
0.111154 -0.073460 0.292075
0.112508 -0.073436 0.291913
0.113793 -0.073367 0.291569
0.115170 -0.073359 0.291457
0.116682 -0.073435 0.291677
0.118663 -0.073802 0.293040
0.119922 -0.073716 0.292599
0.121502 -0.073828 0.292932
0.122869 -0.073808 0.292737
0.124179 -0.073756 0.292403
0.125797 -0.073885 0.292783
0.127254 -0.073918 0.292769
0.129241 -0.074255 0.293949
0.130585 -0.074219 0.293641
0.131941 -0.074190 0.293355
0.133473 -0.074260 0.293447
0.134763 -0.074196 0.292997
0.136057 -0.074134 0.292548
0.137543 -0.074178 0.292503
0.139268 -0.074348 0.292943
0.140915 -0.074473 0.293194
0.142396 -0.074509 0.293082
0.143929 -0.074571 0.293057
0.145661 -0.074734 0.293414
0.147267 -0.074830 0.293493
0.148915 -0.074946 0.293632
0.150505 -0.075029 0.293632
0.151866 -0.074999 0.293168
0.153322 -0.075015 0.292870
0.154805 -0.075044 0.292606
-0.147311 -0.068502 0.274668
-0.146337 -0.068659 0.275625
-0.145884 -0.069066 0.277573
-0.143882 -0.068741 0.276561
-0.142368 -0.068644 0.276457
-0.128289 -0.062432 0.251682
-0.127035 -0.062403 0.251797
-0.125774 -0.062370 0.251885
-0.124000 -0.062079 0.250920
-0.122717 -0.062031 0.250924
-0.121034 -0.061778 0.250087
-0.119633 -0.061665 0.249807
-0.119016 -0.061959 0.251165
-0.120454 -0.063338 0.256919
-0.120599 -0.064059 0.259999
-0.128204 -0.068799 0.279390
-0.126181 -0.068416 0.277982
-0.126516 -0.069318 0.281784
-0.124921 -0.069170 0.281310
-0.122741 -0.068691 0.279483
-0.122006 -0.069020 0.280931
-0.120774 -0.069072 0.281245
-0.119955 -0.069364 0.282528
-0.119025 -0.069597 0.283565
-0.118173 -0.069882 0.284806
-0.117374 -0.070205 0.286198
-0.116630 -0.070569 0.287749
-0.115624 -0.070781 0.288674
-0.115131 -0.071316 0.290909
-0.113849 -0.071370 0.291174
-0.113194 -0.071822 0.293062
-0.111490 -0.071612 0.292239
-0.109653 -0.071311 0.291036
-0.108319 -0.071333 0.291147
-0.106879 -0.071284 0.290967
-0.105388 -0.071200 0.290636
-0.104109 -0.071260 0.290885
-0.102737 -0.071257 0.290872
-0.101356 -0.071247 0.290827
-0.100101 -0.071326 0.291144
-0.098760 -0.071346 0.291210
-0.097523 -0.071442 0.291586
-0.096285 -0.071542 0.291968
-0.093982 -0.070840 0.289080
-0.092389 -0.070661 0.288320
-0.093211 -0.072352 0.295185
-0.091594 -0.072172 0.294415
-0.090568 -0.072459 0.295543
-0.089357 -0.072606 0.296097
-0.088019 -0.072651 0.296235
-0.086587 -0.072620 0.296057
-0.085332 -0.072739 0.296487
-0.084171 -0.072943 0.297263
-0.082347 -0.072569 0.295681
-0.081271 -0.072854 0.296779
-0.080087 -0.073050 0.297515
-0.078800 -0.073157 0.297885
-0.077823 -0.073562 0.299466
-0.076693 -0.073833 0.300500
-0.075470 -0.074024 0.301205
-0.074171 -0.074148 0.301633
-0.073433 -0.074847 0.304403
-0.072085 -0.074940 0.304702
-0.067113 -0.071193 0.289391
-0.065968 -0.071434 0.290297
-0.064689 -0.071538 0.290639
-0.063290 -0.071509 0.290446
-0.062057 -0.071672 0.291030
-0.060714 -0.071712 0.291113
-0.059377 -0.071762 0.291234
-0.058090 -0.071876 0.291616
-0.056709 -0.071876 0.291535
-0.055415 -0.071989 0.291915
-0.054067 -0.072036 0.292026
-0.052698 -0.072058 0.292033
-0.051316 -0.072062 0.291969
-0.049874 -0.071980 0.291558
-0.048404 -0.071852 0.290962
-0.047056 -0.071903 0.291087
-0.045641 -0.071851 0.290801
-0.044259 -0.071850 0.290721
-0.042915 -0.071912 0.290895
-0.041500 -0.071857 0.290595
-0.039520 -0.070785 0.286190
-0.038940 -0.072234 0.291973
-0.037581 -0.072292 0.292136
-0.035858 -0.071626 0.289376
-0.034719 -0.072122 0.291310
-0.031247 -0.067610 0.273023
-0.029424 -0.066430 0.268199
-0.027944 -0.065953 0.266215
-0.026831 -0.066338 0.267709
-0.025433 -0.066020 0.266371
-0.024106 -0.065866 0.265696
-0.022837 -0.065860 0.265618
-0.021630 -0.066045 0.266315
-0.020326 -0.065933 0.265818
-0.019155 -0.066273 0.267142
-0.018070 -0.066979 0.269940
-0.017005 -0.067868 0.273484
-0.015461 -0.066840 0.269300
-0.014403 -0.067920 0.273611
-0.013159 -0.068242 0.274873
-0.011319 -0.065211 0.262630
-0.009992 -0.064745 0.260724
-0.008742 -0.064713 0.260565
-0.007486 -0.064624 0.260180
-0.006237 -0.064574 0.259957
-0.005000 -0.064653 0.260253
-0.003764 -0.064793 0.260798
-0.002518 -0.064828 0.260922
-0.001275 -0.065079 0.261917
-0.000022 -0.065177 0.262297
0.001237 -0.065357 0.263013
0.002534 -0.066364 0.267057
0.003850 -0.067036 0.269758
0.005169 -0.067405 0.271239
0.006428 -0.066998 0.269602
0.007537 -0.065422 0.263260
0.008690 -0.064630 0.260075
0.009948 -0.064713 0.260416
0.011185 -0.064662 0.260220
0.012405 -0.064527 0.259689
0.013640 -0.064490 0.259552
0.014913 -0.064624 0.260107
0.016200 -0.064794 0.260805
0.017502 -0.064993 0.261627
0.018751 -0.064984 0.261611
0.020065 -0.065186 0.262447
0.021538 -0.065849 0.265143
0.022894 -0.066101 0.266188
0.024179 -0.066133 0.266343
0.025376 -0.065932 0.265566
0.026491 -0.065545 0.264040
0.027470 -0.064876 0.261377
0.028629 -0.064670 0.260583
0.029733 -0.064363 0.259383
0.030867 -0.064141 0.258529
0.032029 -0.063992 0.257967
0.033349 -0.064159 0.258681
0.034576 -0.064142 0.258655
0.035855 -0.064218 0.259004
0.037129 -0.064281 0.259304
0.038326 -0.064210 0.259062
0.039754 -0.064519 0.260356
0.040985 -0.064499 0.260323
0.042162 -0.064398 0.259962
0.043453 -0.064471 0.260306
0.044741 -0.064536 0.260618
0.045925 -0.064450 0.260323
0.047108 -0.064370 0.260048
0.048297 -0.064300 0.259814
0.049462 -0.064203 0.259473
0.050648 -0.064137 0.259256
0.052195 -0.064520 0.260857
0.053437 -0.064518 0.260899
0.054919 -0.064799 0.262083
0.056504 -0.065186 0.263698
0.058134 -0.065605 0.265446
0.059943 -0.066207 0.267929
0.061743 -0.066772 0.270264
0.063369 -0.067130 0.271764
0.064843 -0.067317 0.272567
0.066387 -0.067566 0.273623
0.067820 -0.067696 0.274195
0.069099 -0.067670 0.274133
0.070305 -0.067573 0.273786
0.071214 -0.067202 0.272321
0.071871 -0.066609 0.269957
0.072507 -0.066018 0.267599
0.073449 -0.065721 0.266430
0.074118 -0.065194 0.264326
0.074906 -0.064787 0.262705
0.075484 -0.064216 0.260416
0.076519 -0.064045 0.259744
0.077610 -0.063926 0.259283
0.078828 -0.063913 0.259251
0.080606 -0.064348 0.261030
0.082625 -0.064958 0.263519
0.084606 -0.065522 0.265814
0.086478 -0.065986 0.267702
0.088676 -0.066680 0.270522
0.096756 -0.071716 0.290949
0.098009 -0.071620 0.290554
0.101406 -0.073071 0.296430
0.101578 -0.072191 0.292846
0.102866 -0.072117 0.292524
0.104306 -0.072150 0.292634
0.105667 -0.072128 0.292513
0.107011 -0.072096 0.292345
0.108360 -0.072067 0.292187
0.109763 -0.072075 0.292170
0.111158 -0.072077 0.292124
0.112497 -0.072043 0.291925
0.113907 -0.072055 0.291907
0.115257 -0.072030 0.291729
0.116711 -0.072068 0.291805
0.118314 -0.072197 0.292236
0.120094 -0.072430 0.293081
0.121326 -0.072330 0.292574
0.122689 -0.072310 0.292381
0.124371 -0.072476 0.292930
0.125948 -0.072579 0.293214
0.127594 -0.072718 0.293636
0.129146 -0.072801 0.293822
0.130537 -0.072792 0.293627
0.131989 -0.072818 0.293561
0.133349 -0.072792 0.293277
0.134641 -0.072730 0.292840
0.136004 -0.072708 0.292548
0.137352 -0.072677 0.292213
0.138831 -0.072716 0.292146
0.140409 -0.072806 0.292270
0.141631 -0.072711 0.291641
0.143452 -0.072922 0.292225
0.145436 -0.073211 0.293106
0.147095 -0.073333 0.293303
0.148793 -0.073472 0.293549
0.150354 -0.073540 0.293502
0.151789 -0.073547 0.293190
0.153170 -0.073527 0.292757
0.154683 -0.073571 0.292560
-0.131643 -0.060036 0.245589
-0.130096 -0.059862 0.245165
-0.129138 -0.059960 0.245836
-0.128024 -0.059986 0.246202
-0.126868 -0.059992 0.246475
-0.125975 -0.060124 0.247254
-0.124968 -0.060204 0.247807
-0.123951 -0.060281 0.248337
-0.122960 -0.060371 0.248913
-0.121945 -0.060453 0.249440
-0.121073 -0.060606 0.250258
-0.119920 -0.060622 0.250494
-0.118671 -0.060588 0.250519
-0.118394 -0.061055 0.252605
-0.117752 -0.061342 0.253937
-0.117485 -0.061831 0.256103
-0.116666 -0.062038 0.257090
-0.116557 -0.062631 0.259669
-0.115780 -0.062873 0.260788
-0.123379 -0.067718 0.280999
-0.122516 -0.067973 0.282166
-0.121524 -0.068161 0.283046
-0.120081 -0.068098 0.282876
-0.119178 -0.068343 0.283978
-0.118380 -0.068655 0.285350
-0.117233 -0.068769 0.285893
-0.116313 -0.069021 0.287003
-0.116771 -0.070105 0.291569
-0.117277 -0.071245 0.296362
-0.116194 -0.071435 0.297197
-0.112374 -0.069927 0.290960
-0.110935 -0.069882 0.290800
-0.109353 -0.069744 0.290253
-0.108286 -0.069936 0.291071
-0.107191 -0.070114 0.291825
-0.105374 -0.069819 0.290603
-0.104090 -0.069873 0.290833
-0.102752 -0.069893 0.290912
-0.101304 -0.069837 0.290671
-0.099864 -0.069785 0.290445
-0.098569 -0.069835 0.290634
-0.097365 -0.069951 0.291097
-0.094722 -0.069023 0.287210
-0.093147 -0.068857 0.286490
-0.095324 -0.071500 0.297456
-0.093718 -0.071343 0.296762
-0.092332 -0.071350 0.296753
-0.090489 -0.071000 0.295252
-0.089647 -0.071436 0.297018
-0.087911 -0.071162 0.295829
-0.086753 -0.071356 0.296579
-0.085706 -0.071648 0.297738
-0.083619 -0.071067 0.295263
-0.082789 -0.071551 0.297215
-0.081282 -0.071458 0.296762
-0.079859 -0.071436 0.296607
-0.078516 -0.071487 0.296748
-0.077182 -0.071548 0.296932
-0.076260 -0.072000 0.298734
-0.075330 -0.072462 0.300577
-0.073811 -0.072364 0.300093
-0.072676 -0.072646 0.301185
-0.071342 -0.072737 0.301482
-0.067022 -0.069725 0.288919
-0.066048 -0.070140 0.290563
-0.064811 -0.070288 0.291097
-0.063488 -0.070349 0.291267
-0.062249 -0.070506 0.291838
-0.060879 -0.070519 0.291809
-0.059498 -0.070520 0.291729
-0.058140 -0.070549 0.291768
-0.056702 -0.070480 0.291400
-0.055322 -0.070481 0.291321
-0.053978 -0.070529 0.291439
-0.052636 -0.070583 0.291578
-0.051233 -0.070556 0.291386
-0.049902 -0.070629 0.291605
-0.048505 -0.070610 0.291447
-0.047096 -0.070574 0.291215
-0.045717 -0.070580 0.291160
-0.044358 -0.070619 0.291243
-0.042986 -0.070640 0.291251
-0.040791 -0.069264 0.285502
-0.039555 -0.069478 0.286314
-0.038957 -0.070869 0.291969
-0.037598 -0.070927 0.292133
-0.035847 -0.070219 0.289149
-0.034928 -0.071153 0.292922
-0.033558 -0.071206 0.293070
-0.029608 -0.065552 0.269738
-0.028052 -0.064928 0.267110
-0.026971 -0.065393 0.268964
-0.025542 -0.065021 0.267380
-0.024174 -0.064773 0.266302
-0.022854 -0.064632 0.265670
-0.021604 -0.064685 0.265838
-0.020353 -0.064742 0.266024
-0.019175 -0.065056 0.267267
-0.017981 -0.065354 0.268447
-0.017051 -0.066732 0.274061
-0.015498 -0.065701 0.269784
-0.014336 -0.066289 0.272161
-0.013171 -0.066977 0.274948
-0.011412 -0.064463 0.264594
-0.009999 -0.063523 0.260706
-0.008773 -0.063675 0.261300
-0.007515 -0.063606 0.260991
-0.006258 -0.063514 0.260588
-0.005013 -0.063536 0.260656
-0.003771 -0.063617 0.260969
-0.002527 -0.063756 0.261522
-0.001281 -0.064017 0.262577
-0.000024 -0.064019 0.262575
0.001240 -0.064412 0.264177
0.002529 -0.065051 0.266791
0.003842 -0.065665 0.269302
0.005167 -0.066111 0.271127
0.006405 -0.065505 0.268641
0.007563 -0.064411 0.264158
0.008700 -0.063476 0.260328
0.009948 -0.063489 0.260388
0.011182 -0.063417 0.260101
0.012392 -0.063234 0.259361
0.013625 -0.063194 0.259212
0.014880 -0.063253 0.259468
0.016161 -0.063402 0.260098
0.017456 -0.063585 0.260868
0.018715 -0.063617 0.261023
0.020047 -0.063882 0.262131
0.021458 -0.064350 0.264080
0.022795 -0.064556 0.264952
0.024182 -0.064874 0.266290
0.025323 -0.064534 0.264927
0.026451 -0.064193 0.263558
0.027478 -0.063650 0.261365
0.028555 -0.063267 0.259831
0.029695 -0.063048 0.258966
0.030880 -0.062937 0.258553
0.032070 -0.062846 0.258219
0.033335 -0.062902 0.258491
0.034617 -0.062985 0.258875
0.035932 -0.063121 0.259481
0.037233 -0.063224 0.259948
0.038472 -0.063218 0.259972
0.039957 -0.063604 0.261606
0.041395 -0.063893 0.262847
0.042552 -0.063746 0.262290
0.043746 -0.063660 0.261986
0.044944 -0.063584 0.261727
0.046133 -0.063499 0.261430
0.047319 -0.063417 0.261142
0.048534 -0.063375 0.261022
0.049787 -0.063384 0.261114
0.051057 -0.063413 0.261284
0.052418 -0.063552 0.261910
0.053978 -0.063919 0.263475
0.055314 -0.064011 0.263907
0.056787 -0.064253 0.264958
0.058333 -0.064566 0.266302
0.060211 -0.065225 0.269068
0.061926 -0.065683 0.271013
0.063360 -0.065831 0.271673
0.064758 -0.065937 0.272159
0.066269 -0.066150 0.273089
0.067621 -0.066200 0.273345
0.068896 -0.066174 0.273283
0.070088 -0.066071 0.272903
0.071139 -0.065841 0.271994
0.071771 -0.065238 0.269545
0.072202 -0.064476 0.266439
0.073206 -0.064245 0.265518
0.073875 -0.063731 0.263430
0.074928 -0.063561 0.262758
0.075951 -0.063371 0.262002
0.077096 -0.063287 0.261683
0.078481 -0.063401 0.262176
0.079902 -0.063539 0.262768
0.081804 -0.064049 0.264897
0.084256 -0.064968 0.268713
0.086559 -0.065746 0.271942
0.088084 -0.065919 0.272669
0.090450 -0.066707 0.275933
0.098836 -0.070836 0.293010
0.099604 -0.070393 0.291173
0.101146 -0.070502 0.291610
0.103002 -0.070824 0.292925
0.103914 -0.070497 0.291550
0.105435 -0.070587 0.291894
0.106978 -0.070688 0.292279
0.108373 -0.070690 0.292251
0.109729 -0.070667 0.292111
0.111217 -0.070729 0.292316
0.112570 -0.070704 0.292155
0.113905 -0.070669 0.291945
0.115384 -0.070722 0.292096
0.116858 -0.070772 0.292221
0.118362 -0.070838 0.292411
0.119882 -0.070912 0.292623
0.121783 -0.071207 0.293741
0.123053 -0.071131 0.293316
0.124528 -0.071173 0.293373
0.126050 -0.071241 0.293525
0.127573 -0.071308 0.293668
0.129110 -0.071381 0.293824
0.130308 -0.071268 0.293202
0.131845 -0.071340 0.293334
0.133288 -0.071360 0.293242
0.134443 -0.071227 0.292511
0.135893 -0.071251 0.292415
0.137302 -0.071254 0.292221
0.138617 -0.071209 0.291815
0.140281 -0.071341 0.292127
0.142211 -0.071605 0.292963
0.143670 -0.071629 0.292803
0.145215 -0.071695 0.292802
0.146873 -0.071815 0.293005
0.148494 -0.071914 0.293110
0.150122 -0.072015 0.293207
0.151755 -0.072117 0.293289
0.153197 -0.072126 0.292979
0.154593 -0.072114 0.292566
-0.130403 -0.058302 0.243406
-0.128950 -0.058169 0.243131
-0.127782 -0.058164 0.243373
-0.126697 -0.058197 0.243765
-0.125477 -0.058168 0.243883
-0.124346 -0.058181 0.244164
-0.123308 -0.058237 0.244618
-0.122229 -0.058275 0.244984
-0.121318 -0.058395 0.245685
-0.120438 -0.058532 0.246447
-0.119514 -0.058651 0.247122
-0.118784 -0.058867 0.248203
-0.117949 -0.059036 0.249073
-0.117247 -0.059276 0.250234
-0.116861 -0.059681 0.252086
-0.116156 -0.059931 0.253275
-0.115460 -0.060190 0.254497
-0.114865 -0.060509 0.255961
-0.114841 -0.061137 0.258730
-0.113789 -0.061227 0.259213
-0.115700 -0.062930 0.266520
-0.121616 -0.066872 0.283314
-0.118345 -0.065794 0.278833
-0.119616 -0.067246 0.285067
-0.121112 -0.068859 0.291977
-0.120877 -0.069513 0.294818
-0.119473 -0.069502 0.294834
-0.118859 -0.069956 0.296815
-0.117306 -0.069862 0.296462
-0.113304 -0.068289 0.289828
-0.112006 -0.068328 0.290026
-0.110540 -0.068265 0.289783
-0.109532 -0.068485 0.290741
-0.108000 -0.068380 0.290310
-0.106656 -0.068393 0.290373
-0.105150 -0.068301 0.289988
-0.103850 -0.068342 0.290162
-0.102586 -0.068408 0.290436
-0.101182 -0.068382 0.290314
-0.099949 -0.068472 0.290681
-0.098919 -0.068705 0.291652
-0.097514 -0.068681 0.291527
-0.094338 -0.067391 0.286023
-0.092100 -0.066744 0.283246
-0.093654 -0.068866 0.292217
-0.093397 -0.069700 0.295716
-0.092328 -0.069944 0.296706
-0.090321 -0.069475 0.294668
-0.089372 -0.069816 0.296066
-0.088445 -0.070187 0.297583
-0.085568 -0.068997 0.292485
-0.084985 -0.069649 0.295186
-0.083802 -0.069821 0.295855
-0.082227 -0.069668 0.295142
-0.080792 -0.069630 0.294915
-0.079373 -0.069606 0.294744
-0.078232 -0.069828 0.295614
-0.076834 -0.069824 0.295525
-0.075957 -0.070303 0.297478
-0.074859 -0.070592 0.298624
-0.073271 -0.070421 0.297821
-0.072464 -0.071009 0.300226
-0.071134 -0.071098 0.300522
-0.066926 -0.068255 0.288424
-0.066156 -0.068873 0.290956
-0.064760 -0.068852 0.290783
-0.063456 -0.068929 0.291027
-0.062235 -0.069103 0.291679
-0.060830 -0.069076 0.291480
-0.059466 -0.069095 0.291475
-0.058245 -0.069285 0.292195
-0.056791 -0.069201 0.291754
-0.055399 -0.069190 0.291622
-0.054062 -0.069249 0.291787
-0.052643 -0.069203 0.291510
-0.051300 -0.069257 0.291654
-0.049885 -0.069215 0.291390
-0.048458 -0.069153 0.291047
-0.047097 -0.069185 0.291100
-0.045714 -0.069186 0.291024
-0.044335 -0.069192 0.290966
-0.042915 -0.069134 0.290643
-0.041079 -0.068378 0.287389
-0.039580 -0.068153 0.286365
-0.038780 -0.069156 0.290507
-0.037428 -0.069213 0.290671
-0.035800 -0.068745 0.288630
-0.034849 -0.069591 0.292113
-0.033482 -0.069643 0.292261
-0.029638 -0.064326 0.269882
-0.028011 -0.063552 0.266575
-0.026993 -0.064155 0.269046
-0.025581 -0.063834 0.267640
-0.024163 -0.063464 0.266032
-0.022846 -0.063332 0.265427
-0.021628 -0.063478 0.265985
-0.020340 -0.063423 0.265708
-0.019121 -0.063588 0.266351
-0.017946 -0.063936 0.267759
-0.016848 -0.064633 0.270637
-0.015448 -0.064190 0.268737
-0.014293 -0.064777 0.271158
-0.013040 -0.064996 0.272037
-0.011418 -0.063219 0.264565
-0.010028 -0.062442 0.261279
-0.008811 -0.062676 0.262230
-0.007533 -0.062487 0.261411
-0.006276 -0.062424 0.261123
-0.005029 -0.062450 0.261212
-0.003779 -0.062467 0.261264
-0.002534 -0.062598 0.261793
-0.001282 -0.062651 0.262001
-0.000027 -0.062752 0.262409
0.001236 -0.063084 0.263789
0.002541 -0.064136 0.268179
0.003850 -0.064548 0.269897
0.005146 -0.064584 0.270044
0.006423 -0.064421 0.269364
0.007558 -0.063130 0.263967
0.008723 -0.062412 0.260969
0.009970 -0.062395 0.260903
0.011205 -0.062312 0.260569
0.012430 -0.062194 0.260084
0.013637 -0.062020 0.259374
0.014908 -0.062138 0.259883
0.016200 -0.062318 0.260651
0.017503 -0.062512 0.261485
0.018744 -0.062476 0.261359
0.020124 -0.062875 0.263051
0.021524 -0.063286 0.264799
0.022971 -0.063785 0.266915
0.024227 -0.063724 0.266693
0.025416 -0.063507 0.265816
0.026550 -0.063175 0.264461
0.027475 -0.062401 0.261259
0.028611 -0.062152 0.260255
0.029759 -0.061949 0.259444
0.030891 -0.061729 0.258564
0.032102 -0.061678 0.258391
0.033399 -0.061791 0.258908
0.034728 -0.061951 0.259625
0.036009 -0.062020 0.259960
0.037333 -0.062153 0.260567
0.038644 -0.062258 0.261055
0.040046 -0.062499 0.262113
0.041502 -0.062805 0.263450
0.042545 -0.062487 0.262168
0.043930 -0.062676 0.263013
0.045193 -0.062684 0.263102
