ply
format ascii 1.0
element vertex 1681
property float x
property float y
property float z
end_header
-0.065020 -0.027574 0.289543
-0.063718 -0.027607 0.289759
-0.062403 -0.027637 0.289936
-0.061048 -0.027649 0.289931
-0.059661 -0.027648 0.289782
-0.058287 -0.027653 0.289699
-0.056939 -0.027670 0.289748
-0.055576 -0.027681 0.289727
-0.054250 -0.027711 0.289915
-0.052912 -0.027737 0.290058
-0.051574 -0.027764 0.290209
-0.050256 -0.027804 0.290496
-0.048856 -0.027799 0.290323
-0.047511 -0.027827 0.290489
-0.044744 -0.027840 0.290372
-0.043351 -0.027840 0.290260
-0.041870 -0.027782 0.289538
-0.040024 -0.027471 0.286177
-0.039794 -0.028285 0.294545
-0.037421 -0.027580 0.287097
-0.035980 -0.027535 0.286517
-0.034527 -0.027477 0.285806
-0.030262 -0.025082 0.260807
-0.028923 -0.025011 0.259975
-0.027742 -0.025076 0.260563
-0.026477 -0.025068 0.260397
-0.025227 -0.025074 0.260379
-0.024001 -0.025106 0.260632
-0.022752 -0.025116 0.260655
-0.021482 -0.025103 0.260453
-0.020252 -0.025138 0.260744
-0.019004 -0.025154 0.260840
-0.017665 -0.025043 0.259630
-0.017105 -0.026105 0.270573
-0.015805 -0.026118 0.270651
-0.014558 -0.026231 0.271758
-0.013248 -0.026242 0.271824
-0.011714 -0.025762 0.266806
-0.010458 -0.025849 0.267659
-0.009157 -0.025835 0.267479
-0.007833 -0.025742 0.266474
-0.006546 -0.025757 0.266596
-0.005259 -0.025784 0.266844
-0.003975 -0.025837 0.267371
-0.002694 -0.025982 0.268845
-0.001389 -0.025949 0.268487
-0.000088 -0.026102 0.270059
0.001222 -0.026103 0.270056
0.002496 -0.025739 0.266286
0.003906 -0.026546 0.274635
0.005237 -0.026544 0.274613
0.006266 -0.025320 0.261955
0.007386 -0.024817 0.256757
0.008651 -0.024871 0.257333
0.009931 -0.024954 0.258202
0.011170 -0.024923 0.257903
0.012476 -0.025034 0.259077
0.013739 -0.025047 0.259241
0.014991 -0.025039 0.259183
0.016348 -0.025194 0.260823
0.017622 -0.025207 0.260993
0.018949 -0.025290 0.261898
0.020331 -0.025431 0.263402
0.021733 -0.025579 0.264977
0.025414 -0.025407 0.263366
0.026250 -0.024989 0.259087
0.027422 -0.024914 0.258375
0.028650 -0.024894 0.258231
0.029891 -0.024887 0.258226
0.031091 -0.024848 0.257886
0.032317 -0.024831 0.257789
0.033575 -0.024839 0.257947
0.034800 -0.024823 0.257857
0.035985 -0.024781 0.257498
0.037386 -0.024886 0.258664
0.038988 -0.025113 0.261108
0.042114 -0.026276 0.273294
0.043387 -0.026248 0.273098
0.044525 -0.026142 0.272087
0.045505 -0.025952 0.270205
0.046983 -0.026049 0.271309
0.048070 -0.025930 0.270165
0.049092 -0.025783 0.268733
0.050329 -0.025753 0.268520
0.051399 -0.025642 0.267459
0.052503 -0.025552 0.266625
0.053779 -0.025549 0.266690
0.055053 -0.025544 0.266746
0.056325 -0.025539 0.266797
0.057803 -0.025626 0.267801
0.059544 -0.025822 0.269961
0.061095 -0.025930 0.271196
0.062314 -0.025895 0.270935
0.063624 -0.025899 0.271081
0.064914 -0.025895 0.271138
0.066220 -0.025897 0.271260
0.067432 -0.025863 0.271005
0.068659 -0.025836 0.270825
0.069911 -0.025819 0.270747
0.070781 -0.025664 0.269222
0.071553 -0.025480 0.267388
0.072535 -0.025375 0.266390
0.073852 -0.025390 0.266637
0.074947 -0.025329 0.266089
0.076003 -0.025257 0.265424
0.077305 -0.025267 0.265625
0.078899 -0.025372 0.266811
0.080489 -0.025472 0.267944
0.081901 -0.025513 0.268462
0.083569 -0.025631 0.269790
0.084868 -0.025635 0.269903
0.086229 -0.025656 0.270209
0.087696 -0.025709 0.270831
0.094927 -0.027425 0.288984
0.096148 -0.027380 0.288584
0.098423 -0.027632 0.291312
0.099664 -0.027591 0.290946
0.101139 -0.027616 0.291261
0.102657 -0.027651 0.291688
0.103880 -0.027606 0.291272
0.105057 -0.027551 0.290739
0.106450 -0.027554 0.290805
0.107908 -0.027572 0.291039
0.109605 -0.027651 0.291901
0.110888 -0.027624 0.291649
0.112035 -0.027565 0.291044
0.113392 -0.027558 0.290988
0.115039 -0.027621 0.291663
0.116250 -0.027579 0.291221
0.117378 -0.027519 0.290582
0.118890 -0.027549 0.290886
0.120503 -0.027601 0.291423
0.121701 -0.027558 0.290949
0.123402 -0.027629 0.291667
0.124599 -0.027587 0.291180
0.126155 -0.027624 0.291527
0.127422 -0.027598 0.291196
0.128846 -0.027606 0.291219
0.130295 -0.027619 0.291287
0.131847 -0.027653 0.291570
0.133316 -0.027670 0.291656
0.134756 -0.027680 0.291665
0.136350 -0.027721 0.291994
0.137759 -0.027724 0.291910
0.139290 -0.027752 0.292071
0.140785 -0.027772 0.292141
0.142290 -0.027793 0.292216
0.143849 -0.027824 0.292385
0.145127 -0.027801 0.291969
0.146723 -0.027839 0.292181
0.149603 -0.028117 0.294904
0.150329 -0.027990 0.293351
0.151255 -0.027901 0.292199
0.153021 -0.027967 0.292657
-0.124364 -0.021088 0.234285
-0.123365 -0.021106 0.234662
-0.122535 -0.021153 0.235356
-0.121669 -0.021195 0.235982
-0.120758 -0.021230 0.236518
-0.119962 -0.021287 0.237282
-0.119239 -0.021357 0.238194
-0.118527 -0.021430 0.239134
-0.117816 -0.021506 0.240084
-0.117849 -0.021719 0.242575
-0.117103 -0.021792 0.243487
-0.115914 -0.021784 0.243475
-0.115167 -0.021859 0.244394
-0.114181 -0.021890 0.244810
-0.113168 -0.021916 0.245165
-0.112198 -0.021951 0.245615
-0.111183 -0.021978 0.245967
-0.110277 -0.022027 0.246561
-0.109476 -0.022099 0.247398
-0.108768 -0.022191 0.248459
-0.107905 -0.022253 0.249178
-0.107066 -0.022322 0.249963
-0.106159 -0.022377 0.250597
-0.105213 -0.022426 0.251147
-0.104294 -0.022482 0.251767
-0.103301 -0.022523 0.252219
-0.102317 -0.022567 0.252696
-0.101360 -0.022618 0.253247
-0.100400 -0.022669 0.253798
-0.099429 -0.022719 0.254331
-0.098570 -0.022797 0.255163
-0.097773 -0.022890 0.256176
-0.096798 -0.022944 0.256734
-0.095915 -0.023022 0.257552
-0.095041 -0.023103 0.258413
-0.094706 -0.023320 0.260776
-0.095266 -0.023765 0.265693
-0.095098 -0.024039 0.268683
-0.094429 -0.024191 0.270311
-0.093606 -0.024308 0.271536
-0.092816 -0.024436 0.272891
-0.092641 -0.024732 0.276114
-0.092202 -0.024966 0.278629
-0.091668 -0.025180 0.280923
-0.090802 -0.025307 0.282251
-0.089464 -0.025306 0.282131
-0.088437 -0.025393 0.282999
-0.087238 -0.025433 0.283337
-0.085972 -0.025454 0.283465
-0.084843 -0.025517 0.284057
-0.083838 -0.025621 0.285092
-0.083351 -0.025888 0.287948
-0.082518 -0.026055 0.289686
-0.081245 -0.026086 0.289913
-0.079956 -0.026114 0.290094
-0.078821 -0.026194 0.290850
-0.077583 -0.026241 0.291252
-0.076368 -0.026299 0.291758
-0.075055 -0.026324 0.291905
-0.073476 -0.026255 0.291004
-0.074122 -0.026993 0.299056
-0.073057 -0.027126 0.300384
-0.071737 -0.027167 0.300699
-0.067841 -0.026214 0.290020
-0.066433 -0.026203 0.289767
-0.065026 -0.026193 0.289514
-0.063736 -0.026230 0.289785
-0.062488 -0.026286 0.290270
-0.061127 -0.026296 0.290247
-0.059720 -0.026286 0.290007
-0.058319 -0.026279 0.289794
-0.056875 -0.026252 0.289358
-0.055560 -0.026284 0.289579
-0.054233 -0.026312 0.289758
-0.052892 -0.026335 0.289880
-0.051583 -0.026375 0.290192
-0.050278 -0.026421 0.290559
-0.047591 -0.026475 0.290902
-0.041681 -0.026269 0.288161
-0.039860 -0.025985 0.284926
-0.039822 -0.026884 0.294672
-0.037168 -0.026019 0.285081
-0.035923 -0.026112 0.285986
-0.034862 -0.026351 0.288495
-0.030316 -0.023865 0.261193
-0.028996 -0.023815 0.260552
-0.027719 -0.023798 0.260278
-0.026491 -0.023822 0.260459
-0.025244 -0.023831 0.260471
-0.023985 -0.023830 0.260381
-0.022721 -0.023823 0.260223
-0.021474 -0.023834 0.260268
-0.020229 -0.023849 0.260366
-0.018963 -0.023840 0.260195
-0.017706 -0.023841 0.260151
-0.017291 -0.025062 0.273411
-0.015851 -0.024879 0.271353
-0.014667 -0.025100 0.273707
-0.013348 -0.025111 0.273773
-0.012027 -0.025121 0.273834
-0.010225 -0.024004 0.261613
-0.009084 -0.024341 0.265242
-0.007760 -0.024221 0.263901
-0.006482 -0.024221 0.263865
-0.005213 -0.024269 0.264356
-0.003963 -0.024462 0.266431
-0.002698 -0.024711 0.269122
-0.001397 -0.024778 0.269837
-0.000089 -0.024821 0.270293
0.001222 -0.024822 0.270290
0.002514 -0.024638 0.268283
0.003896 -0.025160 0.273960
0.005224 -0.025158 0.273938
0.006552 -0.025154 0.273910
0.007409 -0.023648 0.257512
0.008685 -0.023721 0.258322
0.009971 -0.023799 0.259183
0.011207 -0.023753 0.258709
0.012473 -0.023775 0.258965
0.013753 -0.023817 0.259453
0.015031 -0.023848 0.259817
0.016326 -0.023898 0.260406
0.017620 -0.023942 0.260918
0.018920 -0.023985 0.261430
0.020314 -0.024137 0.263125
0.021681 -0.024239 0.264288
0.024569 -0.024564 0.267943
0.025324 -0.024049 0.262381
0.026298 -0.023780 0.259509
0.027539 -0.023767 0.259423
0.028802 -0.023772 0.259546
0.029995 -0.023722 0.259070
0.031221 -0.023701 0.258908
0.032476 -0.023702 0.258995
0.033782 -0.023739 0.259480
0.034881 -0.023634 0.258405
0.036128 -0.023632 0.258467
0.037736 -0.023859 0.261030
0.039317 -0.024055 0.263254
0.040712 -0.024128 0.264144
0.041996 -0.024133 0.264286
0.043321 -0.024160 0.264680
0.044616 -0.024170 0.264878
0.045843 -0.024143 0.264676
0.048099 -0.024645 0.270280
0.049123 -0.024505 0.268847
0.049291 -0.023958 0.262936
0.050283 -0.023827 0.261604
0.051407 -0.023764 0.261012
0.052741 -0.023799 0.261496
0.054240 -0.023905 0.262763
0.055547 -0.023924 0.263066
0.057261 -0.024113 0.265249
0.059473 -0.024498 0.269596
0.061237 -0.024687 0.271782
0.062351 -0.024612 0.271053
0.063589 -0.024587 0.270889
0.065007 -0.024632 0.271485
0.066214 -0.024596 0.271199
0.067296 -0.024517 0.270422
0.068524 -0.024492 0.270253
0.069667 -0.024438 0.269764
0.070764 -0.024371 0.269122
0.071540 -0.024198 0.267304
0.072385 -0.024053 0.265806
0.073481 -0.023996 0.265267
0.074803 -0.024013 0.265547
0.075799 -0.023926 0.264683
0.076767 -0.023834 0.263749
0.078219 -0.023892 0.264484
0.079545 -0.023911 0.264778
0.080674 -0.023871 0.264416
0.082164 -0.023937 0.265231
0.083693 -0.024012 0.266145
0.084655 -0.023926 0.265257
0.086589 -0.024112 0.267394
0.094880 -0.026037 0.288819
0.096100 -0.025994 0.288419
0.099276 -0.026475 0.293820
0.099627 -0.026198 0.290821
0.101332 -0.026281 0.291803
0.102788 -0.026298 0.292046
0.104106 -0.026280 0.291895
0.105125 -0.026187 0.290916
0.106643 -0.026220 0.291321
0.107918 -0.026193 0.291059
0.109327 -0.026198 0.291155
0.110716 -0.026199 0.291192
0.112030 -0.026182 0.291027
0.113507 -0.026204 0.291279
0.114806 -0.026184 0.291069
0.116028 -0.026147 0.290665
0.117468 -0.026160 0.290804
0.118562 -0.026096 0.290088
0.119869 -0.026080 0.289895
0.121727 -0.026183 0.291016
0.122124 -0.025973 0.288653
0.124628 -0.026210 0.291256
0.125653 -0.026135 0.290379
0.127483 -0.026227 0.291348
0.128721 -0.026197 0.290949
0.130303 -0.026236 0.291319
0.131895 -0.026277 0.291693
0.133520 -0.026323 0.292121
0.134963 -0.026333 0.292134
0.136230 -0.026309 0.291758
0.137726 -0.026329 0.291864
0.139362 -0.026375 0.292247
0.140763 -0.026376 0.292123
0.142181 -0.026380 0.292021
0.143619 -0.026388 0.291949
0.144804 -0.026350 0.291353
0.146325 -0.026372 0.291425
0.151416 -0.027032 0.298517
0.152493 -0.026970 0.297614
0.151411 -0.026530 0.292541
0.152820 -0.026531 0.292316
-0.124371 -0.019976 0.234330
-0.123565 -0.020025 0.235070
-0.122689 -0.020062 0.235680
-0.121761 -0.020092 0.236186
-0.120943 -0.020141 0.236905
-0.120142 -0.020194 0.237660
-0.119401 -0.020257 0.238537
-0.118517 -0.020298 0.239135
-0.117695 -0.020350 0.239857
-0.116879 -0.020404 0.240597
-0.116213 -0.020486 0.241653
-0.115425 -0.020547 0.242465
-0.114629 -0.020608 0.243266
-0.113765 -0.020659 0.243930
-0.112929 -0.020715 0.244660
-0.112103 -0.020775 0.245417
-0.111108 -0.020804 0.245810
-0.110209 -0.020852 0.246416
-0.109393 -0.020917 0.247217
-0.108599 -0.020987 0.248077
-0.107716 -0.021042 0.248745
-0.106828 -0.021097 0.249410
-0.106011 -0.021167 0.250248
-0.105070 -0.021214 0.250804
-0.104117 -0.021259 0.251340
-0.103252 -0.021324 0.252095
-0.102233 -0.021358 0.252484
-0.101320 -0.021415 0.253142
-0.100399 -0.021472 0.253791
-0.099423 -0.021519 0.254311
-0.098643 -0.021609 0.255345
-0.097812 -0.021691 0.256268
-0.096840 -0.021743 0.256836
-0.095993 -0.021824 0.257749
-0.095135 -0.021905 0.258655
-0.094955 -0.022147 0.261448
-0.094949 -0.022436 0.264793
-0.094653 -0.022663 0.267406
-0.094086 -0.022831 0.269310
-0.093475 -0.022992 0.271139
-0.092720 -0.023122 0.272588
-0.092041 -0.023275 0.274305
-0.091704 -0.023520 0.277101
-0.091319 -0.023759 0.279829
-0.091205 -0.024077 0.283476
-0.089498 -0.023979 0.282210
-0.088311 -0.024018 0.282568
-0.087210 -0.024082 0.283214
-0.086079 -0.024140 0.283786
-0.084832 -0.024167 0.283987
-0.083756 -0.024244 0.284777
-0.083192 -0.024474 0.287363
-0.082401 -0.024644 0.289238
-0.081231 -0.024705 0.289825
-0.079924 -0.024725 0.289939
-0.078813 -0.024808 0.290780
-0.077670 -0.024883 0.291534
-0.076494 -0.024951 0.292194
-0.075197 -0.024980 0.292409
-0.075286 -0.025481 0.298128
-0.074347 -0.025645 0.299916
-0.073044 -0.025688 0.300279
-0.071724 -0.025727 0.300594
-0.068118 -0.024931 0.291153
-0.066318 -0.024776 0.289211
-0.064973 -0.024789 0.289223
-0.063672 -0.024819 0.289439
-0.062350 -0.024842 0.289573
-0.060944 -0.024832 0.289320
-0.059452 -0.024786 0.288649
-0.058243 -0.024859 0.289356
-0.056849 -0.024854 0.289166
-0.055488 -0.024864 0.289146
-0.054188 -0.024902 0.289458
-0.052824 -0.024912 0.289441
-0.051553 -0.024968 0.289963
-0.050192 -0.024982 0.289992
-0.047549 -0.025054 0.290579
-0.041856 -0.024986 0.289297
-0.039909 -0.024642 0.285205
-0.039322 -0.025144 0.290900
-0.037184 -0.024655 0.285124
-0.035937 -0.024741 0.286019
-0.034620 -0.024785 0.286418
-0.030455 -0.022708 0.262321
-0.029112 -0.022647 0.261529
-0.027782 -0.022591 0.260792
-0.026593 -0.022650 0.261386
-0.025296 -0.022619 0.260939
-0.024023 -0.022606 0.260713
-0.022753 -0.022596 0.260517
-0.021491 -0.022592 0.260401
-0.020246 -0.022607 0.260506
-0.018986 -0.022607 0.260429
-0.017730 -0.022611 0.260413
-0.017303 -0.023755 0.273527
-0.015862 -0.023581 0.271458
-0.014782 -0.023960 0.275767
-0.013453 -0.023970 0.275834
-0.011995 -0.023729 0.273004
-0.010734 -0.023865 0.274525
-0.009384 -0.023815 0.273910
-0.008020 -0.023707 0.272631
-0.006689 -0.023671 0.272179
-0.005374 -0.023691 0.272373
-0.004049 -0.023666 0.272069
-0.002731 -0.023679 0.272197
-0.001413 -0.023722 0.272664
-0.000091 -0.023728 0.272727
0.002515 -0.023353 0.268398
0.005244 -0.023924 0.274955
0.006169 -0.022436 0.257864
0.007458 -0.022551 0.259186
0.008733 -0.022595 0.259715
0.009990 -0.022588 0.259651
0.011286 -0.022661 0.260508
0.012532 -0.022628 0.260152
0.013801 -0.022639 0.260305
0.015057 -0.022629 0.260215
0.016323 -0.022634 0.260314
0.017626 -0.022686 0.260952
0.018859 -0.022647 0.260538
0.020189 -0.022722 0.261453
0.021878 -0.023168 0.266629
0.023300 -0.023297 0.268169
0.024584 -0.023282 0.268056
0.025285 -0.022744 0.261915
0.026316 -0.022541 0.259635
0.027466 -0.022453 0.258683
0.028743 -0.022471 0.258960
0.029984 -0.022462 0.258919
0.031179 -0.022420 0.258507
0.032526 -0.022486 0.259347
0.033852 -0.022533 0.259966
0.035118 -0.022538 0.260106
0.036430 -0.022572 0.260576
0.037769 -0.022619 0.261205
0.039614 -0.022957 0.265196
0.041487 -0.023289 0.269119
0.043069 -0.023443 0.270989
0.044299 -0.023401 0.270600
0.045282 -0.023236 0.268782
0.046902 -0.023397 0.270740
0.048151 -0.023369 0.270523
0.049320 -0.022706 0.263042
0.050312 -0.022582 0.261709
0.051436 -0.022523 0.261116
0.054245 -0.023186 0.268909
0.055467 -0.023156 0.268662
0.056654 -0.023113 0.268267
0.057832 -0.023068 0.267850
0.059261 -0.023123 0.268593
0.061051 -0.023313 0.270914
0.062491 -0.023365 0.271621
0.063759 -0.023352 0.271573
0.065027 -0.023339 0.271529
0.066364 -0.023351 0.271772
0.067563 -0.023315 0.271458
0.068756 -0.023278 0.271133
0.069882 -0.023220 0.270566
0.070911 -0.023133 0.269649
0.071633 -0.022950 0.267621
0.072230 -0.022735 0.265207
0.073510 -0.022738 0.265342
0.075028 -0.022814 0.266316
0.075943 -0.022706 0.265156
0.077046 -0.022658 0.264680
0.078223 -0.022632 0.264472
0.079606 -0.022666 0.264954
0.080938 -0.022685 0.265258
0.082382 -0.022734 0.265913
0.084003 -0.022829 0.267109
0.084700 -0.022675 0.265376
0.086401 -0.022789 0.266791
0.088388 -0.022975 0.269039
0.098054 -0.025123 0.294263
0.099293 -0.025081 0.293851
0.100290 -0.024981 0.292740
0.101127 -0.024844 0.291197
0.102752 -0.024901 0.291929
0.104011 -0.024870 0.291614
0.105252 -0.024835 0.291256
0.106499 -0.024803 0.290918
0.107953 -0.024818 0.291144
0.109256 -0.024800 0.290958
0.110615 -0.024794 0.290918
0.112194 -0.024837 0.291448
0.113383 -0.024794 0.290958
0.115038 -0.024852 0.291654
0.116354 -0.024837 0.291481
0.117827 -0.024855 0.291694
0.119111 -0.024833 0.291434
0.120389 -0.024811 0.291158
0.121594 -0.024774 0.290704
0.123438 -0.024867 0.291765
0.124652 -0.024832 0.291322
0.126309 -0.024885 0.291904
0.127685 -0.024883 0.291820
0.129124 -0.024892 0.291874
0.130507 -0.024891 0.291790
0.132080 -0.024925 0.292119
0.133489 -0.024929 0.292070
0.134860 -0.024925 0.291929
0.136229 -0.024921 0.291776
0.137774 -0.024948 0.291987
0.139273 -0.024967 0.292084
0.140774 -0.024986 0.292171
0.142119 -0.024977 0.291921
0.143489 -0.024973 0.291714
0.144941 -0.024983 0.291659
0.146373 -0.024990 0.291554
0.147547 -0.024952 0.290923
0.149210 -0.024997 0.291244
0.150673 -0.025008 0.291154
0.152546 -0.025087 0.291834
-0.124251 -0.018846 0.234132
-0.123499 -0.018899 0.234972
-0.122671 -0.018942 0.235669
-0.121685 -0.018961 0.236062
-0.120925 -0.019016 0.236892
-0.120105 -0.019063 0.237609
-0.119256 -0.019106 0.238269
-0.118413 -0.019150 0.238943
-0.117568 -0.019195 0.239616
-0.116657 -0.019231 0.240156
-0.115788 -0.019274 0.240785
-0.114845 -0.019305 0.241261
-0.113964 -0.019347 0.241868
-0.113099 -0.019394 0.242514
-0.112183 -0.019432 0.243053
-0.111418 -0.019497 0.243927
-0.110567 -0.019549 0.244621
-0.109565 -0.019575 0.244984
-0.108928 -0.019667 0.246170
-0.108121 -0.019730 0.246990
-0.107221 -0.019778 0.247605
-0.106464 -0.019853 0.248561
-0.105645 -0.019918 0.249384
-0.104773 -0.019975 0.250095
-0.103870 -0.020027 0.250743
-0.102936 -0.020074 0.251321
-0.102052 -0.020132 0.252034
-0.101107 -0.020179 0.252606
-0.100101 -0.020215 0.253033
-0.099176 -0.020269 0.253672
-0.098260 -0.020326 0.254344
-0.097603 -0.020438 0.255710
-0.096688 -0.020498 0.256420
-0.095857 -0.020579 0.257374
-0.095164 -0.020691 0.258722
-0.094831 -0.020885 0.261092
-0.094702 -0.021130 0.264091
-0.094155 -0.021287 0.265983
-0.093555 -0.021436 0.267773
-0.092912 -0.021580 0.269485
-0.092335 -0.021743 0.271437
-0.092318 -0.022044 0.275108
-0.091977 -0.022275 0.277904
-0.091743 -0.022539 0.281104
-0.090984 -0.022680 0.282763
-0.089595 -0.022666 0.282489
-0.088455 -0.022716 0.282998
-0.087347 -0.022775 0.283630
-0.086232 -0.022835 0.284259
-0.085015 -0.022869 0.284567
-0.083897 -0.022931 0.285223
-0.083158 -0.023100 0.287210
-0.082411 -0.023273 0.289238
-0.081135 -0.023300 0.289447
-0.079878 -0.023333 0.289733
-0.078881 -0.023445 0.290991
-0.077888 -0.023562 0.292311
-0.077128 -0.023755 0.294574
-0.076372 -0.023956 0.296935
-0.075587 -0.024156 0.299275
-0.074170 -0.024158 0.299155
-0.072808 -0.024178 0.299262
-0.071493 -0.024215 0.299576
-0.067776 -0.023423 0.289645
-0.066630 -0.023505 0.290525
-0.064969 -0.023405 0.289152
-0.063642 -0.023424 0.289252
-0.062419 -0.023483 0.289842
-0.061037 -0.023484 0.289711
-0.059542 -0.023440 0.289031
-0.058203 -0.023456 0.289101
-0.056906 -0.023492 0.289401
-0.055528 -0.023494 0.289295
-0.054234 -0.023533 0.289646
-0.052905 -0.023559 0.289828
-0.051540 -0.023570 0.289827
-0.050249 -0.023615 0.290259
-0.048915 -0.023643 0.290475
-0.039943 -0.023287 0.285377
-0.038951 -0.023518 0.288081
-0.036951 -0.023134 0.283267
-0.035789 -0.023265 0.284771
-0.032140 -0.021726 0.265827
-0.030454 -0.021441 0.262249
-0.029100 -0.021375 0.261353
-0.027896 -0.021419 0.261794
-0.026593 -0.021387 0.261321
-0.025311 -0.021370 0.261024
-0.024043 -0.021363 0.260862
-0.022749 -0.021331 0.260396
-0.021510 -0.021351 0.260559
-0.020263 -0.021363 0.260645
-0.019003 -0.021364 0.260580
-0.017804 -0.021439 0.261430
-0.017216 -0.022315 0.272056
-0.015800 -0.022177 0.270307
-0.014828 -0.022692 0.276521
-0.013494 -0.022702 0.276589
-0.012093 -0.022586 0.275133
-0.010835 -0.022745 0.277020
-0.009461 -0.022669 0.276049
-0.008088 -0.022571 0.274818
-0.006743 -0.022529 0.274279
-0.005406 -0.022501 0.273905
-0.004076 -0.022490 0.273747
-0.002756 -0.022558 0.274551
-0.001420 -0.022494 0.273748
-0.000093 -0.022590 0.274902
0.001241 -0.022590 0.274899
0.002501 -0.021940 0.266980
0.003912 -0.022607 0.275089
0.005247 -0.022605 0.275067
0.006215 -0.021345 0.259738
0.007457 -0.021294 0.259125
0.008725 -0.021319 0.259447
0.009982 -0.021313 0.259388
0.011238 -0.021307 0.259341
0.012504 -0.021320 0.259518
0.013786 -0.021355 0.259970
0.015040 -0.021344 0.259875
0.016321 -0.021371 0.260240
0.017636 -0.021434 0.261043
0.018879 -0.021408 0.260771
0.020248 -0.021519 0.262166
0.021578 -0.021577 0.262920
0.023482 -0.022171 0.270210
0.024776 -0.022157 0.270096
0.025240 -0.021439 0.261405
0.026340 -0.021304 0.259816
0.027544 -0.021261 0.259359
0.028756 -0.021229 0.259027
0.029933 -0.021174 0.258427
0.031193 -0.021180 0.258575
0.032483 -0.021205 0.258952
0.033934 -0.021329 0.260544
0.035292 -0.021388 0.261345
0.036722 -0.021485 0.262618
0.038222 -0.021615 0.264294
0.039764 -0.021760 0.266147
0.041438 -0.021965 0.268749
0.042753 -0.021974 0.268947
0.044361 -0.022128 0.270932
0.045323 -0.021960 0.268973
0.045997 -0.021667 0.265471
0.044724 -0.020496 0.251221
0.046922 -0.020936 0.256715
0.048184 -0.020947 0.256940
0.049077 -0.020801 0.255243
0.050405 -0.020841 0.255841
0.051599 -0.020826 0.255748
0.053176 -0.020962 0.257524
0.054727 -0.021082 0.259100
0.056330 -0.021216 0.260851
0.058411 -0.021521 0.264703
0.060660 -0.021873 0.269139
0.062403 -0.022032 0.271200
0.063619 -0.022002 0.270939
0.065016 -0.022034 0.271445
0.066346 -0.022043 0.271665
0.067550 -0.022011 0.271369
0.068808 -0.021997 0.271303
0.069883 -0.021926 0.270536
0.070832 -0.021819 0.269317
0.071539 -0.021643 0.267238
0.072211 -0.021462 0.265106
0.073368 -0.021429 0.264799
0.074409 -0.021365 0.264092
0.075333 -0.021269 0.263001
0.076181 -0.021155 0.261683
0.076790 -0.020980 0.259604
0.078078 -0.020992 0.259845
0.079436 -0.021023 0.260313
0.080669 -0.021021 0.260361
0.082485 -0.021168 0.262260
0.083806 -0.021185 0.262554
0.085627 -0.021327 0.264382
0.088488 -0.021719 0.269323
0.096649 -0.023383 0.290031
0.097871 -0.023345 0.289625
0.100851 -0.023721 0.294360
0.101162 -0.023468 0.291281
0.102709 -0.023504 0.291795
0.103938 -0.023468 0.291399
0.105251 -0.023451 0.291242
0.106653 -0.023454 0.291328
0.107740 -0.023390 0.290562
0.109523 -0.023475 0.291661
0.110802 -0.023452 0.291406
0.112262 -0.023467 0.291619
0.113463 -0.023429 0.291159
0.114934 -0.023446 0.291389
0.116471 -0.023477 0.291774
0.117845 -0.023474 0.291739
0.119101 -0.023448 0.291412
0.120583 -0.023466 0.291630
0.121971 -0.023466 0.291609
0.123157 -0.023428 0.291106
0.124605 -0.023440 0.291219
0.125868 -0.023417 0.290892
0.127335 -0.023432 0.291033
0.128611 -0.023412 0.290727
0.129978 -0.023409 0.290620
0.131414 -0.023418 0.290660
0.133268 -0.023501 0.291603
0.134652 -0.023500 0.291497
0.136031 -0.023498 0.291372
0.137595 -0.023528 0.291629
0.139092 -0.023546 0.291729
0.140552 -0.023557 0.291734
0.141961 -0.023560 0.291624
0.143339 -0.023558 0.291437
0.144854 -0.023578 0.291514
0.146120 -0.023557 0.291080
0.147539 -0.023561 0.290941
0.148784 -0.023538 0.290447
0.151443 -0.023736 0.292678
0.152779 -0.023726 0.292317
-0.124146 -0.017719 0.233960
-0.123412 -0.017772 0.234832
-0.122596 -0.017814 0.235550
-0.121623 -0.017834 0.235965
-0.120792 -0.017875 0.236654
-0.120012 -0.017925 0.237445
-0.119204 -0.017971 0.238183
-0.118293 -0.018002 0.238719
-0.117328 -0.018026 0.239143
-0.116439 -0.018062 0.239722
-0.115501 -0.018092 0.240202
-0.114495 -0.018111 0.240538
-0.113616 -0.018150 0.241141
-0.112698 -0.018185 0.241665
-0.111846 -0.018231 0.242334
-0.111114 -0.018297 0.243270
-0.110249 -0.018343 0.243924
-0.109467 -0.018403 0.244769
-0.108583 -0.018448 0.245398
-0.107873 -0.018523 0.246427
-0.107076 -0.018586 0.247273
-0.106220 -0.018639 0.247994
-0.105446 -0.018708 0.248916
-0.104558 -0.018758 0.249582
-0.103694 -0.018813 0.250315
-0.102806 -0.018865 0.251002
-0.101849 -0.018906 0.251530
-0.100984 -0.018965 0.252294
-0.099915 -0.018987 0.252555
-0.099031 -0.019045 0.253293
-0.098277 -0.019129 0.254380
-0.097505 -0.019213 0.255445
-0.096541 -0.019259 0.256022
-0.095730 -0.019338 0.257022
-0.094896 -0.019415 0.257980
-0.094318 -0.019546 0.259665
-0.094234 -0.019785 0.262769
-0.093924 -0.019982 0.265314
-0.093470 -0.020153 0.267514
-0.092820 -0.020286 0.269201
-0.092382 -0.020469 0.271553
-0.091732 -0.020611 0.273343
-0.092007 -0.020967 0.277970
-0.091287 -0.021103 0.279683
-0.090936 -0.021330 0.282592
-0.089717 -0.021357 0.282847
-0.088438 -0.021371 0.282917
-0.087457 -0.021458 0.283960
-0.086257 -0.021493 0.284312
-0.085003 -0.021516 0.284497
-0.083902 -0.021578 0.285210
-0.082993 -0.021693 0.286610
-0.082037 -0.021800 0.287891
-0.081527 -0.022030 0.290809
-0.080919 -0.022242 0.293472
-0.079853 -0.022333 0.294538
-0.078708 -0.022404 0.295351
-0.077756 -0.022534 0.296931
-0.076489 -0.022576 0.297347
-0.075205 -0.022615 0.297719
-0.073998 -0.022679 0.298419
-0.072712 -0.022720 0.298824
-0.071399 -0.022755 0.299138
-0.067484 -0.021945 0.288350
-0.066135 -0.021953 0.288318
-0.064837 -0.021978 0.288519
-0.063515 -0.021997 0.288624
-0.062184 -0.022013 0.288701
-0.060910 -0.022051 0.289057
-0.059418 -0.022009 0.288377
-0.058095 -0.022030 0.288512
-0.056816 -0.022069 0.288884
-0.055470 -0.022084 0.288940
-0.054133 -0.022102 0.289046
-0.052804 -0.022125 0.289217
-0.051485 -0.022154 0.289460
-0.050171 -0.022186 0.289749
-0.048804 -0.022196 0.289753
-0.047457 -0.022216 0.289888
-0.040145 -0.022023 0.286755
-0.039419 -0.022395 0.291480
-0.036848 -0.021707 0.282416
-0.035700 -0.021836 0.283991
-0.034328 -0.021834 0.283862
-0.030440 -0.020165 0.262061
-0.029097 -0.020110 0.261260
-0.027760 -0.020055 0.260456
-0.026607 -0.020134 0.261390
-0.025328 -0.020120 0.261127
-0.024051 -0.020107 0.260877
-0.022792 -0.020109 0.260820
-0.021534 -0.020111 0.260775
-0.020293 -0.020131 0.260963
-0.019075 -0.020178 0.261500
-0.017841 -0.020213 0.261895
-0.017217 -0.020998 0.271992
-0.015734 -0.020779 0.269099
-0.014767 -0.021262 0.275301
-0.013494 -0.021359 0.276494
-0.012229 -0.021490 0.278147
-0.010886 -0.021499 0.278217
-0.009574 -0.021582 0.279236
-0.008212 -0.021561 0.278935
-0.006855 -0.021547 0.278717
-0.005521 -0.021617 0.279595
-0.004165 -0.021621 0.279618
-0.001445 -0.021520 0.278263
-0.000095 -0.021521 0.278266
0.001256 -0.021522 0.278264
0.002473 -0.020424 0.264064
0.003905 -0.021241 0.274627
0.005238 -0.021239 0.274605
0.006280 -0.020297 0.262424
0.007511 -0.020182 0.260943
0.008739 -0.020094 0.259827
0.010008 -0.020110 0.260044
0.011247 -0.020068 0.259521
0.012506 -0.020066 0.259517
0.013768 -0.020070 0.259598
0.015044 -0.020091 0.259910
0.016337 -0.020130 0.260449
0.017566 -0.020090 0.259962
0.018879 -0.020145 0.260724
0.020318 -0.020319 0.263013
0.021873 -0.020582 0.266473
0.023472 -0.020854 0.270052
0.024766 -0.020841 0.269937
0.025619 -0.020477 0.265276
0.026924 -0.020491 0.265527
0.028133 -0.020435 0.264859
0.029292 -0.020348 0.263808
0.030520 -0.020315 0.263448
0.031767 -0.020297 0.263285
0.033104 -0.020335 0.263855
0.034541 -0.020429 0.265158
0.035880 -0.020461 0.265656
0.037259 -0.020513 0.266410
0.038592 -0.020536 0.266800
0.039866 -0.020528 0.266784
0.040881 -0.020391 0.265092
0.042551 -0.020580 0.267635
0.043798 -0.020558 0.267447
0.045347 -0.020675 0.269070
0.044158 -0.019572 0.254812
0.045134 -0.019463 0.253482
0.046496 -0.019522 0.254341
0.047629 -0.019483 0.253939
0.048753 -0.019444 0.253519
0.050060 -0.019477 0.254049
0.051311 -0.019487 0.254285
0.052764 -0.019572 0.255489
0.054217 -0.019653 0.256649
0.056158 -0.019903 0.260020
0.058335 -0.020224 0.264321
0.060569 -0.020551 0.268698
0.062468 -0.020753 0.271448
0.063683 -0.020724 0.271176
0.064886 -0.020693 0.270870
0.066343 -0.020742 0.271618
0.067605 -0.020729 0.271558
0.068773 -0.020688 0.271132
0.069819 -0.020613 0.270256
0.070608 -0.020467 0.268433
0.071013 -0.020216 0.265246
0.071936 -0.020119 0.264067
0.073007 -0.020066 0.263470
0.073825 -0.019946 0.261992
0.074751 -0.019859 0.260945
0.075256 -0.019665 0.258484
0.076221 -0.019595 0.257655
0.077423 -0.019588 0.257643
0.078576 -0.019568 0.257472
0.079693 -0.019541 0.257192
0.081222 -0.019613 0.258226
0.082805 -0.019697 0.259402
0.083912 -0.019666 0.259069
0.085897 -0.019839 0.261423
0.097583 -0.022216 0.292815
0.098815 -0.022179 0.292404
0.101462 -0.022457 0.296131
0.101493 -0.022155 0.292222
0.102780 -0.022132 0.291982
0.104260 -0.022152 0.292290
0.105380 -0.022094 0.291588
0.106647 -0.022069 0.291303
0.108019 -0.022066 0.291305
0.109213 -0.022028 0.290829
0.110571 -0.022022 0.290790
0.111853 -0.022002 0.290553
0.113693 -0.022091 0.291747
0.115127 -0.022100 0.291877
0.116459 -0.022089 0.291743
0.117821 -0.022084 0.291680
0.119180 -0.022079 0.291607
0.120386 -0.022046 0.291155
0.121709 -0.022035 0.290987
0.123060 -0.022029 0.290883
0.123961 -0.021943 0.289721
0.125538 -0.021978 0.290139
0.127756 -0.022123 0.292003
0.129045 -0.022106 0.291718
0.130159 -0.022059 0.291038
0.131763 -0.022096 0.291446
0.133425 -0.022141 0.291962
0.134890 -0.022153 0.292030
0.136327 -0.022160 0.292024
0.137704 -0.022158 0.291880
0.139068 -0.022153 0.291697
0.140595 -0.022175 0.291846
0.141971 -0.022172 0.291667
0.143303 -0.022163 0.291388
0.145063 -0.022219 0.291963
0.146415 -0.022213 0.291697
0.147906 -0.022227 0.291695
0.149935 -0.022321 0.292726
0.151368 -0.022326 0.292569
0.152410 -0.022273 0.291646
-0.123789 -0.016561 0.233311
-0.123155 -0.016623 0.234367
-0.122364 -0.016666 0.235127
-0.121288 -0.016670 0.235335
-0.120564 -0.016723 0.236227
-0.119750 -0.016764 0.236946
-0.118875 -0.016798 0.237543
-0.118074 -0.016843 0.238293
-0.117179 -0.016875 0.238855
-0.116254 -0.016903 0.239357
-0.115375 -0.016939 0.239952
-0.114468 -0.016971 0.240493
-0.113504 -0.016996 0.240915
-0.112578 -0.017026 0.241416
-0.111652 -0.017058 0.241920
-0.110814 -0.017103 0.242621
-0.110025 -0.017158 0.243436
-0.109107 -0.017193 0.243972
-0.108278 -0.017243 0.244711
-0.107532 -0.017307 0.245653
-0.106875 -0.017388 0.246812
-0.106058 -0.017443 0.247618
-0.105284 -0.017508 0.248534
-0.104491 -0.017570 0.249422
-0.103562 -0.017611 0.249996
-0.102674 -0.017660 0.250679
-0.101779 -0.017708 0.251353
-0.100850 -0.017752 0.251954
-0.099864 -0.017787 0.252421
-0.098909 -0.017828 0.252975
-0.098068 -0.017891 0.253832
-0.097203 -0.017952 0.254645
-0.096376 -0.018021 0.255574
-0.095431 -0.018069 0.256207
-0.094723 -0.018164 0.257497
-0.094227 -0.018303 0.259403
-0.094043 -0.018506 0.262223
-0.093758 -0.018695 0.264831
-0.093168 -0.018828 0.266634
-0.092745 -0.018998 0.268965
-0.092346 -0.019178 0.271430
-0.092415 -0.019462 0.275356
-0.092125 -0.019677 0.278306
-0.091670 -0.019862 0.280836
-0.090721 -0.019945 0.281898
-0.089779 -0.020031 0.283016
-0.088595 -0.020066 0.283395
-0.087552 -0.020133 0.284242
-0.086488 -0.020198 0.285046
-0.085395 -0.020259 0.285779
-0.084138 -0.020281 0.285981
-0.082974 -0.020328 0.286511
-0.082670 -0.020590 0.290080
-0.083713 -0.021202 0.298571
-0.081596 -0.021021 0.295893
-0.079095 -0.020733 0.291708
-0.079029 -0.021084 0.296516
-0.077567 -0.021069 0.296170
-0.076454 -0.021150 0.297173
-0.074998 -0.021138 0.296858
-0.073824 -0.021206 0.297675
-0.072723 -0.021298 0.298825
-0.071410 -0.021330 0.299139
-0.067563 -0.020592 0.288643
-0.066138 -0.020576 0.288287
-0.064811 -0.020591 0.288359
-0.063562 -0.020632 0.288794
-0.062254 -0.020655 0.288976
-0.060915 -0.020669 0.289030
-0.059577 -0.020683 0.289098
-0.058281 -0.020714 0.289388
-0.056921 -0.020723 0.289372
-0.055570 -0.020735 0.289404
-0.054252 -0.020760 0.289630
-0.052852 -0.020755 0.289426
-0.051486 -0.020764 0.289408
-0.050156 -0.020787 0.289607
-0.048748 -0.020779 0.289366
-0.047457 -0.020822 0.289834
-0.039997 -0.020565 0.285639
-0.039442 -0.021001 0.291581
-0.036812 -0.020324 0.282072
-0.035667 -0.020447 0.283666
-0.034337 -0.020469 0.283864
-0.030451 -0.018906 0.262099
-0.029126 -0.018867 0.261460
-0.027853 -0.018859 0.261261
-0.026607 -0.018870 0.261326
-0.025367 -0.018886 0.261463
-0.024104 -0.018886 0.261383
-0.022874 -0.018914 0.261693
-0.021636 -0.018938 0.261948
-0.020374 -0.018942 0.261935
-0.019239 -0.019073 0.263679
-0.018082 -0.019200 0.265359
-0.016979 -0.019407 0.268161
-0.015633 -0.019349 0.267292
-0.014304 -0.019303 0.266602
-0.013503 -0.020030 0.276593
-0.000096 -0.020183 0.278367
0.001198 -0.019266 0.265711
0.002473 -0.019144 0.264029
0.003826 -0.019507 0.269028
0.005190 -0.019727 0.272060
0.006238 -0.018901 0.260681
0.007498 -0.018884 0.260461
0.008745 -0.018846 0.259946
0.009996 -0.018826 0.259691
0.011240 -0.018798 0.259322
0.012503 -0.018803 0.259414
0.013774 -0.018820 0.259674
0.015077 -0.018873 0.260436
0.016347 -0.018879 0.260555
0.017706 -0.018980 0.261986
0.019169 -0.019172 0.264679
0.020570 -0.019281 0.266230
0.021905 -0.019319 0.266805
0.023689 -0.019727 0.272498
0.024995 -0.019714 0.272382
0.026760 -0.020047 0.277038
0.026622 -0.018991 0.262504
0.027817 -0.018938 0.261839
0.028876 -0.018801 0.260013
0.030209 -0.018847 0.260720
0.031416 -0.018813 0.260323
0.032834 -0.018904 0.261658
0.034321 -0.019026 0.263420
0.035698 -0.019080 0.264261
0.037106 -0.019147 0.265271
0.038318 -0.019112 0.264865
0.039872 -0.019244 0.266781
0.041098 -0.019213 0.266454
0.042409 -0.019224 0.266696
0.044035 -0.019372 0.268849
0.045282 -0.019351 0.268644
0.044003 -0.018280 0.253880
0.045165 -0.018255 0.253618
0.046488 -0.018294 0.254257
0.047637 -0.018264 0.253944
0.048807 -0.018244 0.253762
0.050052 -0.018252 0.253969
0.051326 -0.018270 0.254318
0.052681 -0.018315 0.255052
0.054074 -0.018372 0.255937
0.055908 -0.018572 0.258826
0.058159 -0.018899 0.263489
0.060556 -0.019258 0.268605
0.062463 -0.019450 0.271392
0.063622 -0.019406 0.270883
0.064846 -0.019383 0.270668
0.066320 -0.019434 0.271492
0.067572 -0.019419 0.271394
0.068835 -0.019408 0.271347
0.069905 -0.019344 0.270560
0.070821 -0.019241 0.269214
0.071108 -0.018973 0.265570
0.071921 -0.018853 0.263986
0.073064 -0.018822 0.263650
0.073909 -0.018716 0.262268
0.074574 -0.018569 0.260301
0.075182 -0.018413 0.258207
0.076213 -0.018364 0.257609
0.077281 -0.018326 0.257150
0.078363 -0.018291 0.256753
0.079725 -0.018323 0.257274
0.081253 -0.018390 0.258306
0.082623 -0.018421 0.258813
0.083730 -0.018393 0.258493
0.085816 -0.018577 0.261159
0.086917 -0.018547 0.260797
0.099670 -0.020968 0.294916
0.100908 -0.020933 0.294497
0.100846 -0.020633 0.290345
0.102417 -0.020671 0.290940
0.104088 -0.020728 0.291796
0.105498 -0.020732 0.291905
0.106725 -0.020701 0.291507
0.108205 -0.020718 0.291799
0.109433 -0.020688 0.291408
0.110670 -0.020660 0.291047
0.112019 -0.020653 0.290979
0.113290 -0.020633 0.290708
0.115233 -0.020733 0.292144
0.116918 -0.020786 0.292892
0.118207 -0.020768 0.292636
0.119381 -0.020730 0.292099
0.120754 -0.020727 0.292048
0.122058 -0.020712 0.291825
0.123339 -0.020694 0.291549
0.124630 -0.020678 0.291290
0.125670 -0.020622 0.290450
0.127634 -0.020716 0.291732
0.129112 -0.020730 0.291879
0.130356 -0.020707 0.291491
0.131656 -0.020694 0.291222
0.133414 -0.020751 0.291953
0.134857 -0.020759 0.291974
0.136040 -0.020728 0.291426
0.137718 -0.020771 0.291928
0.139162 -0.020779 0.291914
0.140587 -0.020784 0.291850
0.142020 -0.020790 0.291791
0.143399 -0.020788 0.291609
0.144884 -0.020801 0.291629
0.146272 -0.020800 0.291439
0.147607 -0.020792 0.291134
0.149042 -0.020797 0.291012
0.150542 -0.020812 0.291004
0.152553 -0.020897 0.291954
-0.123528 -0.015421 0.232841
-0.122693 -0.015454 0.233508
-0.122048 -0.015511 0.234540
-0.120926 -0.015509 0.234653
-0.120224 -0.015561 0.235580
-0.119553 -0.015617 0.236572
-0.118679 -0.015649 0.237168
-0.117833 -0.015684 0.237822
-0.116997 -0.015722 0.238498
-0.116046 -0.015744 0.238941
-0.115175 -0.015779 0.239548
-0.114266 -0.015808 0.240080
-0.113318 -0.015833 0.240530
-0.112381 -0.015860 0.241004
-0.111442 -0.015887 0.241475
-0.110573 -0.015925 0.242101
-0.109736 -0.015968 0.242803
-0.108895 -0.016011 0.243503
-0.108071 -0.016059 0.244249
-0.107299 -0.016114 0.245122
-0.106593 -0.016182 0.246164
-0.105768 -0.016232 0.246941
-0.104913 -0.016279 0.247659
-0.104084 -0.016331 0.248450
-0.103246 -0.016382 0.249232
-0.102366 -0.016429 0.249924
-0.101551 -0.016486 0.250786
-0.100625 -0.016528 0.251389
-0.099701 -0.016570 0.252004
-0.098853 -0.016626 0.252824
-0.097889 -0.016664 0.253362
-0.096964 -0.016709 0.254011
-0.096123 -0.016771 0.254896
-0.095262 -0.016830 0.255744
-0.094675 -0.016940 0.257358
-0.094139 -0.017062 0.259148
-0.094361 -0.017326 0.263099
-0.094174 -0.017522 0.265993
-0.093499 -0.017630 0.267565
-0.092062 -0.017596 0.266969
-0.093050 -0.018031 0.273482
-0.092791 -0.018233 0.276458
-0.092525 -0.018440 0.279495
-0.091903 -0.018580 0.281529
-0.090806 -0.018627 0.282141
-0.089553 -0.018644 0.282281
-0.088550 -0.018713 0.283227
-0.087380 -0.018749 0.283658
-0.086145 -0.018772 0.283890
-0.084712 -0.018752 0.283468
-0.083574 -0.018797 0.284036
-0.086144 -0.019692 0.297429
-0.084396 -0.019612 0.296106
-0.082716 -0.019547 0.294984
-0.081189 -0.019516 0.294384
-0.079838 -0.019527 0.294415
-0.078714 -0.019594 0.295302
-0.077620 -0.019672 0.296337
-0.076291 -0.019692 0.296502
-0.074863 -0.019687 0.296286
-0.073700 -0.019753 0.297135
-0.072700 -0.019866 0.298691
-0.071388 -0.019896 0.299006
-0.067713 -0.019256 0.289243
-0.066170 -0.019208 0.288386
-0.064838 -0.019220 0.288434
-0.063518 -0.019237 0.288549
-0.062220 -0.019262 0.288776
-0.060889 -0.019277 0.288863
-0.059590 -0.019303 0.289118
-0.058262 -0.019321 0.289245
-0.056928 -0.019337 0.289357
-0.055635 -0.019369 0.289699
-0.054312 -0.019392 0.289901
-0.052991 -0.019416 0.290133
-0.051633 -0.019429 0.290185
-0.050209 -0.019416 0.289862
-0.048899 -0.019448 0.290209
-0.042250 -0.019595 0.291765
-0.039993 -0.019186 0.285555
-0.038775 -0.019263 0.286593
-0.036840 -0.018977 0.282233
-0.035691 -0.019090 0.283801
-0.034458 -0.019165 0.284809
-0.030347 -0.017579 0.261141
-0.029054 -0.017559 0.260756
-0.027801 -0.017563 0.260712
-0.026534 -0.017558 0.260552
-0.025238 -0.017531 0.260073
-0.023985 -0.017534 0.260032
-0.022812 -0.017599 0.260922
-0.021569 -0.017615 0.261076
-0.020275 -0.017587 0.260593
-0.019123 -0.017689 0.262029
-0.017969 -0.017802 0.263639
-0.017006 -0.018136 0.268526
-0.015574 -0.017984 0.266219
-0.014313 -0.018020 0.266691
0.001202 -0.018047 0.266711
0.002497 -0.018047 0.266702
0.003869 -0.018413 0.272102
0.005247 -0.018612 0.275056
0.006266 -0.017717 0.261831
0.007458 -0.017530 0.259074
0.008706 -0.017508 0.258756
0.010003 -0.017579 0.259834
0.011226 -0.017519 0.258962
0.012493 -0.017531 0.259171
0.013816 -0.017613 0.260410
0.015120 -0.017660 0.261137
0.016426 -0.017701 0.261771
0.017786 -0.017790 0.263131
0.019170 -0.017889 0.264642
0.020503 -0.017932 0.265316
0.021879 -0.018005 0.266454
0.024067 -0.018700 0.276793
0.025393 -0.018688 0.276675
0.026773 -0.018715 0.277130
0.028091 -0.018698 0.276943
0.029344 -0.018640 0.276164
0.030617 -0.018601 0.275650
0.031718 -0.018464 0.273697
0.033113 -0.018502 0.274343
0.034339 -0.018447 0.273606
0.035403 -0.018312 0.271687
0.036602 -0.018254 0.270910
0.037846 -0.018222 0.270515
0.038927 -0.018116 0.269030
0.040030 -0.018027 0.267794
0.041268 -0.018002 0.267519
0.042467 -0.017962 0.267018
0.043840 -0.017996 0.267621
0.045082 -0.017976 0.267416
0.044025 -0.017066 0.253971
0.045243 -0.017062 0.254017
0.046548 -0.017091 0.254547
0.047720 -0.017071 0.254347
0.048936 -0.017068 0.254393
0.050203 -0.017082 0.254701
0.051474 -0.017096 0.255017
0.052880 -0.017154 0.255980
0.054297 -0.017213 0.256958
0.055784 -0.017290 0.258220
0.057725 -0.017502 0.261490
0.059967 -0.017794 0.265960
0.062199 -0.018071 0.270210
0.063600 -0.018100 0.270754
0.064892 -0.018098 0.270828
0.066331 -0.018136 0.271503
0.067614 -0.018131 0.271535
0.068878 -0.018121 0.271489
0.070028 -0.018081 0.271006
0.070798 -0.017947 0.269099
0.070942 -0.017662 0.264927
0.071829 -0.017569 0.263626
0.073053 -0.017559 0.263584
0.073809 -0.017440 0.261888
0.074390 -0.017284 0.259636
0.074920 -0.017121 0.257284
0.076038 -0.017096 0.256996
0.076953 -0.017027 0.256040
0.078096 -0.017009 0.255863
0.079236 -0.016992 0.255679
0.080500 -0.017001 0.255895
0.081812 -0.017020 0.256257
0.083259 -0.017066 0.257022
0.084893 -0.017148 0.258337
0.085827 -0.017089 0.257510
0.097382 -0.019116 0.288132
0.101821 -0.019709 0.297148
0.101080 -0.019298 0.291005
0.102148 -0.019238 0.290163
0.104227 -0.019367 0.292176
0.105399 -0.019327 0.291621
0.106670 -0.019306 0.291349
0.107960 -0.019288 0.291132
0.109283 -0.019277 0.291001
0.110614 -0.019268 0.290893
0.111886 -0.019249 0.290629
0.113696 -0.019321 0.291748
0.115042 -0.019314 0.291658
0.116258 -0.019286 0.291238
0.117648 -0.019287 0.291252
0.119194 -0.019313 0.291643
0.120580 -0.019312 0.291629
0.121732 -0.019275 0.291052
0.123123 -0.019276 0.291041
0.124330 -0.019249 0.290596
0.125876 -0.019274 0.290934
0.127673 -0.019336 0.291832
0.128398 -0.019237 0.290275
0.130194 -0.019298 0.291138
0.131570 -0.019297 0.291043
0.133008 -0.019305 0.291077
0.134669 -0.019344 0.291581
0.136241 -0.019370 0.291873
0.137506 -0.019352 0.291495
0.138951 -0.019360 0.291491
0.140435 -0.019373 0.291555
0.141740 -0.019361 0.291237
0.143727 -0.019442 0.292296
0.144990 -0.019424 0.291864
0.146673 -0.019462 0.292262
0.148175 -0.019476 0.292281
0.149201 -0.019428 0.291351
0.150892 -0.019466 0.291709
0.152461 -0.019488 0.291810
-0.122751 -0.014226 0.231398
-0.122268 -0.014297 0.232720
-0.121540 -0.014340 0.233583
-0.120480 -0.014344 0.233806
-0.119928 -0.014410 0.235016
-0.119156 -0.014450 0.235803
-0.118409 -0.014494 0.236643
-0.117735 -0.014548 0.237638
-0.116909 -0.014584 0.238333
-0.115989 -0.014609 0.238836
-0.115090 -0.014637 0.239382
-0.114139 -0.014659 0.239822
-0.113189 -0.014681 0.240265
-0.112283 -0.014710 0.240803
-0.111320 -0.014732 0.241218
-0.110434 -0.014765 0.241803
-0.109617 -0.014807 0.242545
-0.108833 -0.014855 0.243368
-0.108008 -0.014899 0.244111
-0.107252 -0.014953 0.245019
-0.106446 -0.015001 0.245825
-0.105644 -0.015050 0.246652
-0.104756 -0.015089 0.247289
-0.103913 -0.015135 0.248041
-0.103077 -0.015183 0.248821
-0.102216 -0.015228 0.249556
-0.101345 -0.015273 0.250276
-0.100496 -0.015323 0.251062
-0.099665 -0.015376 0.251908
-0.098730 -0.015415 0.252504
-0.097901 -0.015471 0.253387
-0.097147 -0.015540 0.254484
-0.096291 -0.015595 0.255332
-0.095448 -0.015654 0.256236
-0.094721 -0.015733 0.257473
-0.094708 -0.015934 0.260704
-0.094447 -0.016098 0.263325
-0.094884 -0.016388 0.267986
-0.093909 -0.016437 0.268723
-0.094257 -0.016723 0.273319
-0.094229 -0.016950 0.276931
-0.093553 -0.017064 0.278710
-0.092454 -0.017104 0.279263
-0.091612 -0.017193 0.280618
-0.091101 -0.017347 0.283037
-0.090267 -0.017444 0.284511
-0.089001 -0.017459 0.284647
-0.087681 -0.017464 0.284613
-0.086662 -0.017530 0.285570
-0.088287 -0.018141 0.295405
-0.087691 -0.018308 0.298003
-0.085639 -0.018172 0.295655
-0.084058 -0.018133 0.294891
-0.082721 -0.018146 0.294973
-0.080960 -0.018065 0.293523
-0.079849 -0.018128 0.294424
-0.078541 -0.018148 0.294618
-0.077300 -0.018186 0.295085
-0.076137 -0.018242 0.295868
-0.074674 -0.018228 0.295503
-0.073716 -0.018340 0.297164
-0.072524 -0.018396 0.297929
-0.071256 -0.018434 0.298416
-0.067563 -0.017835 0.288565
-0.066253 -0.017852 0.288707
-0.064947 -0.017871 0.288879
-0.063643 -0.017892 0.289078
-0.062363 -0.017921 0.289400
-0.061065 -0.017945 0.289656
-0.059723 -0.017958 0.289719
-0.058368 -0.017967 0.289726
-0.057018 -0.017978 0.289768
-0.055682 -0.017994 0.289895
-0.054278 -0.017989 0.289670
-0.052855 -0.017977 0.289345
-0.051579 -0.018016 0.289833
-0.050193 -0.018017 0.289719
-0.048741 -0.017994 0.289221
-0.043325 -0.018051 0.289636
-0.039936 -0.017783 0.285088
-0.038794 -0.017889 0.286679
-0.036695 -0.017546 0.281065
-0.035748 -0.017748 0.284195
-0.034499 -0.017811 0.285089
-0.033155 -0.017827 0.285248
-0.029571 -0.016589 0.265343
-0.028156 -0.016510 0.263990
-0.026824 -0.016475 0.263340
-0.025516 -0.016452 0.262889
-0.024261 -0.016463 0.262970
-0.023029 -0.016491 0.263345
-0.021793 -0.016520 0.263723
-0.020695 -0.016663 0.265931
-0.019405 -0.016661 0.265831
-0.018212 -0.016747 0.267134
-0.017016 -0.016843 0.268610
-0.015673 -0.016799 0.267846
-0.011224 -0.016008 0.255078
-0.010028 -0.016073 0.256073
-0.008796 -0.016091 0.256319
-0.007547 -0.016080 0.256106
-0.006326 -0.016136 0.256968
-0.005082 -0.016146 0.257096
-0.003850 -0.016213 0.258138
-0.002595 -0.016203 0.257953
-0.001351 -0.016298 0.259458
-0.000091 -0.016338 0.260070
0.001185 -0.016522 0.262998
0.002462 -0.016522 0.262990
0.003833 -0.016934 0.269546
0.005202 -0.017131 0.272676
0.006370 -0.016720 0.266142
0.007541 -0.016454 0.261923
0.008806 -0.016441 0.261726
0.010072 -0.016432 0.261603
0.011299 -0.016368 0.260601
0.012597 -0.016410 0.261289
0.013915 -0.016468 0.262250
0.015244 -0.016528 0.263228
0.016569 -0.016575 0.264018
0.017904 -0.016624 0.264837
0.019217 -0.016647 0.265257
0.020556 -0.016689 0.265961
0.021977 -0.016788 0.267602
0.023262 -0.016778 0.267494
0.025405 -0.017356 0.276761
0.026881 -0.017442 0.278201
0.028210 -0.017430 0.278070
0.029448 -0.017365 0.277100
0.030696 -0.017311 0.276311
0.031735 -0.017149 0.273801
0.033057 -0.017146 0.273835
0.034217 -0.017063 0.272592
0.035441 -0.017017 0.271930
0.036697 -0.016989 0.271568
0.037782 -0.016886 0.270016
0.038916 -0.016811 0.268911
0.040120 -0.016771 0.268355
0.041036 -0.016616 0.265970
0.042273 -0.016597 0.265761
0.043567 -0.016601 0.265914
0.043915 -0.016254 0.260459
0.044267 -0.015928 0.255330
0.045364 -0.015881 0.254661
0.046504 -0.015851 0.254276
0.047750 -0.015857 0.254473
0.048927 -0.015841 0.254316
0.050139 -0.015836 0.254342
0.051460 -0.015866 0.254919
0.052722 -0.015876 0.255183
0.054281 -0.015973 0.256850
0.055773 -0.016047 0.258137
0.057691 -0.016237 0.261302
0.059825 -0.016479 0.265300
0.061973 -0.016714 0.269200
0.063413 -0.016753 0.269929
0.064785 -0.016772 0.270355
0.066164 -0.016793 0.270795
0.067548 -0.016814 0.271240
0.068850 -0.016814 0.271350
0.069911 -0.016757 0.270529
0.070881 -0.016680 0.269392
0.070763 -0.016354 0.264232
0.071751 -0.016291 0.263314
0.072687 -0.016219 0.262244
0.073532 -0.016128 0.260884
0.074328 -0.016031 0.259399
0.074924 -0.015894 0.257278
0.075938 -0.015849 0.256637
0.077029 -0.015821 0.256275
0.078156 -0.015801 0.256039
0.079364 -0.015799 0.256076
0.080551 -0.015792 0.256042
0.081872 -0.015811 0.256428
0.083288 -0.015847 0.257099
0.084656 -0.015874 0.257602
0.086294 -0.015950 0.258898
0.099026 -0.018045 0.292983
0.100255 -0.018015 0.292566
0.101435 -0.017977 0.292017
0.102908 -0.017991 0.292311
0.104244 -0.017981 0.292213
0.105411 -0.017943 0.291646
0.106651 -0.017918 0.291289
0.107940 -0.017902 0.291069
0.109185 -0.017879 0.290735
0.110458 -0.017861 0.290477
0.111713 -0.017841 0.290175
0.112981 -0.017823 0.289911
0.115417 -0.017988 0.292607
0.116850 -0.017994 0.292720
0.118055 -0.017966 0.292259
0.119442 -0.017966 0.292250
0.120836 -0.017966 0.292251
0.121886 -0.017916 0.291422
0.123398 -0.017934 0.291696
0.124767 -0.017932 0.291623
0.125514 -0.017841 0.290104
0.127598 -0.017940 0.291667
0.129258 -0.017978 0.292229
0.130236 -0.017921 0.291242
0.131740 -0.017937 0.291430
0.133332 -0.017965 0.291797
0.134813 -0.017977 0.291906
0.136225 -0.017980 0.291853
0.137806 -0.018005 0.292147
0.139303 -0.018018 0.292245
0.140760 -0.018026 0.292248
0.142204 -0.018033 0.292209
0.143590 -0.018031 0.292039
0.145070 -0.018042 0.292048
0.146308 -0.018023 0.291560
0.147852 -0.018041 0.291668
0.149381 -0.018057 0.291729
0.151098 -0.018096 0.292135
0.152235 -0.018065 0.291406
-0.122223 -0.013071 0.230422
-0.121545 -0.013115 0.231362
-0.120962 -0.013170 0.232488
-0.119824 -0.013165 0.232548
-0.119339 -0.013232 0.233878
-0.118716 -0.013285 0.234947
-0.117908 -0.013318 0.235657
-0.117199 -0.013364 0.236570
-0.116531 -0.013414 0.237574
-0.115657 -0.013442 0.238162
-0.114766 -0.013469 0.238720
-0.113912 -0.013500 0.239356
-0.113057 -0.013532 0.239993
-0.112217 -0.013566 0.240669
-0.111336 -0.013596 0.241260
-0.110438 -0.013625 0.241817
-0.109650 -0.013668 0.242622
-0.108844 -0.013709 0.243398
-0.108085 -0.013758 0.244288
-0.107268 -0.013800 0.245059
-0.106480 -0.013847 0.245906
-0.105700 -0.013896 0.246786
-0.104825 -0.013933 0.247451
-0.103919 -0.013967 0.248056
-0.103086 -0.014011 0.248843
-0.102235 -0.014055 0.249600
-0.101394 -0.014100 0.250393
-0.100584 -0.014152 0.251279
-0.099723 -0.014197 0.252052
