ply
format ascii 1.0
element vertex 1680
property float x
property float y
property float z
end_header
0.035954 -0.064395 0.259721
0.037174 -0.064358 0.259614
0.038493 -0.064491 0.260194
0.039697 -0.064426 0.259979
0.040860 -0.064301 0.259525
0.041998 -0.064146 0.258945
0.043293 -0.064233 0.259347
0.044569 -0.064287 0.259613
0.045994 -0.064548 0.260716
0.047255 -0.064571 0.260859
0.048633 -0.064748 0.261623
0.050024 -0.064932 0.262419
0.051438 -0.065138 0.263303
0.052749 -0.065205 0.263626
0.054256 -0.065506 0.264895
0.055634 -0.065643 0.265496
0.057047 -0.065812 0.266231
0.058644 -0.066182 0.267779
0.060368 -0.066675 0.269825
0.062021 -0.067072 0.271481
0.063484 -0.067252 0.272259
0.064924 -0.067400 0.272905
0.066284 -0.067461 0.273198
0.067484 -0.067360 0.272835
0.068742 -0.067319 0.272714
0.069922 -0.067205 0.272294
0.070919 -0.066923 0.271193
0.072064 -0.066787 0.270680
0.072730 -0.066221 0.268421
0.073727 -0.065970 0.267438
0.074897 -0.065879 0.267101
0.076165 -0.065876 0.267122
0.077363 -0.065814 0.266897
0.079065 -0.066176 0.268387
0.080805 -0.066557 0.269956
0.082304 -0.066731 0.270682
0.083840 -0.066929 0.271500
0.085548 -0.067257 0.272844
0.086603 -0.067068 0.272088
0.088525 -0.067548 0.274038
0.090842 -0.068310 0.277132
0.096476 -0.071508 0.290105
0.097725 -0.071412 0.289710
0.099781 -0.071900 0.291681
0.101409 -0.072071 0.292359
0.102737 -0.072026 0.292157
0.103958 -0.071909 0.291656
0.105461 -0.071988 0.291945
0.106812 -0.071962 0.291801
0.108310 -0.072034 0.292052
0.109746 -0.072064 0.292125
0.111207 -0.072109 0.292251
0.112664 -0.072150 0.292358
0.113915 -0.072060 0.291927
0.115328 -0.072073 0.291906
0.116897 -0.072183 0.292269
0.118852 -0.072526 0.293566
0.120430 -0.072632 0.293900
0.121832 -0.072632 0.293794
0.123351 -0.072701 0.293959
0.124856 -0.072759 0.294074
0.126303 -0.072783 0.294040
0.127640 -0.072744 0.293741
0.128911 -0.072669 0.293287
0.130413 -0.072723 0.293349
0.131888 -0.072761 0.293335
0.133494 -0.072871 0.293596
0.134961 -0.072903 0.293535
0.136264 -0.072847 0.293107
0.137609 -0.072813 0.292760
0.139284 -0.072953 0.293099
0.140780 -0.072998 0.293042
0.142357 -0.073084 0.293135
0.144051 -0.073227 0.293446
0.145577 -0.073282 0.293391
0.147217 -0.073394 0.293545
0.148978 -0.073563 0.293914
0.150378 -0.073552 0.293549
0.151688 -0.073498 0.292995
0.153146 -0.073515 0.292710
0.154537 -0.073501 0.292283
-0.128222 -0.058476 0.239208
-0.127207 -0.058533 0.239721
-0.126308 -0.058646 0.240448
-0.125292 -0.058706 0.240948
-0.124337 -0.058795 0.241557
-0.123444 -0.058916 0.242287
-0.122511 -0.059021 0.242936
-0.121439 -0.059059 0.243304
-0.120440 -0.059134 0.243812
-0.119403 -0.059192 0.244239
-0.118274 -0.059206 0.244473
-0.117212 -0.059253 0.244837
-0.116305 -0.059380 0.245523
-0.115478 -0.059551 0.246383
-0.114935 -0.059874 0.247861
-0.114701 -0.060366 0.250034
-0.114118 -0.060683 0.251475
-0.113430 -0.060950 0.252702
-0.112933 -0.061327 0.254374
-0.112543 -0.061770 0.256321
-0.111835 -0.062047 0.257565
-0.111343 -0.062450 0.259333
-0.111023 -0.062961 0.261537
-0.110421 -0.063321 0.263111
-0.109400 -0.063447 0.263705
-0.108840 -0.063845 0.265426
-0.108719 -0.064514 0.268264
-0.111584 -0.066991 0.278619
-0.115867 -0.070389 0.292799
-0.113716 -0.069912 0.290860
-0.112276 -0.069866 0.290706
-0.110718 -0.069745 0.290232
-0.109297 -0.069709 0.290105
-0.108102 -0.069817 0.290576
-0.106837 -0.069883 0.290861
-0.105547 -0.069934 0.291081
-0.104345 -0.070045 0.291547
-0.103103 -0.070131 0.291905
-0.101831 -0.070200 0.292185
-0.100563 -0.070274 0.292478
-0.099201 -0.070283 0.292499
-0.098037 -0.070434 0.293107
-0.096569 -0.070369 0.292810
-0.094903 -0.070155 0.291892
-0.093343 -0.070014 0.291274
-0.095273 -0.072526 0.301684
-0.093984 -0.072627 0.302064
-0.092545 -0.072613 0.301960
-0.091481 -0.072898 0.303095
-0.089525 -0.072469 0.301260
-0.088065 -0.072435 0.301064
-0.086534 -0.072341 0.300616
-0.084966 -0.072211 0.300018
-0.083189 -0.071897 0.298650
-0.081755 -0.071874 0.298489
-0.080417 -0.071935 0.298679
-0.079031 -0.071956 0.298695
-0.077591 -0.071927 0.298504
-0.076330 -0.072067 0.299012
-0.075360 -0.072490 0.300694
-0.073759 -0.072313 0.299881
-0.072303 -0.072273 0.299639
-0.070976 -0.072363 0.299934
-0.067204 -0.069914 0.289705
-0.066188 -0.070289 0.291179
-0.064856 -0.070337 0.291300
-0.063539 -0.070405 0.291498
-0.062197 -0.070447 0.291593
-0.060821 -0.070452 0.291531
-0.059439 -0.070450 0.291441
-0.058045 -0.070434 0.291293
-0.056662 -0.070430 0.291192
-0.055267 -0.070410 0.291030
-0.053944 -0.070485 0.291257
-0.052602 -0.070537 0.291390
-0.051244 -0.070571 0.291447
-0.049880 -0.070598 0.291476
-0.048448 -0.070528 0.291109
-0.047063 -0.070524 0.291008
-0.045685 -0.070531 0.290961
-0.044320 -0.070559 0.290995
-0.042945 -0.070573 0.290975
-0.041185 -0.069932 0.288258
-0.039523 -0.069422 0.286083
-0.039049 -0.071036 0.292657
-0.037687 -0.071094 0.292821
-0.036198 -0.070907 0.291979
-0.035100 -0.071504 0.294368
-0.033723 -0.071557 0.294516
-0.030012 -0.066447 0.273420
-0.028361 -0.065643 0.270052
-0.027085 -0.065668 0.270097
-0.025673 -0.065354 0.268746
-0.024234 -0.064934 0.266964
-0.022949 -0.064900 0.266773
-0.021721 -0.065037 0.267284
-0.020478 -0.065139 0.267655
-0.019224 -0.065221 0.267945
-0.017984 -0.065363 0.268484
-0.016712 -0.065405 0.268610
-0.015356 -0.065098 0.267312
-0.014179 -0.065562 0.269177
-0.012879 -0.065491 0.268849
-0.011372 -0.064238 0.263672
-0.010035 -0.063753 0.261648
-0.008814 -0.063972 0.262517
-0.007496 -0.063445 0.260331
-0.006244 -0.063372 0.260007
-0.005012 -0.063524 0.260608
-0.003770 -0.063600 0.260899
-0.002526 -0.063733 0.261429
-0.001279 -0.063902 0.262105
-0.000024 -0.064110 0.262947
0.001251 -0.064974 0.266482
0.002539 -0.065310 0.267851
0.003790 -0.064774 0.265646
0.005100 -0.065259 0.267635
0.006364 -0.065083 0.266913
0.007519 -0.064035 0.262616
0.008709 -0.063540 0.260589
0.009965 -0.063595 0.260822
0.011182 -0.063417 0.260101
0.012400 -0.063277 0.259539
0.013656 -0.063336 0.259792
0.014932 -0.063475 0.260378
0.016184 -0.063495 0.260479
0.017459 -0.063594 0.260903
0.018772 -0.063812 0.261823
0.020184 -0.064318 0.263920
0.021582 -0.064720 0.265600
0.022970 -0.065051 0.266985
0.024232 -0.065007 0.266836
0.025455 -0.064869 0.266300
0.026610 -0.064579 0.265147
0.027653 -0.064057 0.263037
0.028813 -0.063838 0.262176
0.029918 -0.063521 0.260909
0.031074 -0.063334 0.260181
0.032290 -0.063277 0.259988
0.033504 -0.063221 0.259803
0.034754 -0.063235 0.259902
0.036027 -0.063289 0.260169
0.037257 -0.063264 0.260115
0.038519 -0.063295 0.260289
0.039798 -0.063351 0.260566
0.041089 -0.063422 0.260908
0.042145 -0.063136 0.259782
0.043534 -0.063351 0.260715
0.044907 -0.063531 0.261510
0.046196 -0.063586 0.261788
0.047643 -0.063851 0.262930
0.048809 -0.063735 0.262503
0.050284 -0.064017 0.263719
0.051805 -0.064342 0.265111
0.053269 -0.064584 0.266161
0.054743 -0.064825 0.267209
0.056051 -0.064864 0.267422
0.057411 -0.064959 0.267870
0.058724 -0.064999 0.268087
0.060609 -0.065657 0.270851
0.061955 -0.065714 0.271140
0.063340 -0.065811 0.271589
0.064966 -0.066148 0.273030
0.066288 -0.066169 0.273168
0.067533 -0.066113 0.272986
0.068738 -0.066022 0.272656
0.069879 -0.065874 0.272089
0.071048 -0.065756 0.271646
0.072092 -0.065530 0.270751
0.073049 -0.065233 0.269566
0.074256 -0.065166 0.269324
0.075352 -0.065006 0.268699
0.076300 -0.064725 0.267570
0.077879 -0.064980 0.268652
0.079326 -0.065118 0.269251
0.080896 -0.065352 0.270244
0.082644 -0.065719 0.271786
0.083842 -0.065644 0.271495
0.085665 -0.066054 0.273207
0.086719 -0.065868 0.272447
0.088353 -0.066120 0.273500
0.090602 -0.066819 0.276396
0.098401 -0.071533 0.295897
0.099674 -0.071436 0.295494
0.099751 -0.070497 0.291603
0.101124 -0.070487 0.291547
0.102774 -0.070667 0.292277
0.103925 -0.070505 0.291583
0.105340 -0.070523 0.291630
0.106721 -0.070518 0.291577
0.108148 -0.070544 0.291644
0.109561 -0.070559 0.291664
0.111030 -0.070610 0.291822
0.112479 -0.070647 0.291919
0.113954 -0.070699 0.292069
0.115415 -0.070741 0.292174
0.116831 -0.070755 0.292154
0.118350 -0.070831 0.292381
0.120313 -0.071167 0.293674
0.121845 -0.071243 0.293889
0.122387 -0.070746 0.291727
0.124571 -0.071198 0.293474
0.125979 -0.071201 0.293361
0.127427 -0.071226 0.293330
0.128737 -0.071175 0.292976
0.130154 -0.071183 0.292855
0.131581 -0.071197 0.292747
0.133254 -0.071342 0.293168
0.134854 -0.071445 0.293406
0.136008 -0.071312 0.292663
0.137461 -0.071337 0.292558
0.139006 -0.071409 0.292634
0.140615 -0.071511 0.292823
0.142270 -0.071635 0.293085
0.143861 -0.071724 0.293192
0.145318 -0.071745 0.293008
0.146934 -0.071844 0.293127
0.148576 -0.071954 0.293274
0.150258 -0.072080 0.293472
0.151594 -0.072040 0.292977
0.153283 -0.072167 0.293145
0.154865 -0.072241 0.293081
-0.128146 -0.057293 0.239193
-0.126965 -0.057274 0.239388
-0.125935 -0.057324 0.239856
-0.124991 -0.057414 0.240482
-0.123944 -0.057458 0.240905
-0.122949 -0.057527 0.241420
-0.122027 -0.057632 0.242077
-0.120986 -0.057683 0.242492
-0.120025 -0.057773 0.243066
-0.119061 -0.057863 0.243630
-0.118163 -0.057987 0.244328
-0.117260 -0.058112 0.245020
-0.116374 -0.058248 0.245747
-0.115522 -0.058403 0.246550
-0.114800 -0.058629 0.247641
-0.113990 -0.058813 0.248551
-0.113377 -0.059104 0.249906
-0.112671 -0.059353 0.251071
-0.112538 -0.059911 0.253541
-0.112021 -0.060275 0.255183
-0.111459 -0.060623 0.256751
-0.110633 -0.060833 0.257726
-0.110287 -0.061314 0.259847
-0.109771 -0.061711 0.261604
-0.109044 -0.061998 0.262885
-0.108452 -0.062367 0.264514
-0.107766 -0.062691 0.265943
-0.111678 -0.065730 0.278882
-0.109818 -0.065402 0.277538
-0.113780 -0.068576 0.291045
-0.112504 -0.068632 0.291316
-0.111723 -0.068995 0.292882
-0.110635 -0.069175 0.293670
-0.110017 -0.069657 0.295731
-0.108825 -0.069784 0.296279
-0.107340 -0.069723 0.296026
-0.106234 -0.069910 0.296821
-0.104843 -0.069913 0.296826
-0.102791 -0.069469 0.294931
-0.100297 -0.068710 0.291693
-0.098920 -0.068706 0.291655
-0.097441 -0.068630 0.291309
-0.096143 -0.068680 0.291496
-0.094898 -0.068772 0.291853
-0.093413 -0.068689 0.291466
-0.091474 -0.068265 0.289626
-0.094085 -0.071276 0.302354
-0.092331 -0.071021 0.301224
-0.091219 -0.071259 0.302186
-0.089679 -0.071166 0.301737
-0.087758 -0.070763 0.299968
-0.086290 -0.070718 0.299717
-0.084675 -0.070548 0.298937
-0.083161 -0.070460 0.298497
-0.081658 -0.070377 0.298077
-0.080331 -0.070445 0.298298
-0.079105 -0.070607 0.298911
-0.077827 -0.070727 0.299345
-0.076554 -0.070856 0.299817
-0.075693 -0.071379 0.301952
-0.073994 -0.071116 0.300761
-0.072841 -0.071378 0.301788
-0.071505 -0.071468 0.302086
-0.068247 -0.069602 0.294115
-0.066283 -0.069005 0.291513
-0.064906 -0.069006 0.291437
-0.063525 -0.069005 0.291346
-0.062311 -0.069187 0.292034
-0.060856 -0.069105 0.291604
-0.059469 -0.069098 0.291488
-0.058175 -0.069201 0.291840
-0.056717 -0.069111 0.291373
-0.055345 -0.069123 0.291339
-0.053986 -0.069151 0.291374
-0.052601 -0.069147 0.291275
-0.051248 -0.069188 0.291360
-0.049842 -0.069156 0.291143
-0.048441 -0.069129 0.290946
-0.047068 -0.069142 0.290919
-0.045696 -0.069159 0.290908
-0.044304 -0.069144 0.290766
-0.042903 -0.069115 0.290564
-0.041180 -0.068546 0.288096
-0.039579 -0.068150 0.286356
-0.038701 -0.069015 0.289914
-0.037352 -0.069072 0.290077
-0.036112 -0.069344 0.291147
-0.035134 -0.070162 0.294508
-0.033756 -0.070214 0.294657
-0.030271 -0.065698 0.275638
-0.028755 -0.065240 0.273654
-0.027357 -0.065020 0.272673
-0.025898 -0.064626 0.270959
-0.024476 -0.064285 0.269476
-0.023105 -0.064053 0.268447
-0.021859 -0.064156 0.268828
-0.020598 -0.064226 0.269070
-0.019282 -0.064124 0.268595
-0.018020 -0.064199 0.268863
-0.016740 -0.064219 0.268903
-0.015415 -0.064055 0.268174
-0.014266 -0.064657 0.270656
-0.012899 -0.064292 0.269091
-0.011345 -0.062814 0.262869
-0.010004 -0.062292 0.260652
-0.008802 -0.062611 0.261957
-0.007488 -0.062113 0.259848
-0.006248 -0.062140 0.259935
-0.005009 -0.062202 0.260173
-0.003772 -0.062345 0.260751
-0.002532 -0.062542 0.261559
-0.001280 -0.062599 0.261784
-0.000027 -0.062883 0.262959
0.001243 -0.063426 0.265219
0.002536 -0.064007 0.267641
0.003786 -0.063468 0.265383
0.005086 -0.063842 0.266942
0.006376 -0.063950 0.267394
0.007518 -0.062792 0.262553
0.008712 -0.062339 0.260665
0.009985 -0.062491 0.261305
0.011173 -0.062135 0.259828
0.012412 -0.062104 0.259711
0.013668 -0.062159 0.259954
0.014954 -0.062327 0.260674
0.016208 -0.062349 0.260782
0.017484 -0.062445 0.261207
0.018810 -0.062695 0.262275
0.020150 -0.062957 0.263396
0.021513 -0.063254 0.264665
0.022859 -0.063473 0.265610
0.024144 -0.063507 0.265786
0.025297 -0.063207 0.264563
0.026594 -0.063281 0.264906
0.027578 -0.062635 0.262240
0.028688 -0.062320 0.260957
0.029885 -0.062211 0.260539
0.031035 -0.062017 0.259769
0.032255 -0.061973 0.259629
0.033515 -0.062004 0.259803
0.034782 -0.062047 0.260028
0.036068 -0.062120 0.260380
0.037289 -0.062081 0.260262
0.038559 -0.062122 0.260482
0.039882 -0.062241 0.261034
0.041155 -0.062281 0.261251
0.042346 -0.062195 0.260941
0.043519 -0.062090 0.260555
0.045058 -0.062497 0.262315
0.046379 -0.062588 0.262752
0.047593 -0.062535 0.262582
0.049197 -0.062983 0.264519
0.050793 -0.063399 0.266320
0.052095 -0.063436 0.266532
0.053632 -0.063751 0.267910
0.054951 -0.063798 0.268163
0.056244 -0.063812 0.268279
0.057766 -0.064081 0.269467
0.059019 -0.064046 0.269375
0.060737 -0.064506 0.271365
0.062293 -0.064779 0.272566
0.063537 -0.064722 0.272378
0.065153 -0.065039 0.273768
0.066464 -0.065045 0.273844
0.067699 -0.064977 0.273610
0.068993 -0.064968 0.273621
0.070037 -0.064729 0.272662
0.071238 -0.064640 0.272332
0.072442 -0.064557 0.272027
0.073354 -0.064221 0.270654
0.074367 -0.063985 0.269696
0.075757 -0.064074 0.270111
0.076563 -0.063675 0.268463
0.077791 -0.063635 0.268326
0.079431 -0.063927 0.269588
0.080718 -0.063930 0.269629
0.082109 -0.064014 0.270009
0.084050 -0.064518 0.272155
0.085678 -0.064769 0.273235
0.086919 -0.064725 0.273065
0.088202 -0.064714 0.273028
0.090526 -0.065454 0.276161
0.097758 -0.069673 0.293963
0.099021 -0.069577 0.293562
0.099756 -0.069118 0.291621
0.101203 -0.069159 0.291784
0.102565 -0.069142 0.291697
0.104036 -0.069197 0.291910
0.105443 -0.069208 0.291935
0.106978 -0.069302 0.292301
0.108283 -0.069247 0.292033
0.109700 -0.069264 0.292063
0.111208 -0.069336 0.292322
0.112561 -0.069313 0.292169
0.113954 -0.069313 0.292110
0.115225 -0.069240 0.291737
0.116656 -0.069265 0.291765
0.118540 -0.069554 0.292902
0.120332 -0.069783 0.293777
0.121653 -0.069736 0.293486
0.123092 -0.069758 0.293472
0.124519 -0.069772 0.293418
0.125901 -0.069762 0.293251
0.127252 -0.069734 0.293004
0.128733 -0.069778 0.293047
0.129994 -0.069702 0.292580
0.131456 -0.069735 0.292557
0.132962 -0.069790 0.292619
0.134756 -0.069993 0.293292
0.135853 -0.069834 0.292433
0.137067 -0.069738 0.291829
0.138828 -0.069918 0.292371
0.140384 -0.069994 0.292461
0.142003 -0.070098 0.292658
0.143813 -0.070294 0.293224
0.145208 -0.070286 0.292923
0.146774 -0.070359 0.292947
0.148447 -0.070482 0.293164
0.150154 -0.070619 0.293422
0.151441 -0.070557 0.292840
0.152835 -0.070545 0.292450
0.154150 -0.070498 0.291898
-0.127810 -0.055997 0.238688
-0.126899 -0.056097 0.239382
-0.125947 -0.056180 0.239993
-0.124719 -0.056141 0.240068
-0.123775 -0.056230 0.240681
-0.122797 -0.056304 0.241223
-0.121790 -0.056368 0.241704
-0.120836 -0.056457 0.242286
-0.119919 -0.056565 0.242939
-0.119012 -0.056680 0.243615
-0.118129 -0.056809 0.244340
-0.117299 -0.056966 0.245178
-0.116407 -0.057097 0.245892
-0.115581 -0.057262 0.246747
-0.114693 -0.057400 0.247477
-0.113871 -0.057574 0.248357
-0.113002 -0.057728 0.249139
-0.112403 -0.058025 0.250531
-0.112174 -0.058520 0.252777
-0.112032 -0.059073 0.255260
-0.111217 -0.059279 0.256241
-0.110466 -0.059524 0.257383
-0.109633 -0.059729 0.258349
-0.109155 -0.060135 0.260173
-0.108759 -0.060596 0.262233
-0.108855 -0.061344 0.265530
-0.108007 -0.061573 0.266569
-0.107331 -0.061905 0.268052
-0.106755 -0.062304 0.269820
-0.110255 -0.065119 0.282048
-0.109654 -0.065552 0.283953
-0.107717 -0.065188 0.282396
-0.106146 -0.065038 0.281765
-0.104726 -0.064978 0.281517
-0.104116 -0.065426 0.283464
-0.104114 -0.066272 0.287130
-0.104032 -0.067089 0.290668
-0.102971 -0.067288 0.291521
-0.101381 -0.067142 0.290875
-0.100272 -0.067315 0.291606
-0.099049 -0.067416 0.292019
-0.097419 -0.067239 0.291225
-0.095878 -0.067118 0.290670
-0.094535 -0.067135 0.290711
-0.093174 -0.067140 0.290691
-0.091792 -0.067128 0.290600
-0.090503 -0.067187 0.290808
-0.092879 -0.070009 0.302974
-0.091582 -0.070108 0.303346
-0.089499 -0.069599 0.301085
-0.087819 -0.069392 0.300129
-0.086651 -0.069589 0.300920
-0.085131 -0.069506 0.300493
-0.083659 -0.069460 0.300227
-0.082199 -0.069422 0.299992
-0.080629 -0.069288 0.299343
-0.079305 -0.069365 0.299600
-0.077943 -0.069411 0.299723
-0.076505 -0.069390 0.299555
-0.075523 -0.069790 0.301199
-0.074100 -0.069789 0.301114
-0.072738 -0.069847 0.301282
-0.071404 -0.069936 0.301580
-0.067365 -0.067324 0.290234
-0.066199 -0.067535 0.291060
-0.064663 -0.067368 0.290258
-0.063522 -0.067616 0.291241
-0.062025 -0.067488 0.290602
-0.060626 -0.067462 0.290407
-0.059422 -0.067658 0.291162
-0.058060 -0.067678 0.291162
-0.056714 -0.067719 0.291254
-0.055349 -0.067739 0.291252
-0.054029 -0.067817 0.291498
-0.052692 -0.067876 0.291666
-0.051259 -0.067812 0.291306
-0.049883 -0.067822 0.291266
-0.048490 -0.067809 0.291123
-0.047101 -0.067801 0.291003
-0.045723 -0.067808 0.290953
-0.044351 -0.067826 0.290948
-0.042983 -0.067852 0.290976
-0.041159 -0.067134 0.287819
-0.039604 -0.066823 0.286407
-0.038645 -0.067530 0.289362
-0.037298 -0.067586 0.289525
-0.036070 -0.067871 0.290671
-0.034892 -0.068277 0.292338
-0.033524 -0.068329 0.292486
-0.030219 -0.064267 0.275031
-0.028857 -0.064155 0.274489
-0.027601 -0.064279 0.274956
-0.026115 -0.063855 0.273084
-0.024711 -0.063597 0.271920
-0.023341 -0.063402 0.271032
-0.022000 -0.063269 0.270410
-0.020712 -0.063281 0.270409
-0.019453 -0.063387 0.270815
-0.018106 -0.063205 0.269989
-0.016848 -0.063327 0.270466
-0.015479 -0.063020 0.269111
-0.014242 -0.063242 0.270020
-0.012967 -0.063323 0.270326
-0.011369 -0.061672 0.263244
-0.010000 -0.061005 0.260362
-0.008768 -0.061105 0.260763
-0.007499 -0.060933 0.259999
-0.006244 -0.060836 0.259561
-0.005008 -0.060920 0.259898
-0.003778 -0.061147 0.260846
-0.002538 -0.061374 0.261799
-0.001282 -0.061297 0.261453
-0.000030 -0.061752 0.263383
0.001243 -0.062286 0.265649
0.002531 -0.062676 0.267305
0.003795 -0.062402 0.266132
0.005082 -0.062547 0.266748
0.006343 -0.062374 0.266010
0.007555 -0.061862 0.263827
0.008726 -0.061207 0.261038
0.009988 -0.061274 0.261333
0.011185 -0.060972 0.260053
0.012399 -0.060809 0.259373
0.013656 -0.060874 0.259664
0.014903 -0.060885 0.259728
0.016148 -0.060884 0.259742
0.017392 -0.060881 0.259751
0.018734 -0.061200 0.261134
0.020137 -0.061665 0.263144
0.021523 -0.062024 0.264705
0.022875 -0.062254 0.265715
0.024157 -0.062275 0.265840
0.025388 -0.062171 0.265429
0.026571 -0.061966 0.264592
0.027559 -0.061344 0.261973
0.028723 -0.061151 0.261186
0.029809 -0.060815 0.259792
0.030954 -0.060621 0.259005
0.032195 -0.060624 0.259060
0.033436 -0.060624 0.259108
0.034739 -0.060734 0.259624
0.036091 -0.060920 0.260469
0.037372 -0.060977 0.260761
0.038689 -0.061087 0.261280
0.040090 -0.061317 0.262318
0.041276 -0.061217 0.261940
0.042600 -0.061319 0.262431
0.043598 -0.060960 0.260947
0.044841 -0.060954 0.260979
0.046438 -0.061417 0.263018
0.047654 -0.061364 0.262847
0.049260 -0.061804 0.264785
0.049989 -0.061148 0.262033
0.051401 -0.061340 0.262912
0.052784 -0.061489 0.263606
0.053909 -0.061337 0.263011
0.055285 -0.061471 0.263642
0.057012 -0.061981 0.265889
0.058184 -0.061878 0.265505
0.060174 -0.062631 0.268789
0.062016 -0.063201 0.271294
0.063283 -0.063175 0.271237
0.064854 -0.063447 0.272458
0.066394 -0.063678 0.273505
0.067637 -0.063621 0.273314
0.069033 -0.063707 0.273733
0.070359 -0.063726 0.273868
0.071507 -0.063587 0.273318
0.072586 -0.063392 0.272527
0.073530 -0.063089 0.271269
0.074714 -0.062998 0.270920
0.075784 -0.062816 0.270177
0.076972 -0.062736 0.269869
0.078214 -0.062702 0.269758
0.079525 -0.062723 0.269882
0.080898 -0.062791 0.270206
0.082313 -0.062890 0.270658
0.084120 -0.063280 0.272364
0.085818 -0.063578 0.273667
0.086984 -0.063479 0.273259
0.088242 -0.063448 0.273143
0.090368 -0.064034 0.275673
0.097430 -0.068050 0.292972
0.098688 -0.067956 0.292572
0.099745 -0.067729 0.291592
0.101318 -0.067853 0.292122
0.102787 -0.067905 0.292335
0.103976 -0.067773 0.291752
0.105402 -0.067798 0.291838
0.106821 -0.067817 0.291893
0.108304 -0.067876 0.292113
0.109840 -0.067965 0.292461
0.111473 -0.068112 0.293050
0.112875 -0.068116 0.293015
0.114273 -0.068117 0.292964
0.115467 -0.067998 0.292390
0.116882 -0.068011 0.292375
0.118459 -0.068116 0.292749
0.120333 -0.068388 0.293831
0.121648 -0.068339 0.293530
0.122956 -0.068287 0.293207
0.124554 -0.068397 0.293566
0.125901 -0.068367 0.293320
0.127334 -0.068384 0.293265
0.128725 -0.068378 0.293105
0.130340 -0.068490 0.293439
0.131696 -0.068465 0.293177
0.133060 -0.068445 0.292925
0.134475 -0.068450 0.292774
0.135792 -0.068407 0.292400
0.137055 -0.068337 0.291906
0.138519 -0.068368 0.291828
0.140232 -0.068520 0.292257
0.141857 -0.068626 0.292477
0.143450 -0.068715 0.292608
0.145311 -0.068929 0.293259
0.146841 -0.068984 0.293216
0.148597 -0.069142 0.293601
0.150463 -0.069349 0.294172
0.151583 -0.069211 0.293267
0.153356 -0.069370 0.293607
0.155911 -0.069877 0.295398
-0.127414 -0.054682 0.238067
-0.126626 -0.054831 0.238980
-0.125727 -0.054935 0.239683
-0.124664 -0.054968 0.240068
-0.123654 -0.055026 0.240547
-0.122735 -0.055125 0.241198
-0.121898 -0.055263 0.242010
-0.120933 -0.055346 0.242569
-0.120036 -0.055462 0.243262
-0.119122 -0.055572 0.243922
-0.118177 -0.055670 0.244518
-0.117304 -0.055804 0.245264
-0.116408 -0.055929 0.245963
-0.115512 -0.056058 0.246669
-0.114638 -0.056199 0.247423
-0.113780 -0.056352 0.248219
-0.112901 -0.056497 0.248973
-0.112186 -0.056728 0.250100
-0.111603 -0.057032 0.251540
-0.111353 -0.057514 0.253761
-0.110747 -0.057821 0.255204
-0.109967 -0.058042 0.256261
-0.109397 -0.058381 0.257830
-0.108774 -0.058699 0.259302
-0.108576 -0.059256 0.261823
-0.108669 -0.059987 0.265105
-0.108602 -0.060645 0.268064
-0.107419 -0.060688 0.268296
-0.106590 -0.060935 0.269422
-0.105875 -0.061253 0.270861
-0.108510 -0.063541 0.281005
-0.106726 -0.063266 0.279808
-0.105281 -0.063188 0.279475
-0.104103 -0.063270 0.279845
-0.102988 -0.063392 0.280391
-0.102062 -0.063637 0.281469
-0.103224 -0.065206 0.288404
-0.102081 -0.065342 0.288994
-0.100834 -0.065414 0.289294
-0.099769 -0.065607 0.290130
-0.098579 -0.065723 0.290618
-0.097191 -0.065708 0.290520
-0.095946 -0.065791 0.290853
-0.094765 -0.065921 0.291388
-0.093316 -0.065866 0.291102
-0.091719 -0.065703 0.290338
-0.090047 -0.065480 0.289305
-0.090832 -0.067065 0.296255
-0.091680 -0.068747 0.303627
-0.089635 -0.068278 0.301496
-0.087637 -0.067831 0.299460
-0.086398 -0.067966 0.299988
-0.085075 -0.068038 0.300240
-0.083499 -0.067907 0.299592
-0.081934 -0.067782 0.298965
-0.080431 -0.067704 0.298546
-0.079241 -0.067891 0.299295
-0.077905 -0.067957 0.299508
-0.076720 -0.068161 0.300325
-0.075497 -0.068338 0.301021
-0.074009 -0.068277 0.300669
-0.072810 -0.068485 0.301502
-0.071477 -0.068573 0.301801
-0.067188 -0.065772 0.289390
-0.066309 -0.066262 0.291457
-0.065041 -0.066375 0.291867
-0.063640 -0.066355 0.291693
-0.062337 -0.066439 0.291971
-0.060823 -0.066296 0.291255
-0.059500 -0.066360 0.291448
-0.058126 -0.066368 0.291396
-0.056697 -0.066313 0.291065
-0.055320 -0.066317 0.290992
-0.054044 -0.066446 0.291470
-0.052639 -0.066419 0.291265
-0.051263 -0.066428 0.291218
-0.049955 -0.066528 0.291569
-0.048511 -0.066448 0.291129
-0.047118 -0.066436 0.290991
-0.045726 -0.066423 0.290851
-0.044325 -0.066397 0.290651
-0.042982 -0.066459 0.290839
-0.041338 -0.066045 0.288946
-0.039648 -0.065525 0.286594
-0.038337 -0.065618 0.286923
-0.037001 -0.065673 0.287086
-0.036073 -0.066484 0.290553
-0.034580 -0.066278 0.289578
-0.032588 -0.065058 0.284177
-0.030812 -0.064183 0.280285
-0.029305 -0.063814 0.278611
-0.027926 -0.063701 0.278051
-0.026459 -0.063367 0.276533
-0.024902 -0.062773 0.273880
-0.023511 -0.062551 0.272854
-0.022203 -0.062539 0.272748
-0.020898 -0.062535 0.272675
-0.019578 -0.062483 0.272397
-0.018269 -0.062463 0.272262
-0.016903 -0.062226 0.271184
-0.015599 -0.062200 0.271028
-0.014373 -0.062506 0.272321
-0.012997 -0.062162 0.270784
-0.011322 -0.060147 0.261971
-0.010013 -0.059821 0.260518
-0.008792 -0.060000 0.261265
-0.007501 -0.059683 0.259860
-0.006252 -0.059644 0.259662
-0.005015 -0.059729 0.260013
-0.003780 -0.059901 0.260741
-0.002538 -0.060074 0.261473
-0.001288 -0.060181 0.261927
-0.000032 -0.060431 0.263003
0.001237 -0.060887 0.264974
0.002526 -0.061328 0.266886
0.003792 -0.061114 0.265952
0.005075 -0.061214 0.266384
0.006327 -0.060965 0.265301
0.007535 -0.060457 0.263094
0.008728 -0.059984 0.261041
0.009964 -0.059889 0.260632
0.011171 -0.059660 0.259648
0.012403 -0.059599 0.259396
0.013667 -0.059689 0.259800
0.014915 -0.059698 0.259858
0.016162 -0.059703 0.259900
0.017466 -0.059899 0.260775
0.018754 -0.060021 0.261331
0.020109 -0.060329 0.262698
0.021487 -0.060663 0.264182
0.022922 -0.061113 0.266170
0.024229 -0.061193 0.266553
0.025396 -0.060927 0.265431
0.026622 -0.060822 0.265012
0.027702 -0.060407 0.263243
0.028766 -0.059995 0.261487
0.029867 -0.059693 0.260210
0.031033 -0.059540 0.259587
0.032252 -0.059493 0.259430
0.033513 -0.059528 0.259627
0.034772 -0.059555 0.259794
0.036141 -0.059761 0.260742
0.037387 -0.059758 0.260781
0.038719 -0.059888 0.261398
0.040056 -0.060018 0.262020
0.041450 -0.060221 0.262962
0.042841 -0.060410 0.263839
0.043771 -0.059955 0.261910
0.044981 -0.059898 0.261718
0.045095 -0.058425 0.255338
0.046290 -0.058393 0.255253
0.047808 -0.058759 0.256909
0.048818 -0.058499 0.255828
0.050017 -0.058471 0.255766
0.051430 -0.058691 0.256782
0.052613 -0.058641 0.256624
0.054067 -0.058891 0.257772
0.055290 -0.058883 0.257796
0.057547 -0.059953 0.262537
0.059620 -0.060789 0.266256
0.061789 -0.061686 0.270246
0.063108 -0.061715 0.270430
0.064627 -0.061935 0.271451
0.066198 -0.062195 0.272645
0.067666 -0.062350 0.273382
0.069041 -0.062415 0.273719
0.070288 -0.062364 0.273550
0.071548 -0.062326 0.273434
0.072666 -0.062168 0.272790
0.073696 -0.061941 0.271841
0.075008 -0.061956 0.271951
0.076262 -0.061922 0.271845
0.077326 -0.061738 0.271079
0.078666 -0.061778 0.271289
0.080009 -0.061817 0.271498
0.081368 -0.061867 0.271753
0.082773 -0.061951 0.272151
0.084257 -0.062090 0.272790
0.086055 -0.062453 0.274407
0.087456 -0.062521 0.274727
0.088451 -0.062301 0.273779
0.090369 -0.062728 0.275670
0.097748 -0.066879 0.293925
0.099009 -0.066787 0.293524
0.099811 -0.066391 0.291787
0.101227 -0.066409 0.291865
0.102681 -0.066451 0.292041
0.104073 -0.066453 0.292037
0.105460 -0.066451 0.292012
0.107170 -0.066650 0.292864
0.108512 -0.066618 0.292695
0.109989 -0.066669 0.292884
0.111433 -0.066698 0.292972
0.112707 -0.066627 0.292611
0.114087 -0.066618 0.292522
0.115500 -0.066630 0.292513
0.116857 -0.066609 0.292353
0.118188 -0.066573 0.292125
0.119754 -0.066670 0.292468
0.121551 -0.066891 0.293349
0.123063 -0.066952 0.293520
0.124350 -0.066891 0.293145
0.125763 -0.066898 0.293063
0.127203 -0.066919 0.293033
0.128598 -0.066916 0.292889
0.130087 -0.066962 0.292947
0.131425 -0.066930 0.292655
0.132811 -0.066922 0.292461
0.134255 -0.066944 0.292384
0.135680 -0.066955 0.292254
0.137147 -0.066988 0.292202
0.138515 -0.066971 0.291924
0.140104 -0.067060 0.292098
0.141967 -0.067278 0.292817
0.143374 -0.067277 0.292572
0.145056 -0.067404 0.292868
0.146730 -0.067525 0.293124
0.148302 -0.067597 0.293154
0.149940 -0.067698 0.293291
0.151242 -0.067646 0.292753
0.152716 -0.067671 0.292533
0.154193 -0.067697 0.292302
-0.127259 -0.053476 0.237891
-0.126528 -0.053645 0.238904
-0.125607 -0.053737 0.239559
-0.124538 -0.053767 0.239926
-0.123717 -0.053904 0.240766
-0.122824 -0.054013 0.241466
-0.121984 -0.054148 0.242270
-0.121077 -0.054255 0.242943
-0.120192 -0.054375 0.243660
-0.119265 -0.054477 0.244292
-0.118351 -0.054588 0.244953
-0.117425 -0.054695 0.245587
-0.116535 -0.054821 0.246300
-0.115623 -0.054940 0.246970
-0.114676 -0.055044 0.247566
-0.113798 -0.055184 0.248315
-0.112980 -0.055356 0.249203
-0.112371 -0.055635 0.250565
-0.112009 -0.056044 0.252503
-0.111554 -0.056415 0.254264
-0.110911 -0.056697 0.255623
-0.109894 -0.056793 0.256130
-0.109609 -0.057273 0.258367
-0.109439 -0.057825 0.260919
-0.109369 -0.058443 0.263765
-0.108413 -0.058596 0.264509
-0.108408 -0.059273 0.267609
-0.107631 -0.059538 0.268846
-0.106646 -0.059694 0.269581
-0.105854 -0.059962 0.270822
-0.105552 -0.060518 0.273356
-0.106418 -0.061766 0.279009
-0.105058 -0.061737 0.278888
-0.103723 -0.061722 0.278827
-0.102872 -0.061999 0.280076
-0.101737 -0.062109 0.280569
-0.100627 -0.062238 0.281141
-0.100262 -0.062837 0.283832
-0.100220 -0.063658 0.287521
-0.099192 -0.063866 0.288436
-0.097981 -0.063960 0.288834
-0.096764 -0.064053 0.289223
-0.095619 -0.064198 0.289837
-0.094416 -0.064307 0.290289
-0.093116 -0.064352 0.290449
-0.091871 -0.064437 0.290783
-0.090024 -0.064096 0.289194
-0.089129 -0.064433 0.290663
-0.090621 -0.066534 0.300077
-0.089335 -0.066628 0.300441
-0.087724 -0.066480 0.299706
-0.086140 -0.066348 0.299042
-0.084771 -0.066379 0.299113
-0.083221 -0.066267 0.298537
-0.081866 -0.066310 0.298655
-0.080470 -0.066321 0.298626
-0.079109 -0.066361 0.298726
-0.077907 -0.066539 0.299447
-0.076736 -0.066750 0.300312
-0.075435 -0.066855 0.300698
-0.073957 -0.066803 0.300378
-0.072693 -0.066946 0.300933
-0.071362 -0.067032 0.301232
-0.067634 -0.064824 0.291223
-0.065606 -0.064188 0.288278
-0.064582 -0.064529 0.289722
-0.063676 -0.065004 0.291763
-0.062106 -0.064808 0.290794
-0.060776 -0.064859 0.290932
-0.059542 -0.065017 0.291551
-0.058131 -0.064985 0.291315
-0.056737 -0.064971 0.291162
-0.055302 -0.064909 0.290794
-0.053968 -0.064965 0.290954
-0.052601 -0.064983 0.290942
-0.051196 -0.064954 0.290724
-0.049813 -0.064952 0.290624
-0.048403 -0.064914 0.290368
-0.047077 -0.064988 0.290613
-0.045582 -0.064828 0.289811
-0.044210 -0.064839 0.289774
-0.042944 -0.065011 0.290455
-0.041417 -0.064786 0.289367
-0.039602 -0.064080 0.286133
-0.038301 -0.064185 0.286521
-0.036967 -0.064239 0.286685
-0.035835 -0.064663 0.288502
-0.034271 -0.064310 0.286853
-0.032571 -0.063662 0.283887
-0.030946 -0.063111 0.281360
-0.029648 -0.063208 0.281724
-0.028153 -0.062873 0.280166
-0.026676 -0.062547 0.278650
-0.025189 -0.062164 0.276882
-0.023778 -0.061936 0.275806
-0.022429 -0.061852 0.275376
-0.021086 -0.061774 0.274975
-0.019737 -0.061669 0.274456
-0.018341 -0.061392 0.273174
-0.016951 -0.061091 0.271788
-0.015569 -0.060774 0.270332
-0.014355 -0.061115 0.271808
-0.013011 -0.060918 0.270894
-0.011412 -0.059347 0.263871
-0.010020 -0.058599 0.260513
-0.008793 -0.058737 0.261093
-0.007516 -0.058537 0.260179
-0.006249 -0.058350 0.259323
-0.005016 -0.058466 0.259816
-0.003785 -0.058678 0.260736
-0.002539 -0.058776 0.261152
-0.001289 -0.058891 0.261648
-0.000035 -0.059202 0.263017
0.001233 -0.059514 0.264396
0.002520 -0.059985 0.266479
0.003789 -0.059827 0.265773
0.005046 -0.059617 0.264839
0.006289 -0.059364 0.263715
0.007543 -0.059278 0.263337
0.008726 -0.058739 0.260947
0.009967 -0.058676 0.260673
0.011197 -0.058568 0.260205
0.012434 -0.058516 0.259989
0.013709 -0.058632 0.260520
0.014981 -0.058722 0.260937
0.016263 -0.058829 0.261434
0.017534 -0.058886 0.261709
0.018834 -0.059028 0.262364
0.020127 -0.059131 0.262848
0.021494 -0.059422 0.264176
0.022892 -0.059767 0.265740
0.024227 -0.059915 0.266433
0.025477 -0.059851 0.266186
0.026643 -0.059605 0.265131
0.027770 -0.059298 0.263801
0.028841 -0.058902 0.262083
0.029966 -0.058645 0.260985
0.031077 -0.058385 0.259870
0.032330 -0.058399 0.259978
0.033630 -0.058494 0.260450
0.034793 -0.058351 0.259863
0.036136 -0.058511 0.260624
0.037347 -0.058454 0.260423
0.038794 -0.058757 0.261827
0.040020 -0.058716 0.261698
0.041374 -0.058860 0.262398
0.042967 -0.059327 0.264536
0.043734 -0.058658 0.261610
0.044942 -0.058602 0.261418
0.045196 -0.057337 0.255835
0.046453 -0.057379 0.256080
0.047700 -0.057407 0.256261
0.048854 -0.057323 0.255948
0.050131 -0.057386 0.256284
0.051381 -0.057414 0.256469
0.052665 -0.057478 0.256815
0.054014 -0.057608 0.257457
0.055178 -0.057541 0.257214
0.056836 -0.057979 0.259233
0.059104 -0.059008 0.263894
0.061915 -0.060525 0.270739
0.063469 -0.060776 0.271922
0.064827 -0.060833 0.272237
0.066389 -0.061075 0.273378
0.067806 -0.061178 0.273894
0.069259 -0.061308 0.274535
0.070494 -0.061245 0.274305
0.071745 -0.061196 0.274143
0.072943 -0.061105 0.273786
0.074072 -0.060961 0.273191
0.075255 -0.060865 0.272808
0.076557 -0.060868 0.272865
0.077652 -0.060707 0.272190
0.078872 -0.060649 0.271969
0.080194 -0.060669 0.272099
0.081483 -0.060664 0.272112
0.082858 -0.060723 0.272410
0.084348 -0.060863 0.273065
0.085840 -0.060999 0.273705
0.087311 -0.061117 0.274257
0.088303 -0.060901 0.273308
0.090034 -0.061194 0.274638
0.097821 -0.065535 0.294137
0.099082 -0.065443 0.293735
0.099779 -0.064987 0.291691
0.101355 -0.065108 0.292235
0.102801 -0.065143 0.292390
0.104055 -0.065057 0.291996
0.105535 -0.065113 0.292231
0.107177 -0.065265 0.292896
0.108563 -0.065261 0.292849
0.109934 -0.065247 0.292758
0.111358 -0.065265 0.292799
0.112638 -0.065199 0.292460
0.114038 -0.065203 0.292429
0.115427 -0.065200 0.292361
0.116773 -0.065174 0.292181
0.118225 -0.065207 0.292257
0.119640 -0.065219 0.292235
0.121159 -0.065287 0.292453
0.122573 -0.065296 0.292404
0.124161 -0.065398 0.292757
0.125544 -0.065390 0.292614
0.126952 -0.065395 0.292518
0.128236 -0.065337 0.292132
0.129657 -0.065350 0.292052
0.131101 -0.065373 0.292009
0.132481 -0.065365 0.291817
0.133776 -0.065315 0.291428
0.135364 -0.065408 0.291664
0.136841 -0.065446 0.291644
0.138318 -0.065482 0.291609
0.140121 -0.065671 0.292238
0.142061 -0.065920 0.293119
0.143404 -0.065889 0.292748
0.145126 -0.066032 0.293130
0.146423 -0.065980 0.292636
0.147981 -0.066046 0.292650
0.149570 -0.066124 0.292703
0.151082 -0.066166 0.292584
0.152395 -0.066122 0.292065
0.153760 -0.066101 0.291633
-0.127270 -0.052340 0.238021
-0.126507 -0.052493 0.238970
-0.125640 -0.052605 0.239723
-0.124581 -0.052638 0.240106
-0.123706 -0.052750 0.240837
-0.122826 -0.052863 0.241558
-0.121999 -0.053000 0.242386
-0.121081 -0.053100 0.243033
-0.120243 -0.053238 0.243843
-0.119360 -0.053358 0.244562
-0.118442 -0.053465 0.245212
-0.117562 -0.053591 0.245942
-0.116654 -0.053707 0.246616
-0.115759 -0.053832 0.247321
-0.114863 -0.053958 0.248027
-0.113949 -0.054079 0.248700
-0.113298 -0.054328 0.249957
-0.112773 -0.054644 0.251510
-0.111944 -0.054817 0.252403
-0.111330 -0.055101 0.253797
-0.110789 -0.055427 0.255380
-0.110352 -0.055814 0.257236
-0.109375 -0.055932 0.257848
-0.108631 -0.056174 0.259023
-0.108021 -0.056492 0.260542
-0.108517 -0.057401 0.264786
-0.108179 -0.057886 0.267064
-0.107753 -0.058335 0.269170
-0.106517 -0.058350 0.269271
-0.106176 -0.058862 0.271660
-0.105185 -0.059022 0.272417
-0.105779 -0.060086 0.277341
-0.104348 -0.060013 0.277009
-0.103180 -0.060090 0.277368
-0.102375 -0.060384 0.278721
-0.101347 -0.060552 0.279490
-0.100266 -0.060692 0.280125
-0.099423 -0.060982 0.281447
-0.099345 -0.061756 0.284995
-0.099077 -0.062431 0.288084
-0.097850 -0.062512 0.288429
-0.096533 -0.062538 0.288509
-0.095482 -0.062738 0.289394
-0.094336 -0.062882 0.290014
-0.093051 -0.062935 0.290212
-0.091801 -0.063014 0.290526
-0.090598 -0.063129 0.291001
-0.088761 -0.062798 0.289420
-0.087615 -0.062954 0.290076
-0.089354 -0.065220 0.300454
-0.087095 -0.064595 0.297505
-0.085557 -0.064493 0.296964
-0.084302 -0.064603 0.297400
-0.082997 -0.064679 0.297674
-0.081736 -0.064793 0.298119
-0.080323 -0.064787 0.298014
-0.079002 -0.064857 0.298254
-0.077809 -0.065037 0.298998
-0.076599 -0.065209 0.299702
-0.075413 -0.065408 0.300532
-0.073879 -0.065308 0.299981
-0.072670 -0.065496 0.300756
-0.071340 -0.065582 0.301056
-0.067161 -0.062998 0.289106
-0.065990 -0.063187 0.289883
-0.065063 -0.063621 0.291786
-0.063673 -0.063614 0.291659
-0.062061 -0.063379 0.290488
-0.060704 -0.063399 0.290491
-0.059393 -0.063470 0.290722
-0.058076 -0.063538 0.290940
-0.056679 -0.063520 0.290765
-0.055321 -0.063545 0.290788
-0.054018 -0.063637 0.291114
-0.052572 -0.063560 0.290671
-0.051221 -0.063598 0.290753
-0.049832 -0.063589 0.290622
-0.048430 -0.063562 0.290407
-0.047074 -0.063597 0.290479
-0.045706 -0.063616 0.290477
-0.044329 -0.063624 0.290428
-0.042971 -0.063662 0.290512
-0.041606 -0.063690 0.290557
-0.039453 -0.062474 0.284925
-0.038568 -0.063249 0.288382
-0.037224 -0.063303 0.288546
-0.035921 -0.063431 0.289053
-0.034457 -0.063276 0.288266
-0.032938 -0.063002 0.286944
-0.031440 -0.062748 0.285713
-0.029830 -0.062236 0.283314
-0.028316 -0.061885 0.281649
-0.026895 -0.061713 0.280799
-0.025207 -0.060876 0.276929
-0.023817 -0.060710 0.276112
-0.022437 -0.060548 0.275321
-0.021118 -0.060541 0.275233
-0.019701 -0.060237 0.273799
-0.018364 -0.060148 0.273343
-0.017016 -0.060011 0.272673
-0.015633 -0.059715 0.271283
-0.014328 -0.059689 0.271124
-0.013033 -0.059709 0.271175
-0.011400 -0.058008 0.263413
-0.010047 -0.057491 0.261031
-0.008806 -0.057557 0.261299
-0.007513 -0.057249 0.259872
-0.006261 -0.057195 0.259600
-0.005020 -0.057232 0.259745
-0.003783 -0.057364 0.260325
-0.002544 -0.057589 0.261329
-0.001293 -0.057678 0.261715
-0.000037 -0.057869 0.262571
0.001228 -0.058131 0.263751
0.002505 -0.058399 0.264957
0.003783 -0.058500 0.265413
0.005042 -0.058335 0.264659
0.006288 -0.058116 0.263666
0.007539 -0.058004 0.263165
0.008745 -0.057627 0.261457
0.009994 -0.057594 0.261316
0.011197 -0.057333 0.260143
0.012438 -0.057299 0.260004
0.013701 -0.057362 0.260306
0.014957 -0.057387 0.260438
0.016248 -0.057532 0.261119
0.017515 -0.057579 0.261354
0.018817 -0.057726 0.262046
0.020100 -0.057798 0.262402
0.021442 -0.058024 0.263457
0.022863 -0.058424 0.265307
0.024137 -0.058429 0.265365
0.025442 -0.058502 0.265737
0.026714 -0.058496 0.265745
0.027844 -0.058194 0.264416
0.029007 -0.057984 0.263506
0.030167 -0.057786 0.262649
0.031298 -0.057551 0.261628
0.032559 -0.057564 0.261735
0.033791 -0.057526 0.261611
0.035046 -0.057527 0.261669
0.036268 -0.057477 0.261491
0.037609 -0.057612 0.262161
0.038919 -0.057694 0.262589
0.040269 -0.057827 0.263250
0.041551 -0.057857 0.263445
0.043125 -0.058279 0.265427
0.044170 -0.057983 0.264138
0.044589 -0.056905 0.259287
0.045487 -0.056480 0.257410
0.046649 -0.056396 0.257086
0.047969 -0.056504 0.257637
0.049083 -0.056368 0.257077
0.050294 -0.056348 0.257048
0.051650 -0.056487 0.257743
0.052845 -0.056448 0.257626
0.054285 -0.056667 0.258688
0.055663 -0.056812 0.259413
0.057322 -0.057232 0.261391
0.059360 -0.058003 0.264975
0.061392 -0.058737 0.268390
0.063075 -0.059115 0.270177
0.064597 -0.059328 0.271213
0.066242 -0.059645 0.272722
0.067828 -0.059896 0.273932
0.069148 -0.059908 0.274043
0.070500 -0.059946 0.274277
0.071837 -0.059971 0.274447
0.073165 -0.059987 0.274576
0.074230 -0.059792 0.273732
0.075457 -0.059730 0.273501
0.076764 -0.059734 0.273565
0.077915 -0.059617 0.273077
0.079116 -0.059542 0.272779
0.080387 -0.059521 0.272723
0.081772 -0.059585 0.273053
0.082997 -0.059531 0.272842
0.084457 -0.059645 0.273396
0.085978 -0.059798 0.274127
0.087399 -0.059877 0.274517
0.088610 -0.059813 0.274247
0.090266 -0.060046 0.275334
0.098040 -0.064284 0.294786
0.099302 -0.064194 0.294383
0.099871 -0.063663 0.291960
0.101293 -0.063684 0.292057
0.102810 -0.063762 0.292416
0.104097 -0.063698 0.292118
0.105311 -0.063592 0.291621
0.106999 -0.063771 0.292423
0.108420 -0.063788 0.292480
0.110045 -0.063923 0.293072
0.111449 -0.063928 0.293062
0.112889 -0.063953 0.293136
0.114035 -0.063813 0.292449
0.115554 -0.063883 0.292716
0.116842 -0.063825 0.292391
0.118227 -0.063821 0.292303
0.119562 -0.063790 0.292087
0.121099 -0.063865 0.292352
0.122550 -0.063895 0.292399
0.124131 -0.063991 0.292740
0.125442 -0.063947 0.292433
0.126922 -0.063989 0.292512
0.128125 -0.063892 0.291945
0.129623 -0.063943 0.292045
0.131324 -0.064092 0.292582
0.132697 -0.064078 0.292369
0.134065 -0.064063 0.292138
0.135540 -0.064099 0.292130
0.137571 -0.064395 0.293291
0.138490 -0.064169 0.292066
0.140194 -0.064307 0.292490
0.141866 -0.064429 0.292822
0.143136 -0.064367 0.292310
0.144916 -0.064533 0.292820
0.146476 -0.064599 0.292862
0.147993 -0.064645 0.292798
0.149578 -0.064720 0.292849
0.150987 -0.064718 0.292535
0.152387 -0.064712 0.292190
0.154115 -0.064844 0.292453
-0.127466 -0.051279 0.238491
-0.126715 -0.051434 0.239464
-0.125914 -0.051571 0.240343
-0.124837 -0.051597 0.240692
-0.123967 -0.051710 0.241435
-0.123144 -0.051845 0.242270
-0.122325 -0.051984 0.243117
-0.121360 -0.052063 0.243672
-0.120499 -0.052189 0.244438
-0.119620 -0.052310 0.245168
-0.118547 -0.052347 0.245498
-0.117504 -0.052398 0.245886
-0.116630 -0.052527 0.246629
-0.115766 -0.052662 0.247396
-0.114459 -0.052597 0.247211
-0.113573 -0.052726 0.247932
-0.114422 -0.053672 0.252486
-0.114611 -0.054324 0.255655
-0.113772 -0.054499 0.256570
-0.113161 -0.054787 0.258011
-0.112191 -0.054906 0.258650
-0.111133 -0.054984 0.259090
-0.112877 -0.056466 0.266137
-0.111787 -0.056547 0.266580
-0.110804 -0.056685 0.267282
-0.109829 -0.056830 0.268011
-0.108918 -0.057011 0.268908
-0.107990 -0.057189 0.269780
-0.107057 -0.057368 0.270650
-0.106568 -0.057792 0.272673
-0.105750 -0.058046 0.273887
-0.105009 -0.058349 0.275327
-0.104209 -0.058627 0.276642
-0.103171 -0.058775 0.277344
-0.102105 -0.058912 0.277983
-0.101174 -0.059131 0.279005
-0.100059 -0.059247 0.279536
-0.099265 -0.059558 0.280987
-0.099074 -0.060245 0.284202
-0.099258 -0.061182 0.288590
-0.097993 -0.061239 0.288826
-0.096700 -0.061280 0.288981
-0.095580 -0.061434 0.289666
-0.094378 -0.061538 0.290110
-0.093137 -0.061620 0.290447
-0.091864 -0.061683 0.290691
-0.090376 -0.061601 0.290247
-0.089017 -0.061607 0.290214
-0.087754 -0.061679 0.290492
-0.089345 -0.063792 0.300377
-0.087117 -0.063203 0.297530
-0.085488 -0.063036 0.296671
-0.084224 -0.063136 0.297067
-0.083163 -0.063395 0.298208
-0.081672 -0.063330 0.297823
-0.080360 -0.063404 0.298087
-0.078980 -0.063426 0.298105
-0.077695 -0.063526 0.298491
-0.076356 -0.063585 0.298680
-0.075322 -0.063905 0.300092
-0.073875 -0.063881 0.299886
-0.072444 -0.063869 0.299741
-0.071119 -0.063953 0.300040
-0.067644 -0.062067 0.291098
-0.066111 -0.061922 0.290328
-0.064896 -0.062075 0.290951
-0.063685 -0.062239 0.291624
-0.062148 -0.062083 0.290800
-0.060781 -0.062095 0.290761
-0.059505 -0.062203 0.291172
-0.058106 -0.062184 0.290989
-0.056725 -0.062184 0.290895
-0.055354 -0.062196 0.290854
-0.053997 -0.062224 0.290893
-0.052607 -0.062215 0.290756
-0.051181 -0.062161 0.290410
-0.049906 -0.062294 0.290939
-0.048339 -0.062059 0.289748
-0.046992 -0.062101 0.289854
-0.045587 -0.062065 0.289598
-0.044230 -0.062096 0.289655
-0.042917 -0.062194 0.290021
-0.041452 -0.062070 0.289357
-0.039764 -0.061592 0.287043
-0.038700 -0.062080 0.289237
-0.037352 -0.062133 0.289403
-0.036010 -0.062201 0.289635
-0.035034 -0.062930 0.292953
-0.033214 -0.062142 0.289208
-0.031856 -0.062189 0.289350
-0.029874 -0.060965 0.283585
-0.028358 -0.060622 0.281919
-0.023948 -0.059707 0.277473
-0.022633 -0.059741 0.277576
-0.021197 -0.059438 0.276111
-0.019772 -0.059129 0.274622
-0.018477 -0.059192 0.274864
-0.017045 -0.058794 0.272964
-0.015550 -0.058093 0.269667
-0.014298 -0.058259 0.270392
-0.012991 -0.058207 0.270111
-0.011411 -0.056787 0.263485
-0.010037 -0.056170 0.260586
-0.008812 -0.056326 0.261279
-0.007515 -0.055994 0.259712
-0.006265 -0.055955 0.259506
-0.005025 -0.056014 0.259757
-0.003783 -0.056079 0.260035
-0.002541 -0.056208 0.260616
-0.001294 -0.056347 0.261243
-0.000040 -0.056541 0.262133
0.001223 -0.056745 0.263069
0.002493 -0.056915 0.263849
0.003773 -0.057110 0.264748
0.005027 -0.056923 0.263879
0.006275 -0.056754 0.263096
0.007542 -0.056782 0.263229
0.008745 -0.056386 0.261399
0.009984 -0.056296 0.260993
0.011208 -0.056152 0.260335
0.012447 -0.056102 0.260119
0.013696 -0.056100 0.260127
0.014955 -0.056139 0.260324
0.016235 -0.056242 0.260824
0.017538 -0.056408 0.261620
0.018806 -0.056444 0.261812
0.020173 -0.056752 0.263268
0.021473 -0.056849 0.263752
0.022834 -0.057086 0.264885
0.024246 -0.057420 0.266472
0.025516 -0.057399 0.266414
0.026800 -0.057412 0.266513
0.028046 -0.057345 0.266247
0.029263 -0.057228 0.265748
0.030450 -0.057062 0.265024
0.031593 -0.056833 0.264007
0.032793 -0.056719 0.263528
0.034074 -0.056748 0.263711
0.035320 -0.056719 0.263630
0.036604 -0.056751 0.263833
0.037857 -0.056734 0.263808
0.039193 -0.056838 0.264349
0.040361 -0.056700 0.263766
0.041531 -0.056573 0.263233
0.043045 -0.056908 0.264853
0.044008 -0.056516 0.263089
0.044674 -0.055775 0.259702
0.045538 -0.055316 0.257625
0.046776 -0.055321 0.257712
0.047981 -0.055290 0.257629
0.049107 -0.055171 0.257135
0.050292 -0.055122 0.256970
0.051627 -0.055236 0.257565
0.052778 -0.055152 0.257236
0.054174 -0.055322 0.258092
0.055393 -0.055308 0.258090
0.056804 -0.055482 0.258967
0.059293 -0.056679 0.264619
0.061250 -0.057329 0.267713
0.063038 -0.057796 0.269960
0.064433 -0.057891 0.270468
0.066102 -0.058225 0.272090
0.067656 -0.058446 0.273185
0.069034 -0.058509 0.273541
0.070494 -0.058639 0.274209
0.071813 -0.058648 0.274308
0.073105 -0.058636 0.274307
0.074258 -0.058514 0.273794
0.075497 -0.058463 0.273606
0.076826 -0.058483 0.273750
0.078048 -0.058421 0.273509
0.079264 -0.058357 0.273257
0.080548 -0.058345 0.273242
0.081798 -0.058308 0.273110
0.083208 -0.058385 0.273510
0.084637 -0.058472 0.273956
0.086129 -0.058600 0.274588
0.087650 -0.058744 0.275288
0.088841 -0.058665 0.274947
0.090443 -0.058856 0.275862
0.097715 -0.062678 0.293799
0.098972 -0.062589 0.293397
0.099910 -0.062303 0.292068
0.101355 -0.062337 0.292234
0.102723 -0.062324 0.292172
0.104186 -0.062367 0.292371
0.105405 -0.062265 0.291888
0.107052 -0.062415 0.292578
0.108465 -0.062427 0.292614
0.110101 -0.062566 0.293239
0.111468 -0.062549 0.293131
0.112746 -0.062484 0.292789
0.114000 -0.062407 0.292386
0.115381 -0.062401 0.292307
0.116705 -0.062364 0.292080
0.118180 -0.062408 0.292223
0.119490 -0.062365 0.291950
0.120930 -0.062390 0.291990
0.122307 -0.062381 0.291865
0.123813 -0.062439 0.292041
0.125266 -0.062469 0.292078
0.126563 -0.062421 0.291743
0.127968 -0.062426 0.291651
0.129384 -0.062437 0.291571
0.131138 -0.062609 0.292237
0.132242 -0.062470 0.291440
0.133895 -0.062591 0.291847
0.135778 -0.062815 0.292724
0.138273 -0.063316 0.294875
0.139045 -0.063025 0.293328
0.140092 -0.062863 0.292372
0.142047 -0.063108 0.293297
0.143373 -0.063071 0.292897
0.144837 -0.063096 0.292771
0.146412 -0.063167 0.292848
0.147945 -0.063219 0.292822
0.149476 -0.063270 0.292773
0.150793 -0.063229 0.292290
0.152213 -0.063232 0.291992
0.153665 -0.063249 0.291739
-0.127613 -0.050195 0.238868
-0.126842 -0.050339 0.239801
-0.126042 -0.050474 0.240681
-0.124862 -0.050459 0.240830
-0.124074 -0.050603 0.241730
-0.123356 -0.050778 0.242772
-0.122448 -0.050878 0.243441
-0.121652 -0.051027 0.244335
-0.120945 -0.051216 0.245414
-0.120036 -0.051323 0.246089
-0.119440 -0.051567 0.247413
-0.118824 -0.051807 0.248711
-0.118045 -0.051980 0.249681
-0.117551 -0.052284 0.251267
-0.116906 -0.052525 0.252549
-0.116051 -0.052677 0.253391
-0.114954 -0.052721 0.253708
-0.113839 -0.052757 0.253978
-0.112923 -0.052888 0.254696
-0.111506 -0.052784 0.254277
-0.109761 -0.052520 0.253083
-0.108727 -0.052596 0.253513
-0.111869 -0.055328 0.266801
-0.110887 -0.055463 0.267504
-0.109912 -0.055606 0.268234
-0.107261 -0.054894 0.264837
-0.108328 -0.056090 0.270638
-0.108612 -0.056905 0.274595
-0.107783 -0.057149 0.275791
-0.105389 -0.056560 0.272959
-0.104942 -0.057013 0.275155
-0.104341 -0.057394 0.276993
-0.103040 -0.057393 0.276990
-0.102264 -0.057689 0.278409
-0.101262 -0.057864 0.279240
-0.100159 -0.057985 0.279806
-0.099313 -0.058260 0.281110
-0.098678 -0.058668 0.283050
-0.098846 -0.059571 0.287372
-0.097762 -0.059734 0.288122
-0.096464 -0.059769 0.288251
-0.095363 -0.059929 0.288979
-0.094237 -0.060078 0.289647
-0.092920 -0.060107 0.289735
-0.091701 -0.060202 0.290137
-0.090333 -0.060200 0.290071
-0.088898 -0.060154 0.289783
