ply
format ascii 1.0
element vertex 1745
property float x
property float y
property float z
end_header
-0.044503 0.023362 0.149345
-0.044539 0.023758 0.151821
-0.044624 0.024193 0.154547
-0.044899 0.024747 0.158029
-0.045210 0.025340 0.161757
-0.045652 0.026028 0.166089
-0.045451 0.026367 0.168188
-0.045412 0.026814 0.170974
-0.045481 0.027342 0.174276
-0.045671 0.027964 0.178167
-0.045567 0.028426 0.181040
-0.045377 0.028851 0.183672
-0.045445 0.029459 0.187471
-0.045523 0.030099 0.191464
-0.045623 0.030779 0.195713
-0.045522 0.031350 0.199259
-0.045438 0.031957 0.203032
-0.045234 0.032504 0.206424
-0.045202 0.033201 0.210766
-0.045222 0.033969 0.215552
-0.044927 0.034531 0.219029
-0.044614 0.035105 0.222577
-0.044144 0.035581 0.225501
-0.043787 0.036174 0.229166
-0.043279 0.036670 0.232214
-0.043175 0.037542 0.237645
-0.042414 0.037875 0.239658
-0.041859 0.038415 0.242977
-0.041000 0.038700 0.244681
-0.040590 0.039438 0.249252
-0.042054 0.043408 0.274135
-0.040698 0.043360 0.273732
-0.039007 0.042941 0.270986
-0.038350 0.043670 0.275491
-0.036377 0.042899 0.270530
-0.034789 0.042542 0.268189
-0.033380 0.042385 0.267112
-0.031607 0.041735 0.262929
-0.030280 0.041644 0.262272
-0.028867 0.041423 0.260796
-0.027482 0.041223 0.259457
-0.026125 0.041048 0.258279
-0.024830 0.040959 0.257648
-0.023588 0.040952 0.257531
-0.022353 0.040956 0.257492
-0.021222 0.041163 0.258723
-0.019890 0.040982 0.257527
-0.018694 0.041077 0.258060
-0.017306 0.043852 0.275375
-0.015988 0.043873 0.275452
-0.014668 0.043892 0.275522
-0.012443 0.040936 0.256923
-0.011152 0.040743 0.255668
-0.009932 0.040792 0.255940
-0.008730 0.040938 0.256815
-0.007499 0.040972 0.257000
-0.006256 0.040947 0.256811
-0.005028 0.041029 0.257300
-0.003789 0.041051 0.257413
-0.002548 0.041059 0.257446
-0.001306 0.041060 0.257438
-0.000064 0.041071 0.257494
0.001223 0.042625 0.267221
0.002529 0.042921 0.269071
0.003950 0.044298 0.277704
0.005290 0.044295 0.277682
0.006574 0.043919 0.275332
0.007913 0.043980 0.275719
0.009217 0.043850 0.274915
0.010463 0.043514 0.272825
0.011794 0.043568 0.273177
0.013076 0.043447 0.272442
0.014398 0.043470 0.272608
0.015649 0.043291 0.271516
0.016926 0.043207 0.271016
0.018355 0.043494 0.272848
0.019640 0.043425 0.272456
0.020751 0.043004 0.269850
0.022139 0.043173 0.270955
0.023437 0.043155 0.270890
0.024334 0.042443 0.266463
0.025526 0.042287 0.265539
0.026721 0.042153 0.264749
0.027943 0.042072 0.264292
0.028898 0.041612 0.261463
0.030152 0.041605 0.261477
0.031406 0.041597 0.261486
0.032671 0.041603 0.261590
0.034057 0.041758 0.262632
0.035411 0.041864 0.263364
0.036655 0.041836 0.263262
0.037883 0.041793 0.263062
0.038968 0.041600 0.261919
0.040296 0.041671 0.262441
0.041866 0.041979 0.264461
0.042556 0.041413 0.260971
0.043683 0.041293 0.260293
0.044327 0.040735 0.256855
0.045644 0.040808 0.257401
0.046771 0.040713 0.256880
0.047791 0.040532 0.255817
0.048979 0.040498 0.255692
0.050230 0.040518 0.255897
0.051400 0.040472 0.255693
0.052591 0.040445 0.255603
0.053925 0.040526 0.256199
0.055730 0.040950 0.258966
0.058032 0.041712 0.263872
0.060049 0.042241 0.267309
0.061713 0.042505 0.269071
0.063049 0.042537 0.269359
0.064519 0.042656 0.270204
0.065964 0.042755 0.270916
0.067364 0.042820 0.271420
0.068691 0.042838 0.271617
0.069998 0.042843 0.271736
0.071043 0.042690 0.270852
0.072387 0.042719 0.271117
0.073565 0.042650 0.270765
0.074072 0.042202 0.267998
0.075116 0.042070 0.267235
0.075722 0.041701 0.264966
0.076292 0.041324 0.262647
0.077271 0.041178 0.261784
0.078099 0.040957 0.260447
0.079382 0.040978 0.260646
0.080708 0.041020 0.260976
0.082033 0.041059 0.261289
0.083497 0.041167 0.262031
0.084784 0.041185 0.262203
0.086232 0.041280 0.262857
0.095694 0.045153 0.287575
0.096914 0.045083 0.287177
0.100483 0.046092 0.293653
0.100263 0.045359 0.289025
0.101626 0.045353 0.289021
0.103198 0.045439 0.289600
0.104582 0.045441 0.289642
0.106185 0.045536 0.290274
0.107154 0.045361 0.289174
0.108821 0.045482 0.289957
0.110135 0.045454 0.289788
0.111388 0.045402 0.289458
0.112709 0.045378 0.289304
0.114067 0.045370 0.289240
0.115436 0.045366 0.289201
0.116736 0.045335 0.288983
0.118107 0.045333 0.288938
0.119398 0.045300 0.288690
0.120670 0.045260 0.288397
0.122547 0.045446 0.289531
0.124628 0.045703 0.291105
0.126233 0.045781 0.291537
0.127684 0.045802 0.291597
0.128940 0.045753 0.291204
0.130310 0.045746 0.291063
0.131619 0.045717 0.290781
0.133060 0.045734 0.290780
0.134599 0.045785 0.290980
0.136273 0.045879 0.291450
0.137921 0.045963 0.291844
0.139290 0.045953 0.291628
0.140631 0.045934 0.291347
0.142275 0.046014 0.291679
0.143569 0.045980 0.291277
0.144811 0.045929 0.290761
0.146561 0.046040 0.291252
0.148398 0.046175 0.291883
0.149604 0.046113 0.291257
0.150902 0.046081 0.290801
0.152708 0.046202 0.291304
-0.045764 0.013937 0.085977
-0.045726 0.014050 0.086752
-0.043827 0.016789 0.104617
-0.043630 0.016903 0.105335
-0.044332 0.017372 0.108264
-0.043908 0.017406 0.108476
-0.043419 0.017414 0.108527
-0.042977 0.017442 0.108698
-0.040592 0.016672 0.103896
-0.040555 0.016859 0.105057
-0.039692 0.016704 0.104081
-0.039817 0.016966 0.105701
-0.039702 0.017131 0.106717
-0.040840 0.017847 0.111164
-0.040523 0.017938 0.111715
-0.039791 0.019100 0.118808
-0.044023 0.021433 0.133284
-0.043465 0.021467 0.133462
-0.043082 0.021590 0.134191
-0.042913 0.021826 0.135618
-0.042629 0.022010 0.136717
-0.044050 0.023093 0.143402
-0.044478 0.023681 0.147005
-0.044406 0.024017 0.149047
-0.044170 0.024274 0.150592
-0.044577 0.024899 0.154411
-0.045420 0.025792 0.159893
-0.045475 0.026260 0.162738
-0.045350 0.026639 0.165025
-0.045405 0.027138 0.168056
-0.045382 0.027607 0.170900
-0.045352 0.028090 0.173820
-0.045225 0.028529 0.176472
-0.045180 0.029038 0.179548
-0.045205 0.029611 0.183022
-0.045427 0.030339 0.187446
-0.045581 0.031050 0.191762
-0.045444 0.031587 0.195001
-0.045371 0.032193 0.198658
-0.045207 0.032757 0.202061
-0.045204 0.033466 0.206347
-0.045193 0.034199 0.210786
-0.045111 0.034912 0.215093
-0.044817 0.035489 0.218559
-0.044385 0.035983 0.221509
-0.044067 0.036594 0.225183
-0.043689 0.037186 0.228732
-0.043314 0.037810 0.232477
-0.042967 0.038492 0.236578
-0.042658 0.039247 0.241120
-0.041491 0.039231 0.240929
-0.041269 0.040134 0.246381
-0.040137 0.040178 0.246561
-0.045308 0.046726 0.286636
-0.043512 0.046274 0.283752
-0.044012 0.048311 0.296141
-0.038307 0.044942 0.275293
-0.036605 0.044476 0.272342
-0.034996 0.044092 0.269898
-0.034168 0.044701 0.273537
-0.031683 0.043103 0.263675
-0.030050 0.042580 0.260393
-0.028493 0.042126 0.257532
-0.027397 0.042341 0.258770
-0.026012 0.042109 0.257281
-0.024731 0.042031 0.256731
-0.023451 0.041947 0.256149
-0.022293 0.042085 0.256924
-0.021078 0.042124 0.257100
-0.019847 0.042133 0.257092
-0.018634 0.042187 0.257358
-0.018352 0.044504 0.271439
-0.016525 0.043145 0.263092
-0.016161 0.045695 0.278587
-0.014827 0.045715 0.278657
-0.012321 0.041767 0.254549
-0.011124 0.041875 0.255167
-0.009900 0.041896 0.255258
-0.008663 0.041860 0.254998
-0.007452 0.041959 0.255572
-0.006224 0.041981 0.255676
-0.005000 0.042057 0.256113
-0.003770 0.042098 0.256339
-0.002538 0.042163 0.256715
-0.001301 0.042181 0.256811
-0.000062 0.042219 0.257028
0.001213 0.043499 0.264811
0.002503 0.043730 0.266209
0.003824 0.044161 0.268830
0.005121 0.044157 0.268809
0.006389 0.043961 0.267617
0.007677 0.043945 0.267527
0.008977 0.043991 0.267819
0.010191 0.043657 0.265794
0.011495 0.043740 0.266319
0.012828 0.043906 0.267349
0.014116 0.043900 0.267336
0.015467 0.044076 0.268432
0.016685 0.043874 0.267233
0.018069 0.044108 0.268689
0.019467 0.044339 0.270136
0.020588 0.043953 0.267817
0.021897 0.043988 0.268072
0.023354 0.044300 0.270022
0.024389 0.043821 0.267145
0.025284 0.043151 0.263113
0.026405 0.042912 0.261707
0.027728 0.043008 0.262342
0.028679 0.042544 0.259569
0.029936 0.042553 0.259680
0.031192 0.042560 0.259788
0.032452 0.042572 0.259923
0.033776 0.042664 0.260551
0.035067 0.042709 0.260890
0.036323 0.042709 0.260960
0.037570 0.042699 0.260969
0.038932 0.042817 0.261763
0.040573 0.043224 0.264322
0.041805 0.043184 0.264156
0.043065 0.043173 0.264168
0.044558 0.043391 0.265581
0.045813 0.043372 0.265542
0.047051 0.043337 0.265411
0.048215 0.043238 0.264887
0.049663 0.043391 0.265911
0.050974 0.043422 0.266180
0.052265 0.043433 0.266333
0.053600 0.043479 0.266703
0.054916 0.043508 0.266971
0.056447 0.043703 0.268250
0.057725 0.043697 0.268299
0.058845 0.043574 0.267634
0.060544 0.043876 0.269577
0.061924 0.043939 0.270051
0.063141 0.043886 0.269813
0.064612 0.044009 0.270653
0.066012 0.044078 0.271168
0.067457 0.044175 0.271851
0.068806 0.044206 0.272126
0.070130 0.044221 0.272301
0.071380 0.044189 0.272185
0.072634 0.044160 0.272093
0.074026 0.044215 0.272509
0.074816 0.043914 0.270736
0.075938 0.043816 0.270205
0.076830 0.043590 0.268886
0.077284 0.043127 0.266103
0.078025 0.042836 0.264377
0.079225 0.042803 0.264239
0.080497 0.042809 0.264340
0.081632 0.042743 0.263995
0.082918 0.042757 0.264138
0.084415 0.042877 0.264940
0.085587 0.042832 0.264712
0.086571 0.042695 0.263915
0.095302 0.046327 0.286419
0.096518 0.046256 0.286023
0.098695 0.046641 0.288446
0.100204 0.046703 0.288874
0.101705 0.046761 0.289263
0.102806 0.046635 0.288514
0.104302 0.046689 0.288876
0.106404 0.047009 0.290880
0.107668 0.046956 0.290566
0.109076 0.046966 0.290640
0.110408 0.046944 0.290507
0.111645 0.046882 0.290125
0.112870 0.046817 0.289714
0.114155 0.046778 0.289459
0.115468 0.046750 0.289272
0.117054 0.046833 0.289759
0.118442 0.046836 0.289744
0.119953 0.046886 0.290017
0.121089 0.046791 0.289380
0.122658 0.046863 0.289771
0.124561 0.047059 0.290926
0.125916 0.047047 0.290778
0.127305 0.047047 0.290701
0.128609 0.047016 0.290424
0.130088 0.047049 0.290533
0.131448 0.047038 0.290364
0.132906 0.047063 0.290402
0.134228 0.047039 0.290134
0.135762 0.047089 0.290312
0.137136 0.047083 0.290132
0.139166 0.047301 0.291317
0.140850 0.047397 0.291746
0.142851 0.047597 0.292800
0.144450 0.047661 0.293001
0.145527 0.047553 0.292133
0.147031 0.047584 0.292115
0.148331 0.047550 0.291678
0.149757 0.047557 0.291477
0.151354 0.047617 0.291590
0.152817 0.047634 0.291428
-0.045641 0.014307 0.085722
-0.045383 0.014354 0.086078
-0.044470 0.017536 0.106149
-0.044040 0.017563 0.106323
-0.043798 0.017667 0.106959
-0.043425 0.017720 0.107280
-0.043045 0.017771 0.107592
-0.042607 0.017799 0.107762
-0.041312 0.017466 0.105740
-0.041292 0.017670 0.106971
-0.040813 0.017680 0.107025
-0.040415 0.017726 0.107293
-0.040197 0.017854 0.108054
-0.040327 0.018141 0.109776
-0.041854 0.019072 0.115394
-0.040016 0.019773 0.119494
-0.043796 0.021949 0.132614
-0.043240 0.021984 0.132791
-0.042822 0.022091 0.133400
-0.042531 0.022267 0.134430
-0.042881 0.022790 0.137547
-0.043894 0.023687 0.142916
-0.044143 0.024193 0.145925
-0.043991 0.024492 0.147680
-0.044017 0.024901 0.150097
-0.046019 0.026460 0.159439
-0.045335 0.026500 0.159628
-0.045486 0.027038 0.162811
-0.045401 0.027452 0.165245
-0.045394 0.027928 0.168052
-0.045250 0.028336 0.170443
-0.045069 0.028735 0.172778
-0.044923 0.029171 0.175336
-0.044967 0.029750 0.178747
-0.045023 0.030359 0.182334
-0.045132 0.031028 0.186279
-0.045372 0.031816 0.190936
-0.045457 0.032525 0.195113
-0.045384 0.033148 0.198771
-0.045211 0.033723 0.202139
-0.045102 0.034371 0.205943
-0.045078 0.035116 0.210318
-0.044936 0.035798 0.214323
-0.044535 0.036303 0.217258
-0.044191 0.036879 0.220615
-0.043912 0.037538 0.224467
-0.043626 0.038224 0.228480
-0.043372 0.038974 0.232873
-0.042825 0.039493 0.235884
-0.041641 0.039437 0.235454
-0.041299 0.040197 0.239903
-0.040820 0.040864 0.243791
-0.039478 0.040681 0.242606
-0.045257 0.048046 0.286426
-0.045330 0.049624 0.295724
-0.043962 0.049675 0.295922
-0.042589 0.049725 0.296115
-0.036583 0.045757 0.272295
-0.035312 0.045799 0.272456
-0.034707 0.046741 0.277969
-0.031518 0.044141 0.262418
-0.029726 0.043361 0.257703
-0.028373 0.043182 0.256561
-0.027323 0.043469 0.258190
-0.025977 0.043290 0.257052
-0.024744 0.043291 0.256989
-0.023528 0.043324 0.257115
-0.022283 0.043304 0.256933
-0.021076 0.043360 0.257198
-0.019884 0.043457 0.257712
-0.018588 0.043321 0.256851
-0.018328 0.045757 0.271232
-0.016589 0.044587 0.264245
-0.016297 0.047438 0.281082
-0.014951 0.047458 0.281153
-0.012227 0.042671 0.252752
-0.011044 0.042801 0.253480
-0.009868 0.042993 0.254580
-0.008650 0.043033 0.254781
-0.007453 0.043209 0.255791
-0.006235 0.043307 0.256344
-0.004995 0.043261 0.256041
-0.003770 0.043359 0.256600
-0.002538 0.043437 0.257043
-0.001297 0.043360 0.256569
-0.000060 0.043426 0.256948
0.001225 0.045162 0.267214
0.002512 0.045143 0.267092
0.003826 0.045458 0.268951
0.005123 0.045454 0.268930
0.006319 0.044746 0.264740
0.007572 0.044607 0.263929
0.008911 0.044939 0.265900
0.010122 0.044628 0.264075
0.011334 0.044387 0.262662
0.012678 0.044661 0.264304
0.014008 0.044838 0.265371
0.015341 0.044994 0.266323
0.016570 0.044847 0.265481
0.018010 0.045248 0.267884
0.019352 0.045368 0.268631
0.020632 0.045335 0.268475
0.021898 0.045276 0.268166
0.023412 0.045710 0.270780
0.024377 0.045081 0.267099
0.025140 0.044161 0.261695
0.026172 0.043779 0.259484
0.027469 0.043853 0.259975
0.028617 0.043695 0.259093
0.029784 0.043578 0.258453
0.031096 0.043673 0.259074
0.032288 0.043598 0.258695
0.033398 0.043422 0.257713
0.034517 0.043270 0.256875
0.035900 0.043449 0.258006
0.037242 0.043567 0.258772
0.038677 0.043783 0.260124
0.039951 0.043808 0.260348
0.041128 0.043729 0.259953
0.042409 0.043762 0.260223
0.043770 0.043873 0.260961
0.045068 0.043917 0.261298
0.046358 0.043950 0.261577
0.047517 0.043861 0.261127
0.048964 0.044035 0.262242
0.050385 0.044177 0.263172
0.051647 0.044177 0.263255
0.053166 0.044392 0.264615
0.054664 0.044579 0.265816
0.055954 0.044591 0.265973
0.057510 0.044811 0.267369
0.058910 0.044901 0.267994
0.060523 0.045147 0.269546
0.061882 0.045197 0.269929
0.063214 0.045226 0.270188
0.064613 0.045300 0.270718
0.065932 0.045316 0.270897
0.067295 0.045362 0.271254
0.068599 0.045366 0.271364
0.069967 0.045412 0.271720
0.071189 0.045363 0.271510
0.072324 0.045262 0.270981
0.073581 0.045239 0.270921
0.074812 0.045200 0.270769
0.075904 0.045081 0.270128
0.076942 0.044934 0.269319
0.077707 0.044635 0.267597
0.078384 0.044296 0.265631
0.079527 0.044227 0.265282
0.080855 0.044261 0.265550
0.082152 0.044277 0.265708
0.083473 0.044306 0.265938
0.084845 0.044360 0.266317
0.086287 0.044449 0.266901
0.093427 0.047428 0.284839
0.094639 0.047355 0.284451
0.096844 0.047774 0.287011
0.099131 0.048221 0.289739
0.100390 0.048163 0.289427
0.101714 0.048137 0.289302
0.102931 0.048061 0.288878
0.104693 0.048239 0.289969
0.105985 0.048198 0.289743
0.107204 0.048126 0.289321
0.108679 0.048169 0.289587
0.110226 0.048242 0.290028
0.111549 0.048217 0.289873
0.112608 0.048079 0.289035
0.114169 0.048156 0.289487
0.115536 0.048151 0.289432
0.116764 0.048088 0.289030
0.118682 0.048308 0.290316
0.120318 0.048409 0.290882
0.121667 0.048394 0.290742
0.122944 0.048351 0.290425
0.124313 0.048344 0.290322
0.125906 0.048424 0.290727
0.127153 0.048370 0.290324
0.128603 0.048393 0.290376
0.130095 0.048432 0.290511
0.131356 0.048385 0.290122
0.132796 0.048404 0.290119
0.134400 0.048482 0.290460
0.135769 0.048474 0.290277
0.137343 0.048539 0.290519
0.138564 0.048478 0.290000
0.140126 0.048538 0.290186
0.141571 0.048555 0.290113
0.142741 0.048480 0.289470
0.144759 0.048690 0.290523
0.146588 0.048834 0.291163
0.148106 0.048872 0.291159
0.149650 0.048918 0.291190
0.151037 0.048912 0.290896
0.152286 0.048862 0.290326
-0.045778 0.014760 0.085955
-0.045428 0.014779 0.086141
-0.045305 0.014873 0.086759
-0.041329 0.016763 0.098648
-0.043341 0.017778 0.104632
-0.043534 0.018062 0.106311
-0.043354 0.018196 0.107104
-0.042073 0.017866 0.105163
-0.040683 0.018585 0.109364
-0.040905 0.018926 0.111356
-0.041823 0.019602 0.115317
-0.041401 0.019659 0.115635
-0.040880 0.019670 0.115681
-0.041357 0.020167 0.118586
-0.041834 0.020679 0.121571
-0.042795 0.021447 0.126061
-0.042268 0.021481 0.126233
-0.042802 0.022063 0.129618
-0.043407 0.022699 0.133322
-0.043049 0.022842 0.134127
-0.042302 0.022780 0.133728
-0.042230 0.023085 0.135482
-0.042967 0.023849 0.139923
-0.043847 0.024717 0.144972
-0.043948 0.025166 0.147562
-0.044177 0.025705 0.150672
-0.044213 0.026147 0.153213
-0.045077 0.027101 0.158750
-0.045073 0.027558 0.161369
-0.045212 0.028118 0.164594
-0.045232 0.028623 0.167491
-0.044939 0.028945 0.169310
-0.044758 0.029351 0.171626
-0.044672 0.029837 0.174399
-0.044813 0.030495 0.178180
-0.044843 0.031101 0.181651
-0.045044 0.031852 0.185966
-0.045282 0.032659 0.190607
-0.045468 0.033462 0.195215
-0.045259 0.034000 0.198281
-0.045240 0.034708 0.202328
-0.045029 0.035296 0.205674
-0.044964 0.036027 0.209851
-0.044948 0.036831 0.214449
-0.044587 0.037383 0.217580
-0.044251 0.037983 0.220986
-0.043932 0.038627 0.224646
-0.043598 0.039291 0.228415
-0.042649 0.039419 0.229074
-0.042065 0.039900 0.231778
-0.042868 0.041759 0.242483
-0.041752 0.041799 0.242624
-0.040654 0.041860 0.242892
-0.039898 0.042287 0.245278
-0.046192 0.050439 0.292453
-0.044842 0.050492 0.292654
-0.041657 0.048416 0.280521
-0.040568 0.048719 0.282179
-0.038918 0.048345 0.279919
-0.037614 0.048391 0.280089
-0.035411 0.047240 0.273335
-0.035105 0.048629 0.281281
-0.033787 0.048671 0.281435
-0.029668 0.044513 0.257312
-0.028441 0.044522 0.257292
-0.027292 0.044661 0.258021
-0.026003 0.044573 0.257439
-0.024765 0.044567 0.257330
-0.023546 0.044597 0.257437
-0.022269 0.044515 0.256896
-0.021069 0.044585 0.257240
-0.019831 0.044579 0.257146
-0.018566 0.044508 0.256679
-0.018131 0.046560 0.268455
-0.016663 0.046070 0.265574
-0.016275 0.048731 0.280862
-0.012265 0.044033 0.253693
-0.011091 0.044219 0.254726
-0.009860 0.044192 0.254530
-0.008649 0.044268 0.254934
-0.007447 0.044417 0.255761
-0.006254 0.044690 0.257306
-0.005006 0.044605 0.256792
-0.003795 0.044909 0.258521
-0.002552 0.044955 0.258763
-0.001309 0.045068 0.259397
-0.000059 0.045363 0.261086
0.001219 0.046155 0.265633
0.002480 0.045803 0.263599
0.003822 0.046674 0.268607
0.005116 0.046670 0.268586
0.006239 0.045425 0.261423
0.007564 0.045816 0.263680
0.008821 0.045744 0.263272
0.010006 0.045365 0.261105
0.011242 0.045275 0.260604
0.012534 0.045405 0.261369
0.013844 0.045572 0.262352
0.015187 0.045809 0.263742
0.016444 0.045768 0.263534
0.017838 0.046090 0.265419
0.019284 0.046492 0.267766
0.020446 0.046202 0.266136
0.021793 0.046340 0.266967
0.023321 0.046826 0.269810
0.024606 0.046799 0.269700
0.025011 0.045185 0.260445
0.026093 0.044888 0.258783
0.027305 0.044831 0.258508
0.028520 0.044785 0.258296
0.029694 0.044681 0.257748
0.030946 0.044698 0.257905
0.032147 0.044642 0.257645
0.033314 0.044546 0.257147
0.034501 0.044481 0.256838
0.035701 0.044438 0.256656
0.036945 0.044450 0.256793
0.038944 0.045340 0.262002
0.040940 0.046171 0.266877
0.042181 0.046126 0.266691
0.043072 0.045712 0.264372
0.044239 0.045606 0.263837
0.045680 0.045780 0.264922
0.046851 0.045683 0.264435
0.048174 0.045734 0.264813
0.049656 0.045929 0.266022
0.051034 0.046021 0.266638
0.052347 0.046052 0.266897
0.053611 0.046038 0.266898
0.055092 0.046207 0.267965
0.056670 0.046448 0.269447
0.058004 0.046483 0.269732
0.059164 0.046379 0.269215
0.060729 0.046591 0.270530
0.062083 0.046635 0.270869
0.063255 0.046544 0.270425
0.064616 0.046593 0.270790
0.065995 0.046652 0.271216
0.067431 0.046748 0.271859
0.068721 0.046741 0.271900
0.070085 0.046785 0.272233
0.071702 0.046992 0.273516
0.073196 0.047112 0.274295
0.074525 0.047124 0.274443
0.075866 0.047143 0.274629
0.076805 0.046916 0.273377
0.078038 0.046873 0.273199
0.079181 0.046777 0.272712
0.080136 0.046577 0.271608
0.081413 0.046566 0.271610
0.082604 0.046507 0.271326
0.083658 0.046374 0.270610
0.085050 0.046430 0.270992
0.086652 0.046596 0.272018
0.088124 0.046689 0.272609
0.092517 0.048304 0.282091
0.093719 0.048231 0.281706
0.096989 0.049209 0.287461
0.099400 0.049730 0.290544
0.100581 0.049630 0.289994
0.101913 0.049606 0.289882
0.103158 0.049540 0.289525
0.104518 0.049531 0.289494
0.106064 0.049609 0.289967
0.107460 0.049616 0.290017
0.108903 0.049644 0.290186
0.110256 0.049631 0.290108
0.111517 0.049577 0.289787
0.112788 0.049528 0.289492
0.113986 0.049449 0.289013
0.115321 0.049431 0.288883
0.116743 0.049451 0.288965
0.118056 0.049423 0.288769
0.119446 0.049428 0.288755
0.120957 0.049483 0.289024
0.123215 0.049839 0.291040
0.124728 0.049888 0.291262
0.126009 0.049845 0.290933
0.127232 0.049780 0.290471
0.128585 0.049766 0.290300
0.129950 0.049758 0.290148
0.131355 0.049764 0.290078
0.132861 0.049809 0.290217
0.134352 0.049846 0.290307
0.135887 0.049899 0.290478
0.137402 0.049944 0.290589
0.138780 0.049939 0.290396
0.140192 0.049945 0.290263
0.141818 0.050027 0.290554
0.143541 0.050141 0.291022
0.144974 0.050153 0.290882
0.146295 0.050126 0.290504
0.147732 0.050138 0.290344
0.149383 0.050223 0.290586
0.150904 0.050262 0.290553
0.152566 0.050348 0.290768
-0.045745 0.015159 0.085866
-0.045503 0.015214 0.086258
-0.045105 0.015218 0.086354
-0.041540 0.017316 0.099147
-0.041831 0.017635 0.100984
-0.043372 0.018494 0.105912
-0.043084 0.018585 0.106435
-0.042650 0.018614 0.106605
-0.041295 0.019637 0.112424
-0.040831 0.019668 0.112588
-0.040708 0.019866 0.113708
-0.039732 0.019648 0.112441
-0.039258 0.019675 0.112578
-0.038922 0.019774 0.113121
-0.042654 0.021970 0.125659
-0.042128 0.022005 0.125830
-0.042597 0.022567 0.129014
-0.042527 0.022855 0.130634
-0.042037 0.022924 0.130992
-0.041829 0.023151 0.132253
-0.041969 0.023579 0.134665
-0.043613 0.024879 0.142049
-0.043828 0.025392 0.144932
-0.044076 0.025940 0.148019
-0.044073 0.026356 0.150344
-0.044144 0.026830 0.153001
-0.044864 0.027722 0.158034
-0.044854 0.028185 0.160617
-0.045013 0.028771 0.163904
-0.045141 0.029359 0.167193
-0.044706 0.029594 0.168475
-0.044666 0.030104 0.171317
-0.044590 0.030609 0.174123
-0.044735 0.031286 0.177913
-0.044730 0.031883 0.181241
-0.044935 0.032657 0.185567
-0.045396 0.033650 0.191141
-0.045393 0.034334 0.194950
-0.045336 0.035004 0.198676
-0.044970 0.035458 0.201180
-0.045018 0.036267 0.205686
-0.045135 0.037167 0.210713
-0.044813 0.037740 0.213876
-0.044499 0.038345 0.217222
-0.044174 0.038970 0.220675
-0.043745 0.039531 0.223766
-0.043152 0.039968 0.226156
-0.042616 0.040482 0.228977
-0.042995 0.041915 0.236991
-0.042204 0.042254 0.238817
-0.041453 0.042652 0.240980
-0.040746 0.043120 0.243536
-0.039555 0.043089 0.243270
-0.044789 0.051833 0.292428
-0.041789 0.049918 0.281524
-0.040156 0.049564 0.279429
-0.039684 0.050666 0.285547
-0.038354 0.050713 0.285720
-0.035610 0.048825 0.274992
-0.035062 0.049918 0.281060
-0.031006 0.045905 0.258384
-0.029770 0.045908 0.258321
-0.028574 0.045975 0.258620
-0.027304 0.045922 0.258252
-0.026033 0.045866 0.257860
-0.024840 0.045945 0.258238
-0.023610 0.045962 0.258264
-0.022367 0.045955 0.258162
-0.021124 0.045946 0.258047
-0.019902 0.045984 0.258200
-0.018632 0.045911 0.257735
-0.018229 0.048116 0.270056
-0.016818 0.047793 0.268189
-0.015537 0.047815 0.268262
-0.001347 0.047741 0.267488
-0.000059 0.047800 0.267805
0.001225 0.047582 0.266574
0.002507 0.047543 0.266350
0.003863 0.048464 0.271504
0.005089 0.047695 0.267199
0.006197 0.046353 0.259682
0.007482 0.046563 0.260866
0.008746 0.046604 0.261102
0.009904 0.046139 0.258508
0.011144 0.046116 0.258393
0.012424 0.046248 0.259151
0.013712 0.046381 0.259922
0.015046 0.046636 0.261373
0.016338 0.046731 0.261929
0.017704 0.047006 0.263502
0.019163 0.047478 0.266182
0.020358 0.047276 0.265084
0.021810 0.047658 0.267268
0.023309 0.048095 0.269762
0.024593 0.048068 0.269653
0.024764 0.045974 0.257953
0.025935 0.045849 0.257298
0.027164 0.045834 0.257263
0.028406 0.045841 0.257352
0.029601 0.045774 0.257034
0.030838 0.045774 0.257090
0.032063 0.045758 0.257056
0.033243 0.045681 0.256685
0.034419 0.045603 0.256310
0.035693 0.045658 0.256681
0.036964 0.045703 0.257002
0.038488 0.046050 0.259020
0.040205 0.046598 0.262172
0.041370 0.046491 0.261643
0.042564 0.046423 0.261333
0.043852 0.046458 0.261605
0.045217 0.046572 0.262318
0.046430 0.046526 0.262136
0.047709 0.046547 0.262331
0.049178 0.046747 0.263540
0.050521 0.046821 0.264033
0.051887 0.046911 0.264622
0.053287 0.047027 0.265358
0.054709 0.047157 0.266171
0.056173 0.047316 0.267152
0.057717 0.047533 0.268462
0.059265 0.047745 0.269742
0.060712 0.047869 0.270520
0.062087 0.047930 0.270952
0.063322 0.047884 0.270771
0.064597 0.047869 0.270770
0.065987 0.047938 0.271242
0.067344 0.047981 0.271565
0.068659 0.047993 0.271711
0.069983 0.048011 0.271890
0.071580 0.048212 0.273104
0.072981 0.048275 0.273541
0.074904 0.048676 0.275889
0.075874 0.048455 0.274706
0.076539 0.048049 0.272475
0.078125 0.048225 0.273544
0.079214 0.048094 0.272868
0.080269 0.047947 0.272097
0.081449 0.047877 0.271764
0.082631 0.047811 0.271449
0.083778 0.047727 0.271030
0.084808 0.047580 0.270250
0.086484 0.047794 0.271517
0.088123 0.047983 0.272634
0.093661 0.050257 0.285602
0.094878 0.050181 0.285213
0.097719 0.050954 0.289647
0.099095 0.050952 0.289672
0.100406 0.050916 0.289503
0.101616 0.050832 0.289050
0.102801 0.050737 0.288534
0.104159 0.050729 0.288508
0.105282 0.050608 0.287833
0.106480 0.050526 0.287375
0.108465 0.050815 0.289018
0.110358 0.051053 0.290373
0.111830 0.051094 0.290595
0.112804 0.050908 0.289526
0.115237 0.051378 0.292176
0.116692 0.051405 0.292306
0.116873 0.050878 0.289271
0.118568 0.051013 0.290003
0.120002 0.051035 0.290079
0.121331 0.051012 0.289892
0.122858 0.051072 0.290171
0.124362 0.051121 0.290378
0.125752 0.051122 0.290309
0.127063 0.051092 0.290050
0.128377 0.051063 0.289793
0.129856 0.051100 0.289897
0.131218 0.051090 0.289730
0.132831 0.051178 0.290102
0.134150 0.051151 0.289821
0.135598 0.051174 0.289805
0.137414 0.051333 0.290555
0.138200 0.051108 0.289120
0.140186 0.051328 0.290186
0.141822 0.051416 0.290496
0.143745 0.051605 0.291364
0.145158 0.051609 0.291175
0.146445 0.051568 0.290722
0.147892 0.051584 0.290576
0.149779 0.051752 0.291268
0.151114 0.051728 0.290865
0.152400 0.051687 0.290357
-0.045881 0.015615 0.086095
-0.045461 0.015611 0.086152
-0.044955 0.015577 0.086042
-0.041290 0.017676 0.098545
-0.043698 0.018919 0.105486
-0.043475 0.019039 0.106161
-0.043165 0.019122 0.106634
-0.042730 0.019152 0.106803
-0.038376 0.018741 0.104482
-0.041500 0.020530 0.114440
-0.040748 0.020423 0.113826
-0.039659 0.020141 0.112241
-0.039249 0.020202 0.112563
-0.038638 0.020160 0.112306
-0.042030 0.022233 0.123835
-0.042143 0.022607 0.125889
-0.042154 0.022935 0.127687
-0.042141 0.023260 0.129465
-0.041946 0.023492 0.130728
-0.041672 0.023687 0.131776
-0.041587 0.023996 0.133461
-0.044487 0.026063 0.144920
-0.043871 0.026103 0.145100
-0.044206 0.026719 0.148482
-0.044125 0.027100 0.150552
-0.043877 0.027388 0.152105
-0.044386 0.028168 0.156383
-0.044604 0.028785 0.159756
-0.044735 0.029366 0.162931
-0.044575 0.029774 0.165135
-0.044722 0.030404 0.168573
-0.044617 0.030884 0.171171
-0.044776 0.031567 0.174895
-0.044524 0.031980 0.177123
-0.044619 0.032663 0.180840
-0.045169 0.033713 0.186583
-0.045448 0.034599 0.191416
-0.045508 0.035351 0.195501
-0.045196 0.035839 0.198124
-0.044790 0.036271 0.200439
-0.044747 0.037022 0.204512
-0.044866 0.037945 0.209527
-0.044809 0.038756 0.213926
-0.044398 0.039292 0.216804
-0.044013 0.039877 0.219948
-0.043562 0.040429 0.222908
-0.043000 0.040903 0.225437
-0.043734 0.042666 0.235067
-0.042664 0.042716 0.235254
-0.042070 0.043257 0.238147
-0.041471 0.043824 0.241178
-0.040625 0.044154 0.242905
-0.039803 0.044531 0.244891
-0.041759 0.051231 0.281439
-0.040590 0.051453 0.282567
-0.039729 0.052096 0.285999
-0.038398 0.052144 0.286172
-0.035594 0.050123 0.274990
-0.034309 0.050167 0.275145
-0.030934 0.047037 0.257901
-0.029697 0.047034 0.257808
-0.028602 0.047264 0.258991
-0.027306 0.047168 0.258393
-0.026071 0.047174 0.258354
-0.024870 0.047246 0.258679
-0.023607 0.047200 0.258361
-0.022376 0.047217 0.258390
-0.021155 0.047259 0.258556
-0.019867 0.047146 0.257884
-0.018662 0.047231 0.258288
-0.017809 0.048281 0.263978
-0.016578 0.048388 0.264511
-0.015238 0.048169 0.263263
-0.001343 0.048966 0.267266
-0.000057 0.049026 0.267583
0.001226 0.048803 0.266353
0.002495 0.048548 0.264957
0.003861 0.049707 0.271279
0.005142 0.049472 0.269996
0.006191 0.047538 0.259440
0.007408 0.047332 0.258321
0.008679 0.047485 0.259165
0.009857 0.047149 0.257346
0.011085 0.047102 0.257101
0.012360 0.047241 0.257880
0.013644 0.047388 0.258702
0.014930 0.047518 0.259432
0.016233 0.047675 0.260317
0.017547 0.047840 0.261245
0.018983 0.048294 0.263756
0.020246 0.048278 0.263709
0.021823 0.048968 0.267513
0.023294 0.049357 0.269680
0.024578 0.049329 0.269571
0.024489 0.046687 0.255179
0.025798 0.046833 0.256024
0.027062 0.046890 0.256380
0.028203 0.046737 0.255596
0.029489 0.046828 0.256148
0.030715 0.046818 0.256148
0.031949 0.046823 0.256230
0.033198 0.046848 0.256425
0.034454 0.046879 0.256656
0.035637 0.046813 0.256360
0.036947 0.046913 0.256971
0.038493 0.047296 0.259135
0.040161 0.047799 0.261962
0.041157 0.047498 0.260379
0.042186 0.047250 0.259092
0.043336 0.047149 0.258609
0.044743 0.047324 0.259642
0.045854 0.047185 0.258957
0.047231 0.047321 0.259774
0.048437 0.047283 0.259643
0.049984 0.047571 0.261299
0.051235 0.047569 0.261369
0.052661 0.047727 0.262313
0.054109 0.047896 0.263321
0.055438 0.047955 0.263724
0.056882 0.048109 0.264649
0.058623 0.048500 0.266884
0.060542 0.049021 0.269827
0.061970 0.049129 0.270505
0.063330 0.049180 0.270866
0.064579 0.049145 0.270753
0.065867 0.049141 0.270808
0.067233 0.049193 0.271172
0.068431 0.049123 0.270865
0.069554 0.049002 0.270273
0.070771 0.048951 0.270066
0.071970 0.048889 0.269799
0.073213 0.048859 0.269705
0.074169 0.048642 0.268577
0.075209 0.048486 0.267783
0.076329 0.048386 0.267297
0.077826 0.048525 0.268125
0.079161 0.048559 0.268376
0.080414 0.048543 0.268347
0.081669 0.048528 0.268322
0.083074 0.048602 0.268783
0.084592 0.048739 0.269591
0.085639 0.048603 0.268891
0.087826 0.049110 0.271739
0.089977 0.049582 0.274392
0.095599 0.051925 0.287404
0.096823 0.051847 0.287009
0.099060 0.052307 0.289586
0.100477 0.052326 0.289724
0.101695 0.052243 0.289288
0.102908 0.052159 0.288844
0.104401 0.052218 0.289185
0.106708 0.052677 0.291737
0.107719 0.052492 0.290720
0.108848 0.052369 0.290038
0.110312 0.052408 0.290250
0.111619 0.052373 0.290042
0.112731 0.052247 0.289329
0.114092 0.052239 0.289263
0.115695 0.052340 0.289793
0.116782 0.052209 0.289028
0.118422 0.052325 0.289627
0.120435 0.052600 0.291103
0.121728 0.052559 0.290816
0.122894 0.052465 0.290228
0.124431 0.052528 0.290507
0.125833 0.052535 0.290461
0.127136 0.052500 0.290179
0.128441 0.052466 0.289896
0.129821 0.052464 0.289776
0.131217 0.052468 0.289681
0.132806 0.052548 0.289998
0.134427 0.052639 0.290365
0.135747 0.052612 0.290067
0.137006 0.052561 0.289633
0.138864 0.052739 0.290446
0.140087 0.052675 0.289913
0.141812 0.052799 0.290403
0.143475 0.052897 0.290741
0.145070 0.052969 0.290919
0.146458 0.052964 0.290664
0.148213 0.053091 0.291118
0.149710 0.053124 0.291043
0.151135 0.053130 0.290809
0.152501 0.053117 0.290450
-0.046026 0.016076 0.086340
-0.045584 0.016065 0.086358
-0.043726 0.019211 0.104353
-0.043302 0.019241 0.104525
-0.043633 0.019610 0.106543
-0.042983 0.019542 0.106182
-0.041814 0.019234 0.104512
-0.041292 0.019220 0.104437
-0.042082 0.021092 0.114577
-0.041608 0.021125 0.114744
-0.041587 0.021392 0.116180
-0.040423 0.021069 0.114414
-0.039945 0.021101 0.114568
-0.043029 0.023041 0.125080
-0.042506 0.023077 0.125252
-0.042148 0.023204 0.125917
-0.041987 0.023445 0.127198
-0.041502 0.023510 0.127520
-0.041345 0.023765 0.128873
-0.040890 0.023853 0.129321
-0.041206 0.024401 0.132258
-0.043546 0.026183 0.141877
-0.043801 0.026747 0.144894
-0.043763 0.027147 0.147020
-0.043496 0.027416 0.148433
-0.043432 0.027824 0.150594
-0.043938 0.028616 0.154834
-0.044701 0.029606 0.160139
-0.044506 0.029985 0.162133
-0.044487 0.030496 0.164845
-0.044425 0.030997 0.167495
-0.044598 0.031682 0.171138
-0.044745 0.032374 0.174817
-0.044778 0.033009 0.178179
-0.044842 0.033690 0.181793
-0.045133 0.034573 0.186486
-0.045319 0.035409 0.190926
-0.045249 0.036074 0.194445
-0.045020 0.036638 0.197409
-0.044763 0.037203 0.200378
-0.045034 0.038240 0.205891
-0.045247 0.039274 0.211375
-0.045066 0.040003 0.215223
-0.044553 0.040467 0.217633
-0.043788 0.040717 0.218899
-0.043291 0.041234 0.221598
-0.043710 0.042673 0.229244
-0.042669 0.042723 0.229430
-0.041669 0.042818 0.229853
-0.042044 0.044369 0.238092
-0.041754 0.045284 0.242918
-0.040872 0.045592 0.244479
-0.040114 0.046060 0.246902
-0.043461 0.053016 0.283993
-0.042148 0.053069 0.284181
-0.040838 0.053131 0.284419
-0.039478 0.053128 0.284311
-0.038154 0.053178 0.284483
-0.035597 0.051446 0.275134
-0.034311 0.051491 0.275289
-0.030727 0.047954 0.256299
-0.029863 0.048543 0.259371
-0.028383 0.048137 0.257130
-0.027152 0.048138 0.257060
-0.026035 0.048351 0.258130
-0.024755 0.048266 0.257608
-0.023563 0.048354 0.258014
-0.022301 0.048301 0.257664
-0.021123 0.048432 0.258304
-0.019839 0.048322 0.257662
-0.018584 0.048274 0.257350
-0.017940 0.049919 0.266063
-0.016848 0.050474 0.268969
-0.015704 0.050952 0.271464
-0.001357 0.050839 0.270508
-0.000055 0.051163 0.272220
0.001254 0.051151 0.272145
0.002501 0.049903 0.265500
0.003900 0.051498 0.273982
0.005180 0.051125 0.271997
0.006227 0.049062 0.261021
0.007399 0.048507 0.258074
0.008633 0.048463 0.257848
0.009858 0.048383 0.257434
0.011093 0.048363 0.257344
0.012340 0.048395 0.257530
0.013596 0.048457 0.257880
0.014862 0.048536 0.258322
0.016123 0.048591 0.258643
0.017411 0.048713 0.259317
0.018834 0.049169 0.261776
0.020185 0.049393 0.263002
0.021886 0.050394 0.268375
0.023302 0.050667 0.269867
0.024587 0.050639 0.269759
0.024280 0.047501 0.253088
0.025751 0.047974 0.255653
0.026986 0.047983 0.255747
0.028150 0.047871 0.255202
0.029420 0.047942 0.255633
0.030634 0.047918 0.255558
0.031928 0.048017 0.256143
0.033202 0.048081 0.256538
0.034485 0.048151 0.256972
0.035626 0.048026 0.256367
0.037011 0.048226 0.257499
0.038749 0.048858 0.260940
0.040115 0.048997 0.261749
0.041332 0.048950 0.261569
0.042416 0.048753 0.260586
0.043595 0.048674 0.260231
0.044760 0.048584 0.259822
0.045974 0.048550 0.259713
0.047250 0.048582 0.259960
0.048575 0.048661 0.260455
0.049965 0.048799 0.261271
0.051395 0.048969 0.262257
0.052659 0.048977 0.262374
0.054084 0.049130 0.263268
0.055270 0.049064 0.262992
0.056709 0.049221 0.263911
0.058319 0.049515 0.265566
0.060312 0.050115 0.268866
0.061961 0.050411 0.270531
0.063310 0.050455 0.270843
0.064564 0.050423 0.270753
0.065858 0.050423 0.270828
0.067157 0.050427 0.270924
0.068391 0.050382 0.270759
0.069612 0.050330 0.270553
0.070777 0.050240 0.270140
0.071852 0.050090 0.269406
0.073249 0.050166 0.269885
0.073909 0.049744 0.267681
0.075059 0.049660 0.267292
0.076256 0.049609 0.267084
0.077351 0.049494 0.266527
0.078703 0.049546 0.266862
0.079953 0.049531 0.266841
0.081488 0.049692 0.267762
0.083104 0.049896 0.268913
0.084770 0.050123 0.270184
0.086186 0.050198 0.270636
0.087640 0.050292 0.271186
0.089902 0.050841 0.274186
0.097069 0.054108 0.291844
0.098312 0.054027 0.291442
0.099078 0.053690 0.289656
0.100652 0.053793 0.290241
0.102028 0.053790 0.290245
0.103445 0.053808 0.290359
0.104996 0.053894 0.290840
0.106397 0.053902 0.290890
0.107773 0.053897 0.290866
0.109027 0.053832 0.290514
0.110382 0.053818 0.290429
0.111866 0.053867 0.290675
0.113113 0.053801 0.290301
0.114346 0.053730 0.289892
0.115769 0.053749 0.289964
0.117128 0.053738 0.289866
0.118528 0.053747 0.289864
0.119960 0.053769 0.289929
0.121328 0.053762 0.289834
0.122820 0.053810 0.290022
0.124336 0.053867 0.290252
0.125785 0.053894 0.290314
0.127068 0.053850 0.289984
0.128356 0.053808 0.289660
0.129718 0.053799 0.289499
0.131148 0.053817 0.289479
0.132697 0.053884 0.289707
0.134459 0.054034 0.290377
0.135679 0.053966 0.289862
0.137208 0.054021 0.289995
0.139035 0.054191 0.290735
0.140786 0.054328 0.291286
0.142217 0.054340 0.291156
0.143559 0.054318 0.290831
0.145007 0.054336 0.290709
0.146651 0.054427 0.290961
0.148491 0.054587 0.291574
0.150049 0.054642 0.291606
0.151387 0.054617 0.291195
0.152881 0.054648 0.291068
-0.045861 0.016429 0.086000
-0.045478 0.016438 0.086130
-0.045202 0.016487 0.086461
-0.043722 0.019925 0.105534
-0.043356 0.019985 0.105862
-0.042897 0.020003 0.105965
-0.042292 0.019953 0.105704
-0.041859 0.019983 0.105870
-0.040562 0.019597 0.103824
-0.040371 0.019742 0.104593
-0.039605 0.019606 0.103872
-0.042785 0.021994 0.116498
-0.042303 0.022028 0.116667
-0.042209 0.022268 0.117924
-0.042466 0.022701 0.120205
-0.042045 0.022779 0.120600
-0.042258 0.023208 0.122852
-0.042052 0.023415 0.123925
-0.041671 0.023529 0.124507
-0.041533 0.023786 0.125838
-0.041482 0.024100 0.127475
-0.041276 0.024333 0.128676
-0.040982 0.024519 0.129630
-0.041198 0.025021 0.132252
-0.043569 0.026868 0.141976
-0.042965 0.026909 0.142153
-0.043302 0.027550 0.145498
-0.043811 0.028322 0.149536
-0.043971 0.028891 0.152493
-0.044229 0.029544 0.155894
-0.044226 0.030042 0.158471
-0.043989 0.030395 0.160282
-0.044131 0.031027 0.163563
-0.044338 0.031729 0.167204
-0.044424 0.032368 0.170515
-0.044354 0.032914 0.173334
-0.044872 0.033926 0.178599
-0.044825 0.034541 0.181774
-0.045280 0.035574 0.187147
-0.045252 0.036262 0.190696
-0.045239 0.036991 0.194459
-0.044883 0.037463 0.196868
-0.044677 0.038083 0.200054
-0.044649 0.038885 0.204195
-0.045326 0.040350 0.211811
-0.044897 0.040876 0.214490
-0.044125 0.041105 0.215614
-0.043557 0.041540 0.217818
-0.044772 0.043739 0.229261
-0.043346 0.043403 0.227418
-0.042592 0.043739 0.229096
-0.042850 0.045161 0.236458
-0.042058 0.045521 0.238262
-0.041818 0.046517 0.243386
-0.040795 0.046673 0.244116
-0.040314 0.047477 0.248235
-0.044376 0.053841 0.281411
-0.043077 0.053895 0.281603
-0.042803 0.055277 0.288726
-0.040337 0.053825 0.281048
-0.039790 0.054922 0.286683
-0.038455 0.054972 0.286855
-0.035801 0.053069 0.276837
-0.034507 0.053115 0.276992
-0.030708 0.049153 0.256255
-0.029459 0.049116 0.255985
-0.028360 0.049335 0.257054
-0.027185 0.049435 0.257505
-0.025868 0.049274 0.256599
-0.024770 0.049536 0.257895
-0.023575 0.049621 0.258273
-0.022282 0.049499 0.257578
-0.021135 0.049705 0.258588
-0.019849 0.049590 0.257933
-0.018594 0.049542 0.257627
-0.017990 0.051345 0.266951
-0.016717 0.051370 0.267029
-0.015681 0.052188 0.271230
-0.014438 0.052400 0.272287
-0.013023 0.051973 0.270023
-0.011708 0.051890 0.269554
-0.010407 0.051863 0.269374
-0.009090 0.051730 0.268648
-0.007807 0.051783 0.268893
-0.006524 0.051857 0.269248
-0.005239 0.051944 0.269675
-0.003959 0.052161 0.270780
-0.002651 0.052056 0.270212
-0.001353 0.052071 0.270274
-0.000053 0.052403 0.271984
0.001255 0.052390 0.271909
0.002521 0.051534 0.267459
0.003935 0.053268 0.276454
0.005265 0.053264 0.276433
0.006166 0.049807 0.258489
0.007383 0.049629 0.257571
0.008615 0.049586 0.257359
0.009841 0.049525 0.257050
0.011099 0.049617 0.257546
0.012333 0.049597 0.257456
0.013586 0.049652 0.257761
0.014843 0.049708 0.258075
0.016103 0.049764 0.258390
0.017341 0.049752 0.258355
0.018719 0.050112 0.260255
0.020124 0.050497 0.262289
0.021896 0.051704 0.268595
0.023359 0.052087 0.270621
0.024647 0.052058 0.270512
0.024344 0.048840 0.253836
0.025629 0.048964 0.254523
0.026885 0.049024 0.254883
0.028067 0.048949 0.254539
0.029381 0.049101 0.255382
0.030675 0.049208 0.255990
0.031942 0.049265 0.256342
0.033247 0.049374 0.256967
0.034572 0.049505 0.257708
0.035956 0.049708 0.258822
0.037015 0.049463 0.257609
0.038861 0.050251 0.261778
0.039972 0.050068 0.260894
0.040900 0.049675 0.258912
0.041892 0.049382 0.257450
0.043208 0.049474 0.257999
0.044348 0.049366 0.257505
0.045530 0.049309 0.257279
0.046686 0.049228 0.256927
0.047977 0.049290 0.257323
0.049421 0.049502 0.258502
0.050836 0.049674 0.259475
0.052194 0.049785 0.260128
0.053662 0.049992 0.261285
0.055091 0.050155 0.262212
0.056335 0.050145 0.262234
0.058187 0.050666 0.265032
0.060031 0.051157 0.267677
0.061831 0.051591 0.270027
0.063200 0.051655 0.270438
0.064468 0.051636 0.270410
0.065817 0.051680 0.270719
0.067037 0.051623 0.270495
0.068345 0.051636 0.270632
0.069543 0.051566 0.270338
0.070631 0.051418 0.269634
0.071473 0.051100 0.268036
0.072435 0.050877 0.266932
0.073691 0.050866 0.266936
0.074603 0.050620 0.265711
0.075728 0.050525 0.265272
0.076625 0.050283 0.264062
0.077658 0.050138 0.263353
0.078928 0.050147 0.263457
0.080160 0.050132 0.263427
0.081800 0.050369 0.264720
0.083360 0.050550 0.265721
0.084883 0.050703 0.266569
0.086034 0.050633 0.266240
0.088166 0.051134 0.268911
0.098418 0.056263 0.295920
0.099679 0.056179 0.295513
0.099689 0.055402 0.291455
0.100504 0.055088 0.289827
0.101923 0.055109 0.289956
0.103249 0.055080 0.289817
0.104996 0.055273 0.290843
0.106221 0.055189 0.290409
0.107622 0.055199 0.290459
0.108995 0.055193 0.290425
0.110203 0.055105 0.289951
0.111835 0.055229 0.290586
0.113138 0.055189 0.290353
0.114504 0.055181 0.290279
0.115944 0.055208 0.290385
0.117184 0.055140 0.289986
0.118577 0.055144 0.289960
0.120141 0.055228 0.290342
0.121828 0.055365 0.290997
0.123121 0.055322 0.290699
0.124590 0.055358 0.290809
0.125976 0.055356 0.290714
0.127450 0.055393 0.290812
0.128781 0.055368 0.290574
0.130436 0.055481 0.291051
0.131908 0.055514 0.291103
0.133096 0.055429 0.290522
0.134694 0.055514 0.290824
0.135641 0.055332 0.289718
0.136332 0.055050 0.288078
0.139402 0.055724 0.291431
0.140793 0.055721 0.291227
0.142316 0.055769 0.291282
0.143683 0.055756 0.291002
0.145315 0.055845 0.291241
0.146630 0.055811 0.290828
0.148757 0.056085 0.292002
0.150473 0.056199 0.292331
0.152034 0.056254 0.292335
0.153088 0.056122 0.291354
-0.045565 0.016731 0.085414
-0.045440 0.016835 0.086029
-0.042305 0.019761 0.102107
-0.043494 0.020550 0.106195
-0.042862 0.020486 0.105875
-0.042429 0.020517 0.106044
-0.041781 0.020444 0.105670
-0.040145 0.019880 0.102758
-0.039521 0.019809 0.102391
-0.039929 0.020260 0.104721
-0.039750 0.020421 0.105551
-0.039791 0.020700 0.106987
-0.041649 0.021944 0.113409
-0.040902 0.021830 0.112809
-0.043829 0.023700 0.122457
-0.043320 0.023737 0.122631
-0.043167 0.023972 0.123830
-0.042581 0.023970 0.123800
-0.042133 0.024046 0.124176
-0.041785 0.024183 0.124861
-0.041311 0.024250 0.125180
-0.041818 0.024902 0.128522
-0.041424 0.025030 0.129153
-0.041628 0.025528 0.131693
-0.041070 0.025567 0.131861
-0.041158 0.026016 0.134141
-0.043014 0.027613 0.142339
-0.043256 0.028208 0.145370
-0.043760 0.028996 0.149389
-0.043481 0.029283 0.150824
-0.044027 0.030144 0.155211
-0.044012 0.030644 0.157738
-0.043766 0.030997 0.159506
-0.043862 0.031609 0.162603
-0.044057 0.032316 0.166187
-0.044225 0.033028 0.169791
-0.044747 0.034036 0.174915
-0.044643 0.034596 0.177735
-0.045196 0.035697 0.183327
-0.045019 0.036254 0.186121
-0.045327 0.037230 0.191069
-0.045239 0.037915 0.194515
-0.045235 0.038700 0.198473
-0.045158 0.039455 0.202270
-0.045013 0.040182 0.205924
-0.044782 0.040863 0.209339
-0.043926 0.040991 0.209918
-0.043345 0.041388 0.211877
-0.045752 0.044725 0.228877
-0.044718 0.044779 0.229070
-0.043686 0.044837 0.229285
-0.043194 0.045467 0.232424
-0.042345 0.045744 0.233760
-0.043558 0.048324 0.246857
-0.042401 0.048345 0.246876
-0.041338 0.048476 0.247463
-0.041111 0.049626 0.253243
-0.044377 0.056910 0.290220
-0.043035 0.056966 0.290411
-0.040714 0.055687 0.283799
-0.039393 0.055735 0.283951
-0.038072 0.055786 0.284121
-0.035934 0.054600 0.277997
-0.034636 0.054647 0.278153
-0.030579 0.050173 0.255304
-0.029631 0.050639 0.257604
-0.028302 0.050466 0.256651
-0.027014 0.050353 0.256006
-0.025801 0.050378 0.256065
-0.024634 0.050498 0.256613
-0.023370 0.050422 0.256161
-0.022145 0.050427 0.256125
-0.020951 0.050508 0.256480
-0.019756 0.050595 0.256863
-0.018470 0.050445 0.256049
-0.018038 0.052774 0.267818
-0.016762 0.052799 0.267896
-0.015658 0.053419 0.270992
-0.013986 0.052035 0.263928
-0.012660 0.051795 0.262668
-0.011439 0.051975 0.263539
-0.010148 0.051846 0.262847
-0.008885 0.051841 0.262790
-0.007618 0.051806 0.262585
-0.006368 0.051895 0.263007
-0.005127 0.052129 0.264169
-0.003864 0.052218 0.264596
-0.002598 0.052324 0.265111
-0.001323 0.052308 0.265018
-0.000050 0.052763 0.267307
0.001242 0.053063 0.268819
0.002522 0.052801 0.267484
0.003913 0.054256 0.274850
0.005234 0.054252 0.274829
0.006121 0.050656 0.256616
0.007365 0.050723 0.256957
0.008620 0.050839 0.257556
0.009841 0.050748 0.257105
0.011093 0.050822 0.257493
0.012340 0.050855 0.257678
0.013595 0.050915 0.258000
0.014844 0.050946 0.258179
0.016128 0.051080 0.258881
0.017368 0.051066 0.258834
0.018629 0.051112 0.259101
0.020032 0.051516 0.261179
0.021953 0.053125 0.269374
0.023356 0.053375 0.270678
0.024644 0.053345 0.270570
0.025661 0.052763 0.267658
0.026921 0.052712 0.267446
0.028111 0.052535 0.266595
0.029357 0.052472 0.266327
0.030628 0.052458 0.266306
0.031840 0.052348 0.265804
0.033048 0.052239 0.265307
0.034294 0.052198 0.265156
0.035548 0.052169 0.265068
0.036696 0.051994 0.264237
0.038048 0.052109 0.264885
0.039360 0.052164 0.265228
0.040323 0.051767 0.263275
0.041096 0.051157 0.260238
0.041971 0.050707 0.258012
0.043293 0.050807 0.258590
0.044255 0.050490 0.257047
0.045372 0.050362 0.256464
0.046636 0.050401 0.256729
0.047815 0.050348 0.256529
0.049144 0.050451 0.257124
0.050550 0.050626 0.258089
0.051875 0.050714 0.258608
0.053250 0.050845 0.259347
0.054667 0.051009 0.260261
0.055908 0.051006 0.260315
0.057705 0.051498 0.262902
0.060017 0.052420 0.267681
0.061518 0.052609 0.268722
0.063029 0.052800 0.269768
0.064367 0.052840 0.270046
0.065666 0.052847 0.270154
0.066948 0.052840 0.270193
0.068221 0.052827 0.270196
0.069460 0.052788 0.270066
0.070273 0.052433 0.268319
0.070862 0.051926 0.265790
0.071680 0.051602 0.264197
0.072863 0.051547 0.263977
0.074030 0.051483 0.263709
0.074939 0.051246 0.262550
0.075649 0.050881 0.260738
0.076852 0.050855 0.260656
0.078305 0.050992 0.261409
0.079558 0.050996 0.261480
0.081254 0.051280 0.262984
0.083037 0.051610 0.264716
0.084651 0.051826 0.265866
0.085356 0.051487 0.264164
0.087796 0.052190 0.267805
0.099595 0.057532 0.295281
0.099109 0.056454 0.289773
0.100587 0.056509 0.290079
0.102028 0.056542 0.290266
0.103834 0.056773 0.291466
0.104810 0.056551 0.290331
0.106226 0.056569 0.290425
0.107702 0.056618 0.290672
0.107944 0.056025 0.287620
0.110072 0.056413 0.289598
0.111723 0.056550 0.290284
0.113042 0.056518 0.290094
0.114290 0.056452 0.289721
0.115711 0.056471 0.289782
0.117076 0.056463 0.289694
0.118643 0.056552 0.290097
0.120459 0.056755 0.291082
0.121957 0.056806 0.291273
0.123121 0.056702 0.290664
0.124400 0.056652 0.290328
0.125945 0.056723 0.290601
0.127227 0.056676 0.290258
0.128414 0.056588 0.289698
0.131339 0.057259 0.293015
0.132734 0.057256 0.292872
0.133972 0.057186 0.292375
0.135321 0.057164 0.292116
0.136909 0.057242 0.292358
0.138194 0.057194 0.291943
0.139608 0.057199 0.291788
0.141035 0.057209 0.291649
0.142588 0.057270 0.291755
0.143926 0.057244 0.291406
0.145287 0.057227 0.291094
0.146973 0.057338 0.291414
0.148916 0.057545 0.292213
0.150529 0.057623 0.292336
0.151793 0.057566 0.291764
0.153181 0.057557 0.291419
-0.045182 0.016995 0.084666
-0.045202 0.017155 0.085547
-0.043541 0.020835 0.105086
-0.043112 0.020866 0.105256
-0.042820 0.020965 0.105769
-0.041440 0.020528 0.103570
-0.041184 0.020644 0.104160
-0.040895 0.020745 0.104677
-0.040440 0.020764 0.104772
-0.039758 0.020665 0.104275
-0.040030 0.021067 0.106297
-0.040097 0.021368 0.107815
-0.041821 0.022573 0.113883
-0.041349 0.022607 0.114049
-0.041743 0.023122 0.116637
-0.041258 0.023158 0.116802
-0.041111 0.023387 0.117942
-0.040955 0.023617 0.119084
-0.041520 0.024274 0.122380
-0.041592 0.024658 0.124296
-0.041556 0.024989 0.125938
-0.040387 0.024637 0.124140
-0.040370 0.024988 0.125886
-0.040464 0.025419 0.128029
-0.040957 0.026118 0.131520
-0.043868 0.028404 0.142996
-0.043258 0.028447 0.143173
-0.043302 0.028927 0.145550
-0.043042 0.029216 0.146965
-0.043633 0.030102 0.151380
-0.043697 0.030648 0.154082
-0.043806 0.031244 0.157032
-0.043768 0.031755 0.159550
-0.044097 0.032554 0.163515
-0.043978 0.033045 0.165928
-0.044119 0.033753 0.169428
-0.044241 0.034471 0.172979
