ply
format ascii 1.0
element vertex 1745
property float x
property float y
property float z
end_header
-0.026022 0.022321 0.255818
-0.024871 0.022395 0.256592
-0.023622 0.022386 0.256401
-0.022462 0.022464 0.257224
-0.021272 0.022521 0.257791
-0.020035 0.022531 0.257835
-0.018903 0.022668 0.259339
-0.018041 0.023171 0.265029
-0.016807 0.023238 0.265721
-0.015504 0.023211 0.265360
-0.014226 0.023222 0.265431
-0.012724 0.022834 0.260935
-0.011219 0.022353 0.255392
-0.010004 0.022400 0.255894
-0.008795 0.022480 0.256758
-0.007541 0.022451 0.256397
-0.006314 0.022504 0.256972
-0.005073 0.022527 0.257202
-0.003831 0.022552 0.257461
-0.002582 0.022552 0.257439
-0.001338 0.022611 0.258096
-0.000086 0.022653 0.258563
0.001187 0.023027 0.262816
0.002468 0.023079 0.263405
0.003745 0.023078 0.263390
0.020742 0.023510 0.268650
0.021995 0.023457 0.268098
0.023281 0.023443 0.267991
0.024358 0.023231 0.265629
0.025161 0.022792 0.260673
0.026442 0.022808 0.260915
0.027645 0.022758 0.260407
0.028760 0.022643 0.259157
0.029932 0.022580 0.258509
0.031194 0.022588 0.258671
0.032404 0.022559 0.258415
0.033859 0.022696 0.260062
0.035189 0.022742 0.260673
0.036491 0.022768 0.261052
0.037794 0.022792 0.261422
0.039184 0.022866 0.262357
0.040528 0.022909 0.262939
0.041826 0.022924 0.263208
0.043155 0.022954 0.263651
0.044411 0.022946 0.263650
0.045057 0.022631 0.260128
0.045731 0.022347 0.256962
0.046960 0.022342 0.257001
0.048120 0.022305 0.256680
0.049088 0.022183 0.255377
0.050437 0.022236 0.256083
0.051765 0.022276 0.256652
0.052915 0.022240 0.256338
0.054602 0.022426 0.258588
0.056399 0.022648 0.261251
0.057879 0.022735 0.262370
0.059785 0.022983 0.265336
0.062115 0.023380 0.270024
0.063505 0.023414 0.270528
0.064622 0.023348 0.269877
0.066006 0.023379 0.270346
0.067391 0.023409 0.270805
0.068677 0.023404 0.270859
0.069840 0.023359 0.270441
0.070792 0.023245 0.269232
0.072050 0.023235 0.269217
0.073174 0.023182 0.268708
0.074099 0.023069 0.267502
0.075161 0.023002 0.266826
0.075351 0.022675 0.263127
0.076016 0.022499 0.261179
0.076994 0.022419 0.260350
0.077942 0.022334 0.259453
0.079227 0.022346 0.259684
0.080451 0.022341 0.259712
0.081975 0.022418 0.260694
0.083516 0.022498 0.261699
0.084606 0.022455 0.261284
0.086284 0.022568 0.262669
0.096463 0.024868 0.289526
0.097682 0.024827 0.289121
0.099587 0.024958 0.290725
0.100512 0.024844 0.289462
0.101782 0.024816 0.289211
0.103153 0.024814 0.289247
0.104739 0.024863 0.289872
0.106074 0.024852 0.289794
0.107845 0.024942 0.290888
0.109306 0.024958 0.291128
0.110610 0.024939 0.290942
0.111928 0.024924 0.290794
0.113604 0.024987 0.291562
0.114650 0.024912 0.290709
0.115933 0.024890 0.290464
0.117605 0.024951 0.291180
0.118907 0.024932 0.290970
0.120214 0.024916 0.290769
0.121554 0.024906 0.290645
0.123360 0.024991 0.291616
0.124664 0.024973 0.291387
0.126006 0.024963 0.291239
0.127517 0.024987 0.291474
0.128774 0.024961 0.291118
0.129986 0.024926 0.290661
0.131371 0.024925 0.290586
0.132948 0.024961 0.290923
0.134142 0.024924 0.290412
0.135383 0.024897 0.290000
0.136838 0.024909 0.290040
0.138337 0.024929 0.290157
0.140230 0.025018 0.291077
0.141689 0.025029 0.291075
0.143501 0.025102 0.291775
0.144995 0.025118 0.291806
0.146151 0.025076 0.291148
0.147646 0.025092 0.291154
0.149052 0.025093 0.290972
0.150727 0.025139 0.291295
0.152170 0.025145 0.291150
-0.042811 0.009278 0.103360
-0.042397 0.009294 0.103529
-0.042668 0.009462 0.105393
-0.043265 0.009707 0.108110
-0.043343 0.009840 0.109581
-0.043425 0.009977 0.111093
-0.043259 0.010060 0.111996
-0.042956 0.010113 0.112563
-0.042718 0.010182 0.113314
-0.042612 0.010285 0.114437
-0.042418 0.010370 0.115347
-0.042805 0.010600 0.117882
-0.042616 0.010692 0.118871
-0.042528 0.010812 0.120172
-0.042477 0.010945 0.121611
-0.042352 0.011062 0.122874
-0.041856 0.011084 0.123080
-0.042757 0.011482 0.127455
-0.042815 0.011661 0.129403
-0.043796 0.012101 0.134235
-0.043719 0.012257 0.135917
-0.043603 0.012407 0.137523
-0.043310 0.012510 0.138613
-0.043105 0.012642 0.140019
-0.043082 0.012832 0.142070
-0.042937 0.012992 0.143773
-0.043230 0.013291 0.147026
-0.043161 0.013487 0.149126
-0.043667 0.013872 0.153318
-0.043564 0.014073 0.155476
-0.043748 0.014376 0.158748
-0.043826 0.014654 0.161743
-0.043560 0.014825 0.163550
-0.043497 0.015072 0.166200
-0.043513 0.015356 0.169257
-0.043518 0.015647 0.172380
-0.043332 0.015879 0.174857
-0.043211 0.016145 0.177693
-0.043113 0.016430 0.180742
-0.043267 0.016824 0.184997
-0.043165 0.017133 0.188303
-0.042972 0.017419 0.191351
-0.042901 0.017768 0.195085
-0.042949 0.018182 0.199539
-0.042801 0.018530 0.203261
-0.042852 0.018983 0.208126
-0.042399 0.019229 0.210719
-0.042064 0.019541 0.214037
-0.041756 0.019881 0.217667
-0.041486 0.020259 0.221692
-0.041023 0.020558 0.224867
-0.040944 0.021072 0.230376
-0.040721 0.021538 0.235364
-0.040326 0.021937 0.239616
-0.040010 0.022403 0.244604
-0.039818 0.022970 0.250677
-0.039756 0.023649 0.257975
-0.038900 0.023884 0.260435
-0.038401 0.024362 0.265529
-0.037878 0.024856 0.270806
-0.036923 0.025092 0.273265
-0.035106 0.024738 0.269305
-0.034349 0.025133 0.273501
-0.029923 0.023713 0.257859
-0.028577 0.023627 0.256832
-0.027276 0.023574 0.256160
-0.026084 0.023613 0.256503
-0.024848 0.023614 0.256432
-0.023629 0.023633 0.256552
-0.022396 0.023640 0.256550
-0.021144 0.023625 0.256311
-0.019994 0.023730 0.257381
-0.018942 0.023973 0.259946
-0.018055 0.024475 0.265323
-0.016713 0.024388 0.264322
-0.015392 0.024321 0.263533
-0.014123 0.024332 0.263603
-0.012743 0.024134 0.261403
-0.011228 0.023611 0.255690
-0.010008 0.023652 0.256095
-0.008804 0.023751 0.257120
-0.007540 0.023692 0.256445
-0.006314 0.023754 0.257090
-0.005087 0.023841 0.257995
-0.003847 0.023906 0.258675
-0.002598 0.023949 0.259120
-0.001345 0.024010 0.259758
-0.000086 0.024045 0.260127
0.001181 0.024151 0.261268
0.002458 0.024248 0.262311
0.020642 0.024690 0.267415
0.021965 0.024721 0.267794
0.023282 0.024740 0.268060
0.024565 0.024725 0.267947
0.025232 0.024121 0.261464
0.026383 0.024016 0.260393
0.027616 0.023992 0.260191
0.028735 0.023875 0.258991
0.029907 0.023810 0.258352
0.031180 0.023827 0.258612
0.032437 0.023831 0.258728
0.033750 0.023874 0.259279
0.035070 0.023919 0.259850
0.036364 0.023944 0.260196
0.037599 0.023929 0.260124
0.039062 0.024056 0.261590
0.040591 0.024214 0.263401
0.042015 0.024302 0.264451
0.042994 0.024134 0.262720
0.044229 0.024117 0.262623
0.045541 0.024140 0.262973
0.046482 0.023971 0.261230
0.047464 0.023832 0.259812
0.048745 0.023845 0.260063
0.049852 0.023776 0.259403
0.051099 0.023774 0.259490
0.052419 0.023806 0.259939
0.053749 0.023841 0.260425
0.054915 0.023803 0.260112
0.056133 0.023789 0.260062
0.057778 0.023952 0.261954
0.059674 0.024210 0.264883
0.062114 0.024673 0.270064
0.063486 0.024702 0.270489
0.064694 0.024667 0.270216
0.066064 0.024695 0.270623
0.067442 0.024723 0.271047
0.068703 0.024709 0.270999
0.069896 0.024671 0.270691
0.071286 0.024703 0.271149
0.072843 0.024791 0.272216
0.073911 0.024712 0.271451
0.074738 0.024556 0.269842
0.075910 0.024517 0.269515
0.076870 0.024412 0.268460
0.077382 0.024171 0.265900
0.078464 0.024112 0.265350
0.079409 0.024014 0.264362
0.080239 0.023885 0.263028
0.081344 0.023840 0.262622
0.082751 0.023884 0.263186
0.084111 0.023913 0.263586
0.085307 0.023895 0.263471
0.086803 0.023960 0.264267
0.096129 0.026154 0.288545
0.097344 0.026111 0.288141
0.100024 0.026456 0.292020
0.100593 0.026240 0.289712
0.102095 0.026271 0.290115
0.103951 0.026391 0.291499
0.105083 0.026326 0.290838
0.106737 0.026392 0.291617
0.108098 0.026385 0.291583
0.109329 0.026346 0.291197
0.110630 0.026325 0.291003
0.111863 0.026289 0.290631
0.113260 0.026291 0.290685
0.115291 0.026439 0.292338
0.116633 0.026427 0.292220
0.117736 0.026362 0.291507
0.119111 0.026358 0.291469
0.120426 0.026342 0.291279
0.121471 0.026267 0.290442
0.123054 0.026309 0.290890
0.124684 0.026361 0.291427
0.126241 0.026395 0.291774
0.127398 0.026346 0.291192
0.128766 0.026342 0.291090
0.130087 0.026327 0.290875
0.131359 0.026304 0.290547
0.132829 0.026320 0.290646
0.134207 0.026317 0.290536
0.135390 0.026277 0.289997
0.136822 0.026286 0.289985
0.138375 0.026317 0.290216
0.139960 0.026353 0.290494
0.141284 0.026341 0.290216
0.143020 0.026404 0.290768
0.144768 0.026468 0.291319
0.146542 0.026536 0.291896
0.147271 0.026415 0.290383
0.149615 0.026583 0.292036
0.151146 0.026605 0.292069
0.152509 0.026598 0.291761
-0.043655 0.010072 0.106602
-0.043538 0.010162 0.107544
-0.043091 0.010175 0.107679
-0.042769 0.010220 0.108134
-0.042777 0.010344 0.109438
-0.042292 0.010352 0.109498
-0.041782 0.010353 0.109492
-0.041919 0.010517 0.111202
-0.042418 0.010776 0.113923
-0.043359 0.011156 0.117914
-0.043668 0.011382 0.120266
-0.043514 0.011490 0.121384
-0.043239 0.011570 0.122189
-0.042996 0.011660 0.123107
-0.042719 0.011743 0.123948
-0.042444 0.011830 0.124820
-0.042448 0.011997 0.126545
-0.042796 0.012268 0.129357
-0.043100 0.012534 0.132116
-0.043427 0.012814 0.135024
-0.043301 0.012967 0.136585
-0.043215 0.013138 0.138325
-0.043120 0.013310 0.140083
-0.043197 0.013542 0.142466
-0.043319 0.013795 0.145071
-0.043322 0.014018 0.147357
-0.043865 0.014426 0.151580
-0.043880 0.014671 0.154090
-0.043859 0.014912 0.156552
-0.043731 0.015125 0.158711
-0.043683 0.015373 0.161241
-0.043624 0.015626 0.163818
-0.043429 0.015838 0.165969
-0.043379 0.016112 0.168764
-0.043258 0.016370 0.171379
-0.043085 0.016618 0.173891
-0.042975 0.016899 0.176757
-0.043064 0.017273 0.180574
-0.043054 0.017620 0.184121
-0.043021 0.017972 0.187712
-0.042756 0.018241 0.190428
-0.042784 0.018649 0.194591
-0.042867 0.019100 0.199199
-0.042810 0.019507 0.203350
-0.042502 0.019816 0.206472
-0.041998 0.020046 0.208771
-0.041557 0.020318 0.211507
-0.041343 0.020718 0.215564
-0.041041 0.021093 0.219363
-0.040979 0.021614 0.224680
-0.040864 0.022135 0.229985
-0.040537 0.022566 0.234357
-0.040224 0.023030 0.239068
-0.039941 0.023539 0.244247
-0.039694 0.024100 0.249964
-0.039592 0.024787 0.256978
-0.038907 0.025142 0.260547
-0.038267 0.025551 0.264670
-0.037640 0.025996 0.269177
-0.036675 0.026231 0.271503
-0.035015 0.025969 0.268685
-0.034325 0.026433 0.273382
-0.033040 0.026458 0.273538
-0.029871 0.024915 0.257486
-0.028638 0.024921 0.257462
-0.027310 0.024842 0.256558
-0.026011 0.024783 0.255863
-0.024885 0.024891 0.256896
-0.023619 0.024863 0.256526
-0.022417 0.024904 0.256866
-0.021185 0.024913 0.256893
-0.020014 0.025002 0.257732
-0.018908 0.025187 0.259571
-0.017992 0.025670 0.264485
-0.016704 0.025655 0.264270
-0.015452 0.025699 0.264658
-0.014178 0.025711 0.264728
-0.012644 0.025206 0.259476
-0.011216 0.024823 0.255495
-0.010018 0.024920 0.256445
-0.008786 0.024949 0.256702
-0.007530 0.024907 0.256233
-0.006313 0.024999 0.257153
-0.005075 0.025042 0.257562
-0.003839 0.025115 0.258285
-0.002594 0.025180 0.258936
-0.001343 0.025251 0.259651
-0.000084 0.025235 0.259469
0.001177 0.025301 0.260142
0.002445 0.025378 0.260930
0.006335 0.025763 0.264887
0.007610 0.025733 0.264587
0.008851 0.025611 0.263347
0.010067 0.025456 0.261773
0.011246 0.025254 0.259718
0.012519 0.025281 0.260012
0.013803 0.025324 0.260484
0.015139 0.025448 0.261793
0.016355 0.025366 0.260980
0.017694 0.025472 0.262112
0.019331 0.025963 0.267214
0.020549 0.025867 0.266266
0.021851 0.025880 0.266454
0.024548 0.026003 0.267827
0.025018 0.025171 0.259313
0.026056 0.024961 0.257216
0.027273 0.024936 0.257020
0.028493 0.024914 0.256863
0.029690 0.024875 0.256531
0.030887 0.024840 0.256237
0.032142 0.024852 0.256432
0.033466 0.024914 0.257151
0.034701 0.024908 0.257170
0.035889 0.024870 0.256853
0.037379 0.025036 0.258657
0.039134 0.025364 0.262131
0.041021 0.025754 0.266249
0.042262 0.025726 0.266057
0.053929 0.025175 0.261342
0.056699 0.025865 0.268612
0.057913 0.025830 0.268356
0.058792 0.025650 0.266594
0.060571 0.025863 0.268913
0.062097 0.025960 0.270035
0.063608 0.026048 0.271054
0.064692 0.025960 0.270252
0.066083 0.025997 0.270744
0.067470 0.026031 0.271203
0.068820 0.026050 0.271503
0.070113 0.026046 0.271573
0.071487 0.026072 0.271949
0.073474 0.026317 0.274608
0.074674 0.026276 0.274288
0.075733 0.026188 0.273470
0.077060 0.026194 0.273633
0.078351 0.026188 0.273664
0.079346 0.026084 0.272679
0.080467 0.026025 0.272155
0.081480 0.025933 0.271286
0.082473 0.025837 0.270376
0.083684 0.025812 0.270201
0.084834 0.025769 0.269835
0.086037 0.025743 0.269646
0.087421 0.025772 0.270021
0.088287 0.025649 0.268808
0.096933 0.027757 0.290981
0.098160 0.027711 0.290574
0.099049 0.027572 0.289193
0.100159 0.027498 0.288480
0.101347 0.027447 0.288007
0.102787 0.027465 0.288251
0.105352 0.027778 0.291598
0.107096 0.027870 0.292609
0.107299 0.027564 0.289438
0.109566 0.027789 0.291840
0.110842 0.027760 0.291569
0.112043 0.027712 0.291104
0.113417 0.027709 0.291092
0.114667 0.027676 0.290759
0.116011 0.027665 0.290663
0.117761 0.027751 0.291569
0.118762 0.027660 0.290615
0.120097 0.027648 0.290482
0.121558 0.027665 0.290646
0.123052 0.027690 0.290879
0.124530 0.027710 0.291059
0.125591 0.027637 0.290264
0.127133 0.027671 0.290577
0.128739 0.027718 0.291018
0.130012 0.027693 0.290693
0.131452 0.027704 0.290738
0.132909 0.027718 0.290806
0.134231 0.027704 0.290569
0.135680 0.027716 0.290599
0.137124 0.027726 0.290603
0.138204 0.027664 0.289832
0.139745 0.027694 0.290022
0.141554 0.027776 0.290744
0.143143 0.027814 0.290990
0.144840 0.027872 0.291432
0.146158 0.027856 0.291097
0.147102 0.027770 0.290015
0.148658 0.027800 0.290132
0.151003 0.027976 0.291753
0.152116 0.027922 0.290967
-0.042749 0.010355 0.104392
-0.042952 0.010525 0.106098
-0.042948 0.010648 0.107326
-0.042809 0.010739 0.108238
-0.042577 0.010810 0.108931
-0.042426 0.010902 0.109851
-0.042445 0.011042 0.111234
-0.042563 0.011211 0.112914
-0.042804 0.011417 0.114966
-0.043192 0.011667 0.117466
-0.043117 0.011798 0.118756
-0.042901 0.011894 0.119683
-0.042610 0.011970 0.120419
-0.042787 0.012182 0.122517
-0.042728 0.012332 0.123986
-0.042440 0.012418 0.124819
-0.042375 0.012574 0.126340
-0.042974 0.012933 0.129909
-0.043311 0.013223 0.132776
-0.043304 0.013415 0.134654
-0.043052 0.013536 0.135815
-0.042899 0.013692 0.137329
-0.042937 0.013914 0.139506
-0.043003 0.014153 0.141844
-0.043210 0.014447 0.144728
-0.043680 0.014839 0.148594
-0.043697 0.015088 0.151023
-0.043831 0.015386 0.153938
-0.043586 0.015558 0.155600
-0.043642 0.015847 0.158412
-0.043686 0.016140 0.161277
-0.043444 0.016337 0.163167
-0.043488 0.016650 0.166221
-0.043294 0.016883 0.168464
-0.043240 0.017179 0.171343
-0.043143 0.017470 0.174157
-0.042917 0.017718 0.176552
-0.042906 0.018067 0.179945
-0.042947 0.018453 0.183699
-0.042802 0.018773 0.186797
-0.042570 0.019067 0.189637
-0.042665 0.019525 0.194093
-0.042840 0.020040 0.199117
-0.042884 0.020515 0.203743
-0.042535 0.020820 0.206678
-0.042079 0.021086 0.209222
-0.041647 0.021378 0.212014
-0.041405 0.021784 0.215940
-0.041389 0.022332 0.221275
-0.041031 0.022721 0.225021
-0.040901 0.023259 0.230251
-0.040693 0.023782 0.235319
-0.040477 0.024330 0.240635
-0.040056 0.024784 0.245013
-0.039850 0.025402 0.251013
-0.039708 0.026100 0.257805
-0.038945 0.026422 0.260875
-0.038374 0.026900 0.265487
-0.037696 0.027333 0.269652
-0.036592 0.027477 0.270968
-0.035175 0.027389 0.269993
-0.034375 0.027793 0.273865
-0.033088 0.027819 0.274020
-0.029795 0.026090 0.256903
-0.028536 0.026071 0.256626
-0.027202 0.025978 0.255623
-0.026029 0.026038 0.256124
-0.024793 0.026036 0.256028
-0.023614 0.026098 0.256558
-0.022369 0.026090 0.256399
-0.021102 0.026055 0.255980
-0.019845 0.026027 0.255634
-0.018718 0.026178 0.257052
-0.018051 0.027039 0.265438
-0.016714 0.026952 0.264526
-0.015416 0.026919 0.264144
-0.012633 0.026442 0.259353
-0.011124 0.025851 0.253514
-0.009938 0.025957 0.254509
-0.008785 0.026193 0.256783
-0.007533 0.026160 0.256428
-0.006305 0.026218 0.256963
-0.005075 0.026294 0.257679
-0.003842 0.026396 0.258652
-0.002593 0.026438 0.259041
-0.001341 0.026494 0.259578
-0.000083 0.026542 0.260033
0.001175 0.026500 0.259615
0.002488 0.027102 0.265502
0.003891 0.027936 0.273668
0.005217 0.027933 0.273647
0.006331 0.027026 0.264761
0.007594 0.026954 0.264064
0.008826 0.026806 0.262627
0.009997 0.026536 0.260006
0.011247 0.026513 0.259794
0.012507 0.026514 0.259833
0.013770 0.026521 0.259928
0.015162 0.026754 0.262245
0.016324 0.026576 0.260534
0.017703 0.026752 0.262297
0.019317 0.027237 0.267088
0.020450 0.027024 0.265051
0.021733 0.027022 0.265083
0.025064 0.026472 0.259848
0.025957 0.026105 0.256303
0.027189 0.026097 0.256289
0.028439 0.026105 0.256434
0.029586 0.026023 0.255694
0.030838 0.026036 0.255891
0.032089 0.026046 0.256068
0.033328 0.026047 0.256150
0.034615 0.026084 0.256590
0.035851 0.026081 0.256645
0.037206 0.026162 0.257520
0.038636 0.026288 0.258849
0.039988 0.026355 0.259599
0.041490 0.026514 0.261255
0.053895 0.026413 0.261227
0.055132 0.026403 0.261235
0.056911 0.026648 0.263759
0.058599 0.026840 0.265771
0.060303 0.027031 0.267768
0.061813 0.027129 0.268845
0.063347 0.027234 0.269986
0.064608 0.027219 0.269946
0.065900 0.027217 0.270036
0.067270 0.027247 0.270440
0.068654 0.027282 0.270889
0.069871 0.027250 0.270675
0.071113 0.027228 0.270567
0.072378 0.027216 0.270549
0.073509 0.027156 0.270046
0.074659 0.027103 0.269628
0.075851 0.027068 0.269373
0.077129 0.027064 0.269429
0.078316 0.027029 0.269171
0.079438 0.026972 0.268703
0.080830 0.027008 0.269149
0.082124 0.027011 0.269262
0.083260 0.026961 0.268857
0.084702 0.027012 0.269442
0.085976 0.027007 0.269479
0.087314 0.027023 0.269713
0.088763 0.027072 0.270280
0.096629 0.029049 0.290089
0.097852 0.029001 0.289683
0.099174 0.028983 0.289577
0.100694 0.029023 0.290038
0.102566 0.029162 0.291486
0.103607 0.029064 0.290564
0.104972 0.029058 0.290558
0.106301 0.029042 0.290451
0.107579 0.029013 0.290204
0.109005 0.029025 0.290354
0.110317 0.029005 0.290196
0.111704 0.029006 0.290230
0.113117 0.029013 0.290326
0.114509 0.029016 0.290363
0.115805 0.028993 0.290149
0.117469 0.029062 0.290846
0.118833 0.029057 0.290786
0.120302 0.029077 0.290976
0.121365 0.028999 0.290181
0.122839 0.029020 0.290369
0.124288 0.029035 0.290485
0.125645 0.029028 0.290379
0.126912 0.029001 0.290060
0.128510 0.029049 0.290486
0.130187 0.029113 0.291071
0.131568 0.029111 0.290978
0.132988 0.029117 0.290961
0.134550 0.029154 0.291241
0.136015 0.029170 0.291295
0.137091 0.029102 0.290511
0.138912 0.029192 0.291294
0.140264 0.029183 0.291072
0.141786 0.029209 0.291191
0.143483 0.029271 0.291650
0.145089 0.029312 0.291901
0.146339 0.029282 0.291422
0.147773 0.029288 0.291301
0.149719 0.029395 0.292163
0.150889 0.029349 0.291491
0.152296 0.029349 0.291269
-0.042486 0.010780 0.103750
-0.042375 0.010877 0.104675
-0.042739 0.011099 0.106806
-0.042712 0.011224 0.107994
-0.042700 0.011356 0.109250
-0.042455 0.011428 0.109930
-0.042165 0.011490 0.110505
-0.042263 0.011660 0.112124
-0.042501 0.011874 0.114160
-0.042921 0.012145 0.116737
-0.042584 0.012206 0.117295
-0.042396 0.012312 0.118282
-0.042553 0.012522 0.120269
-0.042686 0.012731 0.122240
-0.042845 0.012953 0.124335
-0.042860 0.013137 0.126066
-0.042889 0.013331 0.127885
-0.043068 0.013577 0.130207
-0.043052 0.013768 0.131996
-0.043173 0.014010 0.134263
-0.042967 0.014151 0.135565
-0.043139 0.014422 0.138115
-0.043031 0.014607 0.139830
-0.043224 0.014902 0.142592
-0.043075 0.015086 0.144296
-0.043294 0.015407 0.147304
-0.043213 0.015629 0.149373
-0.043756 0.016089 0.153702
-0.043779 0.016370 0.156316
-0.043590 0.016579 0.158249
-0.043780 0.016944 0.161652
-0.043605 0.017177 0.163803
-0.043417 0.017413 0.165979
-0.043424 0.017738 0.169000
-0.043302 0.018021 0.171619
-0.043153 0.018304 0.174232
-0.042876 0.018542 0.176420
-0.042864 0.018907 0.179806
-0.043037 0.019370 0.184123
-0.043049 0.019778 0.187915
-0.042792 0.020078 0.190670
-0.042674 0.020456 0.194177
-0.042705 0.020925 0.198533
-0.042707 0.021401 0.202951
-0.042215 0.021645 0.205170
-0.041834 0.021960 0.208055
-0.041184 0.022145 0.209711
-0.040594 0.022371 0.211761
-0.040620 0.022958 0.217218
-0.041145 0.023866 0.225701
-0.041039 0.024447 0.231089
-0.040928 0.025056 0.236745
-0.040504 0.025503 0.240860
-0.040243 0.026082 0.246221
-0.040077 0.026760 0.252510
-0.039825 0.027421 0.258638
-0.038850 0.027610 0.260313
-0.038297 0.028122 0.265033
-0.037812 0.028720 0.270565
-0.036468 0.028686 0.270135
-0.035070 0.028605 0.269268
-0.034458 0.029183 0.274609
-0.032986 0.029051 0.273265
-0.029839 0.027371 0.257366
-0.028537 0.027311 0.256713
-0.027252 0.027263 0.256176
-0.025989 0.027233 0.255813
-0.024809 0.027291 0.256277
-0.023593 0.027314 0.256418
-0.022376 0.027339 0.256572
-0.021141 0.027343 0.256537
-0.019895 0.027333 0.256372
-0.018840 0.027601 0.258825
-0.018055 0.028331 0.265600
-0.016733 0.028266 0.264934
-0.015283 0.027956 0.261968
-0.011221 0.027317 0.255835
-0.010003 0.027370 0.256285
-0.008810 0.027517 0.257619
-0.007554 0.027485 0.257289
-0.006311 0.027494 0.257340
-0.005081 0.027578 0.258096
-0.003840 0.027642 0.258672
-0.002591 0.027684 0.259045
-0.001337 0.027691 0.259093
-0.000082 0.027786 0.259966
0.001177 0.027787 0.259963
0.002436 0.027776 0.259860
0.005299 0.029710 0.277952
0.006249 0.027934 0.261334
0.007571 0.028141 0.263282
0.008802 0.028001 0.261985
0.009992 0.027780 0.259933
0.011266 0.027815 0.260281
0.012537 0.027836 0.260506
0.013825 0.027887 0.261009
0.015150 0.028000 0.262100
0.016418 0.027997 0.262101
0.017755 0.028103 0.263134
0.019230 0.028400 0.265951
0.020430 0.028277 0.264852
0.021736 0.028307 0.265183
0.025171 0.027845 0.261017
0.026066 0.027458 0.257446
0.027276 0.027422 0.257170
0.028499 0.027402 0.257044
0.029676 0.027341 0.256538
0.030843 0.027275 0.255993
0.032081 0.027276 0.256069
0.033259 0.027227 0.255685
0.034506 0.027235 0.255840
0.035707 0.027208 0.255670
0.036946 0.027212 0.255782
0.038557 0.027479 0.258382
0.039960 0.027586 0.259475
0.043448 0.029083 0.273648
0.054948 0.028206 0.266381
0.056526 0.028355 0.267891
0.057736 0.028317 0.267636
0.059076 0.028343 0.267982
0.060572 0.028441 0.269012
0.061999 0.028503 0.269704
0.063284 0.028498 0.269763
0.064604 0.028509 0.269975
0.065938 0.028525 0.270235
0.067232 0.028524 0.270331
0.068591 0.028550 0.270683
0.069918 0.028562 0.270897
0.071225 0.028565 0.271031
0.072506 0.028558 0.271066
0.073826 0.028567 0.271247
0.075028 0.028530 0.270995
0.076230 0.028495 0.270755
0.077562 0.028508 0.270976
0.078736 0.028464 0.270649
0.079969 0.028442 0.270531
0.081306 0.028457 0.270766
0.082555 0.028441 0.270703
0.083610 0.028360 0.270018
0.084813 0.028331 0.269820
0.086182 0.028357 0.270151
0.087522 0.028373 0.270379
0.088968 0.028423 0.270926
0.096886 0.030509 0.290885
0.098113 0.030459 0.290479
0.099074 0.030329 0.289303
0.100191 0.030249 0.288610
0.101650 0.030273 0.288900
0.103902 0.030530 0.291408
0.105078 0.030468 0.290866
0.106238 0.030403 0.290290
0.107869 0.030473 0.290996
0.109068 0.030420 0.290530
0.110422 0.030411 0.290479
0.111784 0.030405 0.290445
0.113076 0.030380 0.290227
0.114410 0.030367 0.290114
0.115874 0.030388 0.290325
0.117244 0.030384 0.290291
0.118622 0.030383 0.290269
0.120003 0.030382 0.290248
0.121315 0.030364 0.290058
0.122690 0.030361 0.290011
0.124206 0.030394 0.290286
0.125685 0.030416 0.290463
0.126911 0.030378 0.290046
0.128234 0.030363 0.289848
0.130018 0.030456 0.290677
0.131645 0.030512 0.291130
0.133454 0.030607 0.291960
0.134442 0.030515 0.290985
0.136171 0.030590 0.291604
0.137910 0.030667 0.292221
0.139047 0.030609 0.291549
0.140456 0.030611 0.291442
0.141699 0.030578 0.290982
0.142936 0.030544 0.290505
0.144448 0.030569 0.290576
0.146632 0.030734 0.291970
0.148041 0.030735 0.291789
0.147841 0.030405 0.288456
0.151109 0.030788 0.291871
0.152582 0.030801 0.291769
-0.043183 0.011324 0.104262
-0.042764 0.011343 0.104432
-0.042799 0.011484 0.105724
-0.043004 0.011675 0.107471
-0.043088 0.011836 0.108948
-0.042867 0.011917 0.109680
-0.042422 0.011937 0.109849
-0.042120 0.011998 0.110394
-0.042051 0.012128 0.111568
-0.042240 0.012336 0.113463
-0.042730 0.012639 0.116225
-0.042568 0.012755 0.117260
-0.042256 0.012828 0.117901
-0.041990 0.012917 0.118689
-0.042874 0.013366 0.122786
-0.043295 0.013682 0.125653
-0.043458 0.013924 0.127837
-0.043129 0.014013 0.128613
-0.043156 0.014222 0.130488
-0.043207 0.014445 0.132487
-0.043288 0.014684 0.134637
-0.043217 0.014879 0.136370
-0.043184 0.015092 0.138277
-0.043132 0.015306 0.140178
-0.043230 0.015580 0.142632
-0.043290 0.015848 0.145036
-0.043342 0.016123 0.147488
-0.043491 0.016443 0.150356
-0.043638 0.016773 0.153309
-0.043794 0.017118 0.156394
-0.043980 0.017487 0.159695
-0.043913 0.017766 0.162170
-0.043799 0.018036 0.164562
-0.043667 0.018307 0.166966
-0.043584 0.018610 0.169654
-0.043344 0.018856 0.171819
-0.043079 0.019101 0.173966
-0.042900 0.019394 0.176555
-0.043035 0.019843 0.180562
-0.043250 0.020348 0.185072
-0.043273 0.020782 0.188932
-0.042852 0.021017 0.190979
-0.042675 0.021385 0.194228
-0.042591 0.021816 0.198052
-0.042584 0.022307 0.202414
-0.042177 0.022606 0.205038
-0.041605 0.022830 0.206965
-0.041045 0.023070 0.209053
-0.040453 0.023305 0.211083
-0.040619 0.023999 0.217274
-0.041065 0.024900 0.225326
-0.041026 0.025547 0.231075
-0.040922 0.026189 0.236776
-0.040415 0.026601 0.240400
-0.040568 0.027485 0.248284
-0.040120 0.028003 0.252855
-0.039702 0.028575 0.257913
-0.038933 0.028923 0.260947
-0.038421 0.029492 0.265970
-0.037874 0.030072 0.271092
-0.036241 0.029800 0.268536
-0.034886 0.029746 0.267941
-0.034440 0.030491 0.274554
-0.033150 0.030519 0.274710
-0.029780 0.028555 0.256940
-0.028560 0.028573 0.257009
-0.027316 0.028566 0.256863
-0.026077 0.028564 0.256762
-0.024876 0.028607 0.257065
-0.023631 0.028600 0.256927
-0.022380 0.028584 0.256707
-0.021138 0.028580 0.256596
-0.019936 0.028632 0.256999
-0.018894 0.028936 0.259658
-0.017980 0.029495 0.264605
-0.016651 0.029403 0.263725
-0.015377 0.029405 0.263678
-0.014109 0.029418 0.263747
0.001181 0.029111 0.260628
0.002444 0.029111 0.260619
0.003951 0.031033 0.277830
0.005296 0.031031 0.277808
0.006168 0.028818 0.258005
0.007451 0.028945 0.259147
0.008689 0.028889 0.258656
0.009932 0.028858 0.258402
0.011197 0.028894 0.258739
0.012447 0.028887 0.258699
0.013739 0.028968 0.259454
0.015063 0.029098 0.260647
0.016325 0.029098 0.260681
0.017645 0.029192 0.261564
0.019006 0.029339 0.262918
0.020329 0.029411 0.263609
0.021625 0.029437 0.263891
0.025076 0.028996 0.260100
0.025988 0.028615 0.256740
0.027201 0.028585 0.256527
0.028408 0.028551 0.256284
0.029615 0.028520 0.256074
0.030843 0.028510 0.256054
0.032082 0.028512 0.256141
0.033353 0.028539 0.256466
0.034602 0.028548 0.256619
0.035850 0.028555 0.256757
0.037120 0.028578 0.257048
0.038510 0.028689 0.258127
0.042142 0.030410 0.273708
0.043417 0.030378 0.273512
0.044781 0.030409 0.273880
0.045475 0.029996 0.270254
0.046798 0.030008 0.270463
0.048122 0.030021 0.270679
0.049000 0.029762 0.268440
0.050125 0.029663 0.267643
0.051403 0.029657 0.267689
0.052580 0.029594 0.267223
0.053871 0.029597 0.267348
0.054910 0.029464 0.266252
0.056480 0.029616 0.267728
0.057970 0.029720 0.268770
0.058973 0.029575 0.267567
0.060662 0.029773 0.269461
0.062009 0.029798 0.269795
0.063373 0.029831 0.270194
0.064668 0.029830 0.270288
0.066027 0.029858 0.270646
0.067413 0.029897 0.271104
0.068713 0.029897 0.271205
0.070055 0.029915 0.271472
0.071328 0.029903 0.271468
0.072632 0.029905 0.271579
0.073912 0.029896 0.271603
0.075166 0.029878 0.271531
0.076406 0.029855 0.271416
0.077842 0.029907 0.271989
0.079141 0.029906 0.272073
0.080339 0.029868 0.271815
0.081718 0.029897 0.272167
0.082994 0.029888 0.272172
0.084133 0.029831 0.271736
0.085371 0.029810 0.271625
0.086609 0.029789 0.271515
0.087816 0.029759 0.271314
0.089264 0.029810 0.271851
0.097363 0.032049 0.292340
0.098597 0.031996 0.291932
0.099063 0.031700 0.289292
0.100463 0.031706 0.289412
0.102286 0.031844 0.290727
0.103670 0.031843 0.290772
0.104990 0.031823 0.290636
0.105848 0.031665 0.289237
0.107396 0.031714 0.289733
0.108969 0.031770 0.290278
0.110336 0.031765 0.290261
0.111797 0.031787 0.290484
0.113257 0.031808 0.290697
0.114632 0.031805 0.290679
0.115940 0.031784 0.290490
0.117231 0.031758 0.290256
0.118600 0.031754 0.290213
0.119884 0.031727 0.289956
0.121238 0.031720 0.289868
0.122612 0.031718 0.289818
0.123839 0.031678 0.289419
0.125330 0.031705 0.289630
0.126743 0.031713 0.289649
0.128337 0.031765 0.290066
0.129706 0.031761 0.289963
0.131296 0.031810 0.290340
0.132976 0.031880 0.290893
0.134859 0.031997 0.291866
0.135858 0.031904 0.290910
0.137796 0.032031 0.291952
0.139382 0.032074 0.292222
0.141253 0.032181 0.293064
0.142673 0.032184 0.292950
0.143745 0.032110 0.292115
0.144993 0.032076 0.291636
0.146585 0.032118 0.291836
0.147653 0.032045 0.290982
0.150259 0.032304 0.293130
0.151277 0.032220 0.292149
0.152312 0.032141 0.291204
-0.041126 0.011252 0.099295
-0.043033 0.011909 0.105089
-0.042863 0.012000 0.105885
-0.042892 0.012149 0.107192
-0.042765 0.012257 0.108135
-0.042638 0.012368 0.109099
-0.042240 0.012402 0.109382
-0.042115 0.012517 0.110385
-0.042185 0.012695 0.111931
-0.042100 0.012829 0.113094
-0.042264 0.013044 0.114966
-0.041345 0.012926 0.113900
-0.041099 0.013018 0.114682
-0.042906 0.013771 0.121286
-0.043143 0.014034 0.123568
-0.043368 0.014300 0.125876
-0.043296 0.014474 0.127374
-0.043137 0.014624 0.128650
-0.043434 0.014935 0.131342
-0.043492 0.015171 0.133375
-0.043259 0.015311 0.134563
-0.042975 0.015437 0.135623
-0.042811 0.015611 0.137099
-0.042941 0.015899 0.139578
-0.043320 0.016290 0.142951
-0.043286 0.016534 0.145044
-0.043210 0.016771 0.147062
-0.043281 0.017074 0.149654
-0.043432 0.017418 0.152612
-0.043696 0.017821 0.156073
-0.043888 0.018207 0.159387
-0.044019 0.018581 0.162593
-0.044076 0.018937 0.165633
-0.043947 0.019224 0.168069
-0.043613 0.019431 0.169802
-0.043333 0.019669 0.171809
-0.043185 0.019979 0.174431
-0.043050 0.020306 0.177207
-0.043114 0.020742 0.180929
-0.043414 0.021312 0.185815
-0.043371 0.021733 0.189406
-0.043091 0.022051 0.192089
-0.042822 0.022389 0.194941
-0.042717 0.022830 0.198685
-0.042524 0.023242 0.202178
-0.042237 0.023620 0.205379
-0.041742 0.023899 0.207701
-0.041077 0.024090 0.209271
-0.040602 0.024406 0.211915
-0.042257 0.026051 0.226097
-0.041229 0.026084 0.226284
-0.041124 0.026719 0.231695
-0.040637 0.027134 0.235190
-0.040661 0.027924 0.241932
-0.040368 0.028536 0.247131
-0.040184 0.029265 0.253333
-0.039810 0.029896 0.258694
-0.038919 0.030168 0.260936
-0.038482 0.030821 0.266478
-0.038018 0.031496 0.272206
-0.036209 0.031066 0.268383
-0.034874 0.031026 0.267939
-0.034562 0.031927 0.275618
-0.033267 0.031957 0.275774
-0.029784 0.029799 0.257066
-0.028506 0.029757 0.256611
-0.027284 0.029772 0.256656
-0.026073 0.029800 0.256820
-0.024857 0.029825 0.256954
-0.023622 0.029830 0.256914
-0.022392 0.029841 0.256942
-0.021149 0.029836 0.256823
-0.019862 0.029765 0.256140
-0.018786 0.030020 0.258272
-0.017925 0.030681 0.263893
-0.016618 0.030620 0.263314
-0.015247 0.030423 0.261562
-0.013969 0.030392 0.261237
0.001176 0.030210 0.259316
0.002443 0.030346 0.260475
0.003937 0.032259 0.276892
0.005278 0.032256 0.276870
0.006146 0.029954 0.257115
0.007395 0.029970 0.257262
0.008663 0.030046 0.257928
0.009884 0.029961 0.257211
0.011147 0.030007 0.257631
0.012403 0.030028 0.257826
0.013669 0.030068 0.258197
0.014962 0.030153 0.258964
0.016213 0.030148 0.258954
0.017539 0.030273 0.260061
0.018841 0.030342 0.260694
0.020264 0.030586 0.262831
0.021538 0.030588 0.262900
0.025191 0.030390 0.261358
0.025904 0.029757 0.255969
0.027102 0.029714 0.255657
0.028334 0.029709 0.255682
0.029585 0.029724 0.255876
0.030818 0.029721 0.255912
0.032035 0.029703 0.255830
0.033287 0.029717 0.256029
0.034571 0.029758 0.256454
0.035878 0.029815 0.257020
0.037096 0.029796 0.256942
0.038404 0.029849 0.257482
0.041385 0.031159 0.268863
0.042638 0.031126 0.268671
0.043842 0.031061 0.268201
0.044998 0.030967 0.267483
0.046145 0.030872 0.266754
0.047434 0.030874 0.266871
0.048277 0.030594 0.264541
0.049412 0.030508 0.263894
0.050772 0.030562 0.264458
0.051973 0.030520 0.264192
0.053279 0.030540 0.264466
0.054567 0.030549 0.264646
0.055719 0.030483 0.264175
0.057159 0.030574 0.265067
0.058777 0.030754 0.266728
0.060520 0.030991 0.268884
0.062010 0.031090 0.269849
0.063326 0.031101 0.270042
0.064656 0.031117 0.270287
0.065988 0.031134 0.270533
0.067276 0.031129 0.270598
0.068585 0.031135 0.270747
0.069936 0.031159 0.271055
0.071179 0.031134 0.270943
0.072416 0.031108 0.270811
0.073701 0.031103 0.270867
0.074938 0.031078 0.270746
0.076210 0.031069 0.270758
0.077511 0.031071 0.270871
0.078862 0.031093 0.271150
0.080174 0.031099 0.271291
0.081412 0.031077 0.271183
0.082866 0.031136 0.271783
0.084252 0.031168 0.272149
0.085477 0.031141 0.271988
0.086655 0.031098 0.271687
0.088055 0.031134 0.272078
0.089396 0.031148 0.272274
0.096916 0.033285 0.291021
0.098144 0.033230 0.290615
0.099223 0.033128 0.289780
0.100427 0.033069 0.289327
0.101891 0.033096 0.289620
0.103188 0.033069 0.289435
0.104486 0.033043 0.289254
0.106111 0.033120 0.289969
0.107536 0.033133 0.290120
0.108750 0.033081 0.289702
0.110145 0.033085 0.289766
0.111539 0.033089 0.289819
0.112897 0.033082 0.289775
0.114263 0.033077 0.289745
0.115508 0.033038 0.289408
0.116853 0.033028 0.289318
0.118339 0.033058 0.289572
0.119876 0.033101 0.289933
0.121372 0.033132 0.290181
0.122695 0.033115 0.290006
0.124038 0.033104 0.289873
0.125294 0.033071 0.289535
0.126712 0.033080 0.289565
0.128075 0.033075 0.289459
0.129657 0.033126 0.289836
0.131526 0.033248 0.290828
0.133009 0.033271 0.290943
0.134193 0.033220 0.290399
0.135674 0.033242 0.290489
0.137044 0.033237 0.290331
0.138455 0.033242 0.290248
0.140047 0.033290 0.290530
0.141252 0.033246 0.289996
0.142951 0.033317 0.290463
0.144731 0.033407 0.291069
0.146119 0.033404 0.290866
0.147742 0.033455 0.291114
0.149396 0.033512 0.291400
0.151093 0.033577 0.291745
0.152284 0.033530 0.291098
-0.041688 0.011747 0.099524
-0.041458 0.011815 0.100099
-0.043444 0.012523 0.106096
-0.042920 0.012516 0.106027
-0.043018 0.012692 0.107510
-0.042717 0.012753 0.108016
-0.042359 0.012798 0.108388
-0.042164 0.012894 0.109189
-0.042004 0.013003 0.110099
-0.042177 0.013220 0.111914
-0.042481 0.013484 0.114126
-0.042612 0.013698 0.115919
-0.042319 0.013780 0.116590
-0.042531 0.014032 0.118687
-0.042507 0.014210 0.120168
-0.042594 0.014432 0.122009
-0.042825 0.014708 0.124313
-0.042784 0.014898 0.125881
-0.043132 0.015230 0.128649
-0.043473 0.015569 0.131474
-0.043560 0.015827 0.133601
-0.043352 0.015982 0.134870
-0.042825 0.016023 0.135169
-0.042820 0.016264 0.137148
-0.042913 0.016549 0.139506
-0.043183 0.016913 0.142519
-0.043465 0.017293 0.145668
-0.043306 0.017508 0.147414
-0.043184 0.017744 0.149344
-0.043482 0.018164 0.152814
-0.043787 0.018600 0.156422
-0.043880 0.018961 0.159386
-0.043996 0.019343 0.162535
-0.044037 0.019707 0.165518
-0.043788 0.019951 0.167494
-0.043817 0.020333 0.170629
-0.043501 0.020567 0.172511
-0.043245 0.020838 0.174712
-0.043103 0.021176 0.177464
-0.042956 0.021525 0.180309
-0.043383 0.022182 0.185726
-0.043548 0.022730 0.190223
-0.043399 0.023132 0.193506
-0.042980 0.023406 0.195709
-0.042763 0.023805 0.198949
-0.042526 0.024209 0.202240
-0.042179 0.024569 0.205151
-0.041679 0.024855 0.207444
-0.041126 0.025122 0.209578
-0.040564 0.025397 0.211777
-0.040184 0.025803 0.215065
-0.041201 0.027150 0.226198
-0.040958 0.027718 0.230823
-0.040804 0.028379 0.236230
-0.040628 0.029062 0.241808
-0.040615 0.029905 0.248720
-0.040380 0.030631 0.254650
-0.039909 0.031217 0.259419
-0.038994 0.031483 0.261523
-0.038366 0.032006 0.265759
-0.037930 0.032730 0.271664
-0.036151 0.032306 0.268046
-0.034719 0.032172 0.266831
-0.034484 0.033180 0.275092
-0.033192 0.033211 0.275247
-0.029778 0.031033 0.257108
-0.028505 0.030994 0.256697
-0.027255 0.030977 0.256472
-0.026051 0.031014 0.256698
-0.024842 0.031048 0.256901
-0.023603 0.031046 0.256807
-0.022381 0.031069 0.256919
-0.021110 0.031020 0.256450
-0.019939 0.031124 0.257238
-0.018843 0.031365 0.259167
-0.017910 0.031932 0.263790
-0.016790 0.032226 0.266156
-0.015320 0.031841 0.262918
-0.014056 0.031856 0.262987
0.001177 0.031437 0.259171
0.002431 0.031433 0.259138
0.005274 0.033566 0.276714
0.006164 0.031284 0.257912
0.007402 0.031236 0.257524
0.008665 0.031298 0.258041
0.009884 0.031202 0.257270
0.011143 0.031241 0.257610
0.012412 0.031295 0.258081
0.013658 0.031287 0.258041
0.014929 0.031333 0.258449
0.016200 0.031373 0.258805
0.017449 0.031367 0.258799
0.018757 0.031459 0.259597
0.020086 0.031575 0.260592
0.021647 0.032019 0.264303
0.025183 0.031642 0.261353
0.025904 0.030992 0.256041
0.027079 0.030921 0.255514
0.028375 0.030988 0.256124
0.029613 0.030988 0.256191
0.030800 0.030936 0.255831
0.032079 0.030978 0.256250
0.033325 0.030986 0.256386
0.034623 0.031040 0.256906
0.035851 0.031030 0.256899
0.037062 0.031006 0.256778
0.038799 0.031408 0.260196
0.041185 0.032295 0.267626
0.042431 0.032261 0.267436
0.043590 0.032165 0.266730
0.044353 0.031791 0.263714
0.045269 0.031544 0.261754
0.046154 0.031289 0.259731
0.047221 0.031167 0.258814
0.048451 0.031157 0.258822
0.049359 0.030945 0.257157
0.050842 0.031096 0.258502
0.052401 0.031284 0.260167
0.053550 0.031224 0.259766
0.055053 0.031369 0.261070
0.056685 0.031580 0.262921
0.058461 0.031859 0.265348
0.060229 0.032123 0.267643
0.061811 0.032278 0.269039
0.063312 0.032385 0.270033
0.064599 0.032381 0.270097
0.065928 0.032397 0.270336
0.067209 0.032390 0.270377
0.068492 0.032384 0.270424
0.069770 0.032376 0.270455
0.071061 0.032374 0.270537
0.072340 0.032366 0.270571
0.073591 0.032347 0.270504
0.074913 0.032359 0.270698
0.076155 0.032336 0.270600
0.077441 0.032333 0.270663
0.078796 0.032358 0.270960
0.080118 0.032368 0.271135
0.081503 0.032404 0.271519
0.082941 0.032459 0.272063
0.084362 0.032506 0.272535
0.085765 0.032544 0.272933
0.086951 0.032500 0.272641
0.088313 0.032522 0.272900
0.089692 0.032550 0.273201
0.096540 0.034533 0.289916
0.098548 0.034753 0.291832
0.099341 0.034545 0.290145
0.100621 0.034509 0.289903
0.102088 0.034538 0.290199
0.103341 0.034494 0.289882
0.104737 0.034499 0.289965
0.106163 0.034513 0.290124
0.107492 0.034496 0.290013
0.108819 0.034478 0.289897
0.110274 0.034501 0.290113
0.111751 0.034530 0.290378
0.113287 0.034576 0.290780
0.114671 0.034575 0.290782
0.116037 0.034569 0.290733
0.117394 0.034560 0.290657
0.118606 0.034510 0.290221
0.119935 0.034494 0.290069
0.121256 0.034476 0.289896
0.122756 0.034509 0.290142
0.124038 0.034481 0.289863
0.125883 0.034607 0.290883
0.126999 0.034533 0.290204
0.128341 0.034521 0.290043
0.129749 0.034527 0.290021
0.131650 0.034663 0.291081
0.132906 0.034628 0.290695
0.134468 0.034672 0.290968
0.135684 0.034627 0.290482
0.136999 0.034608 0.290206
0.138711 0.034688 0.290753
0.139698 0.034588 0.289770
0.141406 0.034666 0.290275
0.143248 0.034775 0.291028
0.144565 0.034755 0.290692
0.146349 0.034848 0.291280
0.148005 0.034908 0.291585
0.149229 0.034866 0.291024
0.150686 0.034879 0.290906
0.152260 0.034918 0.290997
-0.040820 0.012098 0.098558
-0.043423 0.013017 0.106045
-0.043299 0.013130 0.106964
-0.042837 0.013143 0.107060
-0.042802 0.013288 0.108236
-0.042557 0.013371 0.108901
-0.042238 0.013433 0.109387
-0.042180 0.013579 0.110568
-0.042219 0.013762 0.112033
-0.042287 0.013958 0.113612
-0.042270 0.014131 0.114997
-0.042100 0.014257 0.115996
-0.041767 0.014330 0.116564
-0.041712 0.014501 0.117930
-0.041916 0.014769 0.120077
-0.042112 0.015041 0.122254
-0.042671 0.015452 0.125561
-0.043163 0.015850 0.128757
-0.043575 0.016229 0.131798
-0.043613 0.016478 0.133779
-0.043287 0.016595 0.134684
-0.043086 0.016764 0.136011
-0.042825 0.016915 0.137182
-0.042935 0.017219 0.139596
-0.043244 0.017613 0.142740
-0.043475 0.017988 0.145724
-0.043453 0.018268 0.147938
-0.043256 0.018483 0.149616
-0.043289 0.018805 0.152162
-0.043354 0.019152 0.154904
-0.043843 0.019701 0.159282
-0.043917 0.020080 0.162277
-0.043919 0.020439 0.165105
-0.043988 0.020842 0.168294
-0.043785 0.021130 0.170539
-0.043549 0.021411 0.172738
-0.043345 0.021720 0.175154
-0.043119 0.022030 0.177572
-0.043090 0.022455 0.180914
-0.043140 0.022938 0.184729
-0.043364 0.023537 0.189463
-0.043231 0.023963 0.192807
-0.042858 0.024271 0.195200
-0.042454 0.024576 0.197563
-0.042446 0.025129 0.201913
-0.042031 0.025460 0.204485
-0.041580 0.025786 0.207007
-0.041031 0.026064 0.209151
-0.040598 0.026433 0.212014
-0.042643 0.028475 0.228291
-0.041604 0.028511 0.228478
-0.041198 0.028994 0.232248
-0.040746 0.029470 0.235962
-0.040444 0.030086 0.240791
-0.041627 0.031874 0.255000
-0.040452 0.031911 0.255184
-0.040065 0.032591 0.260520
-0.039178 0.032895 0.262843
-0.038538 0.033433 0.267040
-0.037972 0.034075 0.272062
-0.036145 0.033591 0.268090
-0.034666 0.033406 0.266519
-0.034518 0.034539 0.275459
-0.033224 0.034571 0.275615
-0.029703 0.032191 0.256551
-0.028486 0.032210 0.256616
-0.027273 0.032236 0.256737
-0.026016 0.032209 0.256447
-0.024826 0.032268 0.256834
-0.023599 0.032282 0.256868
-0.022366 0.032288 0.256842
-0.021160 0.032337 0.257163
-0.019921 0.032338 0.257104
-0.018830 0.032596 0.259091
-0.017990 0.033357 0.265077
-0.016792 0.033519 0.266303
-0.015393 0.033273 0.264291
-0.014652 0.034534 0.274255
-0.013333 0.034549 0.274321
-0.011948 0.034375 0.272891
-0.010633 0.034387 0.272944
0.006148 0.032440 0.257275
0.007381 0.032388 0.256865
0.008645 0.032465 0.257488
0.009864 0.032377 0.256808
0.011123 0.032424 0.257196
0.012387 0.032474 0.257616
0.013640 0.032490 0.257771
0.014880 0.032474 0.257674
0.016158 0.032537 0.258202
0.017417 0.032555 0.258383
0.018661 0.032546 0.258349
0.020243 0.033088 0.262695
0.021551 0.033147 0.263208
0.025199 0.032923 0.261583
0.026098 0.032469 0.258032
0.027299 0.032414 0.257656
0.028559 0.032431 0.257851
0.029696 0.032313 0.256976
0.030942 0.032318 0.257087
0.032217 0.032351 0.257422
0.033483 0.032374 0.257673
0.034716 0.032364 0.257666
0.036092 0.032483 0.258691
0.037470 0.032596 0.259674
0.038893 0.032740 0.260897
0.040760 0.033236 0.264933
0.041897 0.033125 0.264138
0.043626 0.033475 0.267013
0.044152 0.032908 0.262579
0.045041 0.032636 0.260499
0.046325 0.032657 0.260758
0.047199 0.032394 0.258754
0.048273 0.032280 0.257935
0.049526 0.032288 0.258087
0.050919 0.032384 0.258953
0.052383 0.032520 0.260136
0.053750 0.032591 0.260795
0.055362 0.032803 0.262593
0.056691 0.032843 0.263005
0.058321 0.033051 0.264769
0.060524 0.033567 0.269008
0.061922 0.033625 0.269573
0.063125 0.033578 0.269290
0.064576 0.033660 0.270055
0.065860 0.033655 0.270109
0.067179 0.033667 0.270306
0.068458 0.033659 0.270338
0.069797 0.033680 0.270607
0.071024 0.033647 0.270438
0.072267 0.033623 0.270340
0.073590 0.033637 0.270541
0.074870 0.033630 0.270581
0.076119 0.033610 0.270512
0.077414 0.033610 0.270604
0.078803 0.033651 0.271021
0.080140 0.033669 0.271247
0.081483 0.033688 0.271485
0.083011 0.033782 0.272322
0.084445 0.033836 0.272834
0.085743 0.033833 0.272893
0.087208 0.033897 0.273475
0.088561 0.033915 0.273694
0.089799 0.033889 0.273552
0.093041 0.034609 0.279434
0.097958 0.035924 0.290110
0.099289 0.035905 0.290015
0.100419 0.035814 0.289342
0.101843 0.035830 0.289520
0.103318 0.035863 0.289834
0.104300 0.035726 0.288770
0.105645 0.035715 0.288720
0.107599 0.035907 0.290312
0.109025 0.035921 0.290452
0.110340 0.035899 0.290293
0.111584 0.035854 0.289948
0.113087 0.035892 0.290269
0.114535 0.035912 0.290439
0.116010 0.035940 0.290665
0.117362 0.035930 0.290576
0.118576 0.035878 0.290144
0.119857 0.035847 0.289874
0.121305 0.035866 0.290005
0.122702 0.035870 0.290002
0.124124 0.035881 0.290052
0.125932 0.036002 0.290981
0.127236 0.035978 0.290729
0.128937 0.036066 0.291371
0.130391 0.036083 0.291437
0.131527 0.036013 0.290785
0.132896 0.036007 0.290649
0.134549 0.036077 0.291117
0.135835 0.036049 0.290776
0.137265 0.036059 0.290737
0.138833 0.036105 0.290975
0.139944 0.036032 0.290245
0.141316 0.036027 0.290053
0.143192 0.036149 0.290873
0.144695 0.036175 0.290911
0.146099 0.036177 0.290736
0.147585 0.036198 0.290708
0.149346 0.036286 0.291200
0.151097 0.036370 0.291646
0.152587 0.036390 0.291564
-0.044022 0.013548 0.106290
-0.043594 0.013570 0.106464
-0.043210 0.013607 0.106746
-0.043080 0.013725 0.107670
-0.042653 0.013750 0.107861
-0.042234 0.013779 0.108077
-0.042126 0.013911 0.109101
-0.041950 0.014024 0.109969
-0.042133 0.014261 0.111811
-0.042335 0.014510 0.113747
-0.042822 0.014865 0.116507
-0.042566 0.014968 0.117289
-0.043469 0.015486 0.121322
-0.042969 0.015512 0.121497
-0.042687 0.015618 0.122298
-0.042140 0.015629 0.122348
-0.042443 0.015959 0.124902
-0.042921 0.016366 0.128049
-0.043393 0.016782 0.131264
-0.043447 0.017046 0.133286
-0.043175 0.017188 0.134352
-0.042720 0.017260 0.134872
-0.042502 0.017432 0.136166
-0.042465 0.017684 0.138090
-0.042830 0.018114 0.141398
-0.043206 0.018563 0.144843
-0.043055 0.018796 0.146605
-0.042974 0.019067 0.148667
-0.042994 0.019394 0.151152
-0.043158 0.019797 0.154232
-0.043384 0.020243 0.157645
-0.043614 0.020707 0.161188
-0.043836 0.021183 0.164828
-0.044010 0.021653 0.168413
-0.043842 0.021969 0.170798
-0.043638 0.022279 0.173131
-0.043304 0.022533 0.175025
-0.043161 0.022898 0.177786
-0.043092 0.023318 0.180963
-0.043436 0.023983 0.186043
-0.043446 0.024487 0.189869
-0.043186 0.024857 0.192655
-0.042816 0.025179 0.195063
-0.042424 0.025502 0.197475
-0.042236 0.025965 0.200969
-0.042035 0.026441 0.204562
-0.041724 0.026868 0.207780
-0.041421 0.027323 0.211199
-0.041185 0.027845 0.215143
-0.041424 0.028723 0.221832
-0.041453 0.029497 0.227714
-0.041019 0.029976 0.231311
-0.040595 0.030488 0.235161
-0.040144 0.031009 0.239080
-0.040135 0.031912 0.245938
-0.040304 0.033015 0.254334
-0.040178 0.033938 0.261340
-0.039378 0.034332 0.264270
-0.038738 0.034898 0.268519
-0.038025 0.035433 0.272532
-0.036171 0.034906 0.268382
-0.034704 0.034727 0.266905
-0.034584 0.035934 0.276084
-0.033287 0.035967 0.276239
-0.029619 0.033333 0.255923
-0.028453 0.033408 0.256414
-0.027222 0.033412 0.256359
-0.026005 0.033432 0.256436
-0.024803 0.033476 0.256692
-0.023576 0.033489 0.256720
-0.022364 0.033526 0.256926
-0.021147 0.033559 0.257114
-0.019914 0.033569 0.257124
-0.018904 0.033982 0.260220
-0.017952 0.034565 0.264623
-0.016750 0.034721 0.265755
-0.015329 0.034409 0.263314
-0.014096 0.034501 0.263966
-0.012791 0.034418 0.263283
-0.011935 0.035659 0.272727
-0.010188 0.034215 0.261643
-0.008912 0.034171 0.261269
-0.007580 0.033858 0.258838
-0.006324 0.033831 0.258600
-0.005102 0.034018 0.260006
-0.003855 0.034101 0.260614
-0.002610 0.034303 0.262132
-0.001340 0.034222 0.261498
-0.000077 0.034737 0.265417
0.006152 0.033696 0.257454
0.007352 0.033489 0.255877
0.008602 0.033537 0.256261
0.009852 0.033572 0.256542
0.011090 0.033564 0.256501
0.012344 0.033599 0.256785
0.013610 0.033659 0.257272
0.014874 0.033704 0.257643
0.016113 0.033688 0.257552
0.017393 0.033756 0.258107
0.018598 0.033677 0.257537
0.019894 0.033763 0.258243
0.021581 0.034464 0.263649
0.022944 0.034598 0.264717
0.035469 0.034333 0.263326
0.036708 0.034304 0.263182
0.038791 0.035039 0.268898
0.040049 0.035004 0.268718
0.041265 0.034937 0.268286
0.042151 0.034604 0.265810
0.042878 0.034162 0.262504
0.044023 0.034070 0.261884
0.044860 0.033750 0.259515
0.045825 0.033542 0.258005
0.047319 0.033722 0.259476
0.048201 0.033468 0.257610
0.049308 0.033378 0.257011
0.050587 0.033407 0.257326
0.051946 0.033485 0.258023
0.053270 0.033538 0.258525
0.054231 0.033366 0.257287
0.056235 0.033828 0.260946
0.058456 0.034397 0.265436
0.060299 0.034725 0.268064
0.061643 0.034757 0.268412
0.062955 0.034771 0.268615
0.064398 0.034855 0.269363
0.065740 0.034882 0.269667
0.067034 0.034882 0.269770
0.068382 0.034911 0.270087
0.069666 0.034906 0.270147
0.070990 0.034921 0.270356
0.072318 0.034938 0.270578
0.073511 0.034889 0.270295
0.074669 0.034826 0.269896
0.075893 0.034795 0.269747
0.077215 0.034810 0.269947
0.078487 0.034802 0.269970
0.079989 0.034894 0.270769
0.081586 0.035025 0.271863
0.082971 0.035061 0.272225
0.084619 0.035205 0.273425
0.086107 0.035281 0.274083
0.087391 0.035271 0.274079
0.088901 0.035351 0.274771
0.090264 0.035371 0.274994
0.094295 0.036422 0.283224
0.099145 0.037754 0.293647
0.099530 0.037372 0.290740
0.100667 0.037280 0.290077
0.102355 0.037391 0.290994
