ply
format ascii 1.0
element vertex 1745
property float x
property float y
property float z
end_header
-0.057023 0.005509 0.282816
-0.054977 0.005441 0.279160
-0.053590 0.005436 0.278761
-0.052366 0.005448 0.279220
-0.051066 0.005452 0.279297
-0.049773 0.005458 0.279429
-0.048566 0.005473 0.280070
-0.047293 0.005482 0.280367
-0.045918 0.005479 0.280063
-0.044645 0.005488 0.280395
-0.043393 0.005500 0.280896
-0.043198 0.005652 0.288497
-0.041646 0.005630 0.287244
-0.039875 0.005576 0.284358
-0.038733 0.005609 0.285925
-0.036140 0.005427 0.276518
-0.035263 0.005498 0.280032
-0.034035 0.005518 0.280942
-0.030124 0.005087 0.258884
-0.028879 0.005088 0.258840
-0.027683 0.005098 0.259254
-0.026421 0.005097 0.259085
-0.025147 0.005093 0.258779
-0.023956 0.005106 0.259354
-0.022678 0.005101 0.259012
-0.021449 0.005107 0.259238
-0.020218 0.005113 0.259481
-0.019106 0.005152 0.261394
-0.017819 0.005147 0.261030
-0.017094 0.005315 0.269484
-0.013304 0.005368 0.271992
-0.011418 0.005115 0.259100
-0.010106 0.005087 0.257668
-0.008882 0.005103 0.258414
-0.007608 0.005090 0.257731
-0.006363 0.005096 0.257981
-0.005119 0.005106 0.258470
-0.003875 0.005121 0.259222
-0.002621 0.005134 0.259819
-0.001361 0.005144 0.260344
-0.000096 0.005146 0.260400
0.001174 0.005160 0.261125
0.002467 0.005211 0.263689
0.003934 0.005467 0.276636
0.005279 0.005466 0.276613
0.006595 0.005443 0.275438
0.007908 0.005424 0.274504
0.009239 0.005422 0.274401
0.010514 0.005392 0.272899
0.011838 0.005390 0.272844
0.015363 0.005235 0.265070
0.016644 0.005232 0.264993
0.017911 0.005226 0.264723
0.019300 0.005254 0.266178
0.020582 0.005251 0.266081
0.021871 0.005250 0.266086
0.024899 0.005076 0.257474
0.025990 0.005045 0.255971
0.027246 0.005048 0.256163
0.028434 0.005038 0.255731
0.029660 0.005035 0.255677
0.030899 0.005035 0.255744
0.032108 0.005030 0.255572
0.033354 0.005031 0.255702
0.034590 0.005030 0.255763
0.035772 0.005022 0.255438
0.037017 0.005023 0.255581
0.038921 0.005110 0.260122
0.041031 0.005218 0.265730
0.042411 0.005229 0.266419
0.043850 0.005247 0.267434
0.045124 0.005245 0.267422
0.046450 0.005248 0.267718
0.047698 0.005243 0.267564
0.048938 0.005237 0.267384
0.050058 0.005219 0.266583
0.051382 0.005223 0.266886
0.052744 0.005230 0.267371
0.053713 0.005199 0.265896
0.054877 0.005187 0.265434
0.056076 0.005180 0.265167
0.057071 0.005154 0.263973
0.058391 0.005158 0.264307
0.060981 0.005272 0.270259
0.062516 0.005291 0.271390
0.063826 0.005291 0.271525
0.064945 0.005276 0.270866
0.066296 0.005280 0.271180
0.067552 0.005276 0.271107
0.068842 0.005275 0.271174
0.070048 0.005267 0.270917
0.071214 0.005257 0.270519
0.072781 0.005276 0.271637
0.073953 0.005267 0.271269
0.074913 0.005243 0.270151
0.076326 0.005250 0.270677
0.077430 0.005237 0.270112
0.078687 0.005234 0.270088
0.080333 0.005257 0.271384
0.081455 0.005246 0.270899
0.082994 0.005261 0.271791
0.084210 0.005255 0.271619
0.085381 0.005247 0.271307
0.087261 0.005282 0.273223
0.088271 0.005264 0.272400
0.089420 0.005255 0.272025
0.097814 0.005665 0.293386
0.099046 0.005655 0.292973
0.099744 0.005616 0.291010
0.101018 0.005609 0.290758
0.102561 0.005617 0.291273
0.103567 0.005596 0.290267
0.105270 0.005613 0.291214
0.106833 0.005621 0.291749
0.108174 0.005618 0.291668
0.109396 0.005609 0.291272
0.110566 0.005598 0.290741
0.111976 0.005599 0.290845
0.113412 0.005601 0.291008
0.114644 0.005593 0.290644
0.115902 0.005586 0.290347
0.117347 0.005589 0.290515
0.118650 0.005585 0.290326
0.120233 0.005594 0.290812
0.121575 0.005591 0.290703
0.122899 0.005588 0.290549
0.124265 0.005587 0.290488
0.125611 0.005585 0.290372
0.126916 0.005581 0.290158
0.128114 0.005572 0.289698
0.129726 0.005582 0.290163
0.131144 0.005583 0.290182
0.132352 0.005575 0.289728
0.134277 0.005597 0.290828
0.135519 0.005590 0.290429
0.136970 0.005592 0.290470
0.138398 0.005593 0.290450
0.139853 0.005596 0.290475
0.141524 0.005606 0.290929
0.142626 0.005594 0.290204
0.144338 0.005606 0.290705
0.145925 0.005613 0.290936
0.147486 0.005619 0.291094
0.149278 0.005634 0.291684
0.150208 0.005615 0.290578
0.151527 0.005612 0.290223
-0.145775 0.006575 0.274944
-0.144801 0.006590 0.275744
-0.143902 0.006609 0.276689
-0.142416 0.006601 0.276497
-0.141181 0.006605 0.276780
-0.140113 0.006617 0.277385
-0.138717 0.006613 0.277334
-0.137209 0.006604 0.277042
-0.135908 0.006604 0.277155
-0.134301 0.006590 0.276628
-0.132979 0.006589 0.276670
-0.131856 0.006598 0.277122
-0.130653 0.006604 0.277403
-0.129305 0.006602 0.277368
-0.127911 0.006598 0.277223
-0.126632 0.006599 0.277318
-0.125513 0.006609 0.277762
-0.124205 0.006610 0.277782
-0.123090 0.006620 0.278232
-0.121989 0.006632 0.278715
-0.121159 0.006658 0.279826
-0.120412 0.006690 0.281151
-0.119473 0.006712 0.282043
-0.118383 0.006726 0.282589
-0.117221 0.006736 0.282967
-0.116220 0.006755 0.283741
-0.115046 0.006765 0.284100
-0.114012 0.006783 0.284812
-0.112918 0.006798 0.285387
-0.111740 0.006808 0.285753
-0.110616 0.006822 0.286266
-0.109656 0.006847 0.287215
-0.108659 0.006869 0.288088
-0.107645 0.006891 0.288932
-0.106392 0.006899 0.289145
-0.105313 0.006918 0.289839
-0.104275 0.006940 0.290665
-0.103226 0.006962 0.291479
-0.102068 0.006977 0.292000
-0.100799 0.006984 0.292211
-0.099517 0.006991 0.292390
-0.098463 0.007015 0.293252
-0.097270 0.007029 0.293717
-0.096210 0.007053 0.294602
-0.095307 0.007090 0.296001
-0.094072 0.007102 0.296395
-0.079386 0.006924 0.287668
-0.078150 0.006935 0.288006
-0.075931 0.006859 0.284671
-0.074345 0.006838 0.283643
-0.073065 0.006844 0.283765
-0.071979 0.006870 0.284667
-0.070693 0.006877 0.284800
-0.069400 0.006883 0.284916
-0.066400 0.006717 0.277897
-0.064744 0.006683 0.276341
-0.065940 0.006948 0.287148
-0.064667 0.006959 0.287437
-0.061256 0.006735 0.278036
-0.059186 0.006652 0.274455
-0.057943 0.006660 0.274641
-0.056872 0.006689 0.275679
-0.055566 0.006691 0.275605
-0.054345 0.006703 0.275968
-0.053127 0.006716 0.276373
-0.051913 0.006731 0.276825
-0.050681 0.006744 0.277211
-0.049523 0.006767 0.278040
-0.048203 0.006769 0.277991
-0.046745 0.006752 0.277133
-0.045541 0.006771 0.277783
-0.044292 0.006784 0.278197
-0.042794 0.006759 0.277037
-0.042475 0.006925 0.283688
-0.041564 0.007002 0.286703
-0.039790 0.006933 0.283776
-0.038175 0.006889 0.281827
-0.035941 0.006725 0.275012
-0.035310 0.006861 0.280431
-0.034154 0.006901 0.281952
-0.030248 0.006365 0.259970
-0.028963 0.006359 0.259608
-0.027702 0.006357 0.259452
-0.026398 0.006346 0.258874
-0.025165 0.006351 0.258982
-0.023956 0.006362 0.259374
-0.022649 0.006348 0.258701
-0.021417 0.006354 0.258869
-0.020180 0.006360 0.259017
-0.019012 0.006389 0.260128
-0.017960 0.006464 0.263120
-0.017064 0.006611 0.269038
-0.015292 0.006415 0.261011
-0.014737 0.006740 0.274167
-0.013412 0.006743 0.274235
-0.011371 0.006347 0.258057
-0.010081 0.006324 0.257065
-0.008873 0.006352 0.258196
-0.007605 0.006341 0.257674
-0.006372 0.006360 0.258412
-0.005136 0.006383 0.259318
-0.003887 0.006402 0.260064
-0.002638 0.006439 0.261554
-0.001369 0.006446 0.261809
-0.000097 0.006511 0.264465
0.001197 0.006558 0.266364
0.002491 0.006555 0.266238
0.003826 0.006626 0.269087
0.005158 0.006655 0.270291
0.006594 0.006781 0.275409
0.007906 0.006758 0.274474
0.008860 0.006479 0.263177
0.010001 0.006390 0.259585
0.011306 0.006414 0.260591
0.012540 0.006398 0.259940
0.013762 0.006378 0.259177
0.015047 0.006389 0.259634
0.016253 0.006367 0.258780
0.017522 0.006371 0.258988
0.018879 0.006404 0.260386
0.020494 0.006515 0.264962
0.021743 0.006503 0.264544
0.024840 0.006310 0.256872
0.026005 0.006290 0.256131
0.027263 0.006294 0.256332
0.028489 0.006289 0.256240
0.029716 0.006286 0.256178
0.030934 0.006281 0.256048
0.032197 0.006285 0.256296
0.033425 0.006282 0.256262
0.034648 0.006278 0.256211
0.035835 0.006269 0.255908
0.037066 0.006267 0.255937
0.038920 0.006368 0.260135
0.040826 0.006470 0.264418
0.042393 0.006514 0.266317
0.043393 0.006471 0.264662
0.044653 0.006468 0.264642
0.046012 0.006479 0.265207
0.047050 0.006445 0.263943
0.048125 0.006418 0.262956
0.049367 0.006414 0.262913
0.050779 0.006432 0.263764
0.052193 0.006449 0.264588
0.053285 0.006427 0.263787
0.054558 0.006427 0.263904
0.055805 0.006424 0.263900
0.057201 0.006438 0.264587
0.059330 0.006531 0.268567
0.061177 0.006591 0.271137
0.062539 0.006597 0.271504
0.063778 0.006590 0.271333
0.065050 0.006586 0.271314
0.066337 0.006584 0.271360
0.067601 0.006580 0.271314
0.068863 0.006576 0.271266
0.070018 0.006562 0.270812
0.071302 0.006560 0.270863
0.072543 0.006554 0.270759
0.073981 0.006567 0.271380
0.074994 0.006541 0.270449
0.076203 0.006533 0.270248
0.077772 0.006556 0.271312
0.078780 0.006532 0.270419
0.080336 0.006553 0.271403
0.081928 0.006576 0.272479
0.083091 0.006565 0.272116
0.084716 0.006590 0.273258
0.086118 0.006597 0.273658
0.087726 0.006619 0.274688
0.089551 0.006657 0.276358
0.094044 0.006889 0.286097
0.095249 0.006877 0.285699
0.098531 0.007013 0.291455
0.099493 0.006983 0.290285
0.100861 0.006981 0.290312
0.102077 0.006969 0.289904
0.104523 0.006947 0.289152
0.105739 0.006936 0.288765
0.107285 0.006947 0.289276
0.109721 0.007014 0.292140
0.111063 0.007010 0.292053
0.112249 0.006997 0.291556
0.113425 0.006984 0.291043
0.114658 0.006974 0.290680
0.115919 0.006966 0.290392
0.117186 0.006959 0.290119
0.118544 0.006957 0.290068
0.119908 0.006955 0.290028
0.121067 0.006942 0.289491
0.123027 0.006975 0.290852
0.124411 0.006974 0.290828
0.125899 0.006979 0.291037
0.126886 0.006957 0.290088
0.128695 0.006979 0.291010
0.130025 0.006976 0.290832
0.131249 0.006967 0.290412
0.132689 0.006969 0.290465
0.134193 0.006975 0.290642
0.135908 0.006991 0.291260
0.137315 0.006992 0.291199
0.138531 0.006982 0.290725
0.140462 0.007009 0.291735
0.142011 0.007016 0.291926
0.143094 0.007000 0.291150
0.144368 0.006994 0.290761
0.145914 0.007000 0.290908
0.147478 0.007008 0.291072
0.148919 0.007009 0.290974
0.150284 0.007007 0.290717
0.152250 0.007033 0.291598
-0.145790 0.007880 0.274963
-0.144354 0.007873 0.274885
-0.142800 0.007859 0.274562
-0.141471 0.007858 0.274656
-0.140043 0.007851 0.274542
-0.138362 0.007829 0.273913
-0.137085 0.007830 0.274065
-0.135775 0.007830 0.274142
-0.134008 0.007802 0.273276
-0.132988 0.007818 0.273919
-0.131594 0.007812 0.273786
-0.130356 0.007816 0.273967
-0.129051 0.007815 0.273999
-0.127612 0.007806 0.273734
-0.126497 0.007817 0.274156
-0.125226 0.007819 0.274238
-0.124245 0.007838 0.274954
-0.123330 0.007863 0.275824
-0.122386 0.007886 0.276640
-0.121136 0.007889 0.276765
-0.120435 0.007929 0.278154
-0.119346 0.007944 0.278662
-0.118216 0.007956 0.279077
-0.116937 0.007959 0.279137
-0.115976 0.007983 0.279963
-0.115006 0.008008 0.280780
-0.113982 0.008029 0.281476
-0.112850 0.008043 0.281914
-0.112047 0.008081 0.283188
-0.111419 0.008132 0.284938
-0.110592 0.008170 0.286209
-0.109888 0.008219 0.287828
-0.109504 0.008293 0.290333
-0.108630 0.008331 0.291582
-0.107341 0.008337 0.291731
-0.106511 0.008380 0.293144
-0.105512 0.008411 0.294120
-0.104453 0.008438 0.294951
-0.103194 0.008449 0.295229
-0.101937 0.008460 0.295520
-0.101092 0.008507 0.297027
-0.100395 0.008567 0.299014
-0.098929 0.008563 0.298735
-0.098187 0.008622 0.300665
-0.096936 0.008637 0.301071
-0.073879 0.008775 0.303324
-0.072099 0.008735 0.301766
-0.070729 0.008744 0.301906
-0.064517 0.008142 0.280970
-0.063228 0.008149 0.281056
-0.061052 0.008039 0.277127
-0.059064 0.007950 0.273907
-0.057582 0.007926 0.272949
-0.056399 0.007944 0.273403
-0.055190 0.007958 0.273761
-0.053937 0.007967 0.273913
-0.052658 0.007972 0.273951
-0.051440 0.007987 0.274320
-0.050255 0.008008 0.274900
-0.049006 0.008019 0.275159
-0.047771 0.008034 0.275523
-0.046529 0.008048 0.275875
-0.045254 0.008058 0.276055
-0.043971 0.008066 0.276207
-0.043617 0.008250 0.282389
-0.042776 0.008351 0.285721
-0.040954 0.008262 0.282516
-0.039093 0.008157 0.278830
-0.037827 0.008174 0.279282
-0.035754 0.008012 0.273607
-0.035186 0.008187 0.279473
-0.033950 0.008214 0.280293
-0.030318 0.007640 0.260592
-0.028970 0.007616 0.259693
-0.027672 0.007605 0.259197
-0.026420 0.007605 0.259115
-0.025202 0.007616 0.259387
-0.023907 0.007603 0.258866
-0.022657 0.007604 0.258818
-0.021345 0.007583 0.258031
-0.020124 0.007594 0.258319
-0.018923 0.007615 0.258942
-0.017863 0.007699 0.261730
-0.016946 0.007862 0.267216
-0.015659 0.007866 0.267295
-0.013409 0.008073 0.274199
-0.011297 0.007551 0.256407
-0.010012 0.007521 0.255340
-0.008848 0.007585 0.257485
-0.007604 0.007592 0.257679
-0.006380 0.007625 0.258751
-0.005156 0.007673 0.260378
-0.003949 0.007790 0.264289
-0.002694 0.007874 0.267118
-0.001403 0.007913 0.268426
-0.000099 0.007976 0.270569
0.001226 0.008036 0.272594
0.002490 0.007844 0.266079
0.003881 0.008047 0.272937
0.005208 0.008046 0.272914
0.006149 0.007570 0.256795
0.007396 0.007569 0.256762
0.008664 0.007586 0.257353
0.009903 0.007577 0.257049
0.011138 0.007567 0.256742
0.012401 0.007575 0.257059
0.013665 0.007584 0.257371
0.014940 0.007595 0.257804
0.016186 0.007592 0.257727
0.017466 0.007604 0.258178
0.018842 0.007653 0.259893
0.020387 0.007761 0.263596
0.021728 0.007782 0.264375
0.024984 0.007600 0.258387
0.026013 0.007535 0.256229
0.027274 0.007540 0.256462
0.028538 0.007544 0.256703
0.029727 0.007530 0.256291
0.030970 0.007530 0.256368
0.032209 0.007529 0.256410
0.033479 0.007535 0.256701
0.034773 0.007545 0.257147
0.035934 0.007527 0.256631
0.037188 0.007529 0.256792
0.038860 0.007613 0.259750
0.040867 0.007755 0.264697
0.042609 0.007840 0.267694
0.043731 0.007809 0.266741
0.044856 0.007780 0.265866
0.046245 0.007798 0.266565
0.047400 0.007776 0.265926
0.048531 0.007751 0.265193
0.049801 0.007749 0.265241
0.050927 0.007725 0.264553
0.052324 0.007743 0.265271
0.053571 0.007738 0.265219
0.054604 0.007703 0.264144
0.055750 0.007685 0.263654
0.057380 0.007734 0.265430
0.059446 0.007837 0.269109
0.061276 0.007906 0.271591
0.062488 0.007894 0.271297
0.063836 0.007899 0.271594
0.065052 0.007888 0.271336
0.066300 0.007881 0.271221
0.067497 0.007868 0.270910
0.068863 0.007875 0.271278
0.070143 0.007873 0.271308
0.071458 0.007874 0.271468
0.072909 0.007890 0.272135
0.074285 0.007897 0.272507
0.075089 0.007844 0.270804
0.076305 0.007835 0.270623
0.077588 0.007834 0.270681
0.078789 0.007824 0.270458
0.079726 0.007789 0.269352
0.081236 0.007810 0.270189
0.082499 0.007807 0.270187
0.083649 0.007793 0.269826
0.085437 0.007839 0.271501
0.086937 0.007856 0.272224
0.088279 0.007860 0.272441
0.094756 0.008314 0.288271
0.095970 0.008299 0.287869
0.099422 0.008476 0.294098
0.099531 0.008367 0.290403
0.100849 0.008361 0.290285
0.102541 0.008386 0.291229
0.103718 0.008368 0.290701
0.105023 0.008361 0.290539
0.106384 0.008359 0.290532
0.107645 0.008349 0.290253
0.109117 0.008355 0.290536
0.110336 0.008342 0.290143
0.111709 0.008341 0.290157
0.113023 0.008336 0.290014
0.114424 0.008337 0.290089
0.115638 0.008324 0.289690
0.117152 0.008334 0.290037
0.118622 0.008339 0.290260
0.119756 0.008322 0.289661
0.121477 0.008345 0.290470
0.122952 0.008350 0.290675
0.124405 0.008354 0.290814
0.125666 0.008346 0.290498
0.127078 0.008347 0.290526
0.128525 0.008351 0.290623
0.129916 0.008350 0.290584
0.131171 0.008342 0.290237
0.132632 0.008346 0.290337
0.133989 0.008344 0.290197
0.135559 0.008355 0.290508
0.137259 0.008373 0.291075
0.138666 0.008374 0.291003
0.139859 0.008361 0.290477
0.141991 0.008405 0.291879
0.142894 0.008375 0.290737
0.145570 0.008449 0.293175
0.145901 0.008387 0.290875
0.147796 0.008415 0.291691
0.149542 0.008434 0.292184
0.150205 0.008392 0.290556
0.151698 0.008397 0.290531
-0.142638 0.008985 0.269008
-0.141489 0.008993 0.269420
-0.139583 0.008953 0.268369
-0.138210 0.008947 0.268316
-0.137193 0.008963 0.268948
-0.135540 0.008938 0.268319
-0.134217 0.008935 0.268325
-0.132542 0.008907 0.267609
-0.131162 0.008900 0.267466
-0.130212 0.008921 0.268195
-0.128882 0.008917 0.268139
-0.127811 0.008930 0.268614
-0.126717 0.008943 0.269040
-0.125927 0.008977 0.270118
-0.124441 0.008962 0.269699
-0.122827 0.008937 0.268984
-0.122203 0.008984 0.270433
-0.121409 0.009020 0.271527
-0.120551 0.009051 0.272491
-0.119745 0.009088 0.273587
-0.118987 0.009129 0.274810
-0.118180 0.009166 0.275939
-0.117044 0.009179 0.276312
-0.115831 0.009186 0.276499
-0.114775 0.009206 0.277068
-0.113652 0.009221 0.277478
-0.112411 0.009226 0.277599
-0.111305 0.009243 0.278058
-0.110220 0.009262 0.278576
-0.109584 0.009320 0.280249
-0.108633 0.009352 0.281143
-0.108463 0.009452 0.284102
-0.108190 0.009546 0.286855
-0.108316 0.009679 0.290747
-0.106828 0.009668 0.290345
-0.106206 0.009737 0.292312
-0.106102 0.009855 0.295775
-0.104455 0.009832 0.294966
-0.103382 0.009862 0.295777
-0.102776 0.009939 0.297962
-0.102251 0.010025 0.300443
-0.101956 0.010137 0.303676
-0.101088 0.010194 0.305269
-0.099822 0.010212 0.305685
-0.075190 0.010205 0.302957
-0.073864 0.010221 0.303282
-0.072084 0.010174 0.301725
-0.070714 0.010184 0.301864
-0.069390 0.010202 0.302212
-0.067883 0.010192 0.301771
-0.066542 0.010208 0.302069
-0.064275 0.010079 0.298094
-0.062941 0.010093 0.298378
-0.061475 0.010087 0.298036
-0.059897 0.010062 0.297132
-0.058356 0.010042 0.296381
-0.056579 0.009979 0.294375
-0.055044 0.009956 0.293568
-0.053708 0.009970 0.293815
-0.046503 0.009646 0.283698
-0.045193 0.009657 0.283909
-0.043079 0.009492 0.278928
-0.041534 0.009446 0.277450
-0.040358 0.009484 0.278429
-0.039071 0.009498 0.278699
-0.037632 0.009474 0.277874
-0.035487 0.009263 0.271590
-0.035157 0.009529 0.279267
-0.034209 0.009642 0.282455
-0.030268 0.008885 0.260192
-0.028894 0.008849 0.259041
-0.027594 0.008834 0.258497
-0.026184 0.008780 0.256831
-0.024711 0.008699 0.254361
-0.023851 0.008836 0.258290
-0.022593 0.008833 0.258114
-0.021357 0.008839 0.258202
-0.020086 0.008830 0.257863
-0.019012 0.008912 0.260185
-0.017853 0.008963 0.261616
-0.016907 0.009137 0.266627
-0.015441 0.009036 0.263615
-0.006987 0.009728 0.283422
-0.005612 0.009730 0.283453
-0.004210 0.009674 0.281808
-0.002816 0.009590 0.279330
-0.001471 0.009669 0.281597
-0.000101 0.009527 0.277457
0.001248 0.009527 0.277454
0.002507 0.009200 0.267909
0.003880 0.009371 0.272894
0.006121 0.008779 0.255672
0.007376 0.008793 0.256086
0.008613 0.008785 0.255865
0.009865 0.008792 0.256084
0.011116 0.008796 0.256243
0.012373 0.008805 0.256509
0.013637 0.008815 0.256852
0.014888 0.008817 0.256928
0.016198 0.008850 0.257947
0.017584 0.008917 0.259938
0.018837 0.008913 0.259851
0.020352 0.009025 0.263166
0.021631 0.009025 0.263222
0.024931 0.008835 0.257858
0.026023 0.008780 0.256347
0.027272 0.008782 0.256459
0.028475 0.008769 0.256160
0.029705 0.008765 0.256123
0.030920 0.008757 0.255974
0.032205 0.008769 0.256400
0.033417 0.008761 0.256247
0.034744 0.008782 0.256954
0.035974 0.008779 0.256934
0.037198 0.008774 0.256884
0.038905 0.008879 0.260074
0.041180 0.009104 0.266749
0.043377 0.009298 0.272538
0.044498 0.009257 0.271441
0.045517 0.009197 0.269801
0.047021 0.009236 0.271062
0.048212 0.009213 0.270499
0.049215 0.009156 0.268947
0.050345 0.009126 0.268160
0.051614 0.009121 0.268136
0.052760 0.009095 0.267500
0.053758 0.009046 0.266167
0.054852 0.009015 0.265360
0.055891 0.008976 0.264336
0.056952 0.008942 0.263467
0.058347 0.008962 0.264149
0.060798 0.009139 0.269489
0.062509 0.009199 0.271406
0.063688 0.009181 0.270983
0.064852 0.009161 0.270518
0.066164 0.009162 0.270681
0.067353 0.009147 0.270349
0.068686 0.009151 0.270598
0.069950 0.009146 0.270573
0.071222 0.009143 0.270585
0.072788 0.009176 0.271698
0.074432 0.009218 0.273060
0.075233 0.009156 0.271337
0.076635 0.009168 0.271807
0.077810 0.009153 0.271467
0.078957 0.009135 0.271047
0.080438 0.009156 0.271770
0.081404 0.009118 0.270756
0.083243 0.009177 0.272635
0.084689 0.009193 0.273189
0.086021 0.009195 0.273367
0.087278 0.009190 0.273304
0.089113 0.009244 0.275025
0.093572 0.009565 0.284679
0.094771 0.009549 0.284282
0.099217 0.009855 0.293501
0.099313 0.009727 0.289775
0.100703 0.009727 0.289871
0.102304 0.009748 0.290563
0.103829 0.009761 0.291020
0.104921 0.009733 0.290264
0.106296 0.009732 0.290297
0.107772 0.009740 0.290599
0.109160 0.009739 0.290657
0.110284 0.009716 0.290013
0.111651 0.009714 0.290011
0.113019 0.009713 0.290009
0.114157 0.009692 0.289416
0.115449 0.009684 0.289218
0.117078 0.009704 0.289856
0.118993 0.009748 0.291169
0.120265 0.009738 0.290894
0.121410 0.009718 0.290312
0.122950 0.009730 0.290668
0.124383 0.009733 0.290761
0.125717 0.009729 0.290614
0.126795 0.009705 0.289877
0.128334 0.009716 0.290190
0.130358 0.009764 0.291571
0.131839 0.009770 0.291710
0.132851 0.009742 0.290811
0.134395 0.009753 0.291073
0.135957 0.009764 0.291355
0.137410 0.009768 0.291391
0.138949 0.009778 0.291592
0.140299 0.009775 0.291385
0.141811 0.009782 0.291501
0.143137 0.009777 0.291224
0.144349 0.009764 0.290707
0.145938 0.009777 0.290939
0.147931 0.009816 0.291947
0.149207 0.009807 0.291518
0.150279 0.009785 0.290688
0.151578 0.009779 0.290289
-0.142465 0.010248 0.268671
-0.140663 0.010210 0.267836
-0.139004 0.010182 0.267245
-0.138282 0.010222 0.268446
-0.137150 0.010232 0.268855
-0.135197 0.010181 0.267631
-0.133731 0.010166 0.267345
-0.131633 0.010102 0.265765
-0.129335 0.010021 0.263734
-0.127963 0.010011 0.263559
-0.124928 0.009870 0.259906
-0.123314 0.009839 0.259159
-0.122045 0.009835 0.259118
-0.120495 0.009808 0.258462
-0.119510 0.009828 0.259009
-0.118720 0.009863 0.259986
-0.122186 0.010257 0.270395
-0.121393 0.010298 0.271489
-0.119728 0.010375 0.273548
-0.116140 0.010174 0.268235
-0.115655 0.010243 0.270046
-0.114598 0.010262 0.270537
-0.113881 0.010313 0.271847
-0.112891 0.010339 0.272521
-0.112279 0.010401 0.274128
-0.111088 0.010411 0.274337
-0.110359 0.010464 0.275701
-0.109383 0.010495 0.276465
-0.108771 0.010562 0.278176
-0.108129 0.010628 0.279846
-0.106964 0.010643 0.280181
-0.106931 0.010773 0.283526
-0.106829 0.010899 0.286762
-0.105626 0.010914 0.287085
-0.106137 0.011110 0.292131
-0.105323 0.011169 0.293612
-0.104762 0.011258 0.295843
-0.104350 0.011365 0.298557
-0.103766 0.011456 0.300842
-0.103125 0.011544 0.303023
-0.102609 0.011648 0.305634
-0.101344 0.011668 0.306055
-0.076433 0.011620 0.302343
-0.075114 0.011639 0.302672
-0.073840 0.011665 0.303206
-0.072623 0.011702 0.304007
-0.071851 0.011814 0.306743
-0.070754 0.011875 0.308181
-0.069646 0.011938 0.309636
-0.064113 0.011737 0.303959
-0.062750 0.011754 0.304243
-0.060289 0.011562 0.299103
-0.057695 0.011334 0.293052
-0.055326 0.011140 0.287885
-0.055030 0.011363 0.293520
-0.043502 0.010301 0.265420
-0.042277 0.010313 0.265617
-0.041740 0.010500 0.270289
-0.040496 0.010515 0.270546
-0.039639 0.010634 0.273499
-0.038663 0.010729 0.275816
-0.037503 0.010778 0.276952
-0.035226 0.010497 0.269630
-0.034946 0.010813 0.277623
-0.034199 0.011004 0.282407
-0.030190 0.010117 0.259558
-0.028885 0.010099 0.258996
-0.027502 0.010051 0.257666
-0.026070 0.009980 0.255748
-0.024953 0.010028 0.256885
-0.023822 0.010075 0.258015
-0.022533 0.010057 0.257469
-0.021306 0.010066 0.257627
-0.020035 0.010055 0.257247
-0.018893 0.010110 0.258600
-0.017921 0.010271 0.262650
-0.016997 0.010487 0.268090
-0.015579 0.010407 0.265995
-0.014296 0.010413 0.266066
0.001185 0.010323 0.263385
0.002465 0.010323 0.263376
0.006141 0.010054 0.256510
0.007384 0.010048 0.256387
0.008633 0.010052 0.256488
0.009863 0.010034 0.256048
0.011125 0.010050 0.256475
0.012378 0.010055 0.256634
0.013638 0.010064 0.256899
0.014879 0.010059 0.256801
0.016165 0.010082 0.257442
0.017531 0.010149 0.259188
0.018852 0.010182 0.260084
0.020305 0.010278 0.262578
0.021612 0.010293 0.263011
0.024917 0.010079 0.257734
0.025996 0.010013 0.256109
0.027221 0.010006 0.256003
0.028452 0.010002 0.255976
0.029674 0.009995 0.255875
0.030923 0.009998 0.256022
0.032207 0.010011 0.256436
0.033485 0.010022 0.256788
0.034804 0.010043 0.257424
0.036068 0.010047 0.257629
0.037606 0.010126 0.259729
0.039032 0.010169 0.260946
0.040935 0.010331 0.265182
0.042766 0.010465 0.268727
0.044217 0.010500 0.269751
0.045266 0.010441 0.268342
0.046514 0.010430 0.268159
0.047861 0.010441 0.268553
0.048861 0.010378 0.267038
0.049735 0.010292 0.264932
0.050959 0.010280 0.264756
0.052296 0.010292 0.265170
0.053388 0.010256 0.264355
0.054465 0.010219 0.263509
0.055445 0.010165 0.262250
0.056688 0.010161 0.262265
0.058141 0.010195 0.263239
0.060630 0.010404 0.268764
0.062274 0.010463 0.270403
0.063594 0.010466 0.270602
0.064875 0.010462 0.270633
0.066065 0.010444 0.270292
0.067324 0.010438 0.270250
0.068575 0.010431 0.270179
0.069831 0.010424 0.270130
0.071143 0.010426 0.270304
0.071833 0.010339 0.268150
0.073062 0.010330 0.268049
0.074421 0.010341 0.268425
0.075324 0.010288 0.267172
0.076644 0.010293 0.267414
0.077853 0.010283 0.267271
0.078933 0.010257 0.266698
0.080553 0.010301 0.267940
0.082196 0.010346 0.269219
0.083636 0.010365 0.269806
0.085581 0.010444 0.271979
0.086401 0.010386 0.270566
0.088880 0.010526 0.274317
0.091589 0.010689 0.278656
0.096744 0.011129 0.290212
0.097964 0.011110 0.289803
0.098935 0.011063 0.288682
0.100750 0.011111 0.290014
0.102249 0.011124 0.290414
0.103833 0.011144 0.291037
0.105111 0.011133 0.290798
0.106392 0.011121 0.290565
0.107855 0.011129 0.290829
0.109142 0.011118 0.290614
0.110531 0.011118 0.290668
0.111803 0.011107 0.290409
0.113031 0.011091 0.290043
0.114770 0.011125 0.290974
0.115672 0.011078 0.289781
0.117571 0.011127 0.291077
0.118885 0.011120 0.290906
0.120302 0.011122 0.290983
0.121842 0.011136 0.291343
0.123119 0.011125 0.291069
0.124724 0.011144 0.291557
0.126118 0.011144 0.291541
0.127364 0.011131 0.291176
0.128770 0.011132 0.291174
0.130055 0.011123 0.290891
0.131381 0.011117 0.290694
0.132725 0.011113 0.290530
0.134072 0.011110 0.290369
0.135658 0.011125 0.290709
0.137374 0.011151 0.291308
0.138907 0.011162 0.291496
0.140433 0.011172 0.291654
0.141947 0.011181 0.291771
0.143417 0.011186 0.291784
0.144591 0.011169 0.291185
0.146048 0.011173 0.291146
0.147659 0.011189 0.291400
0.149074 0.011189 0.291245
0.150172 0.011167 0.290467
0.151571 0.011166 0.290263
-0.139514 0.011489 0.268212
-0.138450 0.011507 0.268762
-0.136805 0.011475 0.268168
-0.133986 0.011344 0.265226
-0.131453 0.011235 0.262784
-0.129606 0.011183 0.261666
-0.126935 0.011057 0.258832
-0.124245 0.010928 0.255895
-0.123059 0.010930 0.256014
-0.121765 0.010922 0.255897
-0.119803 0.010854 0.254352
-0.118682 0.010861 0.254569
-0.117255 0.010840 0.254118
-0.116466 0.010878 0.255049
-0.115995 0.010947 0.256693
-0.114755 0.010944 0.256643
-0.114767 0.011062 0.259416
-0.113740 0.011081 0.259867
-0.113364 0.011164 0.261824
-0.112847 0.011236 0.263490
-0.111837 0.011259 0.264023
-0.110944 0.011295 0.264840
-0.110097 0.011336 0.265780
-0.109664 0.011421 0.267746
-0.109259 0.011511 0.269825
-0.109001 0.011619 0.272311
-0.108512 0.011705 0.274269
-0.108032 0.011793 0.276292
-0.107332 0.011860 0.277788
-0.106944 0.011963 0.280136
-0.106958 0.012114 0.283605
-0.105810 0.012135 0.284034
-0.105605 0.012267 0.287038
-0.104741 0.012653 0.295794
-0.102886 0.012597 0.294380
-0.103744 0.012876 0.300792
-0.075416 0.012888 0.298342
-0.074282 0.012938 0.299344
-0.072627 0.012897 0.298250
-0.071198 0.012896 0.298067
-0.069929 0.012924 0.298564
-0.070735 0.013345 0.308125
-0.062732 0.013209 0.304187
-0.060271 0.012992 0.299047
-0.055310 0.012518 0.287832
-0.044522 0.010334 0.237500
-0.044086 0.010502 0.241230
-0.043886 0.010736 0.246487
-0.042988 0.010807 0.248011
-0.041818 0.010813 0.248020
-0.041058 0.010928 0.250537
-0.040744 0.011172 0.256017
-0.040755 0.011524 0.263945
-0.039859 0.011633 0.266329
-0.039408 0.011884 0.271945
-0.038613 0.012044 0.275500
-0.036918 0.011925 0.272663
-0.035327 0.011833 0.270437
-0.034983 0.012167 0.277956
-0.034011 0.012300 0.280891
-0.030115 0.011344 0.258944
-0.028912 0.011363 0.259276
-0.027496 0.011295 0.257643
-0.025896 0.011143 0.254077
-0.024673 0.011145 0.254041
-0.023798 0.011313 0.257788
-0.022612 0.011344 0.258412
-0.021341 0.011333 0.258084
-0.020106 0.011342 0.258200
-0.018915 0.011377 0.258935
-0.017852 0.011501 0.261681
-0.016780 0.011637 0.264710
-0.015356 0.011531 0.262238
-0.014076 0.011524 0.262027
0.001177 0.011520 0.261531
0.002452 0.011541 0.262003
0.006166 0.011345 0.257562
0.007402 0.011321 0.257021
0.008655 0.011326 0.257158
0.009896 0.011316 0.256940
0.011143 0.011313 0.256914
0.012393 0.011315 0.256976
0.013670 0.011338 0.257534
0.014934 0.011348 0.257782
0.016216 0.011368 0.258290
0.017534 0.011409 0.259251
0.018889 0.011467 0.260612
0.020303 0.011551 0.262579
0.021740 0.011638 0.264605
0.025067 0.011397 0.259320
0.025971 0.011244 0.255893
0.027192 0.011235 0.255758
0.028481 0.011254 0.256263
0.029639 0.011221 0.255600
0.030926 0.011239 0.256076
0.032235 0.011262 0.256689
0.033493 0.011267 0.256879
0.034908 0.011322 0.258222
0.036230 0.011344 0.258818
0.037820 0.011446 0.261234
0.039303 0.011510 0.262782
0.041309 0.011718 0.267637
0.042804 0.011773 0.268991
0.043586 0.011634 0.265924
0.044496 0.011537 0.263802
0.045595 0.011492 0.262885
0.046485 0.011399 0.260856
0.047626 0.011370 0.260314
0.048460 0.011272 0.258166
0.049595 0.011246 0.257695
0.050792 0.011236 0.257565
0.052075 0.011244 0.257874
0.053384 0.011258 0.258299
0.054721 0.011277 0.258846
0.056092 0.011302 0.259531
0.057313 0.011296 0.259510
0.059632 0.011502 0.264365
0.061888 0.011688 0.268749
0.063366 0.011722 0.269652
0.064759 0.011739 0.270170
0.065993 0.011727 0.270020
0.067186 0.011709 0.269715
0.068502 0.011712 0.269908
0.069745 0.011703 0.269816
0.070790 0.011662 0.268981
0.071864 0.011626 0.268281
0.072761 0.011564 0.266962
0.073782 0.011524 0.266136
0.074752 0.011477 0.265158
0.075557 0.011406 0.263639
0.076398 0.011343 0.262290
0.077534 0.011326 0.261986
0.078625 0.011302 0.261539
0.079912 0.011307 0.261751
0.081248 0.011318 0.262114
0.082923 0.011376 0.263544
0.084445 0.011411 0.264454
0.085861 0.011431 0.265008
0.091570 0.012014 0.278609
0.097671 0.012452 0.288950
0.100648 0.012652 0.293688
0.100458 0.012454 0.289184
0.101871 0.012458 0.289349
0.104938 0.012494 0.290326
0.106292 0.012490 0.290300
0.109422 0.012531 0.291366
0.110664 0.012514 0.291021
0.111993 0.012507 0.290909
0.113308 0.012499 0.290757
0.114501 0.012477 0.290294
0.115747 0.012462 0.289970
0.117090 0.012458 0.289888
0.118983 0.012511 0.291148
0.120090 0.012481 0.290470
0.121332 0.012466 0.290124
0.122836 0.012478 0.290398
0.124531 0.012509 0.291106
0.125868 0.012504 0.290961
0.127092 0.012487 0.290552
0.128481 0.012487 0.290516
0.130741 0.012571 0.292420
0.131656 0.012525 0.291297
0.132776 0.012499 0.290638
0.134201 0.012502 0.290640
0.135513 0.012494 0.290391
0.136855 0.012490 0.290198
0.138279 0.012493 0.290169
0.139660 0.012492 0.290040
0.141677 0.012547 0.291206
0.143279 0.012565 0.291493
0.144691 0.012565 0.291374
0.146021 0.012559 0.291081
0.147548 0.012570 0.291166
0.148974 0.012572 0.291036
0.150464 0.012579 0.291018
0.151506 0.012549 0.290122
-0.138432 0.012777 0.268714
-0.133319 0.012419 0.261323
-0.131026 0.012320 0.259356
-0.128982 0.012242 0.257834
-0.126746 0.012145 0.255882
-0.124182 0.012014 0.253212
-0.122280 0.011944 0.251839
-0.120977 0.011933 0.251675
-0.119225 0.011877 0.250553
-0.116824 0.011754 0.248022
-0.115696 0.011758 0.248160
-0.114365 0.011742 0.247853
-0.113145 0.011736 0.247771
-0.113025 0.011846 0.250117
-0.112418 0.011906 0.251414
-0.111739 0.011960 0.252570
-0.111637 0.012078 0.255061
-0.111095 0.012150 0.256585
-0.110721 0.012242 0.258527
-0.110322 0.012334 0.260448
-0.109369 0.012364 0.261081
-0.108611 0.012418 0.262196
-0.107934 0.012483 0.263528
-0.107330 0.012557 0.265063
-0.106703 0.012630 0.266575
-0.108490 0.012995 0.274220
-0.069908 0.014347 0.298504
-0.045148 0.010316 0.214092
-0.044188 0.010331 0.214292
-0.044253 0.010592 0.219594
-0.045583 0.011176 0.231581
-0.044535 0.011191 0.231784
-0.043197 0.011133 0.230459
-0.042999 0.011373 0.235311
-0.042304 0.011491 0.237632
-0.041907 0.011699 0.241807
-0.041593 0.011942 0.246720
-0.040913 0.012091 0.249687
-0.040714 0.012396 0.255864
-0.040485 0.012711 0.262235
-0.039740 0.012878 0.265565
-0.039090 0.013088 0.269787
-0.038256 0.013250 0.272991
-0.037147 0.013324 0.274396
-0.035029 0.013028 0.268193
-0.034740 0.013416 0.276070
-0.033969 0.013641 0.280587
-0.030054 0.012570 0.258459
-0.028792 0.012564 0.258238
-0.027502 0.012545 0.257743
-0.026221 0.012528 0.257303
-0.024899 0.012489 0.256416
-0.023822 0.012574 0.258091
-0.022535 0.012553 0.257568
-0.021352 0.012591 0.258262
-0.020082 0.012578 0.257934
-0.018900 0.012623 0.258775
-0.017791 0.012726 0.260826
-0.016949 0.013051 0.267414
-0.015561 0.012974 0.265780
-0.014279 0.012981 0.265851
0.001183 0.012853 0.262849
0.002460 0.012853 0.262840
0.006172 0.012608 0.257837
0.007408 0.012578 0.257238
0.008641 0.012554 0.256753
0.009892 0.012557 0.256847
0.011142 0.012560 0.256918
0.012392 0.012561 0.256975
0.013667 0.012585 0.257495
0.014944 0.012608 0.257986
0.016220 0.012625 0.258373
0.017495 0.012639 0.258703
0.018872 0.012720 0.260419
0.020313 0.012831 0.262742
0.021631 0.012856 0.263304
0.025102 0.012672 0.259708
0.026257 0.012621 0.258733
0.027579 0.012652 0.259429
0.028737 0.012607 0.258595
0.029820 0.012536 0.257200
0.031114 0.012555 0.257662
0.032418 0.012576 0.258177
0.033710 0.012591 0.258572
0.035123 0.012649 0.259845
0.036666 0.012747 0.261963
0.038242 0.012850 0.264174
0.039543 0.012858 0.264420
0.040970 0.012904 0.265466
0.042328 0.012926 0.266028
0.043899 0.013011 0.267866
0.044548 0.012824 0.264140
0.045216 0.012654 0.260730
0.045982 0.012519 0.258064
0.047122 0.012491 0.257585
0.047941 0.012381 0.255428
0.049272 0.012406 0.256043
0.050428 0.012386 0.255747
0.051714 0.012399 0.256112
0.053191 0.012455 0.257393
0.054631 0.012501 0.258444
0.055999 0.012528 0.259124
0.057266 0.012532 0.259320
0.059433 0.012729 0.263506
0.061963 0.012993 0.269097
0.063443 0.013031 0.270002
0.064641 0.013011 0.269697
0.065932 0.013010 0.269793
0.067195 0.013003 0.269772
0.068419 0.012989 0.269604
0.069678 0.012982 0.269580
0.070682 0.012929 0.268590
0.071190 0.012789 0.265785
0.072139 0.012731 0.264699
0.073226 0.012699 0.264150
0.074349 0.012675 0.263745
0.075255 0.012615 0.262600
0.076165 0.012557 0.261508
0.077280 0.012535 0.261144
0.078527 0.012534 0.261231
0.079721 0.012525 0.261141
0.081029 0.012534 0.261423
0.082891 0.012627 0.263456
0.084579 0.012691 0.264885
0.085873 0.012695 0.265058
0.088238 0.012855 0.268484
0.096772 0.013896 0.290320
0.097992 0.013872 0.289911
0.100794 0.014069 0.294126
0.100614 0.013851 0.289644
0.102004 0.013852 0.289735
0.103492 0.013866 0.290100
0.105042 0.013887 0.290623
0.106376 0.013880 0.290537
0.107922 0.013901 0.291023
0.109435 0.013916 0.291406
0.110739 0.013905 0.291224
0.112014 0.013891 0.290968
0.113288 0.013877 0.290710
0.114749 0.013885 0.290926
0.115942 0.013862 0.290463
0.116955 0.013818 0.289557
0.118382 0.013823 0.289679
0.119868 0.013835 0.289934
0.121152 0.013823 0.289694
0.123018 0.013877 0.290829
0.124328 0.013868 0.290628
0.125952 0.013894 0.291152
0.127240 0.013883 0.290888
0.128604 0.013880 0.290791
0.129744 0.013853 0.290185
0.131283 0.013869 0.290467
0.132600 0.013861 0.290245
0.134016 0.013864 0.290234
0.135392 0.013863 0.290124
0.136980 0.013883 0.290455
0.138531 0.013899 0.290690
0.139779 0.013884 0.290277
0.142228 0.013988 0.292328
0.143500 0.013975 0.291929
0.144649 0.013950 0.291275
0.146458 0.013989 0.291937
0.147624 0.013967 0.291302
0.149431 0.014005 0.291913
0.150740 0.013995 0.291533
0.152127 0.013994 0.291293
-0.113181 0.012908 0.247847
-0.112201 0.012930 0.248291
-0.112397 0.013089 0.251365
-0.111919 0.013172 0.252975
-0.110916 0.013194 0.253414
-0.110496 0.013287 0.255202
-0.110217 0.013399 0.257350
-0.110096 0.013533 0.259916
-0.109416 0.013600 0.261196
-0.109493 0.013765 0.264328
-0.109265 0.013894 0.266780
-0.108542 0.013962 0.268062
-0.107468 0.013987 0.268493
-0.046520 0.010286 0.194796
-0.045662 0.010302 0.194998
-0.045334 0.010441 0.197520
-0.044459 0.010457 0.197718
-0.045728 0.010989 0.207669
-0.044802 0.011005 0.207870
-0.044014 0.011057 0.208740
-0.043764 0.011249 0.212262
-0.043328 0.011402 0.215033
-0.043176 0.011638 0.219385
-0.043074 0.011900 0.224212
-0.042597 0.012070 0.227290
-0.042115 0.012246 0.230505
-0.041638 0.012434 0.233921
-0.041371 0.012697 0.238748
-0.041026 0.012950 0.243392
-0.040887 0.013285 0.249563
-0.040843 0.013671 0.256712
-0.040545 0.013995 0.262662
-0.039340 0.014015 0.262932
-0.038675 0.014237 0.266965
-0.038021 0.014477 0.271359
-0.037146 0.014647 0.274431
-0.035030 0.014323 0.268247
-0.034598 0.014689 0.274979
-0.033570 0.014821 0.277340
-0.029840 0.013721 0.256661
-0.028797 0.013815 0.258327
-0.027430 0.013755 0.257108
-0.026169 0.013745 0.256837
-0.024952 0.013759 0.257007
-0.023741 0.013777 0.257260
-0.022575 0.013825 0.258078
-0.021341 0.013835 0.258173
-0.020175 0.013893 0.259181
-0.018993 0.013946 0.260096
-0.018027 0.014177 0.264335
-0.017056 0.014439 0.269164
-0.015605 0.014305 0.266593
-0.002824 0.015070 0.280419
-0.001462 0.015071 0.280430
-0.000100 0.015054 0.280091
0.001261 0.015054 0.280088
0.002451 0.014076 0.261884
0.005267 0.014840 0.276099
0.006132 0.013770 0.256189
0.007359 0.013736 0.255575
0.008633 0.013787 0.256532
0.009873 0.013779 0.256403
0.011146 0.013813 0.257051
0.012423 0.013843 0.257651
0.013711 0.013880 0.258369
0.014996 0.013908 0.258910
0.016318 0.013962 0.259966
0.017664 0.014029 0.261249
0.018943 0.014036 0.261426
0.020328 0.014117 0.262973
0.021716 0.014189 0.264374
0.023039 0.014213 0.264881
0.025482 0.014142 0.263677
0.026778 0.014150 0.263905
0.028101 0.014172 0.264372
0.029380 0.014170 0.264419
0.030615 0.014148 0.264088
0.031985 0.014188 0.264908
0.033435 0.014259 0.266308
0.034954 0.014353 0.268152
0.036295 0.014369 0.268549
0.037569 0.014359 0.268446
0.039003 0.014408 0.269468
0.039952 0.014281 0.267186
0.041123 0.014239 0.266492
0.042519 0.014275 0.267265
0.043713 0.014242 0.266760
0.044556 0.014101 0.264213
0.044595 0.013720 0.257177
0.045412 0.013593 0.254893
0.046681 0.013604 0.255204
0.047799 0.013571 0.254697
0.048948 0.013549 0.254385
0.050133 0.013538 0.254280
0.051420 0.013553 0.254686
0.052725 0.013573 0.255166
0.053925 0.013566 0.255132
0.055261 0.013592 0.255736
0.056955 0.013703 0.257938
0.060014 0.014131 0.266109
0.061970 0.014286 0.269153
0.063251 0.014283 0.269209
0.064548 0.014283 0.269337
0.065917 0.014299 0.269757
0.067142 0.014284 0.269582
0.068473 0.014291 0.269839
0.069668 0.014271 0.269562
0.070599 0.014198 0.268297
0.070842 0.013991 0.264506
0.071466 0.013866 0.262249
0.072902 0.013900 0.263001
0.073789 0.013830 0.261777
0.074514 0.013732 0.260032
0.075453 0.013676 0.259079
0.076513 0.013644 0.258567
0.077632 0.013623 0.258267
0.079051 0.013654 0.258962
0.080548 0.013698 0.259886
0.081978 0.013729 0.260569
0.083681 0.013805 0.262088
0.084796 0.013782 0.261748
0.088174 0.014122 0.268302
0.096219 0.015190 0.288674
0.097433 0.015164 0.288268
0.100883 0.015482 0.294398
0.100404 0.015197 0.289049
0.101706 0.015185 0.288901
0.103953 0.015312 0.291401
0.105376 0.015317 0.291554
0.106730 0.015311 0.291513
0.108153 0.015316 0.291654
0.109504 0.015310 0.291595
0.110712 0.015285 0.291161
0.112026 0.015274 0.291005
0.113263 0.015254 0.290651
0.114676 0.015257 0.290746
0.115826 0.015226 0.290175
0.116901 0.015185 0.289426
0.118555 0.015220 0.290105
0.119692 0.015189 0.289509
0.121029 0.015183 0.289400
0.122612 0.015208 0.289868
0.124260 0.015240 0.290467
0.125683 0.015244 0.290528
0.126975 0.015233 0.290277
0.128202 0.015213 0.289877
0.129545 0.015208 0.289735
0.131046 0.015222 0.289935
0.132460 0.015225 0.289932
0.133873 0.015228 0.289914
0.135383 0.015241 0.290095
0.136975 0.015264 0.290434
0.138317 0.015258 0.290229
0.139698 0.015257 0.290096
0.141387 0.015289 0.290586
0.143241 0.015338 0.291388
0.144711 0.015346 0.291385
0.146100 0.015344 0.291207
0.147475 0.015342 0.290989
0.149041 0.015359 0.291133
0.150641 0.015379 0.291322
0.151757 0.015349 0.290565
-0.112014 0.013789 0.242748
-0.111055 0.013812 0.243187
-0.112179 0.014097 0.248238
-0.110967 0.014242 0.250823
-0.109973 0.014266 0.251259
-0.109622 0.014375 0.253182
-0.109632 0.014534 0.255986
-0.109024 0.014614 0.257385
-0.108534 0.014711 0.259092
-0.108010 0.014807 0.260750
-0.108005 0.014976 0.263708
-0.107690 0.015106 0.265964
-0.106224 0.015076 0.265390
-0.105045 0.015086 0.265523
-0.103977 0.015112 0.265941
-0.102805 0.015124 0.266094
-0.101731 0.015150 0.266505
-0.100653 0.015177 0.266913
-0.045580 0.009992 0.173994
-0.044825 0.010009 0.174189
-0.045161 0.010274 0.178711
-0.044517 0.010321 0.179451
-0.046307 0.010947 0.190228
-0.045472 0.010964 0.190428
-0.044832 0.011030 0.191474
-0.044371 0.011143 0.193348
-0.043945 0.011271 0.195460
-0.043632 0.011433 0.198175
-0.043677 0.011699 0.202679
-0.043595 0.011942 0.206781
-0.043205 0.012109 0.209580
-0.042903 0.012310 0.212951
-0.042724 0.012558 0.217117
-0.042503 0.012804 0.221273
-0.042322 0.013076 0.225855
-0.041981 0.013311 0.229802
-0.041700 0.013578 0.234305
-0.041512 0.013892 0.239597
-0.041236 0.014193 0.244674
-0.040767 0.014443 0.248870
-0.040276 0.014700 0.253189
-0.040149 0.015111 0.260137
-0.039120 0.015197 0.261509
-0.038420 0.015421 0.265246
-0.037970 0.015765 0.271035
-0.036875 0.015855 0.272479
-0.035218 0.015702 0.269731
-0.034633 0.016033 0.275309
-0.033418 0.016088 0.276137
-0.029818 0.014950 0.256520
-0.028713 0.015020 0.257622
-0.027426 0.014997 0.257127
-0.026175 0.014992 0.256950
-0.024887 0.014964 0.256379
-0.023791 0.015055 0.257854
-0.022594 0.015088 0.258345
-0.021355 0.015096 0.258397
-0.020171 0.015145 0.259174
-0.018969 0.015188 0.259825
-0.018070 0.015496 0.265023
-0.017134 0.015817 0.270453
-0.015617 0.015610 0.266861
-0.013268 0.015895 0.271615
-0.011582 0.015404 0.263170
-0.010087 0.015078 0.257550
-0.008892 0.015170 0.259085
-0.007585 0.015072 0.257367
-0.006344 0.015090 0.257641
-0.005106 0.015128 0.258265
-0.003864 0.015171 0.258978
-0.002623 0.015269 0.260631
-0.001356 0.015251 0.260294
-0.000093 0.015430 0.263346
0.001195 0.015545 0.265284
0.002475 0.015491 0.264362
0.003925 0.016176 0.276046
0.005266 0.016174 0.276024
0.006139 0.015029 0.256483
0.007402 0.015063 0.257078
0.008653 0.015066 0.257150
0.009898 0.015061 0.257078
0.011183 0.015109 0.257923
0.012419 0.015088 0.257587
0.013740 0.015166 0.258944
0.015032 0.015200 0.259566
0.016280 0.015189 0.259405
0.017674 0.015304 0.261422
0.019067 0.015404 0.263171
0.020370 0.015423 0.263546
0.021796 0.015528 0.265385
0.023029 0.015491 0.264810
0.024332 0.015502 0.265062
0.025472 0.015413 0.263607
0.026767 0.015423 0.263835
0.028089 0.015446 0.264302
0.029368 0.015444 0.264349
0.030603 0.015421 0.264018
0.031972 0.015464 0.264838
0.033421 0.015541 0.266238
0.034940 0.015643 0.268082
0.036281 0.015661 0.268478
0.037554 0.015650 0.268375
0.038988 0.015704 0.269398
0.040093 0.015627 0.268163
0.041230 0.015566 0.267219
0.042485 0.015552 0.267085
0.043494 0.015452 0.265460
0.044279 0.015280 0.262605
0.044297 0.014860 0.255496
0.045367 0.014806 0.254670
0.046666 0.014829 0.255153
0.047880 0.014823 0.255162
0.048981 0.014784 0.254590
0.050178 0.014774 0.254537
0.051381 0.014767 0.254522
0.052601 0.014765 0.254592
0.053888 0.014781 0.254984
0.055009 0.014753 0.254596
0.056435 0.014805 0.255613
0.059870 0.015371 0.265497
0.062033 0.015594 0.269457
0.063452 0.015624 0.270095
0.064497 0.015562 0.269151
0.065959 0.015602 0.269953
0.067252 0.015601 0.270053
0.068510 0.015592 0.270010
0.069740 0.015577 0.269865
0.070516 0.015463 0.268003
0.071201 0.015334 0.265872
0.071870 0.015205 0.263756
0.072867 0.015149 0.262894
0.073883 0.015099 0.262131
0.074467 0.014964 0.259890
0.075027 0.014829 0.257638
0.076035 0.014785 0.256973
0.077090 0.014751 0.256484
0.078243 0.014737 0.256333
0.079505 0.014743 0.256537
0.080730 0.014743 0.256619
0.081985 0.014748 0.256793
0.083345 0.014771 0.257285
0.084652 0.014785 0.257599
0.085512 0.014721 0.256564
0.099667 0.016915 0.294893
0.100904 0.016886 0.294473
0.100756 0.016629 0.290076
0.102277 0.016651 0.290533
0.103400 0.016609 0.289862
0.104775 0.016607 0.289901
0.106533 0.016666 0.290984
0.107956 0.016671 0.291132
0.109219 0.016651 0.290843
0.110607 0.016651 0.290889
0.111803 0.016623 0.290429
0.112893 0.016579 0.289707
0.114395 0.016596 0.290037
0.115814 0.016601 0.290148
0.116760 0.016539 0.289078
0.118321 0.016564 0.289533
0.119785 0.016576 0.289735
0.120965 0.016548 0.289246
0.122346 0.016548 0.289237
0.124121 0.016600 0.290141
0.125542 0.016605 0.290199
0.126874 0.016598 0.290043
0.128175 0.016587 0.289811
0.129508 0.016580 0.289645
0.130916 0.016583 0.289642
0.132326 0.016586 0.289631
0.133917 0.016611 0.290001
0.135002 0.016574 0.289270
0.136805 0.016625 0.290062
0.138116 0.016615 0.289795
0.139422 0.016605 0.289510
0.143059 0.016870 0.294008
0.143200 0.016722 0.291290
0.144510 0.016712 0.290965
0.146573 0.016788 0.292132
0.147203 0.016700 0.290435
0.149045 0.016749 0.291121
0.150575 0.016764 0.291173
0.152974 0.016873 0.292871
-0.112497 0.014410 0.234011
-0.111360 0.014406 0.234004
-0.109665 0.014328 0.232805
-0.108996 0.014385 0.233774
-0.108626 0.014482 0.235401
-0.107931 0.014538 0.236343
-0.107920 0.014688 0.238811
-0.107956 0.014847 0.241429
-0.107206 0.014901 0.242318
-0.106764 0.014999 0.243926
-0.106265 0.015091 0.245430
-0.105591 0.015160 0.246551
-0.104758 0.015207 0.247316
-0.103834 0.015242 0.247876
-0.102885 0.015275 0.248380
-0.102051 0.015325 0.249175
-0.100948 0.015335 0.249316
-0.100179 0.015397 0.250293
-0.099604 0.015491 0.251778
-0.098346 0.015480 0.251545
-0.097608 0.015551 0.252651
-0.098104 0.015822 0.257013
-0.097324 0.015893 0.258095
-0.047550 0.010016 0.161606
-0.046428 0.009940 0.160302
-0.046006 0.010013 0.161415
-0.045620 0.010097 0.162691
-0.045501 0.010244 0.164981
-0.045366 0.010393 0.167293
-0.045383 0.010582 0.170256
-0.045160 0.010721 0.172410
-0.044749 0.010820 0.173912
-0.044707 0.011014 0.176934
-0.044366 0.011139 0.178865
-0.044374 0.011359 0.182307
-0.044265 0.011558 0.185397
-0.044130 0.011757 0.188500
-0.043946 0.011952 0.191524
-0.043738 0.012148 0.194563
-0.043584 0.012368 0.197986
-0.043402 0.012589 0.201432
-0.043340 0.012856 0.205601
-0.043289 0.013139 0.210019
-0.042850 0.013315 0.212723
-0.042504 0.013529 0.216033
-0.042613 0.013902 0.221877
-0.042542 0.014234 0.227062
-0.041894 0.014385 0.229367
-0.041503 0.014635 0.233240
-0.041143 0.014910 0.237510
-0.040975 0.015272 0.243164
-0.040624 0.015586 0.248042
-0.040275 0.015919 0.253228
-0.040037 0.016318 0.259457
-0.039078 0.016439 0.261270
-0.038376 0.016681 0.264994
-0.037989 0.017080 0.271220
-0.036913 0.017188 0.272811
-0.034854 0.016828 0.266998
-0.034616 0.017354 0.275226
-0.033317 0.017369 0.275354
-0.029933 0.016253 0.257561
-0.028691 0.016253 0.257470
-0.027406 0.016229 0.256991
-0.026131 0.016208 0.256569
-0.024926 0.016230 0.256839
-0.023734 0.016264 0.257288
-0.022581 0.016329 0.258246
-0.021392 0.016376 0.258907
-0.020199 0.016424 0.259596
-0.019002 0.016476 0.260337
-0.017961 0.016679 0.263485
-0.017131 0.017125 0.270464
-0.015624 0.016913 0.267046
-0.014571 0.017197 0.271469
-0.013261 0.017205 0.271536
-0.011468 0.016517 0.260638
-0.010125 0.016390 0.258583
-0.008892 0.016430 0.259169
-0.007597 0.016348 0.257850
-0.006359 0.016381 0.258331
-0.005109 0.016393 0.258494
-0.003868 0.016451 0.259372
-0.002628 0.016571 0.261241
-0.001356 0.016527 0.260538
-0.000092 0.016736 0.263812
0.001198 0.016866 0.265860
0.002463 0.016686 0.263019
0.004019 0.017929 0.282611
0.005391 0.017928 0.282588
0.006154 0.016313 0.257135
0.007411 0.016331 0.257428
0.008682 0.016370 0.258055
0.009922 0.016348 0.257734
0.011196 0.016380 0.258267
0.012503 0.016449 0.259379
0.013812 0.016508 0.260330
0.015100 0.016533 0.260769
0.016406 0.016574 0.261447
0.017767 0.016659 0.262834
0.019345 0.016924 0.267056
0.020382 0.016711 0.263744
0.021721 0.016756 0.264511
0.022843 0.016639 0.262711
0.024162 0.016669 0.263249
0.025297 0.016576 0.261838
0.026535 0.016556 0.261588
0.027743 0.016519 0.261082
0.029007 0.016519 0.261140
0.030237 0.016499 0.260900
0.031499 0.016497 0.260955
0.032808 0.016520 0.261396
0.034179 0.016571 0.262278
0.035515 0.016602 0.262855
0.036858 0.016633 0.263440
0.038109 0.016622 0.263363
0.039545 0.016690 0.264535
0.040772 0.016669 0.264292
0.041971 0.016638 0.263891
0.043130 0.016592 0.263273
0.044149 0.016498 0.261875
