ply
format ascii 1.0
element vertex 1745
property float x
property float y
property float z
end_header
-0.016826 0.024553 0.266108
-0.015383 0.024308 0.263393
-0.014116 0.024320 0.263463
0.001193 0.024395 0.263906
0.002467 0.024338 0.263284
0.005299 0.025688 0.277880
0.006211 0.024004 0.259671
0.007482 0.024041 0.260087
0.008747 0.024052 0.260216
0.009968 0.023953 0.259159
0.011218 0.023938 0.259022
0.012533 0.024050 0.260253
0.013811 0.024078 0.260582
0.015122 0.024154 0.261443
0.016399 0.024167 0.261621
0.017698 0.024209 0.262114
0.019089 0.024363 0.263821
0.020305 0.024288 0.263052
0.021583 0.024290 0.263131
0.024959 0.023861 0.258643
0.025978 0.023648 0.256395
0.027214 0.023643 0.256403
0.028431 0.023622 0.256249
0.029620 0.023581 0.255874
0.030870 0.023590 0.256037
0.032130 0.023605 0.256277
0.033360 0.023598 0.256281
0.034595 0.023595 0.256329
0.035809 0.023578 0.256226
0.037077 0.023597 0.256512
0.038452 0.023681 0.257508
0.041509 0.024762 0.269356
0.042764 0.024735 0.269162
0.044450 0.024952 0.271619
0.045570 0.024848 0.270582
0.047049 0.024939 0.271684
0.048615 0.025071 0.273222
0.050103 0.025157 0.274257
0.051444 0.025166 0.274461
0.052832 0.025197 0.274908
0.053724 0.024995 0.272817
0.054706 0.024844 0.271279
0.055792 0.024747 0.270321
0.056906 0.024666 0.269542
0.057893 0.024534 0.268214
0.058870 0.024405 0.266906
0.061114 0.024794 0.271277
0.062332 0.024760 0.271011
0.063544 0.024725 0.270736
0.064793 0.024705 0.270631
0.065967 0.024658 0.270227
0.067193 0.024632 0.270048
0.068614 0.024677 0.270649
0.069899 0.024672 0.270703
0.071071 0.024629 0.270332
0.072461 0.024661 0.270787
0.073863 0.024695 0.271272
0.075242 0.024722 0.271662
0.076539 0.024720 0.271748
0.077814 0.024712 0.271756
0.079191 0.024736 0.272117
0.080577 0.024761 0.272495
0.081760 0.024725 0.272187
0.083007 0.024709 0.272100
0.084338 0.024717 0.272285
0.085726 0.024742 0.272648
0.086754 0.024664 0.271869
0.087943 0.024633 0.271610
0.089593 0.024731 0.272761
0.096974 0.026384 0.291083
0.098201 0.026341 0.290675
0.099375 0.026284 0.290124
0.100364 0.026181 0.289054
0.101978 0.026241 0.289785
0.103468 0.026268 0.290145
0.104903 0.026281 0.290339
0.106206 0.026261 0.290167
0.108483 0.026479 0.292621
0.109612 0.026414 0.291952
0.110856 0.026379 0.291597
0.112366 0.026407 0.291939
0.113252 0.026289 0.290662
0.114748 0.026314 0.290961
0.116200 0.026329 0.291135
0.117492 0.026307 0.290903
0.118746 0.026278 0.290575
0.120025 0.026254 0.290311
0.121293 0.026229 0.290016
0.122648 0.026223 0.289929
0.124747 0.026374 0.291573
0.125972 0.026339 0.291153
0.127098 0.026284 0.290505
0.128497 0.026287 0.290482
0.129763 0.026262 0.290151
0.131092 0.026250 0.289955
0.132487 0.026252 0.289897
0.134081 0.026293 0.290263
0.135286 0.026257 0.289773
0.136591 0.026241 0.289495
0.138197 0.026283 0.289841
0.139548 0.026276 0.289638
0.141315 0.026346 0.290280
0.142953 0.026392 0.290632
0.144694 0.026455 0.291171
0.146230 0.026480 0.291273
0.147657 0.026485 0.291144
0.149186 0.026507 0.291200
0.150737 0.026533 0.291277
0.151662 0.026450 0.290141
-0.043810 0.009993 0.105774
-0.043387 0.010010 0.105947
-0.043290 0.010104 0.106930
-0.043125 0.010183 0.107763
-0.042664 0.010194 0.107866
-0.042673 0.010319 0.109172
-0.042229 0.010336 0.109335
-0.041691 0.010330 0.109253
-0.041631 0.010444 0.110436
-0.041625 0.010575 0.111793
-0.042896 0.011037 0.116656
-0.043678 0.011384 0.120292
-0.043612 0.011516 0.121658
-0.043370 0.011605 0.122558
-0.043145 0.011700 0.123534
-0.043014 0.011824 0.124805
-0.042731 0.011909 0.125662
-0.042720 0.012074 0.127354
-0.042713 0.012244 0.129108
-0.042970 0.012496 0.131717
-0.043450 0.012821 0.135095
-0.043371 0.012989 0.136808
-0.043168 0.013123 0.138172
-0.043151 0.013319 0.140184
-0.043046 0.013494 0.141969
-0.043249 0.013773 0.144839
-0.043656 0.014126 0.148493
-0.043873 0.014429 0.151608
-0.043817 0.014650 0.153868
-0.043872 0.014917 0.156599
-0.043932 0.015194 0.159441
-0.043946 0.015465 0.162210
-0.043989 0.015756 0.165188
-0.043874 0.016000 0.167668
-0.043712 0.016236 0.170060
-0.043580 0.016492 0.172656
-0.043443 0.016755 0.175334
-0.043223 0.016997 0.177777
-0.043220 0.017335 0.181225
-0.043016 0.017604 0.183955
-0.042672 0.017827 0.186190
-0.042482 0.018124 0.189205
-0.042628 0.018581 0.193882
-0.043127 0.019216 0.200409
-0.042878 0.019538 0.203670
-0.042347 0.019744 0.205720
-0.041888 0.019994 0.208225
-0.041313 0.020199 0.210265
-0.040814 0.020453 0.212807
-0.040849 0.020994 0.218335
-0.041168 0.021713 0.225713
-0.041040 0.022230 0.230973
-0.040668 0.022639 0.235118
-0.040272 0.023057 0.239355
-0.039996 0.023571 0.244578
-0.040900 0.024833 0.257558
-0.039709 0.024861 0.257742
-0.039130 0.025286 0.262043
-0.038309 0.025579 0.264962
-0.037864 0.026151 0.270780
-0.037011 0.026472 0.273995
-0.035863 0.026598 0.275191
-0.034572 0.026624 0.275354
-0.033318 0.026681 0.275841
-0.030487 0.025428 0.262792
-0.028634 0.024918 0.257424
-0.027353 0.024881 0.256961
-0.026119 0.024886 0.256925
-0.024899 0.024905 0.257040
-0.023685 0.024933 0.257250
-0.022441 0.024930 0.257140
-0.021136 0.024856 0.256301
-0.020052 0.025049 0.258221
-0.018879 0.025148 0.259168
-0.017759 0.025337 0.261058
-0.016604 0.025502 0.262691
-0.015275 0.025404 0.261622
-0.013907 0.025219 0.259668
0.001184 0.025463 0.261809
0.002465 0.025579 0.262996
0.003950 0.027017 0.277776
0.005296 0.027015 0.277754
0.006176 0.025115 0.258221
0.007417 0.025078 0.257856
0.008656 0.025046 0.257539
0.009907 0.025053 0.257625
0.011155 0.025050 0.257618
0.012406 0.025054 0.257680
0.013689 0.025115 0.258339
0.015001 0.025215 0.259393
0.016289 0.025263 0.259924
0.017625 0.025372 0.261085
0.018883 0.025362 0.261028
0.020236 0.025473 0.262216
0.021561 0.025538 0.262927
0.025236 0.026732 0.275332
0.025225 0.025379 0.261455
0.025953 0.024863 0.256204
0.027153 0.024826 0.255882
0.028421 0.024851 0.256213
0.029599 0.024799 0.255744
0.030865 0.024822 0.256055
0.032121 0.024835 0.256262
0.033357 0.024833 0.256313
0.034609 0.024842 0.256486
0.035861 0.024850 0.256653
0.037133 0.024872 0.256956
0.038483 0.024942 0.257767
0.041026 0.025756 0.266277
0.042266 0.025729 0.266086
0.043426 0.025655 0.265414
0.044696 0.025649 0.265446
0.046212 0.025780 0.266906
0.048585 0.026369 0.273105
0.050072 0.026459 0.274140
0.051412 0.026469 0.274345
0.051542 0.025870 0.268246
0.053691 0.026290 0.272701
0.054673 0.026131 0.271165
0.054722 0.025545 0.265183
0.055873 0.025488 0.264697
0.057097 0.025466 0.264574
0.058282 0.025428 0.264283
0.060611 0.025880 0.269088
0.062166 0.025989 0.270336
0.063455 0.025985 0.270403
0.064651 0.025944 0.270082
0.066040 0.025980 0.270567
0.067266 0.025952 0.270384
0.068467 0.025916 0.270107
0.069715 0.025898 0.270031
0.071051 0.025913 0.270291
0.072245 0.025877 0.270017
0.073714 0.025938 0.270761
0.075162 0.025991 0.271407
0.076584 0.026032 0.271942
0.077855 0.026022 0.271934
0.079287 0.026065 0.272476
0.080770 0.026123 0.273179
0.082059 0.026117 0.273212
0.083241 0.026078 0.272894
0.084651 0.026110 0.273322
0.086268 0.026205 0.274398
0.087044 0.026045 0.272804
0.088388 0.026057 0.273009
0.090060 0.026164 0.274206
0.097133 0.027814 0.291581
0.098362 0.027768 0.291173
0.099039 0.027569 0.289162
0.100193 0.027507 0.288577
0.101500 0.027488 0.288441
0.104928 0.027666 0.290423
0.106421 0.027695 0.290767
0.107774 0.027686 0.290718
0.109392 0.027744 0.291376
0.110808 0.027751 0.291480
0.112038 0.027711 0.291093
0.113386 0.027702 0.291013
0.114790 0.027705 0.291071
0.116187 0.027707 0.291105
0.117602 0.027714 0.291177
0.118834 0.027677 0.290790
0.120142 0.027659 0.290592
0.121517 0.027656 0.290549
0.122776 0.027627 0.290225
0.124147 0.027624 0.290165
0.125578 0.027634 0.290234
0.126863 0.027613 0.289960
0.128237 0.027610 0.289882
0.129792 0.027646 0.290203
0.131176 0.027646 0.290126
0.132793 0.027694 0.290551
0.134016 0.027659 0.290103
0.135661 0.027712 0.290557
0.137186 0.027739 0.290735
0.138210 0.027665 0.289846
0.140298 0.027804 0.291169
0.141837 0.027832 0.291326
0.143132 0.027812 0.290968
0.144863 0.027876 0.291480
0.146275 0.027878 0.291331
0.147643 0.027872 0.291081
0.149623 0.027981 0.292015
0.150819 0.027942 0.291397
0.152128 0.027924 0.290990
-0.043442 0.010403 0.104886
-0.043021 0.010421 0.105057
-0.042942 0.010522 0.106073
-0.042973 0.010654 0.107386
-0.042865 0.010753 0.108380
-0.042516 0.010794 0.108775
-0.042390 0.010893 0.109757
-0.042080 0.010947 0.110278
-0.042593 0.011218 0.112995
-0.043300 0.011549 0.116299
-0.043438 0.011734 0.118135
-0.043171 0.011813 0.118904
-0.042957 0.011909 0.119839
-0.042850 0.012037 0.121099
-0.043158 0.012287 0.123579
-0.043201 0.012468 0.125359
-0.042876 0.012546 0.126101
-0.042631 0.012649 0.127101
-0.042636 0.012832 0.128888
-0.043332 0.013230 0.132841
-0.043444 0.013458 0.135090
-0.043223 0.013590 0.136357
-0.043041 0.013737 0.137784
-0.042912 0.013906 0.139425
-0.043018 0.014158 0.141895
-0.043136 0.014422 0.144480
-0.043519 0.014784 0.148046
-0.043477 0.015012 0.150260
-0.043438 0.015248 0.152558
-0.043443 0.015508 0.155092
-0.043670 0.015857 0.158514
-0.043841 0.016198 0.161851
-0.043767 0.016459 0.164384
-0.043784 0.016764 0.167353
-0.043548 0.016982 0.169452
-0.043546 0.017301 0.172554
-0.043454 0.017596 0.175412
-0.043224 0.017845 0.177814
-0.043078 0.018140 0.180667
-0.042911 0.018437 0.183544
-0.042668 0.018714 0.186212
-0.042587 0.019075 0.189716
-0.042767 0.019571 0.194555
-0.042967 0.020099 0.199708
-0.042789 0.020470 0.203295
-0.042337 0.020724 0.205719
-0.041932 0.021013 0.208489
-0.041365 0.021233 0.210578
-0.041076 0.021611 0.214224
-0.041000 0.022123 0.219198
-0.041162 0.022793 0.225739
-0.040951 0.023288 0.230530
-0.040542 0.023694 0.234448
-0.040176 0.024149 0.238847
-0.039930 0.024706 0.244241
-0.039644 0.025270 0.249711
-0.039642 0.026057 0.257376
-0.039023 0.026475 0.261396
-0.038539 0.027016 0.266626
-0.037894 0.027477 0.271068
-0.036924 0.027727 0.273426
-0.034991 0.027246 0.268577
-0.034546 0.027931 0.275228
-0.033253 0.027957 0.275385
-0.030085 0.026345 0.259406
-0.028632 0.026159 0.257485
-0.027374 0.026143 0.257239
-0.026124 0.026133 0.257055
-0.024912 0.026162 0.257258
-0.023664 0.026154 0.257108
-0.022424 0.026155 0.257037
-0.021148 0.026111 0.256534
-0.019925 0.026132 0.256669
-0.018907 0.026442 0.259647
-0.018088 0.027094 0.265985
-0.016992 0.027401 0.268930
-0.015428 0.026939 0.264341
-0.014156 0.026952 0.264411
0.001186 0.026752 0.262085
0.002456 0.026752 0.262076
0.003900 0.027997 0.274265
0.005229 0.027994 0.274243
0.006147 0.026241 0.257071
0.007355 0.026103 0.255732
0.008625 0.026195 0.256646
0.009873 0.026207 0.256778
0.011111 0.026192 0.256649
0.012402 0.026291 0.257643
0.013676 0.026340 0.258156
0.014977 0.026428 0.259049
0.016266 0.026482 0.259612
0.017572 0.026555 0.260366
0.018856 0.026587 0.260714
0.020182 0.026669 0.261567
0.021484 0.026713 0.262052
0.023901 0.028060 0.275319
0.025219 0.028043 0.275204
0.024978 0.026381 0.258958
0.025871 0.026019 0.255458
0.027098 0.026009 0.255428
0.028365 0.026037 0.255768
0.029557 0.025998 0.255446
0.030810 0.026012 0.255657
0.032105 0.026059 0.256195
0.033359 0.026071 0.256388
0.034609 0.026080 0.256549
0.035818 0.026057 0.256403
0.037050 0.026052 0.256442
0.038866 0.026445 0.260392
0.040821 0.026905 0.265010
0.041750 0.026681 0.262894
0.042711 0.026490 0.261103
0.043871 0.026430 0.260604
0.044722 0.026191 0.258350
0.045489 0.025919 0.255753
0.046770 0.025946 0.256115
0.047897 0.025888 0.255640
0.048835 0.025733 0.254208
0.050034 0.025720 0.254179
0.051464 0.025823 0.255298
0.052791 0.025872 0.255876
0.054149 0.025932 0.256576
0.055756 0.026107 0.258405
0.057999 0.026565 0.263046
0.060431 0.027089 0.268338
0.061972 0.027199 0.269539
0.063415 0.027263 0.270274
0.064724 0.027267 0.270429
0.066038 0.027274 0.270603
0.067296 0.027258 0.270546
0.068570 0.027248 0.270556
0.069929 0.027272 0.270898
0.071198 0.027261 0.270888
0.072497 0.027261 0.270993
0.073886 0.027295 0.271430
0.075236 0.027313 0.271709
0.076611 0.027339 0.272071
0.077871 0.027324 0.272021
0.079143 0.027314 0.272013
0.080445 0.027314 0.272109
0.081633 0.027276 0.271823
0.082892 0.027263 0.271780
0.084098 0.027233 0.271563
0.085512 0.027270 0.272019
0.086867 0.027287 0.272274
0.087915 0.027209 0.271571
0.089375 0.027259 0.272143
0.097995 0.029460 0.294192
0.099236 0.029411 0.293781
0.099047 0.028946 0.289207
0.100620 0.029002 0.289825
0.102156 0.029045 0.290322
0.103345 0.028990 0.289829
0.104535 0.028937 0.289350
0.106007 0.028962 0.289647
0.107365 0.028956 0.289626
0.108567 0.028908 0.289186
0.110476 0.029047 0.290613
0.113182 0.029030 0.290494
0.114508 0.029015 0.290358
0.116013 0.029045 0.290671
0.117595 0.029094 0.291159
0.118856 0.029062 0.290844
0.120228 0.029059 0.290797
0.121436 0.029016 0.290352
0.122751 0.028999 0.290160
0.124192 0.029012 0.290262
0.125207 0.028927 0.289368
0.126783 0.028971 0.289765
0.128229 0.028985 0.289851
0.129913 0.029052 0.290457
0.131623 0.029123 0.291099
0.132890 0.029096 0.290745
0.134627 0.029171 0.291406
0.135966 0.029159 0.291188
0.137560 0.029202 0.291504
0.139165 0.029246 0.291824
0.140154 0.029160 0.290844
0.141718 0.029195 0.291053
0.143866 0.029349 0.292429
0.145010 0.029296 0.291743
0.146653 0.029344 0.292048
0.148047 0.029342 0.291841
0.149543 0.029360 0.291818
0.151050 0.029380 0.291802
0.152238 0.029338 0.291158
-0.040669 0.010202 0.098192
-0.042706 0.010836 0.104288
-0.042495 0.010908 0.104971
-0.043001 0.011167 0.107459
-0.042858 0.011262 0.108363
-0.042640 0.011340 0.109095
-0.042341 0.011397 0.109633
-0.042016 0.011449 0.110115
-0.041860 0.011549 0.111057
-0.041994 0.011733 0.112796
-0.042768 0.012102 0.116322
-0.042567 0.012201 0.117249
-0.042445 0.012326 0.118419
-0.042473 0.012498 0.120043
-0.042997 0.012823 0.123128
-0.043192 0.013058 0.125342
-0.043103 0.013211 0.126781
-0.042847 0.013318 0.127760
-0.042875 0.013516 0.129623
-0.042935 0.013731 0.131638
-0.043487 0.014112 0.135240
-0.043103 0.014196 0.135993
-0.043166 0.014431 0.138201
-0.043047 0.014613 0.139883
-0.043169 0.014883 0.142413
-0.043172 0.015120 0.144620
-0.043379 0.015437 0.147594
-0.043228 0.015635 0.149425
-0.043295 0.015919 0.152079
-0.043479 0.016258 0.155244
-0.043603 0.016585 0.158297
-0.043824 0.016960 0.161813
-0.043760 0.017238 0.164384
-0.043622 0.017495 0.166763
-0.043596 0.017808 0.169667
-0.043457 0.018085 0.172234
-0.043386 0.018402 0.175171
-0.043111 0.018644 0.177387
-0.042992 0.018963 0.180343
-0.042955 0.019333 0.183770
-0.042931 0.019724 0.187400
-0.042783 0.020073 0.190628
-0.042773 0.020504 0.194625
-0.042671 0.020908 0.198375
-0.042646 0.021370 0.202659
-0.042172 0.021623 0.204963
-0.041893 0.021991 0.208349
-0.041292 0.022202 0.210258
-0.040934 0.022559 0.213535
-0.040960 0.023151 0.219037
-0.041164 0.023877 0.225809
-0.041112 0.024490 0.231499
-0.040663 0.024894 0.235211
-0.040210 0.025318 0.239112
-0.039958 0.025898 0.244483
-0.039706 0.026512 0.250173
-0.039540 0.027224 0.256783
-0.038910 0.027652 0.260715
-0.038346 0.028157 0.265366
-0.038050 0.028901 0.272266
-0.036859 0.028993 0.273031
-0.035582 0.029022 0.273198
-0.033402 0.029417 0.276705
-0.030064 0.027577 0.259307
-0.028615 0.027386 0.257417
-0.027363 0.027374 0.257218
-0.026129 0.027379 0.257188
-0.024876 0.027365 0.256970
-0.023684 0.027420 0.257406
-0.022410 0.027380 0.256961
-0.021173 0.027385 0.256933
-0.019896 0.027334 0.256387
-0.018834 0.027592 0.258734
-0.017977 0.028208 0.264447
-0.016927 0.028593 0.268000
-0.015445 0.028251 0.264732
-0.014978 0.029873 0.279870
-0.013630 0.029886 0.279937
-0.001441 0.029844 0.279234
-0.000088 0.029919 0.279917
0.005250 0.029437 0.275396
0.006180 0.027626 0.258456
0.007355 0.027341 0.255797
0.008616 0.027407 0.256433
0.009885 0.027480 0.257129
0.011111 0.027433 0.256704
0.012360 0.027442 0.256817
0.013667 0.027570 0.258037
0.014961 0.027651 0.258830
0.016279 0.027759 0.259877
0.017526 0.027741 0.259743
0.018818 0.027791 0.260255
0.020203 0.027963 0.261910
0.021553 0.028069 0.262947
0.023818 0.029289 0.274429
0.025131 0.029270 0.274314
0.026441 0.029251 0.274193
0.025900 0.027283 0.255803
0.027160 0.027305 0.256075
0.028439 0.027344 0.256500
0.029594 0.027265 0.255827
0.030872 0.027301 0.256234
0.032173 0.027354 0.256802
0.033453 0.027385 0.257172
0.034785 0.027455 0.257910
0.036163 0.027556 0.258934
0.037637 0.027720 0.260563
0.039117 0.027879 0.262136
0.040413 0.027899 0.262418
0.041849 0.028013 0.263578
0.042511 0.027617 0.259940
0.043575 0.027497 0.258902
0.044982 0.027594 0.259910
0.045595 0.027212 0.256406
0.046732 0.027155 0.255963
0.047865 0.027098 0.255522
0.048931 0.027007 0.254758
0.050205 0.027033 0.255100
0.051456 0.027045 0.255311
0.052820 0.027114 0.256066
0.054271 0.027224 0.257207
0.055668 0.027303 0.258046
0.057717 0.027691 0.261817
0.060123 0.028229 0.267015
0.062300 0.028641 0.271010
0.063419 0.028558 0.270339
0.064418 0.028426 0.269195
0.065964 0.028537 0.270344
0.067182 0.028503 0.270131
0.068394 0.028468 0.269905
0.069753 0.028495 0.270259
0.071077 0.028506 0.270468
0.072389 0.028513 0.270631
0.073722 0.028527 0.270865
0.075125 0.028567 0.271346
0.076510 0.028599 0.271747
0.077774 0.028586 0.271718
0.079049 0.028577 0.271723
0.080342 0.028574 0.271795
0.081622 0.028567 0.271817
0.082752 0.028509 0.271350
0.084073 0.028517 0.271512
0.085254 0.028478 0.271225
0.086589 0.028491 0.271427
0.087884 0.028491 0.271500
0.089217 0.028503 0.271685
0.097163 0.030596 0.291716
0.098393 0.030546 0.291309
0.099146 0.030351 0.289514
0.099250 0.029965 0.285898
0.101526 0.030237 0.288550
0.103568 0.030432 0.290469
0.104905 0.030418 0.290386
0.106196 0.030391 0.290177
0.107477 0.030362 0.289941
0.109363 0.030503 0.291317
0.110660 0.030477 0.291106
0.112069 0.030483 0.291186
0.113333 0.030449 0.290886
0.114675 0.030437 0.290786
0.115983 0.030417 0.290597
0.117362 0.030415 0.290583
0.118674 0.030396 0.290395
0.120091 0.030404 0.290462
0.121332 0.030368 0.290098
0.122476 0.030308 0.289505
0.123752 0.030283 0.289226
0.125441 0.030357 0.289898
0.126691 0.030325 0.289543
0.128352 0.030391 0.290116
0.129658 0.030372 0.289872
0.131814 0.030551 0.291503
0.133519 0.030622 0.292103
0.133716 0.030350 0.289414
0.136564 0.030678 0.292446
0.137898 0.030664 0.292196
0.139268 0.030657 0.292012
0.140921 0.030713 0.292407
0.142272 0.030702 0.292159
0.143439 0.030651 0.291527
0.144972 0.030680 0.291630
0.146484 0.030703 0.291674
0.147988 0.030724 0.291685
0.149730 0.030794 0.292142
0.150888 0.030743 0.291445
0.152142 0.030713 0.290928
-0.040966 0.010743 0.098910
-0.042882 0.011374 0.104720
-0.042860 0.011500 0.105875
-0.043137 0.011710 0.107801
-0.043276 0.011888 0.109425
-0.043007 0.011956 0.110039
-0.042475 0.011952 0.109985
-0.042215 0.012025 0.110642
-0.042274 0.012192 0.112161
-0.042763 0.012489 0.114868
-0.042757 0.012647 0.116298
-0.042576 0.012757 0.117280
-0.042347 0.012855 0.118154
-0.041991 0.012917 0.118690
-0.042888 0.013371 0.122827
-0.043384 0.013711 0.125913
-0.043469 0.013928 0.127868
-0.043037 0.013983 0.128338
-0.042868 0.014127 0.129615
-0.042838 0.014321 0.131354
-0.043375 0.014714 0.134908
-0.043297 0.014906 0.136624
-0.043159 0.015084 0.138196
-0.043122 0.015302 0.140145
-0.043208 0.015572 0.142559
-0.043280 0.015845 0.145003
-0.043221 0.016078 0.147077
-0.043118 0.016302 0.149067
-0.043023 0.016537 0.151148
-0.043423 0.016973 0.155070
-0.044067 0.017521 0.160007
-0.043997 0.017800 0.162480
-0.043825 0.018046 0.164657
-0.043714 0.018327 0.167147
-0.043585 0.018611 0.169657
-0.043344 0.018856 0.171818
-0.043189 0.019150 0.174411
-0.043065 0.019468 0.177233
-0.043039 0.019845 0.180576
-0.043073 0.020265 0.184314
-0.042868 0.020588 0.187165
-0.042667 0.020926 0.190153
-0.042502 0.021298 0.193437
-0.042931 0.021990 0.199632
-0.042643 0.022338 0.202695
-0.042252 0.022647 0.205403
-0.041739 0.022903 0.207632
-0.041165 0.023138 0.209663
-0.040662 0.023426 0.212175
-0.040702 0.024048 0.217717
-0.041226 0.024998 0.226208
-0.041285 0.025708 0.232535
-0.040796 0.026108 0.236044
-0.040293 0.026521 0.239675
-0.039924 0.027049 0.244341
-0.039841 0.027809 0.251100
-0.039643 0.028533 0.257529
-0.039110 0.029055 0.262136
-0.038464 0.029525 0.266270
-0.038083 0.030238 0.272587
-0.036884 0.030329 0.273302
-0.036020 0.030712 0.276647
-0.034723 0.030742 0.276810
-0.033374 0.030726 0.276566
-0.030054 0.028819 0.259307
-0.028609 0.028622 0.257452
-0.027401 0.028655 0.257660
-0.026148 0.028643 0.257466
-0.024882 0.028613 0.257121
-0.023698 0.028681 0.257649
-0.022425 0.028643 0.257232
-0.021161 0.028611 0.256872
-0.019924 0.028615 0.256846
-0.018889 0.028929 0.259597
-0.018099 0.029690 0.266354
-0.016962 0.029954 0.268660
-0.015410 0.029468 0.264246
-0.014599 0.030440 0.272910
-0.013286 0.030454 0.272976
-0.001438 0.031170 0.279090
-0.000084 0.030300 0.271286
0.001230 0.030301 0.271283
0.005247 0.030745 0.275253
0.006157 0.028768 0.257554
0.007360 0.028591 0.255981
0.008630 0.028693 0.256909
0.009878 0.028701 0.256996
0.011111 0.028671 0.256743
0.012370 0.028707 0.257085
0.013639 0.028757 0.257559
0.014912 0.028806 0.258030
0.016159 0.028802 0.258033
0.017475 0.028912 0.259050
0.018767 0.028970 0.259613
0.020141 0.029139 0.261174
0.021490 0.029254 0.262245
0.022777 0.029276 0.262500
0.034575 0.029585 0.265862
0.035968 0.029675 0.266749
0.038050 0.030307 0.272515
0.039328 0.030278 0.272336
0.040114 0.029884 0.268882
0.040947 0.029548 0.265951
0.042060 0.029429 0.264969
0.042892 0.029126 0.262330
0.043696 0.028822 0.259682
0.044721 0.028677 0.258462
0.045723 0.028525 0.257186
0.046681 0.028353 0.255735
0.047897 0.028344 0.255747
0.049100 0.028328 0.255696
0.050191 0.028249 0.255081
0.051612 0.028356 0.256140
0.052736 0.028297 0.255711
0.054436 0.028544 0.258039
0.056252 0.028839 0.260804
0.057924 0.029049 0.262804
0.060104 0.029499 0.266984
0.061949 0.029770 0.269533
0.063204 0.029751 0.269473
0.064480 0.029743 0.269501
0.065924 0.029811 0.270224
0.067273 0.029835 0.270542
0.068485 0.029798 0.270308
0.069717 0.029770 0.270161
0.071038 0.029782 0.270362
0.072245 0.029745 0.270131
0.073485 0.029724 0.270033
0.074841 0.029749 0.270359
0.076208 0.029777 0.270711
0.077620 0.029822 0.271214
0.078988 0.029849 0.271548
0.080209 0.029820 0.271377
0.081591 0.029851 0.271746
0.082961 0.029876 0.272066
0.084155 0.029839 0.271806
0.085447 0.029837 0.271866
0.086662 0.029808 0.271683
0.088005 0.029823 0.271898
0.089378 0.029848 0.272199
0.093359 0.030731 0.280318
0.098747 0.032045 0.292377
0.099216 0.031749 0.289739
0.100660 0.031768 0.289978
0.101856 0.031710 0.289504
0.104776 0.031758 0.290043
0.106046 0.031724 0.289780
0.107520 0.031751 0.290066
0.108674 0.031684 0.289491
0.110319 0.031760 0.290216
0.111493 0.031701 0.289694
0.114419 0.031746 0.290140
0.117544 0.031843 0.291032
0.118708 0.031783 0.290478
0.120066 0.031776 0.290396
0.121174 0.031703 0.289714
0.122575 0.031708 0.289731
0.123762 0.031658 0.289239
0.124863 0.031587 0.288550
0.126305 0.031603 0.288649
0.127958 0.031671 0.289211
0.129492 0.031708 0.289484
0.131683 0.031904 0.291196
0.132514 0.031770 0.289884
0.135820 0.032225 0.293945
0.136327 0.032014 0.291914
0.137610 0.031987 0.291558
0.139496 0.032100 0.292461
0.139930 0.031879 0.290319
0.142903 0.032236 0.293422
0.144092 0.032187 0.292820
0.145497 0.032187 0.292648
0.146817 0.032168 0.292297
0.148122 0.032146 0.291906
0.149626 0.032168 0.291895
0.151012 0.032164 0.291637
0.152075 0.032091 0.290751
-0.041356 0.011315 0.099851
-0.043426 0.012018 0.106050
-0.043194 0.012093 0.106703
-0.043216 0.012241 0.108003
-0.042940 0.012307 0.108578
-0.042707 0.012388 0.109274
-0.042314 0.012423 0.109575
-0.042041 0.012495 0.110191
-0.041936 0.012620 0.111269
-0.042094 0.012827 0.113079
-0.042875 0.013233 0.116628
-0.042553 0.013304 0.117228
-0.043095 0.013650 0.120251
-0.042601 0.013673 0.120424
-0.043226 0.014061 0.123808
-0.043548 0.014359 0.126399
-0.043328 0.014485 0.127468
-0.043272 0.014670 0.129053
-0.043572 0.014982 0.131759
-0.043464 0.015161 0.133289
-0.043329 0.015336 0.134781
-0.043069 0.015471 0.135921
-0.042937 0.015657 0.137503
-0.043112 0.015962 0.140134
-0.043394 0.016317 0.143193
-0.043408 0.016581 0.145453
-0.043124 0.016738 0.146771
-0.043088 0.016997 0.148985
-0.042898 0.017204 0.150736
-0.043380 0.017692 0.154943
-0.043914 0.018218 0.159483
-0.044163 0.018642 0.163123
-0.044079 0.018938 0.165645
-0.043919 0.019212 0.167964
-0.043572 0.019412 0.169642
-0.043282 0.019646 0.171606
-0.043091 0.019935 0.174053
-0.042965 0.020266 0.176858
-0.042911 0.020644 0.180079
-0.042913 0.021066 0.183673
-0.043016 0.021555 0.187852
-0.042909 0.021958 0.191275
-0.042890 0.022424 0.195249
-0.042891 0.022923 0.199495
-0.042563 0.023263 0.202363
-0.042120 0.023555 0.204813
-0.041666 0.023855 0.207325
-0.041018 0.024055 0.208969
-0.040671 0.024447 0.212278
-0.042290 0.026071 0.226273
-0.041261 0.026104 0.226459
-0.041230 0.026788 0.232288
-0.040508 0.027048 0.234446
-0.040131 0.027560 0.238778
-0.039805 0.028138 0.243686
-0.040987 0.029850 0.258395
-0.039792 0.029883 0.258578
-0.039049 0.030268 0.261804
-0.038566 0.030888 0.267055
-0.038055 0.031527 0.272473
-0.036846 0.031612 0.273105
-0.035123 0.031247 0.269849
-0.034724 0.032077 0.276915
-0.033424 0.032107 0.277071
-0.029763 0.029779 0.256888
-0.028608 0.029863 0.257532
-0.027372 0.029867 0.257475
-0.026135 0.029871 0.257424
-0.024900 0.029878 0.257407
-0.023654 0.029870 0.257264
-0.022414 0.029871 0.257195
-0.021139 0.029822 0.256700
-0.019891 0.029808 0.256515
-0.018908 0.030216 0.259957
-0.017957 0.030737 0.264374
-0.016950 0.031233 0.268579
-0.015393 0.030713 0.264056
-0.014361 0.031245 0.268570
-0.013069 0.031258 0.268635
-0.011775 0.031271 0.268693
-0.010277 0.030677 0.263549
-0.008825 0.030071 0.258300
-0.007504 0.029788 0.255839
-0.006280 0.029849 0.256334
-0.005070 0.030031 0.257870
-0.003849 0.030238 0.259622
-0.002600 0.030329 0.260380
-0.001341 0.030367 0.260688
-0.000081 0.030943 0.265622
0.001216 0.031231 0.268082
0.002470 0.030688 0.263414
0.003862 0.031639 0.271571
0.005229 0.031958 0.274316
0.006178 0.030110 0.258459
0.007348 0.029778 0.255617
0.008586 0.029779 0.255638
0.009866 0.029906 0.256743
0.011112 0.029913 0.256816
0.012333 0.029858 0.256373
0.013607 0.029930 0.257013
0.014896 0.030021 0.257825
0.016184 0.030093 0.258481
0.017480 0.030172 0.259190
0.018791 0.030263 0.260012
0.020146 0.030407 0.261298
0.021462 0.030480 0.261972
0.022759 0.030520 0.262359
0.034145 0.031659 0.272682
0.034548 0.030843 0.265723
0.035940 0.030936 0.266610
0.037403 0.031082 0.267949
0.038826 0.031186 0.268928
0.039840 0.030965 0.267109
0.040889 0.030785 0.265641
0.042478 0.031010 0.267667
0.043452 0.030785 0.265820
0.043834 0.030166 0.260560
0.044245 0.029601 0.255772
0.045362 0.029526 0.255214
0.046658 0.029568 0.255671
0.047641 0.029415 0.254438
0.048788 0.029367 0.254123
0.049981 0.029350 0.254067
0.051108 0.029295 0.253689
0.052396 0.029333 0.254113
0.053610 0.029329 0.254177
0.054779 0.029301 0.254029
0.056421 0.029522 0.256038
0.059757 0.030600 0.265494
0.062048 0.031110 0.270018
0.063020 0.030951 0.268738
0.064317 0.030954 0.268871
0.065930 0.031106 0.270297
0.067169 0.031080 0.270167
0.068449 0.031073 0.270210
0.069715 0.031060 0.270197
0.071048 0.031077 0.270442
0.072263 0.031042 0.270242
0.073575 0.031050 0.270404
0.074833 0.031035 0.270367
0.076351 0.031126 0.271258
0.077429 0.031038 0.270582
0.078856 0.031090 0.271129
0.080079 0.031062 0.270969
0.081357 0.031056 0.270999
0.082864 0.031135 0.271777
0.084105 0.031114 0.271675
0.085626 0.031195 0.272462
0.086845 0.031166 0.272281
0.088274 0.031211 0.272754
0.090372 0.031488 0.275248
0.093507 0.032114 0.280786
0.098714 0.033423 0.292301
0.099298 0.033153 0.290000
0.100789 0.033188 0.290369
0.102383 0.033256 0.291020
0.103450 0.033153 0.290172
0.104884 0.033169 0.290357
0.106054 0.033102 0.289813
0.107277 0.033053 0.289423
0.108902 0.033128 0.290108
0.110165 0.033091 0.289819
0.111879 0.033190 0.290703
0.113048 0.033126 0.290162
0.114485 0.033142 0.290310
0.115905 0.033152 0.290403
0.117183 0.033122 0.290136
0.118436 0.033085 0.289809
0.119759 0.033069 0.289650
0.121337 0.033123 0.290098
0.122274 0.033002 0.289011
0.123651 0.033001 0.288970
0.125207 0.033048 0.289333
0.126454 0.033013 0.288976
0.127661 0.032968 0.288522
0.129311 0.033038 0.289062
0.130757 0.033054 0.289127
0.132906 0.033246 0.290720
0.133416 0.033028 0.288717
0.135733 0.033257 0.290617
0.137851 0.033433 0.292042
0.139017 0.033377 0.291426
0.140615 0.033425 0.291707
0.141836 0.033383 0.291196
0.142764 0.033274 0.290083
0.144654 0.033389 0.290915
0.146532 0.033499 0.291688
0.147883 0.033487 0.291392
0.149266 0.033483 0.291146
0.150876 0.033529 0.291327
0.152261 0.033524 0.291053
-0.041852 0.011794 0.099916
-0.040777 0.011621 0.098455
-0.043761 0.012615 0.106868
-0.043191 0.012595 0.106695
-0.043238 0.012757 0.108059
-0.042915 0.012812 0.108519
-0.042530 0.012850 0.108826
-0.042186 0.012901 0.109248
-0.041966 0.012992 0.110001
-0.042135 0.013207 0.111805
-0.042472 0.013481 0.114100
-0.042690 0.013724 0.116133
-0.042373 0.013798 0.116740
-0.042342 0.013969 0.118160
-0.042319 0.014148 0.119638
-0.042407 0.014368 0.121471
-0.042694 0.014663 0.123932
-0.042916 0.014944 0.126268
-0.043140 0.015233 0.128674
-0.043518 0.015586 0.131610
-0.043306 0.015734 0.132821
-0.043388 0.015995 0.134980
-0.042959 0.016073 0.135592
-0.042685 0.016212 0.136716
-0.042902 0.016545 0.139469
-0.043080 0.016873 0.142180
-0.043486 0.017302 0.145737
-0.043333 0.017519 0.147506
-0.042956 0.017650 0.148553
-0.043015 0.017969 0.151173
-0.043250 0.018372 0.154504
-0.044185 0.019093 0.160496
-0.043950 0.019323 0.162367
-0.043941 0.019664 0.165158
-0.043812 0.019962 0.167585
-0.043678 0.020269 0.170087
-0.043391 0.020515 0.172075
-0.043022 0.020731 0.173809
-0.043024 0.021137 0.177140
-0.042953 0.021524 0.180298
-0.043087 0.022031 0.184459
-0.043007 0.022447 0.187858
-0.043171 0.023011 0.192492
-0.042916 0.023371 0.195417
-0.042783 0.023816 0.199040
-0.042486 0.024187 0.202050
-0.042063 0.024502 0.204587
-0.041531 0.024767 0.206708
-0.040938 0.025007 0.208621
-0.040421 0.025307 0.211028
-0.040706 0.026138 0.217860
-0.041331 0.027236 0.226909
-0.041141 0.027842 0.231858
-0.040622 0.028252 0.235175
-0.040258 0.028798 0.239610
-0.039756 0.029273 0.243462
-0.040865 0.030999 0.257710
-0.039674 0.031034 0.257892
-0.039085 0.031557 0.262133
-0.038352 0.031994 0.265659
-0.038085 0.032864 0.272777
-0.036758 0.032849 0.272549
-0.035257 0.032671 0.270970
-0.034653 0.033343 0.276443
-0.033287 0.033306 0.276036
-0.029735 0.030987 0.256730
-0.028581 0.031076 0.257374
-0.027364 0.031101 0.257497
-0.026119 0.031095 0.257366
-0.024886 0.031104 0.257359
-0.023660 0.031121 0.257428
-0.022449 0.031163 0.257700
-0.021190 0.031139 0.257427
-0.019920 0.031094 0.256988
-0.018946 0.031537 0.260585
-0.017957 0.032015 0.264471
-0.016900 0.032437 0.267894
-0.015386 0.031979 0.264057
-0.014256 0.032308 0.266718
-0.013050 0.032514 0.268374
-0.011605 0.032104 0.264939
-0.010267 0.031923 0.263402
-0.008996 0.031933 0.263447
-0.007674 0.031734 0.261767
-0.006385 0.031616 0.260763
-0.005152 0.031795 0.262208
-0.003889 0.031833 0.262500
-0.002625 0.031915 0.263153
-0.001346 0.031774 0.261978
-0.000080 0.032345 0.266673
0.001218 0.032555 0.268392
0.002471 0.031949 0.263387
0.003823 0.032612 0.268849
0.005166 0.032874 0.271010
0.006240 0.031666 0.261059
0.007398 0.031223 0.257416
0.008661 0.031284 0.257928
0.009924 0.031328 0.258309
0.011110 0.031148 0.256845
0.012390 0.031239 0.257618
0.013664 0.031302 0.258158
0.014953 0.031384 0.258865
0.016249 0.031468 0.259593
0.017637 0.031705 0.261587
0.018909 0.031715 0.261709
0.020245 0.031825 0.262655
0.021696 0.032092 0.264907
0.022965 0.032073 0.264802
0.032829 0.032975 0.272688
0.034118 0.032947 0.272533
0.035391 0.032907 0.272282
0.036626 0.032836 0.271770
0.037850 0.032760 0.271221
0.039079 0.032693 0.270752
0.039849 0.032258 0.267235
0.040748 0.031953 0.264791
0.042346 0.032197 0.266903
0.043330 0.031973 0.265136
0.043773 0.031375 0.260263
0.044193 0.030794 0.255532
0.045448 0.030810 0.255757
0.046586 0.030748 0.255335
0.047768 0.030718 0.255174
0.048953 0.030691 0.255041
0.050193 0.030698 0.255201
0.051361 0.030663 0.255001
0.052587 0.030663 0.255096
0.053722 0.030611 0.254762
0.054957 0.030617 0.254907
0.057060 0.031096 0.258990
0.059766 0.031876 0.265586
0.061857 0.032302 0.269237
0.063046 0.032249 0.268900
0.064249 0.032206 0.268636
0.065735 0.032303 0.269545
0.067079 0.032328 0.269855
0.068320 0.032303 0.269748
0.069523 0.032261 0.269498
0.070807 0.032258 0.269570
0.072199 0.032303 0.270044
0.073517 0.032314 0.270231
0.074740 0.032284 0.270070
0.076171 0.032343 0.270658
0.077771 0.032471 0.271817
0.079403 0.032607 0.273046
0.080542 0.032540 0.272571
0.081953 0.032583 0.273017
0.083332 0.032612 0.273343
0.084807 0.032677 0.273972
0.086067 0.032659 0.273895
0.087156 0.032577 0.273283
0.088733 0.032677 0.274199
0.089983 0.032656 0.274087
0.093621 0.033489 0.281153
0.098488 0.034732 0.291655
0.099304 0.034532 0.290038
0.100720 0.034544 0.290190
0.102070 0.034532 0.290147
0.103312 0.034485 0.289799
0.104537 0.034433 0.289410
0.105891 0.034424 0.289380
0.107370 0.034456 0.289684
0.108479 0.034370 0.288990
0.110441 0.034553 0.290551
0.111686 0.034510 0.290208
0.113268 0.034570 0.290731
0.114606 0.034556 0.290618
0.115937 0.034539 0.290482
0.117301 0.034533 0.290428
0.118607 0.034510 0.290222
0.120007 0.034515 0.290245
0.121214 0.034464 0.289797
0.122921 0.034555 0.290530
0.124033 0.034479 0.289851
0.125589 0.034526 0.290202
0.126981 0.034528 0.290165
0.128302 0.034511 0.289956
0.129612 0.034491 0.289716
0.130884 0.034461 0.289387
0.132386 0.034492 0.289559
0.134383 0.034650 0.290785
0.135518 0.034585 0.290129
0.137698 0.034784 0.291687
0.138847 0.034722 0.291037
0.140292 0.034735 0.291003
0.142042 0.034822 0.291582
0.143712 0.034887 0.291969
0.145249 0.034920 0.292068
0.146637 0.034916 0.291852
0.148071 0.034924 0.291716
0.149574 0.034947 0.291698
0.151000 0.034951 0.291513
0.152182 0.034900 0.290849
-0.040780 0.012086 0.098461
-0.043740 0.013112 0.106817
-0.043434 0.013171 0.107299
-0.043232 0.013264 0.108048
-0.042951 0.013335 0.108612
-0.042690 0.013413 0.109239
-0.042292 0.013450 0.109527
-0.042168 0.013576 0.110536
-0.042326 0.013797 0.112318
-0.042616 0.014066 0.114495
-0.042648 0.014257 0.116027
-0.042432 0.014369 0.116911
-0.042119 0.014450 0.117545
-0.041889 0.014563 0.118431
-0.041881 0.014757 0.119977
-0.041990 0.014997 0.121900
-0.042603 0.015427 0.125360
-0.043248 0.015881 0.129009
-0.043468 0.016189 0.131475
-0.043171 0.016311 0.132424
-0.043012 0.016490 0.133829
-0.042730 0.016626 0.134885
-0.042555 0.016808 0.136318
-0.042641 0.017101 0.138642
-0.043218 0.017603 0.142656
-0.043360 0.017940 0.145338
-0.043373 0.018235 0.147665
-0.043028 0.018385 0.148827
-0.042756 0.018573 0.150287
-0.042885 0.018944 0.153229
-0.044055 0.019796 0.160053
-0.043866 0.020056 0.162088
-0.043772 0.020370 0.164554
-0.043913 0.020807 0.168006
-0.043653 0.021066 0.170024
-0.043342 0.021310 0.171920
-0.043145 0.021620 0.174346
-0.043052 0.021996 0.177296
-0.043054 0.022436 0.180760
-0.043126 0.022931 0.184671
-0.043008 0.023344 0.187910
-0.043138 0.023911 0.192391
-0.042824 0.024253 0.195049
-0.042738 0.024741 0.198884
-0.042458 0.025136 0.201970
-0.042060 0.025478 0.204628
-0.041603 0.025800 0.207122
-0.041053 0.026078 0.209263
-0.040724 0.026515 0.212673
-0.042465 0.028356 0.227336
-0.041430 0.028391 0.227522
-0.041150 0.028959 0.231974
-0.040739 0.029465 0.235925
-0.040159 0.029873 0.239092
-0.039831 0.030499 0.243996
-0.040960 0.032312 0.258391
-0.039766 0.032348 0.258573
-0.039093 0.032823 0.262272
-0.038672 0.033550 0.267969
-0.038165 0.034248 0.273445
-0.036674 0.034083 0.272019
-0.035154 0.033877 0.270273
-0.034702 0.034724 0.276933
-0.033402 0.034756 0.277089
-0.029728 0.032218 0.256765
-0.028517 0.032245 0.256899
-0.027332 0.032305 0.257291
-0.026087 0.032298 0.257149
-0.024860 0.032311 0.257180
-0.023642 0.032341 0.257339
-0.022420 0.032367 0.257471
-0.021185 0.032376 0.257473
-0.019919 0.032335 0.257084
-0.018847 0.032627 0.259335
-0.018061 0.033488 0.266121
-0.016895 0.033725 0.267941
-0.015373 0.033230 0.263955
-0.014400 0.033940 0.269535
-0.012946 0.033544 0.266345
-0.011338 0.032621 0.258967
-0.010002 0.032344 0.256730
-0.008844 0.032652 0.259138
-0.007535 0.032406 0.257146
-0.006308 0.032490 0.257783
-0.005085 0.032638 0.258933
-0.003845 0.032740 0.259713
-0.002606 0.032956 0.261408
-0.001343 0.033005 0.261777
-0.000078 0.033449 0.265285
0.001219 0.033831 0.268308
0.002476 0.033271 0.263859
0.003877 0.034373 0.272595
0.005234 0.034629 0.274627
0.006514 0.034368 0.272564
0.007632 0.033487 0.265583
0.008922 0.033504 0.265733
0.010216 0.033533 0.265973
0.011486 0.033482 0.265594
0.012807 0.033576 0.266363
0.014157 0.033722 0.267540
0.015464 0.033750 0.267794
0.016756 0.033742 0.267769
0.018029 0.033700 0.267469
0.019314 0.033684 0.267381
0.020470 0.033460 0.265645
0.021706 0.033384 0.265090
0.023443 0.034046 0.270394
0.024735 0.034025 0.270281
0.025940 0.033891 0.269276
0.027285 0.033945 0.269767
0.028561 0.033913 0.269569
0.029844 0.033891 0.269458
0.031138 0.033882 0.269457
0.032593 0.034042 0.270801
0.033931 0.034073 0.271118
0.035198 0.034032 0.270873
0.036487 0.034015 0.270811
0.037782 0.034004 0.270807
0.039034 0.033956 0.270506
0.039912 0.033597 0.267727
0.041123 0.033532 0.267295
0.042597 0.033678 0.268548
0.043678 0.033515 0.267336
0.043718 0.032584 0.259999
0.043954 0.031848 0.254213
0.045243 0.031894 0.254664
0.046500 0.031915 0.254924
0.047563 0.031805 0.254139
0.048811 0.031822 0.254363
0.050036 0.031823 0.254463
0.051323 0.031862 0.254869
0.052580 0.031881 0.255117
0.053693 0.031815 0.254677
0.055159 0.031955 0.255899
0.056999 0.032302 0.258768
0.059250 0.032861 0.263344
0.061647 0.033476 0.268378
0.062960 0.033489 0.268583
0.064268 0.033500 0.268764
0.065641 0.033543 0.269212
0.067112 0.033634 0.270036
0.068442 0.033651 0.270274
0.069702 0.033634 0.270237
0.071014 0.033643 0.270404
0.073490 0.034192 0.274917
0.076418 0.034929 0.280937
0.078544 0.035280 0.283859
0.079780 0.035226 0.283521
0.081955 0.035582 0.286479
0.083366 0.035600 0.286712
0.085359 0.035861 0.288909
0.086490 0.035758 0.288165
0.088061 0.035837 0.288890
0.089501 0.035861 0.289168
0.089396 0.035275 0.284520
0.091168 0.035436 0.285892
0.092736 0.035514 0.286596
0.093953 0.035457 0.286207
0.093040 0.034609 0.279429
0.098557 0.036143 0.291883
0.099135 0.035849 0.289564
0.101939 0.035864 0.289793
0.103155 0.035806 0.289376
0.104506 0.035796 0.289340
0.105698 0.035733 0.288867
0.107004 0.035709 0.288707
0.108249 0.035666 0.288386
0.110054 0.035806 0.289542
0.112045 0.036002 0.291146
0.113223 0.035935 0.290619
0.114437 0.035882 0.290192
0.115801 0.035876 0.290143
0.117349 0.035926 0.290544
0.117548 0.035567 0.287626
0.118444 0.035425 0.286458
0.121534 0.035934 0.290551
0.122986 0.035953 0.290673
0.124117 0.035879 0.290035
0.125626 0.035915 0.290274
0.127173 0.035961 0.290586
0.128159 0.035848 0.289614
0.129491 0.035834 0.289424
0.130988 0.035865 0.289595
0.133947 0.036292 0.292947
0.133337 0.035752 0.288494
0.134807 0.035776 0.288576
0.137792 0.036197 0.291853
0.139065 0.036165 0.291461
0.140559 0.036190 0.291520
0.141692 0.036122 0.290823
0.143432 0.036209 0.291360
0.145119 0.036281 0.291763
0.146524 0.036282 0.291580
0.147843 0.036262 0.291217
0.149308 0.036277 0.291126
0.150998 0.036346 0.291454
0.152338 0.036330 0.291089
-0.044118 0.013577 0.106521
-0.043689 0.013600 0.106695
-0.043386 0.013662 0.107180
-0.043264 0.013784 0.108129
-0.042828 0.013807 0.108304
-0.042439 0.013846 0.108602
-0.042196 0.013934 0.109282
-0.041927 0.014016 0.109909
-0.042099 0.014249 0.111720
-0.042621 0.014608 0.114517
-0.043122 0.014969 0.117323
-0.043448 0.015278 0.119718
-0.042987 0.015314 0.119977
-0.042459 0.015328 0.120053
-0.042317 0.015483 0.121237
-0.041765 0.015489 0.121259
-0.042240 0.015883 0.124306
-0.043094 0.016432 0.128565
-0.043443 0.016801 0.131416
-0.043354 0.017009 0.133002
-0.043016 0.017124 0.133857
-0.042592 0.017208 0.134468
-0.042420 0.017398 0.135906
-0.042470 0.017686 0.138106
-0.042910 0.018148 0.141662
-0.043327 0.018615 0.145248
-0.043384 0.018939 0.147725
-0.043148 0.019145 0.149270
-0.043055 0.019421 0.151367
-0.043262 0.019845 0.154603
-0.043545 0.020318 0.158228
-0.043677 0.020737 0.161420
-0.043856 0.021193 0.164904
-0.043964 0.021631 0.168239
-0.043755 0.021926 0.170457
-0.043428 0.022172 0.172297
-0.043089 0.022421 0.174156
-0.043049 0.022839 0.177324
-0.042986 0.023260 0.180519
-0.043249 0.023879 0.185241
-0.043414 0.024469 0.189729
-0.043136 0.024829 0.192433
-0.042769 0.025151 0.194847
-0.042613 0.025615 0.198355
-0.042352 0.026036 0.201518
-0.042033 0.026440 0.204555
-0.041642 0.026816 0.207375
-0.041021 0.027059 0.209160
-0.040885 0.027642 0.213577
-0.042396 0.029397 0.227037
-0.041363 0.029434 0.227222
-0.041074 0.030017 0.231622
-0.040719 0.030581 0.235879
-0.040213 0.031062 0.239488
-0.039778 0.031628 0.243750
-0.040992 0.033578 0.258675
-0.039797 0.033616 0.258857
-0.039451 0.034396 0.264762
-0.038941 0.035080 0.269922
-0.038091 0.035494 0.273006
-0.036870 0.035581 0.273568
-0.034987 0.035010 0.269081
-0.034710 0.036066 0.277093
-0.033409 0.036098 0.277248
-0.029708 0.033433 0.256689
-0.028506 0.033471 0.256895
-0.027338 0.033554 0.257445
-0.026124 0.033586 0.257612
-0.024875 0.033574 0.257444
-0.023658 0.033606 0.257616
-0.022458 0.033667 0.258011
-0.021192 0.033631 0.257664
-0.019953 0.033635 0.257628
-0.018881 0.033941 0.259905
-0.017891 0.034448 0.263725
-0.016901 0.035033 0.268144
-0.015364 0.034488 0.263919
-0.014385 0.035208 0.269373
-0.012959 0.034870 0.266735
-0.011264 0.033656 0.257408
-0.009978 0.033511 0.256255
-0.008745 0.033531 0.256371
-0.007515 0.033566 0.256606
-0.006285 0.033621 0.256997
-0.005056 0.033711 0.257659
-0.003822 0.033812 0.258404
-0.002575 0.033840 0.258595
-0.001335 0.034095 0.260526
-0.000075 0.034228 0.261531
0.001201 0.034565 0.264096
0.002476 0.034536 0.263871
0.003779 0.034779 0.265723
0.005087 0.034934 0.266909
0.006344 0.034747 0.265482
0.007654 0.034866 0.266400
0.008975 0.034990 0.267361
0.010232 0.034867 0.266432
0.011560 0.034986 0.267362
0.012895 0.035099 0.268250
0.014205 0.035131 0.268520
0.015523 0.035173 0.268874
0.016827 0.035182 0.268975
0.018038 0.035006 0.267668
0.019323 0.034990 0.267580
0.020493 0.034781 0.266024
0.021820 0.034846 0.266567
0.023096 0.034826 0.266462
0.024221 0.034594 0.264739
0.025193 0.034177 0.261603
0.026712 0.034505 0.264175
0.027984 0.034500 0.264195
0.029818 0.035158 0.269299
0.030386 0.034330 0.263020
0.032565 0.035316 0.270641
0.033902 0.035348 0.270958
0.034490 0.034625 0.265493
0.035735 0.034590 0.265299
0.037145 0.034712 0.266311
0.038356 0.034645 0.265881
0.039548 0.034567 0.265362
0.040761 0.034511 0.265013
0.042213 0.034654 0.266200
0.043567 0.034711 0.266725
0.043638 0.033772 0.259591
0.043855 0.032994 0.253701
0.045117 0.033024 0.254017
0.046347 0.033030 0.254149
0.047471 0.032961 0.253709
0.048655 0.032936 0.253611
0.049885 0.032943 0.253756
0.051101 0.032941 0.253829
0.052352 0.032960 0.254071
0.053538 0.032939 0.253997
0.054658 0.032879 0.253626
0.056501 0.033247 0.256561
0.058870 0.033902 0.261710
0.061638 0.034754 0.268390
0.062947 0.034766 0.268580
0.064032 0.034657 0.267832
0.065639 0.034828 0.269254
0.067037 0.034884 0.269783
0.068425 0.034933 0.270257
0.069712 0.034929 0.270325
0.071324 0.035085 0.271627
0.073438 0.035479 0.274768
0.076364 0.036243 0.280785
0.078267 0.036504 0.282901
0.079165 0.036296 0.281380
0.080411 0.036251 0.281121
0.082128 0.036416 0.282494
0.083576 0.036459 0.282913
0.084888 0.036442 0.282866
0.086148 0.036403 0.282647
0.087364 0.036348 0.282295
0.088631 0.036314 0.282114
0.089883 0.036276 0.281893
0.091295 0.036303 0.282170
0.092494 0.036245 0.281787
0.097092 0.037502 0.291623
0.098325 0.037441 0.291218
0.099337 0.037300 0.290176
0.100554 0.037238 0.289750
0.101949 0.037243 0.289839
0.103393 0.037265 0.290060
0.104727 0.037248 0.289965
0.106025 0.037218 0.289772
0.107563 0.037273 0.290225
0.108954 0.037275 0.290271
0.110527 0.037339 0.290793
0.111970 0.037358 0.290955
0.113141 0.037287 0.290410
0.114507 0.037281 0.290370
0.115863 0.037272 0.290297
0.117529 0.037361 0.290985
0.118598 0.037261 0.290190
0.119812 0.037208 0.289758
0.121799 0.037394 0.291176
0.123069 0.037358 0.290859
0.124294 0.037309 0.290435
0.125662 0.037304 0.290343
0.126736 0.037212 0.289569
0.128144 0.037219 0.289558
0.129435 0.037193 0.289278
0.130571 0.037123 0.288647
0.132249 0.037206 0.289206
0.134500 0.037448 0.290981
0.135615 0.037372 0.290274
0.137346 0.037465 0.290875
0.138955 0.037523 0.291193
0.139668 0.037341 0.289635
0.141553 0.037472 0.290496
0.143119 0.037517 0.290681
0.144892 0.037615 0.291261
0.146433 0.037651 0.291351
0.148077 0.037713 0.291624
0.149386 0.037689 0.291223
0.150904 0.037718 0.291216
0.152210 0.037693 0.290784
-0.043543 0.014055 0.106338
-0.043104 0.014075 0.106485
-0.042730 0.014117 0.106796
-0.042352 0.014158 0.107103
-0.042075 0.014235 0.107674
-0.041822 0.014321 0.108316
-0.041524 0.014395 0.108857
-0.041669 0.014625 0.110585
-0.042309 0.015037 0.113683
-0.042930 0.015454 0.116808
-0.042573 0.015524 0.117315
-0.041973 0.015506 0.117156
-0.041716 0.015616 0.117963
-0.041100 0.015593 0.117761
-0.040755 0.015674 0.118340
-0.041097 0.016025 0.120956
-0.042792 0.016920 0.127679
-0.043145 0.017303 0.130529
-0.043059 0.017518 0.132114
-0.042621 0.017595 0.132646
-0.042279 0.017713 0.133499
-0.042044 0.017882 0.134720
-0.042151 0.018202 0.137088
-0.042416 0.018603 0.140053
-0.042975 0.019146 0.144093
-0.043332 0.019616 0.147574
-0.043032 0.019799 0.148895
-0.042796 0.020018 0.150481
-0.042993 0.020451 0.153674
-0.043370 0.020985 0.157624
-0.043704 0.021517 0.161553
-0.043590 0.021843 0.163935
-0.043957 0.022427 0.168248
-0.043703 0.022710 0.170295
-0.043556 0.023059 0.172843
-0.043190 0.023305 0.174607
-0.042907 0.023605 0.176780
-0.043230 0.024257 0.181586
-0.043388 0.024842 0.185880
-0.043443 0.025391 0.189905
-0.043071 0.025708 0.192191
-0.042793 0.026096 0.195008
-0.042499 0.026491 0.197876
-0.042245 0.026931 0.201068
-0.041981 0.027383 0.204357
-0.041535 0.027736 0.206902
-0.041206 0.028186 0.210167
-0.040861 0.028647 0.213510
-0.041382 0.029755 0.221674
-0.041284 0.030464 0.226860
-0.040958 0.031039 0.231040
-0.040513 0.031552 0.234763
-0.040234 0.032228 0.239692
-0.039678 0.032715 0.243215
-0.040930 0.034768 0.258374
-0.039736 0.034806 0.258555
-0.039772 0.035958 0.267009
-0.039034 0.036465 0.270667
-0.037973 0.036694 0.272259
-0.036464 0.036491 0.270652
-0.035082 0.036404 0.269912
-0.034585 0.037266 0.276203
-0.033117 0.037106 0.274926
-0.029752 0.034721 0.257165
-0.028502 0.034704 0.256956
-0.027327 0.034782 0.257446
-0.026089 0.034782 0.257368
-0.024878 0.034820 0.257575
-0.023633 0.034813 0.257450
-0.022473 0.034937 0.258295
-0.021239 0.034953 0.258343
-0.019960 0.034894 0.257837
-0.018993 0.035406 0.261562
-0.017882 0.035706 0.263710
-0.016765 0.036038 0.266105
-0.015365 0.035767 0.264053
-0.014271 0.036225 0.267378
-0.012858 0.035882 0.264801
-0.011280 0.034954 0.257904
-0.010019 0.034898 0.257451
-0.008813 0.035044 0.258493
-0.007546 0.034957 0.257817
-0.006301 0.034958 0.257795
-0.005056 0.034962 0.257795
-0.003821 0.035064 0.258521
-0.002570 0.035040 0.258325
-0.001329 0.035229 0.259701
-0.000074 0.035321 0.260368
0.001190 0.035452 0.261322
0.002452 0.035445 0.261264
0.003738 0.035662 0.262857
0.004992 0.035536 0.261935
0.006233 0.035394 0.260892
0.007517 0.035501 0.261683
0.008753 0.035382 0.260819
0.009995 0.035313 0.260328
0.011257 0.035322 0.260413
0.012883 0.036359 0.268082
0.016812 0.036446 0.268808
0.017624 0.035465 0.261605
0.018835 0.035363 0.260892
0.020139 0.035440 0.261501
0.021627 0.035810 0.264275
0.023031 0.036009 0.265795
0.024301 0.035987 0.265685
0.025055 0.035243 0.260243
0.026120 0.034985 0.258393
0.027400 0.035026 0.258754
0.028423 0.034749 0.256769
0.029479 0.034535 0.255247
0.030867 0.034710 0.256609
0.032104 0.034708 0.256663
0.033559 0.034934 0.258399
0.034976 0.035105 0.259743
0.036492 0.035360 0.261704
0.037869 0.035468 0.262579
0.039261 0.035583 0.263507
0.040493 0.035549 0.263338
0.042219 0.035939 0.266311
0.043619 0.036035 0.267114
0.043560 0.034956 0.259198
0.044086 0.034393 0.255106
0.045007 0.034160 0.253467
