ply
format ascii 1.0
element vertex 1745
property float x
property float y
property float z
end_header
-0.031276 0.086525 0.264576
-0.029642 0.085425 0.261175
-0.028152 0.084661 0.258801
-0.026969 0.084793 0.259169
-0.025600 0.084323 0.257697
-0.024311 0.084086 0.256941
-0.023103 0.084117 0.257000
-0.021926 0.084270 0.257435
-0.020672 0.084130 0.256978
-0.019547 0.084530 0.258168
-0.018383 0.084805 0.258978
-0.017313 0.085581 0.261320
-0.016051 0.085457 0.260912
-0.014888 0.085883 0.262184
-0.013643 0.085870 0.262121
-0.012307 0.085225 0.260128
-0.011040 0.084971 0.259327
-0.009839 0.085220 0.260066
-0.008553 0.084702 0.258467
-0.007327 0.084715 0.258484
-0.006124 0.085032 0.259436
-0.004912 0.085374 0.260463
-0.003696 0.085826 0.261826
-0.002467 0.086309 0.263283
-0.001224 0.086797 0.264759
0.000033 0.087818 0.267862
0.001312 0.088288 0.269285
0.002579 0.087874 0.268014
0.003921 0.089467 0.272865
0.005296 0.090822 0.276991
0.006136 0.084292 0.257069
0.007370 0.084438 0.257511
0.008610 0.084613 0.258042
0.009824 0.084506 0.257715
0.011048 0.084508 0.257721
0.012301 0.084702 0.258317
0.013515 0.084621 0.258071
0.014759 0.084725 0.258393
0.016018 0.084893 0.258911
0.017203 0.084672 0.258240
0.018419 0.084621 0.258094
0.020151 0.086801 0.264751
0.021897 0.088777 0.270787
0.023426 0.089707 0.273636
0.024576 0.089162 0.271983
0.026018 0.089680 0.273576
0.027421 0.090016 0.274615
0.028676 0.089861 0.274158
0.030100 0.090226 0.275284
0.031414 0.090243 0.275352
0.032779 0.090400 0.275847
0.034083 0.090381 0.275809
0.035258 0.090037 0.274775
0.036383 0.089593 0.273438
0.037517 0.089201 0.272259
0.038527 0.088548 0.270284
0.039389 0.087609 0.267436
0.040618 0.087521 0.267188
0.041291 0.086275 0.263401
0.042121 0.085421 0.260810
0.043247 0.085198 0.260148
0.044045 0.084360 0.257604
0.044689 0.083280 0.254324
0.045633 0.082800 0.252876
0.046649 0.082474 0.251894
0.047593 0.082038 0.250579
0.048906 0.082244 0.251222
0.050309 0.082588 0.252287
0.051628 0.082782 0.252892
0.053233 0.083415 0.254838
0.054864 0.084060 0.256818
0.057008 0.085445 0.261059
0.059024 0.086583 0.264545
0.060451 0.086828 0.265301
0.062095 0.087368 0.266956
0.063553 0.087630 0.267761
0.064760 0.087542 0.267493
0.066132 0.087676 0.267905
0.067480 0.087775 0.268203
0.068842 0.087886 0.268540
0.070245 0.088046 0.269021
0.071311 0.087785 0.268215
0.072738 0.087968 0.268763
0.074159 0.088139 0.269272
0.075412 0.088108 0.269160
0.076623 0.088029 0.268897
0.077846 0.087966 0.268682
0.079460 0.088341 0.269801
0.080760 0.088359 0.269825
0.082032 0.088347 0.269754
0.083364 0.088399 0.269874
0.083888 0.087605 0.267410
0.087133 0.089633 0.273555
0.087350 0.088533 0.270148
0.089812 0.089707 0.273675
0.096010 0.093193 0.284180
0.098685 0.094457 0.287959
0.100209 0.094600 0.288315
0.101722 0.094728 0.288620
0.102823 0.094475 0.287758
0.104108 0.094394 0.287414
0.105491 0.094405 0.287342
0.106976 0.094503 0.287531
0.108215 0.094386 0.287057
0.109489 0.094301 0.286673
0.111053 0.094464 0.287039
0.112833 0.094806 0.287936
0.114301 0.094880 0.288013
0.116018 0.095156 0.288693
0.116982 0.094816 0.287496
0.118653 0.095049 0.288029
0.120044 0.095056 0.287865
0.121405 0.095039 0.287620
0.122963 0.095174 0.287825
0.124534 0.095316 0.288043
0.126191 0.095520 0.288435
0.127592 0.095528 0.288224
0.129146 0.095649 0.288343
0.130987 0.095978 0.289072
0.132516 0.096073 0.289087
0.134159 0.096248 0.289329
0.136005 0.096563 0.289977
0.137340 0.096514 0.289515
0.138975 0.096673 0.289665
0.140552 0.096789 0.289671
0.141845 0.096709 0.289074
0.143991 0.097206 0.290185
0.145538 0.097293 0.290053
0.147136 0.097412 0.289999
0.148922 0.097652 0.290285
0.150494 0.097748 0.290123
0.152493 0.098117 0.290751
0.154319 0.098369 0.291009
0.155811 0.098405 0.290605
-0.045397 0.028467 0.083489
-0.044892 0.028403 0.083442
-0.044640 0.028500 0.083859
-0.044149 0.028707 0.084722
-0.041972 0.033106 0.099499
-0.041463 0.033075 0.099464
-0.041557 0.033530 0.100886
-0.041708 0.034043 0.102481
-0.041170 0.033999 0.102397
-0.041203 0.034431 0.103744
-0.040864 0.034558 0.104171
-0.040270 0.034471 0.103950
-0.040765 0.035324 0.106562
-0.040516 0.035548 0.107272
-0.040388 0.035883 0.108321
-0.040504 0.036447 0.110054
-0.041956 0.038243 0.115510
-0.041986 0.038774 0.117143
-0.041389 0.038731 0.117042
-0.040885 0.038776 0.117204
-0.059064 0.065789 0.199097
-0.058305 0.065991 0.199712
-0.057549 0.066203 0.200357
-0.056724 0.066340 0.200772
-0.055919 0.066507 0.201275
-0.055105 0.066668 0.201760
-0.054486 0.067075 0.202986
-0.053721 0.067314 0.203700
-0.052993 0.067607 0.204579
-0.052130 0.067737 0.204960
-0.051292 0.067906 0.205456
-0.050447 0.068071 0.205941
-0.049692 0.068366 0.206819
-0.048885 0.068601 0.207512
-0.048269 0.069119 0.209058
-0.047467 0.069385 0.209844
-0.046790 0.069851 0.211229
-0.045833 0.069909 0.211380
-0.045132 0.070369 0.212747
-0.044256 0.070571 0.213332
-0.043451 0.070898 0.214296
-0.042780 0.071466 0.215985
-0.042333 0.072444 0.218911
-0.052919 0.092823 0.280457
-0.051642 0.092906 0.280668
-0.050490 0.093223 0.281587
-0.049807 0.094448 0.285247
-0.048608 0.094736 0.286077
-0.047276 0.094773 0.286146
-0.045922 0.094767 0.286087
-0.044656 0.094946 0.286587
-0.043276 0.094888 0.286370
-0.041824 0.094665 0.285655
-0.040504 0.094734 0.285823
-0.037820 0.094778 0.285874
-0.035875 0.093235 0.281180
-0.034472 0.093036 0.280540
-0.031338 0.087963 0.265206
-0.029707 0.086862 0.261851
-0.028205 0.086059 0.259397
-0.027020 0.086192 0.259762
-0.025686 0.085845 0.258682
-0.024317 0.085338 0.257121
-0.023118 0.085403 0.257286
-0.021944 0.085574 0.257770
-0.020680 0.085396 0.257203
-0.019514 0.085626 0.257865
-0.018363 0.085957 0.258833
-0.017196 0.086252 0.259693
-0.015987 0.086367 0.260013
-0.014738 0.086268 0.259689
-0.013564 0.086636 0.260773
-0.012286 0.086341 0.259860
-0.011005 0.085954 0.258672
-0.009802 0.086168 0.259296
-0.008554 0.085979 0.258708
-0.007281 0.085435 0.257051
-0.006108 0.086096 0.259023
-0.004903 0.086514 0.260264
-0.003686 0.086934 0.261513
-0.002456 0.087295 0.262582
-0.001208 0.087184 0.262238
0.000037 0.088960 0.267566
0.001321 0.089914 0.270426
0.002535 0.087517 0.263208
0.003944 0.091214 0.274318
0.005290 0.091978 0.276609
0.006173 0.085985 0.258582
0.007240 0.084119 0.252965
0.008445 0.084157 0.253078
0.009703 0.084647 0.254550
0.010876 0.084371 0.253719
0.012124 0.084668 0.254614
0.013345 0.084747 0.254854
0.014576 0.084868 0.255220
0.015863 0.085268 0.256428
0.017026 0.084997 0.255618
0.018307 0.085307 0.256556
0.019748 0.086278 0.259484
0.021765 0.089505 0.269198
0.023006 0.089360 0.268770
0.024303 0.089435 0.269007
0.025654 0.089691 0.269789
0.026945 0.089722 0.269892
0.028227 0.089724 0.269911
0.029600 0.090001 0.270758
0.031006 0.090349 0.271819
0.032389 0.090608 0.272613
0.033846 0.091043 0.273937
0.035154 0.091060 0.274004
0.036423 0.090980 0.273778
0.037579 0.090632 0.272748
0.038697 0.090217 0.271517
0.039607 0.089363 0.268961
0.040640 0.088828 0.267368
0.041504 0.087968 0.264795
0.042401 0.087225 0.262575
0.043295 0.086520 0.260467
0.044061 0.085606 0.257732
0.044631 0.084369 0.254022
0.045623 0.083975 0.252849
0.046565 0.083510 0.251463
0.047554 0.083152 0.250396
0.048721 0.083115 0.250297
0.049958 0.083195 0.250551
0.051453 0.083690 0.252052
0.052851 0.084011 0.253026
0.054374 0.084510 0.254539
0.056282 0.085573 0.257746
0.058663 0.087294 0.262937
0.060220 0.087744 0.264296
0.061632 0.087966 0.264969
0.063490 0.088806 0.267498
0.064869 0.088955 0.267946
0.066190 0.089019 0.268138
0.067405 0.088941 0.267897
0.068623 0.088871 0.267680
0.070032 0.089045 0.268194
0.071792 0.089651 0.270007
0.073222 0.089831 0.270534
0.073910 0.089111 0.268349
0.075093 0.089001 0.267996
0.076555 0.089220 0.268634
0.077651 0.089012 0.267979
0.079178 0.089297 0.268808
0.081172 0.090091 0.271164
0.082565 0.090203 0.271464
0.084332 0.090715 0.272963
0.085562 0.090642 0.272696
0.087034 0.090824 0.273193
0.089001 0.091509 0.275198
0.089713 0.090902 0.273313
0.093982 0.093866 0.282158
0.095222 0.093763 0.281777
0.098414 0.095557 0.287092
0.100009 0.095774 0.287660
0.101328 0.095723 0.287417
0.102507 0.095544 0.286782
0.104094 0.095744 0.287282
0.105579 0.095847 0.287481
0.106991 0.095881 0.287469
0.108679 0.096159 0.288178
0.109865 0.095991 0.287544
0.111293 0.096036 0.287540
0.112890 0.096224 0.287957
0.114549 0.096459 0.288506
0.115910 0.096441 0.288291
0.117545 0.096648 0.288739
0.118816 0.096554 0.288278
0.120305 0.096638 0.288339
0.121611 0.096574 0.287948
0.123032 0.096602 0.287823
0.124618 0.096758 0.288066
0.126118 0.096844 0.288090
0.127606 0.096918 0.288070
0.129101 0.096997 0.288050
0.130516 0.097014 0.287836
0.132856 0.097711 0.289622
0.134023 0.097539 0.288822
0.135985 0.097944 0.289713
0.137575 0.098075 0.289780
0.138836 0.097971 0.289138
0.140654 0.098258 0.289634
0.142608 0.098633 0.290372
0.143728 0.098430 0.289391
0.145862 0.098918 0.290426
0.147568 0.099109 0.290568
0.149289 0.099306 0.290707
0.150858 0.099400 0.290524
0.152742 0.099696 0.290912
0.154490 0.099900 0.291008
0.156157 0.100047 0.290915
-0.045289 0.028806 0.083201
-0.044997 0.028877 0.083548
-0.044777 0.028996 0.084030
-0.044637 0.029170 0.084667
-0.044468 0.029328 0.085252
-0.041132 0.032907 0.097461
-0.041184 0.033323 0.098751
-0.042348 0.034658 0.102763
-0.042537 0.035216 0.104474
-0.042080 0.035248 0.104619
-0.041830 0.035455 0.105283
-0.041422 0.035532 0.105557
-0.041465 0.036002 0.106998
-0.041057 0.036087 0.107292
-0.041127 0.036600 0.108857
-0.041758 0.037632 0.111963
-0.041405 0.037791 0.112473
-0.041064 0.037966 0.113026
-0.042293 0.039616 0.117971
-0.041785 0.039662 0.118136
-0.059916 0.066637 0.198798
-0.059108 0.066782 0.199239
-0.058323 0.066956 0.199767
-0.057409 0.066987 0.199864
-0.056707 0.067270 0.200712
-0.055925 0.067467 0.201300
-0.054413 0.067944 0.202719
-0.053702 0.068254 0.203637
-0.053046 0.068645 0.204798
-0.052114 0.068686 0.204912
-0.051230 0.068796 0.205228
-0.050407 0.068991 0.205797
-0.049499 0.069076 0.206037
-0.048705 0.069327 0.206770
-0.048067 0.069816 0.208210
-0.047269 0.070087 0.208998
-0.046351 0.070187 0.209279
-0.045551 0.070474 0.210114
-0.044671 0.070649 0.210611
-0.044103 0.071336 0.212637
-0.043577 0.072124 0.214960
-0.042768 0.072470 0.215966
-0.042451 0.073688 0.219569
-0.052742 0.093840 0.279582
-0.051468 0.093922 0.279792
-0.051107 0.095717 0.285103
-0.049967 0.096111 0.286237
-0.048520 0.095922 0.285636
-0.047199 0.095976 0.285759
-0.045956 0.096199 0.286383
-0.044538 0.096055 0.285916
-0.043081 0.095818 0.285171
-0.041718 0.095782 0.285025
-0.040162 0.095283 0.283502
-0.039044 0.095827 0.285080
-0.037723 0.095892 0.285236
-0.035711 0.094143 0.279996
-0.034031 0.093168 0.277056
-0.031379 0.089347 0.265659
-0.029769 0.088296 0.262499
-0.028293 0.087572 0.260312
-0.026994 0.087350 0.259621
-0.025677 0.087051 0.258699
-0.024325 0.086595 0.257313
-0.023067 0.086443 0.256830
-0.021920 0.086717 0.257615
-0.020739 0.086876 0.258057
-0.019539 0.086975 0.258321
-0.018421 0.087477 0.259784
-0.017274 0.087898 0.261009
-0.016023 0.087821 0.260754
-0.014802 0.087903 0.260970
-0.013588 0.088050 0.261382
-0.012293 0.087650 0.260173
-0.010986 0.087065 0.258416
-0.009757 0.087020 0.258261
-0.008515 0.086847 0.257727
-0.007262 0.086471 0.256594
-0.006084 0.087031 0.258237
-0.004887 0.087520 0.259674
-0.003668 0.087814 0.260531
-0.002446 0.088335 0.262060
-0.001211 0.088935 0.263827
0.000040 0.089614 0.265833
0.001316 0.090589 0.268712
0.002595 0.090747 0.269173
0.003901 0.091406 0.271119
0.005227 0.092103 0.273180
0.006561 0.092638 0.274762
0.007843 0.092370 0.273961
0.009147 0.092412 0.274082
0.010421 0.092174 0.273375
0.011604 0.091267 0.270684
0.012712 0.090016 0.266974
0.014096 0.090771 0.269214
0.015415 0.091010 0.269926
0.016658 0.090802 0.269313
0.017905 0.090639 0.268833
0.019203 0.090742 0.269144
0.020421 0.090477 0.268366
0.021807 0.090942 0.269752
0.023085 0.090932 0.269732
0.024081 0.089870 0.266590
0.025453 0.090244 0.267711
0.026695 0.090145 0.267426
0.027781 0.089553 0.265682
0.029130 0.089823 0.266494
0.030449 0.089982 0.266979
0.031744 0.090059 0.267220
0.033064 0.090197 0.267644
0.034321 0.090163 0.267555
0.035729 0.090510 0.268599
0.037037 0.090591 0.268854
0.038262 0.090468 0.268504
0.039307 0.089942 0.266955
0.040372 0.089492 0.265636
0.041373 0.088934 0.263992
0.042453 0.088571 0.262929
0.043382 0.087924 0.261021
0.043822 0.086348 0.256356
0.044441 0.085202 0.252965
0.045624 0.085168 0.252878
0.046495 0.084569 0.251108
0.047600 0.084413 0.250657
0.048797 0.084426 0.250705
0.049910 0.084295 0.250324
0.051648 0.085201 0.253024
0.052673 0.084916 0.252183
0.053601 0.084492 0.250930
0.056362 0.086911 0.258119
0.058620 0.088470 0.262751
0.060229 0.089004 0.264338
0.061720 0.089344 0.265350
0.063317 0.089822 0.266766
0.064844 0.090183 0.267835
0.066308 0.090446 0.268609
0.067456 0.090274 0.268091
0.068738 0.090285 0.268113
0.070367 0.090743 0.269461
0.072501 0.091824 0.272655
0.073271 0.091170 0.270694
0.074125 0.090640 0.269102
0.075420 0.090659 0.269135
0.076401 0.090307 0.268061
0.077618 0.090239 0.267830
0.077948 0.089160 0.264595
0.079406 0.089385 0.265225
0.081362 0.090154 0.267464
0.082703 0.090228 0.267640
0.084498 0.090788 0.269252
0.086271 0.091308 0.270740
0.087573 0.091321 0.270720
0.089334 0.091805 0.272093
0.094970 0.096202 0.285052
0.096225 0.096098 0.284666
0.098397 0.096900 0.286961
0.100030 0.097157 0.287633
0.101462 0.097214 0.287707
0.102627 0.097017 0.287024
0.104091 0.097104 0.287174
0.105444 0.097086 0.287008
0.106886 0.097151 0.287078
0.108641 0.097493 0.287962
0.109723 0.097231 0.287053
0.112502 0.098460 0.290537
0.112612 0.097353 0.287119
0.114349 0.097661 0.287868
0.116187 0.098047 0.288836
0.117406 0.097908 0.288249
0.118954 0.098043 0.288460
0.120414 0.098102 0.288439
0.121784 0.098088 0.288192
0.123084 0.098019 0.287774
0.124808 0.098285 0.288327
0.126265 0.098337 0.288242
0.127631 0.098317 0.287935
0.129195 0.098449 0.288060
0.131549 0.099173 0.289905
0.132943 0.099167 0.289598
0.134107 0.098989 0.288780
0.136133 0.099446 0.289798
0.137453 0.099382 0.289284
0.139367 0.099746 0.289997
0.140948 0.099865 0.289985
0.142662 0.100075 0.290219
0.144291 0.100222 0.290252
0.145907 0.100357 0.290233
0.148243 0.100979 0.291602
0.149853 0.101100 0.291501
0.151488 0.101235 0.291421
0.153298 0.101484 0.291647
0.154897 0.101589 0.291436
0.156460 0.101668 0.291131
-0.045110 0.029097 0.082779
-0.044790 0.029149 0.083073
-0.044707 0.029359 0.083811
-0.044953 0.029791 0.085179
-0.044904 0.030034 0.086004
-0.045625 0.031687 0.091239
-0.041680 0.033816 0.098712
-0.041279 0.033871 0.098931
-0.041619 0.034542 0.100949
-0.042028 0.035287 0.103181
-0.041579 0.035319 0.103329
-0.041329 0.035525 0.103981
-0.041317 0.035942 0.105250
-0.040311 0.035494 0.103982
-0.041199 0.036723 0.107628
-0.041084 0.037077 0.108706
-0.042202 0.038568 0.113117
-0.041851 0.038737 0.113652
-0.041362 0.038781 0.113816
-0.061336 0.067085 0.197300
-0.060621 0.067323 0.198016
-0.059904 0.067564 0.198743
-0.059033 0.067638 0.198974
-0.058299 0.067875 0.199679
-0.057478 0.068015 0.200101
-0.056709 0.068222 0.200715
-0.055956 0.068457 0.201409
-0.055077 0.068543 0.201662
-0.054342 0.068814 0.202458
-0.053569 0.069045 0.203137
-0.052741 0.069215 0.203630
-0.051875 0.069337 0.203984
-0.050995 0.069448 0.204300
-0.050100 0.069540 0.204561
-0.049371 0.069871 0.205523
-0.048601 0.070157 0.206349
-0.047973 0.070663 0.207824
-0.047161 0.070914 0.208546
-0.046222 0.070980 0.208723
-0.045395 0.071226 0.209427
-0.044551 0.071455 0.210080
-0.043855 0.071938 0.211479
-0.043222 0.072549 0.213252
-0.042791 0.073534 0.216125
-0.042743 0.075245 0.221127
-0.053707 0.096909 0.284762
-0.052410 0.096993 0.284975
-0.051324 0.097483 0.286379
-0.049908 0.097357 0.285975
-0.048499 0.097236 0.285583
-0.047230 0.097399 0.286025
-0.045901 0.097444 0.286120
-0.044513 0.097361 0.285839
-0.043126 0.097276 0.285552
-0.041680 0.097049 0.284848
-0.039922 0.096057 0.281901
-0.037658 0.097084 0.284841
-0.035762 0.095615 0.280494
-0.034168 0.094869 0.278270
-0.031462 0.090854 0.266459
-0.029794 0.089624 0.262819
-0.028235 0.088633 0.259880
-0.027025 0.088693 0.260025
-0.025595 0.088006 0.257979
-0.024277 0.087655 0.256920
-0.023040 0.087573 0.256649
-0.021911 0.087913 0.257617
-0.020705 0.087971 0.257759
-0.019549 0.088259 0.258575
-0.018361 0.088433 0.259058
-0.017252 0.089042 0.260815
-0.015977 0.088818 0.260135
-0.014709 0.088600 0.259473
-0.013546 0.089036 0.260726
-0.012244 0.088550 0.259278
-0.010917 0.087764 0.256958
-0.009713 0.087883 0.257285
-0.008476 0.087703 0.256739
-0.007245 0.087525 0.256199
-0.006043 0.087711 0.256729
-0.004853 0.088204 0.258154
-0.003644 0.088558 0.259177
-0.002418 0.088692 0.259555
-0.001199 0.089513 0.261944
0.000044 0.090501 0.264825
0.001315 0.091529 0.267821
0.002597 0.091941 0.269019
0.003924 0.093162 0.272581
0.005237 0.093515 0.273609
0.006554 0.093779 0.274375
0.007833 0.093508 0.273575
0.009135 0.093550 0.273696
0.010407 0.093310 0.272990
0.011587 0.092392 0.270303
0.012836 0.092149 0.269592
0.014076 0.091890 0.268835
0.015392 0.092132 0.269546
0.016634 0.091922 0.268934
0.017878 0.091757 0.268456
0.019174 0.091862 0.268766
0.020386 0.091576 0.267937
0.021638 0.091491 0.267694
0.022859 0.091291 0.267115
0.023973 0.090712 0.265428
0.025207 0.090615 0.265154
0.026412 0.090433 0.264630
0.027552 0.090053 0.263530
0.028843 0.090178 0.263904
0.030110 0.090219 0.264035
0.031180 0.089691 0.262502
0.032575 0.090105 0.263723
0.033857 0.090184 0.263968
0.035230 0.090492 0.264881
0.036567 0.090690 0.265473
0.037936 0.090950 0.266246
0.039034 0.090566 0.265135
0.040116 0.090168 0.263982
0.041333 0.090089 0.263764
0.042595 0.090110 0.263834
0.043528 0.089453 0.261924
0.043683 0.087279 0.255568
0.044412 0.086337 0.252819
0.045610 0.086333 0.252819
0.046475 0.085715 0.251018
0.047645 0.085677 0.250913
0.048902 0.085791 0.251257
0.050285 0.086117 0.252217
0.051675 0.086440 0.253168
0.052854 0.086401 0.253059
0.054351 0.086874 0.254447
0.056422 0.088223 0.258402
0.058620 0.089709 0.262753
0.060369 0.090460 0.264953
0.061743 0.090630 0.265446
0.063368 0.091154 0.266977
0.064963 0.091615 0.268321
0.066466 0.091931 0.269237
0.067931 0.092184 0.269966
0.069047 0.091962 0.269302
0.070134 0.091709 0.268547
0.071615 0.091973 0.269301
0.072422 0.091376 0.267531
0.072977 0.090488 0.264906
0.074704 0.091058 0.266547
0.076026 0.091123 0.266708
0.076834 0.090581 0.265088
0.077954 0.090418 0.264574
0.079646 0.090912 0.265980
0.081663 0.091756 0.268403
0.083768 0.092672 0.271035
0.085044 0.092656 0.270934
0.086387 0.092713 0.271042
0.088501 0.093583 0.273523
0.090107 0.093899 0.274377
0.094584 0.097155 0.283816
0.095835 0.097051 0.283431
0.098315 0.098178 0.286637
0.099513 0.098011 0.286055
0.101561 0.098674 0.287890
0.102897 0.098637 0.287678
0.103819 0.098209 0.286317
0.105841 0.098820 0.287979
0.107034 0.098650 0.287358
0.108540 0.098769 0.287572
0.110162 0.098990 0.288075
0.111184 0.098673 0.287002
0.113292 0.099315 0.288713
0.114498 0.099160 0.288099
0.115821 0.099110 0.287778
0.117361 0.099243 0.287982
0.118672 0.099183 0.287614
0.120247 0.099341 0.287871
0.121674 0.099375 0.287758
0.123204 0.099492 0.287874
0.124588 0.099488 0.287631
0.126105 0.099590 0.287683
0.127485 0.099583 0.287406
0.128909 0.099610 0.287215
0.130518 0.099777 0.287419
0.131889 0.099761 0.287079
0.134081 0.100360 0.288495
0.135808 0.100601 0.288868
0.137288 0.100657 0.288691
0.138884 0.100795 0.288737
0.140635 0.101042 0.289076
0.142527 0.101383 0.289669
0.144410 0.101713 0.290208
0.146210 0.101977 0.290541
0.147836 0.102116 0.290497
0.149810 0.102490 0.291104
0.151455 0.102634 0.291034
0.153455 0.103014 0.291607
0.155170 0.103196 0.291601
0.156658 0.103226 0.291138
-0.045054 0.029465 0.082580
-0.044895 0.029624 0.083175
-0.044777 0.029814 0.083851
-0.044781 0.030090 0.084765
-0.044779 0.030366 0.085676
-0.044332 0.030344 0.085742
-0.045251 0.031561 0.089433
-0.044877 0.031601 0.089663
-0.041644 0.034257 0.098575
-0.041053 0.034154 0.098341
-0.041086 0.034574 0.099608
-0.041436 0.035273 0.101680
-0.041189 0.035476 0.102318
-0.041421 0.036099 0.104170
-0.040872 0.036049 0.104073
-0.041173 0.036757 0.106165
-0.043027 0.038886 0.112361
-0.042543 0.038929 0.112530
-0.042121 0.039030 0.112865
-0.041443 0.038893 0.112508
-0.062278 0.068033 0.197294
-0.061459 0.068155 0.197671
-0.060408 0.068020 0.197300
-0.059696 0.068268 0.198037
-0.058941 0.068474 0.198649
-0.058179 0.068678 0.199254
-0.057365 0.068827 0.199696
-0.056617 0.069060 0.200383
-0.055843 0.069271 0.200999
-0.055081 0.069503 0.201677
-0.054248 0.069652 0.202111
-0.053405 0.069794 0.202522
-0.052685 0.070104 0.203419
-0.051792 0.070192 0.203668
-0.050976 0.070389 0.204234
-0.050119 0.070537 0.204655
-0.049240 0.070657 0.204994
-0.048636 0.071187 0.206520
-0.047855 0.071472 0.207336
-0.047056 0.071742 0.208105
-0.046184 0.071912 0.208581
-0.045328 0.072113 0.209149
-0.044492 0.072356 0.209833
-0.043745 0.072758 0.210982
-0.043108 0.073365 0.212721
-0.042697 0.074397 0.215693
-0.042676 0.076174 0.220822
-0.053514 0.097907 0.283792
-0.052220 0.097991 0.284004
-0.051094 0.098402 0.285164
-0.049822 0.098545 0.285547
-0.048416 0.098425 0.285164
-0.047140 0.098571 0.285554
-0.045901 0.098804 0.286195
-0.044528 0.098754 0.286015
-0.042687 0.097632 0.282729
-0.041311 0.097536 0.282416
-0.039219 0.095683 0.277018
-0.035775 0.096986 0.280686
-0.034148 0.096141 0.278208
-0.031528 0.092318 0.267112
-0.029780 0.090839 0.262799
-0.028276 0.090004 0.260354
-0.026914 0.089569 0.259066
-0.025538 0.089041 0.257509
-0.024256 0.088805 0.256796
-0.023039 0.088799 0.256750
-0.021964 0.089363 0.258354
-0.020804 0.089632 0.259104
-0.019628 0.089864 0.259747
-0.018437 0.090048 0.260254
-0.017272 0.090401 0.261249
-0.015998 0.090190 0.260612
-0.014736 0.090021 0.260103
-0.013489 0.089916 0.259776
-0.012189 0.089407 0.258283
-0.010941 0.089204 0.257676
-0.009699 0.089005 0.257081
-0.008453 0.088713 0.256219
-0.007267 0.089061 0.257207
-0.006077 0.089484 0.258412
-0.004869 0.089792 0.259286
-0.003655 0.090161 0.260337
-0.002443 0.090980 0.262688
-0.001202 0.091276 0.263530
0.000048 0.092030 0.265695
0.001328 0.093445 0.269770
0.002590 0.092825 0.267971
0.003896 0.093681 0.270433
0.005173 0.093583 0.270144
0.006455 0.093592 0.270164
0.007750 0.093759 0.270642
0.009011 0.093516 0.269934
0.010318 0.093763 0.270644
0.011533 0.093203 0.269027
0.012787 0.093044 0.268566
0.014086 0.093205 0.269033
0.015389 0.093367 0.269501
0.016673 0.093394 0.269581
0.017917 0.093213 0.269062
0.019221 0.093345 0.269446
0.020420 0.092983 0.268404
0.021612 0.092632 0.267398
0.022820 0.092384 0.266687
0.023878 0.091590 0.264401
0.025040 0.091252 0.263434
0.026188 0.090896 0.262415
0.027377 0.090709 0.261883
0.028415 0.090060 0.260018
0.029614 0.089953 0.259716
0.030777 0.089750 0.259141
0.032085 0.089969 0.259783
0.033427 0.090264 0.260645
0.034906 0.090895 0.262477
0.036076 0.090704 0.261935
0.037603 0.091394 0.263939
0.038822 0.091315 0.263721
0.040012 0.091173 0.263320
0.041342 0.091351 0.263846
0.042551 0.091259 0.263588
0.043718 0.091083 0.263092
0.043379 0.087867 0.253811
0.044185 0.087080 0.251544
0.045440 0.087198 0.251894
0.046293 0.086556 0.250046
0.047589 0.086755 0.250627
0.048857 0.086896 0.251038
0.050056 0.086907 0.251075
0.051514 0.087359 0.252382
0.052688 0.087319 0.252268
0.054050 0.087586 0.253040
0.055576 0.088100 0.254525
0.058102 0.090143 0.260426
0.060041 0.091211 0.263507
0.061535 0.091572 0.264544
0.062971 0.091834 0.265293
0.064744 0.092567 0.267400
0.066321 0.092998 0.268633
0.067759 0.093221 0.269263
0.069008 0.093180 0.269129
0.070242 0.093120 0.268936
0.071962 0.093696 0.270577
0.072792 0.093113 0.268868
0.073492 0.092385 0.266740
0.074381 0.091917 0.265357
0.075606 0.091873 0.265196
0.076609 0.091564 0.264269
0.077158 0.090731 0.261823
0.078766 0.091151 0.262991
0.081126 0.092414 0.266586
0.082768 0.092832 0.267740
0.084229 0.093038 0.268276
0.086193 0.093784 0.270367
0.087441 0.093741 0.270176
0.089945 0.095026 0.273807
0.093820 0.097703 0.281441
0.095062 0.097600 0.281059
0.098375 0.099596 0.286717
0.099961 0.099814 0.287245
0.101457 0.099937 0.287495
0.102581 0.099694 0.286686
0.103972 0.099715 0.286629
0.105479 0.099843 0.286875
0.107039 0.100019 0.287249
0.108433 0.100037 0.287162
0.109910 0.100130 0.287282
0.111308 0.100150 0.287185
0.112813 0.100263 0.287347
0.114726 0.100733 0.288522
0.116057 0.100685 0.288206
0.117407 0.100656 0.287934
0.118874 0.100726 0.287935
0.120329 0.100785 0.287894
0.121748 0.100811 0.287753
0.123126 0.100804 0.287504
0.124669 0.100931 0.287624
0.126212 0.101054 0.287726
0.127662 0.101101 0.287597
0.129284 0.101282 0.287836
0.130650 0.101260 0.287486
0.132567 0.101662 0.288324
0.134140 0.101793 0.288381
0.135536 0.101789 0.288041
0.137559 0.102251 0.289003
0.139180 0.102407 0.289086
0.140590 0.102407 0.288709
0.142618 0.102852 0.289570
0.144404 0.103115 0.289900
0.146384 0.103511 0.290581
0.148280 0.103840 0.291054
0.150189 0.104171 0.291512
0.152216 0.104577 0.292156
0.153817 0.104685 0.291944
0.155795 0.105045 0.292412
0.157423 0.105165 0.292186
-0.045126 0.029917 0.082613
-0.044919 0.030047 0.083122
-0.044827 0.030258 0.083850
-0.044783 0.030505 0.084676
-0.044757 0.030768 0.085544
-0.044323 0.030754 0.085637
-0.043920 0.030761 0.085782
-0.043833 0.030992 0.086548
-0.044851 0.032016 0.089529
-0.040925 0.034128 0.096820
-0.041098 0.034661 0.098398
-0.041952 0.035787 0.101657
-0.042136 0.036362 0.103350
-0.042023 0.036691 0.104342
-0.041704 0.036845 0.104835
-0.041322 0.036947 0.105176
-0.041159 0.037249 0.106087
-0.040773 0.037355 0.106436
-0.040286 0.037370 0.106522
-0.042078 0.039525 0.112709
-0.062871 0.068602 0.196188
-0.062123 0.068796 0.196773
-0.061303 0.068917 0.197144
-0.060394 0.068938 0.197230
-0.059671 0.069176 0.197931
-0.058888 0.069351 0.198451
-0.058062 0.069482 0.198839
-0.057335 0.069735 0.199578
-0.056548 0.069924 0.200129
-0.055754 0.070111 0.200672
-0.054907 0.070235 0.201034
-0.054087 0.070400 0.201510
-0.053180 0.070454 0.201667
-0.052317 0.070571 0.202000
-0.051569 0.070850 0.202798
-0.050529 0.070730 0.202450
-0.049693 0.070898 0.202925
-0.049320 0.071745 0.205341
-0.048584 0.072088 0.206315
-0.047762 0.072315 0.206952
-0.046910 0.072503 0.207480
-0.046039 0.072672 0.207949
-0.045203 0.072903 0.208596
-0.044363 0.073139 0.209255
-0.043777 0.073812 0.211165
-0.043306 0.074716 0.213734
-0.042965 0.075893 0.217080
-0.054652 0.098893 0.282841
-0.053365 0.098978 0.283057
-0.052188 0.099278 0.283887
-0.050903 0.099383 0.284155
-0.049628 0.099513 0.284499
-0.048301 0.099545 0.284558
-0.046980 0.099589 0.284651
-0.045709 0.099745 0.285067
-0.044414 0.099860 0.285363
-0.043042 0.099800 0.285158
-0.041548 0.099446 0.284114
-0.039470 0.097625 0.278878
-0.035553 0.097716 0.279039
-0.034190 0.097588 0.278642
-0.032893 0.097647 0.278777
-0.029822 0.092222 0.263261
-0.028316 0.091378 0.260822
-0.026932 0.090868 0.259337
-0.025524 0.090222 0.257466
-0.024264 0.090066 0.256992
-0.023096 0.090249 0.257487
-0.021960 0.090586 0.258420
-0.020835 0.091014 0.259616
-0.019693 0.091414 0.260730
-0.018537 0.091798 0.261800
-0.017361 0.092129 0.262720
-0.016094 0.091998 0.262321
-0.014816 0.091770 0.261649
-0.013543 0.091536 0.260960
-0.012218 0.090869 0.259038
-0.010924 0.090319 0.257449
-0.009681 0.090096 0.256795
-0.008438 0.089809 0.255958
-0.007228 0.089843 0.256039
-0.006024 0.089965 0.256370
-0.004826 0.090290 0.257282
-0.003624 0.090698 0.258429
-0.002396 0.090602 0.258143
-0.001183 0.091347 0.260252
0.000051 0.092399 0.263237
0.001311 0.093210 0.265537
0.002580 0.093606 0.266656
0.003844 0.093605 0.266646
0.005120 0.093815 0.267236
0.006366 0.093507 0.266352
0.007631 0.093528 0.266407
0.008877 0.093346 0.265885
0.010090 0.092906 0.264627
0.011364 0.093060 0.265063
0.012573 0.092708 0.264059
0.013811 0.092612 0.263787
0.015152 0.093163 0.265356
0.016495 0.093643 0.266725
0.017759 0.093636 0.266705
0.019080 0.093909 0.267485
0.020311 0.093732 0.266986
0.021548 0.093605 0.266628
0.022655 0.092959 0.264792
0.023708 0.092165 0.262538
0.024766 0.091474 0.260574
0.025924 0.091199 0.259797
0.026908 0.090363 0.257424
0.028086 0.090225 0.257038
0.029289 0.090174 0.256900
0.030421 0.089915 0.256170
0.031813 0.090418 0.257611
0.033061 0.090488 0.257818
0.034356 0.090676 0.258361
0.035854 0.091371 0.260351
0.037122 0.091451 0.260587
0.038534 0.091868 0.261785
0.039864 0.092070 0.262367
0.041128 0.092114 0.262502
0.042436 0.092247 0.262889
0.043558 0.091982 0.262142
0.043203 0.088700 0.252792
0.044120 0.088136 0.251191
0.045320 0.088151 0.251240
0.046513 0.088151 0.251246
0.047609 0.087974 0.250743
0.048898 0.088151 0.251251
0.050145 0.088248 0.251529
0.051560 0.088628 0.252611
0.052877 0.088825 0.253172
0.053998 0.088692 0.252793
0.055625 0.089378 0.254743
0.058185 0.091501 0.260791
0.060088 0.092525 0.263703
0.061696 0.093062 0.265223
0.063281 0.093543 0.266583
0.064673 0.093726 0.267092
0.066223 0.094126 0.268217
0.067654 0.094345 0.268822
0.068684 0.094005 0.267835
0.069599 0.093525 0.266445
0.070985 0.093684 0.266872
0.072568 0.094092 0.268005
0.073359 0.093475 0.266218
0.073863 0.092522 0.263469
0.075202 0.092627 0.263733
0.076513 0.092696 0.263889
0.076963 0.091736 0.261112
0.078123 0.091639 0.260789
0.079872 0.092225 0.262404
0.081529 0.092689 0.263669
0.082973 0.092900 0.264209
0.084490 0.093184 0.264953
0.085855 0.093296 0.265200
0.088771 0.095065 0.270154
0.095100 0.100386 0.285190
0.096360 0.100282 0.284803
0.098154 0.100728 0.285975
0.099779 0.100991 0.286619
0.101222 0.101065 0.286720
0.102443 0.100919 0.286189
0.103924 0.101028 0.286378
0.105514 0.101240 0.286848
0.106631 0.100998 0.286027
0.108580 0.101540 0.287417
0.110016 0.101594 0.287419
0.111207 0.101424 0.286778
0.112782 0.101603 0.287117
0.114408 0.101823 0.287563
0.115903 0.101924 0.287662
0.117320 0.101954 0.287550
0.118684 0.101937 0.287300
0.120249 0.102092 0.287520
0.121705 0.102151 0.287463
0.123106 0.102163 0.287260
0.124638 0.102282 0.287350
0.126316 0.102518 0.287753
0.127852 0.102634 0.287808
0.129501 0.102837 0.288094
0.131272 0.103131 0.288622
0.133004 0.103388 0.289032
0.134333 0.103331 0.288547
0.136098 0.103605 0.288976
0.137889 0.103894 0.289428
0.139403 0.103971 0.289272
0.140878 0.104017 0.289015
0.142862 0.104434 0.289770
0.144805 0.104813 0.290399
0.146632 0.105102 0.290757
0.148479 0.105398 0.291116
0.150421 0.105756 0.291622
0.152104 0.105926 0.291590
0.154140 0.106337 0.292194
0.155882 0.106538 0.292199
0.157519 0.106665 0.291975
-0.044760 0.030076 0.081839
-0.044537 0.030195 0.082315
-0.044192 0.030233 0.082566
-0.044203 0.030517 0.083484
-0.044685 0.031135 0.085313
-0.044314 0.031165 0.085529
-0.043804 0.031391 0.086405
-0.043421 0.031415 0.086590
-0.041346 0.034946 0.097761
-0.040923 0.034981 0.097926
-0.040803 0.035278 0.098821
-0.041585 0.036373 0.101948
-0.041619 0.036830 0.103289
-0.040941 0.036660 0.102868
-0.040902 0.037067 0.104062
-0.040469 0.037120 0.104263
-0.039807 0.036964 0.103872
-0.039759 0.037380 0.105087
-0.062548 0.069174 0.195144
-0.061903 0.069482 0.196044
-0.061223 0.069759 0.196857
-0.060277 0.069737 0.196820
-0.059485 0.069896 0.197292
-0.058805 0.070193 0.198152
-0.058062 0.070422 0.198818
-0.057321 0.070664 0.199516
-0.056480 0.070787 0.199877
-0.055656 0.070935 0.200305
-0.054967 0.071265 0.201244
-0.054014 0.071257 0.201230
-0.053131 0.071344 0.201478
-0.052389 0.071627 0.202279
-0.051469 0.071671 0.202406
-0.050601 0.071792 0.202744
-0.049847 0.072082 0.203561
-0.049350 0.072762 0.205476
-0.048446 0.072859 0.205742
-0.047589 0.073029 0.206216
-0.046794 0.073306 0.206988
-0.045930 0.073484 0.207479
-0.045120 0.073757 0.208237
-0.044330 0.074076 0.209124
-0.043653 0.074603 0.210597
-0.042981 0.075163 0.212161
-0.043079 0.077129 0.217692
-0.054579 0.100102 0.282509
-0.053293 0.100187 0.282724
-0.052147 0.100547 0.283715
-0.050942 0.100811 0.284433
-0.049637 0.100883 0.284609
-0.048299 0.100892 0.284605
-0.046969 0.100920 0.284654
-0.045669 0.101015 0.284892
-0.044384 0.101149 0.285240
-0.042968 0.100983 0.284742
-0.041405 0.100452 0.283214
-0.039427 0.098846 0.278654
-0.035502 0.098905 0.278730
-0.033906 0.098096 0.276420
-0.031888 0.095951 0.270346
-0.030029 0.094129 0.265183
-0.028483 0.093169 0.262450
-0.026948 0.092160 0.259580
-0.025640 0.091871 0.258737
-0.024307 0.091459 0.257550
-0.023166 0.091759 0.258371
-0.021995 0.091972 0.258945
-0.020874 0.092429 0.260205
-0.019760 0.092979 0.261727
-0.018540 0.093069 0.261957
-0.017360 0.093392 0.262843
-0.016161 0.093648 0.263541
-0.014953 0.093892 0.264204
-0.013612 0.093271 0.262437
-0.012165 0.091727 0.258070
-0.010882 0.091214 0.256609
-0.009672 0.091258 0.256713
-0.008381 0.090447 0.254414
-0.007186 0.090571 0.254747
-0.005974 0.090484 0.254488
-0.004780 0.090696 0.255066
-0.003589 0.091136 0.256292
-0.002359 0.090543 0.254612
-0.001159 0.091013 0.255921
0.000055 0.092709 0.260679
0.001303 0.093646 0.263303
0.002565 0.094174 0.264776
0.003854 0.095015 0.267132
0.005132 0.095226 0.267718
0.006378 0.094885 0.266753
0.007633 0.094766 0.266414
0.008891 0.094719 0.266276
0.010113 0.094341 0.265210
0.011282 0.093605 0.263136
0.012516 0.093507 0.262860
0.013728 0.093269 0.262190
0.014996 0.093425 0.262628
0.016243 0.093430 0.262642
0.017477 0.093371 0.262476
0.018774 0.093630 0.263207
0.019956 0.093322 0.262345
0.021190 0.093274 0.262213
0.022324 0.092822 0.260944
0.023497 0.092566 0.260229
0.024540 0.091848 0.258217
0.025623 0.091342 0.256798
0.026818 0.091264 0.256584
0.027839 0.090625 0.254794
0.029081 0.090729 0.255092
0.030310 0.090785 0.255256
0.031342 0.090269 0.253812
0.032692 0.090676 0.254963
0.034065 0.091113 0.256197
0.035281 0.091114 0.256207
0.036890 0.092096 0.258975
0.038659 0.093401 0.262651
0.039973 0.093560 0.263104
0.041162 0.093425 0.262731
0.042672 0.094005 0.264369
0.043896 0.093940 0.264191
0.042784 0.089018 0.250353
0.043820 0.088710 0.249490
0.045174 0.089046 0.250439
0.046257 0.088844 0.249871
0.047475 0.088904 0.250041
0.048770 0.089101 0.250597
0.050128 0.089401 0.251440
0.051515 0.089738 0.252386
0.052874 0.090013 0.253155
0.054145 0.090128 0.253473
0.055929 0.091073 0.256125
0.058287 0.092894 0.261240
0.060916 0.095061 0.267324
0.062190 0.095068 0.267331
0.063232 0.094726 0.266356
0.064791 0.095159 0.267557
0.066214 0.095378 0.268155
0.067721 0.095707 0.269060
0.069042 0.095766 0.269202
0.069929 0.095232 0.267674
0.071024 0.094995 0.266979
0.072362 0.095086 0.267204
0.072891 0.094128 0.264478
0.073833 0.093727 0.263313
0.075212 0.093885 0.263716
0.075652 0.092885 0.260863
0.076489 0.092397 0.259447
0.077567 0.092211 0.258874
0.078957 0.092395 0.259335
0.080730 0.093015 0.261018
0.082708 0.093849 0.263292
0.084302 0.094229 0.264289
0.084983 0.093591 0.262428
0.087798 0.095288 0.267107
0.097032 0.102340 0.286689
0.098300 0.102235 0.286294
0.099796 0.102367 0.286556
0.101358 0.102562 0.286988
0.102747 0.102580 0.286917
0.104043 0.102504 0.286579
0.105445 0.102534 0.286528
0.107069 0.102777 0.287064
0.108523 0.102852 0.287124
0.109906 0.102858 0.286984
0.111351 0.102921 0.286995
0.112802 0.102989 0.287009
0.114331 0.103125 0.287207
0.115723 0.103136 0.287044
0.117389 0.103386 0.287541
0.118722 0.103342 0.287206
0.120193 0.103418 0.287196
0.121741 0.103557 0.287350
0.123127 0.103556 0.287106
0.124741 0.103745 0.287377
0.126266 0.103857 0.287420
0.127884 0.104041 0.287654
0.129409 0.104146 0.287654
0.130871 0.104200 0.287498
0.132618 0.104476 0.287943
0.134287 0.104686 0.288190
0.135946 0.104883 0.288387
0.137888 0.105293 0.289149
0.139540 0.105474 0.289269
0.141218 0.105672 0.289416
0.142893 0.105863 0.289526
0.144750 0.106184 0.289972
0.146944 0.106743 0.291047
0.148782 0.107035 0.291370
0.150830 0.107471 0.292062
0.152653 0.107740 0.292277
0.154259 0.107852 0.292043
0.156075 0.108107 0.292172
0.157761 0.108267 0.292020
-0.044382 0.030221 0.081043
-0.044156 0.030337 0.081509
-0.044129 0.030593 0.082348
-0.044167 0.030900 0.083319
-0.044499 0.031420 0.084863
-0.044216 0.031511 0.085244
-0.043488 0.031581 0.085692
-0.043113 0.031609 0.085889
-0.040235 0.034461 0.095078
-0.040696 0.035252 0.097327
-0.040996 0.035919 0.099235
-0.041982 0.037211 0.102867
-0.041345 0.037077 0.102557
-0.041374 0.037544 0.103907
-0.040955 0.037611 0.104148
-0.040920 0.038036 0.105379
-0.040558 0.038165 0.105787
-0.040101 0.038205 0.105947
-0.064361 0.070071 0.194947
-0.063468 0.070100 0.195069
-0.062680 0.070247 0.195517
-0.061857 0.070359 0.195862
-0.061158 0.070616 0.196613
-0.060279 0.070672 0.196795
-0.059547 0.070904 0.197468
-0.058785 0.071108 0.198060
-0.057961 0.071241 0.198452
-0.057182 0.071436 0.199012
-0.056351 0.071569 0.199401
-0.055515 0.071702 0.199784
-0.054708 0.071879 0.200287
-0.053866 0.072014 0.200672
-0.052983 0.072097 0.200910
-0.052203 0.072328 0.201559
-0.051381 0.072506 0.202059
-0.050550 0.072680 0.202544
-0.049766 0.072928 0.203234
-0.049017 0.073239 0.204099
-0.048203 0.073462 0.204716
-0.047482 0.073841 0.205766
-0.046655 0.074066 0.206386
-0.045854 0.074343 0.207149
-0.044990 0.074530 0.207658
-0.044306 0.075027 0.209033
-0.043760 0.075788 0.211139
-0.043317 0.076765 0.213848
-0.043011 0.078039 0.217381
-0.054842 0.101931 0.283912
-0.053410 0.101753 0.283393
-0.052204 0.102007 0.284078
-0.050794 0.101864 0.283655
-0.049588 0.102135 0.284384
-0.048327 0.102306 0.284833
-0.046974 0.102283 0.284742
-0.045666 0.102363 0.284938
-0.044362 0.102454 0.285163
-0.043004 0.102424 0.285052
-0.041147 0.101167 0.281523
-0.039551 0.100486 0.279601
-0.035121 0.099158 0.275820
-0.033704 0.098822 0.274856
-0.031975 0.097508 0.271174
-0.030013 0.095344 0.265128
-0.028550 0.094646 0.263161
-0.026996 0.093570 0.260142
-0.025683 0.093264 0.259264
-0.024437 0.093186 0.259022
-0.023220 0.093215 0.259078
-0.022185 0.094019 0.261288
-0.021035 0.094403 0.262331
-0.019876 0.094791 0.263385
-0.018718 0.095234 0.264591
-0.017522 0.095538 0.265413
-0.016304 0.095759 0.266004
-0.015100 0.096108 0.266953
-0.013794 0.095810 0.266103
-0.012120 0.092633 0.257259
-0.010826 0.091991 0.255457
-0.009620 0.092019 0.255518
-0.008356 0.091416 0.253827
-0.007145 0.091305 0.253504
-0.005961 0.091557 0.254187
-0.004753 0.091462 0.253908
-0.003553 0.091531 0.254088
-0.002347 0.091435 0.253808
-0.001148 0.091666 0.254436
0.000058 0.092615 0.257061
0.001309 0.095070 0.263862
0.002563 0.095195 0.264202
0.003839 0.095802 0.265877
0.005088 0.095600 0.265307
0.006309 0.095056 0.263792
0.007577 0.095280 0.264407
0.008795 0.094898 0.263341
0.009971 0.094216 0.261445
0.011211 0.094221 0.261455
0.012422 0.094007 0.260859
0.013654 0.093975 0.260769
0.014927 0.094207 0.261411
0.016152 0.094124 0.261179
0.017427 0.094322 0.261731
0.018602 0.093987 0.260801
0.019841 0.094002 0.260844
0.020983 0.093578 0.259668
0.022137 0.093251 0.258766
0.023243 0.092769 0.257429
0.024412 0.092571 0.256884
0.025455 0.091940 0.255136
0.026588 0.091675 0.254405
0.027791 0.091662 0.254375
0.029001 0.091674 0.254412
0.030231 0.091743 0.254608
0.031398 0.091626 0.254287
0.032630 0.091698 0.254494
0.034043 0.092255 0.256043
0.035130 0.091922 0.255124
0.036344 0.091932 0.255158
0.037986 0.092988 0.258092
0.039248 0.093077 0.258343
0.040161 0.092358 0.256353
0.042608 0.095107 0.263985
0.043222 0.091118 0.252919
0.044390 0.091053 0.252740
0.045968 0.091809 0.254840
0.047155 0.091766 0.254721
0.048016 0.091108 0.252891
0.049428 0.091498 0.253972
0.050704 0.091626 0.254326
0.052082 0.091928 0.255158
0.053560 0.092389 0.256432
0.054760 0.092360 0.256344
0.056067 0.092508 0.256747
0.058302 0.094149 0.261288
0.060239 0.095250 0.264333
0.061282 0.094921 0.263404
0.062949 0.095553 0.265143
0.064487 0.095967 0.266272
0.065769 0.095993 0.266321
0.067307 0.096383 0.267380
0.068735 0.096604 0.267967
0.069830 0.096358 0.267255
0.070641 0.095735 0.265496
0.071956 0.095805 0.265656
0.073134 0.095694 0.265309
0.073924 0.095087 0.263586
0.074629 0.094393 0.261618
0.075432 0.093843 0.260047
0.076286 0.093374 0.258696
0.076852 0.092572 0.256420
0.078691 0.093305 0.258392
0.080546 0.094035 0.260350
0.082073 0.094364 0.261193
0.083592 0.094674 0.261979
0.083924 0.093651 0.259074
0.086507 0.095133 0.263091
0.097007 0.103671 0.286508
0.098276 0.103567 0.286113
0.099772 0.103701 0.286371
0.101317 0.103882 0.286751
0.102455 0.103646 0.285974
0.103840 0.103663 0.285889
0.105583 0.104032 0.286766
0.106933 0.104009 0.286556
0.108427 0.104125 0.286721
0.110084 0.104392 0.287293
0.111316 0.104256 0.286746
0.112808 0.104362 0.286858
0.114344 0.104506 0.287066
0.115780 0.104556 0.287006
0.117364 0.104738 0.287296
0.118690 0.104686 0.286937
0.120123 0.104730 0.286829
0.121772 0.104959 0.287218
0.123331 0.105105 0.287369
0.124671 0.105064 0.286996
0.126747 0.105636 0.288286
0.128553 0.105974 0.288920
0.129808 0.105855 0.288298
0.131915 0.106425 0.289537
0.133451 0.106529 0.289491
0.134937 0.106590 0.289315
0.136456 0.106675 0.289190
0.138012 0.106787 0.289120
0.139827 0.107095 0.289566
0.141504 0.107292 0.289694
0.143300 0.107574 0.290031
0.144877 0.107688 0.289896
0.146797 0.108052 0.290414
0.148917 0.108555 0.291282
0.150859 0.108919 0.291754
0.152856 0.109315 0.292287
0.154425 0.109401 0.291965
0.156176 0.109613 0.291955
0.158013 0.109880 0.292068
-0.044141 0.030453 0.080496
-0.044173 0.030749 0.081435
-0.044019 0.030919 0.082039
-0.044369 0.031450 0.083597
-0.044409 0.031769 0.084590
-0.044220 0.031929 0.085155
-0.043780 0.031909 0.085236
-0.043491 0.032000 0.085608
-0.043496 0.032310 0.086564
-0.040374 0.035037 0.095349
-0.040005 0.035110 0.095616
-0.040103 0.035600 0.097016
-0.041932 0.037656 0.102686
-0.041650 0.037843 0.103259
-0.041237 0.037912 0.103509
-0.040934 0.038087 0.104042
-0.040564 0.038203 0.104415
-0.040518 0.038630 0.105634
-0.064265 0.070890 0.194608
-0.063489 0.071049 0.195087
-0.062616 0.071101 0.195274
-0.061812 0.071235 0.195680
-0.061080 0.071458 0.196327
-0.060298 0.071627 0.196823
-0.059501 0.071784 0.197284
-0.058770 0.072027 0.197979
-0.057956 0.072175 0.198408
-0.057236 0.072447 0.199177
-0.056423 0.072607 0.199637
-0.055524 0.072661 0.199801
-0.054709 0.072829 0.200276
-0.053848 0.072939 0.200591
-0.052960 0.073018 0.200816
-0.052103 0.073141 0.201163
-0.051293 0.073338 0.201709
-0.050438 0.073477 0.202094
-0.049584 0.073622 0.202494
-0.048856 0.073963 0.203431
-0.048103 0.074279 0.204300
-0.047340 0.074593 0.205159
-0.046569 0.074908 0.206020
-0.045665 0.075017 0.206312
-0.044859 0.075295 0.207070
-0.044330 0.076059 0.209163
-0.043611 0.076528 0.210440
-0.043375 0.077884 0.214158
-0.056043 0.103029 0.283280
-0.054755 0.103116 0.283501
-0.053456 0.103188 0.283679
-0.052088 0.103126 0.283488
-0.050840 0.103306 0.283961
-0.049548 0.103403 0.284205
-0.048195 0.103376 0.284108
-0.046873 0.103415 0.284191
-0.045544 0.103441 0.284236
-0.044256 0.103564 0.284548
-0.042922 0.103583 0.284575
-0.041326 0.102953 0.282815
-0.039756 0.102345 0.281119
-0.035281 0.100931 0.277155
-0.034021 0.101075 0.277523
-0.032375 0.100038 0.274648
-0.030153 0.097059 0.266444
-0.028693 0.096383 0.264562
-0.027216 0.095586 0.262351
-0.025746 0.094735 0.259991
-0.024397 0.094272 0.258695
-0.023191 0.094339 0.258853
-0.022080 0.094823 0.260158
-0.020902 0.095056 0.260774
-0.019822 0.095793 0.262774
-0.018677 0.096299 0.264139
-0.017501 0.096701 0.265221
-0.016307 0.097058 0.266177
-0.015098 0.097383 0.267047
-0.013749 0.096777 0.265365
-0.012030 0.093188 0.255505
-0.010690 0.092056 0.252383
-0.009514 0.092237 0.252862
-0.008324 0.092311 0.253049
-0.007111 0.092106 0.252472
-0.005914 0.092076 0.252374
-0.004724 0.092178 0.252640
-0.003537 0.092405 0.253251
-0.002348 0.092822 0.254379
-0.001140 0.092531 0.253571
0.000061 0.093002 0.254850
0.001326 0.097257 0.266499
0.002568 0.096470 0.264333
0.003805 0.096097 0.263302
0.005105 0.097093 0.266024
0.006305 0.096179 0.263512
0.007446 0.094811 0.259756
0.008706 0.095127 0.260618
0.009906 0.094791 0.259691
0.011059 0.094136 0.257895
0.012316 0.094400 0.258614
0.013557 0.094507 0.258904
0.014802 0.094624 0.259223
0.016042 0.094687 0.259393
0.017260 0.094623 0.259218
0.018465 0.094504 0.258891
0.019658 0.094338 0.258437
0.020793 0.093930 0.257321
0.021909 0.093490 0.256116
0.023046 0.093176 0.255259
0.024160 0.092807 0.254250
0.025252 0.092389 0.253107
0.026442 0.092356 0.253018
0.027612 0.092257 0.252750
0.028894 0.092522 0.253481
0.030174 0.092762 0.254142
0.031396 0.092813 0.254283
0.032721 0.093150 0.255211
0.034030 0.093423 0.255962
0.035333 0.093658 0.256610
0.036732 0.094125 0.257891
0.038594 0.095709 0.262233
0.039968 0.096020 0.263089
0.041006 0.095533 0.261755
0.042220 0.095470 0.261585
0.045339 0.096830 0.265311
0.046565 0.096762 0.265124
0.047788 0.096692 0.264931
0.049695 0.097973 0.268439
0.050931 0.097900 0.268234
0.052581 0.098606 0.270166
0.053689 0.098289 0.269290
0.054233 0.096975 0.265684
0.055271 0.096586 0.264607
0.056715 0.096906 0.265475
0.057991 0.096933 0.265537
0.058934 0.096413 0.264098
0.060789 0.097376 0.266720
0.062175 0.097563 0.267215
0.063518 0.097677 0.267507
0.064886 0.097824 0.267885
0.066180 0.097855 0.267948
0.067615 0.098090 0.268564
0.068937 0.098156 0.268714
0.069871 0.097676 0.267367
0.070601 0.096933 0.265299
0.071742 0.096770 0.264814
0.072638 0.096290 0.263458
0.072930 0.095037 0.259985
0.073890 0.094682 0.258968
0.074507 0.093907 0.256798
0.074935 0.092921 0.254049
0.076400 0.093233 0.254844
0.077692 0.093327 0.255039
0.079126 0.093586 0.255681
0.081216 0.094601 0.258383
0.082794 0.094999 0.259395
0.083313 0.094187 0.257097
0.086005 0.095819 0.261468
0.095516 0.104894 0.286130
0.096786 0.104790 0.285741
0.098360 0.105013 0.286238
0.099859 0.105151 0.286497
0.101292 0.105216 0.286550
0.102498 0.105048 0.285960
0.103849 0.105030 0.285775
0.105295 0.105108 0.285841
0.106748 0.105190 0.285911
0.108265 0.105332 0.286137
0.109861 0.105546 0.286551
0.111235 0.105544 0.286368
0.112747 0.105672 0.286528
0.114267 0.105804 0.286692
0.115891 0.106028 0.287094
0.117354 0.106101 0.287078
0.118937 0.106278 0.287333
0.120302 0.106260 0.287049
0.121941 0.106482 0.287402
0.123426 0.106564 0.287369
0.124955 0.106683 0.287419
0.126493 0.106806 0.287470
0.128319 0.107167 0.288149
0.129653 0.107114 0.287699
0.131411 0.107408 0.288169
0.133652 0.108087 0.289653
0.135106 0.108122 0.289395
0.136597 0.108184 0.289198
0.138344 0.108446 0.289516
0.140119 0.108725 0.289861
0.141934 0.109028 0.290252
0.143361 0.109031 0.289825
0.145307 0.109423 0.290415
0.147102 0.109696 0.290663
0.149062 0.110084 0.291198
0.150916 0.110388 0.291483
0.152596 0.110559 0.291398
0.154510 0.110896 0.291721
0.156254 0.111105 0.291683
0.157959 0.111282 0.291535
-0.043919 0.030695 0.079979
-0.044130 0.031119 0.081246
-0.043882 0.031224 0.081677
-0.043710 0.031387 0.082252
-0.044248 0.032067 0.084181
-0.044042 0.032215 0.084712
-0.043556 0.032159 0.084703
-0.043317 0.032286 0.085170
-0.043473 0.032713 0.086424
-0.039650 0.034857 0.093579
-0.042970 0.038203 0.102639
-0.042523 0.038240 0.102811
-0.042179 0.038371 0.103231
-0.041120 0.037848 0.101888
-0.041318 0.038482 0.103657
-0.040816 0.038472 0.103690
-0.040525 0.038662 0.104261
-0.065139 0.071765 0.194372
-0.064186 0.071725 0.194314
-0.063396 0.071868 0.194751
-0.062577 0.071982 0.195104
-0.061699 0.072031 0.195278
-0.061010 0.072306 0.196060
-0.060326 0.072594 0.196876
-0.059502 0.072721 0.197252
-0.058702 0.072881 0.197717
-0.057978 0.073143 0.198453
-0.057182 0.073321 0.198959
-0.056378 0.073494 0.199451
-0.055501 0.073578 0.199697
-0.054642 0.073688 0.200012
-0.053823 0.073857 0.200484
-0.052891 0.073873 0.200541
-0.052069 0.074048 0.201025
-0.051220 0.074188 0.201413
-0.050368 0.074331 0.201806
-0.049517 0.074481 0.202218
-0.048855 0.074925 0.203426
-0.048113 0.075263 0.204344
-0.047313 0.075522 0.205046
-0.046501 0.075773 0.205724
-0.045609 0.075901 0.206066
-0.044875 0.076304 0.207156
-0.044306 0.077010 0.209066
-0.043954 0.078136 0.212112
-0.055943 0.101762 0.276236
-0.054687 0.101848 0.276456
-0.053982 0.102988 0.279535
-0.053407 0.104439 0.283457
-0.052257 0.104812 0.284451
-0.050789 0.104550 0.283719
-0.049513 0.104680 0.284052
-0.048226 0.104795 0.284341
-0.046858 0.104733 0.284151
-0.045494 0.104679 0.283981
-0.044217 0.104825 0.284355
-0.042871 0.104815 0.284302
-0.041311 0.104262 0.282778
-0.039371 0.102682 0.278469
