ply
format ascii 1.0
element vertex 1679
property float x
property float y
property float z
end_header
0.112587 -0.029090 0.292483
0.113784 -0.029040 0.291995
0.115517 -0.029126 0.292876
0.116440 -0.029009 0.291697
0.118214 -0.029104 0.292650
0.119377 -0.029048 0.292076
0.120092 -0.028886 0.290425
0.121869 -0.028980 0.291345
0.123053 -0.028932 0.290833
0.124910 -0.029042 0.291899
0.126396 -0.029064 0.292073
0.127775 -0.029061 0.291992
0.128952 -0.029013 0.291444
0.130291 -0.029002 0.291261
0.131878 -0.029046 0.291622
0.133525 -0.029102 0.292094
0.134919 -0.029102 0.291997
0.136171 -0.029072 0.291587
0.137671 -0.029095 0.291697
0.139594 -0.029206 0.292681
0.140846 -0.029176 0.292238
0.142476 -0.029224 0.292567
0.143728 -0.029194 0.292107
0.144771 -0.029123 0.291219
0.146920 -0.029273 0.292538
0.148496 -0.029308 0.292683
0.149740 -0.029277 0.292162
0.151061 -0.029261 0.291781
0.152701 -0.029307 0.292000
-0.122585 -0.021883 0.230903
-0.121563 -0.021895 0.231204
-0.120604 -0.021919 0.231619
-0.119777 -0.021967 0.232286
-0.118892 -0.022005 0.232839
-0.117993 -0.022042 0.233363
-0.117175 -0.022095 0.234048
-0.116343 -0.022146 0.234706
-0.115606 -0.022216 0.235561
-0.115193 -0.022350 0.237090
-0.114403 -0.022414 0.237856
-0.113646 -0.022485 0.238697
-0.113005 -0.022580 0.239792
-0.112219 -0.022649 0.240589
-0.111437 -0.022719 0.241404
-0.110586 -0.022777 0.242075
-0.109772 -0.022844 0.242835
-0.108965 -0.022914 0.243619
-0.108079 -0.022968 0.244234
-0.107252 -0.023037 0.244990
-0.106393 -0.023099 0.245683
-0.105535 -0.023164 0.246384
-0.105093 -0.023322 0.248077
-0.104868 -0.023533 0.250323
-0.104033 -0.023609 0.251138
-0.103242 -0.023698 0.252078
-0.102705 -0.023848 0.253658
-0.101655 -0.023881 0.253989
-0.102959 -0.024474 0.260275
-0.101063 -0.024312 0.258520
-0.101396 -0.024688 0.262487
-0.100172 -0.024690 0.262470
-0.099313 -0.024783 0.263417
-0.098251 -0.024827 0.263837
-0.103706 -0.026541 0.281987
-0.102768 -0.026641 0.282991
-0.102308 -0.026870 0.285352
-0.101470 -0.027004 0.286705
-0.100897 -0.027213 0.288848
-0.099615 -0.027234 0.288991
-0.098383 -0.027269 0.289282
-0.097171 -0.027312 0.289642
-0.095680 -0.027275 0.289167
-0.094367 -0.027290 0.289224
-0.097624 -0.028645 0.303488
-0.096354 -0.028693 0.303889
-0.095000 -0.028718 0.304035
-0.093466 -0.028687 0.303598
-0.092093 -0.028706 0.303682
-0.090501 -0.028656 0.303039
-0.088443 -0.028455 0.300788
-0.086830 -0.028393 0.300008
-0.085550 -0.028439 0.300372
-0.084018 -0.028402 0.299853
-0.081262 -0.027942 0.294876
-0.079964 -0.027977 0.295114
-0.078896 -0.028095 0.296225
-0.077598 -0.028133 0.296502
-0.076310 -0.028177 0.296833
-0.075078 -0.028244 0.297401
-0.073859 -0.028318 0.298049
-0.072709 -0.028423 0.299008
-0.071395 -0.028465 0.299321
-0.067894 -0.027620 0.290301
-0.066416 -0.027580 0.289747
-0.065119 -0.027615 0.289981
-0.063792 -0.027639 0.290095
-0.062447 -0.027656 0.290140
-0.061107 -0.027676 0.290210
-0.059738 -0.027683 0.290155
-0.058409 -0.027710 0.290301
-0.057018 -0.027708 0.290147
-0.055678 -0.027732 0.290262
-0.054404 -0.027790 0.290738
-0.052912 -0.027737 0.290055
-0.051686 -0.027824 0.290840
-0.050379 -0.027872 0.291207
-0.048866 -0.027805 0.290387
-0.047480 -0.027809 0.290296
-0.046195 -0.027874 0.290849
-0.044771 -0.027856 0.290546
-0.043355 -0.027843 0.290283
-0.042013 -0.027877 0.290530
-0.039893 -0.027381 0.285241
-0.039715 -0.028229 0.293963
-0.036889 -0.027188 0.283015
-0.035529 -0.027190 0.282925
-0.034811 -0.027702 0.288149
-0.033284 -0.027587 0.286852
-0.031927 -0.027609 0.286980
-0.030585 -0.027646 0.287265
-0.029438 -0.027871 0.289515
-0.027768 -0.027600 0.286603
-0.026140 -0.027344 0.283862
-0.025192 -0.027810 0.288618
-0.023422 -0.027370 0.283970
-0.022184 -0.027536 0.285613
-0.020765 -0.027486 0.285018
-0.019106 -0.027086 0.280804
-0.011275 -0.024796 0.256804
-0.010025 -0.024779 0.256581
-0.008810 -0.024856 0.257337
-0.007560 -0.024846 0.257201
-0.006329 -0.024903 0.257759
-0.005087 -0.024939 0.258107
-0.003840 -0.024965 0.258345
-0.002595 -0.025033 0.259025
-0.001340 -0.025035 0.259029
-0.000084 -0.025028 0.258942
0.001175 -0.025117 0.259860
0.002477 -0.025541 0.264241
0.003819 -0.025955 0.268515
0.005187 -0.026291 0.271999
0.006479 -0.026180 0.270857
0.007730 -0.025971 0.268704
0.009098 -0.026159 0.270657
0.010376 -0.026070 0.269758
0.011642 -0.025976 0.268802
0.012960 -0.026006 0.269140
0.014238 -0.025956 0.268650
0.015498 -0.025886 0.267954
0.016961 -0.026138 0.270601
0.018171 -0.025992 0.269124
0.019552 -0.026095 0.270233
0.020821 -0.026044 0.269750
0.021984 -0.025874 0.268033
0.023461 -0.026072 0.270145
0.025074 -0.026392 0.273513
0.026381 -0.026375 0.273392
0.027243 -0.025934 0.268888
0.028429 -0.025829 0.267863
0.029502 -0.025635 0.265913
0.030782 -0.025629 0.265923
0.031971 -0.025551 0.265187
0.033223 -0.025527 0.265012
0.034552 -0.025562 0.265451
0.035835 -0.025562 0.265530
0.037189 -0.025611 0.266117
0.038613 -0.025702 0.267151
0.039612 -0.025515 0.265288
0.041040 -0.025606 0.266328
0.042489 -0.025704 0.267440
0.043539 -0.025563 0.266062
0.044470 -0.025362 0.264062
0.045631 -0.025300 0.263507
0.046377 -0.025016 0.260650
0.047489 -0.024941 0.259958
0.048676 -0.024907 0.259702
0.049863 -0.024875 0.259465
0.051262 -0.024948 0.260324
0.052556 -0.024967 0.260623
0.054010 -0.025060 0.261691
0.055437 -0.025137 0.262591
0.056784 -0.025174 0.263084
0.058116 -0.025203 0.263490
0.059676 -0.025328 0.264894
0.061967 -0.025751 0.269429
0.063432 -0.025821 0.270263
0.064609 -0.025773 0.269864
0.065990 -0.025807 0.270318
0.067237 -0.025788 0.270224
0.068517 -0.025782 0.270264
0.069764 -0.025764 0.270179
0.070662 -0.025621 0.268769
0.071495 -0.025459 0.267171
0.072168 -0.025247 0.265043
0.073268 -0.025189 0.264527
0.074219 -0.025083 0.263505
0.075029 -0.024933 0.262022
0.076004 -0.024842 0.261155
0.077056 -0.024779 0.260580
0.078198 -0.024747 0.260319
0.079533 -0.024775 0.260701
0.081033 -0.024853 0.261601
0.082682 -0.024975 0.262954
0.084206 -0.025054 0.263868
0.085759 -0.025141 0.264849
0.087462 -0.025268 0.266258
0.088587 -0.025227 0.265890
0.099469 -0.027926 0.294409
0.100708 -0.027880 0.293992
0.102372 -0.027952 0.294813
0.102861 -0.027706 0.292267
0.104121 -0.027671 0.291950
0.105254 -0.027603 0.291283
0.106621 -0.027598 0.291272
0.107863 -0.027561 0.290918
0.109042 -0.027509 0.290403
0.110478 -0.027522 0.290570
0.111629 -0.027465 0.289989
0.112817 -0.027419 0.289512
0.114300 -0.027444 0.289787
0.116656 -0.027676 0.292240
0.117876 -0.027636 0.291813
0.119090 -0.027595 0.291376
0.120638 -0.027632 0.291751
0.121563 -0.027527 0.290618
0.123486 -0.027648 0.291865
0.124384 -0.027539 0.290679
0.125446 -0.027469 0.289888
0.127272 -0.027565 0.290854
0.128293 -0.027487 0.289969
0.129939 -0.027543 0.290492
0.131587 -0.027599 0.290995
0.133162 -0.027638 0.291320
0.134888 -0.027707 0.291951
0.136108 -0.027672 0.291475
0.137930 -0.027759 0.292271
0.139333 -0.027760 0.292160
0.141043 -0.027823 0.292676
0.142517 -0.027837 0.292682
0.143520 -0.027761 0.291715
0.145050 -0.027787 0.291816
0.146501 -0.027797 0.291739
0.149500 -0.028098 0.294702
0.149749 -0.027882 0.292220
0.151002 -0.027854 0.291710
0.152653 -0.027900 0.291954
-0.122491 -0.020770 0.230757
-0.121621 -0.020807 0.231344
-0.120655 -0.020829 0.231746
-0.119779 -0.020866 0.232317
-0.119001 -0.020922 0.233078
-0.118178 -0.020970 0.233753
-0.117333 -0.021016 0.234387
-0.116658 -0.021093 0.235364
-0.116004 -0.021175 0.236393
-0.115339 -0.021257 0.237409
-0.114629 -0.021332 0.238343
-0.113886 -0.021403 0.239218
-0.113275 -0.021500 0.240379
-0.112488 -0.021565 0.241179
-0.111647 -0.021621 0.241871
-0.110898 -0.021696 0.242768
-0.110052 -0.021754 0.243465
-0.109245 -0.021821 0.244254
-0.108477 -0.021897 0.245141
-0.107615 -0.021956 0.245824
-0.106933 -0.022053 0.246933
-0.106596 -0.022224 0.248865
-0.106014 -0.022347 0.250253
-0.105533 -0.022494 0.251910
-0.104690 -0.022567 0.252724
-0.104072 -0.022691 0.254100
-0.103171 -0.022755 0.254804
-0.102099 -0.022782 0.255093
-0.103799 -0.023437 0.262392
-0.103180 -0.023576 0.263927
-0.101897 -0.023566 0.263777
-0.106686 -0.024977 0.279528
-0.105429 -0.024990 0.279626
-0.104956 -0.025192 0.281830
-0.103822 -0.025238 0.282287
-0.103409 -0.025463 0.284740
-0.102650 -0.025607 0.286288
-0.102297 -0.025859 0.289021
-0.101429 -0.025984 0.290351
-0.099967 -0.025959 0.289988
-0.097963 -0.025791 0.288024
-0.096840 -0.025853 0.288630
-0.095743 -0.025925 0.289331
-0.093421 -0.025661 0.286295
-0.097440 -0.027157 0.302885
-0.096371 -0.027259 0.303911
-0.095291 -0.027361 0.304932
-0.093661 -0.027305 0.304197
-0.092287 -0.027324 0.304286
-0.090545 -0.027232 0.303148
-0.087690 -0.026798 0.298190
-0.085669 -0.026608 0.295958
-0.081462 -0.025721 0.285978
-0.082974 -0.026642 0.296084
-0.081279 -0.026546 0.294896
-0.079709 -0.026489 0.294128
-0.078735 -0.026631 0.295575
-0.077422 -0.026662 0.295783
-0.076080 -0.026683 0.295892
-0.074839 -0.026742 0.296403
-0.073532 -0.026778 0.296675
-0.072585 -0.026950 0.298443
-0.071273 -0.026991 0.298755
-0.067826 -0.026209 0.289959
-0.066691 -0.026305 0.290891
-0.065007 -0.026185 0.289429
-0.063729 -0.026227 0.289751
-0.062517 -0.026298 0.290406
-0.061086 -0.026278 0.290052
-0.059753 -0.026301 0.290168
-0.058376 -0.026305 0.290076
-0.056950 -0.026286 0.289738
-0.055675 -0.026339 0.290181
-0.054271 -0.026331 0.289961
-0.052964 -0.026371 0.290272
-0.051670 -0.026420 0.290682
-0.050283 -0.026423 0.290585
-0.048902 -0.026429 0.290527
-0.047588 -0.026473 0.290886
-0.046208 -0.026482 0.290860
-0.044744 -0.026442 0.290295
-0.039647 -0.025846 0.283408
-0.039192 -0.026459 0.290012
-0.036642 -0.025651 0.281044
-0.035359 -0.025702 0.281493
-0.033738 -0.025501 0.279191
-0.031907 -0.025118 0.274903
-0.030083 -0.024709 0.270328
-0.028721 -0.024658 0.269687
-0.027343 -0.024588 0.268834
-0.025959 -0.024507 0.267858
-0.024537 -0.024378 0.266368
-0.023283 -0.024412 0.266658
-0.022040 -0.024462 0.267134
-0.020850 -0.024581 0.268359
-0.019522 -0.024543 0.267868
-0.019121 -0.025746 0.280929
-0.016825 -0.024387 0.266045
-0.015546 -0.024400 0.266121
-0.014593 -0.024973 0.272319
-0.013450 -0.025303 0.275862
-0.011460 -0.023936 0.260911
-0.010154 -0.023836 0.259776
-0.008918 -0.023895 0.260386
-0.007641 -0.023850 0.259852
-0.006378 -0.023835 0.259656
-0.005144 -0.023945 0.260832
-0.003870 -0.023888 0.260182
-0.002605 -0.023856 0.259811
-0.001343 -0.023810 0.259298
-0.000086 -0.023920 0.260481
0.001190 -0.024173 0.263222
0.002500 -0.024501 0.266794
0.003798 -0.024528 0.267078
0.005092 -0.024521 0.267003
0.006483 -0.024889 0.271018
0.007796 -0.024883 0.270965
0.009095 -0.024841 0.270517
0.010428 -0.024891 0.271075
0.011769 -0.024946 0.271696
0.013017 -0.024812 0.270264
0.014349 -0.024848 0.270686
0.015683 -0.024882 0.271087
0.016965 -0.024835 0.270607
0.018392 -0.024991 0.272351
0.019657 -0.024920 0.271619
0.020870 -0.024797 0.270322
0.021958 -0.024548 0.267659
0.023666 -0.024982 0.272446
0.024947 -0.024943 0.272073
0.025662 -0.024370 0.265881
0.025979 -0.023492 0.256360
0.027209 -0.023482 0.256313
0.028377 -0.023421 0.255717
0.029638 -0.023440 0.255989
0.030882 -0.023444 0.256098
0.032131 -0.023451 0.256248
0.033391 -0.023465 0.256482
0.034655 -0.023481 0.256730
0.035880 -0.023470 0.256690
0.037324 -0.023599 0.258185
0.038834 -0.023759 0.260022
0.040994 -0.024295 0.265974
0.042858 -0.024628 0.269713
0.043974 -0.024524 0.268668
0.044920 -0.024335 0.266684
0.046191 -0.024326 0.266689
0.046845 -0.024002 0.263232
0.048127 -0.024009 0.263400
0.049119 -0.023874 0.262017
0.050255 -0.023814 0.261459
0.051746 -0.023921 0.262732
0.052969 -0.023902 0.262626
0.054411 -0.023980 0.263588
0.055750 -0.024011 0.264028
0.057070 -0.024032 0.264365
0.058419 -0.024064 0.264818
0.060068 -0.024216 0.266592
0.062267 -0.024579 0.270691
0.063612 -0.024596 0.270986
0.064745 -0.024532 0.270390
0.066130 -0.024565 0.270854
0.067348 -0.024536 0.270632
0.068553 -0.024502 0.270368
0.069733 -0.024462 0.270023
0.070801 -0.024384 0.269263
0.071621 -0.024225 0.267609
0.072305 -0.024027 0.265512
0.073510 -0.024005 0.265372
0.074459 -0.023902 0.264326
0.075512 -0.023835 0.263679
0.076502 -0.023752 0.262840
0.077700 -0.023734 0.262728
0.078920 -0.023723 0.262695
0.080363 -0.023779 0.263397
0.081948 -0.023874 0.264534
0.083673 -0.024007 0.266080
0.085564 -0.024182 0.268102
0.087160 -0.024270 0.269155
0.088237 -0.024214 0.268598
0.096847 -0.026196 0.290660
0.098071 -0.026153 0.290252
0.100142 -0.026334 0.292324
0.101352 -0.026286 0.291858
0.102453 -0.026212 0.291093
0.104249 -0.026316 0.292294
0.104967 -0.026148 0.290478
0.106341 -0.026146 0.290497
0.107990 -0.026210 0.291251
0.109310 -0.026194 0.291108
0.110601 -0.026172 0.290887
0.111959 -0.026166 0.290841
0.113651 -0.026237 0.291649
0.115069 -0.026244 0.291735
0.116302 -0.026209 0.291353
0.117706 -0.026213 0.291394
0.118898 -0.026170 0.290909
0.120100 -0.026130 0.290455
0.122082 -0.026259 0.291865
0.122689 -0.026093 0.289989
0.124841 -0.026255 0.291756
0.126064 -0.026221 0.291328
0.127048 -0.026138 0.290354
0.128801 -0.026213 0.291132
0.130026 -0.026180 0.290701
0.131776 -0.026253 0.291430
0.133141 -0.026249 0.291292
0.135003 -0.026341 0.292221
0.136358 -0.026333 0.292032
0.137696 -0.026323 0.291800
0.139396 -0.026381 0.292319
0.140837 -0.026390 0.292277
0.142667 -0.026470 0.293020
0.143495 -0.026365 0.291697
0.144948 -0.026376 0.291643
0.146539 -0.026411 0.291851
0.150144 -0.026805 0.296008
0.150876 -0.026684 0.294458
0.151841 -0.026606 0.293373
0.153431 -0.026637 0.293485
-0.122779 -0.019721 0.231328
-0.121882 -0.019752 0.231870
-0.121010 -0.019788 0.232455
-0.120090 -0.019817 0.232945
-0.119242 -0.019858 0.233573
-0.118431 -0.019906 0.234277
-0.117627 -0.019956 0.234994
-0.116812 -0.020006 0.235693
-0.116120 -0.020078 0.236647
-0.115459 -0.020156 0.237674
-0.114734 -0.020225 0.238578
-0.114104 -0.020312 0.239690
-0.113534 -0.020412 0.240943
-0.112761 -0.020476 0.241778
-0.112096 -0.020562 0.242855
-0.111380 -0.020641 0.243833
-0.110451 -0.020681 0.244355
-0.109762 -0.020767 0.245417
-0.108982 -0.020838 0.246287
-0.108225 -0.020915 0.247224
-0.107482 -0.020996 0.248205
-0.106758 -0.021083 0.249244
-0.107034 -0.021371 0.252664
-0.106599 -0.021522 0.254456
-0.105752 -0.021593 0.255287
-0.105516 -0.021791 0.257623
-0.105182 -0.021974 0.259767
-0.104374 -0.022061 0.260773
-0.102979 -0.022024 0.260312
-0.109834 -0.023772 0.280941
-0.108704 -0.023813 0.281387
-0.108402 -0.024039 0.284014
-0.108827 -0.024434 0.288627
-0.107511 -0.024443 0.288676
-0.106406 -0.024501 0.289298
-0.105290 -0.024557 0.289903
-0.104020 -0.024579 0.290090
-0.102777 -0.024608 0.290359
-0.101466 -0.024621 0.290436
-0.100231 -0.024654 0.290733
-0.098910 -0.024666 0.290786
-0.097008 -0.024531 0.289106
-0.095751 -0.024558 0.289330
-0.094151 -0.024496 0.288508
-0.097069 -0.025626 0.301705
-0.096076 -0.025741 0.302951
-0.095008 -0.025839 0.303994
-0.093470 -0.025811 0.303546
-0.092223 -0.025863 0.304042
-0.089178 -0.025405 0.298537
-0.087492 -0.025325 0.297480
-0.083617 -0.024599 0.288832
-0.081381 -0.024339 0.285659
-0.083016 -0.025248 0.296194
-0.081197 -0.025119 0.294557
-0.079848 -0.025134 0.294599
-0.078564 -0.025170 0.294892
-0.077277 -0.025206 0.295187
-0.076034 -0.025259 0.295665
-0.074554 -0.025233 0.295230
-0.073301 -0.025284 0.295694
-0.072310 -0.025430 0.297264
-0.071004 -0.025469 0.297575
-0.068427 -0.025044 0.292475
-0.066328 -0.024780 0.289257
-0.064964 -0.024786 0.289183
-0.063694 -0.024828 0.289541
-0.062419 -0.024870 0.289896
-0.061079 -0.024888 0.289963
-0.059691 -0.024886 0.289810
-0.058381 -0.024918 0.290044
-0.057000 -0.024920 0.289936
-0.055593 -0.024911 0.289693
-0.054272 -0.024940 0.289906
-0.052871 -0.024934 0.289698
-0.051538 -0.024961 0.289878
-0.050176 -0.024974 0.289899
-0.048811 -0.024987 0.289922
-0.047463 -0.025009 0.290054
-0.046061 -0.025004 0.289867
-0.044721 -0.025032 0.290074
-0.043332 -0.025035 0.289986
-0.041933 -0.025032 0.289830
-0.040131 -0.024779 0.286789
-0.039050 -0.024970 0.288883
-0.036732 -0.024355 0.281660
-0.035405 -0.024375 0.281787
-0.033482 -0.023970 0.276996
-0.031798 -0.023709 0.273889
-0.030123 -0.023434 0.270614
-0.028900 -0.023500 0.271287
-0.027409 -0.023345 0.269403
-0.025997 -0.023245 0.268165
-0.024546 -0.023098 0.266386
-0.023242 -0.023081 0.266111
-0.021884 -0.023005 0.265157
-0.020560 -0.022958 0.264545
-0.019285 -0.022962 0.264527
-0.018005 -0.022962 0.264462
-0.016743 -0.022986 0.264667
-0.015546 -0.023111 0.266046
-0.014604 -0.023670 0.272435
-0.013460 -0.023983 0.275980
-0.011473 -0.022695 0.261115
-0.010174 -0.022621 0.260211
-0.008933 -0.022670 0.260742
-0.007654 -0.022626 0.260190
-0.006391 -0.022616 0.260046
-0.005129 -0.022610 0.259954
-0.003867 -0.022605 0.259862
-0.002602 -0.022560 0.259324
-0.001347 -0.022604 0.259819
-0.000086 -0.022562 0.259318
0.001177 -0.022665 0.260490
0.002494 -0.023164 0.266223
0.003794 -0.023214 0.266794
0.005059 -0.023079 0.265247
0.006375 -0.023185 0.266475
0.007672 -0.023197 0.266621
0.008944 -0.023139 0.265968
0.010186 -0.023031 0.264735
0.011481 -0.023052 0.265000
0.012807 -0.023125 0.265861
0.014046 -0.023041 0.264922
0.015349 -0.023068 0.265263
0.016680 -0.023129 0.266006
0.017972 -0.023131 0.266069
0.019302 -0.023179 0.266656
0.020560 -0.023139 0.266247
0.021899 -0.023191 0.266892
0.023454 -0.023451 0.269942
0.024955 -0.023634 0.272105
0.026257 -0.023618 0.271984
0.025967 -0.022242 0.256187
0.027206 -0.022240 0.256228
0.028487 -0.022271 0.256652
0.029640 -0.022204 0.255953
0.030868 -0.022196 0.255924
0.032123 -0.022208 0.256134
0.033315 -0.022176 0.255847
0.034520 -0.022155 0.255677
0.035730 -0.022138 0.255567
0.036969 -0.022141 0.255676
0.038853 -0.022516 0.260097
0.040794 -0.022900 0.264626
0.042962 -0.023385 0.270312
0.044129 -0.023312 0.269566
0.045007 -0.023094 0.267146
0.046495 -0.023194 0.268390
0.047568 -0.023086 0.267245
0.048640 -0.022984 0.266161
0.049699 -0.022881 0.265064
0.051090 -0.022932 0.265757
0.052190 -0.022853 0.264944
0.053514 -0.022873 0.265284
0.054751 -0.022857 0.265192
0.056111 -0.022891 0.265695
0.057300 -0.022855 0.265383
0.058529 -0.022837 0.265278
0.060460 -0.023087 0.268291
0.062538 -0.023382 0.271825
0.063608 -0.023296 0.270930
0.064835 -0.023270 0.270727
0.066222 -0.023301 0.271192
0.067359 -0.023244 0.270638
0.068543 -0.023206 0.270295
0.069744 -0.023174 0.270029
0.070681 -0.023058 0.268772
0.071383 -0.022870 0.266686
0.072098 -0.022693 0.264721
0.073362 -0.022692 0.264805
0.074679 -0.022707 0.265076
0.075739 -0.022645 0.264445
0.077034 -0.022654 0.264639
0.078227 -0.022634 0.264486
0.079679 -0.022687 0.265197
0.081140 -0.022741 0.265919
0.082930 -0.022885 0.267681
0.084765 -0.023036 0.269532
0.086071 -0.023042 0.269671
0.087720 -0.023137 0.270866
0.089303 -0.023213 0.271823
0.099396 -0.025107 0.294154
0.100632 -0.025066 0.293737
0.101264 -0.024878 0.291591
0.102746 -0.024900 0.291913
0.103828 -0.024826 0.291102
0.105052 -0.024788 0.290701
0.106472 -0.024796 0.290843
0.107937 -0.024815 0.291101
0.109203 -0.024788 0.290816
0.110480 -0.024763 0.290562
0.112014 -0.024797 0.290980
0.113456 -0.024810 0.291146
0.115136 -0.024873 0.291904
0.116298 -0.024825 0.291341
0.117667 -0.024821 0.291299
0.119003 -0.024811 0.291168
0.120186 -0.024769 0.290666
0.121458 -0.024746 0.290380
0.123019 -0.024783 0.290776
0.124131 -0.024728 0.290103
0.125458 -0.024718 0.289936
0.127360 -0.024819 0.291079
0.128936 -0.024856 0.291449
0.130176 -0.024828 0.291049
0.131902 -0.024892 0.291725
0.133350 -0.024903 0.291766
0.134767 -0.024908 0.291729
0.136436 -0.024958 0.292219
0.138020 -0.024993 0.292508
0.139348 -0.024981 0.292243
0.140769 -0.024985 0.292160
0.142209 -0.024993 0.292107
0.143543 -0.024983 0.291824
0.144967 -0.024988 0.291712
0.146503 -0.025012 0.291813
0.148276 -0.025075 0.292360
0.149851 -0.025105 0.292495
0.151150 -0.025088 0.292076
0.152622 -0.025099 0.291978
-0.122830 -0.018630 0.231454
-0.122075 -0.018681 0.232262
-0.121269 -0.018726 0.232976
-0.120360 -0.018755 0.233492
-0.119576 -0.018804 0.234250
-0.118870 -0.018867 0.235166
-0.118107 -0.018922 0.235973
-0.117275 -0.018966 0.236647
-0.116601 -0.019038 0.237646
-0.115763 -0.019083 0.238316
-0.115081 -0.019156 0.239315
-0.114302 -0.019214 0.240120
-0.113825 -0.019324 0.241574
-0.113097 -0.019393 0.242508
-0.112434 -0.019475 0.243597
-0.111706 -0.019548 0.244558
-0.110906 -0.019609 0.245371
-0.110315 -0.019709 0.246661
-0.109435 -0.019759 0.247317
-0.108698 -0.019836 0.248309
-0.108117 -0.019943 0.249674
-0.107528 -0.020051 0.251045
-0.107789 -0.020322 0.254446
-0.106918 -0.020384 0.255217
-0.105451 -0.020332 0.254559
-0.108338 -0.021127 0.264511
-0.107278 -0.021163 0.264940
-0.106647 -0.021285 0.266447
-0.113307 -0.022882 0.286414
-0.112032 -0.022896 0.286553
-0.111322 -0.023028 0.288157
-0.110247 -0.023086 0.288836
-0.109027 -0.023115 0.289146
-0.107734 -0.023128 0.289262
-0.106511 -0.023158 0.289569
-0.105260 -0.023182 0.289805
-0.103932 -0.023190 0.289830
-0.102619 -0.023201 0.289893
-0.101211 -0.023191 0.289687
-0.099736 -0.023165 0.289278
-0.098541 -0.023204 0.289678
-0.097196 -0.023208 0.289645
-0.095781 -0.023196 0.289396
-0.093646 -0.023007 0.286935
-0.097686 -0.024351 0.303594
-0.096417 -0.024392 0.303997
-0.095218 -0.024453 0.304635
-0.093604 -0.024407 0.303947
-0.092045 -0.024374 0.303421
-0.088645 -0.023845 0.296719
-0.087191 -0.023831 0.296422
-0.082782 -0.022996 0.285914
-0.082642 -0.023338 0.290047
-0.082812 -0.023781 0.295427
-0.081010 -0.023664 0.293837
-0.079688 -0.023685 0.293968
-0.078376 -0.023709 0.294143
-0.077125 -0.023754 0.294564
-0.075867 -0.023798 0.294974
-0.074379 -0.023770 0.294491
-0.073228 -0.023851 0.295355
-0.072247 -0.023992 0.296958
-0.070942 -0.024028 0.297269
-0.067902 -0.023466 0.290181
-0.066295 -0.023387 0.289065
-0.065088 -0.023448 0.289684
-0.063615 -0.023414 0.289126
-0.062350 -0.023457 0.289519
-0.061125 -0.023517 0.290127
-0.059521 -0.023431 0.288928
-0.058262 -0.023480 0.289393
-0.056932 -0.023502 0.289530
-0.055472 -0.023470 0.289003
-0.054207 -0.023521 0.289497
-0.052930 -0.023570 0.289962
-0.051498 -0.023550 0.289589
-0.050197 -0.023591 0.289960
-0.048885 -0.023629 0.290296
-0.047439 -0.023602 0.289844
-0.046087 -0.023622 0.289963
-0.044674 -0.023611 0.289702
-0.043299 -0.023620 0.289695
-0.041921 -0.023629 0.289678
-0.040356 -0.023529 0.288331
-0.039325 -0.023743 0.290848
-0.036871 -0.023084 0.282658
-0.035547 -0.023108 0.282843
-0.034119 -0.023064 0.282197
-0.032789 -0.023085 0.282353
-0.028919 -0.022204 0.271394
-0.027427 -0.022057 0.269510
-0.026014 -0.021963 0.268271
-0.024562 -0.021824 0.266492
-0.023258 -0.021808 0.266217
-0.021899 -0.021736 0.265263
-0.020574 -0.021692 0.264650
-0.019298 -0.021696 0.264633
-0.018140 -0.021843 0.266359
-0.016755 -0.021718 0.264773
-0.015481 -0.021729 0.264850
-0.014826 -0.022689 0.276494
-0.013493 -0.022699 0.276561
-0.011411 -0.021312 0.259617
-0.010175 -0.021358 0.260128
-0.008945 -0.021433 0.261000
-0.007657 -0.021369 0.260186
-0.006405 -0.021401 0.260546
-0.005160 -0.021475 0.261408
-0.003903 -0.021537 0.262140
-0.002636 -0.021571 0.262534
-0.001371 -0.021705 0.264150
-0.000089 -0.021750 0.264679
0.001189 -0.021645 0.263396
0.002512 -0.022035 0.268130
0.003812 -0.022029 0.268059
0.005194 -0.022378 0.272311
0.007676 -0.021918 0.266729
0.008948 -0.021864 0.266076
0.010192 -0.021761 0.264842
0.011488 -0.021781 0.265107
0.012814 -0.021850 0.265968
0.014054 -0.021770 0.265029
0.015358 -0.021796 0.265370
0.016690 -0.021854 0.266114
0.017982 -0.021856 0.266176
0.019363 -0.021957 0.267451
0.020574 -0.021866 0.266384
0.021608 -0.021607 0.263289
0.023716 -0.022392 0.272908
0.024894 -0.022262 0.271382
0.025278 -0.021471 0.261795
0.025996 -0.021026 0.256425
0.027261 -0.021043 0.256697
0.028556 -0.021081 0.257225
0.029727 -0.021028 0.256648
0.030973 -0.021030 0.256748
0.032242 -0.021047 0.257028
0.033483 -0.021046 0.257086
0.034751 -0.021060 0.257342
0.035868 -0.020985 0.256506
0.037106 -0.020984 0.256570
0.038770 -0.021216 0.259495
0.040839 -0.021648 0.264866
0.043137 -0.022172 0.271367
0.044431 -0.022163 0.271360
0.045366 -0.021981 0.269229
0.046650 -0.021974 0.269240
0.048015 -0.022004 0.269711
0.049124 -0.021919 0.268758
0.050222 -0.021833 0.267809
0.051493 -0.021824 0.267806
0.052499 -0.021707 0.266468
0.053723 -0.021683 0.266275
0.055113 -0.021725 0.266903
0.056289 -0.021684 0.266495
0.057566 -0.021682 0.266576
0.058815 -0.021670 0.266532
0.060583 -0.021845 0.268796
0.062410 -0.022034 0.271231
0.063529 -0.021971 0.270555
0.064863 -0.021983 0.270809
0.066174 -0.021986 0.270960
0.067359 -0.021949 0.270602
0.068594 -0.021929 0.270460
0.069757 -0.021887 0.270046
0.070899 -0.021840 0.269571
0.071692 -0.021689 0.267811
0.072553 -0.021564 0.266362
0.073856 -0.021572 0.266559
0.075090 -0.021560 0.266510
0.076317 -0.021547 0.266436
0.077675 -0.021570 0.266816
0.079086 -0.021607 0.267363
0.080675 -0.021691 0.268490
0.082182 -0.021750 0.269310
0.083969 -0.021880 0.271010
0.084964 -0.021804 0.270144
0.086363 -0.021832 0.270567
0.088192 -0.021966 0.272305
0.088721 -0.021777 0.270034
0.097990 -0.023708 0.294055
0.099229 -0.023669 0.293643
0.100343 -0.023602 0.292880
0.101338 -0.023508 0.291788
0.102774 -0.023519 0.291979
0.104148 -0.023515 0.291988
0.105010 -0.023397 0.290574
0.106118 -0.023337 0.289868
0.107478 -0.023333 0.289855
0.109905 -0.023557 0.292679
0.111211 -0.023539 0.292479
0.112634 -0.023545 0.292586
0.113921 -0.023523 0.292335
0.115202 -0.023501 0.292070
0.116649 -0.023512 0.292220
0.117979 -0.023501 0.292072
0.119245 -0.023476 0.291763
0.120538 -0.023458 0.291521
0.121821 -0.023438 0.291252
0.123189 -0.023434 0.291184
0.124575 -0.023434 0.291149
0.125978 -0.023437 0.291147
0.127368 -0.023438 0.291106
0.128666 -0.023422 0.290851
0.129999 -0.023413 0.290668
0.131656 -0.023462 0.291196
0.133310 -0.023508 0.291694
0.134854 -0.023535 0.291934
0.136312 -0.023547 0.291974
0.137815 -0.023566 0.292095
0.139324 -0.023585 0.292215
0.140683 -0.023579 0.292006
0.142078 -0.023580 0.291864
0.143518 -0.023587 0.291800
0.145060 -0.023611 0.291929
0.146296 -0.023585 0.291431
0.147679 -0.023584 0.291217
0.149315 -0.023622 0.291483
0.150958 -0.023660 0.291741
0.152471 -0.023678 0.291729
-0.123392 -0.017611 0.232538
-0.122615 -0.017657 0.233316
-0.121875 -0.017709 0.234165
-0.120884 -0.017725 0.234530
-0.120032 -0.017762 0.235164
-0.119337 -0.017824 0.236109
-0.118552 -0.017873 0.236881
-0.117675 -0.017908 0.237473
-0.116995 -0.017975 0.238464
-0.116147 -0.018017 0.239122
-0.115354 -0.018069 0.239896
-0.114595 -0.018126 0.240747
-0.113872 -0.018191 0.241683
-0.113127 -0.018254 0.242584
-0.112816 -0.018389 0.244435
-0.112420 -0.018512 0.246130
-0.111981 -0.018631 0.247756
-0.111089 -0.018676 0.248397
-0.110652 -0.018799 0.250072
-0.110754 -0.019018 0.253010
-0.109883 -0.019073 0.253754
-0.109117 -0.019147 0.254757
-0.108175 -0.019192 0.255359
-0.118859 -0.021323 0.283719
-0.118525 -0.021504 0.286117
-0.118110 -0.021674 0.288367
-0.115776 -0.021491 0.285924
-0.115242 -0.021643 0.287916
-0.113952 -0.021654 0.288037
-0.112807 -0.021694 0.288528
-0.111595 -0.021722 0.288855
-0.110466 -0.021766 0.289401
-0.109188 -0.021782 0.289562
-0.107958 -0.021809 0.289852
-0.106696 -0.021829 0.290060
-0.105408 -0.021845 0.290198
-0.104256 -0.021889 0.290718
-0.102760 -0.021861 0.290274
-0.101154 -0.021809 0.289504
-0.099772 -0.021805 0.289363
-0.098658 -0.021860 0.290002
-0.096975 -0.021789 0.288965
-0.095954 -0.021866 0.289897
-0.094475 -0.021840 0.289451
-0.097223 -0.022805 0.302127
-0.096176 -0.022895 0.303211
-0.095225 -0.023011 0.304628
-0.093527 -0.022947 0.303667
-0.092508 -0.023050 0.304915
-0.088087 -0.022296 0.294819
-0.085183 -0.021908 0.289563
-0.084393 -0.022059 0.291443
-0.083854 -0.022283 0.294268
-0.082561 -0.022310 0.294498
-0.081108 -0.022294 0.294157
-0.079648 -0.022275 0.293784
-0.078334 -0.022298 0.293948
-0.077090 -0.022341 0.294387
-0.075677 -0.022337 0.294192
-0.074241 -0.022325 0.293904
-0.072875 -0.022335 0.293889
-0.071643 -0.022386 0.294428
-0.070349 -0.022420 0.294737
-0.067705 -0.022017 0.289296
-0.066340 -0.022021 0.289214
-0.065012 -0.022038 0.289299
-0.063549 -0.022009 0.288779
-0.062367 -0.022078 0.289548
-0.061086 -0.022115 0.289892
-0.059477 -0.022031 0.288662
-0.058122 -0.022040 0.288647
-0.056846 -0.022081 0.289039
-0.055516 -0.022102 0.289178
-0.054181 -0.022121 0.289302
-0.052866 -0.022151 0.289554
-0.051538 -0.022177 0.289758
-0.050157 -0.022180 0.289673
-0.048880 -0.022231 0.290206
-0.047472 -0.022224 0.289982
-0.046051 -0.022210 0.289674
-0.043300 -0.022226 0.289641
-0.041811 -0.022175 0.288850
-0.040362 -0.022142 0.288305
-0.039117 -0.022223 0.289246
-0.036917 -0.021747 0.282945
-0.035670 -0.021818 0.283758
-0.034326 -0.021833 0.283838
-0.028979 -0.020028 0.260196
-0.027396 -0.019792 0.257035
-0.026140 -0.019780 0.256797
-0.024932 -0.019806 0.257047
-0.023753 -0.019858 0.257646
-0.022495 -0.019847 0.257423
-0.021261 -0.019856 0.257464
-0.020293 -0.020131 0.260963
-0.019222 -0.020333 0.263511
-0.018152 -0.020566 0.266460
-0.016872 -0.020577 0.266543
-0.015468 -0.020427 0.264544
-0.014682 -0.021141 0.273723
-0.013362 -0.021150 0.273790
-0.011499 -0.020207 0.261535
-0.010161 -0.020068 0.259688
-0.008919 -0.020105 0.260137
-0.007667 -0.020131 0.260434
-0.006360 -0.019991 0.258582
-0.005127 -0.020076 0.259664
-0.003883 -0.020158 0.260688
-0.002636 -0.020296 0.262451
-0.001369 -0.020391 0.263661
-0.000090 -0.020485 0.264862
0.001205 -0.020655 0.267050
0.002514 -0.020756 0.268358
0.003812 -0.020735 0.268083
0.005196 -0.021070 0.272416
0.006518 -0.021067 0.272387
0.007433 -0.019972 0.258231
0.008668 -0.019931 0.257717
0.009979 -0.020051 0.259280
0.011249 -0.020071 0.259566
0.012665 -0.020322 0.262830
0.013899 -0.020261 0.262069
0.015219 -0.020324 0.262920
0.016628 -0.020489 0.265088
0.017880 -0.020449 0.264614
0.019374 -0.020673 0.267552
0.020586 -0.020587 0.266485
0.021715 -0.020433 0.264538
0.023471 -0.020853 0.270037
0.024794 -0.020864 0.270237
0.026086 -0.020850 0.270116
0.026015 -0.019800 0.256565
0.027294 -0.019825 0.256962
0.028549 -0.019832 0.257118
0.029705 -0.019773 0.256412
0.030967 -0.019786 0.256654
0.032183 -0.019769 0.256509
0.033446 -0.019781 0.256749
0.034644 -0.019756 0.256505
0.035846 -0.019735 0.256302
0.037160 -0.019774 0.256903
0.038802 -0.019980 0.259662
0.040836 -0.020369 0.264798
0.043433 -0.021006 0.273177
0.044703 -0.020983 0.272974
0.045443 -0.020719 0.269643
0.046968 -0.020818 0.271029
0.048351 -0.020850 0.271550
0.049254 -0.020680 0.269427
0.050533 -0.020672 0.269424
0.051641 -0.020595 0.268533
0.052749 -0.020523 0.267695
0.054055 -0.020529 0.267882
0.055354 -0.020532 0.268029
0.056609 -0.020520 0.267971
0.057774 -0.020476 0.267500
0.059300 -0.020559 0.268695
0.061100 -0.020731 0.271056
0.062466 -0.020752 0.271439
0.063662 -0.020717 0.271087
0.064974 -0.020720 0.271235
0.066341 -0.020741 0.271609
0.067523 -0.020704 0.271231
0.068735 -0.020677 0.270982
0.069932 -0.020647 0.270691
0.071034 -0.020590 0.270055
0.072015 -0.020501 0.268987
0.072705 -0.020334 0.266894
0.074187 -0.020390 0.267729
0.075307 -0.020346 0.267252
0.076444 -0.020309 0.266853
0.077964 -0.020373 0.267785
0.079543 -0.020449 0.268884
0.080954 -0.020481 0.269395
0.082499 -0.020545 0.270328
0.083992 -0.020595 0.271066
0.085602 -0.020671 0.272151
0.086947 -0.020682 0.272376
0.088526 -0.020748 0.273316
0.095955 -0.022162 0.292032
0.097187 -0.022126 0.291627
0.099489 -0.022330 0.294398
0.100201 -0.022177 0.292450
0.101638 -0.022187 0.292640
0.102760 -0.022128 0.291925
0.104190 -0.022137 0.292094
0.105204 -0.022058 0.291102
0.106272 -0.021992 0.290280
0.107996 -0.022062 0.291244
0.109410 -0.022067 0.291352
0.110709 -0.022050 0.291155
0.112347 -0.022100 0.291836
0.113772 -0.022106 0.291949
0.114964 -0.022069 0.291463
0.116446 -0.022087 0.291711
0.117856 -0.022091 0.291768
0.119174 -0.022078 0.291592
0.120556 -0.022077 0.291567
0.121914 -0.022072 0.291478
0.123141 -0.022043 0.291075
0.124349 -0.022012 0.290628
0.125828 -0.022029 0.290808
0.127079 -0.022006 0.290456
0.128678 -0.022043 0.290887
0.129992 -0.022031 0.290665
0.131660 -0.022078 0.291218
0.133362 -0.022130 0.291824
0.134674 -0.022118 0.291561
0.136856 -0.022246 0.293157
0.137995 -0.022205 0.292496
0.139489 -0.022221 0.292582
0.140948 -0.022231 0.292579
0.142425 -0.022243 0.292599
0.143986 -0.022268 0.292778
0.145253 -0.022248 0.292345
0.146684 -0.022253 0.292233
0.148975 -0.022388 0.293803
0.150467 -0.022400 0.293765
0.151608 -0.022361 0.293032
0.153119 -0.022377 0.293004
-0.123563 -0.016530 0.232885
-0.122813 -0.016577 0.233714
-0.122148 -0.016636 0.234711
-0.121119 -0.016647 0.235008
-0.120393 -0.016699 0.235892
-0.119743 -0.016763 0.236931
-0.118901 -0.016801 0.237596
-0.118087 -0.016844 0.238320
-0.117310 -0.016894 0.239122
-0.116500 -0.016939 0.239863
-0.115643 -0.016978 0.240509
-0.114748 -0.017013 0.241081
-0.114102 -0.017085 0.242184
-0.113664 -0.017191 0.243745
-0.114069 -0.017427 0.247158
-0.113625 -0.017537 0.248776
-0.112647 -0.017566 0.249236
-0.111846 -0.017624 0.250096
-0.110953 -0.017669 0.250758
-0.110743 -0.017824 0.252987
-0.110359 -0.017954 0.254857
-0.121995 -0.020065 0.284825
-0.119932 -0.019943 0.283112
-0.118893 -0.019992 0.283801
-0.118560 -0.020161 0.286200
-0.118145 -0.020321 0.288451
-0.116880 -0.020336 0.288646
-0.115647 -0.020357 0.288922
-0.114298 -0.020358 0.288905
-0.113042 -0.020376 0.289123
-0.111719 -0.020382 0.289165
-0.110391 -0.020387 0.289195
-0.109185 -0.020416 0.289542
-0.107803 -0.020411 0.289425
-0.106414 -0.020406 0.289279
-0.105225 -0.020439 0.289680
-0.103911 -0.020448 0.289738
-0.102592 -0.020457 0.289784
-0.100855 -0.020381 0.288631
-0.099361 -0.020353 0.288152
-0.098283 -0.020411 0.288881
-0.096826 -0.020391 0.288500
-0.095751 -0.020451 0.289261
-0.093670 -0.020296 0.286961
-0.096788 -0.021279 0.300751
-0.096052 -0.021431 0.302791
-0.094678 -0.021443 0.302852
-0.093144 -0.021419 0.302398
-0.089210 -0.020834 0.294017
-0.088228 -0.020931 0.295261
-0.086353 -0.020815 0.293510
-0.085102 -0.020849 0.293860
-0.083858 -0.020886 0.294249
-0.082579 -0.020914 0.294527
-0.081136 -0.020902 0.294224
-0.079693 -0.020889 0.293912
-0.078350 -0.020903 0.293969
-0.077091 -0.020940 0.294354
-0.075843 -0.020981 0.294798
-0.074433 -0.020979 0.294624
-0.073190 -0.021024 0.295118
-0.072117 -0.021120 0.296335
-0.070815 -0.021153 0.296647
-0.067465 -0.020562 0.288228
-0.066225 -0.020603 0.288667
-0.064904 -0.020621 0.288772
-0.063533 -0.020622 0.288659
-0.062301 -0.020671 0.289197
-0.060979 -0.020690 0.289333
-0.059561 -0.020678 0.289023
-0.058215 -0.020690 0.289060
-0.056860 -0.020700 0.289058
-0.055552 -0.020728 0.289313
-0.054171 -0.020730 0.289200
-0.052821 -0.020743 0.289254
-0.051520 -0.020777 0.289598
-0.050135 -0.020779 0.289485
-0.048735 -0.020774 0.289290
-0.047388 -0.020792 0.289415
-0.045990 -0.020788 0.289231
-0.044586 -0.020781 0.289012
-0.043262 -0.020812 0.289322
-0.041834 -0.020794 0.288949
-0.040339 -0.020740 0.288078
-0.039268 -0.020908 0.290298
-0.036718 -0.020272 0.281357
-0.035656 -0.020440 0.283577
-0.034359 -0.020482 0.284049
-0.033020 -0.020501 0.284207
-0.028996 -0.018782 0.260287
-0.027517 -0.018632 0.258114
-0.026228 -0.018601 0.257605
-0.024963 -0.018585 0.257299
-0.023808 -0.018655 0.258180
-0.022546 -0.018643 0.257940
-0.021326 -0.018666 0.258191
-0.020099 -0.018686 0.258395
-0.019087 -0.018923 0.261600
-0.017860 -0.018965 0.262107
-0.016748 -0.019143 0.264516
-0.015475 -0.019153 0.264593
-0.014747 -0.019901 0.274863
-0.013422 -0.019910 0.274930
-0.011486 -0.018916 0.261157
-0.010252 -0.018976 0.261949
-0.008984 -0.018980 0.261955
-0.007720 -0.018996 0.262137
-0.006460 -0.019030 0.262572
-0.005209 -0.019113 0.263699
-0.003949 -0.019209 0.264988
-0.002686 -0.019376 0.267277
-0.001393 -0.019429 0.267982
-0.000092 -0.019428 0.267965
0.001218 -0.019573 0.269947
0.002524 -0.019539 0.269480
0.003821 -0.019482 0.268691
0.005239 -0.019913 0.274635
0.006572 -0.019911 0.274606
0.007465 -0.018802 0.259326
0.008676 -0.018698 0.257902
0.009917 -0.018676 0.257621
0.011190 -0.018715 0.258171
0.012464 -0.018744 0.258602
0.013702 -0.018721 0.258311
0.015039 -0.018825 0.259772
0.016334 -0.018864 0.260348
0.017618 -0.018886 0.260693
0.018886 -0.018888 0.260764
0.020200 -0.018934 0.261445
0.021685 -0.019125 0.264131
0.023531 -0.019595 0.270679
0.024828 -0.019583 0.270564
0.025505 -0.019107 0.264048
0.026051 -0.018583 0.256874
0.027334 -0.018609 0.257290
0.028620 -0.018634 0.257707
0.029762 -0.018568 0.256857
0.031088 -0.018617 0.257604
0.032257 -0.018572 0.257056
0.033441 -0.018538 0.256670
0.034659 -0.018525 0.256565
0.035924 -0.018537 0.256819
0.037035 -0.018471 0.255992
0.039073 -0.018858 0.261431
0.040655 -0.019007 0.263586
0.042160 -0.019111 0.265129
0.043448 -0.019114 0.265265
0.044671 -0.019090 0.265019
0.045972 -0.019098 0.265238
0.047216 -0.019084 0.265137
0.048669 -0.019152 0.266189
0.049797 -0.019092 0.265456
0.050996 -0.019062 0.265143
0.052408 -0.019111 0.265924
0.053741 -0.019130 0.266284
0.055079 -0.019149 0.266660
0.056456 -0.019181 0.267210
0.057756 -0.019185 0.267382
0.059397 -0.019301 0.269096
0.061064 -0.019420 0.270861
0.062533 -0.019472 0.271695
0.063648 -0.019413 0.270991
0.064978 -0.019422 0.271219
0.066303 -0.019429 0.271422
0.067527 -0.019406 0.271215
0.068691 -0.019367 0.270778
0.069885 -0.019339 0.270480
0.071034 -0.019299 0.270023
0.071810 -0.019161 0.268194
0.072795 -0.019082 0.267196
0.073928 -0.019044 0.266768
0.075076 -0.019012 0.266407
0.076169 -0.018966 0.265869
0.077209 -0.018910 0.265168
0.078314 -0.018871 0.264709
0.079703 -0.018900 0.265209
0.081013 -0.018910 0.265437
0.082361 -0.018928 0.265781
0.084154 -0.019047 0.267529
0.085613 -0.019088 0.268180
0.086912 -0.019092 0.268317
0.088869 -0.019238 0.270451
0.097753 -0.020859 0.293308
0.098987 -0.020824 0.292896
0.100234 -0.020793 0.292530
0.101309 -0.020728 0.291678
0.102740 -0.020737 0.291858
0.104247 -0.020760 0.292241
0.105330 -0.020699 0.291440
0.106668 -0.020689 0.291351
0.108236 -0.020724 0.291884
0.109317 -0.020666 0.291099
0.110912 -0.020705 0.291681
0.112084 -0.020665 0.291148
0.113740 -0.020715 0.291865
0.114976 -0.020687 0.291492
0.116614 -0.020732 0.292130
0.117843 -0.020704 0.291736
0.119263 -0.020709 0.291810
0.120577 -0.020697 0.291621
0.121787 -0.020666 0.291179
0.123187 -0.020669 0.291190
0.124339 -0.020630 0.290611
0.126008 -0.020677 0.291232
0.127530 -0.020699 0.291496
0.129168 -0.020739 0.292005
0.130082 -0.020664 0.290876
0.131314 -0.020640 0.290466
0.133377 -0.020746 0.291871
0.134739 -0.020741 0.291717
0.135980 -0.020718 0.291298
0.137960 -0.020808 0.292440
0.139239 -0.020790 0.292077
0.140562 -0.020780 0.291799
0.142257 -0.020824 0.292278
0.143610 -0.020818 0.292038
0.145048 -0.020824 0.291958
0.146424 -0.020822 0.291741
0.147861 -0.020828 0.291635
0.149267 -0.020829 0.291452
0.150869 -0.020857 0.291635
0.152339 -0.020867 0.291544
-0.123685 -0.015440 0.233138
-0.122921 -0.015482 0.233942
-0.122377 -0.015553 0.235173
-0.121329 -0.015560 0.235435
-0.120603 -0.015610 0.236321
-0.119962 -0.015671 0.237383
-0.119238 -0.015722 0.238286
-0.118611 -0.015788 0.239393
-0.118065 -0.015865 0.240676
-0.117385 -0.015926 0.241699
-0.116282 -0.015930 0.241851
-0.115987 -0.016046 0.243696
-0.115483 -0.016135 0.245125
-0.115446 -0.016292 0.247577
-0.114848 -0.016372 0.248855
-0.114118 -0.016435 0.249862
-0.113513 -0.016517 0.251159
-0.112798 -0.016585 0.252229
-0.111833 -0.016617 0.252750
-0.111156 -0.016694 0.253934
-0.111587 -0.016940 0.257696
-0.122028 -0.018727 0.284903
-0.121532 -0.018857 0.286891
-0.120486 -0.018904 0.287603
-0.119279 -0.018926 0.287934
-0.118057 -0.018947 0.288232
-0.116886 -0.018976 0.288658
-0.115601 -0.018987 0.288801
-0.114247 -0.018987 0.288772
-0.113058 -0.019015 0.289157
-0.111661 -0.019008 0.289007
-0.110440 -0.019032 0.289314
-0.109131 -0.019040 0.289390
-0.107880 -0.019059 0.289620
-0.106620 -0.019077 0.289828
-0.105298 -0.019084 0.289868
-0.104002 -0.019096 0.289980
-0.102708 -0.019109 0.290095
-0.101426 -0.019125 0.290251
-0.100021 -0.019117 0.290049
-0.098673 -0.019121 0.290008
-0.097359 -0.019131 0.290069
-0.096064 -0.019145 0.290187
-0.093571 -0.018917 0.286636
-0.095986 -0.019690 0.298235
-0.095264 -0.019832 0.300283
-0.094460 -0.019962 0.302130
-0.090997 -0.019525 0.295399
-0.088502 -0.019285 0.291656
-0.087811 -0.019438 0.293839
-0.087231 -0.019620 0.296466
-0.085407 -0.019523 0.294884
-0.083932 -0.019505 0.294477
-0.082670 -0.019536 0.294819
-0.081273 -0.019536 0.294690
-0.079743 -0.019503 0.294063
-0.078295 -0.019490 0.293728
-0.077036 -0.019524 0.294108
-0.075639 -0.019524 0.293968
-0.074294 -0.019537 0.294033
-0.072838 -0.019522 0.293661
-0.071408 -0.019513 0.293383
-0.070119 -0.019543 0.293692
-0.067751 -0.019267 0.289408
-0.066154 -0.019203 0.288317
-0.064858 -0.019226 0.288526
-0.063437 -0.019213 0.288182
-0.062219 -0.019261 0.288771
-0.060953 -0.019297 0.289168
-0.059563 -0.019294 0.288984
-0.058244 -0.019315 0.289157
-0.056945 -0.019343 0.289443
-0.055583 -0.019351 0.289427
-0.054251 -0.019370 0.289576
-0.052960 -0.019405 0.289966
-0.051579 -0.019408 0.289882
-0.050245 -0.019430 0.290071
-0.048981 -0.019481 0.290696
-0.043306 -0.019439 0.289563
-0.041896 -0.019430 0.289318
-0.040340 -0.019352 0.288032
-0.038694 -0.019223 0.285993
-0.036685 -0.018897 0.281039
-0.035706 -0.019098 0.283915
-0.034468 -0.019170 0.284885
-0.032369 -0.018751 0.278543
-0.029338 -0.017731 0.263306
-0.027548 -0.017403 0.258344
-0.026278 -0.017388 0.258033
-0.025036 -0.017391 0.257994
-0.023818 -0.017412 0.258230
-0.022600 -0.017435 0.258494
-0.021369 -0.017451 0.258655
-0.020108 -0.017442 0.258450
-0.018967 -0.017544 0.259879
-0.017705 -0.017540 0.259766
-0.013490 -0.018670 0.276261
-0.012156 -0.018678 0.276322
-0.010346 -0.017866 0.264260
-0.009192 -0.018117 0.267935
-0.007887 -0.018104 0.267706
-0.006599 -0.018135 0.268135
-0.005335 -0.018263 0.269989
-0.004024 -0.018260 0.269925
-0.002711 -0.018237 0.269562
-0.001414 -0.018392 0.271824
-0.000094 -0.018348 0.271159
0.001221 -0.018329 0.270873
0.002530 -0.018279 0.270133
0.003830 -0.018223 0.269301
0.005169 -0.018335 0.270962
0.006484 -0.018333 0.270934
0.007431 -0.017464 0.258104
0.008688 -0.017473 0.258242
0.009934 -0.017458 0.258040
0.011185 -0.017454 0.258000
0.012441 -0.017459 0.258097
0.013694 -0.017459 0.258122
0.014941 -0.017451 0.258039
0.016198 -0.017455 0.258134
0.017468 -0.017472 0.258422
0.018709 -0.017460 0.258284
0.020012 -0.017503 0.258967
0.021356 -0.017575 0.260086
0.023450 -0.018221 0.269698
0.024742 -0.018209 0.269584
0.025357 -0.017725 0.262477
0.026235 -0.017462 0.258639
0.027476 -0.017454 0.258589
0.028795 -0.017494 0.259244
0.029957 -0.017438 0.258494
0.031227 -0.017449 0.258718
0.032463 -0.017439 0.258654
0.033781 -0.017473 0.259238
0.035127 -0.017519 0.259993
0.036393 -0.017522 0.260129
0.037643 -0.017518 0.260157
0.039188 -0.017647 0.262161
0.040697 -0.017753 0.263816
0.042153 -0.017829 0.265046
0.043542 -0.017874 0.265803
0.044792 -0.017860 0.265695
0.046028 -0.017842 0.265523
0.047302 -0.017839 0.265580
0.048800 -0.017919 0.266866
0.049736 -0.017793 0.265094
0.050871 -0.017743 0.264453
0.052587 -0.017893 0.266799
0.053650 -0.017819 0.265798
0.055057 -0.017860 0.266522
0.056357 -0.017866 0.266707
0.057393 -0.017789 0.265665
0.059095 -0.017918 0.267695
0.060952 -0.018087 0.270329
0.062451 -0.018145 0.271307
0.063750 -0.018143 0.271393
0.064976 -0.018121 0.271178
0.066267 -0.018119 0.271243
0.067523 -0.018106 0.271168
0.068665 -0.018065 0.270649
0.069790 -0.018020 0.270086
0.070913 -0.017976 0.269537
0.071947 -0.017912 0.268679
0.072791 -0.017804 0.267154
0.073965 -0.017779 0.266877
0.075223 -0.017774 0.266904
0.076220 -0.017709 0.266025
0.077335 -0.017673 0.265578
0.078552 -0.017661 0.265491
0.079830 -0.017663 0.265613
0.081414 -0.017732 0.266731
0.082816 -0.017759 0.267230
0.084477 -0.017841 0.268539
0.085594 -0.017806 0.268102
0.087230 -0.017879 0.269281
0.088835 -0.017944 0.270331
0.095673 -0.019049 0.287053
0.099569 -0.019545 0.294605
0.100027 -0.019362 0.291913
0.101447 -0.019368 0.292064
0.102768 -0.019354 0.291925
0.104167 -0.019356 0.292007
0.105360 -0.019320 0.291513
0.106543 -0.019283 0.291002
0.107899 -0.019278 0.290967
0.109389 -0.019296 0.291284
0.110825 -0.019305 0.291449
0.112676 -0.019385 0.292682
0.113898 -0.019356 0.292267
0.115406 -0.019376 0.292581
0.116642 -0.019350 0.292199
0.118074 -0.019356 0.292306
0.119306 -0.019331 0.291917
0.120602 -0.019316 0.291683
0.121850 -0.019294 0.291333
0.123144 -0.019280 0.291091
0.124414 -0.019262 0.290792
0.125857 -0.019271 0.290890
0.127331 -0.019285 0.291049
0.128280 -0.019219 0.290008
0.130152 -0.019292 0.291044
0.131537 -0.019292 0.290971
0.133307 -0.019348 0.291731
0.134158 -0.019271 0.290474
0.137079 -0.019489 0.293667
0.138114 -0.019438 0.292784
0.139342 -0.019415 0.292311
0.140886 -0.019435 0.292491
0.142142 -0.019416 0.292063
0.143495 -0.019411 0.291826
0.145083 -0.019437 0.292052
0.146484 -0.019437 0.291886
0.147845 -0.019433 0.291628
0.149397 -0.019453 0.291734
0.150735 -0.019446 0.291407
0.152261 -0.019462 0.291426
-0.124086 -0.014380 0.233915
-0.123344 -0.014422 0.234768
-0.123065 -0.014520 0.236514
-0.121709 -0.014491 0.236190
-0.121133 -0.014555 0.237378
-0.120939 -0.014666 0.239331
-0.120897 -0.014799 0.241616
-0.120540 -0.014894 0.243300
-0.121404 -0.015145 0.247495
-0.121111 -0.015254 0.249384
-0.120122 -0.015277 0.249850
-0.119135 -0.015300 0.250321
-0.134564 -0.017454 0.285637
-0.131992 -0.017292 0.283069
-0.130918 -0.017325 0.283684
-0.123603 -0.016525 0.270636
-0.122685 -0.016572 0.271459
-0.121610 -0.016599 0.271940
-0.137250 -0.018932 0.310200
-0.137315 -0.019144 0.313699
-0.125370 -0.017667 0.289527
-0.124219 -0.017697 0.290021
-0.122261 -0.017610 0.288612
-0.120914 -0.017611 0.288623
-0.119637 -0.017622 0.288797
-0.118485 -0.017652 0.289274
-0.117297 -0.017677 0.289669
-0.115802 -0.017656 0.289299
-0.114492 -0.017664 0.289383
-0.113169 -0.017669 0.289433
-0.111680 -0.017648 0.289050
-0.110395 -0.017660 0.289187
-0.109201 -0.017686 0.289564
-0.107952 -0.017704 0.289801
-0.106627 -0.017710 0.289835
-0.105392 -0.017731 0.290113
-0.104120 -0.017747 0.290296
-0.102888 -0.017770 0.290592
-0.101582 -0.017780 0.290681
-0.100054 -0.017752 0.290127
-0.098781 -0.017769 0.290310
-0.097501 -0.017784 0.290473
-0.096121 -0.017782 0.290340
-0.094255 -0.017689 0.288712
-0.095751 -0.018233 0.297485
-0.094436 -0.018250 0.297652
-0.092650 -0.018175 0.296318
-0.090180 -0.017962 0.292724
-0.088947 -0.017992 0.293100
-0.089097 -0.018307 0.298115
-0.086723 -0.018106 0.294713
-0.085036 -0.018044 0.293576
-0.083756 -0.018068 0.293832
-0.082536 -0.018105 0.294313
-0.081266 -0.018133 0.294632
-0.079902 -0.018140 0.294618
-0.078511 -0.018142 0.294508
-0.077360 -0.018200 0.295313
-0.076033 -0.018218 0.295467
-0.074638 -0.018220 0.295361
-0.073145 -0.018198 0.294862
-0.072177 -0.018308 0.296507
-0.070875 -0.018336 0.296819
-0.067446 -0.017804 0.288065
-0.066257 -0.017853 0.288727
-0.064964 -0.017876 0.288957
-0.063665 -0.017898 0.289176
-0.062370 -0.017923 0.289431
-0.061055 -0.017942 0.289608
-0.059716 -0.017956 0.289684
-0.058367 -0.017966 0.289722
-0.057003 -0.017973 0.289692
-0.055635 -0.017979 0.289651
-0.054342 -0.018010 0.290015
-0.052977 -0.018018 0.290010
-0.051615 -0.018028 0.290034
-0.050275 -0.018046 0.290194
-0.048814 -0.018021 0.289652
-0.040175 -0.017889 0.286796
-0.039186 -0.018070 0.289578
-0.036696 -0.017546 0.281073
-0.035855 -0.017801 0.285042
-0.034604 -0.017865 0.285953
-0.033255 -0.017881 0.286112
-0.029184 -0.016372 0.261869
-0.027622 -0.016197 0.258987
-0.026272 -0.016136 0.257923
-0.025072 -0.016166 0.258309
-0.023852 -0.016185 0.258539
-0.022609 -0.016190 0.258535
-0.021374 -0.016202 0.258655
-0.020176 -0.016245 0.259269
-0.019024 -0.016333 0.260604
-0.017788 -0.016357 0.260917
-0.006732 -0.017170 0.273424
-0.005406 -0.017173 0.273454
-0.004061 -0.017100 0.272257
-0.002741 -0.017111 0.272406
-0.001421 -0.017144 0.272918
-0.000095 -0.017004 0.270669
0.001234 -0.017204 0.273848
0.002492 -0.016720 0.266132
0.003817 -0.016861 0.268379
0.005258 -0.017314 0.275586
0.006595 -0.017311 0.275558
0.007409 -0.016165 0.257315
0.008687 -0.016219 0.258189
0.009977 -0.016277 0.259137
0.011217 -0.016249 0.258710
0.012496 -0.016279 0.259208
0.013765 -0.016291 0.259421
0.015058 -0.016326 0.260015
0.016309 -0.016315 0.259874
