ply
format ascii 1.0
element vertex 1679
property float x
property float y
property float z
end_header
0.086849 -0.114520 0.293792
0.088310 -0.114598 0.293902
0.089862 -0.114789 0.294296
0.091392 -0.114947 0.294598
0.092993 -0.115187 0.295108
0.094394 -0.115177 0.294970
0.095836 -0.115217 0.294951
0.097467 -0.115478 0.295496
0.098863 -0.115458 0.295314
0.100220 -0.115394 0.295011
0.101867 -0.115660 0.295546
0.103295 -0.115673 0.295428
0.104795 -0.115767 0.295507
0.106357 -0.115925 0.295743
0.107787 -0.115936 0.295597
0.109252 -0.115984 0.295537
0.110737 -0.116052 0.295518
0.112232 -0.116129 0.295513
0.113668 -0.116143 0.295339
0.115025 -0.116077 0.294954
0.116445 -0.116076 0.294722
0.117829 -0.116038 0.294387
0.119315 -0.116101 0.294299
0.120823 -0.116184 0.294249
0.122378 -0.116309 0.294294
0.124092 -0.116581 0.294699
0.125760 -0.116804 0.294966
0.127475 -0.117064 0.295316
0.129106 -0.117243 0.295445
0.130587 -0.117282 0.295208
0.132302 -0.117530 0.295480
0.133953 -0.117714 0.295580
0.135488 -0.117795 0.295401
0.137132 -0.117966 0.295435
0.138759 -0.118121 0.295409
0.140553 -0.118412 0.295706
0.142268 -0.118631 0.295804
0.143905 -0.118781 0.295712
0.145477 -0.118875 0.295458
0.147121 -0.119026 0.295326
0.148765 -0.119173 0.295161
0.150454 -0.119353 0.295058
0.152426 -0.119752 0.295468
0.153973 -0.119812 0.295017
0.155568 -0.119908 0.294631
0.157003 -0.119880 0.293913
0.158820 -0.120141 0.293878
0.162246 -0.121603 0.296741
-0.151511 -0.115008 0.290114
-0.153830 -0.117866 0.297844
-0.151780 -0.117398 0.297163
-0.150287 -0.117357 0.297541
-0.148828 -0.117343 0.297966
-0.147094 -0.117109 0.297815
-0.145447 -0.116940 0.297812
-0.142964 -0.116090 0.296052
-0.141689 -0.116213 0.296757
-0.139514 -0.115593 0.295546
-0.138156 -0.115645 0.296037
-0.136653 -0.115575 0.296201
-0.132680 -0.113393 0.290934
-0.132541 -0.114476 0.294025
-0.126955 -0.114513 0.295250
-0.125238 -0.114231 0.294775
-0.123710 -0.114117 0.294721
-0.122273 -0.114086 0.294872
-0.120712 -0.113936 0.294705
-0.119283 -0.113909 0.294846
-0.117848 -0.113876 0.294962
-0.116218 -0.113652 0.294573
-0.114787 -0.113619 0.294670
-0.113390 -0.113620 0.294845
-0.111860 -0.113485 0.294662
-0.110396 -0.113416 0.294639
-0.108974 -0.113388 0.294715
-0.107460 -0.113263 0.294533
-0.106066 -0.113263 0.294665
-0.104669 -0.113259 0.294784
-0.103223 -0.113203 0.294756
-0.101754 -0.113118 0.294650
-0.100304 -0.113054 0.294589
-0.098900 -0.113040 0.294654
-0.097430 -0.112948 0.294510
-0.096011 -0.112915 0.294512
-0.094577 -0.112863 0.294460
-0.093101 -0.112758 0.294265
-0.091665 -0.112701 0.294187
-0.090238 -0.112651 0.294125
-0.088882 -0.112691 0.294291
-0.087491 -0.112687 0.294340
-0.086056 -0.112626 0.294233
-0.084686 -0.112649 0.294343
-0.083309 -0.112662 0.294425
-0.081845 -0.112559 0.294195
-0.080287 -0.112319 0.293605
-0.078946 -0.112379 0.293796
-0.077576 -0.112401 0.293883
-0.076096 -0.112261 0.293543
-0.074749 -0.112316 0.293711
-0.073361 -0.112310 0.293716
-0.071915 -0.112214 0.293481
-0.070536 -0.112220 0.293512
-0.069095 -0.112126 0.293278
-0.067654 -0.112028 0.293032
-0.066242 -0.111975 0.292900
-0.064908 -0.112056 0.293116
-0.063522 -0.112048 0.293098
-0.062132 -0.112033 0.293057
-0.060805 -0.112132 0.293316
-0.059439 -0.112162 0.293391
-0.058062 -0.112174 0.293416
-0.056708 -0.112232 0.293561
-0.055252 -0.112086 0.293172
-0.053905 -0.112159 0.293352
-0.052475 -0.112059 0.293079
-0.051046 -0.111958 0.292801
-0.049645 -0.111912 0.292667
-0.048202 -0.111767 0.292273
-0.046843 -0.111813 0.292379
-0.045441 -0.111759 0.292220
-0.044059 -0.111750 0.292179
-0.042706 -0.111816 0.292333
-0.041342 -0.111859 0.292428
-0.039933 -0.111777 0.292194
-0.038540 -0.111738 0.292073
-0.037184 -0.111804 0.292224
-0.035792 -0.111768 0.292109
-0.034426 -0.111809 0.292196
-0.033051 -0.111825 0.292217
-0.031659 -0.111783 0.292086
-0.030301 -0.111865 0.292279
-0.028900 -0.111786 0.292052
-0.027507 -0.111731 0.291886
-0.026132 -0.111749 0.291912
-0.024723 -0.111617 0.291547
-0.023340 -0.111592 0.291461
-0.021950 -0.111531 0.291280
-0.020569 -0.111508 0.291201
-0.019183 -0.111452 0.291034
-0.017808 -0.111458 0.291030
-0.016431 -0.111455 0.291003
-0.015058 -0.111482 0.291054
-0.013683 -0.111488 0.291051
-0.012308 -0.111509 0.291088
-0.010932 -0.111522 0.291105
-0.009556 -0.111529 0.291107
-0.008183 -0.111597 0.291269
-0.006801 -0.111529 0.291076
-0.005424 -0.111542 0.291095
-0.004049 -0.111632 0.291315
-0.002671 -0.111683 0.291435
-0.001292 -0.111682 0.291419
0.000088 -0.111686 0.291416
0.001468 -0.111727 0.291511
0.002848 -0.111713 0.291465
0.004227 -0.111680 0.291369
0.005609 -0.111727 0.291480
0.006988 -0.111693 0.291382
0.008368 -0.111689 0.291363
0.009743 -0.111627 0.291191
0.011117 -0.111575 0.291048
0.012498 -0.111594 0.291091
0.013877 -0.111595 0.291088
0.015263 -0.111644 0.291209
0.016660 -0.111759 0.291504
0.018058 -0.111861 0.291765
0.019442 -0.111867 0.291775
0.020833 -0.111914 0.291892
0.022228 -0.111971 0.292036
0.023605 -0.111936 0.291942
0.024985 -0.111918 0.291891
0.026359 -0.111878 0.291781
0.027732 -0.111836 0.291670
0.029096 -0.111765 0.291480
0.030472 -0.111744 0.291422
0.031879 -0.111830 0.291642
0.033261 -0.111829 0.291638
0.034644 -0.111828 0.291631
0.036043 -0.111879 0.291759
0.037451 -0.111951 0.291941
0.038830 -0.111935 0.291896
0.040249 -0.112031 0.292141
0.041653 -0.112080 0.292262
0.043065 -0.112148 0.292434
0.044478 -0.112213 0.292595
0.045840 -0.112148 0.292419
0.047254 -0.112211 0.292574
0.048685 -0.112310 0.292822
0.050053 -0.112262 0.292687
0.051409 -0.112191 0.292488
0.052789 -0.112172 0.292426
0.054150 -0.112118 0.292270
0.055511 -0.112063 0.292112
0.056853 -0.111975 0.291864
0.058311 -0.112116 0.292211
0.059848 -0.112396 0.292921
0.061308 -0.112523 0.293228
0.062738 -0.112590 0.293377
0.064168 -0.112654 0.293515
0.065603 -0.112724 0.293670
0.066933 -0.112613 0.293349
0.068381 -0.112703 0.293548
0.069860 -0.112838 0.293862
0.071158 -0.112681 0.293413
0.072553 -0.112682 0.293372
0.073995 -0.112753 0.293511
0.075422 -0.112800 0.293582
0.076789 -0.112757 0.293418
0.078117 -0.112658 0.293105
0.079647 -0.112849 0.293542
0.081075 -0.112892 0.293588
0.082454 -0.112866 0.293453
0.083904 -0.112937 0.293565
0.085340 -0.112986 0.293616
0.086808 -0.113076 0.293768
0.088372 -0.113285 0.294225
0.089931 -0.113482 0.294645
0.091396 -0.113556 0.294740
0.092917 -0.113695 0.294999
0.094486 -0.113889 0.295394
0.095950 -0.113952 0.295444
0.097377 -0.113969 0.295370
0.098836 -0.114024 0.295386
0.100272 -0.114050 0.295322
0.101682 -0.114047 0.295173
0.103218 -0.114182 0.295378
0.104533 -0.114073 0.294942
0.105979 -0.114108 0.294873
0.107517 -0.114240 0.295045
0.108956 -0.114264 0.294929
0.110471 -0.114366 0.295008
0.111987 -0.114466 0.295074
0.113419 -0.114480 0.294906
0.114837 -0.114478 0.294691
0.116342 -0.114563 0.294688
0.117832 -0.114631 0.294630
0.119246 -0.114624 0.294372
0.120727 -0.114681 0.294265
0.122288 -0.114811 0.294337
0.123968 -0.115048 0.294670
0.125733 -0.115358 0.295177
0.127432 -0.115602 0.295499
0.129036 -0.115755 0.295577
0.130650 -0.115913 0.295653
0.132288 -0.116088 0.295759
0.133887 -0.116226 0.295755
0.135522 -0.116392 0.295806
0.137036 -0.116450 0.295569
0.138553 -0.116511 0.295320
0.140252 -0.116721 0.295434
0.141875 -0.116865 0.295361
0.143360 -0.116893 0.294976
0.145060 -0.117094 0.295010
0.146807 -0.117328 0.295105
0.148308 -0.117363 0.294679
0.150297 -0.117779 0.295187
0.152156 -0.118087 0.295397
0.153802 -0.118225 0.295158
0.155668 -0.118526 0.295302
0.156904 -0.118348 0.294225
0.158946 -0.118775 0.294624
0.161675 -0.119702 0.296231
-0.153976 -0.115429 0.295227
-0.152628 -0.115495 0.295900
-0.151317 -0.115589 0.296630
-0.149443 -0.115251 0.296230
-0.148004 -0.115246 0.296665
-0.146422 -0.115128 0.296792
-0.144826 -0.114997 0.296868
-0.143083 -0.114746 0.296616
-0.141314 -0.114468 0.296279
-0.140015 -0.114570 0.296907
-0.138125 -0.114185 0.296259
-0.135751 -0.113388 0.294523
-0.132777 -0.112069 0.291412
-0.132637 -0.113139 0.294499
-0.126722 -0.112886 0.294936
-0.125155 -0.112740 0.294800
-0.123687 -0.112681 0.294880
-0.122430 -0.112815 0.295456
-0.120698 -0.112511 0.294872
-0.119178 -0.112397 0.294779
-0.117753 -0.112374 0.294911
-0.116114 -0.112142 0.294486
-0.114417 -0.111849 0.293893
-0.112860 -0.111686 0.293633
-0.111544 -0.111762 0.293990
-0.110115 -0.111724 0.294042
-0.108693 -0.111693 0.294103
-0.107332 -0.111726 0.294324
-0.105928 -0.111713 0.294420
-0.104610 -0.111792 0.294748
-0.103215 -0.111789 0.294857
-0.101627 -0.111576 0.294402
-0.100286 -0.111631 0.294648
-0.098867 -0.111600 0.294662
-0.097386 -0.111497 0.294482
-0.096018 -0.111522 0.294632
-0.094549 -0.111430 0.294466
-0.093072 -0.111324 0.294260
-0.091586 -0.111206 0.294015
-0.090227 -0.111240 0.294168
-0.088842 -0.111242 0.294232
-0.087407 -0.111182 0.294127
-0.086100 -0.111284 0.294448
-0.084624 -0.111169 0.294188
-0.083286 -0.111234 0.294400
-0.081936 -0.111285 0.294573
-0.080257 -0.110883 0.293543
-0.078922 -0.110951 0.293751
-0.077558 -0.110980 0.293855
-0.076033 -0.110776 0.293336
-0.074643 -0.110763 0.293323
-0.073240 -0.110732 0.293257
-0.071879 -0.110763 0.293355
-0.070450 -0.110690 0.293171
-0.069030 -0.110627 0.293014
-0.067675 -0.110670 0.293131
-0.066252 -0.110600 0.292951
-0.064899 -0.110647 0.293077
-0.063519 -0.110649 0.293081
-0.062110 -0.110600 0.292948
-0.060773 -0.110679 0.293152
-0.059397 -0.110689 0.293172
-0.058023 -0.110706 0.293208
-0.056631 -0.110686 0.293145
-0.055222 -0.110633 0.292993
-0.053826 -0.110602 0.292898
-0.052439 -0.110589 0.292850
-0.051032 -0.110534 0.292689
-0.049595 -0.110407 0.292337
-0.048209 -0.110391 0.292278
-0.046850 -0.110438 0.292384
-0.045455 -0.110399 0.292260
-0.044053 -0.110342 0.292089
-0.042700 -0.110408 0.292245
-0.041294 -0.110335 0.292030
-0.039919 -0.110344 0.292032
-0.038534 -0.110325 0.291961
-0.037093 -0.110139 0.291447
-0.035749 -0.110238 0.291687
-0.034361 -0.110206 0.291579
-0.032990 -0.110226 0.291608
-0.031623 -0.110260 0.291677
-0.030223 -0.110179 0.291440
-0.028852 -0.110204 0.291484
-0.027474 -0.110200 0.291451
-0.026092 -0.110181 0.291376
-0.024716 -0.110184 0.291362
-0.023290 -0.109957 0.290740
-0.021956 -0.110160 0.291254
-0.020586 -0.110195 0.291326
-0.019150 -0.109858 0.290414
-0.017794 -0.109965 0.290678
-0.016416 -0.109943 0.290599
-0.015038 -0.109922 0.290524
-0.013657 -0.109866 0.290357
-0.012280 -0.109840 0.290270
-0.010913 -0.109899 0.290408
-0.009546 -0.109990 0.290632
-0.008166 -0.109931 0.290458
-0.006795 -0.109990 0.290600
-0.005426 -0.110106 0.290890
-0.004049 -0.110129 0.290936
-0.002673 -0.110167 0.291022
-0.001294 -0.110127 0.290905
0.000083 -0.110181 0.291035
0.001462 -0.110254 0.291214
0.002842 -0.110269 0.291244
0.004224 -0.110339 0.291419
0.005602 -0.110300 0.291305
0.006985 -0.110343 0.291410
0.008366 -0.110341 0.291395
0.009742 -0.110293 0.291262
0.011120 -0.110276 0.291209
0.012495 -0.110231 0.291085
0.013881 -0.110282 0.291212
0.015265 -0.110311 0.291283
0.016661 -0.110412 0.291545
0.018060 -0.110519 0.291823
0.019445 -0.110529 0.291846
0.020830 -0.110538 0.291865
0.022219 -0.110565 0.291934
0.023599 -0.110548 0.291885
0.024957 -0.110432 0.291578
0.026340 -0.110437 0.291589
0.027714 -0.110400 0.291488
0.029065 -0.110284 0.291179
0.030463 -0.110347 0.291344
0.031862 -0.110407 0.291502
0.033250 -0.110424 0.291545
0.034631 -0.110419 0.291528
0.036016 -0.110427 0.291549
0.037464 -0.110621 0.292057
0.038859 -0.110647 0.292123
0.040268 -0.110711 0.292288
0.041720 -0.110887 0.292749
0.043092 -0.110844 0.292632
0.044505 -0.110905 0.292788
0.045890 -0.110896 0.292758
0.047230 -0.110779 0.292444
0.048620 -0.110784 0.292450
0.050005 -0.110780 0.292430
0.051292 -0.110561 0.291843
0.052679 -0.110566 0.291846
0.054108 -0.110656 0.292070
0.055448 -0.110563 0.291813
0.056872 -0.110638 0.291996
0.058358 -0.110829 0.292483
0.059841 -0.111002 0.292922
0.061245 -0.111027 0.292968
0.062682 -0.111108 0.293160
0.064084 -0.111124 0.293177
0.065507 -0.111177 0.293290
0.066925 -0.111218 0.293370
0.068368 -0.111297 0.293547
0.069807 -0.111367 0.293698
0.071161 -0.111302 0.293489
0.072577 -0.111334 0.293534
0.073957 -0.111310 0.293431
0.075320 -0.111263 0.293261
0.076659 -0.111182 0.292998
0.077955 -0.111043 0.292579
0.079369 -0.111074 0.292604
0.080766 -0.111079 0.292559
0.082083 -0.110977 0.292227
0.083490 -0.110998 0.292213
0.084980 -0.111125 0.292477
0.086523 -0.111318 0.292907
0.088098 -0.111544 0.293422
0.089662 -0.111751 0.293878
0.091290 -0.112029 0.294518
0.093013 -0.112413 0.295430
0.094326 -0.112298 0.295025
0.095765 -0.112332 0.295008
0.097380 -0.112571 0.295521
0.098658 -0.112418 0.294998
0.100058 -0.112406 0.294840
0.101601 -0.112553 0.295093
0.103029 -0.112571 0.294998
0.104412 -0.112540 0.294769
0.105932 -0.112654 0.294915
0.107490 -0.112805 0.295148
0.109066 -0.112971 0.295412
0.110534 -0.113023 0.295369
0.112008 -0.113079 0.295328
0.113510 -0.113162 0.295348
0.114950 -0.113181 0.295192
0.116374 -0.113184 0.294986
0.117844 -0.113232 0.294886
0.119344 -0.113306 0.294845
0.120786 -0.113325 0.294649
0.122320 -0.113427 0.294660
0.123969 -0.113633 0.294928
0.125516 -0.113742 0.294932
0.127234 -0.114002 0.295313
0.128827 -0.114144 0.295378
0.130533 -0.114383 0.295679
0.132005 -0.114414 0.295426
0.133675 -0.114613 0.295595
0.135368 -0.114828 0.295789
0.136884 -0.114889 0.295570
0.138670 -0.115174 0.295910
0.140157 -0.115207 0.295584
0.141785 -0.115353 0.295534
0.143721 -0.115745 0.296092
0.145278 -0.115826 0.295836
0.146852 -0.115919 0.295592
0.148588 -0.116137 0.295644
0.150101 -0.116177 0.295222
0.151913 -0.116447 0.295360
0.153226 -0.116332 0.294500
0.154986 -0.116555 0.294471
0.156629 -0.116686 0.294187
0.157718 -0.116407 0.292839
0.159681 -0.116771 0.293086
-0.152189 -0.113717 0.295417
-0.150591 -0.113590 0.295562
-0.149379 -0.113756 0.296450
-0.147666 -0.113539 0.296323
-0.146102 -0.113434 0.296468
-0.144608 -0.113383 0.296737
-0.142811 -0.113090 0.296357
-0.141232 -0.112966 0.296402
-0.139799 -0.112957 0.296735
-0.138153 -0.112775 0.296596
-0.136133 -0.112281 0.295621
-0.132113 -0.110109 0.290210
-0.126844 -0.111576 0.295439
-0.124934 -0.111128 0.294492
-0.123409 -0.111016 0.294421
-0.122179 -0.111171 0.295048
-0.120440 -0.110860 0.294429
-0.119063 -0.110880 0.294679
-0.117642 -0.110858 0.294809
-0.116073 -0.110695 0.294553
-0.114457 -0.110483 0.294160
-0.112849 -0.110273 0.293761
-0.111379 -0.110195 0.293705
-0.110046 -0.110252 0.294003
-0.108650 -0.110248 0.294128
-0.107154 -0.110139 0.293968
-0.105912 -0.110293 0.294502
-0.104558 -0.110333 0.294724
-0.103091 -0.110253 0.294621
-0.101698 -0.110252 0.294720
-0.100228 -0.110165 0.294584
-0.098830 -0.110157 0.294653
-0.097419 -0.110134 0.294678
-0.095881 -0.109964 0.294301
-0.094392 -0.109847 0.294063
-0.093022 -0.109867 0.294185
-0.091506 -0.109712 0.293834
-0.090137 -0.109733 0.293947
-0.088738 -0.109716 0.293957
-0.087367 -0.109734 0.294054
-0.085999 -0.109757 0.294161
-0.084607 -0.109750 0.294182
-0.083262 -0.109804 0.294363
-0.081871 -0.109799 0.294384
-0.080411 -0.109699 0.294147
-0.078988 -0.109647 0.294033
-0.077586 -0.109624 0.293993
-0.076135 -0.109529 0.293757
-0.074693 -0.109444 0.293545
-0.073273 -0.109388 0.293408
-0.071896 -0.109397 0.293442
-0.070485 -0.109352 0.293328
-0.069126 -0.109388 0.293431
-0.067733 -0.109371 0.293388
-0.066321 -0.109323 0.293258
-0.064937 -0.109319 0.293245
-0.063524 -0.109266 0.293099
-0.062143 -0.109266 0.293093
-0.060735 -0.109217 0.292955
-0.059371 -0.109248 0.293028
-0.057945 -0.109165 0.292793
-0.056555 -0.109145 0.292728
-0.055090 -0.108977 0.292262
-0.053710 -0.108973 0.292236
-0.052390 -0.109094 0.292545
-0.050927 -0.108916 0.292051
-0.049550 -0.108916 0.292030
-0.048189 -0.108954 0.292114
-0.046795 -0.108917 0.291993
-0.045448 -0.108991 0.292169
-0.044046 -0.108933 0.291993
-0.042649 -0.108884 0.291837
-0.041321 -0.109013 0.292161
-0.039862 -0.108796 0.291557
-0.038468 -0.108745 0.291395
-0.037080 -0.108709 0.291276
-0.035651 -0.108547 0.290816
-0.034307 -0.108641 0.291044
-0.032898 -0.108528 0.290718
-0.031543 -0.108590 0.290859
-0.030234 -0.108826 0.291465
-0.028820 -0.108686 0.291067
-0.027488 -0.108859 0.291508
-0.026107 -0.108847 0.291450
-0.024713 -0.108775 0.291235
-0.023335 -0.108768 0.291192
-0.021949 -0.108722 0.291046
-0.020587 -0.108795 0.291219
-0.019169 -0.108565 0.290581
-0.017797 -0.108584 0.290612
-0.016418 -0.108552 0.290506
-0.015038 -0.108516 0.290388
-0.013670 -0.108558 0.290480
-0.012300 -0.108604 0.290584
-0.010919 -0.108538 0.290390
-0.009542 -0.108510 0.290297
-0.008179 -0.108663 0.290689
-0.006801 -0.108624 0.290568
-0.005427 -0.108660 0.290648
-0.004054 -0.108753 0.290885
-0.002677 -0.108788 0.290962
-0.001299 -0.108778 0.290923
0.000079 -0.108836 0.291065
0.001457 -0.108855 0.291106
0.002836 -0.108820 0.291000
0.004215 -0.108847 0.291061
0.005590 -0.108763 0.290827
0.006967 -0.108756 0.290800
0.008343 -0.108733 0.290730
0.009718 -0.108699 0.290634
0.011090 -0.108641 0.290472
0.012457 -0.108565 0.290262
0.013859 -0.108766 0.290795
0.015241 -0.108792 0.290860
0.016624 -0.108822 0.290935
0.018031 -0.108989 0.291377
0.019413 -0.108994 0.291389
0.020820 -0.109127 0.291742
0.022187 -0.109049 0.291531
0.023578 -0.109086 0.291628
0.024981 -0.109176 0.291866
0.026328 -0.109023 0.291458
0.027735 -0.109120 0.291715
0.029110 -0.109091 0.291637
0.030489 -0.109076 0.291596
0.031865 -0.109051 0.291529
0.033257 -0.109082 0.291614
0.034622 -0.109025 0.291459
0.036007 -0.109034 0.291483
0.037406 -0.109082 0.291611
0.038817 -0.109158 0.291815
0.040208 -0.109177 0.291864
0.041618 -0.109244 0.292042
0.043043 -0.109344 0.292306
0.044436 -0.109359 0.292345
0.045792 -0.109285 0.292143
0.047190 -0.109311 0.292210
0.048533 -0.109213 0.291942
0.049961 -0.109308 0.292189
0.051307 -0.109220 0.291949
0.052642 -0.109116 0.291662
0.054146 -0.109357 0.292297
0.055512 -0.109316 0.292177
0.056892 -0.109302 0.292127
0.058357 -0.109449 0.292507
0.059906 -0.109742 0.293275
0.061224 -0.109608 0.292900
0.062619 -0.109617 0.292904
0.064107 -0.109783 0.293327
0.065504 -0.109789 0.293320
0.066697 -0.109460 0.292416
0.068106 -0.109491 0.292472
0.069596 -0.109649 0.292865
0.070889 -0.109497 0.292425
0.072215 -0.109400 0.292131
0.073710 -0.109557 0.292512
0.075216 -0.109726 0.292920
0.076631 -0.109757 0.292958
0.078007 -0.109733 0.292847
0.079475 -0.109836 0.293069
0.080917 -0.109902 0.293188
0.082292 -0.109874 0.293056
0.083653 -0.109829 0.292871
0.085006 -0.109775 0.292661
0.086510 -0.109915 0.292960
0.087981 -0.110010 0.293137
0.089403 -0.110040 0.293135
0.090860 -0.110112 0.293241
0.092365 -0.110238 0.293486
0.093980 -0.110492 0.294063
0.095344 -0.110446 0.293839
0.096824 -0.110534 0.293964
0.098353 -0.110675 0.294224
0.099724 -0.110636 0.293999
0.101238 -0.110754 0.294186
0.102790 -0.110910 0.294466
0.104241 -0.110955 0.294443
0.105849 -0.111163 0.294848
0.107363 -0.111268 0.294970
0.108851 -0.111344 0.295007
0.110466 -0.111546 0.295370
0.112017 -0.111679 0.295541
0.113322 -0.111566 0.295053
0.114836 -0.111659 0.295100
0.116324 -0.111726 0.295069
0.117720 -0.111703 0.294791
0.119188 -0.111747 0.294682
0.120811 -0.111934 0.294938
0.122221 -0.111923 0.294660
0.123850 -0.112109 0.294890
0.125488 -0.112299 0.295120
0.127137 -0.112494 0.295348
0.128698 -0.112609 0.295353
0.130355 -0.112803 0.295554
0.132062 -0.113036 0.295841
0.133601 -0.113122 0.295728
0.135263 -0.113308 0.295864
0.136904 -0.113474 0.295930
0.138345 -0.113471 0.295541
0.139951 -0.113603 0.295485
0.141716 -0.113860 0.295737
0.143438 -0.114076 0.295866
0.145208 -0.114327 0.296065
0.146802 -0.114435 0.295872
0.148481 -0.114607 0.295825
0.150184 -0.114793 0.295794
0.151899 -0.114985 0.295753
0.153556 -0.115129 0.295567
0.155119 -0.115201 0.295171
0.156560 -0.115181 0.294518
0.157977 -0.115144 0.293795
0.159396 -0.115110 0.293053
-0.154380 -0.112827 0.296751
-0.151981 -0.112118 0.295368
-0.150461 -0.112050 0.295652
-0.149098 -0.112099 0.296226
-0.147524 -0.111989 0.296362
-0.145976 -0.111896 0.296527
-0.144421 -0.111797 0.296656
-0.142243 -0.111209 0.295472
-0.141052 -0.111388 0.296309
-0.139555 -0.111327 0.296492
-0.137880 -0.111122 0.296278
-0.135881 -0.110648 0.295331
-0.133031 -0.109465 0.292472
-0.126559 -0.109910 0.294984
-0.124465 -0.109303 0.293586
-0.123130 -0.109358 0.293951
-0.121977 -0.109576 0.294749
-0.120370 -0.109387 0.294439
-0.118932 -0.109350 0.294529
-0.117319 -0.109148 0.294167
-0.115841 -0.109069 0.294125
-0.114446 -0.109068 0.294286
-0.112806 -0.108830 0.293799
-0.111307 -0.108724 0.293659
-0.109960 -0.108766 0.293912
-0.108533 -0.108728 0.293942
-0.107195 -0.108781 0.294208
-0.105708 -0.108681 0.294057
-0.104429 -0.108795 0.294476
-0.103058 -0.108816 0.294635
-0.101510 -0.108648 0.294279
-0.100141 -0.108670 0.294430
-0.098727 -0.108643 0.294443
-0.097279 -0.108577 0.294343
-0.095742 -0.108409 0.293961
-0.094387 -0.108445 0.294128
-0.092869 -0.108291 0.293775
-0.091447 -0.108247 0.293715
-0.090147 -0.108348 0.294044
-0.088735 -0.108316 0.294006
-0.087451 -0.108442 0.294393
-0.086056 -0.108433 0.294409
-0.084654 -0.108413 0.294392
-0.083322 -0.108486 0.294622
-0.081879 -0.108413 0.294453
-0.080349 -0.108219 0.293954
-0.078873 -0.108094 0.293635
-0.077515 -0.108129 0.293748
-0.076082 -0.108060 0.293576
-0.074638 -0.107971 0.293348
-0.073208 -0.107900 0.293163
-0.071820 -0.107890 0.293143
-0.070464 -0.107928 0.293250
-0.069041 -0.107863 0.293076
-0.067659 -0.107861 0.293070
-0.066247 -0.107809 0.292926
-0.064890 -0.107849 0.293028
-0.063530 -0.107884 0.293116
-0.062127 -0.107846 0.293003
-0.060730 -0.107816 0.292912
-0.059358 -0.107833 0.292945
-0.057935 -0.107755 0.292718
-0.056540 -0.107725 0.292620
-0.055160 -0.107725 0.292605
-0.053747 -0.107658 0.292406
-0.052403 -0.107728 0.292576
-0.050990 -0.107660 0.292370
-0.049609 -0.107656 0.292337
-0.048203 -0.107596 0.292152
-0.046819 -0.107581 0.292089
-0.045453 -0.107609 0.292142
-0.044038 -0.107520 0.291876
-0.042649 -0.107491 0.291773
-0.041231 -0.107385 0.291460
-0.039863 -0.107409 0.291498
-0.038403 -0.107174 0.290837
-0.037011 -0.107120 0.290662
-0.035646 -0.107143 0.290700
-0.034174 -0.106834 0.289836
-0.032818 -0.106878 0.289927
-0.031500 -0.107054 0.290380
-0.030107 -0.106978 0.290147
-0.028769 -0.107102 0.290458
-0.027381 -0.107042 0.290270
-0.026119 -0.107496 0.291475
-0.024755 -0.107558 0.291620
-0.023255 -0.107002 0.290087
-0.022002 -0.107582 0.291635
-0.020630 -0.107619 0.291712
-0.019160 -0.107116 0.290327
-0.017831 -0.107383 0.291027
-0.016448 -0.107346 0.290906
-0.015061 -0.107268 0.290672
-0.013688 -0.107288 0.290707
-0.012307 -0.107247 0.290577
-0.010929 -0.107216 0.290474
-0.009564 -0.107331 0.290768
-0.008180 -0.107236 0.290491
-0.006808 -0.107295 0.290634
-0.005431 -0.107275 0.290566
-0.004055 -0.107288 0.290584
-0.002684 -0.107503 0.291154
-0.001305 -0.107508 0.291153
0.000074 -0.107565 0.291296
0.001457 -0.107754 0.291794
0.002838 -0.107697 0.291630
0.004220 -0.107718 0.291677
0.005604 -0.107748 0.291748
0.006988 -0.107769 0.291796
0.008366 -0.107703 0.291612
0.009745 -0.107669 0.291511
0.011119 -0.107596 0.291308
0.012495 -0.107553 0.291186
0.013880 -0.107585 0.291268
0.015275 -0.107685 0.291536
0.016650 -0.107637 0.291402
0.018038 -0.107676 0.291504
0.019418 -0.107665 0.291473
0.020787 -0.107600 0.291295
0.022203 -0.107767 0.291746
0.023575 -0.107712 0.291598
0.024938 -0.107625 0.291363
0.026373 -0.107845 0.291959
0.027732 -0.107745 0.291687
0.029096 -0.107671 0.291488
0.030509 -0.107781 0.291787
0.031873 -0.107712 0.291602
0.033256 -0.107713 0.291606
0.034668 -0.107800 0.291844
0.036044 -0.107775 0.291776
0.037411 -0.107726 0.291645
0.038816 -0.107784 0.291804
0.040214 -0.107821 0.291906
0.041598 -0.107818 0.291898
0.043009 -0.107885 0.292078
0.044403 -0.107904 0.292131
0.045770 -0.107860 0.292009
0.047058 -0.107635 0.291399
0.048432 -0.107617 0.291348
0.049827 -0.107642 0.291414
0.051102 -0.107415 0.290794
0.052493 -0.107437 0.290848
0.053916 -0.107523 0.291075
0.055260 -0.107449 0.290866
0.056664 -0.107493 0.290976
0.058077 -0.107551 0.291124
0.059484 -0.107597 0.291237
0.060894 -0.107646 0.291354
0.062303 -0.107689 0.291456
0.063701 -0.107712 0.291500
0.065133 -0.107790 0.291692
0.066516 -0.107787 0.291662
0.067946 -0.107858 0.291829
0.069394 -0.107954 0.292062
0.070813 -0.108001 0.292160
0.072288 -0.108131 0.292480
0.073631 -0.108061 0.292257
0.075074 -0.108138 0.292428
0.076553 -0.108263 0.292724
0.077826 -0.108098 0.292234
0.079232 -0.108120 0.292245
0.080684 -0.108202 0.292417
0.082000 -0.108103 0.292092
0.083398 -0.108113 0.292060
0.084886 -0.108238 0.292335
0.086330 -0.108302 0.292441
0.087816 -0.108418 0.292681
0.089281 -0.108504 0.292836
0.090794 -0.108644 0.293134
0.092236 -0.108696 0.293188
0.093748 -0.108828 0.293450
0.095230 -0.108921 0.293604
0.096663 -0.108957 0.293598
0.098213 -0.109122 0.293931
0.099617 -0.109122 0.293818
0.101263 -0.109384 0.294399
0.102763 -0.109482 0.294533
0.104315 -0.109632 0.294803
0.105871 -0.109783 0.295064
0.107303 -0.109803 0.294968
0.108866 -0.109954 0.295215
0.110360 -0.110033 0.295261
0.111780 -0.110036 0.295095
0.113303 -0.110140 0.295191
0.114777 -0.110193 0.295142
0.116216 -0.110212 0.294993
0.117698 -0.110272 0.294942
0.119207 -0.110355 0.294943
0.120667 -0.110390 0.294807
0.122226 -0.110515 0.294900
0.123896 -0.110735 0.295234
0.125514 -0.110905 0.295424
0.126999 -0.110954 0.295279
0.128611 -0.111112 0.295412
0.130355 -0.111379 0.295822
0.131829 -0.111412 0.295595
0.133268 -0.111415 0.295276
0.134929 -0.111602 0.295428
0.136495 -0.111707 0.295350
0.138000 -0.111760 0.295118
0.139686 -0.111956 0.295249
0.141364 -0.112143 0.295337
0.143004 -0.112296 0.295318
0.144680 -0.112473 0.295343
0.146433 -0.112707 0.295497
0.148085 -0.112858 0.295414
0.149831 -0.113077 0.295488
0.151635 -0.113336 0.295643
0.153273 -0.113466 0.295441
0.154891 -0.113579 0.295168
0.156362 -0.113583 0.294589
0.157879 -0.113621 0.294072
0.159499 -0.113730 0.293716
-0.154451 -0.111426 0.297243
-0.151926 -0.110635 0.295603
-0.150114 -0.110353 0.295301
-0.149288 -0.110797 0.296926
-0.147122 -0.110246 0.295864
-0.145634 -0.110197 0.296133
-0.144436 -0.110369 0.296980
-0.142515 -0.109987 0.296318
-0.140630 -0.109626 0.295696
-0.139096 -0.109533 0.295783
-0.137812 -0.109637 0.296387
-0.135858 -0.109205 0.295527
-0.132378 -0.107525 0.291270
-0.126450 -0.108402 0.294931
-0.123960 -0.107459 0.292587
-0.122684 -0.107559 0.293072
-0.121346 -0.107606 0.293401
-0.119898 -0.107556 0.293458
-0.118524 -0.107571 0.293684
-0.116979 -0.107431 0.293476
-0.115599 -0.107441 0.293667
-0.113967 -0.107213 0.293202
-0.112516 -0.107152 0.293184
-0.111045 -0.107071 0.293102
-0.109662 -0.107074 0.293245
-0.108319 -0.107116 0.293486
-0.106897 -0.107081 0.293509
-0.105576 -0.107147 0.293801
-0.104182 -0.107141 0.293889
-0.102756 -0.107100 0.293877
-0.101407 -0.107140 0.294079
-0.099857 -0.106966 0.293688
-0.098458 -0.106952 0.293728
-0.097083 -0.106962 0.293832
-0.095521 -0.106765 0.293361
-0.094190 -0.106824 0.293587
-0.092749 -0.106758 0.293465
-0.091323 -0.106708 0.293382
-0.090043 -0.106829 0.293763
-0.088657 -0.106827 0.293803
-0.087313 -0.106877 0.293980
-0.086001 -0.106967 0.294265
-0.084539 -0.106871 0.294035
-0.083152 -0.106869 0.294057
-0.081785 -0.106893 0.294148
-0.080218 -0.106650 0.293502
-0.078725 -0.106501 0.293111
-0.077312 -0.106456 0.293002
-0.076021 -0.106582 0.293358
-0.074619 -0.106552 0.293287
-0.073234 -0.106547 0.293277
-0.071861 -0.106559 0.293315
-0.070489 -0.106573 0.293353
-0.069053 -0.106490 0.293122
-0.067538 -0.106279 0.292539
-0.066226 -0.106385 0.292823
-0.064785 -0.106284 0.292538
-0.063307 -0.106118 0.292071
-0.061947 -0.106145 0.292133
-0.060637 -0.106263 0.292443
-0.059136 -0.106043 0.291822
-0.057818 -0.106148 0.292095
-0.056552 -0.106356 0.292649
-0.055056 -0.106134 0.292017
-0.053716 -0.106206 0.292194
-0.052441 -0.106415 0.292749
-0.050960 -0.106207 0.292152
-0.049603 -0.106251 0.292249
-0.048202 -0.106201 0.292088
-0.046833 -0.106221 0.292119
-0.045450 -0.106212 0.292069
-0.044043 -0.106143 0.291850
-0.042668 -0.106148 0.291839
-0.041259 -0.106070 0.291596
-0.039822 -0.105910 0.291128
-0.038412 -0.105811 0.290829
-0.037013 -0.105739 0.290603
-0.035543 -0.105451 0.289783
-0.034044 -0.105050 0.288654
-0.032635 -0.104902 0.288219
-0.031257 -0.104849 0.288046
-0.029950 -0.105040 0.288544
-0.028635 -0.105220 0.289011
-0.027186 -0.104902 0.288111
-0.025911 -0.105256 0.289057
-0.024654 -0.105727 0.290326
-0.022932 -0.104141 0.285944
-0.021621 -0.104339 0.286464
-0.020289 -0.104459 0.286768
-0.018885 -0.104197 0.286025
-0.017617 -0.104706 0.287401
-0.016201 -0.104345 0.286388
-0.014839 -0.104299 0.286239
-0.013495 -0.104386 0.286456
-0.012138 -0.104373 0.286403
-0.010785 -0.104406 0.286474
-0.009434 -0.104472 0.286636
-0.008081 -0.104528 0.286770
-0.006759 -0.105081 0.288270
-0.005408 -0.105372 0.289052
-0.004034 -0.105234 0.288661
-0.002671 -0.105425 0.289171
-0.001303 -0.105581 0.289582
0.000069 -0.105347 0.288929
0.001441 -0.105551 0.289477
0.002811 -0.105463 0.289225
0.004174 -0.105276 0.288703
0.005545 -0.105328 0.288835
0.006903 -0.105161 0.288370
0.008277 -0.105253 0.288614
0.009648 -0.105282 0.288688
0.011003 -0.105151 0.288323
0.012383 -0.105258 0.288612
0.013769 -0.105388 0.288965
0.015159 -0.105529 0.289350
0.016557 -0.105695 0.289801
0.017945 -0.105773 0.290013
0.019324 -0.105795 0.290072
0.020667 -0.105625 0.289608
0.022058 -0.105711 0.289844
0.023423 -0.105664 0.289714
0.024760 -0.105506 0.289284
0.026191 -0.105745 0.289939
0.027574 -0.105773 0.290020
0.028961 -0.105815 0.290136
0.030347 -0.105848 0.290230
0.031680 -0.105702 0.289831
0.033087 -0.105802 0.290109
0.034424 -0.105683 0.289786
0.035807 -0.105705 0.289849
0.037167 -0.105663 0.289737
0.038470 -0.105467 0.289204
0.039872 -0.105545 0.289419
0.041282 -0.105638 0.289678
0.042671 -0.105675 0.289782
0.044103 -0.105810 0.290154
0.045583 -0.106051 0.290817
0.046950 -0.106020 0.290732
0.048311 -0.105980 0.290622
0.050000 -0.106639 0.292430
0.051695 -0.107278 0.294179
0.053431 -0.107964 0.296058
0.054939 -0.108166 0.296609
0.056429 -0.108324 0.297036
0.057747 -0.108152 0.296557
0.059226 -0.108281 0.296905
0.060708 -0.108409 0.297247
0.061928 -0.108076 0.296323
0.063242 -0.107917 0.295875
0.064636 -0.107899 0.295810
0.065925 -0.107709 0.295271
0.066135 -0.105801 0.290025
0.067781 -0.106222 0.291156
0.069189 -0.106260 0.291239
0.070230 -0.105744 0.289798
0.071546 -0.105653 0.289522
0.072933 -0.105670 0.289536
0.074349 -0.105727 0.289658
0.074773 -0.104396 0.285976
0.077925 -0.106853 0.292665
0.078823 -0.106188 0.290800
0.080433 -0.106488 0.291575
0.081865 -0.106546 0.291683
0.083233 -0.106521 0.291561
0.084650 -0.106558 0.291603
0.086304 -0.106887 0.292440
0.087692 -0.106881 0.292354
0.089233 -0.107059 0.292770
0.090695 -0.107138 0.292909
0.092098 -0.107146 0.292848
0.093759 -0.107449 0.293591
0.095016 -0.107288 0.293057
0.096586 -0.107479 0.293481
0.098121 -0.107627 0.293779
0.099429 -0.107523 0.293387
0.101373 -0.108102 0.294849
0.102860 -0.108185 0.294950
0.104412 -0.108331 0.295220
0.105878 -0.108387 0.295233
0.107216 -0.108310 0.294880
0.108740 -0.108422 0.295032
0.110326 -0.108592 0.295336
0.111686 -0.108538 0.295018
0.113100 -0.108536 0.294838
0.114557 -0.108576 0.294760
0.116049 -0.108648 0.294761
0.117521 -0.108698 0.294694
0.119016 -0.108769 0.294674
0.120634 -0.108949 0.294938
0.122278 -0.109148 0.295243
0.123839 -0.109269 0.295325
0.125398 -0.109386 0.295384
0.126879 -0.109431 0.295241
0.128414 -0.109523 0.295209
0.130001 -0.109656 0.295275
0.131564 -0.109767 0.295267
0.133025 -0.109790 0.295012
0.134601 -0.109907 0.294993
0.136189 -0.110031 0.294979
0.137900 -0.110250 0.295204
0.139557 -0.110423 0.295288
0.141189 -0.110572 0.295292
0.143147 -0.110971 0.295945
0.144780 -0.111111 0.295890
0.146328 -0.111186 0.295639
0.148054 -0.111392 0.295719
0.149632 -0.111483 0.295474
0.151232 -0.111589 0.295247
0.152880 -0.111728 0.295084
0.154232 -0.111650 0.294328
0.155911 -0.111808 0.294169
0.157370 -0.111806 0.293566
0.158914 -0.111864 0.293094
-0.154053 -0.109690 0.296820
-0.151466 -0.108862 0.295038
-0.149767 -0.108662 0.294938
-0.148619 -0.108862 0.295905
-0.146388 -0.108265 0.294687
-0.145389 -0.108577 0.295925
-0.144074 -0.108657 0.296517
-0.141997 -0.108158 0.295513
-0.140522 -0.108113 0.295732
-0.139227 -0.108207 0.296316
-0.137634 -0.108068 0.296249
-0.135744 -0.107691 0.295516
-0.134454 -0.107788 0.296070
-0.126204 -0.106781 0.294551
-0.124021 -0.106110 0.292915
-0.122608 -0.106091 0.293068
-0.121547 -0.106379 0.294059
-0.119926 -0.106178 0.293692
-0.118621 -0.106255 0.294083
-0.117229 -0.106256 0.294253
-0.115459 -0.105911 0.293456
-0.114189 -0.106021 0.293912
-0.112491 -0.105732 0.293254
-0.110925 -0.105561 0.292915
-0.109644 -0.105661 0.293319
-0.108345 -0.105744 0.293673
-0.106939 -0.105726 0.293735
-0.105595 -0.105769 0.293960
-0.104343 -0.105906 0.294443
-0.102957 -0.105910 0.294549
-0.101522 -0.105863 0.294505
-0.100021 -0.105744 0.294256
-0.098589 -0.105696 0.294199
-0.097149 -0.105638 0.294108
-0.095536 -0.105388 0.293476
-0.094123 -0.105355 0.293445
-0.092803 -0.105426 0.293697
-0.091306 -0.105296 0.293385
-0.089914 -0.105285 0.293399
-0.088637 -0.105409 0.293786
-0.087280 -0.105441 0.293912
-0.085936 -0.105491 0.294084
-0.084521 -0.105454 0.294008
-0.083130 -0.105446 0.294011
-0.081775 -0.105484 0.294139
-0.080245 -0.105294 0.293627
-0.078838 -0.105261 0.293550
-0.077489 -0.105307 0.293689
-0.075998 -0.105158 0.293281
-0.074607 -0.105143 0.293245
-0.073249 -0.105177 0.293343
-0.071861 -0.105168 0.293316
-0.070444 -0.105114 0.293163
-0.069022 -0.105051 0.292983
-0.067668 -0.105093 0.293092
-0.066260 -0.105049 0.292961
-0.064808 -0.104933 0.292624
-0.063424 -0.104924 0.292587
-0.062028 -0.104895 0.292492
-0.060626 -0.104854 0.292359
-0.059200 -0.104770 0.292107
-0.057838 -0.104796 0.292159
-0.056505 -0.104879 0.292370
-0.055097 -0.104823 0.292192
-0.053713 -0.104810 0.292133
-0.052397 -0.104935 0.292456
-0.051023 -0.104945 0.292458
-0.049620 -0.104897 0.292299
-0.048231 -0.104874 0.292206
-0.046852 -0.104873 0.292177
-0.045450 -0.104822 0.292006
-0.044121 -0.104939 0.292303
-0.042671 -0.104765 0.291790
-0.041292 -0.104763 0.291756
-0.040018 -0.105035 0.292482
-0.038562 -0.104832 0.291888
-0.037105 -0.104612 0.291245
-0.036059 -0.105575 0.293898
0.049835 -0.107912 0.299788
0.051223 -0.107837 0.299581
0.051854 -0.106217 0.295083
0.052706 -0.105124 0.292045
0.053993 -0.104930 0.291505
0.055530 -0.105220 0.292308
0.056833 -0.105064 0.291872
0.058488 -0.105549 0.293215
0.060324 -0.106332 0.295383
0.061757 -0.106385 0.295524
0.063601 -0.107126 0.297573
0.065308 -0.107611 0.298908
0.067025 -0.108091 0.300226
0.068811 -0.108660 0.301792
0.070184 -0.108565 0.301510
0.074534 -0.104618 0.290424
0.099406 -0.107624 0.297742
0.100726 -0.107516 0.297337
0.101317 -0.106643 0.294811
0.102958 -0.106885 0.295361
0.104470 -0.106988 0.295521
0.105872 -0.106977 0.295358
0.107208 -0.106900 0.295007
0.108637 -0.106917 0.294907
0.110114 -0.106980 0.294925
0.111630 -0.107078 0.295033
0.113051 -0.107084 0.294880
0.114461 -0.107079 0.294689
0.115944 -0.107143 0.294675
0.117458 -0.107233 0.294726
0.118929 -0.107281 0.294653
0.120512 -0.107429 0.294842
0.122080 -0.107559 0.294973
0.123728 -0.107756 0.295276
0.125304 -0.107887 0.295386
0.126790 -0.107938 0.295265
0.128354 -0.108053 0.295308
0.129863 -0.108121 0.295208
0.131470 -0.108267 0.295310
0.132971 -0.108324 0.295155
0.134496 -0.108398 0.295035
0.136389 -0.108764 0.295692
0.137698 -0.108663 0.295062
0.139546 -0.108984 0.295565
0.141363 -0.109274 0.295966
0.142770 -0.109244 0.295484
0.144615 -0.109547 0.295884
0.146228 -0.109670 0.295778
0.147781 -0.109745 0.295525
0.149476 -0.109924 0.295529
0.150899 -0.109901 0.294971
0.152578 -0.110063 0.294890
0.154269 -0.110230 0.294799
0.155542 -0.110098 0.293885
0.157165 -0.110214 0.293609
0.158986 -0.110465 0.293667
-0.153365 -0.107758 0.295823
-0.150881 -0.107009 0.294216
-0.149568 -0.107084 0.294853
-0.148333 -0.107218 0.295633
-0.146497 -0.106915 0.295195
-0.145091 -0.106924 0.295598
-0.143661 -0.106915 0.295938
-0.141961 -0.106703 0.295701
-0.140139 -0.106395 0.295178
-0.138904 -0.106529 0.295871
-0.137544 -0.106571 0.296294
-0.135720 -0.106250 0.295693
-0.134434 -0.106348 0.296245
-0.126088 -0.105274 0.294464
-0.123557 -0.104316 0.291995
-0.122419 -0.104528 0.292786
-0.121123 -0.104607 0.293197
-0.119465 -0.104373 0.292720
-0.118179 -0.104462 0.293140
-0.116723 -0.104400 0.293129
-0.115292 -0.104360 0.293170
-0.113749 -0.104217 0.292913
-0.112372 -0.104224 0.293070
-0.111019 -0.104254 0.293284
-0.109655 -0.104275 0.293465
-0.108436 -0.104435 0.294032
-0.107019 -0.104407 0.294060
-0.105642 -0.104418 0.294194
-0.104363 -0.104527 0.294595
-0.102856 -0.104408 0.294349
-0.101370 -0.104307 0.294148
-0.099957 -0.104280 0.294148
-0.098482 -0.104186 0.293955
-0.096900 -0.103975 0.293426
-0.095409 -0.103857 0.293153
-0.094184 -0.104029 0.293694
-0.092740 -0.103962 0.293555
-0.091252 -0.103843 0.293263
-0.089940 -0.103922 0.293529
-0.088601 -0.103973 0.293709
-0.087164 -0.103909 0.293560
-0.085769 -0.103894 0.293546
-0.084289 -0.103774 0.293232
-0.082755 -0.103582 0.292710
-0.081388 -0.103596 0.292768
-0.079989 -0.103570 0.292707
-0.078685 -0.103667 0.292994
-0.077261 -0.103609 0.292836
-0.075900 -0.103632 0.292907
-0.074508 -0.103614 0.292858
-0.073079 -0.103544 0.292659
-0.071642 -0.103460 0.292416
-0.070225 -0.103401 0.292243
-0.068825 -0.103366 0.292138
-0.067397 -0.103286 0.291900
-0.066107 -0.103420 0.292266
-0.064751 -0.103452 0.292344
-0.063337 -0.103393 0.292159
-0.062050 -0.103543 0.292567
-0.060704 -0.103600 0.292706
-0.059333 -0.103615 0.292727
-0.057917 -0.103549 0.292519
-0.056537 -0.103549 0.292495
-0.055203 -0.103634 0.292709
-0.053788 -0.103566 0.292491
-0.052389 -0.103528 0.292357
-0.050975 -0.103458 0.292131
-0.049614 -0.103493 0.292201
-0.048212 -0.103443 0.292030
-0.046784 -0.103333 0.291690
-0.045420 -0.103363 0.291745
-0.044060 -0.103403 0.291828
-0.042669 -0.103371 0.291706
-0.041318 -0.103437 0.291860
-0.039923 -0.103395 0.291710
-0.038477 -0.103212 0.291162
-0.037490 -0.104292 0.294177
-0.036122 -0.104356 0.294325
-0.034752 -0.104418 0.294468
0.051298 -0.106583 0.300017
0.051930 -0.104981 0.295512
0.047802 -0.094095 0.264869
0.048854 -0.093700 0.263761
0.050222 -0.093916 0.264370
0.050998 -0.093042 0.261907
0.052484 -0.093475 0.263125
0.053731 -0.093470 0.263110
0.054942 -0.093405 0.262921
0.063690 -0.105871 0.298003
0.068905 -0.107382 0.302227
0.073317 -0.103477 0.291141
0.074630 -0.103380 0.290842
0.075941 -0.103282 0.290537
0.100833 -0.106218 0.297767
0.101076 -0.104994 0.294227
0.102707 -0.105225 0.294764
0.104326 -0.105438 0.295239
0.105970 -0.105671 0.295764
0.106954 -0.105247 0.294445
0.108517 -0.105397 0.294724
0.110030 -0.105495 0.294850
0.111399 -0.105454 0.294578
0.112793 -0.105437 0.294368
0.114274 -0.105502 0.294375
0.115760 -0.105569 0.294382
0.117278 -0.105662 0.294452
0.118803 -0.105761 0.294526
0.120359 -0.105884 0.294661
0.122007 -0.106084 0.294997
0.123585 -0.106219 0.295142
0.125203 -0.106385 0.295361
0.126832 -0.106556 0.295584
0.128201 -0.106508 0.295185
0.129737 -0.106598 0.295158
0.131366 -0.106761 0.295321
0.132773 -0.106742 0.294968
0.134268 -0.106794 0.294795
0.135976 -0.107012 0.295067
0.137627 -0.107181 0.295190
0.139276 -0.107344 0.295280
0.140958 -0.107531 0.295417
0.142631 -0.107705 0.295505
0.144320 -0.107888 0.295598
0.145959 -0.108031 0.295563
0.147576 -0.108155 0.295454
0.149103 -0.108210 0.295142
0.150626 -0.108262 0.294799
0.152189 -0.108341 0.294511
0.153927 -0.108542 0.294530
0.155195 -0.108411 0.293626
0.156804 -0.108518 0.293345
0.158651 -0.108786 0.293474
-0.152453 -0.105684 0.294381
-0.150688 -0.105442 0.294143
-0.149086 -0.105311 0.294198
-0.147964 -0.105520 0.295185
-0.146346 -0.105376 0.295169
-0.144737 -0.105235 0.295145
-0.143299 -0.105218 0.295452
-0.141843 -0.105187 0.295705
-0.140142 -0.104973 0.295427
-0.138348 -0.104683 0.294921
-0.137251 -0.104921 0.295889
-0.135540 -0.104689 0.295521
-0.131209 -0.102408 0.289347
-0.125213 -0.103144 0.292595
-0.123242 -0.102658 0.291419
-0.121978 -0.102758 0.291892
-0.120646 -0.102801 0.292199
-0.119219 -0.102763 0.292264
-0.117951 -0.102864 0.292716
-0.116479 -0.102787 0.292653
-0.115013 -0.102714 0.292592
-0.113695 -0.102773 0.292901
-0.112315 -0.102777 0.293043
-0.110883 -0.102733 0.293040
-0.109521 -0.102753 0.293215
-0.108205 -0.102818 0.293509
-0.106853 -0.102850 0.293705
-0.105526 -0.102907 0.293963
-0.104271 -0.103037 0.294425
-0.102850 -0.103004 0.294415
-0.101157 -0.102695 0.293610
-0.099994 -0.102922 0.294332
-0.098414 -0.102720 0.293822
-0.096822 -0.102500 0.293253
-0.095274 -0.102322 0.292800
-0.093862 -0.102286 0.292746
-0.092577 -0.102390 0.293091
-0.091129 -0.102314 0.292914
-0.089881 -0.102463 0.293378
-0.088503 -0.102468 0.293425
-0.087263 -0.102634 0.293930
-0.085974 -0.102748 0.294280
-0.084430 -0.102555 0.293748
-0.083114 -0.102638 0.294003
-0.081746 -0.102657 0.294073
-0.079836 -0.101986 0.292160
-0.078602 -0.102170 0.292695
-0.077299 -0.102270 0.292985
-0.075699 -0.101973 0.292133
-0.074353 -0.102013 0.292248
-0.072925 -0.101941 0.292036
-0.071496 -0.101864 0.291811
-0.070165 -0.101927 0.291981
-0.068641 -0.101707 0.291340
-0.067332 -0.101802 0.291598
-0.066070 -0.101975 0.292076
-0.064719 -0.102014 0.292172
-0.063340 -0.102011 0.292142
-0.061992 -0.102058 0.292256
-0.060690 -0.102186 0.292602
-0.059297 -0.102161 0.292506
-0.057887 -0.102108 0.292328
-0.056519 -0.102126 0.292354
-0.055146 -0.102137 0.292357
-0.053716 -0.102038 0.292046
-0.052371 -0.102102 0.292200
-0.050978 -0.102073 0.292085
-0.049539 -0.101949 0.291698
-0.048160 -0.101943 0.291650
-0.046775 -0.101925 0.291566
-0.045416 -0.101963 0.291643
-0.044038 -0.101961 0.291605
-0.042664 -0.101969 0.291593
-0.041282 -0.101957 0.291524
-0.039919 -0.101994 0.291598
-0.038407 -0.101637 0.290544
-0.037932 -0.104102 0.297556
-0.035369 -0.100803 0.288094
-0.033781 -0.100134 0.286150
-0.031770 -0.098101 0.280307
-0.030007 -0.096692 0.276250
-0.028212 -0.095045 0.271517
-0.026952 -0.095130 0.271728
-0.025514 -0.094564 0.270084
-0.024156 -0.094253 0.269165
-0.022847 -0.094107 0.268720
-0.021599 -0.094208 0.268984
-0.020297 -0.094073 0.268572
-0.019099 -0.094439 0.269590
-0.017917 -0.094938 0.270990
-0.016756 -0.095635 0.272955
-0.015599 -0.096478 0.275336
-0.014371 -0.096990 0.276774
-0.013035 -0.096799 0.276208
-0.011721 -0.096756 0.276062
-0.010325 -0.095943 0.273724
-0.009030 -0.095964 0.273763
-0.007665 -0.095127 0.271358
-0.006356 -0.094780 0.270352
-0.005079 -0.094876 0.270610
-0.003797 -0.094888 0.270627
0.005366 -0.098188 0.279962
0.006694 -0.098181 0.279936
0.007959 -0.097405 0.277718
0.009137 -0.095937 0.273528
0.010334 -0.095014 0.270893
0.011596 -0.094819 0.270334
0.012786 -0.094143 0.268404
0.014021 -0.093884 0.267664
0.015304 -0.093961 0.267885
0.016633 -0.094287 0.268817
0.017963 -0.094573 0.269631
0.019308 -0.094891 0.270542
0.020818 -0.095935 0.273522
0.022109 -0.095902 0.273432
0.029967 -0.096127 0.274110
0.031253 -0.096080 0.273983
0.032326 -0.095406 0.272069
0.033468 -0.094982 0.270868
0.034940 -0.095490 0.272325
0.036254 -0.095546 0.272493
0.037727 -0.096003 0.273805
0.039295 -0.096664 0.275699
0.040578 -0.096602 0.275531
0.041859 -0.096540 0.275361
0.043001 -0.096171 0.274316
0.044107 -0.095744 0.273105
0.045385 -0.095705 0.273001
0.046091 -0.094495 0.269556
0.046886 -0.093527 0.266799
0.047496 -0.092252 0.263167
0.048448 -0.091689 0.261565
0.049477 -0.091295 0.260445
0.050316 -0.090581 0.258408
0.051568 -0.090624 0.258532
0.052828 -0.090680 0.258692
0.054099 -0.090752 0.258895
0.055717 -0.091389 0.260710
0.057364 -0.092044 0.262575
0.061388 -0.096404 0.275007
0.062638 -0.096319 0.274755
0.064196 -0.096699 0.275829
0.066498 -0.098164 0.279995
0.068250 -0.098774 0.281722
0.069877 -0.099183 0.282870
0.071862 -0.100076 0.285397
0.073225 -0.100085 0.285399
0.074951 -0.100582 0.286791
0.077249 -0.101813 0.290273
0.078552 -0.101714 0.289958
0.079213 -0.100800 0.287318
0.080499 -0.100700 0.286996
0.081684 -0.100479 0.286323
0.081847 -0.099027 0.282140
0.082277 -0.097942 0.279000
0.082649 -0.096822 0.275757
0.083377 -0.096148 0.273782
0.084018 -0.095395 0.271580
0.084994 -0.095040 0.270506
0.086198 -0.094947 0.270173
0.087689 -0.095167 0.270728
0.088919 -0.095103 0.270468
0.089980 -0.094862 0.269701
0.100106 -0.104050 0.295726
0.101413 -0.103942 0.295318
0.102662 -0.103780 0.294750
0.104241 -0.103951 0.295121
0.105902 -0.104198 0.295701
0.107017 -0.103908 0.294750
0.108397 -0.103880 0.294534
0.109991 -0.104055 0.294887
0.111424 -0.104074 0.294792
0.112697 -0.103946 0.294272
0.114220 -0.104049 0.294395
0.115653 -0.104068 0.294275
0.117166 -0.104158 0.294343
0.118732 -0.104292 0.294529
0.120235 -0.104367 0.294539
0.121832 -0.104523 0.294765
0.123480 -0.104717 0.295089
0.125103 -0.104886 0.295330
0.126577 -0.104928 0.295203
0.128141 -0.105042 0.295267
0.129688 -0.105140 0.295275
0.131278 -0.105270 0.295359
0.132827 -0.105365 0.295331
0.134383 -0.105464 0.295300
0.136419 -0.105932 0.296290
0.137746 -0.105846 0.295712
0.139378 -0.105994 0.295776
0.141183 -0.106269 0.296175
0.142587 -0.106240 0.295711
0.144228 -0.106386 0.295717
0.145764 -0.106452 0.295484
0.147566 -0.106709 0.295763
0.149194 -0.106836 0.295660
0.150597 -0.106802 0.295092
0.152106 -0.106841 0.294709
0.153827 -0.107028 0.294711
0.155062 -0.106877 0.293758
0.156484 -0.106855 0.293141
0.158041 -0.106925 0.292752
-0.151576 -0.103651 0.292990
-0.150071 -0.103586 0.293233
-0.148652 -0.103580 0.293625
-0.147304 -0.103625 0.294144
-0.145501 -0.103346 0.293729
-0.143985 -0.103269 0.293870
-0.142760 -0.103401 0.294589
-0.140881 -0.103057 0.293940
-0.139272 -0.102906 0.293824
-0.138037 -0.103032 0.294485
-0.136716 -0.103094 0.294953
-0.135316 -0.103098 0.295241
-0.134038 -0.103197 0.295789
-0.126876 -0.103096 0.296650
-0.123143 -0.101184 0.291344
-0.122011 -0.101390 0.292123
-0.120685 -0.101439 0.292440
-0.119239 -0.101387 0.292456
-0.117948 -0.101466 0.292845
-0.116509 -0.101419 0.292859
-0.115192 -0.101479 0.293173
-0.113906 -0.101568 0.293564
-0.112519 -0.101566 0.293687
-0.111040 -0.101482 0.293563
-0.109833 -0.101648 0.294155
-0.108550 -0.101746 0.294544
-0.106989 -0.101583 0.294171
-0.105659 -0.101638 0.294422
-0.104350 -0.101716 0.294732
-0.102877 -0.101633 0.294570
-0.101359 -0.101503 0.294269
-0.099950 -0.101480 0.294269
-0.098539 -0.101455 0.294258
-0.096808 -0.101095 0.293271
-0.095222 -0.100878 0.292694
-0.093802 -0.100833 0.292609
-0.092454 -0.100866 0.292746
-0.090936 -0.100711 0.292335
-0.089566 -0.100718 0.292388
-0.088333 -0.100882 0.292893
-0.086502 -0.100358 0.291395
-0.085347 -0.100613 0.292157
-0.083767 -0.100368 0.291461
-0.082381 -0.100351 0.291425
-0.081104 -0.100468 0.291775
-0.079507 -0.100187 0.290965
-0.078173 -0.100233 0.291104
-0.076813 -0.100247 0.291144
-0.075401 -0.100192 0.290982
-0.073930 -0.100056 0.290581
-0.072597 -0.100105 0.290715
-0.071392 -0.100335 0.291373
-0.070005 -0.100314 0.291300
-0.068692 -0.100400 0.291534
-0.067435 -0.100573 0.292020
-0.066039 -0.100543 0.291914
-0.064675 -0.100560 0.291943
-0.063379 -0.100687 0.292290
-0.061980 -0.100652 0.292163
-0.060597 -0.100643 0.292112
-0.059280 -0.100744 0.292378
-0.057898 -0.100738 0.292333
-0.056520 -0.100738 0.292306
-0.055129 -0.100716 0.292211
-0.053773 -0.100758 0.292300
-0.052408 -0.100786 0.292349
-0.050932 -0.100593 0.291759
-0.049548 -0.100579 0.291685
-0.048238 -0.100719 0.292054
-0.046780 -0.100547 0.291523
-0.045395 -0.100530 0.291438
-0.044082 -0.100673 0.291818
-0.042693 -0.100648 0.291709
-0.041299 -0.100609 0.291560
-0.039964 -0.100716 0.291836
-0.039235 -0.102413 0.296718
-0.037998 -0.102861 0.297979
-0.035493 -0.099776 0.289008
-0.034612 -0.101196 0.293085
-0.031561 -0.096124 0.278362
-0.029914 -0.095073 0.275287
-0.028126 -0.093461 0.270588
-0.026738 -0.093086 0.269471
-0.025200 -0.092124 0.266656
-0.023860 -0.091822 0.265752
-0.022479 -0.091322 0.264276
-0.021188 -0.091148 0.263747
-0.020053 -0.091667 0.265222
-0.018820 -0.091783 0.265531
-0.017661 -0.092298 0.266993
-0.016825 -0.094706 0.273933
-0.015636 -0.095369 0.275828
-0.014305 -0.095212 0.275349
-0.013103 -0.095962 0.277496
-0.011620 -0.094597 0.273526
-0.010230 -0.093741 0.271031
-0.008865 -0.092899 0.268576
