ply
format ascii 1.0
element vertex 1745
property float x
property float y
property float z
end_header
-0.001295 0.044590 0.256649
-0.000059 0.044887 0.258345
0.001203 0.045546 0.262127
0.002452 0.045279 0.260584
0.006598 0.048039 0.276467
0.007930 0.048032 0.276433
0.009260 0.048023 0.276393
0.016912 0.047070 0.271033
0.018210 0.047051 0.270952
0.019714 0.047528 0.273736
0.020650 0.046665 0.268799
0.021723 0.046192 0.266117
0.023568 0.047322 0.272667
0.024676 0.046932 0.270468
0.025492 0.046053 0.265447
0.026869 0.046222 0.266477
0.028100 0.046138 0.266040
0.029018 0.045568 0.262812
0.030156 0.045377 0.261767
0.031371 0.045311 0.261445
0.032484 0.045111 0.260348
0.033760 0.045142 0.260592
0.035136 0.045301 0.261571
0.036418 0.045331 0.261812
0.037715 0.045377 0.262145
0.039288 0.045741 0.264317
0.040777 0.045987 0.265816
0.041940 0.045862 0.265166
0.043710 0.046389 0.268290
0.044778 0.046162 0.267052
0.044147 0.044245 0.256035
0.045067 0.043943 0.254363
0.046301 0.043955 0.254513
0.047493 0.043929 0.254436
0.048656 0.043877 0.254216
0.049801 0.043812 0.253917
0.051082 0.043866 0.254310
0.052483 0.044019 0.255276
0.053456 0.043814 0.254167
0.055029 0.044099 0.255898
0.057810 0.045318 0.263055
0.059752 0.045842 0.266179
0.061237 0.046000 0.267182
0.062446 0.045949 0.266964
0.063918 0.046089 0.267864
0.065388 0.046222 0.268719
0.066719 0.046255 0.268990
0.068100 0.046320 0.269446
0.069433 0.046349 0.269699
0.070692 0.046330 0.269663
0.071631 0.046105 0.268432
0.072465 0.045822 0.266856
0.073417 0.045621 0.265762
0.074494 0.045504 0.265153
0.075622 0.045421 0.264739
0.076597 0.045251 0.263814
0.077579 0.045090 0.262941
0.078703 0.045016 0.262567
0.080179 0.045142 0.263362
0.081671 0.045272 0.264182
0.083388 0.045522 0.265694
0.085228 0.045830 0.267546
0.086168 0.045653 0.266559
0.088577 0.046247 0.270078
0.096346 0.049583 0.289605
0.097577 0.049508 0.289206
0.100826 0.050444 0.294712
0.100325 0.049503 0.289254
0.101652 0.049479 0.289140
0.103289 0.049603 0.289895
0.104444 0.049496 0.289288
0.106094 0.049623 0.290047
0.107541 0.049653 0.290235
0.109004 0.049690 0.290454
0.110443 0.049715 0.290599
0.111745 0.049678 0.290378
0.113000 0.049622 0.290038
0.114237 0.049558 0.289650
0.115531 0.049521 0.289410
0.116925 0.049528 0.289415
0.118061 0.049425 0.288780
0.119845 0.049594 0.289721
0.121183 0.049576 0.289563
0.123184 0.049826 0.290967
0.124476 0.049788 0.290675
0.125656 0.049705 0.290119
0.126795 0.049609 0.289473
0.128351 0.049676 0.289772
0.129749 0.049681 0.289701
0.131085 0.049662 0.289481
0.132312 0.049603 0.289018
0.134307 0.049830 0.290210
0.136193 0.050012 0.291132
0.137538 0.049993 0.290875
0.138810 0.049950 0.290459
0.140419 0.050026 0.290732
0.141754 0.050004 0.290423
0.143131 0.049998 0.290190
0.144553 0.050007 0.290037
0.146434 0.050174 0.290781
0.147778 0.050154 0.290435
0.149106 0.050130 0.290048
0.150668 0.050184 0.290099
0.152574 0.050350 0.290784
-0.041438 0.017273 0.098904
-0.042242 0.017808 0.101976
-0.041770 0.017811 0.102001
-0.040788 0.017594 0.100764
-0.040982 0.017885 0.102435
-0.041095 0.019542 0.111880
-0.040633 0.019573 0.112043
-0.040250 0.019643 0.112427
-0.039776 0.019670 0.112564
-0.039006 0.019549 0.111856
-0.038456 0.019537 0.111765
-0.041695 0.021476 0.122836
-0.041182 0.021510 0.123003
-0.041722 0.022103 0.126364
-0.041391 0.022245 0.127146
-0.040839 0.022271 0.127260
-0.040774 0.022567 0.128917
-0.042477 0.023865 0.136296
-0.041900 0.023902 0.136468
-0.041928 0.024291 0.138651
-0.042127 0.024793 0.141473
-0.042080 0.025164 0.143545
-0.042612 0.025900 0.147693
-0.042959 0.026545 0.151323
-0.042816 0.026904 0.153320
-0.042763 0.027333 0.155713
-0.042389 0.027569 0.157001
-0.042261 0.027976 0.159259
-0.042303 0.028512 0.162253
-0.042592 0.029237 0.166322
-0.042668 0.029841 0.169694
-0.042639 0.030393 0.172769
-0.042867 0.031154 0.177028
-0.042742 0.031683 0.179965
-0.042484 0.032133 0.182455
-0.042076 0.032487 0.184392
-0.041749 0.032919 0.186770
-0.041846 0.033712 0.191195
-0.042115 0.034681 0.196617
-0.042028 0.035394 0.200583
-0.041885 0.036092 0.204461
-0.041590 0.036690 0.207768
-0.041514 0.037515 0.212358
-0.040892 0.037875 0.214310
-0.042925 0.040775 0.230636
-0.043413 0.042322 0.239295
-0.042322 0.042371 0.239482
-0.041891 0.043103 0.243529
-0.040938 0.043324 0.244684
-0.039914 0.043480 0.245476
-0.039131 0.043916 0.247849
-0.038578 0.044646 0.251880
-0.040719 0.048640 0.274315
-0.039447 0.048688 0.274493
-0.038436 0.049073 0.276571
-0.036534 0.048307 0.272160
-0.035311 0.048415 0.272682
-0.034466 0.049070 0.276282
-0.032893 0.048699 0.274109
-0.029717 0.045826 0.257861
-0.028407 0.045706 0.257109
-0.027149 0.045662 0.256787
-0.025949 0.045717 0.257024
-0.024729 0.045739 0.257082
-0.023486 0.045720 0.256906
-0.022252 0.045718 0.256831
-0.021037 0.045757 0.256989
-0.019811 0.045775 0.257030
-0.018631 0.045907 0.257714
-0.017791 0.046958 0.263555
-0.016640 0.047286 0.265343
-0.015349 0.047238 0.265023
-0.014234 0.047771 0.267968
-0.012751 0.047053 0.263894
-0.011012 0.045126 0.253046
-0.009861 0.045431 0.254722
-0.008675 0.045640 0.255860
-0.007425 0.045523 0.255170
-0.006206 0.045593 0.255535
-0.004971 0.045544 0.255239
-0.003751 0.045644 0.255777
-0.002522 0.045687 0.255998
-0.001289 0.045682 0.255955
-0.000056 0.045734 0.256229
0.001186 0.046054 0.258015
0.002449 0.046445 0.260198
0.003788 0.047520 0.266218
0.005070 0.047516 0.266197
0.006291 0.047054 0.263611
0.007592 0.047252 0.264724
0.008805 0.046920 0.262871
0.010007 0.046618 0.261191
0.011185 0.046286 0.259349
0.012465 0.046401 0.260012
0.013713 0.046383 0.259932
0.014942 0.046313 0.259561
0.016202 0.046340 0.259743
0.017468 0.046379 0.259990
0.019130 0.047395 0.265717
0.020412 0.047400 0.265782
0.021630 0.047265 0.265061
0.023280 0.048036 0.269427
0.024525 0.047934 0.268904
0.025252 0.046881 0.263041
0.026047 0.046047 0.258409
0.027498 0.046397 0.260421
0.028795 0.046468 0.260877
0.029706 0.045936 0.257944
0.030994 0.046005 0.258389
0.032342 0.046156 0.259292
0.033712 0.046325 0.260304
0.034971 0.046336 0.260428
0.036303 0.046438 0.261066
0.037795 0.046732 0.262786
0.039117 0.046802 0.263249
0.040556 0.047004 0.264457
0.041784 0.046956 0.264262
0.043437 0.047376 0.266697
0.044757 0.047417 0.267006
0.045079 0.046430 0.261519
0.045610 0.045703 0.257504
0.046718 0.045579 0.256880
0.047855 0.045489 0.256445
0.048964 0.045377 0.255893
0.050255 0.045436 0.256301
0.051500 0.045450 0.256462
0.052834 0.045541 0.257052
0.054763 0.046128 0.260446
0.056402 0.046451 0.262348
0.058513 0.047140 0.266319
0.059941 0.047261 0.267085
0.061391 0.047393 0.267914
0.062788 0.047480 0.268488
0.064170 0.047553 0.268979
0.065543 0.047616 0.269417
0.066891 0.047658 0.269736
0.068177 0.047656 0.269803
0.069477 0.047663 0.269922
0.070593 0.047547 0.269338
0.071357 0.047201 0.267453
0.072258 0.046956 0.266141
0.073517 0.046949 0.266171
0.074525 0.046784 0.265305
0.075665 0.046706 0.264931
0.076497 0.046444 0.263509
0.077396 0.046230 0.262357
0.078639 0.046225 0.262388
0.079832 0.046192 0.262254
0.081478 0.046417 0.263590
0.082912 0.046517 0.264208
0.084415 0.046651 0.265022
0.085076 0.046323 0.263205
0.087029 0.046698 0.265381
0.098902 0.051570 0.293153
0.100146 0.051492 0.292744
0.100451 0.050939 0.289633
0.101653 0.050850 0.289156
0.102931 0.050801 0.288900
0.104451 0.050871 0.289316
0.105527 0.050726 0.288504
0.107233 0.050883 0.289407
0.108702 0.050926 0.289650
0.110253 0.051005 0.290097
0.111656 0.051014 0.290143
0.112582 0.050808 0.288957
0.114659 0.051120 0.290710
0.115759 0.050995 0.289969
0.116948 0.050910 0.289457
0.118417 0.050948 0.289632
0.119680 0.050898 0.289300
0.120937 0.050846 0.288952
0.122595 0.050963 0.289550
0.124009 0.050976 0.289555
0.125334 0.050952 0.289344
0.126845 0.051004 0.289552
0.128626 0.051162 0.290354
0.129968 0.051144 0.290147
0.131000 0.051005 0.289248
0.132413 0.051016 0.289189
0.134012 0.051098 0.289522
0.135535 0.051150 0.289670
0.136868 0.051129 0.289400
0.138338 0.051160 0.289409
0.139924 0.051232 0.289642
0.141340 0.051241 0.289508
0.142710 0.051233 0.289267
0.144343 0.051319 0.289540
0.146252 0.051500 0.290340
0.148067 0.051646 0.290920
0.149581 0.051684 0.290883
0.150868 0.051644 0.290393
0.152143 0.051600 0.289867
-0.042185 0.018059 0.100680
-0.043650 0.018898 0.105370
-0.043196 0.018917 0.105480
-0.043140 0.019111 0.106571
-0.042705 0.019141 0.106741
-0.040982 0.020273 0.113010
-0.040564 0.020330 0.113313
-0.039596 0.020109 0.112064
-0.039438 0.020300 0.113105
-0.039221 0.020464 0.114000
-0.041299 0.021847 0.121681
-0.041174 0.022087 0.122993
-0.040993 0.022304 0.124173
-0.040656 0.022440 0.124904
-0.040370 0.022610 0.125816
-0.040197 0.022848 0.127111
-0.040114 0.023146 0.128733
-0.041433 0.024274 0.134971
-0.042305 0.025172 0.139922
-0.042396 0.025625 0.142401
-0.042201 0.025918 0.143987
-0.042139 0.026304 0.146083
-0.042781 0.027149 0.150728
-0.043017 0.027760 0.154071
-0.042655 0.028001 0.155355
-0.042516 0.028398 0.157507
-0.042347 0.028790 0.159621
-0.042414 0.029359 0.162720
-0.042679 0.030088 0.166702
-0.042490 0.030519 0.169029
-0.042559 0.031156 0.172492
-0.042670 0.031848 0.176263
-0.042776 0.032565 0.180162
-0.042380 0.032921 0.182062
-0.042026 0.033325 0.184228
-0.041651 0.033729 0.186391
-0.041495 0.034332 0.189649
-0.042103 0.035607 0.196620
-0.042142 0.036449 0.201193
-0.041994 0.037165 0.205065
-0.041446 0.037551 0.207118
-0.041497 0.038513 0.212342
-0.044722 0.042541 0.234467
-0.043776 0.042708 0.235296
-0.042706 0.042758 0.235483
-0.042179 0.043369 0.238762
-0.041652 0.044015 0.242228
-0.040697 0.044233 0.243338
-0.039773 0.044497 0.244704
-0.038932 0.044874 0.246691
-0.038275 0.045492 0.250000
-0.040203 0.049322 0.270953
-0.038947 0.049370 0.271128
-0.038002 0.049830 0.273562
-0.036285 0.049275 0.270426
-0.035088 0.049410 0.271081
-0.034072 0.049820 0.273245
-0.032874 0.049988 0.274082
-0.029698 0.047035 0.257812
-0.028392 0.046917 0.257092
-0.027149 0.046897 0.256911
-0.025934 0.046927 0.257002
-0.024722 0.046965 0.257142
-0.023485 0.046956 0.257028
-0.022268 0.046989 0.257146
-0.021059 0.047045 0.257390
-0.019811 0.047015 0.257168
-0.018650 0.047201 0.258124
-0.017835 0.048350 0.264353
-0.016568 0.048357 0.264342
-0.015392 0.048655 0.265920
-0.014405 0.049657 0.271349
-0.012293 0.046595 0.254574
-0.011026 0.046413 0.253541
-0.009820 0.046473 0.253831
-0.008608 0.046522 0.254066
-0.007380 0.046484 0.253830
-0.006171 0.046568 0.254259
-0.004956 0.046651 0.254687
-0.003734 0.046692 0.254889
-0.002507 0.046684 0.254826
-0.001284 0.046817 0.255538
-0.000054 0.046838 0.255637
0.001204 0.047919 0.261530
0.002472 0.048093 0.262473
0.003804 0.048972 0.267264
0.005090 0.048968 0.267243
0.006273 0.048172 0.262903
0.007561 0.048312 0.263671
0.008814 0.048222 0.263189
0.010000 0.047831 0.261067
0.011188 0.047537 0.259478
0.012463 0.047635 0.260026
0.013731 0.047692 0.260362
0.014997 0.047732 0.260600
0.016251 0.047729 0.260611
0.017461 0.047608 0.259978
0.019039 0.048436 0.264536
0.020317 0.048447 0.264627
0.021530 0.048312 0.263929
0.023261 0.049287 0.269298
0.024669 0.049512 0.270573
0.025111 0.047873 0.261658
0.026069 0.047326 0.258719
0.027222 0.047168 0.257900
0.028559 0.047328 0.258826
0.029586 0.046981 0.256986
0.030798 0.046946 0.256845
0.032130 0.047088 0.257680
0.033429 0.047173 0.258208
0.034589 0.047063 0.257663
0.035979 0.047263 0.258822
0.037474 0.047582 0.260634
0.038902 0.047799 0.261890
0.040201 0.047848 0.262227
0.041649 0.048065 0.263491
0.043010 0.048173 0.264152
0.044268 0.048162 0.264167
0.045702 0.048338 0.265208
0.047085 0.048453 0.265911
0.048579 0.048672 0.267190
0.049854 0.048666 0.267238
0.051178 0.048707 0.267542
0.052646 0.048880 0.268569
0.053897 0.048846 0.268466
0.055134 0.048803 0.268308
0.056434 0.048817 0.268464
0.057688 0.048790 0.268397
0.058857 0.048694 0.267952
0.060239 0.048775 0.268477
0.061670 0.048891 0.269194
0.062868 0.048822 0.268892
0.064173 0.048836 0.269050
0.065599 0.048940 0.269703
0.066963 0.048995 0.270083
0.068190 0.048950 0.269910
0.069428 0.048914 0.269787
0.070660 0.048874 0.269642
0.071318 0.048447 0.267358
0.072188 0.048175 0.265929
0.073178 0.047992 0.264989
0.074209 0.047842 0.264222
0.075064 0.047584 0.262866
0.076042 0.047413 0.261979
0.076961 0.047209 0.260917
0.078081 0.047135 0.260560
0.079394 0.047177 0.260848
0.080821 0.047284 0.261493
0.082381 0.047465 0.262543
0.083827 0.047575 0.263201
0.084422 0.047206 0.261206
0.086334 0.047574 0.263282
0.094597 0.051381 0.284390
0.095807 0.051303 0.283999
0.100844 0.053248 0.294800
0.100042 0.052099 0.288468
0.101655 0.052222 0.289173
0.103074 0.052244 0.289311
0.104599 0.052317 0.289732
0.106488 0.052568 0.291136
0.107799 0.052531 0.290937
0.108956 0.052421 0.290325
0.110292 0.052398 0.290195
0.111609 0.052368 0.290014
0.112803 0.052281 0.289514
0.114040 0.052215 0.289131
0.115439 0.052225 0.289153
0.116919 0.052270 0.289367
0.118315 0.052277 0.289364
0.119820 0.052332 0.289617
0.121065 0.052273 0.289233
0.122737 0.052397 0.289856
0.124345 0.052492 0.290308
0.125782 0.052513 0.290344
0.126790 0.052357 0.289389
0.128437 0.052465 0.289887
0.129742 0.052432 0.289600
0.130949 0.052361 0.289090
0.132773 0.052535 0.289926
0.134392 0.052625 0.290289
0.136209 0.052791 0.291054
0.137420 0.052720 0.290508
0.138683 0.052671 0.290067
0.140196 0.052716 0.290138
0.141517 0.052689 0.289798
0.142944 0.052701 0.289664
0.144237 0.052665 0.289249
0.146329 0.052917 0.290409
0.147645 0.052887 0.290002
0.149468 0.053038 0.290573
0.150631 0.052953 0.289840
0.151950 0.052925 0.289400
-0.043717 0.019207 0.104331
-0.043292 0.019236 0.104502
-0.043302 0.019462 0.105735
-0.042800 0.019459 0.105730
-0.042117 0.019374 0.105270
-0.041404 0.020752 0.112732
-0.040938 0.020784 0.112896
-0.040632 0.020900 0.113510
-0.039872 0.020782 0.112853
-0.039506 0.020869 0.113308
-0.039415 0.021106 0.114574
-0.041343 0.022445 0.121824
-0.041042 0.022595 0.122612
-0.040857 0.022814 0.123774
-0.040292 0.022824 0.123802
-0.039899 0.022934 0.124366
-0.039735 0.023180 0.125670
-0.040525 0.023998 0.130072
-0.041735 0.025094 0.135977
-0.041823 0.025539 0.138351
-0.041575 0.025790 0.139670
-0.041561 0.026196 0.141828
-0.042389 0.027156 0.146979
-0.042877 0.027925 0.151096
-0.042845 0.028377 0.153490
-0.042634 0.028723 0.155311
-0.042330 0.029018 0.156853
-0.042179 0.029429 0.159024
-0.042504 0.030195 0.163103
-0.042771 0.030947 0.167106
-0.042615 0.031414 0.169573
-0.042506 0.031935 0.172323
-0.042689 0.032701 0.176391
-0.042607 0.033290 0.179502
-0.042364 0.033774 0.182045
-0.042119 0.034277 0.184689
-0.041860 0.034790 0.187381
-0.042172 0.035810 0.192804
-0.042168 0.036601 0.196991
-0.042212 0.037470 0.201593
-0.041950 0.038102 0.204916
-0.041348 0.038448 0.206703
-0.045730 0.043558 0.234086
-0.044670 0.043610 0.234281
-0.043443 0.043498 0.233589
-0.042307 0.043473 0.233372
-0.041826 0.044138 0.236857
-0.040958 0.044420 0.238284
-0.040457 0.045129 0.241998
-0.039744 0.045635 0.244625
-0.039046 0.046189 0.247511
-0.038317 0.046742 0.250383
-0.040014 0.050382 0.269795
-0.038763 0.050432 0.269968
-0.037748 0.050801 0.271855
-0.036032 0.050220 0.268660
-0.034894 0.050431 0.269705
-0.033872 0.050832 0.271766
-0.032455 0.050650 0.270712
-0.029744 0.048348 0.258332
-0.028361 0.048100 0.256933
-0.027152 0.048139 0.257069
-0.025922 0.048140 0.257004
-0.024714 0.048186 0.257183
-0.023506 0.048237 0.257388
-0.022270 0.048233 0.257304
-0.021088 0.048351 0.257871
-0.019887 0.048439 0.258285
-0.018753 0.048714 0.259693
-0.017911 0.049838 0.265629
-0.016563 0.049620 0.264420
-0.015339 0.049769 0.265161
-0.014384 0.050896 0.271120
-0.013087 0.050916 0.271182
-0.011046 0.047726 0.254154
-0.009808 0.047646 0.253689
-0.008596 0.047687 0.253879
-0.007389 0.047771 0.254293
-0.006156 0.047691 0.253839
-0.004945 0.047788 0.254332
-0.003728 0.047874 0.254769
-0.002497 0.047768 0.254183
-0.001281 0.048011 0.255462
-0.000052 0.047973 0.255248
0.001225 0.049947 0.265740
0.002485 0.049586 0.263811
0.003800 0.050186 0.267001
0.005036 0.049704 0.264435
0.006250 0.049237 0.261953
0.007524 0.049327 0.262436
0.008774 0.049253 0.262051
0.009978 0.048972 0.260571
0.011174 0.048718 0.259233
0.012434 0.048765 0.259500
0.013704 0.048839 0.259913
0.014970 0.048890 0.260207
0.016251 0.048977 0.260696
0.017477 0.048895 0.260288
0.018838 0.049180 0.261836
0.020231 0.049505 0.263602
0.021401 0.049277 0.262425
0.023177 0.050394 0.268415
0.024572 0.050608 0.269594
0.025092 0.049088 0.261545
0.025877 0.048208 0.256900
0.027085 0.048159 0.256687
0.028324 0.048167 0.256778
0.029518 0.048102 0.256484
0.030770 0.048132 0.256698
0.032001 0.048127 0.256728
0.033256 0.048159 0.256955
0.034479 0.048143 0.256929
0.035705 0.048131 0.256929
0.036990 0.048199 0.257355
0.038920 0.049073 0.262089
0.040488 0.049452 0.264181
0.042054 0.049805 0.266134
0.043392 0.049875 0.266583
0.044674 0.049879 0.266676
0.046069 0.050004 0.267417
0.047566 0.050231 0.268704
0.048948 0.050327 0.269297
0.050426 0.050515 0.270380
0.051790 0.050582 0.270817
0.053230 0.050718 0.271622
0.054447 0.050639 0.271280
0.055667 0.050568 0.270977
0.056830 0.050449 0.270418
0.057762 0.050134 0.268811
0.058729 0.049863 0.267434
0.060181 0.050006 0.268280
0.061706 0.050204 0.269418
0.062879 0.050112 0.269003
0.064254 0.050181 0.269452
0.065588 0.050216 0.269716
0.066925 0.050252 0.269987
0.068260 0.050286 0.270243
0.069412 0.050185 0.269775
0.070581 0.050101 0.269395
0.071417 0.049787 0.267775
0.072222 0.049463 0.266103
0.072867 0.049042 0.263904
0.074033 0.048981 0.263639
0.074866 0.048705 0.262214
0.075468 0.048290 0.260040
0.076390 0.048089 0.259018
0.077480 0.047999 0.258588
0.078395 0.047806 0.257599
0.079385 0.047663 0.256876
0.080539 0.047621 0.256700
0.081728 0.047601 0.256637
0.083144 0.047712 0.257276
0.083820 0.047401 0.255636
0.084328 0.047006 0.253537
0.097984 0.053846 0.290469
0.099218 0.053766 0.290065
0.100458 0.053690 0.289683
0.101637 0.053584 0.289134
0.103471 0.053822 0.290434
0.105054 0.053924 0.291000
0.106122 0.053763 0.290138
0.107459 0.053740 0.290018
0.108857 0.053749 0.290061
0.110117 0.053689 0.289733
0.111426 0.053654 0.289531
0.112726 0.053617 0.289308
0.114026 0.053580 0.289083
0.115399 0.053578 0.289038
0.116932 0.053649 0.289381
0.118277 0.053633 0.289251
0.119652 0.053630 0.289184
0.121234 0.053720 0.289609
0.122700 0.053757 0.289738
0.124359 0.053877 0.290307
0.125677 0.053847 0.290064
0.127014 0.053827 0.289861
0.128259 0.053768 0.289441
0.129999 0.053915 0.290126
0.131394 0.053918 0.290022
0.132227 0.053693 0.288681
0.134160 0.053914 0.289731
0.135651 0.053955 0.289802
0.136641 0.053798 0.288797
0.138339 0.053920 0.289281
0.140165 0.054088 0.290003
0.141506 0.054068 0.289701
0.142877 0.054060 0.289450
0.144019 0.053966 0.288730
0.146598 0.054407 0.290857
0.148001 0.054407 0.290611
0.149440 0.054421 0.290424
0.150921 0.054449 0.290298
0.152680 0.054576 0.290687
-0.042046 0.018947 0.100338
-0.043552 0.019848 0.105125
-0.043062 0.019850 0.105144
-0.042801 0.019959 0.105730
-0.040875 0.019284 0.102163
-0.040964 0.019556 0.103605
-0.040455 0.020533 0.108771
-0.040537 0.020838 0.110376
-0.041426 0.021571 0.114249
-0.041053 0.021658 0.114695
-0.041448 0.022157 0.117325
-0.041213 0.022329 0.118216
-0.041096 0.022570 0.119474
-0.040986 0.022821 0.120783
-0.040727 0.022996 0.121685
-0.040636 0.023272 0.123122
-0.040486 0.023521 0.124413
-0.040004 0.023583 0.124710
-0.039577 0.023679 0.125187
-0.039848 0.024202 0.127921
-0.042046 0.025929 0.137011
-0.041462 0.025968 0.137182
-0.041652 0.026500 0.139955
-0.041927 0.027104 0.143104
-0.042863 0.028163 0.148651
-0.042949 0.028689 0.151381
-0.042771 0.029054 0.153258
-0.042468 0.029345 0.154742
-0.042340 0.029769 0.156928
-0.042282 0.030258 0.159452
-0.042398 0.030891 0.162737
-0.042628 0.031634 0.166590
-0.042483 0.032119 0.169089
-0.042286 0.032585 0.171479
-0.042302 0.033235 0.174838
-0.042381 0.033962 0.178599
-0.042385 0.034657 0.182191
-0.041809 0.034897 0.183387
-0.041616 0.035474 0.186347
-0.041589 0.036220 0.190198
-0.042464 0.037802 0.198436
-0.042651 0.038830 0.203757
-0.041735 0.038879 0.203937
-0.046449 0.044299 0.232281
-0.044618 0.044676 0.234090
-0.043316 0.044482 0.232990
-0.042662 0.044963 0.235421
-0.041842 0.045288 0.237037
-0.040958 0.045561 0.238382
-0.040391 0.046211 0.241699
-0.039802 0.046874 0.245082
-0.039079 0.047414 0.247820
-0.038306 0.047926 0.250411
-0.040019 0.051681 0.269943
-0.038768 0.051731 0.270116
-0.037796 0.052170 0.272320
-0.036301 0.051892 0.270783
-0.034899 0.051732 0.269862
-0.033816 0.052051 0.271443
-0.032583 0.052155 0.271905
-0.029640 0.049417 0.257558
-0.028355 0.049325 0.257006
-0.027119 0.049315 0.256879
-0.025904 0.049342 0.256954
-0.024693 0.049383 0.257100
-0.023473 0.049408 0.257163
-0.022255 0.049440 0.257269
-0.021049 0.049502 0.257535
-0.019838 0.049563 0.257792
-0.018687 0.049789 0.258915
-0.017842 0.050924 0.264761
-0.016714 0.051361 0.266982
-0.015365 0.051134 0.265754
-0.014363 0.052131 0.270887
-0.012877 0.051388 0.266986
-0.011599 0.051407 0.267041
-0.010398 0.051814 0.269121
-0.009107 0.051829 0.269165
-0.007743 0.051361 0.266700
-0.006484 0.051540 0.267600
-0.005196 0.051518 0.267461
-0.003907 0.051482 0.267255
-0.002621 0.051453 0.267086
-0.001336 0.051427 0.266933
-0.000052 0.051551 0.267562
0.001234 0.051513 0.267354
0.002493 0.050961 0.264485
0.003797 0.051402 0.266769
0.005058 0.051169 0.265556
0.006199 0.050072 0.259866
0.007493 0.050366 0.261397
0.008747 0.050343 0.261285
0.009924 0.049942 0.259217
0.011145 0.049826 0.258628
0.012413 0.049921 0.259137
0.013685 0.050013 0.259637
0.014970 0.050134 0.260285
0.016213 0.050106 0.260164
0.017446 0.050054 0.259921
0.018858 0.050487 0.262200
0.020193 0.050671 0.263191
0.021343 0.050398 0.261810
0.023420 0.052223 0.271327
0.024753 0.052281 0.271672
0.025101 0.050359 0.261730
0.025828 0.049345 0.256504
0.027068 0.049357 0.256611
0.028364 0.049467 0.257234
0.029467 0.049244 0.256124
0.030703 0.049253 0.256223
0.031962 0.049296 0.256503
0.033187 0.049286 0.256507
0.034320 0.049145 0.255831
0.035573 0.049178 0.256067
0.036809 0.049188 0.256176
0.038343 0.049581 0.258288
0.040220 0.050379 0.262513
0.041605 0.050532 0.263376
0.042635 0.050257 0.262011
0.044275 0.050697 0.264375
0.045452 0.050595 0.263916
0.046785 0.050669 0.264375
0.048359 0.050992 0.266134
0.049631 0.050990 0.266194
0.051137 0.051220 0.267475
0.052598 0.051396 0.268468
0.053953 0.051463 0.268895
0.055075 0.051308 0.268164
0.056238 0.051199 0.267667
0.057375 0.051071 0.267075
0.058517 0.050953 0.266535
0.060386 0.051460 0.269263
0.061873 0.051626 0.270207
0.063269 0.051711 0.270729
0.064396 0.051577 0.270106
0.065728 0.051610 0.270353
0.067081 0.051658 0.270674
0.068354 0.051642 0.270667
0.069534 0.051559 0.270302
0.070596 0.051393 0.269502
0.071366 0.051024 0.267635
0.071985 0.050561 0.265274
0.072932 0.050341 0.264184
0.074096 0.050276 0.263906
0.074867 0.049951 0.262256
0.075401 0.049480 0.259845
0.076495 0.049387 0.259411
0.077533 0.049261 0.258799
0.078613 0.049165 0.258344
0.079894 0.049195 0.258554
0.081229 0.049258 0.258925
0.082124 0.049056 0.257906
0.083287 0.049017 0.257740
0.084502 0.049009 0.257737
0.084971 0.048576 0.255488
0.099702 0.056192 0.295582
0.100959 0.056109 0.295170
0.100275 0.054963 0.289167
0.102109 0.055210 0.290487
0.103119 0.055010 0.289452
0.104520 0.055023 0.289526
0.106245 0.055202 0.290477
0.107326 0.055047 0.289659
0.108598 0.054993 0.289368
0.109995 0.055002 0.289405
0.111307 0.054968 0.289213
0.112572 0.054913 0.288900
0.113830 0.054856 0.288571
0.115454 0.054974 0.289157
0.117060 0.055081 0.289678
0.118841 0.055267 0.290606
0.120256 0.055280 0.290618
0.121831 0.055366 0.291005
0.123033 0.055282 0.290492
0.124458 0.055299 0.290501
0.126036 0.055383 0.290854
0.127496 0.055414 0.290918
0.129199 0.055548 0.291516
0.130584 0.055544 0.291383
0.131894 0.055509 0.291074
0.133272 0.055502 0.290906
0.134769 0.055545 0.290988
0.135932 0.055450 0.290339
0.137525 0.055532 0.290600
0.139195 0.055642 0.290999
0.140373 0.055555 0.290359
0.141673 0.055517 0.289965
0.143324 0.055617 0.290275
0.145475 0.055906 0.291561
0.146656 0.055821 0.290880
0.148051 0.055818 0.290614
0.149834 0.055961 0.291089
0.151451 0.056038 0.291214
0.152851 0.056035 0.290902
-0.041562 0.019197 0.099177
-0.042559 0.019880 0.102722
-0.042910 0.020274 0.104768
-0.042449 0.020289 0.104856
-0.041199 0.019923 0.102971
-0.040933 0.020029 0.103527
-0.040101 0.019858 0.102644
-0.039306 0.019701 0.101835
-0.040217 0.020406 0.105476
-0.039639 0.020364 0.105256
-0.039936 0.020776 0.107377
-0.040881 0.021540 0.111318
-0.040531 0.021632 0.111785
-0.042575 0.023022 0.118954
-0.042081 0.023057 0.119123
-0.041803 0.023215 0.119919
-0.041193 0.023189 0.119766
-0.040854 0.023316 0.120406
-0.040662 0.023534 0.121506
-0.040369 0.023697 0.122325
-0.040604 0.024180 0.124793
-0.039688 0.023981 0.123741
-0.039227 0.024056 0.124099
-0.039589 0.024645 0.127106
-0.042019 0.026560 0.136948
-0.041436 0.026600 0.137117
-0.041637 0.027153 0.139930
-0.041869 0.027744 0.142935
-0.042147 0.028385 0.146197
-0.042917 0.029384 0.151298
-0.042790 0.029793 0.153359
-0.042557 0.030141 0.155100
-0.042423 0.030572 0.157268
-0.042222 0.030970 0.159264
-0.042540 0.031770 0.163324
-0.042696 0.032476 0.166898
-0.042431 0.032882 0.168929
-0.042365 0.033461 0.171845
-0.042169 0.033959 0.174339
-0.042496 0.034905 0.179137
-0.042296 0.035449 0.181860
-0.042437 0.036307 0.186198
-0.042118 0.036799 0.188656
-0.041786 0.037301 0.191161
-0.041511 0.037878 0.194047
-0.047439 0.045297 0.231888
-0.046394 0.045353 0.232089
-0.044582 0.044642 0.228369
-0.044242 0.045408 0.232204
-0.043317 0.045596 0.233085
-0.042580 0.045998 0.235057
-0.041764 0.046334 0.236690
-0.040885 0.046617 0.238050
-0.040345 0.047312 0.241520
-0.039578 0.047776 0.243802
-0.039112 0.048641 0.248136
-0.038410 0.049258 0.251199
-0.040036 0.052996 0.270173
-0.038784 0.053047 0.270345
-0.037650 0.053268 0.271385
-0.036371 0.053294 0.271430
-0.034902 0.053031 0.270009
-0.033741 0.053236 0.270972
-0.032113 0.052689 0.268109
-0.029775 0.050884 0.258851
-0.028347 0.050546 0.257059
-0.027153 0.050613 0.257330
-0.025920 0.050610 0.257245
-0.024708 0.050650 0.257385
-0.023491 0.050683 0.257490
-0.022274 0.050721 0.257620
-0.021084 0.050827 0.258101
-0.019886 0.050927 0.258552
-0.018892 0.051599 0.261906
-0.017808 0.052102 0.264407
-0.016501 0.051978 0.263731
-0.015239 0.051988 0.263732
-0.014065 0.052328 0.265412
-0.012821 0.052454 0.266006
-0.011543 0.052447 0.265931
-0.010273 0.052480 0.266061
-0.009004 0.052532 0.266294
-0.007731 0.052572 0.266465
-0.006473 0.052755 0.267363
-0.005186 0.052732 0.267224
-0.003900 0.052696 0.267018
-0.002615 0.052667 0.266849
-0.001332 0.052639 0.266696
-0.000050 0.052766 0.267325
0.001234 0.052727 0.267118
0.002487 0.052069 0.263774
0.003793 0.052600 0.266459
0.005086 0.052721 0.267075
0.006161 0.050985 0.258283
0.007467 0.051427 0.260527
0.008664 0.051098 0.258869
0.009866 0.050878 0.257764
0.011091 0.050813 0.257446
0.012337 0.050843 0.257616
0.013573 0.050833 0.257583
0.014854 0.050978 0.258337
0.016128 0.051080 0.258880
0.017340 0.050984 0.258420
0.018692 0.051285 0.259975
0.020093 0.051672 0.261972
0.021190 0.051280 0.260018
0.023392 0.053456 0.271089
0.024723 0.053516 0.271434
0.024911 0.051221 0.259838
0.025670 0.050262 0.255016
0.026981 0.050423 0.255878
0.028312 0.050604 0.256845
0.029498 0.050522 0.256479
0.030712 0.050493 0.256382
0.031970 0.050536 0.256655
0.033208 0.050544 0.256755
0.034439 0.050542 0.256801
0.035626 0.050478 0.256531
0.036807 0.050409 0.256242
0.038137 0.050543 0.256984
0.040172 0.051573 0.262288
0.041022 0.051065 0.259771
0.042141 0.050912 0.259056
0.043484 0.051031 0.259730
0.044922 0.051251 0.260917
0.046127 0.051200 0.260731
0.047628 0.051473 0.262188
0.049000 0.051596 0.262886
0.050499 0.051841 0.264212
0.052062 0.052140 0.265808
0.053393 0.052198 0.266175
0.054655 0.052187 0.266194
0.055933 0.052191 0.266288
0.057030 0.052030 0.265540
0.058363 0.052086 0.265901
0.060120 0.052510 0.268140
0.061860 0.052902 0.270217
0.063209 0.052950 0.270534
0.064390 0.052858 0.270140
0.065713 0.052885 0.270350
0.067018 0.052896 0.270478
0.068326 0.052908 0.270611
0.069475 0.052800 0.270126
0.070611 0.052685 0.269610
0.071447 0.052355 0.267987
0.072300 0.052049 0.266481
0.073144 0.051746 0.264995
0.074015 0.051473 0.263657
0.074178 0.050725 0.259883
0.074619 0.050188 0.257187
0.075685 0.050082 0.256695
0.076712 0.049954 0.256091
0.077843 0.049897 0.255845
0.079048 0.049888 0.255844
0.080463 0.050010 0.256511
0.081754 0.050052 0.256765
0.082788 0.049938 0.256218
0.084291 0.050106 0.257113
0.085493 0.050093 0.257075
0.097817 0.056504 0.290008
0.099051 0.056421 0.289605
0.100048 0.056206 0.288524
0.101560 0.056283 0.288933
0.103811 0.056761 0.291400
0.104980 0.056643 0.290804
0.106146 0.056526 0.290205
0.107623 0.056576 0.290460
0.108855 0.056497 0.290047
0.110379 0.056570 0.290408
0.111668 0.056522 0.290142
0.113194 0.056594 0.290482
0.114641 0.056625 0.290609
0.115735 0.056483 0.289841
0.117339 0.056590 0.290345
0.118652 0.056556 0.290119
0.120101 0.056586 0.290215
0.121706 0.056689 0.290675
0.123171 0.056725 0.290783
0.124462 0.056680 0.290471
0.126126 0.056805 0.291020
0.127394 0.056751 0.290640
0.128874 0.056790 0.290736
0.130353 0.056829 0.290815
0.132240 0.057043 0.291782
0.133011 0.056775 0.290278
0.134657 0.056883 0.290681
0.136683 0.057148 0.291876
0.137957 0.057096 0.291441
0.139405 0.057116 0.291365
0.140770 0.057102 0.291101
0.142153 0.057095 0.290865
0.143819 0.057201 0.291190
0.145275 0.057223 0.291070
0.146830 0.057282 0.291131
0.148255 0.057290 0.290915
0.149842 0.057360 0.291002
0.151484 0.057449 0.291169
0.152952 0.057471 0.290983
-0.042456 0.020088 0.101303
-0.042043 0.020118 0.101469
-0.042608 0.020622 0.104026
-0.041846 0.020488 0.103363
-0.040971 0.020295 0.102397
-0.040709 0.020405 0.102958
-0.040692 0.020642 0.104156
-0.040555 0.020823 0.105071
-0.039508 0.020536 0.103619
-0.039752 0.020920 0.105557
-0.039661 0.021136 0.106641
-0.040573 0.021899 0.110485
-0.041126 0.022485 0.113433
-0.040839 0.022621 0.114110
-0.039912 0.022402 0.112991
-0.039958 0.022731 0.114635
-0.039891 0.023003 0.115991
-0.040282 0.023551 0.118733
-0.040519 0.024023 0.121091
-0.040474 0.024338 0.122659
-0.039196 0.023910 0.120480
-0.039267 0.024305 0.122444
-0.039091 0.024557 0.123685
-0.041262 0.026313 0.132500
-0.040699 0.026353 0.132666
-0.041431 0.027245 0.137125
-0.041579 0.027776 0.139758
-0.041114 0.027908 0.140384
-0.042544 0.029351 0.147602
-0.042623 0.029894 0.150292
-0.042574 0.030366 0.152618
-0.042401 0.030763 0.154566
-0.042490 0.031367 0.157555
-0.042218 0.031722 0.159285
-0.042488 0.032505 0.163165
-0.042535 0.033142 0.166310
-0.042485 0.033727 0.169189
-0.042311 0.034234 0.171673
-0.042373 0.034955 0.175231
-0.042415 0.035688 0.178846
-0.042512 0.036499 0.182843
-0.042457 0.037209 0.186339
-0.042590 0.038119 0.190827
-0.041653 0.038090 0.190616
-0.041422 0.038719 0.193696
-0.046252 0.045241 0.226163
-0.045154 0.045217 0.225963
-0.044673 0.045825 0.228920
-0.044153 0.046422 0.231821
-0.043468 0.046871 0.233983
-0.042607 0.047150 0.235296
-0.041702 0.047394 0.236429
-0.040779 0.047630 0.237526
-0.040139 0.048220 0.240387
-0.040044 0.049518 0.246775
-0.039402 0.050197 0.250078
-0.038433 0.050491 0.251460
-0.039794 0.053962 0.268658
-0.038549 0.054014 0.268829
-0.037713 0.054661 0.271966
-0.036071 0.054145 0.269316
-0.034836 0.054223 0.269622
-0.033609 0.054322 0.270035
-0.031876 0.053577 0.266255
-0.029832 0.052226 0.259469
-0.028352 0.051791 0.257234
-0.027149 0.051841 0.257414
-0.025921 0.051849 0.257389
-0.024696 0.051862 0.257386
-0.023492 0.051925 0.257640
-0.022272 0.051956 0.257734
-0.021057 0.052004 0.257911
-0.019862 0.052109 0.258378
-0.018787 0.052567 0.260593
-0.017931 0.053746 0.266385
-0.016688 0.053855 0.266874
-0.015386 0.053778 0.266447
-0.014252 0.054324 0.269110
-0.012972 0.054371 0.269297
-0.011680 0.054372 0.269265
-0.010401 0.054442 0.269573
-0.009128 0.054569 0.270166
-0.007844 0.054660 0.270586
-0.006554 0.054738 0.270943
-0.005254 0.054745 0.270956
-0.003962 0.054872 0.271559
-0.002652 0.054762 0.270995
-0.001358 0.055085 0.272581
-0.000048 0.054986 0.272077
0.001259 0.054988 0.272074
0.002507 0.053717 0.265780
0.003859 0.054777 0.271019
0.005121 0.054348 0.268898
0.006177 0.052344 0.258981
0.007401 0.052196 0.258254
0.008595 0.051912 0.256860
0.009835 0.051942 0.257014
0.011074 0.051957 0.257101
0.012316 0.051983 0.257246
0.013567 0.052038 0.257540
0.014835 0.052146 0.258093
0.016086 0.052179 0.258280
0.017366 0.052297 0.258889
0.018619 0.052322 0.259043
0.020022 0.052739 0.261140
0.021210 0.052574 0.260355
0.025050 0.052756 0.261373
0.025644 0.051429 0.254844
0.026835 0.051366 0.254576
0.028128 0.051496 0.255265
0.029305 0.051410 0.254887
0.030510 0.051379 0.254783
0.031762 0.051427 0.255075
0.033002 0.051451 0.255248
0.034220 0.051440 0.255251
0.035477 0.051488 0.255544
0.036799 0.051622 0.256272
0.038179 0.051828 0.257352
0.040188 0.052847 0.262476
0.041099 0.052404 0.260338
0.042396 0.052464 0.260704
0.043730 0.052567 0.261281
0.044934 0.052511 0.261070
0.046249 0.052584 0.261499
0.047571 0.052661 0.261952
0.048757 0.052588 0.261658
0.050122 0.052706 0.262318
0.051429 0.052758 0.262647
0.052827 0.052900 0.263426
0.054139 0.052950 0.263747
0.055398 0.052948 0.263808
0.056525 0.052822 0.263253
0.057941 0.052966 0.264041
0.059846 0.053541 0.266983
0.061712 0.054058 0.269632
0.063135 0.054174 0.270283
0.064409 0.054160 0.270283
0.065623 0.054097 0.270037
0.066930 0.054111 0.270179
0.068284 0.054162 0.270501
0.069471 0.054080 0.270161
0.070624 0.053976 0.269708
0.071459 0.053638 0.268080
0.072281 0.053300 0.266456
0.073523 0.053280 0.266414
0.074217 0.052869 0.264419
0.074461 0.052157 0.260913
0.074715 0.051475 0.257552
0.075866 0.051423 0.257343
0.076913 0.051303 0.256792
0.077831 0.051103 0.255835
0.079036 0.051094 0.255832
0.080090 0.050989 0.255346
0.081296 0.050983 0.255351
0.082633 0.051057 0.255758
0.083662 0.050942 0.255212
0.084371 0.050638 0.253717
0.096702 0.057219 0.286718
0.097923 0.057136 0.286320
0.100700 0.057949 0.290415
0.102274 0.058057 0.290971
0.103657 0.058055 0.290973
0.105019 0.058043 0.290913
0.106179 0.057919 0.290294
0.107412 0.057839 0.289885
0.108956 0.057926 0.290308
0.110045 0.057771 0.289518
0.111542 0.057832 0.289800
0.112981 0.057862 0.289921
0.114490 0.057926 0.290208
0.115800 0.057890 0.289982
0.117307 0.057951 0.290241
0.118392 0.057805 0.289454
0.120336 0.058077 0.290751
0.121667 0.058050 0.290546
0.123259 0.058147 0.290953
0.124377 0.058020 0.290234
0.125700 0.057991 0.289992
0.127507 0.058183 0.290850
0.129364 0.058394 0.291790
0.130718 0.058375 0.291574
0.132130 0.058382 0.291479
0.133937 0.058562 0.292236
0.135387 0.058584 0.292191
0.136799 0.058589 0.292054
0.138342 0.058649 0.292181
0.139568 0.058575 0.291628
0.140982 0.058580 0.291458
0.142402 0.058587 0.291289
0.143915 0.058633 0.291293
0.145334 0.058639 0.291094
0.146837 0.058679 0.291046
0.148378 0.058733 0.291055
0.150233 0.058909 0.291651
0.151532 0.058866 0.291150
0.153047 0.058907 0.291045
-0.042473 0.020807 0.102500
-0.042411 0.021015 0.103539
-0.042112 0.021109 0.104015
-0.041648 0.021122 0.104085
-0.041250 0.021168 0.104322
-0.040954 0.021269 0.104825
-0.040796 0.021445 0.105693
-0.040004 0.021288 0.104921
-0.041350 0.022279 0.109802
-0.040724 0.022219 0.109502
-0.040405 0.022327 0.110029
-0.040054 0.022420 0.110482
-0.039489 0.022395 0.110345
-0.038968 0.022393 0.110327
-0.039746 0.023149 0.114035
-0.040273 0.023776 0.117110
-0.040365 0.024161 0.118988
-0.040242 0.024426 0.120275
-0.039872 0.024547 0.120848
-0.039726 0.024811 0.122126
-0.039546 0.025061 0.123332
-0.039054 0.025117 0.123585
-0.041051 0.026802 0.131842
-0.040490 0.026842 0.132007
-0.040960 0.027576 0.135587
-0.041414 0.028324 0.139229
-0.042052 0.029224 0.143613
-0.042489 0.030011 0.147441
-0.042545 0.030550 0.150051
-0.042301 0.030889 0.151669
-0.042120 0.031286 0.153575
-0.042266 0.031945 0.156762
-0.042229 0.032486 0.159366
-0.042283 0.033118 0.162417
-0.042121 0.033601 0.164733
-0.042278 0.034362 0.168408
-0.042035 0.034820 0.170600
-0.041735 0.035249 0.172642
-0.041706 0.035927 0.175906
-0.042435 0.037300 0.182568
-0.042785 0.038390 0.187838
-0.042421 0.038872 0.190132
-0.041301 0.038668 0.189066
-0.041373 0.039594 0.193529
-0.047211 0.046206 0.225769
-0.046196 0.046262 0.225967
-0.045943 0.047103 0.229995
-0.045015 0.047275 0.230756
-0.044139 0.047512 0.231833
-0.043378 0.047889 0.233591
-0.042632 0.048302 0.235523
-0.041768 0.048600 0.236897
-0.041119 0.049171 0.239599
-0.040288 0.049551 0.241374
-0.041069 0.051996 0.253197
-0.039494 0.051515 0.250772
-0.039010 0.052470 0.255340
-0.042535 0.059053 0.287286
-0.040179 0.057638 0.280315
-0.038877 0.057691 0.280488
-0.036545 0.056164 0.272978
-0.034947 0.055693 0.270607
-0.033768 0.055880 0.271439
-0.031840 0.054793 0.266084
-0.029814 0.053440 0.259444
-0.028344 0.053010 0.257284
-0.027138 0.053057 0.257446
-0.025848 0.052937 0.256797
-0.024622 0.052942 0.256757
-0.023443 0.053053 0.257236
-0.022216 0.053064 0.257229
-0.020988 0.053072 0.257211
-0.019833 0.053277 0.258148
-0.018792 0.053838 0.260812
-0.017817 0.054679 0.264836
-0.016583 0.054796 0.265353
-0.015325 0.054846 0.265549
-0.014054 0.054853 0.265542
-0.012836 0.055092 0.266657
-0.011568 0.055144 0.266870
-0.010199 0.054665 0.264514
-0.008972 0.054922 0.265728
-0.007736 0.055200 0.267038
-0.006450 0.055168 0.266857
-0.005171 0.055186 0.266920
-0.003906 0.055416 0.268009
-0.002634 0.055729 0.269504
-0.001340 0.055746 0.269570
-0.000046 0.055929 0.270444
0.001257 0.056127 0.271390
0.002501 0.054815 0.265039
0.003890 0.056498 0.273175
0.005161 0.056052 0.271017
0.006214 0.053887 0.260550
0.007369 0.053192 0.257194
0.008622 0.053299 0.257715
0.009831 0.053139 0.256954
0.011090 0.053258 0.257541
0.012353 0.053368 0.258088
0.013605 0.053417 0.258344
0.014845 0.053414 0.258349
0.016081 0.053395 0.258279
0.017357 0.053505 0.258836
0.018609 0.053531 0.258992
0.020065 0.054103 0.261789
0.021449 0.054422 0.263369
0.025257 0.054451 0.263624
0.025681 0.052725 0.255306
0.026960 0.052828 0.255850
0.028313 0.053063 0.257035
0.029446 0.052882 0.256205
0.030636 0.052815 0.255929
0.031895 0.052865 0.256223
0.033045 0.052739 0.255664
0.034306 0.052793 0.255982
0.035487 0.052724 0.255704
0.036711 0.052720 0.255745
0.038131 0.052990 0.257113
0.040139 0.054035 0.262242
0.041208 0.053789 0.261111
0.041934 0.053124 0.257947
0.043344 0.053339 0.259055
0.044715 0.053494 0.259875
0.045669 0.053156 0.258298
0.046893 0.053142 0.258296
0.048025 0.053027 0.257803
0.049201 0.052964 0.257568
0.050536 0.053073 0.258162
0.051881 0.053185 0.258778
0.053247 0.053314 0.259471
0.054590 0.053414 0.260028
0.055823 0.053404 0.260049
0.057822 0.054112 0.263564
0.059873 0.054837 0.267168
0.061583 0.055226 0.269133
0.063006 0.055347 0.269792
0.064470 0.055498 0.270598
0.065728 0.055469 0.270526
0.066878 0.055352 0.270022
0.068199 0.055379 0.270218
0.069367 0.055282 0.269812
0.070484 0.055149 0.269225
0.071286 0.054778 0.267478
0.072203 0.054507 0.266214
0.073479 0.054512 0.266296
0.074224 0.054129 0.264482
0.074564 0.053470 0.261312
0.074882 0.052816 0.258166
0.076083 0.052795 0.258113
0.077144 0.052679 0.257594
0.078140 0.052524 0.256877
0.079328 0.052500 0.256802
0.080628 0.052551 0.257087
0.081756 0.052489 0.256819
0.083148 0.052596 0.257372
0.084391 0.052607 0.257455
0.085557 0.052570 0.257298
0.097666 0.059163 0.289592
0.098901 0.059076 0.289190
0.100692 0.059320 0.290400
0.101776 0.059147 0.289561
0.103775 0.059502 0.291308
0.104963 0.059390 0.290758
0.106255 0.059338 0.290501
0.107699 0.059371 0.290656
0.108865 0.059252 0.290058
0.110409 0.059340 0.290466
0.111711 0.059296 0.290225
0.112831 0.059158 0.289519
0.114126 0.059114 0.289265
0.115628 0.059177 0.289529
0.116681 0.059011 0.288665
0.117982 0.058974 0.288422
0.119813 0.059198 0.289454
0.122332 0.059754 0.292099
0.123506 0.059647 0.291494
0.124611 0.059511 0.290736
0.126350 0.059676 0.291445
0.127372 0.059503 0.290492
0.129163 0.059688 0.291282
0.130481 0.059654 0.290987
0.131825 0.059631 0.290744
0.133302 0.059669 0.290784
0.134751 0.059694 0.290751
0.136297 0.059760 0.290908
0.137651 0.059742 0.290644
0.139610 0.059984 0.291634
0.140935 0.059952 0.291276
0.142260 0.059920 0.290908
0.143609 0.059898 0.290581
0.145232 0.059991 0.290791
0.146635 0.059991 0.290542
0.148460 0.060162 0.291107
0.149762 0.060120 0.290625
0.151719 0.060339 0.291390
0.152984 0.060282 0.290803
-0.042778 0.021203 0.102054
-0.042361 0.021234 0.102221
-0.042105 0.021349 0.102785
-0.042021 0.021553 0.103783
-0.041928 0.021758 0.104782
-0.041624 0.021857 0.105266
-0.041517 0.022063 0.106265
-0.041055 0.022083 0.106364
-0.040996 0.022323 0.107523
-0.040871 0.022533 0.108533
-0.040816 0.022787 0.109753
-0.040432 0.022861 0.110107
-0.039954 0.022884 0.110210
-0.039324 0.022819 0.109889
-0.038843 0.022840 0.109979
-0.040015 0.023847 0.114813
-0.040074 0.024209 0.116542
-0.040033 0.024519 0.118020
-0.040287 0.025022 0.120421
-0.039760 0.025046 0.120520
-0.040180 0.025677 0.123534
-0.039969 0.025918 0.124667
-0.041057 0.027020 0.129942
-0.040505 0.027060 0.130107
-0.039824 0.027014 0.129856
-0.041034 0.028268 0.135854
-0.041545 0.029074 0.139693
-0.041613 0.029591 0.142141
-0.042010 0.030362 0.145805
-0.042324 0.031098 0.149300
-0.042772 0.031959 0.153390
-0.042530 0.032326 0.155105
-0.042356 0.032757 0.157131
-0.042243 0.033252 0.159456
-0.042064 0.033713 0.161616
-0.042287 0.034518 0.165425
-0.042325 0.035200 0.168640
-0.042305 0.035859 0.171744
-0.042193 0.036464 0.174585
-0.042322 0.037306 0.178558
-0.042498 0.038224 0.182891
-0.042830 0.039324 0.188094
-0.042622 0.039964 0.191090
-0.049146 0.047082 0.225048
-0.048139 0.047141 0.225253
-0.046467 0.046536 0.222288
-0.046500 0.047651 0.227535
-0.045669 0.047912 0.228705
-0.045059 0.048423 0.231066
-0.044238 0.048727 0.232441
-0.043488 0.049127 0.234268
-0.042701 0.049505 0.235994
-0.042041 0.050056 0.238540
-0.041306 0.050545 0.240790
-0.041757 0.052554 0.250280
-0.040864 0.052939 0.252034
-0.040111 0.053537 0.254797
-0.043484 0.059849 0.284746
-0.042477 0.060347 0.287026
-0.039896 0.058566 0.278470
-0.038720 0.058795 0.279475
-0.036751 0.057795 0.274640
-0.035130 0.057289 0.272156
-0.033602 0.056901 0.270238
-0.031846 0.056080 0.266263
-0.029784 0.054630 0.259306
-0.028340 0.054237 0.257376
-0.027112 0.054242 0.257330
-0.025837 0.054147 0.256814
-0.024624 0.054180 0.256912
-0.023414 0.054224 0.257057
-0.022189 0.054234 0.257048
-0.021002 0.054347 0.257528
-0.019814 0.054468 0.258044
-0.018810 0.055148 0.261213
-0.017760 0.055779 0.264155
-0.016438 0.055585 0.263186
-0.015203 0.055680 0.263593
-0.013882 0.055451 0.262464
-0.012575 0.055235 0.261401
-0.011380 0.055518 0.262705
-0.010096 0.055385 0.262038
-0.008796 0.055114 0.260724
-0.007599 0.055505 0.262544
-0.006352 0.055613 0.263030
-0.005124 0.055978 0.264733
-0.003876 0.056302 0.266244
-0.002609 0.056539 0.267344
-0.001324 0.056434 0.266832
-0.000043 0.057088 0.269911
0.001254 0.057145 0.270173
0.002587 0.057958 0.274007
0.003902 0.057956 0.273992
0.005218 0.057952 0.273971
0.006137 0.054440 0.257369
0.007328 0.054104 0.255785
0.008599 0.054378 0.257086
0.009811 0.054255 0.256513
0.011078 0.054427 0.257342
0.012328 0.054487 0.257640
0.013579 0.054543 0.257923
0.014832 0.054597 0.258196
0.016076 0.054610 0.258279
0.017316 0.054611 0.258312
0.018541 0.054565 0.258121
0.019941 0.055010 0.260253
0.021412 0.055586 0.263013
0.022977 0.056326 0.266552
0.025850 0.057020 0.269911
0.026303 0.055250 0.261578
0.026914 0.053959 0.255506
0.028128 0.053935 0.255436
0.029604 0.054396 0.257669
0.030698 0.054146 0.256531
0.031962 0.054203 0.256853
0.033366 0.054484 0.258235
0.034792 0.054780 0.259692
0.036125 0.054913 0.260381
0.037356 0.054889 0.260324
0.038741 0.055084 0.261309
0.040209 0.055382 0.262780
0.041372 0.055253 0.262232
0.042264 0.054782 0.260055
0.043364 0.054600 0.259254
0.044696 0.054710 0.259842
0.045792 0.054534 0.259071
0.046855 0.054329 0.258162
0.048015 0.054245 0.257826
0.049297 0.054298 0.258145
0.050603 0.054374 0.258572
0.052004 0.054547 0.259462
0.053376 0.054681 0.260169
0.054880 0.054942 0.261478
0.055934 0.054751 0.260632
0.057368 0.054932 0.261562
0.059810 0.056049 0.266951
0.061655 0.056572 0.269508
0.062814 0.056457 0.269030
0.064260 0.056599 0.269772
0.065575 0.056623 0.269952
0.066793 0.056563 0.269734
0.068048 0.056537 0.269672
0.069210 0.056436 0.269251
0.070367 0.056334 0.268826
0.071266 0.056033 0.267449
0.072026 0.055634 0.265604
0.073397 0.055714 0.266040
0.074153 0.055332 0.264270
0.074703 0.054811 0.261835
0.075031 0.054148 0.258712
0.076246 0.054135 0.258697
0.077190 0.053934 0.257778
0.078167 0.053761 0.256995
0.079486 0.053825 0.257340
0.080775 0.053867 0.257577
0.082187 0.053989 0.258193
0.083384 0.053968 0.258122
0.085054 0.054249 0.259491
0.086317 0.054267 0.259598
0.097902 0.060681 0.290304
0.099141 0.060593 0.289901
0.100286 0.060452 0.289235
0.101759 0.060509 0.289516
0.104090 0.061068 0.292194
0.105490 0.061073 0.292217
0.106570 0.060894 0.291356
0.107830 0.060822 0.291000
0.109144 0.060782 0.290792
0.110530 0.060782 0.290769
0.111643 0.060635 0.290034
0.112993 0.060618 0.289916
0.114437 0.060651 0.290031
0.115821 0.060651 0.289986
0.117078 0.060586 0.289620
0.118628 0.060672 0.289968
0.119782 0.060556 0.289344
0.121177 0.060563 0.289301
0.123572 0.061064 0.291609
0.125151 0.061155 0.291948
0.126286 0.061029 0.291247
0.127526 0.060957 0.290788
0.128881 0.060940 0.290588
0.130299 0.060953 0.290522
0.131862 0.061032 0.290762
0.133310 0.061058 0.290733
0.134671 0.061043 0.290504
0.136401 0.061194 0.291054
0.137917 0.061247 0.291125
0.139311 0.061245 0.290924
0.140771 0.061272 0.290846
0.142215 0.061291 0.290723
0.143696 0.061326 0.290659
0.145214 0.061375 0.290652
0.146831 0.061465 0.290823
0.148142 0.061427 0.290372
0.149520 0.061416 0.290038
0.151325 0.061580 0.290512
0.152973 0.061676 0.290654
-0.042359 0.021473 0.101045
-0.042217 0.021643 0.101866
-0.042189 0.021877 0.102982
-0.041579 0.021811 0.102685
-0.041927 0.022252 0.104772
-0.042085 0.022602 0.106429
-0.041865 0.022754 0.107152
-0.041231 0.022682 0.106818
-0.040905 0.022780 0.107284
-0.040563 0.022871 0.107713
-0.040115 0.022905 0.107871
-0.039736 0.022978 0.108214
-0.039338 0.023043 0.108515
-0.038936 0.023108 0.108810
-0.038855 0.023367 0.110020
-0.040305 0.024565 0.115653
-0.040695 0.025142 0.118356
-0.040493 0.025364 0.119387
-0.040883 0.025969 0.122215
-0.040458 0.026066 0.122651
-0.039272 0.025668 0.120758
-0.040006 0.026531 0.124798
-0.039739 0.026747 0.125789
-0.039567 0.027034 0.127112
-0.039273 0.027245 0.128077
-0.039540 0.027859 0.130932
-0.041177 0.029472 0.138481
-0.041401 0.030109 0.141440
-0.041699 0.030822 0.144754
-0.042283 0.031774 0.149186
-0.042602 0.032556 0.152813
-0.042634 0.033141 0.155517
-0.042350 0.033497 0.157143
-0.042260 0.034022 0.159559
-0.042185 0.034578 0.162121
-0.042421 0.035414 0.165990
-0.042351 0.036022 0.168790
-0.042524 0.036863 0.172677
-0.042763 0.037797 0.176994
-0.042177 0.038023 0.177997
-0.042318 0.038927 0.182171
-0.041971 0.039411 0.184376
-0.050692 0.048612 0.227345
-0.049677 0.048673 0.227556
-0.047416 0.047489 0.221945
-0.047053 0.048194 0.225166
-0.046219 0.048439 0.226236
-0.045472 0.048789 0.227797
-0.044695 0.049124 0.229281
-0.044445 0.050068 0.233613
-0.043559 0.050327 0.234742
-0.042641 0.050561 0.235756
-0.041803 0.050904 0.237279
-0.042701 0.053440 0.249023
-0.042210 0.054332 0.253097
-0.041308 0.054733 0.254882
-0.040135 0.054788 0.255058
-0.043902 0.061800 0.287612
-0.041249 0.059935 0.278849
-0.040016 0.060078 0.279430
-0.039148 0.060798 0.282696
-0.037833 0.060852 0.282863
-0.034964 0.058316 0.270995
-0.033767 0.058483 0.271695
-0.032065 0.057752 0.268225
-0.029761 0.055831 0.259234
-0.028260 0.055317 0.256780
-0.027013 0.055275 0.256524
-0.025830 0.055365 0.256877
-0.024558 0.055267 0.256359
-0.023354 0.055318 0.256537
-0.022192 0.055479 0.257226
-0.020976 0.055517 0.257347
-0.019803 0.055679 0.258047
-0.018699 0.056072 0.259816
-0.017730 0.056955 0.263859
-0.016393 0.056700 0.262628
-0.015123 0.056655 0.262374
-0.013825 0.056484 0.261543
-0.012521 0.056256 0.260445
-0.011333 0.056556 0.261797
-0.010034 0.056305 0.260604
