ply
format ascii 1.0
element vertex 1744
property float x
property float y
property float z
end_header
0.021393 0.048004 0.262245
0.024782 0.047246 0.258230
0.025816 0.046867 0.256205
0.027071 0.046906 0.256468
0.028263 0.046837 0.256142
0.029523 0.046882 0.256443
0.030758 0.046884 0.256507
0.031984 0.046874 0.256510
0.033187 0.046832 0.256338
0.034277 0.046638 0.255338
0.035531 0.046673 0.255594
0.036845 0.046783 0.256259
0.038623 0.047455 0.260006
0.040717 0.048461 0.265590
0.043044 0.049676 0.272319
0.044531 0.049876 0.273492
0.045434 0.049432 0.271130
0.047066 0.049781 0.273126
0.048606 0.050018 0.274503
0.050025 0.050121 0.275146
0.051503 0.050275 0.276073
0.052717 0.050171 0.275585
0.054021 0.050155 0.275579
0.055163 0.049994 0.274774
0.055901 0.049483 0.272044
0.057176 0.049458 0.271990
0.057937 0.049000 0.269554
0.058841 0.048681 0.267876
0.060386 0.048894 0.269130
0.061825 0.049014 0.269872
0.063096 0.048999 0.269867
0.064339 0.048963 0.269748
0.065699 0.049016 0.270117
0.067104 0.049099 0.270654
0.068336 0.049055 0.270489
0.069621 0.049050 0.270535
0.070901 0.049041 0.270563
0.072059 0.048950 0.270133
0.072685 0.048507 0.267761
0.073633 0.048291 0.266635
0.074824 0.048238 0.266414
0.075284 0.047724 0.263639
0.075696 0.047197 0.260787
0.076375 0.046850 0.258931
0.077437 0.046746 0.258413
0.078221 0.046480 0.256996
0.079182 0.046325 0.256190
0.080554 0.046412 0.256720
0.081654 0.046342 0.256379
0.082776 0.046286 0.256115
0.083990 0.046282 0.256133
0.085195 0.046274 0.256125
0.099039 0.053034 0.293577
0.100285 0.052954 0.293168
0.100228 0.052197 0.289006
0.102099 0.052450 0.290436
0.103488 0.052453 0.290473
0.104817 0.052426 0.290338
0.106255 0.052453 0.290497
0.107359 0.052317 0.289749
0.108730 0.052312 0.289724
0.110028 0.052273 0.289501
0.111301 0.052223 0.289213
0.112575 0.052175 0.288931
0.113846 0.052127 0.288639
0.115462 0.052235 0.289212
0.117010 0.052311 0.289593
0.118630 0.052416 0.290134
0.120156 0.052479 0.290429
0.121700 0.052547 0.290750
0.122756 0.052405 0.289901
0.124193 0.052428 0.289953
0.126091 0.052642 0.291057
0.127078 0.052476 0.290046
0.128608 0.052535 0.290274
0.130020 0.052544 0.290220
0.131203 0.052463 0.289651
0.132901 0.052586 0.290206
0.134743 0.052763 0.291046
0.136166 0.052774 0.290963
0.137493 0.052748 0.290661
0.139009 0.052794 0.290749
0.140225 0.052727 0.290198
0.141692 0.052754 0.290156
0.143178 0.052788 0.290140
0.144399 0.052724 0.289574
0.146092 0.052832 0.289939
0.147577 0.052863 0.289870
0.150213 0.053302 0.292020
0.151050 0.053101 0.290647
0.151930 0.052918 0.289363
-0.043994 0.019329 0.104993
-0.043567 0.019359 0.105165
-0.043394 0.019503 0.105959
-0.042702 0.019415 0.105489
-0.042361 0.019486 0.105879
-0.041326 0.020713 0.112521
-0.040861 0.020745 0.112685
-0.040847 0.021011 0.114111
-0.039855 0.020773 0.112805
-0.039474 0.020852 0.113217
-0.041775 0.022370 0.121436
-0.041268 0.022405 0.121603
-0.040944 0.022541 0.122319
-0.040633 0.022689 0.123096
-0.040263 0.022807 0.123711
-0.039848 0.022904 0.124208
-0.039727 0.023175 0.125643
-0.040523 0.023996 0.130065
-0.041594 0.025009 0.135517
-0.041933 0.025606 0.138713
-0.041565 0.025784 0.139636
-0.041455 0.026129 0.141466
-0.041382 0.026511 0.143486
-0.042819 0.027887 0.150891
-0.042862 0.028388 0.153551
-0.042588 0.028692 0.155142
-0.042211 0.028936 0.156411
-0.042205 0.029448 0.159123
-0.042444 0.030152 0.162875
-0.042500 0.030750 0.166046
-0.042849 0.031587 0.170503
-0.042572 0.031985 0.172591
-0.042711 0.032718 0.176481
-0.042843 0.033474 0.180492
-0.042524 0.033901 0.182732
-0.042522 0.034605 0.186455
-0.042335 0.035185 0.189509
-0.042327 0.035941 0.193512
-0.042215 0.036641 0.197209
-0.042437 0.037670 0.202671
-0.041900 0.038056 0.204671
-0.041492 0.038582 0.207422
-0.045956 0.043773 0.235243
-0.044880 0.043815 0.235379
-0.042927 0.042981 0.230813
-0.041674 0.042823 0.229881
-0.042016 0.044338 0.237930
-0.041141 0.044619 0.239349
-0.040504 0.045181 0.242278
-0.039734 0.045623 0.244564
-0.039205 0.046378 0.248521
-0.038592 0.047077 0.252178
-0.037987 0.047830 0.256129
-0.038901 0.050611 0.270928
-0.037799 0.050869 0.272218
-0.036397 0.050728 0.271378
-0.035016 0.050608 0.270648
-0.033893 0.050864 0.271936
-0.032675 0.050994 0.272547
-0.029840 0.048505 0.259166
-0.028288 0.047978 0.256277
-0.027083 0.048016 0.256410
-0.025911 0.048121 0.256899
-0.024664 0.048089 0.256664
-0.023448 0.048118 0.256753
-0.022253 0.048195 0.257101
-0.021039 0.048240 0.257280
-0.019836 0.048315 0.257620
-0.018727 0.048645 0.259328
-0.017765 0.049431 0.263464
-0.016571 0.049643 0.264543
-0.015325 0.049724 0.264922
-0.014149 0.050064 0.266686
-0.012915 0.050248 0.267623
-0.011672 0.050433 0.268570
-0.010411 0.050573 0.269276
-0.009138 0.050694 0.269883
-0.007824 0.050585 0.269273
-0.006540 0.050671 0.269704
-0.005231 0.050556 0.269065
-0.003929 0.050452 0.268487
-0.002638 0.050457 0.268497
-0.001344 0.050385 0.268093
-0.000055 0.050415 0.268240
0.001238 0.050490 0.268628
0.002481 0.049499 0.263349
0.003831 0.050595 0.269176
0.005126 0.050591 0.269156
0.006169 0.048598 0.258555
0.007435 0.048744 0.259338
0.008625 0.048413 0.257586
0.009856 0.048373 0.257381
0.011094 0.048369 0.257377
0.012325 0.048336 0.257218
0.013588 0.048427 0.257719
0.014878 0.048589 0.258608
0.016202 0.048828 0.259905
0.017481 0.048908 0.260358
0.018897 0.049333 0.262649
0.020271 0.049603 0.264124
0.021438 0.049363 0.262879
0.024659 0.048241 0.257032
0.025672 0.047827 0.254869
0.026942 0.047906 0.255337
0.028189 0.047938 0.255558
0.029407 0.047920 0.255516
0.030674 0.047981 0.255894
0.031849 0.047899 0.255512
0.033117 0.047957 0.255881
0.034300 0.047892 0.255592
0.035424 0.047752 0.254908
0.036750 0.047886 0.255684
0.038078 0.048013 0.256425
0.040361 0.049297 0.263354
0.042890 0.050795 0.271427
0.044125 0.050718 0.271087
0.045404 0.050693 0.271028
0.046528 0.050503 0.270084
0.047861 0.050543 0.270375
0.049336 0.050727 0.271433
0.049852 0.049940 0.267301
0.052660 0.051432 0.275364
0.052695 0.050208 0.268890
0.053496 0.049755 0.266542
0.054871 0.049845 0.267100
0.056048 0.049754 0.266694
0.057356 0.049782 0.266920
0.058684 0.049825 0.267229
0.060156 0.049986 0.268172
0.061780 0.050263 0.269738
0.063075 0.050268 0.269838
0.064341 0.050249 0.269817
0.065647 0.050261 0.269960
0.067023 0.050326 0.270381
0.068324 0.050333 0.270495
0.069620 0.050336 0.270584
0.070830 0.050277 0.270342
0.072050 0.050229 0.270151
0.072736 0.049815 0.267997
0.073759 0.049643 0.267138
0.074944 0.049584 0.266883
0.075096 0.048854 0.263018
0.075422 0.048260 0.259879
0.076276 0.048018 0.258632
0.077110 0.047770 0.257353
0.078075 0.047611 0.256547
0.079258 0.047587 0.256468
0.080497 0.047597 0.256567
0.081927 0.047718 0.257263
0.082897 0.047570 0.256510
0.084354 0.047703 0.257265
0.085908 0.047887 0.258288
0.097096 0.053359 0.287838
0.098320 0.053279 0.287437
0.100634 0.053784 0.290188
0.101756 0.053647 0.289473
0.103660 0.053920 0.290965
0.104910 0.053850 0.290601
0.106149 0.053777 0.290212
0.107468 0.053745 0.290043
0.108631 0.053637 0.289458
0.110069 0.053666 0.289605
0.111537 0.053708 0.289821
0.112589 0.053551 0.288955
0.114307 0.053712 0.289795
0.115939 0.053828 0.290391
0.117250 0.053794 0.290168
0.118466 0.053719 0.289713
0.120159 0.053858 0.290411
0.121365 0.053778 0.289920
0.122658 0.053739 0.289639
0.124517 0.053945 0.290674
0.125783 0.053893 0.290308
0.127026 0.053832 0.289886
0.128225 0.053754 0.289365
0.129502 0.053709 0.289016
0.130624 0.053603 0.288323
0.131601 0.053439 0.287314
0.135165 0.054318 0.291902
0.136636 0.054347 0.291906
0.137872 0.054282 0.291398
0.139022 0.054186 0.290707
0.140357 0.054163 0.290401
0.141585 0.054099 0.289863
0.143166 0.054169 0.290036
0.144326 0.054081 0.289345
0.146324 0.054305 0.290312
0.148210 0.054484 0.291022
0.150223 0.054706 0.291945
0.151281 0.054579 0.290991
0.152306 0.054442 0.289974
-0.043982 0.020044 0.106162
-0.043072 0.019855 0.105170
-0.042676 0.019900 0.105420
-0.042330 0.019971 0.105801
-0.040210 0.020408 0.108110
-0.040504 0.020821 0.110286
-0.041461 0.021589 0.114346
-0.041060 0.021661 0.114713
-0.041086 0.021964 0.116300
-0.040710 0.022056 0.116773
-0.040948 0.022489 0.119043
-0.040911 0.022780 0.120563
-0.040606 0.022928 0.121325
-0.040532 0.023213 0.122806
-0.040496 0.023528 0.124446
-0.040180 0.023687 0.125258
-0.039820 0.023824 0.125956
-0.039967 0.024274 0.128302
-0.040227 0.024807 0.131086
-0.041312 0.025873 0.136683
-0.041694 0.026527 0.140097
-0.041995 0.027149 0.143338
-0.042330 0.027813 0.146800
-0.042899 0.028655 0.151203
-0.042715 0.029015 0.153055
-0.042394 0.029293 0.154472
-0.042268 0.029718 0.156660
-0.042253 0.030237 0.159342
-0.042336 0.030846 0.162498
-0.042576 0.031594 0.166384
-0.042743 0.032316 0.170123
-0.042478 0.032733 0.172257
-0.042548 0.033428 0.175856
-0.042590 0.034129 0.179481
-0.042676 0.034895 0.183439
-0.042422 0.035409 0.186076
-0.042171 0.035947 0.188835
-0.042248 0.036794 0.193212
-0.043163 0.038425 0.201702
-0.042969 0.039120 0.205276
-0.041599 0.038752 0.203272
-0.046963 0.044789 0.234852
-0.045902 0.044843 0.235052
-0.043001 0.043057 0.225606
-0.043026 0.044185 0.231433
-0.042495 0.044786 0.234494
-0.042050 0.045513 0.238216
-0.041102 0.045720 0.239217
-0.040417 0.046241 0.241857
-0.039793 0.046864 0.245029
-0.039111 0.047454 0.248029
-0.038598 0.048292 0.252325
-0.038404 0.049596 0.259051
-0.038884 0.051887 0.270928
-0.037901 0.052315 0.273074
-0.036291 0.051879 0.270712
-0.034958 0.051820 0.270322
-0.034045 0.052404 0.273284
-0.032617 0.052210 0.272192
-0.029540 0.049249 0.256681
-0.028343 0.049304 0.256894
-0.027100 0.049280 0.256697
-0.025912 0.049358 0.257038
-0.024720 0.049437 0.257380
-0.023488 0.049439 0.257329
-0.022295 0.049529 0.257731
-0.021109 0.049645 0.258277
-0.019895 0.049704 0.258526
-0.018744 0.049942 0.259707
-0.017816 0.050849 0.264370
-0.016647 0.051154 0.265904
-0.015334 0.051031 0.265217
-0.014170 0.051430 0.267248
-0.012954 0.051696 0.268584
-0.011704 0.051875 0.269474
-0.010430 0.051975 0.269954
-0.009167 0.052167 0.270917
-0.007840 0.052003 0.270035
-0.006546 0.052033 0.270162
-0.005226 0.051820 0.269029
-0.003923 0.051685 0.268310
-0.002628 0.051595 0.267819
-0.001346 0.051834 0.269046
-0.000052 0.051706 0.268366
0.001238 0.051713 0.268396
0.002490 0.050900 0.264167
0.003835 0.051907 0.269388
0.005130 0.051903 0.269367
0.006191 0.050008 0.259534
0.007428 0.049927 0.259118
0.008632 0.049682 0.257858
0.009865 0.049646 0.257679
0.011080 0.049535 0.257116
0.012321 0.049552 0.257224
0.013583 0.049640 0.257700
0.014844 0.049711 0.258091
0.016104 0.049768 0.258408
0.017422 0.049984 0.259558
0.018788 0.050299 0.261223
0.020119 0.050485 0.262224
0.021332 0.050371 0.261669
0.024747 0.049649 0.258041
0.025598 0.048904 0.254213
0.026916 0.049080 0.255173
0.028208 0.049194 0.255812
0.029407 0.049144 0.255603
0.030630 0.049136 0.255617
0.031853 0.049128 0.255630
0.032971 0.048965 0.254838
0.034293 0.049105 0.255627
0.035470 0.049037 0.255328
0.036681 0.049016 0.255283
0.038266 0.049481 0.257769
0.040461 0.050682 0.264091
0.042492 0.051609 0.268991
0.043241 0.050971 0.265736
0.044400 0.050840 0.265121
0.045731 0.050906 0.265536
0.047807 0.051776 0.270151
0.049281 0.051965 0.271209
0.048653 0.049985 0.260949
0.049896 0.049978 0.260986
0.051157 0.049988 0.261114
0.052279 0.049866 0.260549
0.053905 0.050219 0.262469
0.055014 0.050085 0.261844
0.056234 0.050056 0.261766
0.057931 0.050443 0.263868
0.060067 0.051188 0.267839
0.061814 0.051577 0.269952
0.063207 0.051661 0.270465
0.064340 0.051533 0.269872
0.065729 0.051611 0.270354
0.067078 0.051656 0.270663
0.068387 0.051668 0.270801
0.069704 0.051685 0.270963
0.070913 0.051623 0.270710
0.072099 0.051548 0.270383
0.072837 0.051160 0.268415
0.073858 0.050981 0.267541
0.074875 0.050805 0.266679
0.074693 0.049834 0.261646
0.074595 0.048951 0.257066
0.075684 0.048863 0.256659
0.076769 0.048775 0.256248
0.077742 0.048620 0.255483
0.078880 0.048571 0.255272
0.080144 0.048600 0.255467
0.081469 0.048664 0.255848
0.082702 0.048673 0.255931
0.083981 0.048707 0.256147
0.085241 0.048730 0.256301
0.098545 0.055540 0.292150
0.099788 0.055457 0.291744
0.100076 0.054854 0.288594
0.102315 0.055321 0.291072
0.103464 0.055194 0.290420
0.104805 0.055172 0.290315
0.106095 0.055124 0.290067
0.107247 0.055006 0.289447
0.108708 0.055048 0.289659
0.109928 0.054968 0.289229
0.111264 0.054947 0.289103
0.112768 0.055009 0.289404
0.113873 0.054877 0.288679
0.115358 0.054929 0.288917
0.116956 0.055033 0.289421
0.118573 0.055143 0.289950
0.120525 0.055404 0.291268
0.121690 0.055302 0.290668
0.122961 0.055250 0.290321
0.124548 0.055339 0.290710
0.125883 0.055316 0.290500
0.127209 0.055289 0.290263
0.129099 0.055505 0.291292
0.131274 0.055837 0.292921
0.132613 0.055811 0.292660
0.134080 0.055838 0.292669
0.135409 0.055808 0.292368
0.136713 0.055769 0.292007
0.138030 0.055735 0.291665
0.139324 0.055693 0.291270
0.140564 0.055630 0.290753
0.141795 0.055565 0.290215
0.143173 0.055558 0.289969
0.144622 0.055579 0.289852
0.146087 0.055605 0.289753
0.147517 0.055617 0.289567
0.150356 0.056155 0.292103
0.151292 0.055980 0.290909
0.152681 0.055973 0.290579
-0.042904 0.020041 0.103554
-0.043054 0.020342 0.105120
-0.042563 0.020343 0.105138
-0.041193 0.019920 0.102956
-0.040684 0.019907 0.102896
-0.039698 0.019659 0.101613
-0.041054 0.020578 0.106363
-0.040616 0.020609 0.106525
-0.039776 0.020434 0.105618
-0.040447 0.021042 0.108754
-0.040807 0.021501 0.111117
-0.040434 0.021581 0.111519
-0.041805 0.022605 0.116802
-0.042343 0.023201 0.119867
-0.041844 0.023237 0.120035
-0.041144 0.023161 0.119623
-0.040929 0.023360 0.120629
-0.040683 0.023546 0.121568
-0.040300 0.023657 0.122118
-0.040661 0.024214 0.124967
-0.039770 0.024031 0.123996
-0.039453 0.024194 0.124813
-0.039810 0.024783 0.127816
-0.040156 0.025382 0.130876
-0.041783 0.026823 0.138266
-0.041878 0.027309 0.140737
-0.041706 0.027635 0.142378
-0.041651 0.028051 0.144477
-0.042506 0.029103 0.149850
-0.042685 0.029720 0.152982
-0.042343 0.029990 0.154322
-0.042142 0.030370 0.156228
-0.042158 0.030923 0.159021
-0.042372 0.031644 0.162678
-0.042773 0.032534 0.167198
-0.042659 0.033059 0.169837
-0.042509 0.033575 0.172427
-0.042347 0.034102 0.175075
-0.042618 0.035005 0.179650
-0.042753 0.035832 0.183826
-0.042799 0.036616 0.187785
-0.042381 0.037029 0.189835
-0.041824 0.037336 0.191337
-0.041589 0.037949 0.194413
-0.042524 0.039682 0.203217
-0.047349 0.045211 0.231449
-0.046306 0.045267 0.231649
-0.044407 0.044467 0.227474
-0.043972 0.045130 0.230785
-0.043286 0.045564 0.232920
-0.042641 0.046063 0.235390
-0.041784 0.046356 0.236802
-0.040884 0.046615 0.238041
-0.040321 0.047285 0.241379
-0.039534 0.047723 0.243532
-0.039353 0.048942 0.249667
-0.038654 0.049572 0.252798
-0.038092 0.050423 0.257054
-0.038744 0.052992 0.270065
-0.037445 0.052979 0.269912
-0.036127 0.052937 0.269611
-0.034877 0.052994 0.269821
-0.033935 0.053541 0.272523
-0.032562 0.053426 0.271856
-0.029582 0.050554 0.257171
-0.028227 0.050331 0.255965
-0.026987 0.050303 0.255753
-0.025847 0.050467 0.256520
-0.024662 0.050556 0.256908
-0.023432 0.050557 0.256849
-0.022259 0.050687 0.257445
-0.021062 0.050774 0.257828
-0.019850 0.050837 0.258091
-0.018761 0.051241 0.260091
-0.017839 0.052192 0.264866
-0.016663 0.052490 0.266324
-0.015344 0.052347 0.265554
-0.014162 0.052691 0.267250
-0.012959 0.053017 0.268864
-0.011632 0.052850 0.267976
-0.010351 0.052883 0.268106
-0.009087 0.053015 0.268742
-0.007768 0.052824 0.267745
-0.006467 0.052708 0.267127
-0.005181 0.052677 0.266942
-0.003902 0.052721 0.267145
-0.002615 0.052664 0.266837
-0.001332 0.052638 0.266688
-0.000050 0.053144 0.269239
0.001244 0.053145 0.269236
0.002475 0.051820 0.262517
0.003870 0.053657 0.271816
0.005176 0.053653 0.271795
0.006204 0.051340 0.260078
0.007364 0.050716 0.256925
0.008607 0.050764 0.257176
0.009869 0.050894 0.257845
0.011074 0.050735 0.257049
0.012315 0.050754 0.257166
0.013546 0.050732 0.257072
0.014845 0.050947 0.258181
0.016079 0.050923 0.258085
0.017360 0.051041 0.258710
0.018649 0.051165 0.259368
0.019990 0.051409 0.260635
0.021248 0.051420 0.260728
0.024434 0.052890 0.268261
0.024995 0.051393 0.260710
0.025493 0.049916 0.253261
0.026850 0.050178 0.254634
0.028111 0.050245 0.255023
0.029312 0.050203 0.254862
0.030551 0.050228 0.255038
0.031730 0.050157 0.254731
0.033007 0.050239 0.255203
0.034176 0.050157 0.254843
0.035300 0.050017 0.254188
0.036798 0.050397 0.256182
0.038283 0.050736 0.257970
0.040866 0.052464 0.266818
0.042338 0.052704 0.268105
0.043531 0.052591 0.267603
0.044140 0.051801 0.263648
0.045248 0.051623 0.262813
0.046459 0.051570 0.262612
0.046525 0.050281 0.256116
0.048168 0.050719 0.258421
0.049171 0.050479 0.257266
0.050407 0.050482 0.257357
0.051909 0.050747 0.258777
0.053423 0.051010 0.260191
0.054851 0.051181 0.261135
0.055889 0.050988 0.260224
0.057671 0.051468 0.262748
0.059635 0.052087 0.265979
0.061538 0.052626 0.268809
0.062981 0.052759 0.269559
0.064252 0.052745 0.269561
0.065597 0.052791 0.269871
0.066992 0.052875 0.270371
0.068396 0.052962 0.270888
0.069598 0.052893 0.270604
0.070856 0.052868 0.270546
0.072080 0.052819 0.270358
0.072835 0.052434 0.268455
0.073992 0.052346 0.268069
0.074645 0.051911 0.265902
0.074428 0.050896 0.260759
0.074524 0.050124 0.256860
0.075769 0.050138 0.256980
0.076856 0.050048 0.256571
0.077859 0.049907 0.255896
0.079117 0.049932 0.256067
0.080524 0.050048 0.256706
0.081814 0.050089 0.256956
0.083238 0.050210 0.257611
0.084555 0.050263 0.257917
0.086051 0.050420 0.258752
0.097805 0.056497 0.289972
0.099039 0.056414 0.289569
0.099741 0.056034 0.287639
0.100989 0.055966 0.287309
0.103781 0.056744 0.291316
0.104714 0.056499 0.290065
0.106154 0.056530 0.290228
0.107545 0.056535 0.290249
0.108504 0.056315 0.289112
0.109984 0.056368 0.289369
0.111490 0.056432 0.289680
0.112788 0.056391 0.289441
0.114367 0.056490 0.289916
0.115578 0.056406 0.289449
0.116828 0.056344 0.289082
0.118275 0.056376 0.289196
0.119880 0.056482 0.289682
0.121198 0.056453 0.289462
0.123545 0.056897 0.291665
0.124676 0.056778 0.290972
0.126176 0.056827 0.291134
0.127617 0.056850 0.291147
0.129766 0.057183 0.292748
0.131332 0.057256 0.293000
0.132574 0.057187 0.292517
0.133825 0.057123 0.292053
0.135228 0.057125 0.291915
0.136698 0.057154 0.291909
0.137810 0.057035 0.291129
0.139350 0.057093 0.291250
0.140590 0.057029 0.290730
0.141841 0.056970 0.290227
0.144152 0.057334 0.291865
0.144993 0.057112 0.290505
0.146264 0.057061 0.290009
0.147969 0.057180 0.290355
0.150365 0.057560 0.292018
0.151321 0.057387 0.290855
0.152586 0.057334 0.290286
-0.042113 0.020151 0.101639
-0.042419 0.020531 0.103565
-0.042159 0.020642 0.104136
-0.040920 0.020270 0.102271
-0.040491 0.020296 0.102407
-0.040886 0.020741 0.104653
-0.040533 0.020812 0.105014
-0.040126 0.020857 0.105240
-0.040057 0.021081 0.106367
-0.039890 0.021258 0.107257
-0.040840 0.022043 0.111211
-0.041244 0.022549 0.113758
-0.040933 0.022674 0.114374
-0.040086 0.022500 0.113484
-0.040119 0.022822 0.115095
-0.040242 0.023205 0.117010
-0.040424 0.023634 0.119151
-0.040596 0.024068 0.121321
-0.040534 0.024374 0.122841
-0.039319 0.023985 0.120858
-0.039372 0.024370 0.122772
-0.039211 0.024632 0.124064
-0.039807 0.025385 0.127827
-0.042298 0.027388 0.137880
-0.041711 0.027429 0.138050
-0.041560 0.027763 0.139694
-0.041334 0.028057 0.141136
-0.042192 0.029108 0.146381
-0.042483 0.029796 0.149799
-0.042531 0.030335 0.152463
-0.042431 0.030785 0.154676
-0.042416 0.031313 0.157281
-0.042110 0.031641 0.158881
-0.042337 0.032389 0.162584
-0.042138 0.032833 0.164758
-0.042489 0.033730 0.169203
-0.042274 0.034203 0.171522
-0.042254 0.034857 0.174740
-0.042597 0.035841 0.179613
-0.043076 0.036983 0.185270
-0.042482 0.037231 0.186449
-0.042447 0.037991 0.190186
-0.041679 0.038113 0.190732
-0.047316 0.044228 0.221258
-0.046459 0.045444 0.227178
-0.045341 0.045405 0.226902
-0.044750 0.045904 0.229315
-0.043916 0.046173 0.230579
-0.043412 0.046811 0.233684
-0.042567 0.047106 0.235074
-0.041761 0.047461 0.236763
-0.040734 0.047578 0.237265
-0.040200 0.048293 0.240748
-0.040289 0.049821 0.248286
-0.039426 0.050229 0.250233
-0.038348 0.050379 0.250901
-0.043418 0.058877 0.293125
-0.038536 0.053995 0.268736
-0.037763 0.054733 0.272326
-0.035946 0.053957 0.268382
-0.034660 0.053949 0.268261
-0.033635 0.054364 0.270241
-0.032020 0.053819 0.267458
-0.029805 0.052180 0.259237
-0.028279 0.051657 0.256568
-0.027036 0.051626 0.256347
-0.025865 0.051736 0.256826
-0.024642 0.051750 0.256833
-0.023420 0.051765 0.256844
-0.022236 0.051872 0.257314
-0.021046 0.051978 0.257781
-0.019891 0.052186 0.258761
-0.018809 0.052629 0.260902
-0.017785 0.053307 0.264211
-0.016515 0.053298 0.264116
-0.015298 0.053470 0.264922
-0.014030 0.053479 0.264922
-0.012795 0.053631 0.265635
-0.011480 0.053444 0.264667
-0.010153 0.053145 0.263151
-0.008883 0.053105 0.262918
-0.007574 0.052774 0.261252
-0.006374 0.053233 0.263494
-0.005112 0.053267 0.263637
-0.003855 0.053395 0.264251
-0.002597 0.053634 0.265417
-0.001320 0.053554 0.265003
-0.000048 0.054513 0.269734
0.001254 0.054766 0.270979
0.002502 0.053619 0.265295
0.005171 0.054884 0.271549
0.006183 0.052393 0.259225
0.007345 0.051806 0.256324
0.008600 0.051946 0.257024
0.009848 0.052008 0.257344
0.011064 0.051912 0.256879
0.012330 0.052044 0.257550
0.013594 0.052143 0.258057
0.014832 0.052135 0.258039
0.016105 0.052241 0.258586
0.017373 0.052318 0.258995
0.018595 0.052254 0.258708
0.019949 0.052545 0.260180
0.021472 0.053222 0.263564
0.023129 0.054136 0.268128
0.024403 0.054106 0.268021
0.025308 0.053300 0.264070
0.025950 0.052043 0.257887
0.027220 0.052103 0.258227
0.028469 0.052120 0.258357
0.029567 0.051871 0.257172
0.030814 0.051891 0.257326
0.032081 0.051942 0.257631
0.033331 0.051964 0.257793
0.034621 0.052044 0.258247
0.035869 0.052056 0.258366
0.037349 0.052394 0.260104
0.038730 0.052575 0.261063
0.040615 0.053409 0.265267
0.041909 0.053436 0.265468
0.043111 0.053350 0.265104
0.044202 0.053134 0.264100
0.045222 0.052847 0.262741
0.046387 0.052741 0.262283
0.047496 0.052578 0.261542
0.048409 0.052212 0.259787
0.049619 0.052177 0.259684
0.050895 0.052210 0.259921
0.052211 0.052282 0.260351
0.053771 0.052591 0.261957
0.055182 0.052741 0.262778
0.056253 0.052568 0.261986
0.057793 0.052831 0.263366
0.059568 0.053292 0.265741
0.061376 0.053764 0.268165
0.062683 0.053786 0.268345
0.064129 0.053924 0.269106
0.065559 0.054044 0.269775
0.066879 0.054069 0.269971
0.068282 0.054160 0.270494
0.069453 0.054067 0.270094
0.070685 0.054023 0.269940
0.071684 0.053807 0.268924
0.072266 0.053290 0.266402
0.073673 0.053388 0.266956
0.074568 0.053120 0.265670
0.074583 0.052243 0.261339
0.074855 0.051571 0.258035
0.076100 0.051582 0.258139
0.077228 0.051514 0.257846
0.078241 0.051372 0.257181
0.079762 0.051563 0.258181
0.081097 0.051630 0.258556
0.082519 0.051750 0.259193
0.084355 0.052121 0.261087
0.085465 0.052040 0.260711
0.086693 0.052031 0.260698
0.097476 0.057678 0.289014
0.098707 0.057593 0.288612
0.100556 0.057866 0.289999
0.102249 0.058043 0.290901
0.103362 0.057891 0.290146
0.104750 0.057894 0.290169
0.106135 0.057896 0.290175
0.107281 0.057769 0.289533
0.109109 0.058007 0.290716
0.110079 0.057789 0.289607
0.111684 0.057906 0.290170
0.113078 0.057912 0.290169
0.114468 0.057916 0.290153
0.115738 0.057859 0.289826
0.117310 0.057953 0.290250
0.118558 0.057886 0.289861
0.120116 0.057971 0.290221
0.121588 0.058012 0.290358
0.123099 0.058071 0.290575
0.124607 0.058128 0.290770
0.125902 0.058084 0.290458
0.127233 0.058058 0.290225
0.129710 0.058550 0.292569
0.130935 0.058472 0.292058
0.132270 0.058444 0.291788
0.133779 0.058493 0.291892
0.134969 0.058403 0.291290
0.136494 0.058458 0.291403
0.137854 0.058442 0.291150
0.139122 0.058387 0.290695
0.140532 0.058393 0.290529
0.141858 0.058364 0.290177
0.143266 0.058368 0.289981
0.145089 0.058541 0.290603
0.146232 0.058437 0.289846
0.147720 0.058473 0.289763
0.149540 0.058638 0.290307
0.150842 0.058598 0.289823
0.152088 0.058538 0.289221
-0.042685 0.020911 0.103011
-0.042530 0.021074 0.103829
-0.042292 0.021200 0.104460
-0.041893 0.021246 0.104697
-0.041424 0.021258 0.104763
-0.041126 0.021359 0.105265
-0.040978 0.021541 0.106166
-0.040390 0.021494 0.105933
-0.041505 0.022362 0.110214
-0.040993 0.022366 0.110227
-0.040562 0.022414 0.110459
-0.040227 0.022517 0.110958
-0.039816 0.022580 0.111258
-0.039351 0.022613 0.111411
-0.039916 0.023247 0.114522
-0.040306 0.023796 0.117208
-0.040534 0.024262 0.119488
-0.040251 0.024431 0.120302
-0.040083 0.024677 0.121488
-0.039921 0.024932 0.122724
-0.039882 0.025274 0.124381
-0.040040 0.025752 0.126705
-0.039963 0.026091 0.128347
-0.040111 0.026590 0.130769
-0.041258 0.027777 0.136573
-0.041796 0.028585 0.140512
-0.042070 0.029236 0.143675
-0.042175 0.029788 0.146349
-0.042323 0.030391 0.149266
-0.042179 0.030800 0.151231
-0.041977 0.031180 0.153053
-0.042244 0.031928 0.156678
-0.042259 0.032509 0.159479
-0.042284 0.033118 0.162419
-0.041900 0.033424 0.163867
-0.042094 0.034212 0.167675
-0.041946 0.034746 0.170239
-0.041900 0.035388 0.173324
-0.042092 0.036260 0.177534
-0.042710 0.037542 0.183750
-0.042686 0.038301 0.187405
-0.042204 0.038673 0.189160
-0.041475 0.038830 0.189859
-0.047260 0.045228 0.221068
-0.047423 0.046413 0.226783
-0.046403 0.046470 0.226982
-0.045895 0.047054 0.229755
-0.044916 0.047171 0.230247
-0.043936 0.047293 0.230764
-0.043350 0.047858 0.233438
-0.042721 0.048403 0.236016
-0.041779 0.048613 0.236960
-0.041211 0.049281 0.240138
-0.040793 0.050173 0.244400
-0.041050 0.051971 0.253076
-0.039272 0.051224 0.249358
-0.039002 0.052460 0.255292
-0.043361 0.060200 0.292865
-0.042004 0.060257 0.293050
-0.038798 0.057573 0.279912
-0.037496 0.057625 0.280079
-0.034977 0.055741 0.270844
-0.034017 0.056292 0.273441
-0.032648 0.056184 0.272839
-0.029451 0.052790 0.256285
-0.028201 0.052743 0.255990
-0.026990 0.052768 0.256043
-0.025786 0.052809 0.256174
-0.024587 0.052867 0.256394
-0.023407 0.052972 0.256841
-0.022227 0.053089 0.257349
-0.020997 0.053093 0.257314
-0.019856 0.053338 0.258444
-0.018715 0.053616 0.259739
-0.017702 0.054327 0.263132
-0.016478 0.054448 0.263669
-0.015233 0.054516 0.263951
-0.013962 0.054496 0.263811
-0.012661 0.054340 0.263017
-0.011403 0.054354 0.263044
-0.010078 0.054019 0.261391
-0.008813 0.053951 0.261028
-0.007551 0.053882 0.260665
-0.006320 0.054053 0.261465
-0.005082 0.054234 0.262315
-0.003831 0.054358 0.262896
-0.002581 0.054613 0.264110
-0.001310 0.054492 0.263509
-0.000046 0.055590 0.268805
0.001254 0.055990 0.270729
0.002501 0.054817 0.265050
0.003862 0.056086 0.271182
0.006176 0.053564 0.258986
0.007304 0.052722 0.254918
0.008620 0.053289 0.257668
0.009880 0.053407 0.258250
0.011068 0.053151 0.257025
0.012326 0.053255 0.257539
0.013579 0.053314 0.257846
0.014832 0.053367 0.258122
0.016100 0.053459 0.258590
0.017353 0.053493 0.258780
0.018633 0.053598 0.259315
0.019953 0.053800 0.260323
0.021440 0.054400 0.263262
0.022782 0.054586 0.264197
0.024258 0.055057 0.266517
0.025609 0.055211 0.267303
0.026843 0.055109 0.266851
0.028195 0.055248 0.267571
0.029520 0.055325 0.267991
0.030905 0.055502 0.268899
0.032233 0.055568 0.269268
0.033605 0.055700 0.269965
0.034833 0.055592 0.269499
0.036105 0.055561 0.269405
0.037407 0.055576 0.269535
0.038756 0.055658 0.269994
0.039812 0.055325 0.268443
0.040916 0.055080 0.267316
0.042136 0.055000 0.266992
0.043169 0.054688 0.265541
0.044002 0.054148 0.262983
0.044822 0.053622 0.260497
0.046044 0.053593 0.260421
0.047118 0.053397 0.259538
0.047772 0.052748 0.256446
0.048938 0.052681 0.256190
0.050203 0.052723 0.256459
0.051342 0.052633 0.256091
0.052744 0.052810 0.257022
0.053837 0.052677 0.256441
0.055228 0.052835 0.257279
0.057030 0.053371 0.259957
0.059437 0.054437 0.265219
0.061236 0.054915 0.267616
0.062565 0.054959 0.267900
0.064056 0.055141 0.268857
0.065468 0.055250 0.269455
0.066776 0.055267 0.269609
0.068122 0.055316 0.269910
0.069359 0.055275 0.269777
0.070446 0.055119 0.269077
0.071470 0.054919 0.268166
0.072331 0.054604 0.266686
0.073952 0.054863 0.268012
0.074858 0.054592 0.266742
0.075525 0.054159 0.264679
0.075503 0.053253 0.260306
0.076641 0.053182 0.260005
0.077821 0.053142 0.259856
0.079005 0.053105 0.259721
0.080179 0.053064 0.259560
0.081646 0.053214 0.260330
0.083174 0.053399 0.261273
0.084410 0.053394 0.261278
0.085930 0.053566 0.262148
0.088239 0.054217 0.265364
0.097895 0.059301 0.290271
0.098463 0.058815 0.287910
0.100627 0.059282 0.290212
0.101828 0.059177 0.289710
0.103562 0.059380 0.290710
0.104841 0.059321 0.290420
0.106004 0.059198 0.289814
0.107452 0.059235 0.289988
0.108899 0.059271 0.290149
0.110551 0.059416 0.290839
0.111568 0.059220 0.289855
0.112884 0.059186 0.289654
0.114407 0.059260 0.289977
0.115979 0.059356 0.290406
0.116950 0.059148 0.289332
0.118310 0.059137 0.289223
0.120030 0.059306 0.289980
0.121563 0.059378 0.290262
0.122986 0.059397 0.290269
0.124613 0.059511 0.290740
0.126098 0.059557 0.290862
0.127363 0.059498 0.290472
0.128553 0.059406 0.289906
0.130576 0.059697 0.291200
0.131771 0.059607 0.290626
0.132579 0.059346 0.289207
0.134876 0.059749 0.291020
0.136380 0.059797 0.291085
0.137785 0.059800 0.290926
0.139196 0.059806 0.290768
0.140454 0.059747 0.290282
0.141961 0.059794 0.290297
0.143234 0.059742 0.289821
0.144701 0.059771 0.289728
0.146167 0.059799 0.289615
0.147621 0.059822 0.289461
0.149346 0.059953 0.289817
0.151111 0.060097 0.290222
0.152810 0.060213 0.290472
-0.042974 0.021300 0.102520
-0.042554 0.021332 0.102689
-0.042211 0.021403 0.103045
-0.042184 0.021637 0.104186
-0.042064 0.021828 0.105120
-0.041805 0.021952 0.105722
-0.041707 0.022164 0.106749
-0.041295 0.022212 0.106986
-0.041230 0.022450 0.108135
-0.041018 0.022614 0.108923
-0.040748 0.022749 0.109569
-0.040445 0.022869 0.110144
-0.040111 0.022974 0.110642
-0.039696 0.023035 0.110929
-0.039466 0.023206 0.111742
-0.039687 0.023651 0.113873
-0.040146 0.024252 0.116750
-0.040201 0.024622 0.118514
-0.040476 0.025139 0.120987
-0.040012 0.025205 0.121284
-0.040366 0.025796 0.124106
-0.039968 0.025917 0.124664
-0.041273 0.027162 0.130627
-0.040462 0.027031 0.129968
-0.040197 0.027266 0.131070
-0.041037 0.028271 0.135866
-0.041401 0.028974 0.139211
-0.041581 0.029568 0.142030
-0.042018 0.030368 0.145835
-0.042194 0.031002 0.148841
-0.042486 0.031746 0.152367
-0.042455 0.032269 0.154833
-0.042196 0.032633 0.156536
-0.042209 0.033225 0.159329
-0.041965 0.033633 0.161236
-0.041935 0.034231 0.164048
-0.041892 0.034840 0.166916
-0.042257 0.035818 0.171546
-0.042572 0.036791 0.176150
-0.042458 0.037425 0.179130
-0.042957 0.038637 0.184868
-0.042611 0.039123 0.187129
-0.042154 0.039526 0.188995
-0.049940 0.047843 0.228684
-0.047814 0.046823 0.223734
-0.046811 0.046880 0.223934
-0.046493 0.047643 0.227498
-0.045564 0.047801 0.228177
-0.045019 0.048380 0.230861
-0.043981 0.048444 0.231091
-0.043493 0.049133 0.234296
-0.042759 0.049573 0.236318
-0.041778 0.049742 0.237046
-0.041492 0.050773 0.241875
-0.041386 0.052087 0.248055
-0.040428 0.052376 0.249350
-0.039780 0.053095 0.252693
-0.043961 0.060506 0.287875
-0.043302 0.061518 0.292599
-0.040078 0.058833 0.279741
-0.038523 0.058497 0.278060
-0.037230 0.058549 0.278225
-0.034734 0.056644 0.269091
-0.033695 0.057059 0.270986
-0.031990 0.056335 0.267472
-0.029640 0.054367 0.258060
-0.028119 0.053815 0.255373
-0.026933 0.053884 0.255631
-0.025713 0.053887 0.255582
-0.024537 0.053989 0.256002
-0.023355 0.054086 0.256404
-0.022142 0.054120 0.256507
-0.020944 0.054195 0.256805
-0.019783 0.054383 0.257644
-0.018754 0.054984 0.260437
-0.017705 0.055606 0.263334
-0.016486 0.055748 0.263960
-0.015126 0.055398 0.262257
-0.013902 0.055529 0.262835
-0.012596 0.055327 0.261837
-0.011216 0.054717 0.258915
-0.009921 0.054422 0.257482
-0.008747 0.054802 0.259250
-0.007445 0.054377 0.257212
-0.006246 0.054679 0.258612
-0.005035 0.055010 0.260155
-0.003798 0.055174 0.260910
-0.002577 0.055847 0.264070
-0.001303 0.055537 0.262589
-0.000043 0.056663 0.267900
0.001252 0.057089 0.269904
0.002558 0.057310 0.270941
0.003859 0.057307 0.270926
0.005169 0.057410 0.271408
0.006155 0.054599 0.258124
0.007248 0.053519 0.253020
0.008569 0.054188 0.256190
0.009825 0.054331 0.256877
0.010971 0.053900 0.254851
0.012293 0.054335 0.256922
0.013554 0.054443 0.257448
0.014737 0.054249 0.256552
0.016063 0.054569 0.258085
0.017308 0.054585 0.258187
0.018601 0.054743 0.258964
0.019895 0.054882 0.259650
0.021494 0.055798 0.264015
0.022574 0.055338 0.261874
0.024084 0.055926 0.264695
0.025283 0.055769 0.263991
0.026401 0.055455 0.262549
0.027752 0.055639 0.263461
0.029052 0.055708 0.263834
0.030385 0.055831 0.264464
0.031685 0.055886 0.264775
0.033050 0.056049 0.265598
0.034359 0.056106 0.265926
0.035466 0.055842 0.264726
0.036825 0.055977 0.265426
0.038212 0.056147 0.266289
0.039275 0.055843 0.264909
0.040665 0.056010 0.265758
0.041801 0.055827 0.264952
0.043231 0.056035 0.266006
0.043926 0.055306 0.262610
0.044563 0.054548 0.259072
0.045514 0.054204 0.257501
0.046763 0.054222 0.257654
0.047702 0.053890 0.256142
0.048817 0.053769 0.255628
0.049978 0.053702 0.255379
0.051229 0.053734 0.255593
0.052667 0.053955 0.256711
0.053845 0.053906 0.256547
0.055108 0.053942 0.256783
0.056999 0.054578 0.259876
0.059288 0.055560 0.264620
0.061139 0.056099 0.267254
0.062472 0.056150 0.267565
0.063967 0.056341 0.268543
0.065424 0.056493 0.269332
0.066731 0.056511 0.269482
0.067914 0.056426 0.269141
0.069151 0.056387 0.269020
0.070393 0.056354 0.268924
0.071405 0.056142 0.267969
0.072334 0.055872 0.266741
0.073631 0.055891 0.266888
0.074729 0.055762 0.266324
0.075625 0.055488 0.265065
0.076607 0.055285 0.264145
0.078087 0.055442 0.264944
0.078966 0.055175 0.263710
0.080134 0.055114 0.263460
0.081491 0.055183 0.263832
0.082851 0.055252 0.264198
0.084451 0.055477 0.265304
0.085551 0.055371 0.264829
0.087285 0.055673 0.266299
0.096567 0.060711 0.290424
0.097809 0.060623 0.290027
0.098735 0.060345 0.288714
0.100170 0.060382 0.288902
0.102198 0.060770 0.290766
0.103432 0.060682 0.290347
0.104685 0.060607 0.289987
0.106235 0.060703 0.290443
0.107510 0.060642 0.290138
0.108871 0.060630 0.290064
0.110214 0.060609 0.289938
0.111416 0.060511 0.289442
0.112748 0.060486 0.289287
0.114617 0.060746 0.290487
0.115268 0.060361 0.288601
0.117285 0.060693 0.290132
0.118684 0.060701 0.290106
0.120023 0.060678 0.289926
0.121261 0.060605 0.289502
0.122779 0.060672 0.289737
0.124261 0.060720 0.289873
0.125854 0.060821 0.290251
0.127042 0.060726 0.289686
0.129251 0.061115 0.291423
0.129947 0.060788 0.289736
0.131472 0.060852 0.289901
0.132611 0.060737 0.289209
0.133912 0.060699 0.288868
0.136365 0.061178 0.290976
0.137671 0.061137 0.290605
0.139312 0.061245 0.290926
0.140676 0.061230 0.290650
0.142175 0.061274 0.290642
0.143655 0.061308 0.290576
0.145029 0.061297 0.290282
0.146657 0.061392 0.290478
0.148009 0.061371 0.290110
0.149309 0.061330 0.289630
0.151404 0.061611 0.290662
0.152130 0.061337 0.289053
-0.042251 0.021418 0.100785
-0.042144 0.021606 0.101690
-0.041979 0.021768 0.102470
-0.041454 0.021746 0.102377
-0.041926 0.022251 0.104771
-0.042047 0.022581 0.106331
-0.041812 0.022725 0.107015
-0.041251 0.022693 0.106870
-0.041044 0.022857 0.107648
-0.040692 0.022944 0.108058
-0.040307 0.023014 0.108385
-0.040071 0.023172 0.109128
-0.039662 0.023233 0.109409
-0.039314 0.023332 0.109865
-0.039349 0.023663 0.111417
-0.040536 0.024706 0.116317
-0.040869 0.025250 0.118862
-0.040699 0.025494 0.119995
-0.040707 0.025857 0.121688
-0.040347 0.025994 0.122314
-0.039341 0.025713 0.120969
-0.040090 0.026587 0.125059
-0.040214 0.027067 0.127292
-0.040041 0.027358 0.128635
-0.039562 0.027446 0.129022
-0.040013 0.028192 0.132497
-0.040851 0.029238 0.137382
-0.041184 0.029952 0.140701
-0.041410 0.030609 0.143752
-0.042218 0.031725 0.148956
-0.042426 0.032421 0.152183
-0.042468 0.033012 0.154912
-0.042415 0.033548 0.157386
-0.042285 0.034042 0.159652
-0.042123 0.034527 0.161883
-0.042023 0.035082 0.164434
-0.042118 0.035824 0.167859
-0.042388 0.036746 0.172127
-0.043213 0.038195 0.178856
-0.042755 0.038544 0.180437
-0.042656 0.039239 0.183628
-0.041918 0.039362 0.184145
-0.050898 0.048810 0.228268
-0.049879 0.048871 0.228480
-0.047636 0.047709 0.222973
-0.047068 0.048210 0.225240
-0.046223 0.048443 0.226255
-0.045720 0.049055 0.229039
-0.044843 0.049286 0.230039
-0.044232 0.049828 0.232494
-0.043714 0.050506 0.235577
-0.042581 0.050489 0.235422
-0.042196 0.051382 0.239510
-0.042195 0.052807 0.246071
-0.042465 0.054661 0.254626
-0.041702 0.055255 0.257312
-0.045004 0.061435 0.286001
-0.043686 0.061495 0.286193
-0.041361 0.060097 0.279603
-0.040282 0.060477 0.281285
-0.038631 0.059996 0.278963
-0.037334 0.060049 0.279128
-0.035014 0.058399 0.271383
-0.033726 0.058412 0.271365
-0.031967 0.057576 0.267409
-0.029677 0.055675 0.258509
-0.028142 0.055085 0.255706
-0.026956 0.055158 0.255978
-0.025764 0.055224 0.256221
-0.024554 0.055256 0.256312
-0.023348 0.055303 0.256469
-0.022159 0.055397 0.256846
-0.020969 0.055499 0.257264
-0.019808 0.055694 0.258114
-0.018744 0.056207 0.260440
-0.017746 0.057006 0.264092
-0.016460 0.056933 0.263708
-0.015224 0.057033 0.264128
-0.013934 0.056929 0.263603
-0.012625 0.056724 0.262613
-0.011339 0.056586 0.261937
-0.010032 0.056297 0.260564
-0.008761 0.056152 0.259863
-0.007462 0.055753 0.257989
-0.006245 0.055935 0.258806
-0.005038 0.056312 0.260523
-0.003796 0.056427 0.261038
-0.002573 0.057076 0.264018
-0.001294 0.056544 0.261543
-0.000040 0.057633 0.266566
0.001253 0.058300 0.269645
0.002476 0.056665 0.262073
0.003827 0.058086 0.268643
0.005164 0.058628 0.271147
0.006247 0.056645 0.261977
0.007224 0.054536 0.252224
0.008532 0.055161 0.255122
0.009815 0.055496 0.256679
0.010983 0.055173 0.255197
0.012231 0.055274 0.255682
0.013512 0.055495 0.256718
0.014740 0.055481 0.256674
0.016080 0.055855 0.258425
0.017334 0.055900 0.258660
0.018567 0.055876 0.258574
0.019992 0.056395 0.261007
0.021715 0.057645 0.266823
0.022984 0.057616 0.266723
0.025261 0.059985 0.277727
0.026579 0.059951 0.277611
0.027894 0.059915 0.277490
0.029056 0.059570 0.275936
0.030360 0.059531 0.275804
0.031661 0.059491 0.275666
0.032717 0.059012 0.273498
0.034004 0.058969 0.273350
0.035083 0.058584 0.271616
0.036106 0.058135 0.269590
0.037370 0.058092 0.269447
0.038506 0.057860 0.268428
0.039647 0.057648 0.267505
0.040795 0.057461 0.266697
0.042204 0.057642 0.267596
0.043194 0.057254 0.265860
0.044104 0.056788 0.263756
0.044119 0.055227 0.256567
0.045270 0.055133 0.256195
0.046750 0.055435 0.257659
0.047572 0.054961 0.255518
0.048881 0.055059 0.256039
0.050048 0.054995 0.255807
0.051277 0.055002 0.255901
0.052646 0.055155 0.256679
0.053641 0.054918 0.255640
0.054916 0.054972 0.255954
0.056513 0.055338 0.257724
0.059737 0.057249 0.266686
0.061436 0.057648 0.268615
0.062580 0.057521 0.268087
0.063944 0.057597 0.268507
0.065386 0.057739 0.269231
0.066704 0.057768 0.269430
0.067994 0.057772 0.269508
0.069253 0.057750 0.269466
0.070606 0.057806 0.269786
0.072031 0.057917 0.270364
0.073112 0.057753 0.269654
0.074534 0.057859 0.270205
0.075397 0.057536 0.268744
0.076554 0.057442 0.268359
0.077762 0.057391 0.268166
0.078750 0.057181 0.267228
0.080200 0.057307 0.267860
0.081327 0.057202 0.267412
0.082519 0.057145 0.267183
0.083921 0.057234 0.267631
0.085307 0.057309 0.268015
0.087609 0.057988 0.271217
0.088848 0.057954 0.271083
0.095846 0.061623 0.288268
0.097079 0.061535 0.287874
0.098079 0.061304 0.286806
0.101082 0.062313 0.291536
0.101696 0.061842 0.289341
0.103655 0.062191 0.290972
0.104988 0.062160 0.290823
0.106252 0.062089 0.290482
0.107574 0.062054 0.290302
0.108999 0.062078 0.290393
0.110255 0.062006 0.290032
0.111606 0.061989 0.289917
0.113012 0.062002 0.289942
0.114285 0.061943 0.289621
0.115781 0.062005 0.289858
0.117253 0.062053 0.290021
0.118664 0.062067 0.290022
0.119968 0.062025 0.289755
0.121201 0.061949 0.289315
0.122694 0.062005 0.289491
0.124586 0.062260 0.290581
0.126617 0.062577 0.291957
0.127759 0.062453 0.291262
0.128778 0.062272 0.290296
0.130492 0.062427 0.290887
0.131873 0.062422 0.290717
0.132951 0.062274 0.289878
0.134879 0.062524 0.290877
0.136374 0.062569 0.290916
0.137614 0.062498 0.290401
0.139186 0.062578 0.290574
0.140711 0.062635 0.290631
0.141939 0.062560 0.290061
0.143251 0.062522 0.289657
0.145286 0.062798 0.290689
0.146829 0.062858 0.290706
0.148404 0.062931 0.290768
0.150369 0.063166 0.291562
0.152404 0.063425 0.292454
0.153235 0.063184 0.291020
-0.043193 0.022382 0.103024
-0.042221 0.022126 0.101866
-0.041851 0.022184 0.102149
-0.041396 0.022198 0.102227
-0.042070 0.022824 0.105124
-0.042057 0.023088 0.106352
-0.041860 0.023256 0.107134
-0.041298 0.023223 0.106989
-0.040986 0.023332 0.107493
-0.040869 0.023556 0.108527
-0.040480 0.023626 0.108852
-0.040113 0.023712 0.109244
-0.040056 0.023985 0.110497
-0.039812 0.024153 0.111263
-0.040559 0.024933 0.114852
-0.040542 0.025259 0.116340
-0.040295 0.025448 0.117201
-0.040273 0.025787 0.118748
-0.039599 0.025712 0.118388
-0.039408 0.025953 0.119479
-0.040795 0.027256 0.125455
-0.040135 0.027208 0.125215
-0.039875 0.027434 0.126234
-0.039826 0.027815 0.127962
-0.039605 0.028086 0.129180
-0.040099 0.028880 0.132804
-0.040474 0.029612 0.136140
-0.040954 0.030446 0.139941
-0.041353 0.031245 0.143579
-0.041919 0.032201 0.147932
-0.042229 0.032988 0.151507
-0.042714 0.033941 0.155843
-0.042415 0.034294 0.157421
-0.042119 0.034662 0.159064
-0.041874 0.035086 0.160964
-0.041506 0.035421 0.162454
-0.041420 0.036013 0.165121
-0.042940 0.038052 0.174416
-0.042679 0.038561 0.176695
-0.042667 0.039320 0.180117
-0.042231 0.039711 0.181850
-0.047840 0.045921 0.210224
-0.050133 0.049145 0.224910
-0.049818 0.049896 0.228272
-0.048059 0.049203 0.225029
-0.047101 0.049316 0.225472
-0.046210 0.049507 0.226274
-0.045369 0.049761 0.227361
-0.044809 0.050344 0.229948
-0.044286 0.050998 0.232864
-0.044130 0.052120 0.237908
-0.043260 0.052435 0.239267
-0.043355 0.053969 0.246189
-0.044391 0.056790 0.258978
-0.043204 0.056849 0.259166
-0.041686 0.056462 0.257322
-0.044941 0.062713 0.285720
-0.043623 0.062774 0.285911
-0.041492 0.061630 0.280616
-0.040027 0.061433 0.279637
-0.039203 0.062239 0.283221
-0.037886 0.062293 0.283389
-0.035037 0.059739 0.271690
-0.033563 0.059424 0.270184
-0.031265 0.057565 0.261660
-0.029476 0.056528 0.256880
-0.028113 0.056254 0.255569
-0.026947 0.056369 0.256028
-0.025727 0.056374 0.255991
-0.024516 0.056400 0.256049
-0.023310 0.056443 0.256184
-0.022151 0.056612 0.256894
-0.020977 0.056757 0.257500
-0.019761 0.056801 0.257644
-0.018682 0.057271 0.259730
-0.017636 0.057919 0.262617
-0.016423 0.058073 0.263272
-0.015165 0.058082 0.263268
-0.013994 0.058453 0.264904
-0.012583 0.057799 0.261905
-0.011321 0.057758 0.261682
-0.010054 0.057686 0.261321
-0.008723 0.057163 0.258923
-0.007466 0.057038 0.258328
-0.006257 0.057311 0.259536
-0.005022 0.057414 0.259983
-0.003804 0.057842 0.261897
-0.002565 0.058206 0.263529
-0.001291 0.057740 0.261403
-0.000038 0.058546 0.265041
0.001244 0.059026 0.267202
0.002497 0.058359 0.264173
0.003830 0.059388 0.268829
0.005131 0.059515 0.269403
0.006358 0.058916 0.266689
0.007651 0.059021 0.267169
0.008969 0.059256 0.268240
0.010254 0.059244 0.268196
0.011499 0.059031 0.267240
0.012809 0.059162 0.267848
0.014102 0.059196 0.268022
0.015413 0.059292 0.268473
0.016675 0.059199 0.268075
0.017971 0.059232 0.268248
0.019291 0.059334 0.268738
0.020517 0.059153 0.267948
0.021838 0.059249 0.268416
0.023703 0.060731 0.275164
0.025010 0.060699 0.275055
0.026252 0.060521 0.274289
0.027765 0.060956 0.276303
0.028859 0.060474 0.274159
0.029969 0.060063 0.272341
0.031033 0.059600 0.270288
0.032068 0.059119 0.268156
0.033280 0.058991 0.267623
0.034607 0.059066 0.268019
0.035752 0.058838 0.267036
0.036998 0.058786 0.266853
0.038203 0.058674 0.266400
0.039433 0.058606 0.266149
0.040701 0.058597 0.266165
0.042214 0.058930 0.267739
0.043428 0.058839 0.267386
0.044665 0.058783 0.267194
0.043814 0.056059 0.254869
0.045080 0.056117 0.255192
0.046489 0.056346 0.256295
0.047433 0.056013 0.254842
0.048767 0.056146 0.255509
0.050046 0.056211 0.255869
0.051309 0.056256 0.256133
0.052650 0.056381 0.256767
0.053770 0.056270 0.256322
0.055134 0.056412 0.257032
0.057189 0.057241 0.260873
0.059422 0.058209 0.265345
0.061368 0.058860 0.268376
0.062540 0.058758 0.267974
0.063835 0.058773 0.268105
0.065417 0.059046 0.269413
0.066812 0.059143 0.269918
0.067982 0.059042 0.269516
0.069354 0.059116 0.269910
0.070667 0.059137 0.270066
0.072066 0.059230 0.270543
0.073123 0.059041 0.269737
0.074158 0.058843 0.268881
0.075632 0.058994 0.269620
0.076695 0.058823 0.268890
0.078034 0.058868 0.269137
0.078922 0.058575 0.267842
0.080180 0.058562 0.267823
0.081782 0.058797 0.268934
0.082569 0.058448 0.267372
0.083700 0.058349 0.266951
0.085072 0.058418 0.267295
0.086594 0.058587 0.268092
0.088896 0.059270 0.271242
0.096298 0.063287 0.289642
0.097539 0.063197 0.289247
0.097955 0.062583 0.286450
0.100003 0.063014 0.288428
0.102020 0.063415 0.290263
0.103386 0.063405 0.290216
0.104069 0.062982 0.288272
0.106118 0.063385 0.290106
0.107337 0.063289 0.289649
0.108761 0.063315 0.289743
0.110110 0.063298 0.289633
0.111405 0.063249 0.289375
0.112694 0.063198 0.289101
0.114630 0.063508 0.290468
0.115675 0.063321 0.289560
0.117164 0.063380 0.289766
0.118478 0.063343 0.289529
0.119528 0.063168 0.288653
0.120892 0.063161 0.288535
0.122323 0.063188 0.288567
0.123076 0.062869 0.287008
0.124231 0.062759 0.286400
0.126254 0.063086 0.287772
0.128126 0.063330 0.288763
0.130102 0.063621 0.289950
0.131974 0.063855 0.290869
0.133189 0.063769 0.290322
0.134749 0.063848 0.290516
0.136067 0.063813 0.290178
0.137547 0.063853 0.290171
0.139206 0.063974 0.290522
0.140487 0.063922 0.290070
0.142042 0.063993 0.290170
0.143666 0.064094 0.290389
0.145174 0.064141 0.290353
0.147147 0.064391 0.291219
0.148874 0.064530 0.291567
0.149920 0.064374 0.290565
0.151813 0.064581 0.291189
0.153398 0.064653 0.291191
-0.041392 0.021915 0.098715
-0.042042 0.022512 0.101425
-0.041635 0.022549 0.101613
-0.041655 0.022822 0.102859
-0.041923 0.023239 0.104750
-0.041958 0.023535 0.106097
-0.041525 0.023572 0.106273
-0.041181 0.023661 0.106685
-0.041086 0.023897 0.107754
-0.040773 0.024011 0.108271
-0.040502 0.024153 0.108912
-0.040504 0.024464 0.110310
-0.040511 0.024785 0.111756
-0.040719 0.025239 0.113800
-0.040243 0.025277 0.113961
-0.038830 0.024718 0.111436
-0.041063 0.026497 0.119444
-0.040561 0.026536 0.119607
-0.041260 0.027373 0.123363
-0.040999 0.027588 0.124316
-0.040838 0.027877 0.125601
-0.040172 0.027825 0.125345
-0.039753 0.027946 0.125865
-0.039587 0.028250 0.127211
-0.039088 0.028322 0.127512
-0.039867 0.029337 0.132055
-0.040369 0.030178 0.135810
-0.040978 0.031126 0.140045
-0.041116 0.031742 0.142784
-0.041289 0.032406 0.145736
-0.041595 0.033199 0.149262
-0.042695 0.034664 0.155807
-0.042596 0.035189 0.158129
-0.042331 0.035594 0.159902
-0.042071 0.036018 0.161761
-0.042470 0.037031 0.166267
-0.043110 0.038297 0.171902
-0.042789 0.038742 0.173846
-0.042016 0.038787 0.173997
-0.042002 0.039549 0.177359
-0.050040 0.048078 0.215543
-0.048648 0.047713 0.213841
-0.047500 0.047576 0.213161
-0.048754 0.049893 0.223472
-0.047902 0.050109 0.224367
-0.047128 0.050418 0.225679
-0.046058 0.050417 0.225604
-0.045160 0.050610 0.226397
-0.044664 0.051273 0.229290
-0.045109 0.053076 0.237277
-0.044635 0.053864 0.240724
-0.044273 0.054831 0.244968
-0.043351 0.055138 0.246264
-0.042067 0.054989 0.245522
-0.041031 0.055165 0.246231
-0.041876 0.057954 0.258601
-0.043563 0.064051 0.285636
-0.041787 0.063419 0.282735
-0.040313 0.063218 0.281756
-0.038620 0.062649 0.279141
-0.037323 0.062703 0.279305
-0.034942 0.060874 0.271080
-0.033433 0.060482 0.269263
-0.031703 0.059643 0.265457
-0.029401 0.057613 0.256358
-0.028071 0.057395 0.255322
-0.026867 0.057425 0.255391
-0.025659 0.057451 0.255449
-0.024447 0.057468 0.255465
-0.023258 0.057547 0.255757
-0.022061 0.057611 0.255987
-0.020876 0.057719 0.256412
-0.019771 0.058071 0.257927
-0.018660 0.058453 0.259574
-0.017608 0.059090 0.262355
-0.016351 0.059083 0.262280
-0.015141 0.059257 0.263008
-0.013990 0.059716 0.265003
-0.012591 0.059102 0.262240
-0.011244 0.058627 0.260096
-0.009939 0.058274 0.258499
-0.008708 0.058325 0.258695
-0.007423 0.057966 0.257073
-0.006185 0.057902 0.256765
