ply
format ascii 1.0
element vertex 1744
property float x
property float y
property float z
end_header
0.097700 0.064674 0.289733
0.097429 0.063597 0.284916
0.100151 0.064476 0.288858
0.101573 0.064506 0.288989
0.103088 0.064593 0.289374
0.104269 0.064471 0.288819
0.105554 0.064416 0.288555
0.106872 0.064382 0.288382
0.108990 0.064825 0.290338
0.110188 0.064716 0.289818
0.112126 0.065039 0.291224
0.113167 0.064840 0.290289
0.114309 0.064704 0.289625
0.115876 0.064807 0.290030
0.117158 0.064751 0.289714
0.118491 0.064724 0.289520
0.119787 0.064678 0.289232
0.121127 0.064656 0.289048
0.122538 0.064672 0.289022
0.123846 0.064634 0.288749
0.125619 0.064837 0.289542
0.127412 0.065045 0.290350
0.129037 0.065164 0.290750
0.130550 0.065225 0.290877
0.131905 0.065206 0.290643
0.133091 0.065105 0.290030
0.134695 0.065207 0.290317
0.136205 0.065263 0.290383
0.137519 0.065225 0.290020
0.138944 0.065239 0.289879
0.140777 0.065443 0.290567
0.142035 0.065378 0.290050
0.143849 0.065568 0.290648
0.145433 0.065650 0.290755
0.146998 0.065722 0.290803
0.148673 0.065841 0.291046
0.150375 0.065970 0.291315
0.151898 0.066019 0.291214
0.153235 0.065986 0.290738
-0.045469 0.019546 0.084987
-0.042363 0.022906 0.101019
-0.041513 0.022701 0.100139
-0.041366 0.022880 0.100947
-0.040502 0.022662 0.100003
-0.041754 0.023637 0.104320
-0.041323 0.023671 0.104484
-0.041307 0.023947 0.105709
-0.041011 0.024065 0.106239
-0.040742 0.024201 0.106849
-0.040480 0.024346 0.107492
-0.040046 0.024389 0.107685
-0.039617 0.024437 0.107895
-0.039752 0.024838 0.109665
-0.039975 0.025306 0.111725
-0.040137 0.025747 0.113667
-0.039648 0.025776 0.113787
-0.038786 0.025561 0.112828
-0.041179 0.027514 0.121437
-0.040678 0.027561 0.121634
-0.040729 0.027989 0.123508
-0.040035 0.027911 0.123144
-0.039301 0.027801 0.122641
-0.039695 0.028499 0.125697
-0.039401 0.028716 0.126632
-0.039654 0.029344 0.129380
-0.039507 0.029691 0.130885
-0.040804 0.031152 0.137296
-0.040391 0.031333 0.138064
-0.040538 0.031962 0.140802
-0.042067 0.033720 0.148511
-0.042361 0.034530 0.152043
-0.042340 0.035107 0.154546
-0.042676 0.036005 0.158458
-0.042586 0.036570 0.160901
-0.043308 0.037866 0.166557
-0.043916 0.039108 0.171972
-0.043261 0.039250 0.172550
-0.042112 0.038941 0.171144
-0.042176 0.039764 0.174710
-0.048756 0.046885 0.205937
-0.050634 0.049684 0.218164
-0.048710 0.048790 0.214176
-0.049516 0.050652 0.222280
-0.048629 0.050825 0.222970
-0.047783 0.051048 0.223883
-0.046793 0.051126 0.224153
-0.045862 0.051272 0.224724
-0.045049 0.051560 0.225916
-0.045333 0.053149 0.232809
-0.045579 0.054772 0.239844
-0.044456 0.054790 0.239848
-0.043407 0.054903 0.240269
-0.042418 0.055100 0.241058
-0.041532 0.055446 0.242495
-0.041016 0.056319 0.246240
-0.040176 0.056786 0.248208
-0.042624 0.062069 0.271220
-0.043454 0.065253 0.285049
-0.042137 0.065314 0.285233
-0.039959 0.063999 0.279413
-0.039515 0.065467 0.285740
-0.038187 0.065523 0.285908
-0.034666 0.061681 0.269071
-0.033611 0.062101 0.270828
-0.031492 0.060510 0.263820
-0.029710 0.059460 0.259180
-0.028133 0.058749 0.256014
-0.026959 0.058853 0.256407
-0.025709 0.058791 0.256079
-0.024477 0.058767 0.255917
-0.023265 0.058793 0.255974
-0.022024 0.058742 0.255698
-0.020857 0.058896 0.256315
-0.019662 0.058985 0.256651
-0.018485 0.059145 0.257298
-0.017500 0.059982 0.260894
-0.016301 0.060163 0.261636
-0.015208 0.060796 0.264346
-0.014123 0.061575 0.267693
-0.012409 0.059500 0.258635
-0.011074 0.058979 0.256336
-0.009844 0.058960 0.256222
-0.008608 0.058895 0.255909
-0.007400 0.059028 0.256457
-0.006168 0.058992 0.256278
-0.004955 0.059167 0.257015
-0.003728 0.059221 0.257229
-0.002490 0.059082 0.256607
-0.001268 0.059417 0.258049
-0.000032 0.059723 0.259364
0.001234 0.060882 0.264389
0.002499 0.060816 0.264093
0.003846 0.062135 0.269817
0.005099 0.061654 0.267724
0.006354 0.061377 0.266525
0.007668 0.061672 0.267809
0.008894 0.061281 0.266115
0.010155 0.061193 0.265740
0.011395 0.061012 0.264967
0.012693 0.061144 0.265552
0.013948 0.061068 0.265238
0.015252 0.061201 0.265833
0.016566 0.061348 0.266493
0.017920 0.061611 0.267660
0.019268 0.061821 0.268595
0.020492 0.061631 0.267797
0.021709 0.061444 0.267014
0.022975 0.061406 0.266880
0.024001 0.060766 0.264135
0.024993 0.060108 0.261309
0.026144 0.059878 0.260345
0.027389 0.059874 0.260369
0.028457 0.059499 0.258778
0.029578 0.059263 0.257794
0.030825 0.059287 0.257941
0.032158 0.059468 0.258774
0.033456 0.059573 0.259278
0.034840 0.059818 0.260397
0.036129 0.059889 0.260755
0.037585 0.060223 0.262260
0.038895 0.060308 0.262683
0.040272 0.060488 0.263524
0.041657 0.060670 0.264371
0.042931 0.060684 0.264488
0.044155 0.060627 0.264299
0.043538 0.058118 0.253415
0.044920 0.058340 0.254439
0.046049 0.058230 0.254015
0.047230 0.058190 0.253898
0.048541 0.058307 0.254466
0.049772 0.058325 0.254603
0.051013 0.058354 0.254789
0.052213 0.058335 0.254765
0.053623 0.058547 0.255748
0.054823 0.058524 0.255708
0.055935 0.058412 0.255274
0.058314 0.059598 0.260517
0.061516 0.061559 0.269147
0.063010 0.061764 0.270104
0.064185 0.061656 0.269687
0.065628 0.061804 0.270393
0.067043 0.061920 0.270956
0.068416 0.061994 0.271335
0.069510 0.061817 0.270614
0.070693 0.061723 0.270258
0.071769 0.061542 0.269513
0.072381 0.060976 0.267082
0.073244 0.060637 0.265644
0.074473 0.060607 0.265560
0.075270 0.060233 0.263962
0.076316 0.060067 0.263272
0.077440 0.059967 0.262871
0.078507 0.059826 0.262286
0.080473 0.060364 0.264678
0.082122 0.060652 0.265967
0.083961 0.061068 0.267820
0.085690 0.061394 0.269270
0.086851 0.061308 0.268917
0.089736 0.062425 0.273832
0.096356 0.066070 0.289834
0.097599 0.065978 0.289439
0.097208 0.064799 0.284273
0.100157 0.065848 0.288874
0.101852 0.066056 0.289781
0.103597 0.066289 0.290796
0.104680 0.066099 0.289947
0.105830 0.065955 0.289297
0.107463 0.066112 0.289961
0.108680 0.066012 0.289493
0.109847 0.065885 0.288897
0.111403 0.065991 0.289322
0.112903 0.066062 0.289583
0.114578 0.066232 0.290273
0.115817 0.066149 0.289846
0.117196 0.066147 0.289768
0.118567 0.066141 0.289663
0.119787 0.066051 0.289186
0.121156 0.066044 0.289065
0.122434 0.065989 0.288723
0.123733 0.065946 0.288427
0.125157 0.065969 0.288413
0.127226 0.066329 0.289860
0.128687 0.066367 0.289891
0.130267 0.066465 0.290172
0.131868 0.066571 0.290482
0.133284 0.066583 0.290367
0.134465 0.066478 0.289734
0.136159 0.066626 0.290194
0.137644 0.066670 0.290187
0.139458 0.066871 0.290850
0.140436 0.066670 0.289756
0.142109 0.066801 0.290090
0.143621 0.066854 0.290072
0.145125 0.066902 0.290019
0.146823 0.067038 0.290332
0.148794 0.067294 0.291151
0.150634 0.067486 0.291678
0.152181 0.067546 0.291613
0.153514 0.067510 0.291119
-0.045858 0.020123 0.085672
-0.041558 0.022939 0.099088
-0.041856 0.023366 0.100954
-0.041697 0.023544 0.101744
-0.041951 0.023962 0.103572
-0.041206 0.023813 0.102943
-0.041037 0.023997 0.103754
-0.040995 0.024261 0.104905
-0.040852 0.024471 0.105822
-0.040383 0.024488 0.105904
-0.039893 0.024493 0.105930
-0.039598 0.024619 0.106479
-0.039651 0.024968 0.107989
-0.038565 0.024599 0.106393
-0.038046 0.024587 0.106337
-0.040099 0.026258 0.113563
-0.039610 0.026287 0.113683
-0.039233 0.026394 0.114134
-0.039613 0.027019 0.116827
-0.038941 0.026934 0.116448
-0.040790 0.028616 0.123704
-0.040770 0.029015 0.125416
-0.039961 0.028857 0.124714
-0.039886 0.029232 0.126317
-0.039925 0.029703 0.128331
-0.040394 0.030514 0.131810
-0.040112 0.030774 0.132908
-0.040182 0.031317 0.135225
-0.040003 0.031679 0.136761
-0.039974 0.032174 0.138870
-0.041847 0.034242 0.147761
-0.041713 0.034710 0.149747
-0.041809 0.035390 0.152640
-0.041975 0.036152 0.155891
-0.043172 0.037846 0.163152
-0.042936 0.038323 0.165167
-0.042975 0.039067 0.168326
-0.042240 0.039123 0.168522
-0.042306 0.039936 0.171977
-0.052221 0.050260 0.216377
-0.050998 0.050064 0.215471
-0.051053 0.051140 0.220036
-0.050075 0.051204 0.220246
-0.049390 0.051576 0.221780
-0.048650 0.051906 0.223136
-0.047816 0.052149 0.224112
-0.046780 0.052177 0.224164
-0.045942 0.052433 0.225195
-0.046562 0.054404 0.233591
-0.046326 0.055446 0.237992
-0.045368 0.055656 0.238821
-0.044274 0.055704 0.238955
-0.043254 0.055850 0.239513
-0.042444 0.056284 0.241299
-0.041529 0.056599 0.242579
-0.040692 0.057040 0.244395
-0.039977 0.057684 0.247083
-0.043983 0.065385 0.279988
-0.042692 0.065447 0.280173
-0.042273 0.066892 0.286280
-0.039896 0.065232 0.279098
-0.039568 0.066923 0.286252
-0.038238 0.066980 0.286420
-0.035347 0.064207 0.274490
-0.034010 0.064151 0.274180
-0.031498 0.061785 0.264001
-0.029523 0.060320 0.257676
-0.028056 0.059813 0.255448
-0.026889 0.059926 0.255871
-0.025705 0.060011 0.256173
-0.024421 0.059859 0.255470
-0.023216 0.059896 0.255570
-0.022006 0.059922 0.255631
-0.020831 0.060053 0.256138
-0.019660 0.060215 0.256777
-0.018470 0.060334 0.257239
-0.017501 0.061244 0.261070
-0.016323 0.061506 0.262146
-0.015227 0.062149 0.264845
-0.014099 0.062763 0.267418
-0.012429 0.060849 0.259227
-0.011068 0.060190 0.256388
-0.009855 0.060272 0.256704
-0.008623 0.060244 0.256557
-0.007401 0.060291 0.256728
-0.006182 0.060377 0.257071
-0.004949 0.060351 0.256935
-0.003728 0.060499 0.257546
-0.002488 0.060331 0.256815
-0.001261 0.060440 0.257265
-0.000029 0.060759 0.258608
0.001224 0.061492 0.261720
0.002510 0.062288 0.265101
0.003843 0.063332 0.269539
0.005095 0.062848 0.267475
0.006307 0.062167 0.264576
0.007634 0.062656 0.266664
0.008856 0.062266 0.265006
0.010074 0.061948 0.263660
0.011325 0.061882 0.263390
0.012560 0.061750 0.262840
0.013836 0.061827 0.263182
0.015112 0.061887 0.263456
0.016417 0.062052 0.264177
0.017746 0.062272 0.265138
0.019103 0.062556 0.266371
0.020353 0.062477 0.266061
0.021621 0.062460 0.266018
0.022852 0.062341 0.265544
0.023932 0.061846 0.263465
0.024986 0.061336 0.261329
0.026158 0.061150 0.260570
0.027283 0.060877 0.259448
0.028387 0.060582 0.258230
0.029463 0.060255 0.256875
0.030680 0.060230 0.256809
0.032071 0.060536 0.258159
0.033372 0.060654 0.258709
0.034732 0.060869 0.259673
0.036057 0.061009 0.260321
0.037546 0.061408 0.262071
0.038821 0.061441 0.262266
0.040044 0.061394 0.262115
0.041740 0.062052 0.264981
0.042984 0.062020 0.264898
0.044210 0.061963 0.264709
0.043614 0.059427 0.253930
0.044788 0.059375 0.253765
0.046021 0.059401 0.253931
0.047202 0.059362 0.253818
0.048432 0.059383 0.253964
0.049628 0.059363 0.253936
0.050977 0.059523 0.254674
0.052163 0.059489 0.254585
0.053463 0.059583 0.255046
0.054742 0.059651 0.255390
0.056131 0.059833 0.256228
0.058553 0.061085 0.261643
0.061465 0.062784 0.268981
0.062848 0.062885 0.269468
0.064261 0.063011 0.270065
0.065658 0.063115 0.270567
0.067083 0.063244 0.271171
0.068392 0.063259 0.271288
0.069595 0.063177 0.270990
0.070666 0.062981 0.270200
0.071679 0.062741 0.269217
0.072182 0.062071 0.266387
0.073259 0.061909 0.265736
0.074309 0.061730 0.265008
0.074893 0.061176 0.262670
0.075557 0.060705 0.260685
0.076724 0.060646 0.260466
0.077777 0.060501 0.259873
0.079098 0.060566 0.260178
0.080909 0.060997 0.262057
0.082759 0.061444 0.264003
0.084536 0.061825 0.265660
0.085388 0.061528 0.264400
0.088133 0.062583 0.268947
0.098032 0.067648 0.290727
0.099278 0.067554 0.290325
0.099841 0.067004 0.287961
0.101666 0.067305 0.289245
0.103311 0.067480 0.289986
0.104645 0.067450 0.289839
0.105782 0.067295 0.289151
0.107323 0.067398 0.289565
0.108687 0.067389 0.289490
0.109837 0.067248 0.288846
0.111307 0.067304 0.289042
0.112636 0.067276 0.288866
0.114068 0.067308 0.288945
0.115758 0.067490 0.289660
0.116823 0.067307 0.288803
0.118420 0.067432 0.289257
0.119753 0.067405 0.289054
0.121423 0.067566 0.289648
0.122585 0.067444 0.289023
0.123883 0.067398 0.288715
0.125878 0.067729 0.290010
0.127262 0.067727 0.289871
0.128907 0.067862 0.290311
0.130360 0.067895 0.290301
0.131657 0.067846 0.289934
0.133042 0.067843 0.289752
0.134445 0.067850 0.289600
0.135830 0.067847 0.289397
0.137367 0.067919 0.289501
0.139018 0.068046 0.289827
0.140901 0.068282 0.290605
0.142370 0.068315 0.290506
0.144025 0.068436 0.290766
0.145557 0.068496 0.290755
0.146966 0.068498 0.290482
0.148752 0.068673 0.290931
0.150705 0.068922 0.291672
0.152511 0.069099 0.292094
0.153647 0.068973 0.291216
-0.045433 0.020344 0.084834
-0.041668 0.023469 0.099336
-0.043461 0.024757 0.104811
-0.042583 0.024535 0.103896
-0.042198 0.024596 0.104172
-0.041908 0.024713 0.104687
-0.041290 0.024638 0.104387
-0.041255 0.024913 0.105565
-0.040700 0.024877 0.105423
-0.040252 0.024907 0.105557
-0.040204 0.025187 0.106752
-0.040042 0.025403 0.107671
-0.039578 0.025430 0.107789
-0.038781 0.025241 0.106989
-0.039872 0.026292 0.111443
-0.039983 0.026716 0.113236
-0.039122 0.026494 0.112288
-0.038241 0.026251 0.111253
-0.039493 0.027487 0.116482
-0.040150 0.028337 0.120074
-0.040749 0.029170 0.123588
-0.040728 0.029577 0.125298
-0.040264 0.029669 0.125673
-0.040131 0.030012 0.127107
-0.039740 0.030169 0.127753
-0.039307 0.030300 0.128283
-0.039065 0.030582 0.129457
-0.038579 0.030681 0.129850
-0.041598 0.033615 0.142237
-0.040984 0.033661 0.142404
-0.041353 0.034529 0.146046
-0.042026 0.035685 0.150900
-0.042026 0.036299 0.153463
-0.042834 0.037645 0.159115
-0.042954 0.038424 0.162367
-0.042686 0.038878 0.164242
-0.043314 0.040179 0.169695
-0.043110 0.040744 0.172036
-0.053109 0.051158 0.215950
-0.052156 0.051223 0.216166
-0.050835 0.050924 0.214842
-0.050675 0.051798 0.218470
-0.050230 0.052411 0.220993
-0.049350 0.052587 0.221671
-0.048508 0.052812 0.222555
-0.047602 0.052975 0.223178
-0.047274 0.053805 0.226607
-0.047113 0.054868 0.231015
-0.046708 0.055689 0.234403
-0.045469 0.055533 0.233677
-0.044313 0.055472 0.233351
-0.043859 0.056310 0.236808
-0.043343 0.057109 0.240099
-0.042382 0.057351 0.241044
-0.041350 0.057506 0.241627
-0.040644 0.058138 0.244210
-0.040031 0.058943 0.247523
-0.043825 0.066483 0.279105
-0.042539 0.066545 0.279289
-0.042510 0.068642 0.288011
-0.041177 0.068704 0.288190
-0.039481 0.068143 0.285761
-0.035715 0.066203 0.277481
-0.033871 0.065196 0.273190
-0.031174 0.062400 0.261411
-0.029458 0.061420 0.257240
-0.028051 0.061026 0.255532
-0.026955 0.061304 0.256634
-0.025657 0.061124 0.255826
-0.024434 0.061119 0.255747
-0.023241 0.061190 0.255988
-0.022052 0.061279 0.256309
-0.020855 0.061356 0.256581
-0.019681 0.061515 0.257198
-0.018560 0.061873 0.258647
-0.017582 0.062791 0.262439
-0.016298 0.062674 0.261907
-0.015169 0.063186 0.264004
-0.013913 0.063210 0.264067
-0.012230 0.061108 0.255248
-0.011003 0.061069 0.255052
-0.009818 0.061283 0.255915
-0.008590 0.061256 0.255774
-0.007373 0.061304 0.255947
-0.006154 0.061358 0.256149
-0.004923 0.061291 0.255848
-0.003703 0.061355 0.256097
-0.002484 0.061524 0.256786
-0.001254 0.061452 0.256469
-0.000026 0.061650 0.257283
0.001229 0.062858 0.262315
0.002503 0.063325 0.264256
0.003865 0.064956 0.271057
0.005097 0.064132 0.267615
0.006314 0.063477 0.264882
0.007605 0.063668 0.265683
0.008860 0.063547 0.265181
0.010041 0.062989 0.262859
0.011246 0.062690 0.261622
0.012517 0.062780 0.262009
0.013744 0.062654 0.261500
0.015034 0.062811 0.262170
0.016293 0.062826 0.262251
0.017565 0.062886 0.262522
0.018967 0.063370 0.264566
0.020255 0.063435 0.264865
0.021480 0.063309 0.264368
0.022839 0.063568 0.265480
0.024004 0.063289 0.264345
0.024907 0.062381 0.260586
0.026055 0.062144 0.259631
0.027231 0.061992 0.259033
0.028269 0.061554 0.257238
0.029459 0.061468 0.256922
0.030682 0.061455 0.256908
0.031920 0.061472 0.257023
0.033315 0.061780 0.258353
0.034626 0.061916 0.258965
0.035835 0.061864 0.258796
0.037270 0.062194 0.260226
0.038722 0.062530 0.261683
0.040038 0.062631 0.262157
0.041425 0.062835 0.263059
0.042964 0.063249 0.264848
0.044144 0.063127 0.264391
0.044966 0.062514 0.261879
0.045248 0.061203 0.256441
0.046321 0.061004 0.255661
0.047521 0.060977 0.255601
0.048653 0.060866 0.255190
0.049877 0.060873 0.255275
0.051168 0.060961 0.255695
0.052482 0.061070 0.256207
0.053805 0.061184 0.256741
0.055107 0.061269 0.257154
0.057159 0.062168 0.260981
0.059144 0.062956 0.264343
0.061295 0.063884 0.268295
0.062779 0.064093 0.269227
0.064136 0.064167 0.269591
0.065518 0.064262 0.270044
0.066999 0.064449 0.270879
0.068401 0.064554 0.271371
0.069600 0.064467 0.271056
0.070699 0.064293 0.270370
0.071710 0.064046 0.269376
0.072489 0.063604 0.267560
0.073395 0.063286 0.266263
0.074657 0.063281 0.266284
0.075301 0.062762 0.264134
0.075767 0.062113 0.261437
0.076763 0.061912 0.260624
0.077899 0.061829 0.260302
0.078773 0.061544 0.259127
0.080391 0.061840 0.260399
0.082220 0.062286 0.262298
0.083734 0.062485 0.263151
0.084358 0.062023 0.261218
0.087006 0.063041 0.265517
0.098284 0.069202 0.291477
0.099535 0.069107 0.291075
0.099304 0.068000 0.286408
0.101937 0.068858 0.290009
0.103364 0.068889 0.290124
0.104594 0.068789 0.289682
0.105809 0.068683 0.289208
0.107336 0.068778 0.289578
0.108661 0.068744 0.289396
0.110836 0.069241 0.291444
0.112035 0.069124 0.290903
0.113190 0.068983 0.290251
0.114669 0.069040 0.290429
0.115887 0.068940 0.289940
0.117226 0.068914 0.289753
0.118629 0.068926 0.289719
0.119821 0.068816 0.289166
0.121020 0.068712 0.288630
0.122526 0.068784 0.288821
0.123787 0.068717 0.288426
0.124984 0.068617 0.287881
0.126365 0.068619 0.287754
0.127990 0.068751 0.288168
0.130418 0.069308 0.290349
0.131916 0.069364 0.290418
0.133124 0.069268 0.289840
0.134506 0.069263 0.289635
0.136049 0.069340 0.289763
0.137539 0.069389 0.289759
0.139002 0.069423 0.289683
0.141038 0.069740 0.290773
0.142250 0.069647 0.290141
0.143639 0.069642 0.289861
0.145065 0.069655 0.289642
0.146672 0.069752 0.289764
0.148669 0.070033 0.290626
0.150643 0.070296 0.291403
0.152486 0.070495 0.291891
0.154032 0.070554 0.291784
-0.045373 0.020723 0.084678
-0.043515 0.025000 0.103724
-0.043087 0.025034 0.103894
-0.042485 0.024968 0.103643
-0.042131 0.025047 0.103993
-0.041938 0.025226 0.104754
-0.041358 0.025172 0.104549
-0.040971 0.025237 0.104829
-0.040672 0.025357 0.105343
-0.040414 0.025507 0.105976
-0.039361 0.025153 0.104511
-0.040972 0.026513 0.110170
-0.040173 0.026329 0.109407
-0.038404 0.025496 0.105948
-0.040323 0.027122 0.112703
-0.039883 0.027183 0.112957
-0.039275 0.027130 0.112731
-0.039931 0.027960 0.116177
-0.039757 0.028224 0.117266
-0.040288 0.029003 0.120493
-0.040510 0.029579 0.122875
-0.040578 0.030057 0.124847
-0.039857 0.029957 0.124417
-0.040117 0.030602 0.127077
-0.039953 0.030938 0.128453
-0.039511 0.031066 0.128964
-0.039752 0.031743 0.131753
-0.040372 0.032749 0.135904
-0.041145 0.033913 0.140710
-0.041029 0.034372 0.142583
-0.040852 0.034793 0.144300
-0.040986 0.035498 0.147192
-0.042711 0.037629 0.155996
-0.043096 0.038634 0.160124
-0.042415 0.038701 0.160366
-0.042327 0.039322 0.162899
-0.051604 0.048827 0.202223
-0.050715 0.048890 0.202433
-0.050735 0.049849 0.206348
-0.051779 0.051871 0.214662
-0.051327 0.052445 0.216979
-0.051286 0.053472 0.221168
-0.050639 0.053896 0.222858
-0.049285 0.053569 0.221447
-0.048427 0.053779 0.222252
-0.048141 0.054649 0.225782
-0.048422 0.056215 0.232186
-0.047696 0.056658 0.233951
-0.046646 0.056729 0.234177
-0.045311 0.056447 0.232945
-0.044265 0.056521 0.233184
-0.044057 0.057696 0.237964
-0.043456 0.058405 0.240819
-0.042172 0.058210 0.239944
-0.041176 0.058411 0.240706
-0.040458 0.059032 0.243195
-0.039796 0.059771 0.246172
-0.044111 0.068257 0.281045
-0.042816 0.068321 0.281230
-0.042359 0.069769 0.287113
-0.040007 0.068090 0.280128
-0.039422 0.069405 0.285465
-0.035661 0.067428 0.277192
-0.034306 0.067357 0.276831
-0.033013 0.067409 0.276976
-0.029447 0.062628 0.257272
-0.028011 0.062162 0.255297
-0.026921 0.062454 0.256438
-0.025679 0.062406 0.256182
-0.024438 0.062355 0.255918
-0.023248 0.062437 0.256202
-0.022055 0.062519 0.256488
-0.020842 0.062552 0.256575
-0.019719 0.062873 0.257844
-0.018552 0.063090 0.258688
-0.017529 0.063863 0.261813
-0.016249 0.063745 0.261285
-0.015190 0.064545 0.264524
-0.013932 0.064570 0.264588
-0.012166 0.062014 0.254081
-0.010941 0.061953 0.253795
-0.009717 0.061881 0.253472
-0.008530 0.062058 0.254170
-0.007300 0.061936 0.253641
-0.006076 0.061819 0.253139
-0.004850 0.061616 0.252287
-0.003666 0.061997 0.253830
-0.002455 0.062072 0.254120
-0.001251 0.062685 0.256615
-0.000024 0.063006 0.257917
0.001238 0.064440 0.263775
0.002528 0.065161 0.266720
0.003862 0.066151 0.270767
0.005082 0.065182 0.266799
0.006296 0.064537 0.264157
0.007516 0.064160 0.262616
0.008774 0.064165 0.262639
0.010002 0.063981 0.261893
0.011167 0.063478 0.259844
0.012420 0.063525 0.260048
0.013693 0.063654 0.260591
0.014948 0.063689 0.260751
0.016207 0.063732 0.260946
0.017493 0.063868 0.261521
0.018871 0.064297 0.263301
0.020163 0.064399 0.263742
0.021442 0.064451 0.263984
0.022914 0.065042 0.266432
0.024154 0.064949 0.266082
0.024989 0.063830 0.261531
0.026077 0.063434 0.259940
0.027202 0.063158 0.258847
0.028245 0.062724 0.257106
0.029458 0.062689 0.256998
0.030689 0.062692 0.257050
0.031949 0.062752 0.257341
0.033293 0.062969 0.258270
0.034542 0.062994 0.258421
0.035879 0.063173 0.259198
0.037310 0.063500 0.260587
0.038844 0.063975 0.262586
0.040225 0.064176 0.263460
0.041623 0.064392 0.264398
0.042989 0.064546 0.265082
0.044489 0.064888 0.266537
0.045836 0.064993 0.267023
0.047161 0.065061 0.267357
0.048498 0.065143 0.267748
0.050043 0.065492 0.269238
0.051299 0.065455 0.269141
0.052527 0.065385 0.268910
0.053705 0.065258 0.268439
0.054898 0.065154 0.268067
0.056089 0.065052 0.267702
0.057259 0.064932 0.267263
0.058621 0.065028 0.267714
0.059914 0.065046 0.267840
0.061363 0.065230 0.268651
0.062795 0.065387 0.269351
0.064043 0.065351 0.269252
0.065461 0.065486 0.269858
0.066919 0.065656 0.270607
0.068281 0.065725 0.270941
0.069463 0.065623 0.270565
0.070724 0.065598 0.270507
0.071637 0.065256 0.269140
0.072666 0.065030 0.268248
0.073678 0.064797 0.267325
0.074586 0.064481 0.266060
0.075286 0.064000 0.264109
0.075543 0.063163 0.260687
0.076467 0.062903 0.259641
0.077473 0.062717 0.258901
0.078139 0.062266 0.257061
0.079705 0.062535 0.258190
0.081321 0.062834 0.259445
0.083138 0.063277 0.261287
0.083712 0.062776 0.259227
0.085737 0.063360 0.261648
0.095567 0.069613 0.287475
0.096803 0.069519 0.287084
0.100743 0.071341 0.294604
0.099862 0.069746 0.288009
0.102005 0.070278 0.290193
0.103396 0.070284 0.290199
0.104614 0.070175 0.289722
0.105848 0.070078 0.289294
0.107387 0.070184 0.289694
0.108930 0.070289 0.290086
0.110210 0.070223 0.289769
0.111771 0.070337 0.290183
0.112813 0.070125 0.289248
0.114255 0.070163 0.289339
0.115679 0.070189 0.289374
0.116841 0.070058 0.288754
0.118264 0.070085 0.288775
0.119895 0.070232 0.289286
0.121137 0.070151 0.288850
0.122855 0.070344 0.289531
0.124814 0.070670 0.290750
0.126393 0.070775 0.291052
0.127734 0.070746 0.290795
0.128961 0.070655 0.290273
0.130437 0.070701 0.290303
0.131852 0.070714 0.290187
0.133324 0.070756 0.290180
0.134505 0.070644 0.289532
0.136107 0.070754 0.289780
0.138070 0.071047 0.290768
0.139822 0.071226 0.291277
0.141244 0.071236 0.291077
0.142312 0.071068 0.290143
0.143968 0.071194 0.290393
0.146300 0.071649 0.291969
0.147656 0.071622 0.291565
0.149203 0.071687 0.291521
0.150836 0.071791 0.291623
0.152557 0.071935 0.291865
0.154145 0.072014 0.291830
-0.045731 0.021296 0.085300
-0.045381 0.021323 0.085507
-0.043939 0.025738 0.104717
-0.043506 0.025773 0.104889
-0.042882 0.025696 0.104598
-0.042463 0.025740 0.104800
-0.041986 0.025750 0.104862
-0.041420 0.025704 0.104694
-0.042589 0.026748 0.108961
-0.042049 0.026731 0.108905
-0.041548 0.026738 0.108945
-0.041585 0.027095 0.110412
-0.040934 0.027008 0.110064
-0.040641 0.027158 0.110679
-0.038837 0.026289 0.107140
-0.039521 0.028607 0.116575
-0.039534 0.029019 0.118246
-0.039633 0.029506 0.120222
-0.040991 0.030959 0.126129
-0.040257 0.030851 0.125676
-0.039725 0.030897 0.125847
-0.039693 0.031340 0.127633
-0.040796 0.032706 0.133176
-0.040428 0.032916 0.134012
-0.040393 0.033409 0.135995
-0.040473 0.034014 0.138434
-0.040421 0.034527 0.140494
-0.041409 0.035959 0.146294
-0.042986 0.037961 0.154407
-0.042315 0.038012 0.154580
-0.041777 0.038186 0.155255
-0.041775 0.038865 0.157978
-0.041312 0.039133 0.159029
-0.052040 0.050206 0.203982
-0.051143 0.050271 0.204193
-0.051127 0.051220 0.207997
-0.052452 0.053576 0.217509
-0.051507 0.053662 0.217801
-0.051544 0.054795 0.222340
-0.050149 0.054421 0.220766
-0.049579 0.054946 0.222834
-0.049361 0.055892 0.226610
-0.049279 0.057038 0.231192
-0.048156 0.057003 0.230986
-0.047022 0.056954 0.230722
-0.045991 0.057030 0.230965
-0.045000 0.057162 0.231434
-0.044099 0.057415 0.232393
-0.044152 0.058957 0.238568
-0.043339 0.059393 0.240265
-0.042240 0.059449 0.240427
-0.041089 0.059433 0.240295
-0.040280 0.059926 0.242222
-0.039798 0.060948 0.246286
-0.044146 0.071827 0.290089
-0.041190 0.069177 0.279314
-0.039810 0.069085 0.278872
-0.039263 0.070483 0.284440
-0.037942 0.070542 0.284605
-0.035748 0.068922 0.278001
-0.034256 0.068582 0.276561
-0.031269 0.065103 0.262472
-0.029426 0.063815 0.257218
-0.028084 0.063551 0.256094
-0.026961 0.063778 0.256952
-0.025700 0.063687 0.256532
-0.024451 0.063618 0.256200
-0.023236 0.063634 0.256212
-0.022060 0.063766 0.256693
-0.020831 0.063750 0.256578
-0.019677 0.063977 0.257445
-0.018541 0.064295 0.258681
-0.017447 0.064818 0.260743
-0.016302 0.065214 0.262292
-0.015189 0.065819 0.264686
-0.014017 0.066252 0.266388
-0.012211 0.063474 0.255183
-0.010960 0.063291 0.254418
-0.009731 0.063203 0.254031
-0.008534 0.063325 0.254494
-0.007314 0.063292 0.254336
-0.006088 0.063178 0.253856
-0.004847 0.062820 0.252395
-0.003648 0.062946 0.252882
-0.002445 0.063107 0.253513
-0.001234 0.063171 0.253757
-0.000021 0.064468 0.258955
0.001255 0.066468 0.266980
0.002517 0.066074 0.265389
0.003803 0.066372 0.266578
0.005063 0.066173 0.265775
0.006252 0.065308 0.262303
0.007527 0.065487 0.263024
0.008733 0.065096 0.261458
0.009952 0.064886 0.260619
0.011125 0.064458 0.258909
0.012387 0.064582 0.259420
0.013637 0.064626 0.259609
0.014924 0.064819 0.260400
0.016205 0.064962 0.260991
0.017480 0.065059 0.261400
0.018872 0.065550 0.263394
0.020207 0.065795 0.264405
0.021407 0.065597 0.263634
0.023050 0.066702 0.268101
0.024196 0.066328 0.266629
0.025012 0.065132 0.261853
0.025870 0.064156 0.257962
0.027152 0.064270 0.258456
0.028260 0.063979 0.257322
0.029432 0.063855 0.256858
0.030624 0.063779 0.256590
0.031895 0.063868 0.256990
0.033171 0.063960 0.257399
0.034379 0.063919 0.257280
0.035576 0.063861 0.257089
0.036910 0.064044 0.257871
0.038954 0.065407 0.263408
0.040781 0.066333 0.267182
0.042096 0.066395 0.267481
0.043367 0.066385 0.267491
0.044515 0.066193 0.266770
0.045939 0.066411 0.267700
0.047269 0.066485 0.268049
0.048434 0.066328 0.267469
0.049977 0.066684 0.268958
0.051232 0.066647 0.268861
0.052459 0.066576 0.268631
0.053636 0.066447 0.268161
0.054828 0.066342 0.267790
0.056071 0.066301 0.267679
0.057314 0.066263 0.267578
0.058624 0.066302 0.267786
0.059876 0.066276 0.267731
0.061464 0.066613 0.269144
0.062952 0.066831 0.270076
0.064052 0.066638 0.269342
0.065522 0.066828 0.270159
0.066965 0.066984 0.270838
0.068325 0.067053 0.271161
0.069685 0.067119 0.271474
0.071066 0.067202 0.271852
0.072084 0.066946 0.270856
0.072913 0.066526 0.269195
0.073860 0.066227 0.268019
0.074574 0.065731 0.266048
0.074817 0.064844 0.262489
0.075386 0.064265 0.260171
0.075986 0.063729 0.258029
0.076558 0.063188 0.255862
0.077696 0.063123 0.255619
0.078680 0.062937 0.254884
0.079818 0.062878 0.254659
0.081397 0.063163 0.255824
0.082694 0.063225 0.256081
0.083895 0.063211 0.256029
0.085170 0.063253 0.256201
0.096275 0.070491 0.285514
0.099010 0.071485 0.289532
0.100345 0.071454 0.289393
0.101970 0.071628 0.290079
0.103458 0.071702 0.290357
0.104534 0.071492 0.289480
0.105911 0.071491 0.289442
0.107361 0.071539 0.289596
0.108884 0.071633 0.289933
0.110337 0.071679 0.290068
0.111538 0.071563 0.289539
0.113119 0.071690 0.289992
0.114353 0.071597 0.289543
0.115643 0.071540 0.289238
0.117103 0.071589 0.289348
0.119321 0.072094 0.291300
0.120532 0.071987 0.290764
0.121451 0.071709 0.289534
0.123493 0.072093 0.290967
0.124773 0.072028 0.290581
0.126226 0.072064 0.290592
0.127650 0.072082 0.290521
0.128983 0.072050 0.290237
0.130484 0.072110 0.290318
0.131739 0.072035 0.289842
0.133111 0.072025 0.289617
0.134570 0.072061 0.289568
0.136808 0.072509 0.291163
0.137878 0.072336 0.290248
0.139390 0.072395 0.290256
0.140973 0.072490 0.290393
0.142331 0.072468 0.290049
0.143815 0.072510 0.289949
0.145099 0.072451 0.289432
0.146888 0.072643 0.289900
0.148907 0.072944 0.290788
0.150654 0.073108 0.291110
0.152719 0.073420 0.292008
0.154102 0.073402 0.291573
-0.045485 0.021589 0.084792
-0.041728 0.024913 0.099431
-0.042833 0.025863 0.103251
-0.043001 0.026263 0.104873
-0.042603 0.026321 0.105132
-0.041846 0.026158 0.104500
-0.041827 0.026456 0.105712
-0.042017 0.026896 0.107488
-0.041879 0.027134 0.108455
-0.041356 0.027125 0.108432
-0.041219 0.027373 0.109433
-0.040842 0.027466 0.109813
-0.040309 0.027454 0.109771
-0.039723 0.027406 0.109583
-0.039406 0.029073 0.116242
-0.039992 0.029920 0.119622
-0.041333 0.031365 0.125389
-0.040800 0.031408 0.125552
-0.040118 0.031337 0.125254
-0.039920 0.031647 0.126479
-0.041005 0.032998 0.131864
-0.040934 0.033448 0.133641
-0.041535 0.034468 0.137698
-0.040211 0.033898 0.135401
-0.040599 0.034777 0.138888
-0.040536 0.035291 0.140916
-0.040629 0.035961 0.143564
-0.040687 0.036622 0.146174
-0.042203 0.038641 0.154202
-0.041794 0.038936 0.155347
-0.041454 0.039309 0.156800
-0.041261 0.039837 0.158868
-0.053219 0.052332 0.208650
-0.052301 0.052398 0.208865
-0.052237 0.053339 0.212565
-0.052130 0.054273 0.216232
-0.051404 0.054586 0.217425
-0.050700 0.054936 0.218764
-0.050964 0.056371 0.224421
-0.050769 0.057349 0.228254
-0.049921 0.057615 0.229250
-0.048826 0.057602 0.229139
-0.047826 0.057704 0.229482
-0.046864 0.057856 0.230027
-0.045811 0.057902 0.230145
-0.044813 0.058020 0.230552
-0.043897 0.058253 0.231414
-0.043109 0.058673 0.233019
-0.043389 0.060606 0.240632
-0.042322 0.060711 0.240985
-0.041148 0.060665 0.240735
-0.040356 0.061196 0.242777
-0.039794 0.062116 0.246363
-0.045414 0.073035 0.289591
-0.044080 0.073102 0.289781
-0.041569 0.071159 0.282007
-0.040141 0.071003 0.281318
-0.039368 0.072035 0.285333
-0.038043 0.072094 0.285498
-0.035667 0.070092 0.277500
-0.034042 0.069469 0.274969
-0.032759 0.069521 0.275111
-0.029510 0.065234 0.258086
-0.028148 0.064925 0.256807
-0.026985 0.065068 0.257318
-0.025689 0.064890 0.256558
-0.024462 0.064877 0.256454
-0.023234 0.064858 0.256329
-0.022018 0.064873 0.256340
-0.020840 0.065012 0.256842
-0.019664 0.065171 0.257423
-0.018503 0.065408 0.258313
-0.017478 0.066191 0.261364
-0.016401 0.066883 0.264053
-0.015132 0.066842 0.263856
-0.013993 0.067419 0.266096
-0.012769 0.067664 0.267027
-0.011349 0.066812 0.263631
-0.010106 0.066912 0.263995
-0.009040 0.068389 0.269792
-0.007635 0.067359 0.265702
-0.006393 0.067653 0.266840
-0.005180 0.068459 0.269997
-0.003853 0.067818 0.267450
-0.002596 0.068367 0.269597
-0.001300 0.067964 0.267991
-0.000019 0.068210 0.268950
0.001269 0.068343 0.269465
0.002529 0.067601 0.266528
0.003845 0.068345 0.269458
0.005092 0.067788 0.267258
0.006264 0.066661 0.262815
0.007513 0.066596 0.262560
0.008735 0.066337 0.261543
0.009941 0.066042 0.260384
0.011114 0.065618 0.258721
0.012332 0.065518 0.258338
0.013587 0.065612 0.258719
0.014844 0.065696 0.259069
0.016122 0.065860 0.259731
0.017422 0.066077 0.260605
0.018890 0.066863 0.263725
0.020218 0.067085 0.264623
0.021350 0.066670 0.263011
0.023167 0.068319 0.269543
0.024443 0.068285 0.269439
0.024771 0.065737 0.259417
0.025716 0.064991 0.256502
0.027040 0.065228 0.257472
0.028131 0.064906 0.256234
0.029450 0.065114 0.257093
0.030663 0.065081 0.256999
0.031934 0.065169 0.257384
0.033162 0.065166 0.257414
0.034388 0.065159 0.257428
0.035605 0.065135 0.257376
0.036731 0.064954 0.256703
0.038493 0.065871 0.260373
0.040544 0.067209 0.265709
0.041712 0.067048 0.265118
0.042873 0.066885 0.264521
0.044254 0.067065 0.265282
0.045601 0.067184 0.265804
0.046824 0.067119 0.265596
0.048065 0.067082 0.265499
0.049370 0.067134 0.265756
0.050758 0.067295 0.266443
0.052046 0.067316 0.266579
0.053283 0.067273 0.266459
0.054459 0.067158 0.266052
0.055775 0.067215 0.266328
0.057191 0.067388 0.267064
0.058561 0.067500 0.267556
0.059950 0.067628 0.268114
0.061507 0.067937 0.269388
0.062907 0.068064 0.269938
0.064155 0.068023 0.269824
0.065520 0.068106 0.270198
0.066947 0.068249 0.270810
0.068380 0.068393 0.271424
0.069822 0.068540 0.272047
0.071345 0.068759 0.272959
0.072631 0.068747 0.272948
0.073251 0.068116 0.270477
0.074010 0.067633 0.268593
0.075139 0.067499 0.268092
0.075540 0.066726 0.265052
0.075607 0.065689 0.260957
0.076374 0.065283 0.259366
0.077327 0.065046 0.258449
0.078254 0.064796 0.257470
0.079323 0.064668 0.256979
0.080677 0.064774 0.257409
0.082063 0.064901 0.257924
0.083106 0.064758 0.257358
0.084635 0.064992 0.258290
0.085897 0.065016 0.258384
0.096463 0.071983 0.286067
0.097979 0.072097 0.286507
0.100477 0.072920 0.289763
0.102037 0.073049 0.290255
0.103567 0.073154 0.290646
0.104648 0.072943 0.289773
0.105965 0.072899 0.289563
0.107407 0.072942 0.289691
0.108612 0.072824 0.289175
0.110065 0.072874 0.289318
0.111450 0.072878 0.289271
0.112530 0.072685 0.288437
0.114071 0.072790 0.288781
0.115577 0.072870 0.289019
0.117035 0.072919 0.289124
0.118597 0.073031 0.289470
0.120218 0.073176 0.289940
0.121524 0.073128 0.289639
0.123356 0.073394 0.290572
0.124617 0.073318 0.290142
0.126015 0.073324 0.290024
0.127748 0.073522 0.290660
0.129200 0.073556 0.290635
0.130516 0.073511 0.290293
0.131927 0.073522 0.290156
0.133463 0.073600 0.290277
0.134754 0.073544 0.289855
0.136371 0.073664 0.290118
0.138029 0.073805 0.290447
0.139230 0.073699 0.289798
0.140867 0.073825 0.290044
0.142421 0.073905 0.290098
0.143740 0.073862 0.289656
0.145432 0.074011 0.289947
0.147283 0.074236 0.290527
0.149657 0.074718 0.292092
0.151098 0.074730 0.291800
0.152568 0.074755 0.291546
0.154447 0.074979 0.292047
-0.045476 0.021992 0.084726
-0.045272 0.022091 0.085208
-0.042663 0.025952 0.101640
-0.042259 0.025998 0.101851
-0.042996 0.026755 0.104845
-0.042024 0.026454 0.103688
-0.041288 0.026296 0.103091
-0.041778 0.026924 0.105578
-0.041124 0.026822 0.105194
-0.040780 0.026921 0.105599
-0.040903 0.027335 0.107237
-0.040170 0.027180 0.106642
-0.040796 0.027952 0.109682
-0.040772 0.028294 0.111028
-0.041135 0.028916 0.113477
-0.040382 0.030355 0.119123
-0.039877 0.030397 0.119282
-0.040140 0.031034 0.121775
-0.041880 0.032848 0.128882
-0.041259 0.032837 0.128827
-0.041375 0.033420 0.131101
-0.041037 0.033648 0.131980
-0.040669 0.033858 0.132790
-0.040489 0.034234 0.134247
-0.040339 0.034648 0.135850
-0.039915 0.034837 0.136566
-0.040343 0.035787 0.140268
-0.041147 0.037108 0.145419
-0.042878 0.039323 0.154074
-0.042208 0.039375 0.154246
-0.041492 0.039386 0.154258
-0.041403 0.040002 0.156639
-0.053972 0.053093 0.207853
-0.052602 0.052702 0.206278
-0.053443 0.054554 0.213477
-0.052909 0.055046 0.215354
-0.052169 0.055339 0.216447
-0.050780 0.054942 0.214843
-0.052142 0.057565 0.225045
-0.051691 0.058255 0.227685
-0.050500 0.058122 0.227110
-0.049169 0.057819 0.225867
-0.048323 0.058086 0.226849
-0.047500 0.058392 0.227988
-0.046459 0.058440 0.228112
-0.045409 0.058477 0.228199
-0.044594 0.058827 0.229503
-0.043818 0.059247 0.231080
-0.043077 0.059737 0.232931
-0.042911 0.061071 0.238070
-0.042370 0.061930 0.241353
-0.041284 0.062017 0.241631
-0.040264 0.062211 0.242320
-0.039470 0.062776 0.244459
-0.045167 0.074012 0.288140
-0.043190 0.072981 0.284055
-0.041882 0.073051 0.284256
-0.040334 0.072695 0.282799
-0.038128 0.071085 0.276468
-0.036988 0.071421 0.277707
-0.035697 0.071477 0.277861
-0.034628 0.072003 0.279838
-0.031483 0.068079 0.264529
-0.029680 0.066851 0.259699
-0.028106 0.066055 0.256551
-0.026926 0.066155 0.256883
-0.025710 0.066173 0.256902
-0.024423 0.066001 0.256182
-0.023212 0.066025 0.256225
-0.022027 0.066132 0.256591
-0.020813 0.066160 0.256653
-0.019646 0.066346 0.257331
-0.018521 0.066715 0.258718
-0.017542 0.067695 0.262476
-0.016341 0.067904 0.263244
-0.015114 0.068033 0.263706
-0.013967 0.068576 0.265775
-0.012746 0.068831 0.266729
-0.011511 0.069060 0.267585
-0.010283 0.069389 0.268827
-0.009023 0.069568 0.269491
-0.007715 0.069378 0.268731
-0.006439 0.069455 0.269007
-0.005168 0.069639 0.269695
-0.003875 0.069543 0.269302
-0.002589 0.069545 0.269296
-0.001301 0.069438 0.268866
-0.000016 0.069494 0.269071
0.001270 0.069527 0.269187
0.002525 0.068675 0.265879
0.003844 0.069559 0.269298
0.005097 0.069091 0.267482
0.006243 0.067663 0.261953
0.007469 0.067431 0.261055
0.008672 0.067082 0.259708
0.009898 0.066975 0.259301
0.011065 0.066545 0.257642
0.012303 0.066576 0.257772
0.013574 0.066769 0.258531
0.014835 0.066884 0.258990
0.016100 0.066996 0.259441
0.017428 0.067335 0.260772
0.018850 0.067970 0.263250
0.020227 0.068370 0.264822
0.021374 0.067993 0.263387
0.023317 0.070048 0.271372
0.024601 0.070013 0.271267
0.024651 0.066644 0.258241
0.025646 0.066030 0.255890
0.026895 0.066092 0.256166
0.028160 0.066190 0.256576
0.029343 0.066094 0.256240
0.030614 0.066196 0.256673
0.031829 0.066173 0.256621
0.033035 0.066133 0.256504
0.034389 0.066382 0.257510
0.035445 0.066059 0.256296
0.036696 0.066110 0.256535
0.037980 0.066213 0.256979
0.040488 0.068376 0.265420
0.041526 0.068003 0.264015
0.042490 0.067532 0.262232
0.043753 0.067550 0.262349
0.045099 0.067692 0.262947
0.046231 0.067514 0.262302
0.047322 0.067286 0.261467
0.048650 0.067398 0.261948
0.049910 0.067413 0.262054
0.051317 0.067621 0.262911
0.052512 0.067546 0.262667
0.053832 0.067632 0.263048
0.055109 0.067660 0.263205
0.056436 0.067748 0.263595
0.058137 0.068271 0.265677
0.059713 0.068627 0.267107
0.061462 0.069164 0.269244
0.062911 0.069347 0.270003
0.064210 0.069362 0.270104
0.065567 0.069437 0.270439
0.066987 0.069574 0.271015
0.068350 0.069649 0.271346
0.069829 0.069835 0.272113
0.071419 0.070125 0.273279
0.072526 0.069939 0.272589
0.073365 0.069504 0.270927
0.074343 0.069214 0.269829
0.074927 0.068574 0.267362
0.074541 0.067082 0.261571
0.075025 0.066408 0.258966
0.075939 0.066132 0.257907
0.076689 0.065723 0.256332
0.077842 0.065667 0.256127
0.079032 0.065643 0.256047
0.080444 0.065801 0.256672
0.082103 0.066154 0.258054
0.083192 0.066044 0.257627
0.084951 0.066461 0.259252
0.086071 0.066374 0.258905
0.098426 0.074830 0.291880
0.099683 0.074731 0.291478
0.099938 0.073894 0.288194
0.101541 0.074062 0.288825
0.103142 0.074225 0.289431
0.104425 0.074157 0.289131
0.105694 0.074081 0.288796
0.107067 0.074079 0.288740
0.108651 0.074222 0.289244
0.109830 0.074087 0.288659
0.111155 0.074052 0.288461
0.112721 0.074178 0.288879
0.113938 0.074073 0.288393
0.115486 0.074184 0.288738
0.117135 0.074355 0.289313
0.118689 0.074463 0.289632
0.120140 0.074505 0.289685
0.121541 0.074515 0.289607
0.123179 0.074668 0.290078
0.124458 0.074603 0.289690
0.125929 0.074653 0.289741
0.127449 0.074730 0.289888
0.128825 0.074723 0.289697
0.130391 0.074823 0.289916
0.131727 0.074792 0.289611
0.133192 0.074834 0.289580
0.134716 0.074907 0.289659
0.136193 0.074953 0.289621
0.137824 0.075082 0.289890
0.139440 0.075200 0.290104
0.141036 0.075305 0.290256
0.142564 0.075371 0.290246
0.144000 0.075389 0.290031
0.145365 0.075369 0.289661
0.148207 0.076108 0.292188
0.149736 0.076165 0.292079
0.151077 0.076126 0.291585
0.152609 0.076183 0.291443
0.154195 0.076265 0.291382
-0.045758 0.022539 0.085200
-0.042429 0.026288 0.101064
-0.042933 0.026902 0.103455
-0.042930 0.027209 0.104665
-0.042682 0.027366 0.105298
-0.041905 0.027183 0.104618
-0.041529 0.027260 0.104935
-0.041136 0.027326 0.105211
-0.040974 0.027550 0.106092
-0.041227 0.028062 0.108077
-0.040447 0.027875 0.107369
-0.039997 0.027913 0.107527
-0.041217 0.029133 0.112235
-0.041089 0.029419 0.113344
-0.039941 0.030162 0.116218
-0.040308 0.030861 0.118910
-0.041196 0.031984 0.123233
-0.041563 0.032730 0.126098
-0.041160 0.032882 0.126676
-0.041201 0.033398 0.128654
-0.041157 0.033860 0.130421
-0.041044 0.034277 0.132016
-0.040861 0.034649 0.133432
-0.040528 0.034903 0.134394
-0.039998 0.034992 0.134719
-0.039994 0.035553 0.136857
-0.039779 0.035940 0.138326
-0.040959 0.037622 0.144776
-0.040626 0.037948 0.146005
-0.042156 0.040056 0.154085
-0.053904 0.054009 0.207635
-0.053759 0.054859 0.210862
-0.053497 0.055621 0.213742
-0.052751 0.055899 0.214763
-0.052029 0.056214 0.215923
-0.053157 0.058580 0.224959
-0.052236 0.058739 0.225516
-0.051074 0.058627 0.225032
-0.049837 0.058424 0.224195
-0.048938 0.058615 0.224873
-0.048022 0.058795 0.225509
-0.047044 0.058905 0.225871
-0.046083 0.059042 0.226341
-0.045269 0.059379 0.227573
-0.044305 0.059530 0.228096
-0.043485 0.059888 0.229408
-0.042734 0.060361 0.231159
-0.042278 0.061287 0.234644
-0.041817 0.062255 0.238291
-0.040958 0.062669 0.239814
-0.039923 0.062830 0.240367
-0.046422 0.075203 0.287631
-0.045099 0.075272 0.287824
-0.043090 0.074164 0.283517
-0.041687 0.074062 0.283057
-0.040056 0.073535 0.280975
-0.039548 0.075104 0.286900
-0.038217 0.075164 0.287064
-0.035771 0.072958 0.278572
-0.034191 0.072415 0.276438
-0.032902 0.072469 0.276580
-0.029571 0.067844 0.258873
-0.028133 0.067349 0.256930
-0.026971 0.067498 0.257444
-0.025681 0.067328 0.256746
-0.024425 0.067235 0.256338
-0.023197 0.067210 0.256197
-0.022004 0.067295 0.256471
-0.020796 0.067336 0.256582
-0.019638 0.067556 0.257376
-0.018498 0.067873 0.258542
-0.017533 0.068922 0.262498
-0.016267 0.068859 0.262219
-0.015089 0.069190 0.263439
-0.013936 0.069707 0.265373
-0.012725 0.070004 0.266470
-0.011440 0.069919 0.266113
-0.010247 0.070442 0.268076
-0.008988 0.070605 0.268667
-0.007722 0.070749 0.269188
-0.006468 0.071085 0.270444
-0.005207 0.071495 0.271982
-0.003915 0.071611 0.272404
-0.002611 0.071529 0.272074
-0.001317 0.071765 0.272955
-0.000013 0.071599 0.272311
0.001285 0.071502 0.271932
0.002523 0.069814 0.265504
0.003881 0.071471 0.271802
0.005153 0.071107 0.270412
0.006241 0.068853 0.261840
0.007451 0.068482 0.260431
0.008636 0.068019 0.258672
0.009880 0.068070 0.258873
0.011068 0.067772 0.257745
0.012312 0.067845 0.258031
0.013556 0.067897 0.258243
0.014817 0.068026 0.258746
0.015981 0.067720 0.257595
0.017213 0.067724 0.257629
0.018732 0.068782 0.261671
0.020184 0.069476 0.264334
0.021386 0.069282 0.263618
0.023282 0.071229 0.271054
0.024565 0.071194 0.270950
0.024578 0.067667 0.257553
0.025504 0.066869 0.254545
0.026709 0.066844 0.254479
0.027906 0.066800 0.254345
0.029113 0.066783 0.254310
0.030310 0.066745 0.254201
0.031574 0.066851 0.254642
0.032756 0.066783 0.254420
0.033983 0.066808 0.254551
0.035286 0.066975 0.255227
0.036491 0.066950 0.255171
0.037807 0.067126 0.255883
0.040417 0.069514 0.265030
0.041647 0.069456 0.264855
0.042562 0.068893 0.262751
0.043775 0.068830 0.262557
0.044881 0.068606 0.261745
0.046008 0.068426 0.261103
0.047117 0.068230 0.260401
0.048238 0.068060 0.259796
0.049627 0.068267 0.260633
0.050971 0.068403 0.261199
0.052253 0.068452 0.261432
0.053491 0.068442 0.261439
0.054727 0.068431 0.261440
0.056015 0.068482 0.261681
0.057596 0.068882 0.263254
0.059362 0.069482 0.265589
0.061138 0.070068 0.267873
0.062687 0.070375 0.269090
0.064062 0.070479 0.269527
0.065467 0.070610 0.270070
0.066883 0.070748 0.270637
0.068283 0.070865 0.271121
0.069741 0.071035 0.271809
0.071274 0.071275 0.272760
0.072710 0.071410 0.273311
0.073658 0.071070 0.272042
0.074647 0.070780 0.270960
0.075298 0.070186 0.268710
0.074276 0.068077 0.260660
0.075296 0.067878 0.259920
0.076126 0.067518 0.258558
0.076597 0.066856 0.256036
0.077733 0.066785 0.255777
0.078947 0.066783 0.255778
0.080070 0.066705 0.255483
0.081401 0.066800 0.255850
0.082931 0.067053 0.256818
0.084281 0.067154 0.257203
0.085456 0.067116 0.257049
0.097433 0.075443 0.288925
0.098076 0.074884 0.286766
0.100278 0.075514 0.289157
0.101651 0.075511 0.289117
0.103254 0.075677 0.289718
0.104335 0.075461 0.288853
0.105581 0.075368 0.288454
0.107089 0.075463 0.288766
0.108412 0.075426 0.288566
0.109712 0.075374 0.288306
0.111117 0.075395 0.288317
0.112666 0.075511 0.288686
0.114228 0.075633 0.289070
0.115633 0.075650 0.289044
0.116991 0.075636 0.288894
0.118520 0.075731 0.289153
0.120060 0.075830 0.289420
0.121307 0.075745 0.288974
0.122754 0.075785 0.288996
0.124361 0.075922 0.289379
0.125888 0.076007 0.289556
0.127397 0.076079 0.289675
0.128773 0.076072 0.289481
0.130359 0.076187 0.289742
0.131776 0.076202 0.289611
0.133101 0.076164 0.289267
0.134752 0.076311 0.289616
0.136357 0.076430 0.289844
0.138051 0.076595 0.290236
0.139497 0.076620 0.290086
0.140974 0.076662 0.289986
0.142398 0.076675 0.289761
0.143875 0.076715 0.289626
0.145762 0.076971 0.290292
0.147145 0.076959 0.289928
0.149885 0.077649 0.292195
0.150987 0.077486 0.291231
0.152653 0.077612 0.291340
0.154121 0.077637 0.291048
-0.045232 0.022685 0.084168
-0.045212 0.022879 0.084993
-0.042575 0.026859 0.101390
-0.042593 0.027175 0.102617
-0.042893 0.027680 0.104557
-0.040386 0.026365 0.099616
-0.040914 0.027023 0.102129
-0.040637 0.027159 0.102666
-0.042131 0.028497 0.107744
-0.041324 0.028291 0.106986
-0.041188 0.028546 0.107965
-0.041431 0.029440 0.111375
-0.040963 0.029480 0.111538
-0.040836 0.029770 0.112643
-0.042031 0.031043 0.117469
-0.041057 0.030728 0.116280
-0.041188 0.031242 0.118227
-0.040109 0.030840 0.116706
-0.040663 0.031699 0.119959
-0.040994 0.032407 0.122634
-0.040511 0.032482 0.122911
-0.039918 0.032469 0.122859
-0.041431 0.034195 0.129381
-0.040878 0.034241 0.129545
-0.041250 0.035076 0.132691
-0.041013 0.035411 0.133943
-0.040693 0.035683 0.134956
-0.040367 0.035958 0.135979
-0.040018 0.036221 0.136956
-0.040696 0.037438 0.141537
-0.040112 0.037515 0.141804
-0.039950 0.037996 0.143598
-0.055207 0.055317 0.208946
-0.054190 0.055284 0.208782
-0.053543 0.055634 0.210061
-0.053302 0.056428 0.213013
-0.053133 0.057329 0.216371
-0.054206 0.059632 0.225013
-0.053061 0.059539 0.224610
-0.051686 0.059178 0.223197
-0.050604 0.059145 0.223022
-0.049637 0.059248 0.223357
-0.048727 0.059426 0.223972
-0.047742 0.059517 0.224263
-0.046780 0.059641 0.224675
-0.045859 0.059826 0.225317
-0.044959 0.060046 0.226090
-0.044172 0.060433 0.227489
-0.043306 0.060729 0.228546
-0.042536 0.061176 0.230173
-0.041867 0.061797 0.232450
-0.041484 0.062885 0.236484
-0.040731 0.063457 0.238575
-0.039935 0.063994 0.240536
-0.045867 0.075659 0.284310
-0.044627 0.075843 0.284933
-0.043296 0.075877 0.284993
-0.041832 0.075675 0.284165
-0.040325 0.075378 0.282982
-0.039486 0.076353 0.286578
-0.035810 0.074370 0.279008
-0.033884 0.073074 0.274084
-0.031419 0.070466 0.264246
-0.029659 0.069289 0.259774
-0.028197 0.068733 0.257639
-0.026949 0.068675 0.257368
-0.025724 0.068672 0.257305
-0.024431 0.068479 0.256531
-0.023203 0.068457 0.256401
-0.022006 0.068531 0.256631
-0.020785 0.068534 0.256598
-0.019587 0.068614 0.256858
-0.018454 0.068954 0.258087
-0.017410 0.069692 0.260810
-0.016162 0.069672 0.260696
-0.015060 0.070326 0.263107
-0.013863 0.070618 0.264162
-0.012648 0.070865 0.265054
-0.011405 0.070988 0.265482
-0.010159 0.071127 0.265975
-0.008928 0.071428 0.267071
-0.007656 0.071446 0.267115
-0.006421 0.071884 0.268728
-0.005165 0.072248 0.270067
-0.003885 0.072409 0.270649
-0.002590 0.072320 0.270301
-0.001306 0.072650 0.271520
-0.000010 0.072829 0.272175
0.001289 0.072856 0.272266
0.002524 0.071031 0.265437
0.003901 0.073087 0.273116
0.005175 0.072658 0.271508
0.006241 0.070074 0.261850
0.007391 0.069134 0.258337
0.008625 0.069141 0.258367
0.009863 0.069170 0.258481
0.011088 0.069109 0.258260
0.012297 0.068973 0.257762
0.013570 0.069188 0.258574
0.014801 0.069173 0.258530
0.016024 0.069123 0.258358
0.017314 0.069347 0.259213
0.018593 0.069499 0.259799
0.020108 0.070462 0.263420
0.021492 0.070879 0.265001
0.023337 0.072684 0.271773
0.024623 0.072649 0.271668
0.024619 0.069002 0.258056
0.025400 0.067800 0.253589
0.026575 0.067708 0.253277
0.027851 0.067872 0.253920
0.028999 0.067722 0.253389
0.030183 0.067666 0.253211
0.031468 0.067830 0.253859
0.032617 0.067701 0.253414
0.033792 0.067633 0.253194
0.035081 0.067789 0.253815
0.036212 0.067641 0.253299
0.037622 0.068005 0.254702
0.040157 0.070316 0.263400
0.041379 0.070259 0.263227
0.042024 0.069253 0.259499
0.043221 0.069188 0.259298
0.044500 0.069255 0.259593
0.045397 0.068739 0.257701
