ply
format ascii 1.0
element vertex 1744
property float x
property float y
property float z
end_header
-0.044192 0.012179 0.181586
-0.043904 0.012342 0.183912
-0.043887 0.012588 0.187489
-0.043590 0.012763 0.189998
-0.043457 0.012994 0.193341
-0.043379 0.013252 0.197084
-0.043667 0.013636 0.202691
-0.043538 0.013904 0.206570
-0.043242 0.014130 0.209821
-0.042798 0.014317 0.212496
-0.042481 0.014557 0.215951
-0.042310 0.014860 0.220335
-0.042102 0.015165 0.224751
-0.041857 0.015473 0.229200
-0.041691 0.015827 0.234338
-0.041294 0.016111 0.238423
-0.040779 0.016363 0.242044
-0.040219 0.016612 0.245613
-0.040009 0.017024 0.251597
-0.039890 0.017503 0.258553
-0.039074 0.017697 0.261297
-0.038522 0.018026 0.266051
-0.037880 0.018335 0.270495
-0.037046 0.018570 0.273847
-0.035308 0.018353 0.270526
-0.034610 0.018680 0.275240
-0.033316 0.018698 0.275398
-0.029813 0.017427 0.256581
-0.028616 0.017452 0.256854
-0.027402 0.017468 0.257004
-0.026198 0.017493 0.257281
-0.024973 0.017505 0.257376
-0.023740 0.017514 0.257415
-0.022542 0.017550 0.257863
-0.021308 0.017560 0.257941
-0.020074 0.017573 0.258053
-0.019133 0.017860 0.262193
-0.017958 0.017954 0.263502
-0.017110 0.018414 0.270196
-0.015485 0.018046 0.264725
-0.014657 0.018624 0.273149
-0.013340 0.018632 0.273215
-0.011462 0.017773 0.260571
-0.010157 0.017701 0.259467
-0.008911 0.017725 0.259776
-0.007652 0.017727 0.259767
-0.006379 0.017693 0.259231
-0.005124 0.017702 0.259345
-0.003869 0.017717 0.259531
-0.002626 0.017831 0.261175
-0.001353 0.017756 0.260068
-0.000091 0.017931 0.262613
0.001186 0.017969 0.263159
0.002459 0.017934 0.262641
0.003777 0.018138 0.265630
0.005154 0.018451 0.270215
0.006390 0.018232 0.267005
0.007394 0.017537 0.256848
0.008583 0.017421 0.255157
0.009872 0.017508 0.256453
0.011081 0.017451 0.255639
0.012333 0.017466 0.255877
0.013610 0.017511 0.256568
0.014906 0.017570 0.257473
0.016231 0.017651 0.258691
0.017546 0.017711 0.259614
0.018993 0.017887 0.262232
0.020449 0.018049 0.264654
0.021783 0.018090 0.265311
0.023289 0.018261 0.267878
0.024443 0.018153 0.266359
0.025749 0.018163 0.266566
0.026951 0.018102 0.265738
0.028132 0.018033 0.264795
0.029380 0.018011 0.264540
0.030582 0.017964 0.263924
0.031781 0.017919 0.263336
0.032880 0.017823 0.262011
0.034246 0.017874 0.262837
0.035385 0.017806 0.261931
0.036608 0.017785 0.261700
0.037973 0.017831 0.262465
0.039001 0.017721 0.260937
0.040328 0.017749 0.261455
0.042477 0.018127 0.267113
0.043580 0.018049 0.266062
0.043662 0.017565 0.259021
0.044231 0.017298 0.255186
0.045477 0.017303 0.255360
0.046640 0.017277 0.255083
0.047753 0.017234 0.254553
0.048981 0.017234 0.254658
0.050175 0.017222 0.254588
0.051348 0.017204 0.254423
0.052541 0.017193 0.254370
0.053781 0.017198 0.254544
0.055201 0.017258 0.255547
0.056925 0.017410 0.257896
0.059266 0.017739 0.262880
0.062184 0.018223 0.270173
0.063563 0.018246 0.270627
0.064558 0.018160 0.269464
0.066136 0.018238 0.270738
0.067479 0.018249 0.271021
0.068716 0.018232 0.270878
0.069893 0.018200 0.270513
0.071071 0.018169 0.270167
0.072217 0.018131 0.269717
0.073538 0.018138 0.269926
0.074786 0.018127 0.269868
0.075900 0.018084 0.269336
0.077293 0.018108 0.269797
0.078653 0.018123 0.270132
0.080064 0.018150 0.270630
0.081470 0.018175 0.271097
0.082843 0.018191 0.271442
0.084240 0.018212 0.271854
0.085570 0.018219 0.272040
0.086643 0.018171 0.271416
0.088287 0.018242 0.272571
0.089598 0.018244 0.272683
0.093983 0.018862 0.282011
0.098990 0.019586 0.292920
0.099676 0.019447 0.290918
0.100746 0.019386 0.290073
0.102447 0.019446 0.291044
0.103786 0.019436 0.290968
0.104997 0.019403 0.290539
0.106141 0.019359 0.289932
0.107528 0.019359 0.289993
0.108690 0.019320 0.289452
0.110297 0.019360 0.290089
0.111323 0.019297 0.289195
0.113099 0.019365 0.290243
0.114113 0.019302 0.289329
0.114785 0.019184 0.287575
0.117415 0.019391 0.290704
0.118685 0.019372 0.290425
0.119992 0.019359 0.290235
0.121222 0.019335 0.289859
0.122680 0.019346 0.290023
0.124182 0.019365 0.290278
0.125704 0.019385 0.290564
0.126886 0.019354 0.290060
0.128173 0.019339 0.289794
0.129686 0.019358 0.290030
0.131215 0.019379 0.290286
0.132793 0.019407 0.290634
0.134241 0.019415 0.290682
0.135732 0.019429 0.290810
0.137229 0.019444 0.290935
0.138672 0.019451 0.290933
0.140103 0.019456 0.290894
0.141536 0.019461 0.290844
0.143084 0.019482 0.291017
0.144617 0.019500 0.291142
0.145934 0.019489 0.290818
0.147283 0.019483 0.290549
0.148968 0.019520 0.290925
0.150315 0.019513 0.290623
0.152169 0.019572 0.291279
-0.042132 0.008815 0.123852
-0.040919 0.008681 0.121933
-0.041294 0.008886 0.124762
-0.041741 0.009112 0.127888
-0.043007 0.009526 0.133651
-0.042241 0.009496 0.133175
-0.042003 0.009586 0.134374
-0.042241 0.009788 0.137152
-0.044209 0.010404 0.145718
-0.044382 0.010610 0.148546
-0.043997 0.010687 0.149561
-0.043535 0.010748 0.150345
-0.043409 0.010895 0.152335
-0.043356 0.011066 0.154654
-0.043493 0.011292 0.157735
-0.044273 0.011696 0.163301
-0.044108 0.011860 0.165514
-0.044830 0.012273 0.171192
-0.044734 0.012473 0.173901
-0.044386 0.012609 0.175711
-0.044111 0.012772 0.177886
-0.043984 0.012984 0.180754
-0.043946 0.013232 0.184111
-0.043720 0.013432 0.186803
-0.043528 0.013651 0.189758
-0.043250 0.013852 0.192454
-0.042890 0.014035 0.194892
-0.042864 0.014337 0.198996
-0.043030 0.014719 0.204195
-0.042831 0.014991 0.207863
-0.042607 0.015267 0.211584
-0.042298 0.015525 0.215056
-0.042057 0.015822 0.219061
-0.041856 0.016149 0.223482
-0.041650 0.016491 0.228111
-0.041457 0.016858 0.233065
-0.041172 0.017206 0.237766
-0.040541 0.017425 0.240682
-0.040122 0.017751 0.245070
-0.039759 0.018122 0.250078
-0.039865 0.018736 0.258444
-0.039093 0.018965 0.261480
-0.038428 0.019261 0.265456
-0.037979 0.019691 0.271261
-0.037137 0.019940 0.274581
-0.035372 0.019694 0.271078
-0.034757 0.020093 0.276470
-0.033457 0.020113 0.276629
-0.029779 0.018645 0.256344
-0.028570 0.018663 0.256499
-0.027381 0.018696 0.256867
-0.026133 0.018691 0.256708
-0.024908 0.018702 0.256773
-0.023717 0.018742 0.257230
-0.022475 0.018742 0.257160
-0.021314 0.018815 0.258080
-0.020052 0.018803 0.257836
-0.019139 0.019137 0.262348
-0.017878 0.019145 0.262396
-0.017099 0.019713 0.270105
-0.013331 0.019946 0.273123
-0.011438 0.018999 0.260108
-0.010104 0.018862 0.258185
-0.008879 0.018918 0.258921
-0.007616 0.018900 0.258633
-0.006371 0.018928 0.258986
-0.005129 0.018981 0.259672
-0.003876 0.019014 0.260095
-0.002617 0.019040 0.260441
-0.001357 0.019086 0.261042
-0.000090 0.019200 0.262586
0.001186 0.019236 0.263070
0.002453 0.019156 0.261973
0.003832 0.019706 0.269496
0.005170 0.019818 0.271027
0.006463 0.019751 0.270119
0.007774 0.019748 0.270085
0.019450 0.019619 0.268593
0.020742 0.019608 0.268497
0.021856 0.019440 0.266248
0.023277 0.019549 0.267788
0.024502 0.019490 0.267042
0.025736 0.019444 0.266477
0.026971 0.019403 0.265982
0.037731 0.019633 0.269767
0.038997 0.019613 0.269588
0.039686 0.019314 0.265567
0.040819 0.019242 0.264679
0.042474 0.019414 0.267139
0.043301 0.019208 0.264405
0.043849 0.018894 0.260173
0.044222 0.018524 0.255176
0.045397 0.018501 0.254954
0.046649 0.018509 0.255169
0.047740 0.018455 0.254525
0.048879 0.018421 0.254165
0.050080 0.018412 0.254142
0.051321 0.018418 0.254325
0.052500 0.018401 0.254206
0.053688 0.018389 0.254141
0.055050 0.018435 0.254884
0.056870 0.018629 0.257677
0.058775 0.018842 0.260736
0.061676 0.019359 0.268003
0.063318 0.019468 0.269618
0.064738 0.019505 0.270249
0.066018 0.019500 0.270288
0.067389 0.019521 0.270692
0.068783 0.019547 0.271172
0.070047 0.019537 0.271141
0.071397 0.019550 0.271435
0.072650 0.019537 0.271362
0.077700 0.020172 0.280410
0.078918 0.020140 0.280072
0.080131 0.020108 0.279730
0.086565 0.020360 0.283659
0.087777 0.020327 0.283289
0.088639 0.020214 0.281818
0.089983 0.020214 0.281900
0.091312 0.020209 0.281931
0.092645 0.020206 0.281973
0.093834 0.020172 0.281582
0.098860 0.020952 0.292553
0.099820 0.020861 0.291354
0.100932 0.020803 0.290624
0.102336 0.020806 0.290740
0.103543 0.020770 0.290298
0.104764 0.020737 0.289904
0.106020 0.020712 0.289613
0.107314 0.020695 0.289426
0.108789 0.020713 0.289725
0.111102 0.020888 0.292214
0.112357 0.020862 0.291888
0.113686 0.020851 0.291756
0.114964 0.020830 0.291493
0.116419 0.020841 0.291673
0.117064 0.020709 0.289836
0.118791 0.020769 0.290686
0.120280 0.020787 0.290932
0.121553 0.020767 0.290649
0.122995 0.020776 0.290766
0.124219 0.020749 0.290360
0.125620 0.020751 0.290366
0.126872 0.020729 0.290022
0.128146 0.020711 0.289725
0.129292 0.020673 0.289140
0.130569 0.020656 0.288848
0.132535 0.020748 0.290059
0.134380 0.020819 0.290971
0.136180 0.020881 0.291756
0.137522 0.020873 0.291542
0.138812 0.020857 0.291210
0.140267 0.020865 0.291217
0.141700 0.020871 0.291162
0.143258 0.020894 0.291352
0.144565 0.020881 0.291015
0.146189 0.020913 0.291304
0.147556 0.020908 0.291063
0.149142 0.020934 0.291239
0.150711 0.020958 0.291362
0.152002 0.020942 0.290931
-0.042461 0.008422 0.111251
-0.042337 0.008503 0.112289
-0.041870 0.008515 0.112427
-0.041226 0.008491 0.112088
-0.043998 0.009180 0.121144
-0.043457 0.009186 0.121192
-0.043113 0.009235 0.121800
-0.042879 0.009309 0.122735
-0.042457 0.009343 0.123150
-0.042116 0.009397 0.123814
-0.041850 0.009469 0.124719
-0.042378 0.009725 0.128048
-0.043623 0.010155 0.133666
-0.043506 0.010277 0.135213
-0.042912 0.010288 0.135303
-0.042842 0.010426 0.137070
-0.042921 0.010606 0.139374
-0.043344 0.010878 0.142885
-0.043655 0.011129 0.146126
-0.043284 0.011212 0.147155
-0.043454 0.011441 0.150081
-0.043429 0.011624 0.152423
-0.043526 0.011847 0.155276
-0.043679 0.012094 0.158430
-0.044394 0.012507 0.163767
-0.044488 0.012757 0.166963
-0.044192 0.012902 0.168778
-0.044089 0.013110 0.171417
-0.044005 0.013331 0.174226
-0.043863 0.013543 0.176910
-0.043621 0.013732 0.179290
-0.043467 0.013957 0.182134
-0.043227 0.014163 0.184728
-0.042988 0.014377 0.187431
-0.042820 0.014625 0.190568
-0.042807 0.014938 0.194550
-0.042780 0.015260 0.198641
-0.042826 0.015622 0.203261
-0.042585 0.015895 0.206708
-0.042270 0.016152 0.209949
-0.042013 0.016445 0.213647
-0.041750 0.016749 0.217503
-0.041680 0.017149 0.222582
-0.041402 0.017482 0.226798
-0.041237 0.017882 0.231872
-0.041020 0.018280 0.236931
-0.040580 0.018600 0.240962
-0.040169 0.018951 0.245405
-0.039814 0.019352 0.250476
-0.039841 0.019969 0.258346
-0.039037 0.020195 0.261158
-0.038432 0.020543 0.265544
-0.037978 0.020998 0.271317
-0.037033 0.021205 0.273876
-0.035163 0.020878 0.269540
-0.034622 0.021344 0.275458
-0.033327 0.021365 0.275616
-0.029824 0.019914 0.256797
-0.028588 0.019915 0.256727
-0.027392 0.019946 0.257033
-0.026192 0.019978 0.257350
-0.024963 0.019989 0.257408
-0.023738 0.020004 0.257517
-0.022540 0.020045 0.257973
-0.021325 0.020075 0.258286
-0.020113 0.020112 0.258681
-0.019049 0.020311 0.261176
-0.017963 0.020514 0.263717
-0.011317 0.020048 0.257446
-0.010060 0.020028 0.257148
-0.008846 0.020103 0.258063
-0.007598 0.020110 0.258116
-0.006346 0.020108 0.258058
-0.005113 0.020182 0.258977
-0.003861 0.020203 0.259219
-0.002601 0.020182 0.258928
-0.001351 0.020275 0.260115
-0.000089 0.020283 0.260205
0.001185 0.020466 0.262536
0.002463 0.020497 0.262930
0.003831 0.021002 0.269399
0.020884 0.021052 0.270383
0.022203 0.021060 0.270531
0.023501 0.021047 0.270422
0.024488 0.020772 0.266947
0.025714 0.020716 0.266298
0.026957 0.020679 0.265887
0.028224 0.020664 0.265757
0.035951 0.020663 0.266213
0.037203 0.020643 0.266042
0.038561 0.020681 0.266620
0.039477 0.020487 0.264218
0.040650 0.020434 0.263628
0.042316 0.020626 0.266191
0.043304 0.020485 0.264467
0.043767 0.020110 0.259734
0.044170 0.019730 0.254916
0.045326 0.019697 0.254595
0.046525 0.019685 0.254534
0.047646 0.019641 0.254061
0.048755 0.019594 0.253563
0.049988 0.019598 0.253718
0.051178 0.019585 0.253654
0.052472 0.019612 0.254107
0.053623 0.019586 0.253867
0.054740 0.019548 0.253486
0.056550 0.019754 0.256265
0.059138 0.020217 0.262384
0.062052 0.020770 0.269674
0.063462 0.020807 0.270267
0.064646 0.020771 0.269903
0.065981 0.020783 0.270168
0.067311 0.020793 0.270411
0.068656 0.020807 0.270707
0.069830 0.020769 0.270331
0.071103 0.020762 0.270348
0.072618 0.020825 0.271274
0.075186 0.021182 0.276034
0.076389 0.021149 0.275706
0.078885 0.021468 0.279983
0.083624 0.021309 0.278314
0.084817 0.021274 0.277955
0.086307 0.021313 0.278569
0.087346 0.021242 0.277730
0.088761 0.021263 0.278091
0.090275 0.021306 0.278747
0.091454 0.021271 0.278366
0.097859 0.022434 0.293678
0.099095 0.022397 0.293266
0.099494 0.022173 0.290418
0.102189 0.022156 0.290338
0.103440 0.022127 0.290022
0.104705 0.022102 0.289752
0.105976 0.022079 0.289504
0.107313 0.022070 0.289435
0.108513 0.022033 0.288998
0.109888 0.022032 0.289028
0.111337 0.022046 0.289246
0.113530 0.022205 0.291360
0.114989 0.022218 0.291559
0.116385 0.022219 0.291590
0.117585 0.022183 0.291129
0.118801 0.022151 0.290711
0.120201 0.022153 0.290741
0.121461 0.022130 0.290427
0.122612 0.022087 0.289857
0.124427 0.022164 0.290842
0.125771 0.022156 0.290708
0.127138 0.022153 0.290622
0.128440 0.022138 0.290383
0.129626 0.022103 0.289878
0.131194 0.022134 0.290218
0.133424 0.022275 0.291992
0.134625 0.022242 0.291488
0.135890 0.022221 0.291120
0.137500 0.022256 0.291479
0.138887 0.022255 0.291351
0.140313 0.022259 0.291294
0.141839 0.022279 0.291428
0.143215 0.022276 0.291241
0.145226 0.022370 0.292324
0.146556 0.022359 0.292010
0.147799 0.022335 0.291516
0.149376 0.022361 0.291667
0.150546 0.022326 0.291012
0.152096 0.022348 0.291079
-0.042258 0.008387 0.104374
-0.041806 0.008395 0.104459
-0.040829 0.008296 0.103217
-0.043517 0.008949 0.111320
-0.043756 0.009107 0.113275
-0.042029 0.008856 0.110125
-0.042458 0.009058 0.112614
-0.042502 0.009182 0.114129
-0.044057 0.009640 0.119793
-0.043981 0.009748 0.121105
-0.043489 0.009766 0.121291
-0.043107 0.009809 0.121791
-0.042825 0.009876 0.122590
-0.042565 0.009950 0.123472
-0.042207 0.010004 0.124091
-0.042386 0.010187 0.126327
-0.042408 0.010338 0.128150
-0.043096 0.010658 0.132063
-0.042930 0.010772 0.133435
-0.042685 0.010871 0.134601
-0.042407 0.010963 0.135691
-0.042663 0.011199 0.138552
-0.043359 0.011559 0.142948
-0.044239 0.011981 0.148098
-0.043898 0.012080 0.149258
-0.043572 0.012186 0.150508
-0.043460 0.012357 0.152552
-0.043457 0.012565 0.155050
-0.043306 0.012737 0.157099
-0.043806 0.013110 0.161621
-0.043965 0.013392 0.165020
-0.043936 0.013626 0.167827
-0.043789 0.013832 0.170274
-0.043856 0.014114 0.173665
-0.043771 0.014357 0.176567
-0.043620 0.014587 0.179314
-0.043310 0.014773 0.181507
-0.043127 0.015010 0.184329
-0.042874 0.015232 0.186969
-0.042882 0.015558 0.190878
-0.042837 0.015879 0.194721
-0.042771 0.016206 0.198635
-0.042686 0.016541 0.202635
-0.042548 0.016870 0.206566
-0.042338 0.017186 0.210330
-0.042015 0.017470 0.213700
-0.041541 0.017703 0.216453
-0.041438 0.018111 0.221335
-0.041236 0.018496 0.225931
-0.041160 0.018960 0.231489
-0.041136 0.019474 0.237656
-0.040771 0.019851 0.242146
-0.040267 0.020181 0.246058
-0.039997 0.020652 0.251686
-0.039650 0.021111 0.257166
-0.038895 0.021375 0.260270
-0.038461 0.021838 0.265804
-0.038528 0.022629 0.275310
-0.037072 0.022549 0.274231
-0.035283 0.022253 0.270520
-0.034601 0.022660 0.275355
-0.029898 0.021206 0.257498
-0.028647 0.021200 0.257324
-0.027387 0.021185 0.257053
-0.026158 0.021194 0.257077
-0.024759 0.021060 0.255371
-0.023763 0.021272 0.257863
-0.022612 0.021362 0.258870
-0.021434 0.021434 0.259671
-0.020196 0.021454 0.259830
-0.019078 0.021610 0.261652
-0.017773 0.021563 0.261014
-0.011289 0.021244 0.256877
-0.010056 0.021268 0.257129
-0.008819 0.021291 0.257363
-0.007576 0.021303 0.257469
-0.006339 0.021340 0.257884
-0.005085 0.021325 0.257677
-0.003857 0.021446 0.259115
-0.002602 0.021457 0.259224
-0.001344 0.021443 0.259043
-0.000088 0.021577 0.260639
0.001178 0.021596 0.260869
0.002450 0.021657 0.261600
0.003710 0.021604 0.260948
0.020261 0.021694 0.262363
0.021873 0.022037 0.266562
0.023152 0.022024 0.266455
0.024195 0.021799 0.263798
0.025124 0.021500 0.260234
0.026511 0.021603 0.261541
0.027678 0.021525 0.260662
0.028808 0.021426 0.259536
0.029971 0.021359 0.258797
0.031254 0.021379 0.259116
0.032456 0.021345 0.258776
0.033768 0.021382 0.259313
0.035126 0.021445 0.260158
0.036412 0.021461 0.260434
0.037774 0.021519 0.261229
0.039313 0.021671 0.263164
0.040551 0.021653 0.263034
0.042425 0.021965 0.266924
0.043518 0.021867 0.265824
0.044751 0.021842 0.265621
0.044277 0.021008 0.255577
0.045416 0.020965 0.255148
0.046539 0.020916 0.254651
0.047711 0.020891 0.254452
0.048901 0.020876 0.254364
0.050087 0.020859 0.254258
0.051314 0.020860 0.254371
0.052595 0.020882 0.254743
0.053937 0.020927 0.255396
0.055250 0.020958 0.255887
0.057025 0.021160 0.258456
0.059212 0.021503 0.262749
0.061710 0.021942 0.268223
0.063177 0.022003 0.269091
0.064415 0.021985 0.268974
0.065916 0.022055 0.269940
0.067200 0.022051 0.270001
0.068458 0.022038 0.269960
0.069772 0.022044 0.270140
0.070873 0.021984 0.269507
0.071615 0.021816 0.267558
0.072545 0.021710 0.266366
0.073915 0.021738 0.266808
0.074922 0.021659 0.265945
0.076002 0.021604 0.265370
0.077384 0.021635 0.265849
0.078494 0.021590 0.265396
0.079946 0.021640 0.266095
0.081425 0.021695 0.266862
0.083258 0.021841 0.268752
0.084905 0.021934 0.269989
0.086430 0.021994 0.270810
0.088078 0.022082 0.271985
0.090023 0.022242 0.274029
0.097920 0.023846 0.293881
0.099158 0.023806 0.293469
0.100590 0.023814 0.293636
0.100729 0.023519 0.290072
0.102238 0.023547 0.290490
0.103586 0.023539 0.290447
0.104697 0.023477 0.289745
0.106094 0.023480 0.289837
0.107613 0.023510 0.290252
0.108772 0.023461 0.289696
0.110388 0.023511 0.290351
0.111802 0.023517 0.290458
0.112946 0.023467 0.289868
0.114166 0.023433 0.289477
0.114793 0.023280 0.287604
0.115827 0.023212 0.286777
0.119148 0.023599 0.291559
0.120104 0.023514 0.290506
0.121402 0.023497 0.290283
0.123030 0.023543 0.290840
0.124514 0.023561 0.291040
0.125793 0.023541 0.290753
0.126995 0.023506 0.290289
0.128221 0.023477 0.289879
0.129525 0.023462 0.289642
0.130774 0.023438 0.289278
0.133312 0.023642 0.291733
0.134650 0.023632 0.291528
0.135990 0.023623 0.291319
0.137503 0.023643 0.291467
0.138963 0.023654 0.291491
0.140294 0.023643 0.291234
0.141557 0.023621 0.290827
0.143174 0.023657 0.291135
0.144521 0.023649 0.290879
0.145683 0.023611 0.290244
0.147086 0.023612 0.290081
0.149224 0.023730 0.291340
0.150540 0.023716 0.290969
0.151418 0.023634 0.289747
-0.041973 0.008522 0.100203
-0.042090 0.008643 0.101619
-0.042245 0.008774 0.103156
-0.042243 0.008876 0.104340
-0.041438 0.008809 0.103544
-0.042719 0.009189 0.108000
-0.043501 0.009470 0.111283
-0.043740 0.009638 0.113237
-0.043518 0.009707 0.114031
-0.043364 0.009794 0.115023
-0.043443 0.009936 0.116664
-0.043400 0.010053 0.118013
-0.043220 0.010141 0.119015
-0.042906 0.010200 0.119671
-0.042551 0.010250 0.120227
-0.042335 0.010336 0.121196
-0.042056 0.010408 0.122004
-0.041999 0.010538 0.123488
-0.042168 0.010729 0.125687
-0.042991 0.011095 0.129921
-0.043817 0.011471 0.134285
-0.043368 0.011520 0.134810
-0.042928 0.011574 0.135381
-0.043002 0.011769 0.137610
-0.042863 0.011911 0.139217
-0.042936 0.012118 0.141572
-0.042952 0.012314 0.143808
-0.043103 0.012556 0.146572
-0.043100 0.012761 0.148898
-0.043421 0.013070 0.152433
-0.043435 0.013295 0.154994
-0.043594 0.013574 0.158167
-0.043836 0.013888 0.161755
-0.043840 0.014137 0.164576
-0.043618 0.014321 0.166637
-0.043629 0.014589 0.169680
-0.043723 0.014896 0.173163
-0.043600 0.015139 0.175908
-0.043487 0.015395 0.178798
-0.043194 0.015597 0.181049
-0.042977 0.015835 0.183723
-0.042868 0.016123 0.186973
-0.042850 0.016458 0.190772
-0.042733 0.016770 0.194285
-0.042805 0.017170 0.198828
-0.042888 0.017594 0.203633
-0.042645 0.017900 0.207081
-0.042267 0.018163 0.210020
-0.041873 0.018431 0.213022
-0.041559 0.018749 0.216593
-0.041329 0.019123 0.220801
-0.041273 0.019598 0.226185
-0.041147 0.020065 0.231465
-0.041103 0.020599 0.237516
-0.040744 0.021001 0.242044
-0.040379 0.021424 0.246802
-0.039957 0.021840 0.251488
-0.039792 0.022428 0.258145
-0.038978 0.022676 0.260886
-0.038465 0.023121 0.265899
-0.038134 0.023711 0.272561
-0.036929 0.023779 0.273240
-0.035096 0.023434 0.269160
-0.029891 0.022444 0.257505
-0.028604 0.022409 0.257006
-0.027404 0.022441 0.257287
-0.026192 0.022466 0.257485
-0.024965 0.022480 0.257562
-0.023702 0.022462 0.257269
-0.022482 0.022485 0.257458
-0.021305 0.022555 0.258183
-0.020028 0.022522 0.257736
-0.019094 0.022896 0.261949
-0.017863 0.022943 0.262418
-0.013204 0.023694 0.270766
-0.011269 0.022451 0.256514
-0.010038 0.022478 0.256775
-0.008808 0.022512 0.257124
-0.007555 0.022491 0.256853
-0.006315 0.022507 0.257006
-0.005075 0.022535 0.257292
-0.003835 0.022575 0.257721
-0.002585 0.022571 0.257657
-0.001337 0.022605 0.258026
-0.000086 0.022687 0.258950
0.001182 0.022932 0.261742
0.002464 0.023046 0.263033
0.003740 0.023045 0.263018
0.019728 0.023858 0.272583
0.020697 0.023459 0.268069
0.021998 0.023461 0.268140
0.023284 0.023446 0.268033
0.024433 0.023303 0.266455
0.025093 0.022731 0.259971
0.026363 0.022740 0.260137
0.027505 0.022643 0.259090
0.028638 0.022547 0.258061
0.029845 0.022515 0.257761
0.031029 0.022468 0.257300
0.032360 0.022528 0.258059
0.033619 0.022534 0.258215
0.034953 0.022589 0.258923
0.036351 0.022680 0.260053
0.037648 0.022704 0.260413
0.039190 0.022869 0.262393
0.040595 0.022947 0.263375
0.042892 0.023508 0.269913
0.044031 0.023421 0.269008
0.044615 0.023051 0.264863
0.044310 0.022256 0.255820
0.045116 0.022046 0.253505
0.046460 0.022104 0.254265
0.047678 0.022100 0.254320
0.048783 0.022046 0.253793
0.050069 0.022074 0.254215
0.051374 0.022108 0.254710
0.052755 0.022173 0.255564
0.054098 0.022219 0.256200
0.055509 0.022291 0.257130
0.057287 0.022503 0.259685
0.059481 0.022866 0.263987
0.061719 0.023231 0.268304
0.063114 0.023270 0.268863
0.064326 0.023241 0.268642
0.065737 0.023284 0.269245
0.067066 0.023296 0.269499
0.068387 0.023306 0.269717
0.069702 0.023312 0.269903
0.071106 0.023348 0.270426
0.072175 0.023275 0.269683
0.072854 0.023080 0.267534
0.073893 0.023005 0.266758
0.074956 0.022939 0.266098
0.075854 0.022826 0.264883
0.076689 0.022698 0.263490
0.077900 0.022683 0.263416
0.078939 0.022620 0.262770
0.080539 0.022716 0.263985
0.082085 0.022795 0.264989
0.083674 0.022883 0.266098
0.085986 0.023163 0.269440
0.086700 0.023011 0.267751
0.088857 0.023241 0.270501
0.099080 0.025543 0.297383
0.100333 0.025500 0.296966
0.101084 0.025333 0.295096
0.100803 0.024916 0.290301
0.101889 0.024843 0.289515
0.103598 0.024921 0.290494
0.104689 0.024851 0.289734
0.106987 0.025066 0.292289
0.108078 0.024996 0.291519
0.109375 0.024974 0.291312
0.110736 0.024968 0.291273
0.111994 0.024938 0.290964
0.113375 0.024937 0.290974
0.114786 0.024942 0.291054
0.116098 0.024925 0.290878
0.117635 0.024957 0.291254
0.118904 0.024932 0.290962
0.120348 0.024943 0.291093
0.121730 0.024942 0.291067
0.123498 0.025019 0.291943
0.124852 0.025011 0.291825
0.125936 0.024949 0.291078
0.127303 0.024945 0.290985
0.128612 0.024929 0.290753
0.129580 0.024848 0.289754
0.130977 0.024851 0.289715
0.133556 0.025075 0.292253
0.134794 0.025045 0.291824
0.136062 0.025022 0.291456
0.137516 0.025032 0.291476
0.139032 0.025054 0.291615
0.140509 0.025068 0.291657
0.141813 0.025051 0.291328
0.143539 0.025109 0.291852
0.144808 0.025086 0.291430
0.146117 0.025070 0.291079
0.147413 0.025053 0.290695
0.149502 0.025169 0.291851
0.150317 0.025070 0.290504
0.152350 0.025175 0.291496
-0.042581 0.009228 0.102805
-0.042169 0.009244 0.102973
-0.042698 0.009469 0.105467
-0.042968 0.009640 0.107369
-0.043004 0.009763 0.108724
-0.043253 0.009938 0.110652
-0.042968 0.009992 0.111243
-0.042762 0.010067 0.112055
-0.042466 0.010122 0.112646
-0.042478 0.010253 0.114077
-0.042418 0.010370 0.115349
-0.042734 0.010583 0.117686
-0.042788 0.010735 0.119351
-0.042607 0.010832 0.120393
-0.042337 0.010909 0.121209
-0.042203 0.011023 0.122442
-0.041972 0.011115 0.123421
-0.043037 0.011557 0.128289
-0.042902 0.011685 0.129666
-0.043221 0.011942 0.132471
-0.043153 0.012098 0.134157
-0.043110 0.012266 0.135968
-0.043056 0.012437 0.137800
-0.042827 0.012560 0.139117
-0.042765 0.012738 0.141024
-0.042699 0.012920 0.142978
-0.042888 0.013186 0.145863
-0.042848 0.013389 0.148045
-0.043533 0.013830 0.152849
-0.043755 0.014135 0.156156
-0.043748 0.014376 0.158748
-0.043899 0.014678 0.162012
-0.043770 0.014896 0.164340
-0.043679 0.015135 0.166897
-0.043458 0.015337 0.169040
-0.043559 0.015662 0.172543
-0.043390 0.015900 0.175088
-0.043309 0.016181 0.178096
-0.043054 0.016407 0.180495
-0.042856 0.016664 0.183236
-0.042778 0.016980 0.186617
-0.042661 0.017293 0.189965
-0.042782 0.017718 0.194543
-0.042864 0.018146 0.199143
-0.042820 0.018539 0.203353
-0.042576 0.018860 0.206784
-0.042137 0.019110 0.209418
-0.041710 0.019376 0.212237
-0.041242 0.019637 0.214990
-0.041057 0.020049 0.219395
-0.041123 0.020608 0.225416
-0.041246 0.021227 0.232077
-0.041308 0.021848 0.238758
-0.040831 0.022211 0.242617
-0.040455 0.022653 0.247326
-0.040108 0.023137 0.252504
-0.039800 0.023675 0.258261
-0.038951 0.023916 0.260774
-0.038305 0.024300 0.264859
-0.038007 0.024941 0.271726
-0.037025 0.025161 0.274021
-0.035083 0.024722 0.269132
-0.029937 0.023724 0.257974
-0.028744 0.023766 0.258336
-0.027608 0.023860 0.259275
-0.026325 0.023831 0.258869
-0.025115 0.023869 0.259192
-0.023910 0.023914 0.259608
-0.022679 0.023938 0.259784
-0.021466 0.023984 0.260215
-0.020113 0.023871 0.258914
-0.018967 0.024005 0.260298
-0.017764 0.024079 0.261038
-0.013193 0.024988 0.270651
-0.011288 0.023737 0.257056
-0.010018 0.023676 0.256345
-0.008797 0.023731 0.256906
-0.007564 0.023768 0.257270
-0.006320 0.023777 0.257329
-0.005078 0.023803 0.257585
-0.003843 0.023886 0.258456
-0.002594 0.023914 0.258744
-0.001343 0.023974 0.259371
-0.000085 0.023994 0.259572
0.001176 0.024058 0.260259
0.002457 0.024239 0.262213
0.017062 0.025145 0.272205
0.018374 0.025133 0.272120
0.019715 0.025161 0.272467
0.020815 0.024897 0.269656
0.021992 0.024751 0.268117
0.023346 0.024809 0.268804
0.024633 0.024793 0.268690
0.025184 0.024076 0.260971
0.026057 0.023719 0.257171
0.027330 0.023743 0.257491
0.028583 0.023748 0.257617
0.029712 0.023655 0.256669
0.031001 0.023690 0.257122
0.032320 0.023745 0.257793
0.033550 0.023733 0.257742
0.034890 0.023797 0.258517
0.036115 0.023780 0.258416
0.037552 0.023900 0.259804
0.039443 0.024290 0.264141
0.040952 0.024429 0.265743
0.042340 0.024490 0.266493
0.043389 0.024356 0.265133
0.044618 0.024329 0.264931
0.045038 0.023873 0.260072
0.045824 0.023632 0.257535
0.046611 0.023403 0.255140
0.047880 0.023422 0.255446
0.049159 0.023445 0.255795
0.050198 0.023355 0.254913
0.051537 0.023405 0.255566
0.052858 0.023445 0.256104
0.054299 0.023536 0.257197
0.055767 0.023633 0.258365
0.057315 0.023760 0.259855
0.059752 0.024242 0.265232
0.061718 0.024516 0.268342
0.063006 0.024516 0.268446
0.064278 0.024509 0.268481
0.065702 0.024559 0.269142
0.066973 0.024552 0.269163
0.068285 0.024559 0.269351
0.069507 0.024534 0.269184
0.070706 0.024502 0.268942
0.071504 0.024335 0.267211
0.072277 0.024165 0.265448
0.073489 0.024146 0.265332
0.074457 0.024048 0.264356
0.075291 0.023911 0.262944
0.076149 0.023786 0.261664
0.077307 0.023757 0.261437
0.078278 0.023672 0.260597
0.079589 0.023691 0.260894
0.081197 0.023797 0.262146
0.082671 0.023860 0.262930
0.084623 0.024058 0.265193
0.085453 0.023936 0.263921
0.087317 0.024102 0.265834
0.100289 0.026901 0.296857
0.100227 0.026509 0.292613
0.100627 0.026249 0.289811
0.102243 0.026309 0.290536
0.103569 0.026294 0.290427
0.104674 0.026223 0.289705
0.106691 0.026380 0.291491
0.108088 0.026382 0.291555
0.109302 0.026339 0.291126
0.110550 0.026306 0.290791
0.112094 0.026343 0.291231
0.113538 0.026356 0.291397
0.114799 0.026326 0.291091
0.116109 0.026308 0.290907
0.117527 0.026315 0.290990
0.118910 0.026314 0.290978
0.120190 0.026290 0.290709
0.121581 0.026291 0.290705
0.123085 0.026316 0.290962
0.124615 0.026346 0.291266
0.126183 0.026383 0.291640
0.127457 0.026358 0.291327
0.128742 0.026337 0.291036
0.130091 0.026328 0.290883
0.131325 0.026297 0.290471
0.132942 0.026342 0.290894
0.134596 0.026394 0.291378
0.135944 0.026385 0.291184
0.137435 0.026403 0.291285
0.138783 0.026394 0.291071
0.140131 0.026386 0.290849
0.141573 0.026394 0.290810
0.143200 0.026437 0.291135
0.144992 0.026509 0.291770
0.146345 0.026501 0.291503
0.147324 0.026425 0.290488
0.149737 0.026605 0.292275
0.150753 0.026536 0.291309
0.151520 0.026425 0.289869
-0.043000 0.009921 0.105003
-0.042916 0.010017 0.106008
-0.043019 0.010158 0.107500
-0.042594 0.010178 0.107691
-0.042526 0.010284 0.108797
-0.042222 0.010335 0.109318
-0.041766 0.010349 0.109451
-0.041744 0.010472 0.110735
-0.041874 0.010638 0.112462
-0.043031 0.011072 0.117021
-0.043498 0.011337 0.119796
-0.043280 0.011429 0.120732
-0.042979 0.011500 0.121454
-0.042736 0.011589 0.122361
-0.042685 0.011734 0.123849
-0.042581 0.011868 0.125220
-0.042478 0.012006 0.126635
-0.042309 0.012128 0.127887
-0.042587 0.012385 0.130542
-0.042967 0.012679 0.133592
-0.042895 0.012846 0.135305
-0.043028 0.013081 0.137725
-0.042805 0.013213 0.139062
-0.042752 0.013402 0.140999
-0.042868 0.013651 0.143562
-0.043331 0.014021 0.147387
-0.043577 0.014332 0.150586
-0.043633 0.014589 0.153221
-0.043677 0.014851 0.155903
-0.043640 0.015093 0.158381
-0.043782 0.015408 0.161607
-0.043867 0.015713 0.164729
-0.043658 0.015922 0.166844
-0.043469 0.016146 0.169112
-0.043324 0.016395 0.171644
-0.043274 0.016690 0.174654
-0.043129 0.016960 0.177389
-0.043017 0.017254 0.180375
-0.042904 0.017559 0.183480
-0.042728 0.017850 0.186434
-0.042554 0.018155 0.189527
-0.042720 0.018621 0.194300
-0.043035 0.019175 0.199981
-0.042701 0.019457 0.202832
-0.042585 0.019854 0.206873
-0.041833 0.019967 0.207951
-0.041371 0.020228 0.210562
-0.040813 0.020452 0.212800
-0.040514 0.020822 0.216547
-0.042345 0.022334 0.232165
-0.041285 0.022363 0.232353
-0.041260 0.022968 0.238541
-0.040845 0.023385 0.242763
-0.040455 0.023842 0.247390
-0.040073 0.024330 0.252346
-0.039740 0.024880 0.257939
-0.038899 0.025137 0.260491
-0.038340 0.025600 0.265178
-0.038046 0.026277 0.272081
-0.036893 0.026388 0.273119
-0.034853 0.025849 0.267437
-0.029921 0.024957 0.257917
-0.028591 0.024880 0.257037
-0.027347 0.024876 0.256905
-0.026147 0.024913 0.257201
-0.024937 0.024943 0.257428
-0.023659 0.024906 0.256968
-0.022466 0.024959 0.257436
-0.021256 0.024998 0.257760
-0.019965 0.024940 0.257096
-0.019024 0.025341 0.261158
-0.017858 0.025479 0.262521
-0.016921 0.025988 0.267703
-0.013286 0.026486 0.272657
-0.011317 0.025047 0.257796
-0.010022 0.024931 0.256554
-0.008797 0.024979 0.257008
-0.007552 0.024979 0.256979
-0.006318 0.025022 0.257387
-0.005078 0.025054 0.257686
-0.003843 0.025143 0.258582
-0.002595 0.025193 0.259071
-0.001345 0.025292 0.260069
-0.000084 0.025275 0.259878
0.001178 0.025328 0.260422
0.002457 0.025501 0.262191
0.003845 0.026302 0.270428
0.005156 0.026300 0.270407
0.006466 0.026297 0.270379
0.007626 0.025784 0.265114
0.008855 0.025622 0.263464
0.010145 0.025654 0.263812
0.011310 0.025397 0.261186
0.012602 0.025449 0.261741
0.013923 0.025544 0.262748
0.015270 0.025668 0.264058
0.016490 0.025574 0.263129
0.017840 0.025681 0.264265
0.019354 0.025995 0.267543
0.020561 0.025882 0.266420
0.021791 0.025810 0.265734
0.024617 0.026075 0.268571
0.025021 0.025173 0.259338
0.025944 0.024854 0.256116
0.027193 0.024863 0.256264
0.028399 0.024832 0.256016
0.029631 0.024826 0.256024
0.030911 0.024859 0.256434
0.032174 0.024876 0.256687
0.033464 0.024912 0.257135
0.034653 0.024874 0.256813
0.035890 0.024871 0.256866
0.037361 0.025024 0.258536
0.039170 0.025387 0.262371
0.040925 0.025694 0.265628
0.058053 0.025892 0.269005
0.059266 0.025857 0.268744
0.060549 0.025853 0.268813
0.061950 0.025899 0.269397
0.063160 0.025864 0.269144
0.064353 0.025824 0.268836
0.065685 0.025841 0.269113
0.066957 0.025833 0.269142
0.068224 0.025824 0.269150
0.069495 0.025816 0.269177
0.070624 0.025757 0.268667
0.071332 0.025550 0.266602
0.072032 0.025347 0.264584
0.072959 0.025229 0.263454
0.074296 0.025254 0.263817
0.074861 0.025021 0.261474
0.075633 0.024864 0.259920
0.076830 0.024848 0.259852
0.077811 0.024765 0.259069
0.078997 0.024748 0.258981
0.080314 0.024773 0.259320
0.082027 0.024917 0.260906
0.083786 0.025070 0.262591
0.084758 0.024987 0.261796
0.086556 0.025146 0.263537
0.095548 0.027360 0.286823
0.096757 0.027315 0.286422
0.100697 0.028031 0.294005
0.100911 0.027705 0.290646
0.102038 0.027634 0.289971
0.103585 0.027678 0.290488
0.104774 0.027626 0.289997
0.106167 0.027628 0.290072
0.107463 0.027606 0.289880
0.108760 0.027584 0.289693
0.110459 0.027664 0.290561
0.111562 0.027594 0.289855
0.113005 0.027608 0.290035
0.114599 0.027659 0.290587
0.115905 0.027640 0.290397
0.117476 0.027684 0.290863
0.118987 0.027713 0.291165
0.120203 0.027673 0.290739
0.121312 0.027610 0.290059
0.122811 0.027635 0.290309
0.124291 0.027656 0.290500
0.125800 0.027683 0.290747
0.127157 0.027676 0.290631
0.128311 0.027626 0.290050
0.129660 0.027618 0.289907
0.131054 0.027620 0.289857
0.133016 0.027740 0.291040
0.134569 0.027773 0.291300
0.136068 0.027795 0.291429
0.137349 0.027772 0.291081
0.138758 0.027775 0.290996
0.140190 0.027782 0.290945
0.141468 0.027759 0.290567
0.143121 0.027810 0.290946
0.144807 0.027865 0.291366
0.146133 0.027851 0.291047
0.147089 0.027768 0.289988
0.148675 0.027803 0.290164
0.150492 0.027881 0.290766
0.151923 0.027887 0.290599
-0.042931 0.010281 0.103651
-0.042515 0.010298 0.103820
-0.042538 0.010423 0.105076
-0.042615 0.010565 0.106493
-0.042860 0.010752 0.108366
-0.042522 0.010796 0.108791
-0.042368 0.010887 0.109699
-0.042389 0.011027 0.111089
-0.042506 0.011195 0.112763
-0.042947 0.011455 0.115351
-0.043081 0.011637 0.117165
-0.042985 0.011762 0.118393
-0.042784 0.011861 0.119357
-0.042418 0.011916 0.119878
-0.042939 0.012225 0.122953
-0.043056 0.012426 0.124937
-0.042943 0.012565 0.126297
-0.042734 0.012680 0.127408
-0.042764 0.012870 0.129275
-0.043127 0.013167 0.132212
-0.043069 0.013342 0.133925
-0.042746 0.013440 0.134851
-0.042608 0.013599 0.136398
-0.042577 0.013798 0.138338
-0.042746 0.014069 0.140999
-0.042893 0.014341 0.143666
-0.043081 0.014635 0.146556
-0.043106 0.014884 0.148980
-0.043288 0.015195 0.152034
-0.043324 0.015465 0.154666
-0.043508 0.015798 0.157926
-0.043702 0.016146 0.161334
-0.043694 0.016431 0.164109
-0.043607 0.016696 0.166677
-0.043413 0.016929 0.168924
-0.043388 0.017238 0.171929
-0.043230 0.017505 0.174506
-0.043099 0.017793 0.177300
-0.042980 0.018098 0.180254
-0.042994 0.018473 0.183901
-0.042742 0.018747 0.186534
-0.042750 0.019148 0.190439
-0.042608 0.019498 0.193832
-0.042879 0.020058 0.199298
-0.042723 0.020438 0.202978
-0.042369 0.020739 0.205873
-0.041801 0.020947 0.207842
-0.041233 0.021165 0.209906
-0.040646 0.021385 0.211984
-0.040424 0.021812 0.216117
-0.042334 0.023442 0.232165
-0.041275 0.023472 0.232353
-0.040860 0.023880 0.236289
-0.040491 0.024339 0.240720
-0.040357 0.024970 0.246857
-0.040069 0.025541 0.252391
-0.039824 0.026176 0.258554
-0.038923 0.026407 0.260725
-0.038486 0.026978 0.266257
-0.038206 0.027703 0.273302
-0.036916 0.027721 0.273369
-0.034986 0.027242 0.268539
-0.029729 0.026033 0.256340
-0.028576 0.026107 0.256980
-0.027342 0.026112 0.256934
-0.026084 0.026092 0.256657
-0.024890 0.026138 0.257027
-0.023648 0.026137 0.256933
-0.022377 0.026099 0.256491
-0.021171 0.026139 0.256811
-0.019895 0.026092 0.256278
-0.018980 0.026544 0.260649
-0.017849 0.026737 0.262482
-0.016907 0.027263 0.267577
-0.015276 0.026674 0.261742
-0.014507 0.027620 0.270961
-0.013202 0.027632 0.271026
-0.011348 0.026372 0.258620
-0.010000 0.026119 0.256105
-0.008784 0.026189 0.256746
-0.007536 0.026173 0.256552
-0.006293 0.026170 0.256497
-0.005063 0.026233 0.257083
-0.003831 0.026321 0.257921
-0.002582 0.026321 0.257896
-0.001339 0.026454 0.259184
-0.000083 0.026435 0.258982
0.001185 0.026728 0.261849
0.002456 0.026753 0.262082
0.003876 0.027825 0.272579
0.005197 0.027822 0.272557
0.006405 0.027340 0.267844
0.007545 0.026777 0.262338
0.008765 0.026623 0.260838
0.010062 0.026709 0.261693
0.011217 0.026441 0.259087
0.012530 0.026562 0.260298
0.013873 0.026720 0.261875
0.015177 0.026781 0.262504
0.016514 0.026886 0.263567
0.017815 0.026922 0.263962
0.019337 0.027265 0.267366
0.020524 0.027121 0.266003
0.021679 0.026955 0.264423
0.025000 0.026405 0.259185
0.025939 0.026087 0.256124
0.027204 0.026111 0.256429
0.028408 0.026077 0.256154
0.029602 0.026037 0.255833
0.030852 0.026048 0.256007
0.032082 0.026041 0.256012
0.033357 0.026070 0.256376
0.034553 0.026038 0.256135
0.035799 0.026043 0.256271
0.037169 0.026135 0.257260
0.038708 0.026338 0.259336
0.039952 0.026332 0.259364
0.056589 0.026497 0.262267
0.058633 0.026856 0.265922
0.060418 0.027083 0.268281
0.061736 0.027096 0.268513
0.063055 0.027108 0.268742
0.064444 0.027149 0.269258
0.065699 0.027134 0.269213
0.067014 0.027143 0.269410
0.068375 0.027171 0.269787
0.069612 0.027149 0.269671
0.070744 0.027087 0.269160
0.071392 0.026846 0.266864
0.072162 0.026658 0.265096
0.073324 0.026619 0.264806
0.074360 0.026536 0.264078
0.074808 0.026249 0.261320
0.075357 0.026007 0.259001
0.076444 0.025956 0.258577
0.077187 0.025791 0.257020
0.078212 0.025724 0.256436
0.079491 0.025741 0.256688
0.080443 0.025654 0.255894
0.081922 0.025734 0.256772
0.083297 0.025780 0.257306
0.084670 0.025824 0.257816
0.085917 0.025829 0.257931
0.099269 0.029421 0.293880
0.100505 0.029372 0.293464
0.100916 0.029087 0.290678
0.102077 0.029023 0.290097
0.103270 0.028969 0.289620
0.104598 0.028954 0.289524
0.105866 0.028924 0.289263
0.107125 0.028891 0.288980
0.108465 0.028881 0.288916
0.109849 0.028882 0.288965
0.111727 0.029012 0.290291
0.113609 0.029140 0.291589
0.114849 0.029101 0.291223
0.115907 0.029019 0.290406
0.117443 0.029056 0.290781
0.118789 0.029046 0.290678
0.120222 0.029057 0.290781
0.121508 0.029033 0.290523
0.123010 0.029060 0.290773
0.124267 0.029030 0.290437
0.125669 0.029033 0.290434
0.127197 0.029066 0.290712
0.128411 0.029026 0.290263
0.129687 0.029001 0.289953
0.131128 0.029014 0.290005
0.133165 0.029156 0.291348
0.134735 0.029194 0.291640
0.136322 0.029236 0.291952
0.137612 0.029213 0.291614
0.139064 0.029224 0.291612
0.140393 0.029210 0.291339
0.141703 0.029192 0.291020
0.143356 0.029245 0.291393
0.144799 0.029253 0.291317
0.146122 0.029238 0.290990
0.147542 0.029242 0.290844
0.149350 0.029323 0.291444
0.150656 0.029304 0.291041
0.151898 0.029273 0.290507
-0.040509 0.010162 0.097805
-0.042086 0.010679 0.102774
-0.041988 0.010777 0.103719
-0.042985 0.011163 0.107419
-0.042902 0.011274 0.108476
-0.042718 0.011361 0.109297
-0.042437 0.011423 0.109882
-0.042093 0.011470 0.110316
-0.042003 0.011589 0.111436
-0.042196 0.011789 0.113340
-0.042919 0.012145 0.116733
-0.042659 0.012228 0.117503
-0.042257 0.012271 0.117894
-0.042329 0.012456 0.119635
-0.042381 0.012639 0.121364
-0.042640 0.012891 0.123742
-0.043135 0.013221 0.126873
-0.042998 0.013364 0.128208
-0.043065 0.013576 0.130198
-0.043021 0.013759 0.131902
-0.042940 0.013934 0.133540
-0.042687 0.014059 0.134681
-0.042687 0.014271 0.136666
-0.042658 0.014481 0.138618
-0.042900 0.014790 0.141525
-0.042719 0.014961 0.143103
-0.042863 0.015253 0.145836
-0.042597 0.015406 0.147241
-0.043038 0.015825 0.151177
-0.043284 0.016185 0.154549
-0.043473 0.016535 0.157826
-0.043694 0.016910 0.161335
-0.043609 0.017178 0.163815
-0.043406 0.017408 0.165937
-0.043328 0.017699 0.168627
-0.043208 0.017982 0.171246
-0.043076 0.018271 0.173918
-0.042819 0.018517 0.176183
-0.042923 0.018933 0.180051
-0.042987 0.019347 0.183907
-0.043044 0.019776 0.187891
-0.042957 0.020155 0.191405
-0.042965 0.020596 0.195500
-0.042850 0.020996 0.199209
-0.042794 0.021444 0.203362
-0.042281 0.021679 0.205492
-0.041826 0.021955 0.208016
-0.041228 0.022168 0.209930
-0.040644 0.022399 0.212024
-0.040548 0.022918 0.216833
-0.041290 0.023950 0.226499
-0.041370 0.024643 0.232950
-0.040945 0.025066 0.236839
-0.040609 0.025569 0.241484
-0.040452 0.026217 0.247501
-0.040181 0.026829 0.253167
-0.039803 0.027405 0.258492
-0.038990 0.027709 0.261248
-0.038351 0.028161 0.265403
-0.038154 0.028980 0.273010
-0.036807 0.028952 0.272641
-0.035531 0.028981 0.272807
-0.029838 0.027370 0.257362
-0.028607 0.027378 0.257342
-0.027379 0.027389 0.257366
-0.026152 0.027404 0.257418
-0.024934 0.027429 0.257573
-0.023693 0.027430 0.257505
-0.022465 0.027448 0.257598
-0.021226 0.027454 0.257577
-0.019965 0.027429 0.257275
-0.018913 0.027708 0.259829
-0.017806 0.027940 0.261939
-0.016926 0.028591 0.267980
-0.015267 0.027927 0.261697
-0.013190 0.028920 0.270893
-0.011287 0.027477 0.257330
-0.010071 0.027557 0.258033
-0.008838 0.027606 0.258453
-0.007586 0.027600 0.258359
-0.006339 0.027618 0.258502
-0.005097 0.027666 0.258921
-0.003844 0.027675 0.258980
-0.002590 0.027672 0.258926
-0.001342 0.027799 0.260103
-0.000082 0.027677 0.258942
0.001187 0.028005 0.262008
0.002456 0.028005 0.261999
0.003857 0.028991 0.271220
0.005170 0.028988 0.271198
0.006316 0.028234 0.264149
0.007530 0.027988 0.261852
0.008743 0.027813 0.260226
0.010010 0.027829 0.260391
0.011235 0.027737 0.259549
0.012540 0.027843 0.260564
0.013835 0.027908 0.261204
0.015190 0.028074 0.262785
0.016533 0.028192 0.263927
0.017814 0.028196 0.264004
0.019328 0.028544 0.267307
0.020527 0.028412 0.266109
0.021518 0.028024 0.262529
0.024896 0.027542 0.258169
0.025947 0.027332 0.256263
0.027190 0.027335 0.256352
0.028431 0.027336 0.256426
0.029655 0.027321 0.256357
0.030879 0.027307 0.256288
0.032121 0.027309 0.256387
0.033369 0.027316 0.256527
0.034657 0.027354 0.256960
0.035822 0.027296 0.256497
0.037111 0.027333 0.256923
0.038735 0.027606 0.259574
0.039947 0.027578 0.259393
0.058503 0.028693 0.271192
0.059066 0.028338 0.267935
0.060661 0.028482 0.269406
0.062132 0.028564 0.270282
0.063213 0.028466 0.269463
0.064485 0.028456 0.269476
0.065842 0.028484 0.269842
0.067108 0.028472 0.269831
0.068357 0.028453 0.269760
0.069657 0.028455 0.269884
0.070865 0.028421 0.269662
0.071568 0.028189 0.267560
0.072126 0.027909 0.265001
0.073042 0.027775 0.263821
0.074281 0.027766 0.263832
0.074643 0.027435 0.260780
0.075037 0.027126 0.257932
0.076060 0.027052 0.257309
0.077005 0.026952 0.256443
0.078125 0.026915 0.256176
0.079360 0.026918 0.256290
0.080654 0.026942 0.256588
0.082239 0.027060 0.257790
0.083509 0.027072 0.257982
0.085120 0.027194 0.259207
0.086216 0.027149 0.258849
0.099483 0.030454 0.290498
0.100493 0.030340 0.289478
0.101947 0.030362 0.289746
0.103358 0.030370 0.289882
0.104504 0.030302 0.289277
0.105820 0.030284 0.289150
0.107267 0.030303 0.289374
0.108411 0.030237 0.288782
0.110635 0.030470 0.291041
0.111839 0.030420 0.290588
0.112318 0.030177 0.288282
0.114543 0.030402 0.290452
0.115919 0.030400 0.290438
0.117377 0.030419 0.290619
0.119085 0.030501 0.291402
0.120207 0.030433 0.290742
0.121361 0.030375 0.290167
0.122704 0.030365 0.290042
0.124166 0.030384 0.290192
0.125765 0.030435 0.290646
0.126978 0.030394 0.290198
0.128335 0.030387 0.290077
0.129726 0.030388 0.290025
0.131397 0.030454 0.290582
0.133123 0.030531 0.291237
0.134505 0.030529 0.291121
0.136062 0.030566 0.291371
0.137472 0.030569 0.291294
0.138915 0.030580 0.291271
0.140322 0.030582 0.291164
0.141515 0.030538 0.290604
0.143231 0.030607 0.291105
0.145394 0.030769 0.292480
0.146990 0.030809 0.292682
0.148141 0.030756 0.291985
0.149499 0.030746 0.291691
0.150965 0.030759 0.291594
0.152021 0.030688 0.290695
-0.042710 0.011200 0.103121
-0.042296 0.011219 0.103289
-0.042548 0.011417 0.105105
-0.042769 0.011611 0.106883
-0.043078 0.011833 0.108923
-0.042631 0.011852 0.109078
-0.042224 0.011881 0.109336
-0.042035 0.011974 0.110172
-0.042031 0.012122 0.111515
-0.042268 0.012345 0.113540
-0.042526 0.012579 0.115669
-0.042585 0.012760 0.117307
-0.042267 0.012831 0.117932
-0.041656 0.012814 0.117743
-0.042393 0.013217 0.121412
-0.043232 0.013662 0.125471
-0.043484 0.013933 0.127915
-0.043070 0.013994 0.128437
-0.042795 0.014103 0.129396
-0.042909 0.014345 0.131571
-0.043019 0.014593 0.133800
-0.042816 0.014740 0.135103
-0.042803 0.014959 0.137057
-0.042815 0.015193 0.139147
-0.042750 0.015407 0.141048
-0.042763 0.015655 0.143270
-0.042857 0.015943 0.145840
-0.042910 0.016223 0.148346
-0.042869 0.016478 0.150610
-0.043258 0.016908 0.154480
-0.043654 0.017357 0.158509
-0.043660 0.017664 0.161238
-0.043606 0.017956 0.163836
-0.043478 0.018228 0.166246
-0.043404 0.018533 0.168953
-0.043091 0.018746 0.170816
-0.042878 0.019012 0.173155
-0.042706 0.019306 0.175756
-0.042684 0.019681 0.179088
-0.043037 0.020248 0.184162
-0.043334 0.020812 0.189199
-0.042846 0.021014 0.190951
-0.042855 0.021475 0.195046
-0.042683 0.021863 0.198478
-0.042643 0.022338 0.202696
-0.042236 0.022638 0.205326
-0.041806 0.022940 0.207966
-0.041114 0.023109 0.209406
-0.040516 0.023341 0.211413
-0.040372 0.023853 0.215952
-0.041262 0.025019 0.226404
-0.041103 0.025595 0.231511
-0.041013 0.026247 0.237302
-0.040602 0.026724 0.241511
-0.040402 0.027373 0.247265
-0.040125 0.028007 0.252886
-0.039696 0.028571 0.257875
-0.038922 0.028915 0.260873
-0.038209 0.029330 0.264503
-0.038088 0.030242 0.272620
-0.036542 0.030048 0.270769
-0.034851 0.029716 0.267673
-0.034963 0.030954 0.278725
-0.029840 0.028614 0.257465
-0.028571 0.028583 0.257102
-0.027300 0.028550 0.256714
-0.026068 0.028555 0.256677
-0.024888 0.028621 0.257190
-0.023626 0.028594 0.256872
-0.022393 0.028601 0.256858
-0.021176 0.028631 0.257058
-0.019911 0.028596 0.256673
-0.018941 0.029009 0.260311
-0.017884 0.029337 0.263189
-0.016910 0.029862 0.267842
-0.015254 0.029169 0.261562
-0.013996 0.029182 0.261631
0.001189 0.029292 0.262250
0.002459 0.029292 0.262242
0.005242 0.030714 0.274971
0.006214 0.029035 0.259942
0.007445 0.028922 0.258939
0.008662 0.028797 0.257841
0.009931 0.028855 0.258375
0.011156 0.028789 0.257800
0.012444 0.028878 0.258619
0.013729 0.028947 0.259264
0.015057 0.029086 0.260540
0.016351 0.029144 0.261092
0.017675 0.029243 0.262017
0.019033 0.029380 0.263286
0.020275 0.029333 0.262912
0.021510 0.029281 0.262494
0.024986 0.028893 0.259169
0.025972 0.028598 0.256581
0.027181 0.028563 0.256336
0.028403 0.028545 0.256238
0.029661 0.028564 0.256468
0.030884 0.028548 0.256396
0.032149 0.028571 0.256678
0.033446 0.028619 0.257181
0.034773 0.028689 0.257890
0.035984 0.028661 0.257715
0.037304 0.028720 0.258324
0.038734 0.028856 0.259629
0.042646 0.030774 0.276986
0.043936 0.030742 0.276788
0.044729 0.030373 0.273563
0.045828 0.030228 0.272350
0.047451 0.030427 0.274239
0.048464 0.030234 0.272599
0.049578 0.030114 0.271610
0.050689 0.029997 0.270658
0.052074 0.030044 0.271184
0.053369 0.030038 0.271230
0.054698 0.030051 0.271452
0.055884 0.029986 0.270974
0.057154 0.029969 0.270920
0.058464 0.029973 0.271062
0.059570 0.029874 0.270274
0.060924 0.029902 0.270627
0.062266 0.029922 0.270912
0.063566 0.029922 0.271015
0.064750 0.029868 0.270630
0.066048 0.029868 0.270734
0.067303 0.029848 0.270660
0.068544 0.029824 0.270540
0.069877 0.029839 0.270783
0.071028 0.029777 0.270323
0.071793 0.029559 0.268440
0.072460 0.029309 0.266268
0.073541 0.029232 0.265662
0.074502 0.029110 0.264651
0.074634 0.028675 0.260780
0.074631 0.028202 0.256570
0.075944 0.028234 0.256948
0.076845 0.028114 0.255939
0.077799 0.028017 0.255136
0.079086 0.028041 0.255433
0.080221 0.028012 0.255237
0.081883 0.028164 0.256698
0.082929 0.028103 0.256213
0.084949 0.028369 0.258709
0.086043 0.028323 0.258352
0.099987 0.031996 0.291992
0.100471 0.031709 0.289434
0.101765 0.031682 0.289246
0.103150 0.031683 0.289315
0.105685 0.031616 0.288794
0.107168 0.031647 0.289118
0.108725 0.031699 0.289627
0.110284 0.031750 0.290125
0.111625 0.031738 0.290038
0.113341 0.031832 0.290910
0.114571 0.031788 0.290526
0.115845 0.031758 0.290251
0.117284 0.031773 0.290388
0.118600 0.031754 0.290212
0.119997 0.031757 0.290230
0.121101 0.031684 0.289539
0.122647 0.031727 0.289901
0.123998 0.031718 0.289791
0.125415 0.031727 0.289826
0.126964 0.031768 0.290153
0.128128 0.031713 0.289596
0.129344 0.031672 0.289153
0.131614 0.031888 0.291044
0.132500 0.031766 0.289853
0.134553 0.031925 0.291203
0.135850 0.031902 0.290893
