ply
format ascii 1.0
element vertex 1751
property float x
property float y
property float z
end_header
-0.023881 0.006342 0.258564
-0.022627 0.006342 0.258454
-0.021458 0.006366 0.259373
-0.020221 0.006372 0.259543
-0.019059 0.006405 0.260776
-0.017722 0.006378 0.259641
-0.017095 0.006623 0.269529
-0.015440 0.006477 0.263530
-0.011574 0.006460 0.262654
-0.010215 0.006408 0.260489
-0.008996 0.006441 0.261780
-0.007706 0.006425 0.261103
-0.006427 0.006414 0.260628
-0.005175 0.006431 0.261288
-0.003903 0.006428 0.261124
-0.002646 0.006457 0.262275
-0.001367 0.006437 0.261465
-0.000097 0.006503 0.264126
0.001209 0.006623 0.268967
0.002458 0.006468 0.262702
0.006437 0.006620 0.268852
0.007414 0.006337 0.257390
0.008623 0.006306 0.256139
0.009954 0.006360 0.258365
0.011129 0.006314 0.256503
0.012425 0.006339 0.257545
0.013702 0.006350 0.258037
0.015021 0.006378 0.259196
0.016326 0.006395 0.259946
0.017633 0.006411 0.260623
0.019102 0.006479 0.263464
0.020440 0.006498 0.264259
0.021687 0.006487 0.263859
0.025008 0.006353 0.258611
0.025947 0.006276 0.255558
0.027155 0.006269 0.255321
0.028457 0.006282 0.255957
0.029642 0.006270 0.255538
0.030877 0.006269 0.255573
0.032115 0.006269 0.255640
0.033355 0.006269 0.255729
0.034634 0.006276 0.256107
0.035849 0.006271 0.256004
0.037129 0.006278 0.256370
0.038455 0.006291 0.257028
0.039725 0.006295 0.257288
0.054775 0.006769 0.277680
0.053137 0.006409 0.263055
0.054604 0.006432 0.264128
0.055904 0.006435 0.264367
0.057452 0.006466 0.265746
0.059632 0.006565 0.269934
0.061213 0.006595 0.271298
0.062397 0.006582 0.270887
0.063610 0.006572 0.270620
0.064900 0.006571 0.270689
0.066134 0.006564 0.270531
0.067357 0.006556 0.270334
0.068620 0.006553 0.270312
0.069839 0.006545 0.270120
0.071297 0.006560 0.270846
0.072592 0.006559 0.270939
0.073702 0.006542 0.270356
0.074880 0.006531 0.270041
0.076004 0.006516 0.269545
0.077190 0.006507 0.269281
0.078456 0.006505 0.269306
0.079673 0.006499 0.269163
0.080937 0.006497 0.269182
0.082347 0.006506 0.269681
0.083887 0.006525 0.270583
0.085639 0.006560 0.272132
0.086862 0.006554 0.271981
0.088392 0.006571 0.272781
0.090181 0.006606 0.274345
0.095085 0.006865 0.285207
0.099221 0.007062 0.293496
0.099686 0.006996 0.290848
0.100975 0.006989 0.290639
0.102245 0.006981 0.290381
0.103473 0.006970 0.290008
0.104812 0.006966 0.289952
0.106765 0.007003 0.291567
0.107880 0.006985 0.290881
0.109305 0.006987 0.291032
0.110565 0.006979 0.290743
0.112785 0.007031 0.292949
0.114089 0.007024 0.292747
0.115075 0.006999 0.291739
0.116305 0.006989 0.291359
0.117758 0.006993 0.291533
0.118784 0.006971 0.290656
0.120029 0.006962 0.290320
0.121274 0.006954 0.289984
0.122569 0.006949 0.289769
0.124452 0.006976 0.290924
0.125880 0.006978 0.290994
0.127166 0.006972 0.290729
0.128363 0.006961 0.290260
0.129782 0.006963 0.290289
0.131115 0.006960 0.290116
0.132399 0.006954 0.289829
0.134014 0.006966 0.290256
0.135610 0.006976 0.290622
0.137127 0.006982 0.290801
0.138568 0.006984 0.290804
0.139899 0.006981 0.290565
0.141147 0.006973 0.290150
0.143604 0.007025 0.292188
0.145387 0.007043 0.292813
0.146863 0.007046 0.292800
0.148412 0.007052 0.292914
0.149766 0.007049 0.292630
0.151378 0.007058 0.292834
0.152397 0.007040 0.291881
-0.147921 0.007995 0.278982
-0.148015 0.008072 0.281856
-0.147927 0.008141 0.284420
-0.145400 0.008076 0.282283
-0.143526 0.008046 0.281372
-0.141858 0.008027 0.280834
-0.140112 0.008003 0.280118
-0.136363 0.007863 0.275328
-0.135623 0.007896 0.276568
-0.134482 0.007906 0.276997
-0.132613 0.007873 0.275906
-0.132814 0.007963 0.279132
-0.131322 0.007953 0.278821
-0.129453 0.007919 0.277684
-0.123301 0.008030 0.281712
-0.122288 0.008051 0.282434
-0.122125 0.008129 0.285149
-0.121852 0.008201 0.287661
-0.120544 0.008204 0.287749
-0.118778 0.008176 0.286729
-0.118075 0.008221 0.288272
-0.116426 0.008201 0.287512
-0.115831 0.008255 0.289361
-0.114909 0.008287 0.290422
-0.114752 0.008375 0.293460
-0.114430 0.008454 0.296140
-0.114035 0.008529 0.298691
-0.113957 0.008630 0.302141
-0.113026 0.008668 0.303382
-0.112010 0.008700 0.304421
-0.111292 0.008757 0.306303
-0.110281 0.008791 0.307414
-0.108315 0.008750 0.305855
-0.106626 0.008730 0.305047
-0.105044 0.008718 0.304526
-0.106907 0.008996 0.314111
-0.074512 0.008851 0.305922
-0.073015 0.008846 0.305602
-0.071649 0.008857 0.305833
-0.064867 0.008186 0.282493
-0.062963 0.008115 0.279880
-0.060736 0.007997 0.275692
-0.059143 0.007960 0.274274
-0.057802 0.007957 0.273992
-0.056634 0.007977 0.274546
-0.055308 0.007975 0.274342
-0.054042 0.007982 0.274446
-0.052742 0.007985 0.274386
-0.051504 0.007997 0.274662
-0.050240 0.008005 0.274818
-0.048948 0.008010 0.274835
-0.047679 0.008019 0.274990
-0.046437 0.008032 0.275327
-0.045132 0.008036 0.275311
-0.043859 0.008045 0.275501
-0.043598 0.008247 0.282262
-0.042861 0.008368 0.286287
-0.041297 0.008331 0.284884
-0.039229 0.008186 0.279800
-0.037193 0.008037 0.274604
-0.035587 0.007974 0.272328
-0.035173 0.008184 0.279365
-0.034155 0.008264 0.281983
-0.030669 0.007728 0.263611
-0.028811 0.007575 0.258267
-0.027572 0.007577 0.258265
-0.026174 0.007534 0.256704
-0.024961 0.007543 0.256909
-0.023785 0.007564 0.257546
-0.022599 0.007585 0.258154
-0.021458 0.007624 0.259395
-0.020230 0.007634 0.259683
-0.019086 0.007680 0.261173
-0.017902 0.007716 0.262301
-0.017091 0.007929 0.269494
-0.015577 0.007825 0.265892
-0.011508 0.007692 0.261202
-0.010318 0.007751 0.263146
-0.009099 0.007800 0.264794
-0.007753 0.007740 0.262710
-0.006498 0.007766 0.263535
-0.005226 0.007778 0.263942
-0.003951 0.007792 0.264390
-0.002688 0.007857 0.266543
-0.001382 0.007798 0.264536
-0.000097 0.007850 0.266269
0.001209 0.007928 0.268932
0.002473 0.007793 0.264321
0.006436 0.007925 0.268817
0.007416 0.007590 0.257468
0.008627 0.007554 0.256251
0.009904 0.007577 0.257075
0.011135 0.007565 0.256666
0.012383 0.007564 0.256687
0.013665 0.007583 0.257357
0.014988 0.007620 0.258646
0.016252 0.007623 0.258791
0.017569 0.007649 0.259701
0.018953 0.007698 0.261425
0.020381 0.007758 0.263512
0.021664 0.007759 0.263606
0.025095 0.008038 0.273187
0.025010 0.007608 0.258649
0.025968 0.007522 0.255781
0.027219 0.007524 0.255939
0.028436 0.007518 0.255788
0.029689 0.007520 0.255958
0.030931 0.007520 0.256044
0.032123 0.007509 0.255721
0.033382 0.007513 0.255957
0.034687 0.007527 0.256514
0.035768 0.007493 0.255445
0.037061 0.007504 0.255917
0.038560 0.007554 0.257742
0.039765 0.007546 0.257559
0.051329 0.007987 0.273380
0.052581 0.007976 0.273142
0.053346 0.007894 0.270452
0.054506 0.007873 0.269850
0.055626 0.007847 0.269087
0.056547 0.007795 0.267422
0.057713 0.007779 0.266969
0.059380 0.007829 0.268808
0.061164 0.007892 0.271098
0.062452 0.007889 0.271139
0.063564 0.007865 0.270440
0.064856 0.007864 0.270518
0.066067 0.007853 0.270268
0.067281 0.007843 0.270043
0.068570 0.007842 0.270126
0.069802 0.007834 0.269987
0.071147 0.007840 0.270289
0.072430 0.007838 0.270349
0.073710 0.007836 0.270397
0.074962 0.007831 0.270347
0.076285 0.007833 0.270553
0.077536 0.007829 0.270499
0.078877 0.007833 0.270761
0.080039 0.007819 0.270410
0.081423 0.007828 0.270808
0.082712 0.007827 0.270885
0.084041 0.007830 0.271089
0.085565 0.007850 0.271908
0.086881 0.007851 0.272051
0.088480 0.007878 0.273061
0.089989 0.007895 0.273768
0.097869 0.008464 0.293568
0.099103 0.008449 0.293154
0.099314 0.008349 0.289770
0.100957 0.008370 0.290594
0.102389 0.008373 0.290797
0.103434 0.008345 0.289904
0.105170 0.008373 0.290946
0.106315 0.008354 0.290344
0.109115 0.008355 0.290531
0.110422 0.008349 0.290371
0.111721 0.008342 0.290189
0.112825 0.008321 0.289507
0.114460 0.008340 0.290181
0.115568 0.008319 0.289514
0.116881 0.008314 0.289364
0.118509 0.008331 0.289983
0.119719 0.008319 0.289570
0.120634 0.008287 0.288454
0.123198 0.008367 0.291255
0.124574 0.008366 0.291209
0.125786 0.008354 0.290776
0.127048 0.008345 0.290458
0.128467 0.008347 0.290492
0.129710 0.008337 0.290125
0.130955 0.008328 0.289759
0.132473 0.008336 0.289989
0.133790 0.008331 0.289766
0.135332 0.008341 0.290022
0.136819 0.008346 0.290142
0.139057 0.008397 0.291824
0.139608 0.008346 0.289955
0.141883 0.008398 0.291657
0.143317 0.008400 0.291597
0.145294 0.008433 0.292619
0.146623 0.008429 0.292314
0.148136 0.008434 0.292362
0.149678 0.008442 0.292449
0.151024 0.008438 0.292140
0.153124 0.008476 0.293264
-0.147914 0.009487 0.284386
-0.138641 0.008974 0.269152
-0.143513 0.009376 0.281337
-0.111275 0.010201 0.306265
-0.109606 0.010181 0.305541
-0.108829 0.010243 0.307316
-0.107730 0.010277 0.308216
-0.107183 0.010365 0.310738
-0.106889 0.010480 0.314071
-0.106416 0.010580 0.316960
-0.075834 0.010293 0.305552
-0.074497 0.010309 0.305880
-0.073000 0.010304 0.305560
-0.071634 0.010317 0.305791
-0.070258 0.010329 0.305995
-0.070443 0.010576 0.313152
-0.064979 0.010189 0.301359
-0.063631 0.010204 0.301646
-0.062067 0.010184 0.300904
-0.060580 0.010177 0.300522
-0.059224 0.010191 0.300792
-0.046766 0.009700 0.285303
-0.045449 0.009712 0.285516
-0.043568 0.009600 0.282098
-0.042198 0.009598 0.281886
-0.040872 0.009605 0.281976
-0.039318 0.009558 0.280460
-0.038036 0.009575 0.280852
-0.035191 0.009186 0.269327
-0.035167 0.009532 0.279347
-0.034035 0.009593 0.281017
-0.030573 0.008975 0.262813
-0.028753 0.008806 0.257777
-0.027485 0.008799 0.257474
-0.026146 0.008768 0.256459
-0.024943 0.008781 0.256753
-0.023760 0.008803 0.257312
-0.022526 0.008807 0.257348
-0.021427 0.008868 0.259055
-0.020197 0.008879 0.259287
-0.019046 0.008928 0.260652
-0.017788 0.008931 0.260659
-0.017134 0.009260 0.270207
-0.015494 0.009067 0.264518
-0.014218 0.009072 0.264589
0.001189 0.009075 0.264289
0.002473 0.009075 0.264280
0.003814 0.009210 0.268206
0.006212 0.008910 0.259474
0.007397 0.008818 0.256806
0.008617 0.008789 0.255981
0.009875 0.008801 0.256360
0.011105 0.008788 0.255985
0.012355 0.008792 0.256127
0.013612 0.008799 0.256383
0.014887 0.008816 0.256918
0.016164 0.008832 0.257411
0.017538 0.008894 0.259262
0.018839 0.008913 0.259872
0.020311 0.009006 0.262625
0.021616 0.009018 0.263034
0.023779 0.009367 0.273263
0.025089 0.009361 0.273146
0.024756 0.008773 0.256051
0.026030 0.008783 0.256416
0.027289 0.008787 0.256619
0.028461 0.008765 0.256035
0.029721 0.008770 0.256262
0.030933 0.008761 0.256081
0.032182 0.008763 0.256218
0.033421 0.008762 0.256275
0.034660 0.008761 0.256337
0.035799 0.008736 0.255685
0.037066 0.008742 0.255971
0.038488 0.008784 0.257285
0.040282 0.008905 0.260930
0.043786 0.009386 0.275112
0.045066 0.009375 0.274906
0.045776 0.009249 0.271336
0.047364 0.009304 0.273037
0.048995 0.009363 0.274895
0.050039 0.009310 0.273452
0.051189 0.009279 0.272655
0.052724 0.009317 0.273904
0.053975 0.009305 0.273658
0.054956 0.009248 0.272097
0.055991 0.009202 0.270873
0.057397 0.009218 0.271462
0.058469 0.009181 0.270483
0.059163 0.009087 0.267847
0.060832 0.009144 0.269640
0.062396 0.009183 0.270914
0.063564 0.009163 0.270455
0.064769 0.009149 0.270171
0.066150 0.009160 0.270625
0.067400 0.009153 0.270537
0.068665 0.009149 0.270514
0.069958 0.009148 0.270606
0.071291 0.009152 0.270850
0.072558 0.009147 0.270838
0.073931 0.009156 0.271220
0.075165 0.009148 0.271093
0.076463 0.009148 0.271197
0.077752 0.009146 0.271266
0.078990 0.009139 0.271161
0.080236 0.009133 0.271087
0.081556 0.009135 0.271262
0.082879 0.009137 0.271443
0.084188 0.009138 0.271573
0.085660 0.009156 0.272219
0.086884 0.009148 0.272068
0.088352 0.009165 0.272674
0.089921 0.009192 0.273569
0.097549 0.009829 0.292615
0.098778 0.009812 0.292203
0.099640 0.009759 0.290727
0.100945 0.009751 0.290569
0.104717 0.009714 0.289700
0.106504 0.009751 0.290866
0.107827 0.009745 0.290748
0.109101 0.009734 0.290497
0.110274 0.009715 0.289985
0.111657 0.009715 0.290027
0.112858 0.009699 0.289595
0.114058 0.009683 0.289164
0.115462 0.009685 0.289251
0.116611 0.009666 0.288698
0.118681 0.009722 0.290407
0.119955 0.009713 0.290142
0.121664 0.009738 0.290918
0.123477 0.009772 0.291914
0.124745 0.009762 0.291607
0.125927 0.009745 0.291101
0.127268 0.009741 0.290959
0.128551 0.009733 0.290680
0.129838 0.009725 0.290407
0.131222 0.009724 0.290347
0.132562 0.009721 0.290179
0.134145 0.009734 0.290530
0.135828 0.009755 0.291080
0.137196 0.009753 0.290935
0.138993 0.009781 0.291684
0.140165 0.009765 0.291106
0.141375 0.009752 0.290604
0.143178 0.009780 0.291307
0.144840 0.009797 0.291695
0.146480 0.009813 0.292019
0.148145 0.009830 0.292370
0.149700 0.009840 0.292481
0.151247 0.009848 0.292560
0.152208 0.009819 0.291497
-0.107430 0.011861 0.311466
-0.106148 0.011882 0.311905
-0.106396 0.012078 0.316913
-0.077519 0.011567 0.301122
-0.076209 0.011586 0.301456
-0.075685 0.011727 0.304972
-0.075300 0.011896 0.309203
-0.073949 0.011916 0.309558
-0.072866 0.011981 0.311076
-0.071841 0.012058 0.312917
-0.070426 0.012071 0.313102
-0.064155 0.011745 0.304158
-0.062791 0.011762 0.304442
-0.061421 0.011779 0.304720
-0.044171 0.010161 0.261946
-0.042966 0.010174 0.262146
-0.041883 0.010217 0.263138
-0.041855 0.010529 0.271033
-0.040752 0.010581 0.272261
-0.039988 0.010728 0.275911
-0.038894 0.010793 0.277468
-0.037930 0.010900 0.280105
-0.036618 0.010912 0.280279
-0.034927 0.010807 0.277473
-0.033908 0.010910 0.280005
-0.030067 0.010076 0.258492
-0.028777 0.010062 0.258026
-0.027481 0.010044 0.257469
-0.026307 0.010070 0.258068
-0.024979 0.010038 0.257153
-0.023864 0.010093 0.258467
-0.022625 0.010098 0.258524
-0.021421 0.010121 0.259019
-0.020233 0.010154 0.259784
-0.019037 0.010187 0.260572
-0.017917 0.010269 0.262595
-0.017093 0.010546 0.269605
-0.015307 0.010226 0.261361
-0.014033 0.010221 0.261178
-0.000100 0.010843 0.276658
0.001177 0.010257 0.261699
0.002437 0.010204 0.260343
0.003813 0.010510 0.268158
0.005145 0.010569 0.269659
0.006233 0.010204 0.260345
0.007412 0.010086 0.257344
0.008632 0.010050 0.256445
0.009903 0.010075 0.257107
0.011120 0.010045 0.256367
0.012347 0.010030 0.255999
0.013622 0.010052 0.256596
0.014790 0.009998 0.255260
0.016028 0.009997 0.255269
0.017315 0.010024 0.255984
0.018812 0.010161 0.259533
0.020239 0.010245 0.261726
0.021625 0.010299 0.263168
0.023902 0.010748 0.274710
0.025220 0.010741 0.274593
0.026535 0.010734 0.274469
0.026055 0.010036 0.256691
0.027311 0.010040 0.256856
0.028548 0.010036 0.256841
0.029708 0.010007 0.256169
0.030950 0.010007 0.256247
0.032171 0.010000 0.256151
0.033418 0.010001 0.256271
0.034665 0.010003 0.256396
0.035843 0.009985 0.256023
0.037103 0.009990 0.256253
0.038479 0.010025 0.257248
0.040271 0.010163 0.260886
0.041663 0.010195 0.261793
0.043005 0.010212 0.262352
0.043953 0.010138 0.260555
0.044771 0.010039 0.258110
0.045846 0.010002 0.257246
0.047068 0.009997 0.257238
0.048047 0.009942 0.255943
0.049327 0.009951 0.256280
0.050669 0.009972 0.256919
0.052017 0.009993 0.257564
0.053565 0.010050 0.259157
0.055073 0.010097 0.260489
0.056307 0.010093 0.260505
0.058128 0.010192 0.263177
0.060515 0.010384 0.268256
0.062278 0.010463 0.270420
0.063521 0.010454 0.270291
0.064711 0.010436 0.269947
0.066124 0.010454 0.270537
0.067412 0.010452 0.270601
0.068683 0.010447 0.270602
0.069997 0.010449 0.270774
0.071329 0.010454 0.271010
0.072612 0.010451 0.271058
0.073909 0.010450 0.271157
0.075171 0.010445 0.271128
0.076399 0.010435 0.270983
0.077657 0.010429 0.270947
0.078864 0.010417 0.270744
0.080178 0.010419 0.270905
0.081541 0.010427 0.271227
0.082880 0.010432 0.271461
0.084255 0.010441 0.271803
0.085776 0.010468 0.272600
0.086961 0.010454 0.272320
0.088393 0.010469 0.272812
0.089993 0.010503 0.273799
0.098144 0.011290 0.294409
0.099381 0.011270 0.293995
0.099620 0.011140 0.290679
0.101107 0.011151 0.291042
0.102409 0.011141 0.290868
0.103480 0.011107 0.290048
0.105473 0.011171 0.291800
0.106658 0.011149 0.291292
0.107870 0.011130 0.290869
0.109036 0.011107 0.290332
0.110551 0.011120 0.290719
0.111619 0.011088 0.289932
0.112572 0.011046 0.288865
0.114354 0.011085 0.289917
0.115495 0.011061 0.289337
0.118319 0.011198 0.292930
0.119342 0.011162 0.292024
0.120584 0.011148 0.291666
0.121833 0.011135 0.291324
0.123294 0.011141 0.291483
0.124531 0.011127 0.291107
0.126072 0.011140 0.291435
0.127458 0.011139 0.291390
0.128722 0.011128 0.291064
0.130041 0.011122 0.290859
0.131354 0.011115 0.290633
0.132715 0.011112 0.290509
0.134159 0.011117 0.290556
0.135596 0.011120 0.290575
0.136944 0.011117 0.290395
0.138444 0.011125 0.290524
0.139924 0.011132 0.290597
0.141557 0.011150 0.290970
0.143334 0.011180 0.291615
0.144819 0.011186 0.291643
0.146182 0.011183 0.291413
0.147657 0.011189 0.291394
0.149452 0.011218 0.291985
0.151040 0.011231 0.292146
0.152396 0.011227 0.291843
-0.077041 0.012922 0.299290
-0.076655 0.013100 0.303246
-0.075356 0.013125 0.303673
-0.073848 0.013114 0.303267
-0.072653 0.013160 0.304158
-0.071561 0.013226 0.305531
-0.071822 0.013550 0.312860
-0.062773 0.013218 0.304386
-0.044619 0.010915 0.250602
-0.043472 0.010929 0.250803
-0.042483 0.010985 0.251963
-0.041611 0.011075 0.253910
-0.041160 0.011286 0.258629
-0.040898 0.011564 0.264873
-0.040135 0.011713 0.268167
-0.039405 0.011883 0.271922
-0.038602 0.012041 0.275418
-0.037472 0.012105 0.276759
-0.036175 0.012117 0.276931
-0.034811 0.012107 0.276589
-0.033709 0.012191 0.278403
-0.030462 0.011475 0.261932
-0.028672 0.011268 0.257124
-0.027397 0.011255 0.256717
-0.026089 0.011226 0.255971
-0.024885 0.011241 0.256222
-0.023765 0.011298 0.257433
-0.022591 0.011334 0.258168
-0.021381 0.011355 0.258572
-0.020174 0.011380 0.259074
-0.019050 0.011459 0.260790
-0.017949 0.011563 0.263099
-0.017087 0.011850 0.269552
-0.015384 0.011552 0.262710
-0.014117 0.011558 0.262781
-0.002824 0.012343 0.280257
-0.001457 0.012300 0.279264
-0.000100 0.012183 0.276602
0.001245 0.012184 0.276600
0.002466 0.011606 0.263485
0.003847 0.011916 0.270514
0.005144 0.011876 0.269604
0.006186 0.011382 0.258395
0.007399 0.011316 0.256927
0.008635 0.011299 0.256553
0.009875 0.011292 0.256397
0.011128 0.011298 0.256560
0.012385 0.011307 0.256801
0.013649 0.011321 0.257136
0.014932 0.011346 0.257748
0.016228 0.011376 0.258469
0.017540 0.011413 0.259346
0.018831 0.011432 0.259823
0.020215 0.011501 0.261442
0.021591 0.011558 0.262791
0.024210 0.012237 0.278283
0.025545 0.012229 0.278165
0.026877 0.012220 0.278039
0.026139 0.011317 0.257547
0.027288 0.011275 0.256668
0.028652 0.011321 0.257800
0.029759 0.011267 0.256639
0.030965 0.011253 0.256399
0.032154 0.011234 0.256044
0.033413 0.011240 0.256265
0.034698 0.011254 0.256665
0.035898 0.011240 0.256446
0.037283 0.011283 0.257519
0.039008 0.011423 0.260813
0.041165 0.011677 0.266699
0.042491 0.011687 0.267021
0.043592 0.011636 0.265962
0.044125 0.011440 0.261603
0.044681 0.011262 0.257619
0.045721 0.011211 0.256570
0.046852 0.011185 0.256081
0.047728 0.011101 0.254265
0.048904 0.011089 0.254102
0.050203 0.011106 0.254578
0.051511 0.011123 0.255082
0.052852 0.011146 0.255725
0.054274 0.011185 0.256730
0.055474 0.011177 0.256670
0.057747 0.011381 0.261475
0.060495 0.011669 0.268189
0.062253 0.011757 0.270333
0.063466 0.011740 0.270077
0.064600 0.011710 0.269505
0.066039 0.011736 0.270208
0.067388 0.011744 0.270525
0.068676 0.011742 0.270594
0.069956 0.011739 0.270634
0.071281 0.011743 0.270845
0.072559 0.011739 0.270875
0.073845 0.011737 0.270941
0.075074 0.011725 0.270796
0.076229 0.011703 0.270395
0.077458 0.011693 0.270271
0.078747 0.011692 0.270356
0.080042 0.011692 0.270461
0.081337 0.011692 0.270561
0.082741 0.011707 0.271017
0.084072 0.011712 0.271225
0.085381 0.011713 0.271358
0.086578 0.011699 0.271132
0.088122 0.011732 0.271986
0.089517 0.011744 0.272363
0.097629 0.012625 0.292878
0.098860 0.012603 0.292465
0.099367 0.012491 0.289952
0.100848 0.012503 0.290308
0.102221 0.012501 0.290342
0.104545 0.012447 0.289238
0.106544 0.012520 0.290988
0.107749 0.012498 0.290551
0.109501 0.012540 0.291576
0.110733 0.012522 0.291203
0.111930 0.012500 0.290745
0.113266 0.012494 0.290649
0.114673 0.012496 0.290730
0.115841 0.012472 0.290206
0.117112 0.012460 0.289942
0.119140 0.012527 0.291532
0.120539 0.012528 0.291556
0.121939 0.012529 0.291575
0.123438 0.012539 0.291823
0.124950 0.012551 0.292085
0.126319 0.012548 0.292002
0.127720 0.012549 0.291987
0.128866 0.012524 0.291386
0.130492 0.012547 0.291864
0.131790 0.012537 0.291594
0.132741 0.012495 0.290561
0.134288 0.012510 0.290829
0.136001 0.012539 0.291437
0.137309 0.012531 0.291161
0.138698 0.012530 0.291048
0.140057 0.012527 0.290864
0.141651 0.012545 0.291154
0.143231 0.012560 0.291394
0.144492 0.012548 0.290973
0.146132 0.012569 0.291301
0.147846 0.012595 0.291755
0.149245 0.012595 0.291567
0.150790 0.012606 0.291648
0.152059 0.012595 0.291182
-0.071539 0.014681 0.305470
-0.045606 0.010421 0.216265
-0.044636 0.010436 0.216467
-0.043866 0.010500 0.217673
-0.045724 0.011211 0.232297
-0.044672 0.011226 0.232501
-0.043884 0.011310 0.234122
-0.043177 0.011420 0.236283
-0.042578 0.011565 0.239169
-0.042033 0.011734 0.242534
-0.041675 0.011965 0.247207
-0.041130 0.012155 0.251013
-0.040769 0.012413 0.256206
-0.040591 0.012744 0.262917
-0.039764 0.012886 0.265728
-0.039248 0.013141 0.270874
-0.038337 0.013278 0.273566
-0.037276 0.013370 0.275353
-0.036000 0.013389 0.275625
-0.034705 0.013402 0.275791
-0.033697 0.013532 0.278343
-0.030302 0.012674 0.260593
-0.028693 0.012521 0.257350
-0.027460 0.012525 0.257347
-0.026225 0.012530 0.257345
-0.025007 0.012543 0.257526
-0.023759 0.012541 0.257413
-0.022492 0.012529 0.257078
-0.021326 0.012575 0.257945
-0.020196 0.012650 0.259399
-0.019048 0.012722 0.260810
-0.018050 0.012911 0.264622
-0.017199 0.013243 0.271356
-0.015528 0.012947 0.265219
-0.014932 0.013575 0.278015
-0.013590 0.013581 0.278084
-0.012223 0.013560 0.277611
-0.010915 0.013608 0.278543
-0.009566 0.013613 0.278593
-0.008204 0.013597 0.278230
-0.006788 0.013467 0.275538
-0.005503 0.013597 0.278162
-0.004175 0.013670 0.279629
-0.002822 0.013699 0.280194
-0.001449 0.013586 0.277869
-0.000100 0.013690 0.279972
0.001260 0.013690 0.279969
0.002498 0.013049 0.266846
0.003838 0.013198 0.269893
0.005215 0.013367 0.273359
0.006264 0.012795 0.261658
0.007409 0.012580 0.257272
0.008637 0.012549 0.256649
0.009926 0.012601 0.257736
0.011137 0.012554 0.256804
0.012393 0.012562 0.256992
0.013665 0.012584 0.257468
0.014951 0.012613 0.258093
0.016240 0.012641 0.258702
0.017532 0.012666 0.259262
0.018828 0.012691 0.259808
0.020273 0.012806 0.262226
0.021617 0.012848 0.263132
0.026064 0.012528 0.256833
0.027279 0.012514 0.256605
0.028601 0.012548 0.257371
0.029733 0.012499 0.256443
0.030917 0.012475 0.256032
0.032171 0.012480 0.256209
0.033502 0.012513 0.256979
0.034811 0.012536 0.257534
0.036084 0.012545 0.257806
0.037543 0.012616 0.259350
0.038861 0.012636 0.259858
0.040931 0.012892 0.265217
0.042126 0.012865 0.264759
0.043651 0.012937 0.266349
0.044528 0.012819 0.264020
0.044623 0.012488 0.257311
0.045428 0.012368 0.254952
0.046642 0.012364 0.254961
0.047806 0.012346 0.254708
0.049063 0.012353 0.254955
0.050265 0.012346 0.254921
0.051541 0.012357 0.255255
0.053042 0.012420 0.256672
0.054746 0.012527 0.258988
0.056189 0.012571 0.260003
0.057979 0.012688 0.262551
0.060165 0.012886 0.266752
0.062027 0.013007 0.269377
0.063305 0.013003 0.269416
0.064531 0.012989 0.269241
0.065975 0.013018 0.269968
0.067438 0.013050 0.270750
0.068696 0.013042 0.270697
0.070015 0.013045 0.270882
0.071267 0.013036 0.270814
0.072576 0.013038 0.270960
0.073773 0.013020 0.270696
0.075030 0.013012 0.270654
0.076272 0.013003 0.270567
0.077479 0.012987 0.270362
0.078779 0.012988 0.270482
0.080027 0.012980 0.270425
0.081321 0.012980 0.270524
0.082696 0.012992 0.270885
0.084006 0.012994 0.271028
0.085366 0.013004 0.271324
0.086591 0.012993 0.271187
0.087919 0.012997 0.271375
0.089575 0.013049 0.272551
0.098056 0.014080 0.294170
0.099292 0.014056 0.293756
0.099506 0.013890 0.290369
0.100908 0.013892 0.290490
0.102459 0.013914 0.291029
0.103574 0.013877 0.290329
0.104597 0.013829 0.289391
0.106339 0.013875 0.290436
0.107634 0.013864 0.290248
0.110600 0.013888 0.290858
0.114744 0.013885 0.290913
0.115988 0.013867 0.290577
0.117778 0.013915 0.291594
0.118990 0.013894 0.291166
0.120448 0.013902 0.291338
0.121442 0.013856 0.290389
0.123572 0.013940 0.292138
0.124861 0.013928 0.291875
0.126128 0.013914 0.291558
0.127483 0.013910 0.291443
0.128619 0.013882 0.290824
0.130396 0.013923 0.291644
0.131668 0.013910 0.291318
0.132784 0.013881 0.290649
0.134292 0.013893 0.290831
0.135716 0.013896 0.290818
0.137167 0.013902 0.290851
0.138702 0.013916 0.291048
0.140067 0.013913 0.290874
0.141527 0.013919 0.290888
0.143263 0.013952 0.291448
0.144328 0.013919 0.290629
0.145849 0.013931 0.290723
0.147368 0.013943 0.290796
0.149471 0.014008 0.291991
0.151085 0.014028 0.292201
0.152417 0.014020 0.291849
-0.046306 0.010239 0.193898
-0.045452 0.010255 0.194099
-0.044990 0.010362 0.196023
-0.044122 0.010378 0.196219
-0.045600 0.010958 0.207091
-0.044677 0.010974 0.207291
-0.044152 0.011091 0.209394
-0.043786 0.011255 0.212368
-0.043850 0.011539 0.217624
-0.044030 0.011868 0.223723
-0.043553 0.012033 0.226704
-0.043014 0.012188 0.229514
-0.042439 0.012340 0.232274
-0.041963 0.012531 0.235747
-0.041436 0.012717 0.239121
-0.041295 0.013035 0.244987
-0.040905 0.013290 0.249674
-0.040674 0.013615 0.255651
-0.040252 0.013893 0.260759
-0.039365 0.014024 0.263098
-0.038728 0.014256 0.267329
-0.038044 0.014486 0.271523
-0.037148 0.014648 0.274449
-0.034889 0.014266 0.267167
-0.034696 0.014731 0.275762
-0.029974 0.013783 0.257818
-0.028674 0.013756 0.257225
-0.027421 0.013751 0.257025
-0.026194 0.013759 0.257087
-0.025004 0.013788 0.257543
-0.023748 0.013781 0.257339
-0.022514 0.013788 0.257373
-0.021266 0.013786 0.257268
-0.020065 0.013816 0.257759
-0.019152 0.014063 0.262280
-0.018019 0.014171 0.264223
-0.017191 0.014553 0.271290
-0.015885 0.014561 0.271369
-0.013402 0.014724 0.274295
-0.011256 0.013729 0.255703
-0.010064 0.013796 0.256901
-0.008911 0.013941 0.259563
-0.007608 0.013862 0.258052
-0.006428 0.014020 0.260961
-0.005179 0.014070 0.261869
-0.003929 0.014148 0.263290
-0.002674 0.014270 0.265533
-0.001380 0.014227 0.264714
-0.000095 0.014328 0.266583
0.001203 0.014357 0.267113
0.002519 0.014464 0.269088
0.003807 0.014392 0.267758
0.005148 0.014503 0.269816
0.006275 0.014091 0.262164
0.007392 0.013798 0.256724
0.008625 0.013775 0.256317
0.009919 0.013842 0.257574
0.011136 0.013800 0.256817
0.012386 0.013803 0.256888
0.013686 0.013855 0.257896
0.014970 0.013884 0.258465
0.016220 0.013879 0.258410
0.017604 0.013981 0.260357
0.018843 0.013962 0.260054
0.020313 0.014106 0.262769
0.021597 0.014111 0.262930
0.022860 0.014103 0.262824
0.035369 0.014003 0.261697
0.036627 0.013999 0.261719
0.038885 0.014365 0.268649
0.040143 0.014350 0.268465
0.040923 0.014170 0.265197
0.042557 0.014288 0.267503
0.043477 0.014166 0.265321
0.043746 0.013845 0.259415
0.043996 0.013536 0.253724
0.045231 0.013539 0.253880
0.046541 0.013563 0.254440
0.047669 0.013534 0.254008
0.048874 0.013528 0.253999
0.050041 0.013513 0.253812
0.051296 0.013521 0.254072
0.052314 0.013467 0.253174
0.053609 0.013486 0.253637
0.054676 0.013448 0.253030
0.055407 0.013330 0.250926
0.059820 0.014085 0.265246
0.061818 0.014251 0.268494
0.063125 0.014254 0.268674
0.064472 0.014267 0.269018
0.065906 0.014297 0.269710
0.067504 0.014361 0.271038
0.068754 0.014350 0.270946
0.070105 0.014360 0.271254
0.071435 0.014366 0.271473
0.072687 0.014356 0.271396
0.073889 0.014336 0.271142
0.075051 0.014310 0.270752
0.076315 0.014303 0.270740
0.077530 0.014288 0.270559
0.078668 0.014259 0.270121
0.079923 0.014252 0.270093
0.081150 0.014240 0.269972
0.082502 0.014251 0.270268
0.083879 0.014265 0.270632
0.085293 0.014284 0.271107
0.086384 0.014250 0.270553
0.087916 0.014289 0.271380
0.089502 0.014335 0.272343
0.093342 0.014736 0.280041
0.099096 0.015423 0.293188
0.099584 0.015283 0.290607
0.100925 0.015276 0.290550
0.102577 0.015315 0.291374
0.103457 0.015239 0.290011
0.106577 0.015290 0.291096
0.108118 0.015311 0.291559
0.109494 0.015309 0.291570
0.110867 0.015306 0.291567
0.112143 0.015290 0.291308
0.113330 0.015263 0.290823
0.115154 0.015320 0.291957
0.116463 0.015309 0.291771
0.117738 0.015294 0.291499
0.119163 0.015298 0.291591
0.120481 0.015289 0.291419
0.121718 0.015269 0.291048
0.123015 0.015258 0.290819
0.124572 0.015278 0.291197
0.125759 0.015253 0.290704
0.127102 0.015248 0.290567
0.128443 0.015242 0.290421
0.129884 0.015248 0.290493
0.131308 0.015252 0.290516
0.133060 0.015294 0.291245
0.134189 0.015264 0.290600
0.136005 0.015311 0.291428
0.137188 0.015288 0.290887
0.138396 0.015267 0.290394
0.139878 0.015277 0.290469
0.141303 0.015280 0.290414
0.143515 0.015367 0.291945
0.145036 0.015380 0.292040
0.145889 0.015322 0.290788
0.147644 0.015359 0.291323
0.149083 0.015363 0.291216
0.151001 0.015415 0.292019
0.152138 0.015388 0.291295
-0.044822 0.010008 0.174175
-0.044064 0.010024 0.174368
-0.044345 0.010281 0.178758
-0.045879 0.010845 0.188469
-0.045052 0.010862 0.188668
-0.044454 0.010937 0.189861
-0.044128 0.011082 0.192289
-0.043547 0.011169 0.193688
-0.043197 0.011319 0.196199
-0.043251 0.011585 0.200700
-0.043540 0.011927 0.206517
-0.043375 0.012157 0.210406
-0.043108 0.012369 0.213971
-0.043359 0.012744 0.220344
-0.043164 0.013004 0.224715
-0.042767 0.013213 0.228227
-0.042284 0.013407 0.231463
-0.041920 0.013650 0.235541
-0.041569 0.013911 0.239930
-0.041287 0.014210 0.244977
-0.040869 0.014479 0.249493
-0.040407 0.014748 0.254013
-0.040002 0.015055 0.259185
-0.039150 0.015209 0.261708
-0.038534 0.015467 0.266035
-0.037918 0.015743 0.270668
-0.036970 0.015896 0.273184
-0.035974 0.016039 0.275525
-0.034681 0.016055 0.275690
-0.033384 0.016071 0.275849
-0.030150 0.015117 0.259376
-0.028671 0.014998 0.257243
-0.027385 0.014974 0.256738
-0.026128 0.014965 0.256486
-0.024928 0.014989 0.256810
-0.023670 0.014978 0.256540
-0.022412 0.014966 0.256263
-0.021189 0.014978 0.256383
-0.019940 0.014972 0.256210
-0.019129 0.015316 0.262017
-0.018139 0.015555 0.266041
-0.017183 0.015862 0.271217
-0.013378 0.016027 0.273867
-0.011352 0.015098 0.257936
-0.010128 0.015138 0.258577
-0.008919 0.015216 0.259871
-0.007633 0.015165 0.258968
-0.006425 0.015282 0.260917
-0.005167 0.015306 0.261305
-0.003931 0.015437 0.263514
-0.002686 0.015633 0.266842
-0.001377 0.015493 0.264421
-0.000094 0.015647 0.267044
0.001211 0.015755 0.268873
0.002480 0.015525 0.264945
0.003833 0.015797 0.269583
0.005210 0.016003 0.273099
0.006212 0.015209 0.259553
0.007370 0.014999 0.255979
0.008615 0.015000 0.256020
0.009892 0.015051 0.256901
0.011118 0.015022 0.256425
0.012379 0.015040 0.256768
0.013653 0.015069 0.257293
0.014974 0.015142 0.258561
0.016288 0.015195 0.259519
0.017558 0.015204 0.259712
0.018940 0.015302 0.261426
0.020217 0.015307 0.261567
0.021578 0.015373 0.262737
0.022780 0.015323 0.261941
0.034818 0.015589 0.267145
0.035355 0.015262 0.261629
0.036613 0.015258 0.261651
0.038017 0.015313 0.262691
0.039344 0.015335 0.263154
0.040546 0.015308 0.262787
0.042099 0.015411 0.264661
0.043314 0.015388 0.264364
0.043765 0.015103 0.259561
0.043934 0.014738 0.253398
0.045236 0.014764 0.253937
0.046536 0.014787 0.254443
0.047581 0.014731 0.253570
0.048765 0.014718 0.253468
0.049991 0.014719 0.253586
0.051120 0.014692 0.253227
0.052443 0.014721 0.253831
0.053445 0.014660 0.252892
0.054471 0.014608 0.252107
0.056575 0.014842 0.256244
0.059676 0.015321 0.264636
0.061835 0.015544 0.268594
0.063185 0.015558 0.268956
0.064462 0.015554 0.269004
0.065849 0.015576 0.269504
0.067261 0.015603 0.270086
0.068656 0.015625 0.270585
0.069918 0.015617 0.270557
0.071233 0.015620 0.270731
0.072418 0.015596 0.270415
0.073640 0.015580 0.270250
0.074907 0.015574 0.270256
0.076098 0.015552 0.269989
0.077254 0.015524 0.269617
0.078677 0.015550 0.270172
0.079990 0.015554 0.270339
0.081312 0.015559 0.270529
0.082650 0.015567 0.270771
0.084171 0.015609 0.271594
0.085820 0.015672 0.272797
0.086798 0.015614 0.271866
0.088306 0.015650 0.272598
0.090512 0.015808 0.275432
0.097787 0.016834 0.293393
0.099021 0.016805 0.292981
0.099282 0.016614 0.289739
0.100761 0.016630 0.290091
0.103419 0.016612 0.289915
0.104548 0.016571 0.289274
0.106177 0.016610 0.290012
0.107758 0.016640 0.290597
0.109497 0.016694 0.291585
0.110627 0.016654 0.290942
0.111754 0.016615 0.290305
0.113120 0.016612 0.290288
0.114336 0.016588 0.289887
0.115551 0.016564 0.289487
0.117070 0.016583 0.289846
0.118799 0.016631 0.290701
0.120033 0.016610 0.290334
0.121740 0.016654 0.291101
0.123047 0.016643 0.290894
0.124407 0.016639 0.290810
0.125736 0.016631 0.290647
0.126976 0.016611 0.290275
0.128407 0.016617 0.290335
0.129541 0.016584 0.289720
0.131426 0.016647 0.290771
0.132709 0.016634 0.290470
0.134359 0.016666 0.290960
0.135800 0.016672 0.290979
0.137476 0.016706 0.291486
0.139020 0.016724 0.291691
0.140169 0.016694 0.291061
0.141622 0.016701 0.291055
0.143181 0.016720 0.291250
0.144551 0.016716 0.291048
0.145935 0.016714 0.290861
0.147331 0.016714 0.290687
0.149346 0.016783 0.291709
0.150951 0.016805 0.291901
0.152349 0.016804 0.291676
-0.046589 0.009814 0.158339
-0.045916 0.009830 0.158535
-0.045900 0.009990 0.161040
-0.045303 0.010027 0.161559
-0.045214 0.010180 0.163942
-0.045337 0.010386 0.167184
-0.045200 0.010539 0.169568
-0.044836 0.010644 0.171173
-0.044442 0.010746 0.172720
-0.044244 0.010900 0.175102
-0.044045 0.011059 0.177573
-0.043954 0.011252 0.180582
-0.043802 0.011437 0.183457
-0.043716 0.011647 0.186732
-0.043521 0.011836 0.189670
-0.043464 0.012072 0.193344
-0.043205 0.012260 0.196265
-0.043150 0.012516 0.200262
-0.043246 0.012828 0.205153
-0.043202 0.013113 0.209595
-0.043035 0.013372 0.213638
-0.043140 0.013731 0.219265
-0.043132 0.014071 0.224580
-0.042710 0.014290 0.227962
-0.042100 0.014456 0.230493
-0.041644 0.014685 0.234032
-0.041152 0.014913 0.237560
-0.040763 0.015193 0.241905
-0.040480 0.015531 0.247162
-0.040174 0.015879 0.252593
-0.039882 0.016255 0.258452
-0.039041 0.016424 0.261024
-0.038548 0.016755 0.266178
-0.038031 0.017099 0.271524
-0.036972 0.017215 0.273248
-0.035262 0.017025 0.270118
-0.034809 0.017451 0.276766
-0.033507 0.017468 0.276925
-0.029914 0.016242 0.257397
-0.028616 0.016211 0.256802
-0.027338 0.016188 0.256354
-0.026113 0.016196 0.256389
-0.024904 0.016215 0.256607
-0.023659 0.016212 0.256474
-0.022399 0.016198 0.256168
-0.021155 0.016194 0.256028
-0.019928 0.016204 0.256112
-0.019188 0.016637 0.262880
-0.018105 0.016813 0.265601
-0.013476 0.017483 0.275935
-0.011404 0.016426 0.259194
-0.010116 0.016375 0.258356
-0.008902 0.016447 0.259443
-0.007619 0.016394 0.258565
-0.006384 0.016444 0.259330
-0.005135 0.016475 0.259775
-0.003887 0.016532 0.260654
-0.002642 0.016658 0.262624
-0.001374 0.016741 0.263910
-0.000093 0.016849 0.265594
0.001200 0.016901 0.266415
0.002499 0.016932 0.266890
0.003806 0.016980 0.267645
0.005172 0.017200 0.271108
0.006488 0.017197 0.271080
0.007432 0.016376 0.258148
0.008653 0.016315 0.257203
0.009951 0.016395 0.258482
0.011163 0.016331 0.257488
0.012429 0.016352 0.257842
0.013710 0.016387 0.258419
0.015007 0.016433 0.259178
0.016320 0.016487 0.260075
0.017665 0.016564 0.261325
0.018993 0.016616 0.262200
0.020364 0.016696 0.263514
0.021728 0.016762 0.264599
0.022998 0.016752 0.264492
0.034021 0.017131 0.271057
0.034803 0.016873 0.267069
0.036149 0.016898 0.267540
0.037340 0.016851 0.266888
0.038282 0.016698 0.264558
0.039513 0.016677 0.264321
0.040445 0.016535 0.262171
0.041593 0.016488 0.261514
0.042876 0.016495 0.261728
0.043577 0.016284 0.258482
0.044124 0.016029 0.254528
0.045319 0.016017 0.254436
0.046550 0.016018 0.254556
0.047713 0.015996 0.254308
0.048880 0.015976 0.254098
0.050106 0.015976 0.254204
0.051291 0.015963 0.254107
0.052595 0.015987 0.254598
0.053760 0.015969 0.254410
0.054761 0.015904 0.253479
0.057142 0.016233 0.258843
0.059889 0.016651 0.265613
0.062020 0.016883 0.269429
0.063376 0.016899 0.269801
0.064613 0.016883 0.269663
0.066157 0.016946 0.270791
0.067571 0.016975 0.271360
0.068872 0.016974 0.271464
0.070185 0.016976 0.271614
0.071424 0.016961 0.271481
0.072922 0.017006 0.272322
0.074273 0.017016 0.272598
0.075275 0.016948 0.271606
0.076740 0.016984 0.272290
0.078053 0.016985 0.272428
0.079142 0.016939 0.271789
0.080437 0.016938 0.271869
0.081737 0.016937 0.271964
0.082992 0.016928 0.271909
0.084564 0.016982 0.272879
0.086014 0.017010 0.273432
0.087202 0.016987 0.273150
0.088870 0.017057 0.274356
0.093312 0.017649 0.283967
0.094509 0.017619 0.283573
0.099063 0.018207 0.293119
0.099614 0.018053 0.290722
0.100862 0.018027 0.290394
0.103416 0.017989 0.289917
0.104674 0.017967 0.289634
0.106006 0.017959 0.289555
0.107299 0.017944 0.289367
0.108469 0.017909 0.288855
0.109870 0.017912 0.288958
0.111552 0.017961 0.289783
0.112680 0.017921 0.289163
0.114206 0.017943 0.289562
0.115539 0.017936 0.289461
0.116873 0.017929 0.289361
0.118342 0.017942 0.289586
0.120885 0.018116 0.292396
0.122003 0.018074 0.291727
0.123397 0.018075 0.291719
0.124807 0.018077 0.291743
0.125955 0.018042 0.291148
0.127153 0.018014 0.290675
0.129077 0.018089 0.291843
0.130302 0.018066 0.291415
0.131587 0.018051 0.291119
0.132953 0.018047 0.290994
0.134273 0.018038 0.290763
0.135996 0.018082 0.291387
0.137150 0.018050 0.290782
0.138595 0.018056 0.290786
0.140052 0.018065 0.290804
0.141495 0.018071 0.290778
0.142801 0.018059 0.290460
0.144468 0.018093 0.290862
0.145636 0.018065 0.290245
0.147150 0.018079 0.290310
0.148766 0.018106 0.290555
0.150689 0.018169 0.291372
0.152209 0.018183 0.291382
-0.042012 0.008440 0.126920
-0.041799 0.008519 0.128056
-0.040955 0.008469 0.127263
-0.042383 0.008895 0.133609
-0.046461 0.010369 0.155488
-0.045802 0.010387 0.155682
-0.044832 0.010333 0.154806
-0.044645 0.010461 0.156655
-0.044461 0.010595 0.158576
-0.044329 0.010745 0.160750
-0.044326 0.010932 0.163476
-0.044361 0.011136 0.166443
-0.044215 0.011301 0.168821
-0.044002 0.011454 0.171031
-0.043937 0.011653 0.173911
-0.043887 0.011863 0.176957
-0.043794 0.012070 0.179951
-0.043696 0.012283 0.183038
-0.043766 0.012553 0.186974
-0.043646 0.012779 0.190242
-0.043513 0.013011 0.193590
-0.043224 0.013205 0.196379
-0.043493 0.013582 0.201884
-0.043312 0.013832 0.205499
-0.043106 0.014085 0.209164
-0.042754 0.014302 0.212281
-0.042686 0.014627 0.216993
-0.042519 0.014933 0.221426
-0.042184 0.015195 0.225193
-0.041793 0.015449 0.228850
-0.041446 0.015734 0.232959
-0.040979 0.015988 0.236607
-0.040697 0.016330 0.241561
-0.040278 0.016636 0.245972
-0.040070 0.017051 0.251985
-0.039683 0.017412 0.257215
-0.038991 0.017659 0.260743
-0.038500 0.018016 0.265902
-0.037973 0.018381 0.271163
-0.036950 0.018522 0.273136
-0.035203 0.018298 0.269722
-0.034870 0.018820 0.277307
-0.033566 0.018838 0.277467
-0.029856 0.017452 0.256953
-0.028614 0.017451 0.256840
-0.027289 0.017396 0.255945
-0.026066 0.017405 0.255988
-0.024886 0.017444 0.256478
-0.023631 0.017433 0.256234
-0.022404 0.017442 0.256281
-0.021154 0.017434 0.256084
-0.019941 0.017456 0.256341
-0.019274 0.017991 0.264121
-0.018112 0.018108 0.265767
-0.017176 0.018486 0.271247
-0.013468 0.018812 0.275848
-0.011482 0.017805 0.261038
-0.010100 0.017601 0.258005
-0.008865 0.017635 0.258458
-0.007607 0.017623 0.258241
-0.006360 0.017640 0.258461
-0.005118 0.017682 0.259044
-0.003863 0.017690 0.259133
-0.002620 0.017789 0.260571
-0.001362 0.017873 0.261773
-0.000092 0.018027 0.264017
0.001190 0.018026 0.263995
0.002476 0.018060 0.264482
0.003805 0.018270 0.267560
0.005170 0.018506 0.271022
0.007559 0.017931 0.262614
0.008820 0.017901 0.262190
0.010071 0.017862 0.261633
0.011347 0.017870 0.261768
0.012642 0.017903 0.262288
0.013895 0.017878 0.261943
0.015207 0.017924 0.262659
0.016530 0.017976 0.263456
0.017817 0.017985 0.263621
0.019162 0.018046 0.264564
0.020435 0.018036 0.264470
0.021731 0.018047 0.264676
0.024263 0.019025 0.279084
0.025600 0.019013 0.278965
0.026935 0.019000 0.278840
0.028065 0.018850 0.276720
0.029253 0.018752 0.275345
0.030409 0.018642 0.273805
0.031724 0.018635 0.273781
0.032773 0.018478 0.271555
0.034005 0.018433 0.270973
0.035292 0.018420 0.270862
0.036329 0.018282 0.268920
0.037718 0.018324 0.269632
0.038620 0.018134 0.266937
0.039764 0.018068 0.266047
0.040715 0.017920 0.263964
0.042092 0.017963 0.264693
0.043146 0.017869 0.263415
0.043460 0.017483 0.257824
0.043938 0.017183 0.253495
0.045291 0.017232 0.254319
0.046469 0.017214 0.254146
0.047555 0.017163 0.253497
0.048788 0.017166 0.253654
0.049972 0.017153 0.253559
0.051153 0.017139 0.253458
0.052377 0.017140 0.253574
0.053662 0.017160 0.253979
0.054786 0.017129 0.253627
0.057087 0.017459 0.258628
0.059009 0.017662 0.261741
0.061681 0.018076 0.267990
0.063312 0.018174 0.269560
0.064582 0.018167 0.269567
0.066144 0.018240 0.270769
0.067569 0.018273 0.271380
0.068828 0.018262 0.271322
0.070222 0.018285 0.271785
0.071576 0.018298 0.272089
0.073193 0.018376 0.273361
0.075815 0.018700 0.278283
0.077864 0.018873 0.280973
0.079844 0.019024 0.283332
0.079930 0.018726 0.279003
0.081455 0.018769 0.279756
0.083123 0.018843 0.280970
0.083901 0.018717 0.279187
0.084853 0.018632 0.278027
0.085807 0.018551 0.276909
0.087179 0.018561 0.277154
0.087736 0.018400 0.274839
0.089567 0.018507 0.276525
0.091524 0.018636 0.278544
0.092699 0.018605 0.278157
0.098925 0.019574 0.292729
0.099451 0.019403 0.290261
0.100905 0.019416 0.290532
0.102651 0.019484 0.291621
0.103733 0.019426 0.290819
0.104868 0.019379 0.290181
0.106223 0.019374 0.290156
0.107430 0.019342 0.289730
0.108682 0.019318 0.289429
0.110108 0.019326 0.289593
0.111358 0.019303 0.289286
0.112729 0.019302 0.289295
0.114150 0.019308 0.289423
0.115550 0.019312 0.289492
0.116937 0.019313 0.289520
0.118680 0.019371 0.290413
0.119517 0.019283 0.289086
0.121789 0.019425 0.291215
0.123079 0.019409 0.290967
0.124052 0.019344 0.289973
0.125780 0.019397 0.290740
0.126985 0.019369 0.290286
0.128997 0.019463 0.291657
0.130214 0.019437 0.291211
0.131680 0.019448 0.291315
0.132551 0.019372 0.290105
0.135256 0.019562 0.292879
0.136376 0.019522 0.292189
0.137823 0.019528 0.292194
0.139264 0.019534 0.292174
0.140351 0.019491 0.291408
0.141619 0.019473 0.291015
0.143202 0.019498 0.291257
0.144989 0.019551 0.291892
0.146171 0.019521 0.291290
0.147482 0.019509 0.290941
0.149260 0.019559 0.291495
0.150768 0.019572 0.291498
0.152319 0.019591 0.291567
-0.042092 0.008930 0.125430
-0.041572 0.008946 0.125602
-0.042162 0.009204 0.129179
-0.042951 0.009514 0.133477
-0.042367 0.009524 0.133571
-0.042313 0.009656 0.135364
-0.044694 0.010356 0.145117
-0.044082 0.010374 0.145303
-0.044284 0.010587 0.148218
-0.044046 0.010699 0.149727
-0.043688 0.010786 0.150872
-0.043605 0.010945 0.153023
-0.043722 0.011160 0.155956
-0.043793 0.011370 0.158825
-0.044202 0.011677 0.163038
-0.044050 0.011844 0.165293
-0.044414 0.012159 0.169603
-0.044072 0.012289 0.171326
-0.043944 0.012484 0.173962
-0.043843 0.012694 0.176805
-0.043750 0.012915 0.179792
-0.043999 0.013248 0.184333
-0.043609 0.013398 0.186330
-0.043412 0.013615 0.189251
-0.043172 0.013827 0.192105
-0.042816 0.014011 0.194558
-0.042639 0.014262 0.197950
-0.042800 0.014641 0.203106
-0.042769 0.014969 0.207563
-0.042477 0.015220 0.210939
-0.042423 0.015571 0.215695
-0.042270 0.015902 0.220170
-0.041981 0.016197 0.224147
-0.041579 0.016463 0.227721
-0.041262 0.016778 0.231965
-0.040913 0.017097 0.236265
-0.040524 0.017417 0.240577
-0.040227 0.017797 0.245706
-0.040047 0.018253 0.251891
-0.039999 0.018799 0.259312
-0.039281 0.019056 0.262738
-0.038732 0.019414 0.267557
-0.038207 0.019809 0.272888
-0.036747 0.019731 0.271697
-0.034997 0.019485 0.268200
-0.034958 0.020210 0.278068
-0.029920 0.018733 0.257560
-0.028535 0.018640 0.256184
-0.027353 0.018678 0.256609
-0.026045 0.018628 0.255837
-0.024859 0.018665 0.256262
-0.023651 0.018689 0.256510
-0.022426 0.018702 0.256600
-0.021192 0.018707 0.256599
-0.019940 0.018697 0.256392
-0.019207 0.019204 0.263274
-0.018228 0.019521 0.267542
-0.017166 0.019789 0.271156
-0.015447 0.019282 0.264149
-0.014542 0.019793 0.271081
-0.013235 0.019801 0.271148
-0.011338 0.018833 0.257834
-0.010089 0.018835 0.257813
-0.008846 0.018848 0.257961
-0.007597 0.018853 0.257986
-0.006347 0.018859 0.258031
-0.005097 0.018862 0.258049
-0.003851 0.018894 0.258460
-0.002599 0.018908 0.258631
-0.001350 0.018998 0.259847
-0.000090 0.019095 0.261160
0.001187 0.019237 0.263095
0.002452 0.019145 0.261826
0.003745 0.019257 0.263360
0.005032 0.019292 0.263830
0.006288 0.019213 0.262766
0.007556 0.019195 0.262525
0.008816 0.019163 0.262100
0.010066 0.019121 0.261544
0.011341 0.019129 0.261680
0.012635 0.019165 0.262199
0.013888 0.019138 0.261854
0.015199 0.019188 0.262570
0.016521 0.019243 0.263367
0.017808 0.019253 0.263532
0.019143 0.019310 0.264359
0.020474 0.019355 0.265026
0.021660 0.019266 0.263855
0.023225 0.019506 0.267196
0.024505 0.019493 0.267083
0.025357 0.019158 0.262554
0.026642 0.019167 0.262738
0.027879 0.019141 0.262456
0.028960 0.019016 0.260809
0.030091 0.018932 0.259729
0.031319 0.018914 0.259559
0.032638 0.018950 0.260129
0.033989 0.019000 0.260905
0.035251 0.019000 0.260986
0.036582 0.019035 0.261556
0.037789 0.019006 0.261238
0.039268 0.019110 0.262769
0.040490 0.019088 0.262550
0.041753 0.019085 0.262603
0.042847 0.019007 0.261633
0.043931 0.018929 0.260661
0.044043 0.018449 0.254141
0.045173 0.018409 0.253696
0.046356 0.018393 0.253567
0.047583 0.018394 0.253686
0.048718 0.018360 0.253327
0.049909 0.018349 0.253276
0.051105 0.018340 0.253258
0.052382 0.018360 0.253637
0.053603 0.018360 0.253737
0.054492 0.018248 0.252303
0.056394 0.018474 0.255524
0.059612 0.019111 0.264450
0.061981 0.019455 0.269326
0.063336 0.019473 0.269695
0.064566 0.019453 0.269530
0.066050 0.019509 0.270416
0.067416 0.019529 0.270801
0.068809 0.019555 0.271278
0.070108 0.019554 0.271377
0.071382 0.019546 0.271380
0.073642 0.019804 0.275067
0.075714 0.020003 0.277942
0.077019 0.019995 0.277950
0.078113 0.019935 0.277217
0.079243 0.019885 0.276631
0.080448 0.019855 0.276322
0.081986 0.019907 0.277150
0.083052 0.019845 0.276384
0.084660 0.019912 0.277417
0.085869 0.019885 0.277134
0.086804 0.019796 0.275985
0.088150 0.019802 0.276156
0.090065 0.019933 0.278080
0.091447 0.019945 0.278327
0.097976 0.021062 0.294009
0.099213 0.021027 0.293597
0.099940 0.020886 0.291703
0.104642 0.020713 0.289568
0.105883 0.020686 0.289239
0.107400 0.020712 0.289658
0.108407 0.020641 0.288707
0.110789 0.020829 0.291389
0.112121 0.020819 0.291276
0.113193 0.020760 0.290491
0.114463 0.020739 0.290221
0.115498 0.020676 0.289364
0.116709 0.020646 0.288957
0.118285 0.020681 0.289448
0.119859 0.020714 0.289913
0.121223 0.020711 0.289859
0.123017 0.020780 0.290816
0.124545 0.020803 0.291121
0.125750 0.020773 0.290666
0.126834 0.020723 0.289934
0.128467 0.020763 0.290452
0.129511 0.020708 0.289630
0.130549 0.020653 0.288803
0.132345 0.020718 0.289643
0.133969 0.020755 0.290081
0.136318 0.020902 0.292052
0.137601 0.020885 0.291710
0.138835 0.020860 0.291259
0.140340 0.020876 0.291367
0.141469 0.020837 0.290688
0.143094 0.020870 0.291017
0.144722 0.020904 0.291331
0.146287 0.020927 0.291499
0.147816 0.020945 0.291576
0.149272 0.020953 0.291492
0.150921 0.020987 0.291766
0.152121 0.020958 0.291159
-0.042458 0.008422 0.111243
-0.042037 0.008442 0.111493
-0.041663 0.008473 0.111871
-0.041166 0.008479 0.111925
-0.044409 0.009266 0.122274
-0.043171 0.009126 0.120396
-0.042550 0.009114 0.120209
-0.042393 0.009203 0.121344
-0.042024 0.009248 0.121894
-0.041324 0.009220 0.121485
-0.041464 0.009381 0.123569
-0.042132 0.009668 0.127304
-0.043542 0.010136 0.133417
-0.043513 0.010279 0.135236
-0.042953 0.010297 0.135431
-0.042954 0.010454 0.137429
-0.043177 0.010669 0.140206
-0.043440 0.010902 0.143200
-0.043698 0.011140 0.146270
-0.043558 0.011283 0.148084
-0.043585 0.011475 0.150535
-0.043668 0.011688 0.153262
-0.043724 0.011901 0.155985
-0.043937 0.012165 0.159366
-0.044298 0.012480 0.163413
-0.044312 0.012706 0.166299
-0.044130 0.012884 0.168544
-0.043882 0.013048 0.170612
-0.043736 0.013250 0.173161
-0.043497 0.013431 0.175437
-0.043266 0.013620 0.177831
-0.043199 0.013871 0.181010
-0.043240 0.014167 0.184784
-0.042969 0.014371 0.187349
-0.042822 0.014626 0.190577
-0.042737 0.014913 0.194229
-0.042672 0.015221 0.198138
-0.042643 0.015556 0.202396
-0.042451 0.015845 0.206056
-0.042210 0.016129 0.209652
-0.041885 0.016394 0.212996
-0.041693 0.016726 0.217203
-0.041647 0.017135 0.222406
