ply
format ascii 1.0
element vertex 1678
property float x
property float y
property float z
end_header
0.120606 -0.045620 0.291545
0.121983 -0.045616 0.291469
0.123329 -0.045600 0.291312
0.124774 -0.045621 0.291381
0.126381 -0.045700 0.291812
0.127686 -0.045669 0.291534
0.129115 -0.045683 0.291533
0.130779 -0.045779 0.292045
0.132239 -0.045802 0.292084
0.133677 -0.045816 0.292062
0.135160 -0.045846 0.292126
0.136576 -0.045853 0.292032
0.137997 -0.045861 0.291938
0.139823 -0.046003 0.292679
0.141505 -0.046094 0.293092
0.142904 -0.046093 0.292901
0.144377 -0.046115 0.292848
0.145789 -0.046117 0.292659
0.147221 -0.046126 0.292495
0.148947 -0.046226 0.292895
0.150507 -0.046272 0.292946
0.151977 -0.046291 0.292803
0.153570 -0.046346 0.292878
-0.122507 -0.035024 0.230220
-0.121496 -0.035047 0.230567
-0.120564 -0.035092 0.231056
-0.119768 -0.035179 0.231805
-0.118839 -0.035228 0.232296
-0.117960 -0.035293 0.232881
-0.117162 -0.035383 0.233628
-0.116391 -0.035484 0.234433
-0.115620 -0.035586 0.235241
-0.114862 -0.035694 0.236080
-0.114190 -0.035832 0.237106
-0.113346 -0.035918 0.237781
-0.112618 -0.036043 0.238707
-0.111823 -0.036148 0.239496
-0.111126 -0.036288 0.240508
-0.110306 -0.036391 0.241262
-0.109474 -0.036491 0.241995
-0.109016 -0.036719 0.243573
-0.108330 -0.036875 0.244661
-0.107676 -0.037045 0.245838
-0.106784 -0.037136 0.246485
-0.106074 -0.037293 0.247564
-0.105352 -0.037449 0.248630
-0.104582 -0.037592 0.249600
-0.103673 -0.037687 0.250251
-0.102821 -0.037806 0.251049
-0.102233 -0.038025 0.252513
-0.101806 -0.038310 0.254408
-0.101943 -0.038817 0.257770
-0.102002 -0.039306 0.261006
-0.101451 -0.039569 0.262735
-0.100085 -0.039517 0.262366
-0.099391 -0.039732 0.263769
-0.099151 -0.040136 0.266423
-0.102234 -0.041913 0.278181
-0.100903 -0.041903 0.278073
-0.100350 -0.042220 0.280130
-0.099936 -0.042605 0.282633
-0.100039 -0.043223 0.286678
-0.098937 -0.043331 0.287333
-0.097938 -0.043488 0.288308
-0.096698 -0.043540 0.288586
-0.095417 -0.043576 0.288747
-0.093791 -0.043452 0.287852
-0.097611 -0.045885 0.303885
-0.096862 -0.046211 0.305953
-0.095636 -0.046316 0.306556
-0.093867 -0.046156 0.305407
-0.092564 -0.046225 0.305765
-0.090958 -0.046142 0.305115
-0.089049 -0.045900 0.303416
-0.086418 -0.045272 0.299161
-0.084811 -0.045169 0.298374
-0.083343 -0.045138 0.298060
-0.082975 -0.045712 0.301740
-0.081609 -0.045746 0.301853
-0.079941 -0.045609 0.300837
-0.078765 -0.045753 0.301671
-0.077462 -0.045827 0.302042
-0.076023 -0.045823 0.301894
-0.074677 -0.045875 0.302118
-0.073527 -0.046052 0.303162
-0.072191 -0.046118 0.303473
-0.067715 -0.044139 0.290334
-0.066408 -0.044186 0.290529
-0.065125 -0.044253 0.290848
-0.063857 -0.044332 0.291249
-0.062464 -0.044327 0.291094
-0.061152 -0.044379 0.291323
-0.059829 -0.044427 0.291512
-0.058327 -0.044340 0.290825
-0.057010 -0.044393 0.291058
-0.055575 -0.044356 0.290694
-0.054132 -0.044309 0.290268
-0.052799 -0.044353 0.290440
-0.051520 -0.044445 0.290931
-0.050079 -0.044399 0.290514
-0.048685 -0.044393 0.290364
-0.047367 -0.044458 0.290679
-0.045946 -0.044429 0.290376
-0.044499 -0.044371 0.289886
-0.043155 -0.044415 0.290072
-0.041731 -0.044377 0.289719
-0.040271 -0.044298 0.289094
-0.039309 -0.044780 0.292141
-0.037944 -0.044822 0.292315
-0.035683 -0.043768 0.285344
-0.033972 -0.043331 0.282406
-0.026708 -0.042555 0.276928
-0.024927 -0.041801 0.271944
-0.023603 -0.041772 0.271688
-0.022347 -0.041868 0.272241
-0.021160 -0.042112 0.273759
-0.019772 -0.041962 0.272723
-0.018624 -0.042339 0.275111
-0.017299 -0.042337 0.275041
-0.015643 -0.041459 0.269282
-0.014803 -0.042781 0.277816
-0.013469 -0.042798 0.277881
-0.011285 -0.039816 0.258478
-0.010004 -0.039678 0.257545
-0.008800 -0.039851 0.258628
-0.007550 -0.039837 0.258504
-0.006286 -0.039734 0.257810
-0.005066 -0.039918 0.258974
-0.003823 -0.039993 0.259439
-0.002565 -0.039901 0.258819
-0.001317 -0.039948 0.259107
-0.000067 -0.040097 0.260064
0.001199 -0.040443 0.262298
0.002494 -0.040914 0.265347
0.003813 -0.041324 0.268002
0.005178 -0.041896 0.271709
0.006417 -0.041427 0.268675
0.007675 -0.041214 0.267300
0.009025 -0.041487 0.269077
0.010278 -0.041301 0.267886
0.011510 -0.041078 0.266456
0.012808 -0.041116 0.266720
0.014081 -0.041071 0.266452
0.015408 -0.041179 0.267184
0.016676 -0.041125 0.266860
0.017951 -0.041096 0.266704
0.019343 -0.041318 0.268182
0.020765 -0.041573 0.269875
0.022093 -0.041622 0.270236
0.023498 -0.041801 0.271446
0.024817 -0.041815 0.271585
0.026284 -0.042067 0.273272
0.027585 -0.042040 0.273148
0.028501 -0.041456 0.269409
0.029758 -0.041397 0.269089
0.030877 -0.041159 0.267602
0.032127 -0.041108 0.267333
0.033358 -0.041038 0.266943
0.034622 -0.041011 0.266835
0.035858 -0.040955 0.266536
0.037135 -0.040947 0.266559
0.038144 -0.040655 0.264729
0.039306 -0.040539 0.264047
0.040311 -0.040274 0.262393
0.041532 -0.040233 0.262203
0.042451 -0.039911 0.260182
0.043445 -0.039676 0.258732
0.044683 -0.039671 0.258778
0.045626 -0.039411 0.257159
0.046722 -0.039294 0.256476
0.047843 -0.039203 0.255964
0.049133 -0.039251 0.256364
0.050430 -0.039302 0.256781
0.051933 -0.039509 0.258213
0.053481 -0.039738 0.259799
0.055195 -0.040078 0.262103
0.056941 -0.040425 0.264463
0.058205 -0.040422 0.264530
0.059903 -0.040715 0.266534
0.061860 -0.041167 0.269583
0.063370 -0.041310 0.270609
0.064522 -0.041218 0.270094
0.065993 -0.041329 0.270910
0.067172 -0.041258 0.270527
0.068345 -0.041184 0.270131
0.069544 -0.041130 0.269856
0.070503 -0.040937 0.268677
0.071363 -0.040696 0.267171
0.071904 -0.040284 0.264546
0.072758 -0.040058 0.263140
0.073765 -0.039923 0.262327
0.074496 -0.039645 0.260576
0.074993 -0.039254 0.258075
0.075770 -0.039020 0.256604
0.076697 -0.038870 0.255680
0.077924 -0.038873 0.255765
0.079251 -0.038926 0.256172
0.080835 -0.039101 0.257384
0.082729 -0.039419 0.259534
0.084267 -0.039561 0.260518
0.086295 -0.039925 0.262965
0.087784 -0.040032 0.263722
0.098149 -0.044128 0.290748
0.099352 -0.044047 0.290261
0.102153 -0.044667 0.294387
0.102828 -0.044354 0.292359
0.104178 -0.044336 0.292271
0.105386 -0.044259 0.291791
0.106738 -0.044244 0.291710
0.108114 -0.044238 0.291692
0.109602 -0.044279 0.291969
0.110993 -0.044279 0.291977
0.112342 -0.044263 0.291870
0.113761 -0.044275 0.291942
0.114952 -0.044198 0.291424
0.116495 -0.044257 0.291796
0.117917 -0.044270 0.291851
0.119298 -0.044267 0.291799
0.120549 -0.044216 0.291424
0.121979 -0.044231 0.291478
0.123640 -0.044328 0.292067
0.125017 -0.044324 0.291973
0.126388 -0.044316 0.291855
0.127891 -0.044355 0.292032
0.129163 -0.044314 0.291673
0.130664 -0.044351 0.291823
0.132289 -0.044429 0.292233
0.133740 -0.044447 0.292240
0.135306 -0.044504 0.292485
0.136622 -0.044477 0.292177
0.137685 -0.044369 0.291326
0.139434 -0.044483 0.291918
0.141143 -0.044582 0.292398
0.142719 -0.044637 0.292581
0.144483 -0.044749 0.293125
0.145659 -0.044679 0.292463
0.147179 -0.044714 0.292480
0.148777 -0.044772 0.292633
0.150257 -0.044794 0.292535
0.151706 -0.044806 0.292360
0.153455 -0.044907 0.292742
-0.122625 -0.033960 0.230499
-0.121678 -0.034000 0.230966
-0.120625 -0.034011 0.231225
-0.120084 -0.034168 0.232467
-0.119095 -0.034198 0.232843
-0.118019 -0.034205 0.233043
-0.117678 -0.034426 0.234699
-0.116743 -0.034477 0.235181
-0.115886 -0.034551 0.235820
-0.115269 -0.034699 0.236954
-0.114445 -0.034788 0.237670
-0.113770 -0.034923 0.238702
-0.112947 -0.035016 0.239434
-0.112125 -0.035111 0.240171
-0.111489 -0.035267 0.241319
-0.110649 -0.035361 0.242034
-0.109770 -0.035444 0.242671
-0.109289 -0.035658 0.244202
-0.108808 -0.035878 0.245757
-0.108241 -0.036073 0.247143
-0.107414 -0.036185 0.247952
-0.106706 -0.036341 0.249050
-0.105838 -0.036444 0.249785
-0.105023 -0.036568 0.250661
-0.103972 -0.036612 0.250979
-0.103199 -0.036756 0.251975
-0.102749 -0.037020 0.253790
-0.103831 -0.037849 0.259468
-0.102987 -0.037987 0.260405
-0.103359 -0.038582 0.264473
-0.101808 -0.038465 0.263654
-0.107351 -0.041058 0.281405
-0.104997 -0.040658 0.278635
-0.104563 -0.041001 0.280950
-0.104332 -0.041433 0.283873
-0.103915 -0.041802 0.286354
-0.103504 -0.042183 0.288915
-0.102230 -0.042218 0.289095
-0.100333 -0.041993 0.287495
-0.099610 -0.042260 0.289260
-0.098182 -0.042231 0.288994
-0.096583 -0.042126 0.288209
-0.095474 -0.042236 0.288886
-0.093922 -0.042150 0.288217
-0.097929 -0.044592 0.304834
-0.097345 -0.044986 0.307436
-0.095827 -0.044954 0.307123
-0.094073 -0.044809 0.306032
-0.092798 -0.044890 0.306489
-0.091024 -0.044729 0.305288
-0.088853 -0.044365 0.302695
-0.085406 -0.043341 0.295608
-0.083424 -0.043039 0.293440
-0.083135 -0.043615 0.297259
-0.083044 -0.044316 0.301929
-0.081430 -0.044216 0.301129
-0.080033 -0.044231 0.301118
-0.078590 -0.044221 0.300934
-0.077325 -0.044313 0.301442
-0.076134 -0.044452 0.302263
-0.074564 -0.044370 0.301589
-0.073346 -0.044500 0.302344
-0.072015 -0.044563 0.302655
-0.067709 -0.042752 0.290235
-0.066444 -0.042825 0.290612
-0.065169 -0.042895 0.290965
-0.063897 -0.042970 0.291350
-0.062505 -0.042966 0.291202
-0.061151 -0.042988 0.291234
-0.059740 -0.042970 0.290991
-0.058303 -0.042933 0.290620
-0.056949 -0.042956 0.290655
-0.055544 -0.042942 0.290439
-0.054189 -0.042966 0.290484
-0.052810 -0.042971 0.290405
-0.051430 -0.042977 0.290324
-0.050155 -0.043072 0.290856
-0.048682 -0.042999 0.290247
-0.047353 -0.043052 0.290493
-0.046038 -0.043121 0.290848
-0.044527 -0.043007 0.289963
-0.043252 -0.043120 0.290618
-0.041822 -0.043080 0.290240
-0.040353 -0.042997 0.289576
-0.039419 -0.043497 0.292844
-0.036889 -0.042209 0.284072
-0.035737 -0.042459 0.285659
-0.034397 -0.042497 0.285818
-0.032253 -0.041504 0.279050
-0.030938 -0.041538 0.279193
-0.029621 -0.041571 0.279331
-0.028050 -0.041236 0.276995
-0.026738 -0.041266 0.277120
-0.025409 -0.041272 0.277078
-0.024067 -0.041257 0.276906
-0.022613 -0.041035 0.275348
-0.021361 -0.041178 0.276234
-0.020059 -0.041236 0.276559
-0.018681 -0.041134 0.275813
-0.017361 -0.041155 0.275896
-0.015698 -0.040299 0.270104
-0.014728 -0.041227 0.276274
-0.013402 -0.041244 0.276339
-0.011530 -0.039402 0.263951
-0.010167 -0.039055 0.261591
-0.008899 -0.039030 0.261387
-0.007637 -0.039029 0.261345
-0.006369 -0.038986 0.261025
-0.005111 -0.039001 0.261103
-0.003845 -0.038946 0.260707
-0.002588 -0.038966 0.260819
-0.001318 -0.038649 0.258682
-0.000069 -0.038905 0.260385
0.001208 -0.039525 0.264523
0.002498 -0.039732 0.265903
0.003803 -0.039940 0.267294
0.005123 -0.040171 0.268836
0.006440 -0.040281 0.269578
0.007719 -0.040163 0.268792
0.009033 -0.040229 0.269247
0.010344 -0.040269 0.269526
0.011619 -0.040177 0.268930
0.012934 -0.040226 0.269281
0.014255 -0.040283 0.269682
0.015542 -0.040242 0.269434
0.016895 -0.040364 0.270287
0.018202 -0.040369 0.270352
0.019562 -0.040480 0.271132
0.020875 -0.040488 0.271225
0.022121 -0.040371 0.270487
0.023438 -0.040391 0.270662
0.024716 -0.040344 0.270396
0.026311 -0.040793 0.273463
0.026053 -0.038465 0.257906
0.026972 -0.038005 0.254878
0.028258 -0.038083 0.255452
0.029551 -0.038160 0.256032
0.030722 -0.038082 0.255566
0.032009 -0.038147 0.256065
0.033255 -0.038160 0.256222
0.034570 -0.038249 0.256887
0.035749 -0.038186 0.256533
0.036982 -0.038184 0.256587
0.038357 -0.038323 0.257599
0.040183 -0.038889 0.261479
0.041719 -0.039150 0.263311
0.042581 -0.038782 0.260911
0.043577 -0.038552 0.259447
0.044797 -0.038528 0.259365
0.045607 -0.038163 0.256987
0.046790 -0.038120 0.256779
0.047811 -0.037951 0.255727
0.049047 -0.037957 0.255850
0.050553 -0.038166 0.257345
0.052055 -0.038363 0.258756
0.053696 -0.038650 0.260780
0.055323 -0.038914 0.262651
0.057064 -0.039245 0.264973
0.058661 -0.039464 0.266542
0.060280 -0.039689 0.268152
0.061941 -0.039932 0.269879
0.063534 -0.040121 0.271250
0.064798 -0.040100 0.271195
0.066072 -0.040085 0.271181
0.067324 -0.040057 0.271085
0.068568 -0.040026 0.270963
0.069740 -0.039955 0.270566
0.070586 -0.039703 0.268947
0.071424 -0.039456 0.267353
0.071961 -0.039054 0.264712
0.072639 -0.038741 0.262666
0.073505 -0.038538 0.261364
0.074405 -0.038358 0.260221
0.075003 -0.038031 0.258075
0.075821 -0.037825 0.256742
0.076875 -0.037741 0.256240
0.078196 -0.037788 0.256628
0.079689 -0.037916 0.257560
0.081478 -0.038179 0.259404
0.083490 -0.038537 0.261895
0.084888 -0.038605 0.262412
0.087143 -0.039056 0.265527
0.096982 -0.042843 0.291331
0.098217 -0.042776 0.290927
0.101037 -0.043393 0.295165
0.103681 -0.043917 0.298774
0.102752 -0.042934 0.292126
0.104308 -0.043002 0.292623
0.105525 -0.042931 0.292164
0.106752 -0.042865 0.291739
0.108195 -0.042886 0.291904
0.109538 -0.042868 0.291794
0.111070 -0.042923 0.292178
0.112343 -0.042879 0.291874
0.113519 -0.042798 0.291323
0.115020 -0.042841 0.291603
0.116597 -0.042910 0.292060
0.118001 -0.042915 0.292069
0.119490 -0.042951 0.292282
0.120708 -0.042889 0.291824
0.122135 -0.042902 0.291868
0.123356 -0.042843 0.291416
0.124968 -0.042920 0.291879
0.126545 -0.042983 0.292242
0.127740 -0.042916 0.291715
0.129079 -0.042899 0.291514
0.130509 -0.042912 0.291510
0.131893 -0.042910 0.291393
0.133330 -0.042925 0.291384
0.134772 -0.042941 0.291372
0.136039 -0.042902 0.290973
0.137384 -0.042887 0.290736
0.139304 -0.043051 0.291694
0.141307 -0.043237 0.292789
0.142849 -0.043280 0.292904
0.144441 -0.043336 0.293100
0.145721 -0.043299 0.292650
0.147113 -0.043296 0.292415
0.148692 -0.043347 0.292535
0.150118 -0.043353 0.292336
0.151689 -0.043400 0.292404
0.153322 -0.043464 0.292568
-0.122941 -0.032948 0.231148
-0.122057 -0.033004 0.231739
-0.121179 -0.033063 0.232338
-0.120206 -0.033097 0.232750
-0.119350 -0.033164 0.233387
-0.118519 -0.033240 0.234074
-0.117870 -0.033368 0.235123
-0.117084 -0.033460 0.235907
-0.116269 -0.033545 0.236635
-0.115752 -0.033719 0.237981
-0.115133 -0.033866 0.239130
-0.114401 -0.033982 0.240057
-0.113594 -0.034079 0.240834
-0.112764 -0.034170 0.241566
-0.112011 -0.034287 0.242473
-0.111196 -0.034387 0.243252
-0.110569 -0.034548 0.244457
-0.109736 -0.034647 0.245218
-0.109101 -0.034812 0.246436
-0.108417 -0.034964 0.247559
-0.107669 -0.035099 0.248554
-0.106883 -0.035224 0.249472
-0.105960 -0.035307 0.250084
-0.105374 -0.035504 0.251505
-0.105395 -0.035914 0.254417
-0.105249 -0.036275 0.256982
-0.104289 -0.036360 0.257592
-0.104864 -0.036990 0.262047
-0.102951 -0.036746 0.260311
-0.109357 -0.039501 0.279814
-0.108799 -0.039777 0.281749
-0.107417 -0.039755 0.281567
-0.107446 -0.040261 0.285122
-0.107965 -0.040967 0.290077
-0.106528 -0.040938 0.289830
-0.105203 -0.040952 0.289883
-0.104082 -0.041047 0.290505
-0.102795 -0.041078 0.290670
-0.101326 -0.041037 0.290316
-0.100058 -0.041077 0.290534
-0.098634 -0.041053 0.290294
-0.097317 -0.041074 0.290367
-0.095307 -0.040799 0.288345
-0.093899 -0.040777 0.288112
-0.097704 -0.043051 0.304094
-0.097309 -0.043516 0.307281
-0.095926 -0.043545 0.307396
-0.094016 -0.043333 0.305798
-0.092755 -0.043418 0.306298
-0.091461 -0.043490 0.306701
-0.090144 -0.043554 0.307042
-0.085340 -0.041906 0.295324
-0.083113 -0.041492 0.292293
-0.082870 -0.042070 0.296257
-0.082759 -0.042736 0.300833
-0.081316 -0.042725 0.300643
-0.079798 -0.042675 0.300170
-0.078576 -0.042783 0.300814
-0.077384 -0.042913 0.301605
-0.075846 -0.042851 0.301052
-0.074471 -0.042882 0.301143
-0.073472 -0.043134 0.302790
-0.072139 -0.043196 0.303101
-0.067483 -0.041231 0.289191
-0.066358 -0.041386 0.290156
-0.065127 -0.041481 0.290699
-0.063818 -0.041528 0.290912
-0.062477 -0.041557 0.290988
-0.061205 -0.041634 0.291404
-0.059703 -0.041554 0.290728
-0.058223 -0.041487 0.290131
-0.056896 -0.041527 0.290296
-0.055544 -0.041552 0.290349
-0.054141 -0.041539 0.290134
-0.052800 -0.041573 0.290254
-0.051440 -0.041594 0.290284
-0.050084 -0.041620 0.290349
-0.048687 -0.041612 0.290178
-0.047324 -0.041634 0.290215
-0.045913 -0.041613 0.289960
-0.044528 -0.041616 0.289868
-0.043185 -0.041659 0.290058
-0.041800 -0.041664 0.289982
-0.040387 -0.041640 0.289710
-0.039367 -0.042033 0.292343
-0.036389 -0.040289 0.280112
-0.035389 -0.040685 0.282769
-0.034128 -0.040800 0.283473
-0.031887 -0.039704 0.275768
-0.030024 -0.039005 0.270832
-0.028660 -0.038920 0.270156
-0.027363 -0.038923 0.270095
-0.025932 -0.038726 0.268649
-0.024591 -0.038649 0.268042
-0.023266 -0.038592 0.267570
-0.022094 -0.038794 0.268905
-0.020836 -0.038863 0.269313
-0.019556 -0.038899 0.269499
-0.018335 -0.039063 0.270580
-0.017154 -0.039345 0.272474
-0.015628 -0.038818 0.268766
-0.014826 -0.040156 0.277977
-0.013491 -0.040172 0.278042
-0.011581 -0.038293 0.264987
-0.010208 -0.037940 0.262505
-0.008918 -0.037841 0.261788
-0.007648 -0.037812 0.261553
-0.006374 -0.037747 0.261068
-0.005112 -0.037736 0.260968
-0.003851 -0.037724 0.260862
-0.002592 -0.037744 0.260982
-0.001328 -0.037651 0.260317
-0.000071 -0.037899 0.262021
0.001214 -0.038486 0.266072
0.002500 -0.038498 0.266147
0.003789 -0.038529 0.266356
0.005086 -0.038599 0.266842
0.006372 -0.038583 0.266731
0.007656 -0.038554 0.266541
0.008923 -0.038465 0.265934
0.010183 -0.038369 0.265287
0.011462 -0.038357 0.265219
0.012715 -0.038270 0.264639
0.014014 -0.038327 0.265055
0.015319 -0.038385 0.265490
0.016658 -0.038516 0.266421
0.017976 -0.038583 0.266921
0.019362 -0.038774 0.268281
0.020685 -0.038825 0.268673
0.021957 -0.038780 0.268402
0.023296 -0.038852 0.268945
0.024632 -0.038910 0.269398
0.025461 -0.038203 0.264552
0.025848 -0.036931 0.255801
0.027026 -0.036854 0.255319
0.028280 -0.036881 0.255567
0.029536 -0.036911 0.255832
0.030815 -0.036965 0.256265
0.032028 -0.036938 0.256142
0.033259 -0.036933 0.256176
0.034517 -0.036958 0.256419
0.035749 -0.036954 0.256463
0.036921 -0.036890 0.256089
0.038227 -0.036960 0.256646
0.040121 -0.037577 0.261008
0.041550 -0.037732 0.262168
0.042891 -0.037802 0.262733
0.043819 -0.037514 0.260813
0.045099 -0.037536 0.261047
0.046180 -0.037394 0.260144
0.047277 -0.037273 0.259388
0.048547 -0.037290 0.259593
0.049746 -0.037255 0.259430
0.051195 -0.037403 0.260550
0.052843 -0.037685 0.262605
0.054341 -0.037851 0.263848
0.055950 -0.038084 0.265564
0.057357 -0.038173 0.266272
0.058436 -0.038044 0.265462
0.060404 -0.038487 0.268646
0.062148 -0.038771 0.270721
0.063513 -0.038813 0.271105
0.064688 -0.038739 0.270679
0.066055 -0.038780 0.271057
0.067290 -0.038744 0.270895
0.068515 -0.038704 0.270702
0.069718 -0.038652 0.270432
0.070619 -0.038439 0.269026
0.071394 -0.038165 0.267195
0.071971 -0.037798 0.264705
0.072992 -0.037672 0.263902
0.073928 -0.037507 0.262826
0.074658 -0.037245 0.261066
0.075499 -0.037046 0.259744
0.076219 -0.036795 0.258058
0.077312 -0.036729 0.257664
0.078586 -0.036750 0.257876
0.080142 -0.036900 0.258996
0.081905 -0.037140 0.260738
0.083608 -0.037345 0.262239
0.085212 -0.037501 0.263389
0.087286 -0.037856 0.265939
0.096930 -0.041437 0.291152
0.098163 -0.041372 0.290748
0.100871 -0.041922 0.294660
0.101364 -0.041549 0.292082
0.102721 -0.041535 0.292025
0.104137 -0.041545 0.292130
0.105222 -0.041425 0.291316
0.106617 -0.041428 0.291362
0.108059 -0.041449 0.291531
0.109590 -0.041503 0.291928
0.111069 -0.041537 0.292175
0.112301 -0.041478 0.291765
0.113802 -0.041519 0.292051
0.115249 -0.041540 0.292188
0.116721 -0.041569 0.292378
0.118055 -0.041548 0.292213
0.119409 -0.041535 0.292095
0.120609 -0.041470 0.291599
0.122070 -0.041494 0.291731
0.123326 -0.041449 0.291365
0.124809 -0.041481 0.291530
0.126254 -0.041499 0.291594
0.127564 -0.041473 0.291339
0.128860 -0.041443 0.291047
0.130486 -0.041519 0.291489
0.131851 -0.041511 0.291334
0.133209 -0.041501 0.291155
0.134471 -0.041462 0.290761
0.135991 -0.041501 0.290912
0.137351 -0.041492 0.290711
0.139849 -0.041824 0.292884
0.141450 -0.041883 0.293138
0.142651 -0.041824 0.292550
0.144038 -0.041820 0.292338
0.145563 -0.041855 0.292391
0.146931 -0.041846 0.292116
0.148425 -0.041872 0.292075
0.149880 -0.041886 0.291943
0.151359 -0.041907 0.291840
0.153100 -0.042000 0.292220
-0.123201 -0.031915 0.231689
-0.122244 -0.031951 0.232143
-0.121406 -0.032019 0.232821
-0.120379 -0.032038 0.233131
-0.119598 -0.032123 0.233915
-0.118831 -0.032214 0.234731
-0.118032 -0.032298 0.235486
-0.117318 -0.032407 0.236415
-0.116718 -0.032550 0.237585
-0.116222 -0.032725 0.238981
-0.115513 -0.032843 0.239951
-0.114881 -0.032985 0.241094
-0.114138 -0.033098 0.242014
-0.113313 -0.033189 0.242767
-0.112621 -0.033322 0.243817
-0.111784 -0.033414 0.244561
-0.111294 -0.033613 0.246080
-0.110471 -0.033714 0.246878
-0.110298 -0.034018 0.249154
-0.109581 -0.034159 0.250231
-0.108163 -0.034082 0.249704
-0.107717 -0.034313 0.251428
-0.108000 -0.034784 0.254904
-0.106971 -0.034838 0.255320
-0.105104 -0.034618 0.253719
-0.105306 -0.035082 0.257124
-0.113612 -0.038288 0.280621
-0.110385 -0.037636 0.275840
-0.109494 -0.037775 0.276850
-0.108193 -0.037775 0.276829
-0.111725 -0.039482 0.289316
-0.110448 -0.039511 0.289501
-0.109276 -0.039579 0.289963
-0.107947 -0.039591 0.290013
-0.106672 -0.039623 0.290205
-0.105418 -0.039665 0.290458
-0.104089 -0.039678 0.290503
-0.102800 -0.039708 0.290660
-0.101385 -0.039689 0.290459
-0.100119 -0.039729 0.290683
-0.098742 -0.039725 0.290584
-0.097549 -0.039796 0.291030
-0.096093 -0.039761 0.290691
-0.094204 -0.039543 0.289014
-0.097721 -0.041620 0.304110
-0.097230 -0.042027 0.306990
-0.096047 -0.042143 0.307738
-0.094150 -0.041945 0.306189
-0.093069 -0.042109 0.307287
-0.091446 -0.042030 0.306603
-0.087730 -0.040971 0.298769
-0.084956 -0.040324 0.293945
-0.083356 -0.040222 0.293094
-0.082332 -0.040399 0.294275
-0.082824 -0.041340 0.301010
-0.081258 -0.041268 0.300369
-0.079834 -0.041267 0.300242
-0.078618 -0.041375 0.300910
-0.077305 -0.041436 0.301228
-0.075856 -0.041425 0.301024
-0.074600 -0.041520 0.301593
-0.073479 -0.041696 0.302745
-0.072146 -0.041757 0.303057
-0.067980 -0.040146 0.291249
-0.066322 -0.039981 0.289927
-0.065054 -0.040049 0.290296
-0.063788 -0.040121 0.290696
-0.062422 -0.040132 0.290651
-0.061118 -0.040185 0.290907
-0.059760 -0.040203 0.290920
-0.058307 -0.040158 0.290468
-0.056949 -0.040177 0.290483
-0.055612 -0.040212 0.290613
-0.054207 -0.040198 0.290394
-0.052854 -0.040224 0.290460
-0.051517 -0.040264 0.290626
-0.050135 -0.040269 0.290547
-0.048778 -0.040295 0.290619
-0.047427 -0.040329 0.290747
-0.046037 -0.040330 0.290640
-0.044662 -0.040345 0.290636
-0.043303 -0.040376 0.290746
-0.041847 -0.040316 0.290206
-0.040405 -0.040265 0.289734
-0.039352 -0.040613 0.292128
-0.036961 -0.039554 0.284410
-0.035574 -0.039529 0.284137
-0.034163 -0.039476 0.283657
-0.032484 -0.039094 0.280823
-0.030299 -0.038045 0.273197
-0.029306 -0.038466 0.276136
-0.028046 -0.038559 0.276716
-0.026338 -0.038015 0.272734
-0.025031 -0.038024 0.272719
-0.023807 -0.038166 0.273665
-0.022436 -0.038076 0.272946
-0.021126 -0.038085 0.272944
-0.019763 -0.037993 0.272220
-0.018497 -0.038088 0.272839
-0.017142 -0.038001 0.272155
-0.015569 -0.037375 0.267619
-0.014493 -0.037938 0.271597
-0.013193 -0.037966 0.271751
-0.011471 -0.036655 0.262323
-0.010227 -0.036735 0.262853
-0.008918 -0.036572 0.261649
-0.007622 -0.036418 0.260512
-0.006352 -0.036351 0.260003
-0.005100 -0.036374 0.260141
-0.003849 -0.036435 0.260555
-0.002600 -0.036577 0.261546
-0.001340 -0.036669 0.262188
-0.000073 -0.036915 0.263938
0.001208 -0.037071 0.265044
0.002498 -0.037211 0.266038
0.003798 -0.037346 0.266994
0.005092 -0.037369 0.267164
0.006400 -0.037466 0.267858
0.007662 -0.037305 0.266715
0.008968 -0.037372 0.267204
0.010281 -0.037451 0.267782
0.011524 -0.037282 0.266597
0.012834 -0.037345 0.267067
0.014123 -0.037338 0.267038
0.015443 -0.037409 0.267577
0.016767 -0.037477 0.268094
0.018075 -0.037502 0.268306
0.019344 -0.037448 0.267957
0.020596 -0.037370 0.267439
0.021930 -0.037442 0.268002
0.023529 -0.037932 0.271554
0.024403 -0.037263 0.266815
0.025675 -0.037239 0.266699
0.025966 -0.035862 0.256890
0.027247 -0.035915 0.257325
0.028493 -0.035920 0.257419
0.029676 -0.035848 0.256963
0.030924 -0.035858 0.257098
0.032174 -0.035869 0.257238
0.033398 -0.035851 0.257179
0.034620 -0.035831 0.257107
0.035828 -0.035800 0.256954
0.037009 -0.035744 0.256626
0.038246 -0.035745 0.256708
0.039959 -0.036176 0.259880
0.041375 -0.036320 0.260998
0.042682 -0.036363 0.261382
0.043889 -0.036320 0.261162
0.045291 -0.036437 0.262086
0.046622 -0.036492 0.262568
0.048058 -0.036624 0.263602
0.049585 -0.036817 0.265082
0.050887 -0.036837 0.265314
0.052425 -0.037023 0.266743
0.053929 -0.037177 0.267942
0.055340 -0.037261 0.268638
0.056682 -0.037294 0.268976
0.057964 -0.037289 0.269029
0.059181 -0.037243 0.268788
0.060720 -0.037397 0.269991
0.062117 -0.037458 0.270530
0.063538 -0.037532 0.271154
0.064693 -0.037448 0.270644
0.066022 -0.037467 0.270871
0.067401 -0.037513 0.271292
0.068582 -0.037448 0.270918
0.069695 -0.037350 0.270295
0.070573 -0.037132 0.268804
0.071542 -0.036968 0.267707
0.072190 -0.036648 0.265468
0.073334 -0.036585 0.265099
0.074293 -0.036434 0.264086
0.075225 -0.036276 0.263013
0.076103 -0.036096 0.261786
0.077061 -0.035960 0.260873
0.078238 -0.035929 0.260719
0.079282 -0.035838 0.260131
0.080678 -0.035907 0.260699
0.082670 -0.036235 0.263145
0.084102 -0.036312 0.263763
0.085775 -0.036489 0.265105
0.088151 -0.036955 0.268550
0.096974 -0.040072 0.291259
0.098207 -0.040009 0.290854
0.099709 -0.040056 0.291247
0.101212 -0.040101 0.291625
0.103064 -0.040283 0.292985
0.104380 -0.040252 0.292799
0.105426 -0.040120 0.291868
0.106687 -0.040071 0.291545
0.108393 -0.040189 0.292426
0.109582 -0.040115 0.291903
0.110980 -0.040118 0.291936
0.112387 -0.040124 0.291988
0.113772 -0.040123 0.291976
0.115171 -0.040126 0.291994
0.116644 -0.040155 0.292191
0.118035 -0.040154 0.292172
0.119292 -0.040109 0.291819
0.120681 -0.040109 0.291784
0.121931 -0.040063 0.291412
0.123239 -0.040037 0.291177
0.124800 -0.040093 0.291528
0.126043 -0.040047 0.291130
0.127361 -0.040025 0.290901
0.128684 -0.040005 0.290677
0.130047 -0.039998 0.290537
0.131570 -0.040040 0.290744
0.133213 -0.040117 0.291197
0.134357 -0.040044 0.290550
0.135657 -0.040018 0.290238
0.137343 -0.040105 0.290737
0.140365 -0.040577 0.294010
0.141220 -0.040420 0.292709
0.142714 -0.040446 0.292730
0.144187 -0.040466 0.292694
0.145388 -0.040410 0.292096
0.146897 -0.040440 0.292106
0.148222 -0.040419 0.291738
0.149703 -0.040441 0.291664
0.151106 -0.040441 0.291421
0.152738 -0.040502 0.291601
-0.123295 -0.030836 0.231917
-0.122461 -0.030902 0.232604
-0.121525 -0.030943 0.233094
-0.120741 -0.031024 0.233876
-0.119904 -0.031093 0.234555
-0.119113 -0.031175 0.235326
-0.118743 -0.031370 0.236942
-0.118083 -0.031491 0.237992
-0.117404 -0.031610 0.239014
-0.116777 -0.031745 0.240152
-0.115937 -0.031824 0.240861
-0.115454 -0.032004 0.242323
-0.114667 -0.032103 0.243162
-0.114271 -0.032313 0.244843
-0.113333 -0.032374 0.245380
-0.113017 -0.032615 0.247278
-0.112194 -0.032714 0.248088
-0.111044 -0.032718 0.248175
-0.110516 -0.032907 0.249661
-0.109626 -0.032992 0.250346
-0.111007 -0.033769 0.256280
-0.110044 -0.033843 0.256868
-0.109504 -0.034050 0.258460
-0.108465 -0.034104 0.258891
-0.117958 -0.037939 0.288016
-0.113673 -0.036984 0.280771
-0.112481 -0.037025 0.281075
-0.114546 -0.038152 0.289617
-0.113457 -0.038243 0.290289
-0.112213 -0.038284 0.290572
-0.110840 -0.038281 0.290516
-0.109486 -0.038284 0.290506
-0.108098 -0.038276 0.290402
-0.106824 -0.038308 0.290600
-0.105468 -0.038312 0.290576
-0.104407 -0.038424 0.291369
-0.103002 -0.038411 0.291208
-0.101292 -0.038282 0.290167
-0.099796 -0.038232 0.289717
-0.098641 -0.038313 0.290257
-0.097246 -0.038301 0.290094
-0.095597 -0.038188 0.289156
-0.094162 -0.038158 0.288847
-0.097722 -0.040182 0.304073
-0.097100 -0.040521 0.306540
-0.096170 -0.040739 0.308091
-0.093988 -0.040425 0.305617
-0.092714 -0.040498 0.306066
-0.089906 -0.039894 0.301389
-0.087255 -0.039340 0.297100
-0.084428 -0.038688 0.292067
-0.082731 -0.038540 0.290844
-0.083242 -0.039434 0.297473
-0.082257 -0.039637 0.298892
-0.080967 -0.039699 0.299235
-0.079757 -0.039802 0.299891
-0.078277 -0.039772 0.299543
-0.076850 -0.039768 0.299393
-0.075610 -0.039862 0.299979
-0.074177 -0.039857 0.299812
-0.073306 -0.040159 0.301959
-0.071977 -0.040218 0.302271
-0.067412 -0.038434 0.288740
-0.066341 -0.038610 0.289936
-0.065107 -0.038696 0.290458
-0.063833 -0.038761 0.290822
-0.062438 -0.038754 0.290646
-0.061214 -0.038856 0.291286
-0.059839 -0.038864 0.291223
-0.058372 -0.038812 0.290704
-0.057022 -0.038837 0.290767
-0.055676 -0.038866 0.290861
-0.054319 -0.038888 0.290904
-0.052938 -0.038894 0.290831
-0.051548 -0.038894 0.290710
-0.050185 -0.038915 0.290742
-0.048779 -0.038902 0.290532
-0.047398 -0.038910 0.290472
-0.046040 -0.038938 0.290565
-0.044678 -0.038963 0.290638
-0.043302 -0.038978 0.290642
-0.041930 -0.038998 0.290676
-0.039768 -0.038259 0.285064
-0.039502 -0.039357 0.293136
-0.037008 -0.038233 0.284663
-0.035671 -0.038265 0.284800
-0.034512 -0.038499 0.286444
-0.032719 -0.038015 0.282749
-0.029962 -0.036320 0.270053
-0.028345 -0.035917 0.266973
-0.028075 -0.037262 0.276891
-0.026187 -0.036489 0.271065
-0.024691 -0.036209 0.268905
-0.023532 -0.036419 0.270394
-0.022459 -0.036796 0.273120
-0.021612 -0.037611 0.279098
-0.020278 -0.037633 0.279195
-0.018909 -0.037586 0.278784
-0.017573 -0.037606 0.278869
-0.015647 -0.036261 0.268838
-0.014636 -0.036983 0.274141
-0.013323 -0.037012 0.274301
-0.011445 -0.035304 0.261599
-0.010238 -0.035497 0.262991
-0.008934 -0.035366 0.261981
-0.007607 -0.035081 0.259839
-0.006335 -0.034992 0.259148
-0.005090 -0.035037 0.259448
-0.003845 -0.035121 0.260046
-0.002600 -0.035290 0.261283
-0.001342 -0.035424 0.262259
-0.000075 -0.035614 0.263646
0.001207 -0.035804 0.265048
0.002504 -0.036025 0.266676
0.003806 -0.036148 0.267582
0.005129 -0.036351 0.269083
0.006459 -0.036513 0.270286
0.007664 -0.036033 0.266742
0.008937 -0.035963 0.266235
0.010261 -0.036090 0.267191
0.011550 -0.036081 0.267140
0.012803 -0.035971 0.266353
0.014085 -0.035956 0.266264
0.015542 -0.036351 0.269219
0.016872 -0.036412 0.269698
0.018168 -0.036396 0.269615
0.019463 -0.036379 0.269527
0.020615 -0.036114 0.267610
0.021885 -0.036076 0.267371
0.023498 -0.036575 0.271114
0.024658 -0.036353 0.269526
0.025152 -0.035223 0.261193
0.026080 -0.034776 0.257938
0.027279 -0.034717 0.257557
0.028505 -0.034695 0.257452
0.029760 -0.034709 0.257618
0.030967 -0.034668 0.257377
0.032188 -0.034645 0.257274
0.033416 -0.034632 0.257242
0.034692 -0.034667 0.257574
0.035892 -0.034626 0.257339
0.037095 -0.034591 0.257153
0.038407 -0.034656 0.257715
0.040137 -0.035083 0.260969
0.041717 -0.035356 0.263081
0.043169 -0.035508 0.264295
0.044346 -0.035432 0.263815
0.045636 -0.035447 0.264015
0.047276 -0.035726 0.266181
0.048513 -0.035694 0.266033
0.050167 -0.035963 0.268122
0.051292 -0.035848 0.267358
0.052762 -0.035974 0.268391
0.054173 -0.036055 0.269088
0.055439 -0.036038 0.269052
0.056994 -0.036205 0.270398
0.058148 -0.036115 0.269822
0.059046 -0.035875 0.268117
0.060811 -0.036160 0.270341
0.062055 -0.036129 0.270206
0.063399 -0.036156 0.270507
0.064743 -0.036183 0.270800
0.066080 -0.036205 0.271058
0.067308 -0.036167 0.270868
0.068653 -0.036192 0.271148
0.069963 -0.036199 0.271289
0.071027 -0.036080 0.270489
0.072071 -0.035955 0.269641
0.072866 -0.035713 0.267912
0.073955 -0.035621 0.267303
0.074767 -0.035401 0.265732
0.075737 -0.035261 0.264763
0.076919 -0.035223 0.264557
0.078047 -0.035162 0.264178
0.079034 -0.035041 0.263337
0.079964 -0.034898 0.262338
0.081621 -0.035072 0.263717
0.083219 -0.035216 0.264865
0.084484 -0.035217 0.264936
0.086500 -0.035526 0.267322
0.088611 -0.035865 0.269929
0.097110 -0.038742 0.291646
0.098344 -0.038681 0.291240
0.099425 -0.038562 0.290396
0.101505 -0.038829 0.292451
0.102821 -0.038800 0.292277
0.104164 -0.038781 0.292179
0.105209 -0.038654 0.291255
0.106467 -0.038608 0.290935
0.107859 -0.038610 0.290978
0.109482 -0.038694 0.291631
0.110867 -0.038693 0.291635
0.112288 -0.038705 0.291729
0.113690 -0.038709 0.291767
0.115024 -0.038691 0.291622
0.116502 -0.038720 0.291838
0.117903 -0.038724 0.291851
0.119311 -0.038730 0.291873
0.120406 -0.038636 0.291131
0.121732 -0.038617 0.290949
0.123167 -0.038632 0.291022
0.124648 -0.038662 0.291190
0.126100 -0.038682 0.291282
0.127493 -0.038683 0.291224
0.128814 -0.038663 0.290995
0.130347 -0.038706 0.291235
0.131838 -0.038736 0.291367
0.133118 -0.038704 0.291022
0.134513 -0.038706 0.290922
0.135880 -0.038700 0.290752
0.137567 -0.038784 0.291250
0.139169 -0.038842 0.291546
0.141040 -0.038974 0.292382
0.142344 -0.038948 0.292021
0.143573 -0.038902 0.291498
0.145019 -0.038916 0.291408
0.146511 -0.038941 0.291397
0.147997 -0.038964 0.291355
0.149607 -0.039019 0.291540
0.150961 -0.039007 0.291207
0.152475 -0.039036 0.291169
-0.123370 -0.029750 0.232106
-0.122774 -0.029872 0.233244
-0.121995 -0.029951 0.234039
-0.120964 -0.029969 0.234350
-0.120494 -0.030128 0.235750
-0.119738 -0.030217 0.236600
-0.119363 -0.030405 0.238214
-0.118887 -0.030571 0.239646
-0.118172 -0.030678 0.240611
-0.117480 -0.030793 0.241628
-0.116620 -0.030866 0.242308
-0.116146 -0.031044 0.243801
-0.115315 -0.031128 0.244558
-0.114584 -0.031242 0.245537
-0.113923 -0.031378 0.246677
-0.113103 -0.031472 0.247485
-0.112421 -0.031607 0.248606
-0.111572 -0.031697 0.249370
-0.110833 -0.031820 0.250390
-0.110578 -0.032087 0.252530
-0.110671 -0.032462 0.255515
-0.110097 -0.032647 0.257000
-0.119851 -0.036747 0.289322
-0.118018 -0.036599 0.288164
-0.116939 -0.036685 0.288835
-0.115960 -0.036804 0.289764
-0.114685 -0.036832 0.289965
-0.113304 -0.036825 0.289889
-0.112120 -0.036883 0.290322
-0.110863 -0.036918 0.290566
-0.109451 -0.036902 0.290402
-0.108114 -0.036911 0.290430
-0.106823 -0.036937 0.290581
-0.105452 -0.036935 0.290510
-0.104175 -0.036966 0.290700
-0.102848 -0.036980 0.290749
-0.101544 -0.037003 0.290863
-0.100138 -0.036989 0.290684
-0.098813 -0.037005 0.290734
-0.097677 -0.037094 0.291348
-0.095959 -0.036960 0.290218
-0.094139 -0.036783 0.288742
-0.098019 -0.038861 0.304959
-0.097777 -0.039342 0.308635
-0.096238 -0.039308 0.308264
-0.094283 -0.039100 0.306533
-0.092851 -0.039106 0.306472
-0.089510 -0.038296 0.300017
-0.089072 -0.038721 0.303238
-0.084089 -0.037153 0.290847
-0.083330 -0.037429 0.292900
-0.081568 -0.037257 0.291437
-0.082303 -0.038239 0.299004
-0.080955 -0.038271 0.299133
-0.079649 -0.038324 0.299425
-0.078265 -0.038342 0.299437
-0.077001 -0.038419 0.299917
-0.075660 -0.038460 0.300112
-0.074249 -0.038467 0.300039
-0.073012 -0.038566 0.300682
-0.071689 -0.038623 0.300993
-0.067594 -0.037158 0.289453
-0.066438 -0.037281 0.290288
-0.065155 -0.037337 0.290596
-0.063806 -0.037357 0.290624
-0.062493 -0.037399 0.290828
-0.061179 -0.037443 0.291040
-0.059813 -0.037456 0.291018
-0.058417 -0.037450 0.290848
-0.057024 -0.037447 0.290693
-0.055687 -0.037481 0.290834
-0.054301 -0.037482 0.290722
-0.052939 -0.037502 0.290748
-0.051577 -0.037522 0.290782
-0.050202 -0.037533 0.290750
-0.048839 -0.037555 0.290798
-0.047473 -0.037575 0.290836
-0.046080 -0.037575 0.290719
-0.044682 -0.037570 0.290569
-0.043355 -0.037627 0.290896
-0.041942 -0.037611 0.290661
-0.040404 -0.037478 0.289521
-0.039308 -0.037760 0.291588
-0.036864 -0.036719 0.283453
-0.035670 -0.036893 0.284690
-0.034629 -0.037244 0.287304
-0.032570 -0.036485 0.281354
-0.029180 -0.034104 0.262907
-0.027506 -0.033604 0.258968
-0.026116 -0.033420 0.257474
-0.024956 -0.033527 0.258221
-0.023750 -0.033580 0.258555
-0.022493 -0.033563 0.258349
-0.021301 -0.033646 0.258919
-0.020135 -0.033784 0.259919
-0.019171 -0.034303 0.263842
-0.018064 -0.034620 0.266219
-0.017198 -0.035482 0.272792
-0.015483 -0.034592 0.265889
-0.014330 -0.034910 0.268280
-0.013191 -0.035328 0.271448
-0.011502 -0.034204 0.262766
-0.010284 -0.034377 0.264052
-0.008985 -0.034289 0.263339
-0.007670 -0.034098 0.261834
-0.006391 -0.034030 0.261283
-0.005154 -0.034201 0.262566
-0.003891 -0.034253 0.262946
-0.002630 -0.034394 0.264000
-0.001359 -0.034533 0.265052
-0.000077 -0.034726 0.266518
0.001214 -0.034780 0.266926
0.002520 -0.034988 0.268515
0.003827 -0.035055 0.269024
0.005140 -0.035135 0.269645
0.006464 -0.035240 0.270454
0.007408 -0.033586 0.257769
0.008666 -0.033628 0.258099
0.009867 -0.033467 0.256878
0.011134 -0.033539 0.257446
0.012409 -0.033620 0.258094
0.013663 -0.033633 0.258211
0.014908 -0.033624 0.258174
0.016163 -0.033637 0.258301
0.017450 -0.033708 0.258886
0.018735 -0.033767 0.259376
0.020111 -0.033973 0.260999
0.021513 -0.034196 0.262757
0.023519 -0.035299 0.271281
0.024469 -0.034786 0.267390
0.024878 -0.033593 0.258270
0.026177 -0.033659 0.258829
0.027438 -0.033671 0.258985
0.028713 -0.033699 0.259260
0.029877 -0.033600 0.258556
0.031109 -0.033583 0.258489
0.032375 -0.033601 0.258699
0.033575 -0.033552 0.258391
0.034783 -0.033515 0.258176
0.035971 -0.033462 0.257839
0.037175 -0.033426 0.257641
0.038559 -0.033549 0.258667
0.040590 -0.034210 0.263842
0.042010 -0.034331 0.264862
0.043465 -0.034473 0.266041
0.044920 -0.034607 0.267160
0.046157 -0.034570 0.266963
0.047555 -0.034652 0.267688
0.048905 -0.034696 0.268118
0.050333 -0.034791 0.268947
0.051580 -0.034760 0.268801
0.052799 -0.034712 0.268518
0.053977 -0.034640 0.268054
0.055369 -0.034705 0.268656
0.056632 -0.034688 0.268619
0.057873 -0.034659 0.268491
0.059253 -0.034712 0.268999
0.060906 -0.034921 0.270707
0.062338 -0.034996 0.271385
0.063586 -0.034966 0.271250
0.064775 -0.034906 0.270883
0.066034 -0.034885 0.270816
0.067296 -0.034867 0.270771
0.068609 -0.034876 0.270928
0.069846 -0.034846 0.270788
0.071047 -0.034799 0.270519
0.072187 -0.034725 0.270032
0.073083 -0.034538 0.268667
0.074260 -0.034488 0.268363
0.075441 -0.034442 0.268087
0.076421 -0.034307 0.267120
0.077527 -0.034232 0.266616
0.078630 -0.034158 0.266117
0.079773 -0.034103 0.265769
0.080737 -0.033975 0.264844
0.081999 -0.033974 0.264909
0.083563 -0.034097 0.265931
0.084624 -0.034014 0.265349
0.086541 -0.034272 0.267425
0.088873 -0.034684 0.270704
0.097006 -0.037317 0.291310
0.098238 -0.037257 0.290905
0.100998 -0.037771 0.294971
0.100893 -0.037214 0.290671
0.102381 -0.037252 0.291012
0.103889 -0.037296 0.291395
0.104947 -0.037179 0.290518
0.106346 -0.037184 0.290593
0.107625 -0.037148 0.290338
0.109279 -0.037241 0.291082
0.110810 -0.037290 0.291481
0.112082 -0.037252 0.291193
0.113653 -0.037312 0.291670
0.115191 -0.037361 0.292049
0.116685 -0.037394 0.292300
0.117862 -0.037326 0.291756
0.119086 -0.037275 0.291331
0.120408 -0.037255 0.291147
0.121720 -0.037232 0.290934
0.123238 -0.037272 0.291205
0.124829 -0.037333 0.291631
0.125889 -0.037236 0.290813
0.127265 -0.037233 0.290724
0.128711 -0.037250 0.290786
0.130089 -0.037248 0.290686
0.131566 -0.037274 0.290794
0.133123 -0.037321 0.291063
0.134594 -0.037344 0.291131
0.135888 -0.037318 0.290805
0.137282 -0.037319 0.290685
0.139065 -0.037425 0.291369
0.140883 -0.037538 0.292098
0.142217 -0.037522 0.291804
0.143618 -0.037523 0.291639
0.144961 -0.037509 0.291344
0.146400 -0.037520 0.291230
0.147774 -0.037514 0.290974
0.149251 -0.037534 0.290905
0.150711 -0.037550 0.290787
0.152171 -0.037565 0.290653
-0.124251 -0.028851 0.233809
-0.123251 -0.028875 0.234195
-0.122494 -0.028957 0.235039
-0.121769 -0.029049 0.235948
-0.120789 -0.029081 0.236365
-0.120405 -0.029258 0.237953
-0.119914 -0.029412 0.239349
-0.119029 -0.029472 0.239965
-0.118678 -0.029666 0.241670
-0.117995 -0.029780 0.242717
-0.117186 -0.029865 0.243512
-0.116381 -0.029952 0.244319
-0.116434 -0.030264 0.246956
-0.114899 -0.030166 0.246234
-0.114084 -0.030256 0.247046
-0.113895 -0.030516 0.249235
-0.112783 -0.030531 0.249422
-0.112542 -0.030786 0.251552
-0.112110 -0.030992 0.253288
-0.111461 -0.031143 0.254557
-0.110722 -0.031272 0.255641
-0.122899 -0.035479 0.290089
-0.121734 -0.035536 0.290572
-0.119910 -0.035400 0.289466
-0.118510 -0.035388 0.289365
-0.117527 -0.035501 0.290285
-0.116337 -0.035553 0.290703
-0.114904 -0.035532 0.290513
-0.113576 -0.035543 0.290580
-0.112021 -0.035482 0.290053
-0.110777 -0.035520 0.290327
-0.109544 -0.035562 0.290634
-0.108157 -0.035555 0.290528
-0.106939 -0.035604 0.290879
-0.105593 -0.035611 0.290880
-0.104236 -0.035614 0.290849
-0.103014 -0.035665 0.291197
-0.101646 -0.035665 0.291131
-0.100224 -0.035647 0.290907
-0.098865 -0.035650 0.290859
-0.097609 -0.035691 0.291115
-0.096207 -0.035680 0.290935
-0.094245 -0.035457 0.289034
-0.098897 -0.037753 0.307652
-0.097606 -0.037815 0.308057
-0.096556 -0.037973 0.309244
-0.094507 -0.037738 0.307219
-0.093190 -0.037792 0.307548
-0.091509 -0.037697 0.306667
-0.086674 -0.036280 0.295027
-0.085436 -0.036346 0.295455
-0.083388 -0.036065 0.293054
-0.082679 -0.036362 0.295356
-0.082220 -0.036782 0.298648
-0.080884 -0.036817 0.298812
-0.079479 -0.036822 0.298728
-0.078085 -0.036833 0.298689
-0.076787 -0.036889 0.299019
-0.075261 -0.036837 0.298467
-0.073979 -0.036904 0.298881
-0.073130 -0.037194 0.301101
-0.071805 -0.037248 0.301412
-0.067448 -0.035700 0.288757
-0.066325 -0.035835 0.289724
-0.065135 -0.035939 0.290436
-0.063829 -0.035982 0.290656
-0.062442 -0.035981 0.290517
-0.061193 -0.036060 0.291030
-0.059874 -0.036101 0.291237
-0.058503 -0.036112 0.291197
-0.057147 -0.036133 0.291239
-0.055777 -0.036147 0.291221
-0.054403 -0.036158 0.291188
-0.053029 -0.036170 0.291155
-0.051650 -0.036179 0.291108
-0.050230 -0.036159 0.290824
-0.048825 -0.036149 0.290624
-0.047472 -0.036178 0.290740
-0.046152 -0.036235 0.291077
-0.044733 -0.036216 0.290805
-0.043398 -0.036265 0.291090
-0.042058 -0.036314 0.291368
-0.040372 -0.036056 0.289190
-0.038737 -0.035829 0.287257
-0.036942 -0.035430 0.283956
-0.035606 -0.035457 0.284076
-0.034487 -0.035713 0.286026
-0.032705 -0.035275 0.282417
-0.031373 -0.035305 0.282564
-0.027395 -0.032224 0.257829
-0.026148 -0.032217 0.257690
-0.024943 -0.032263 0.257983
-0.023731 -0.032305 0.258239
-0.022492 -0.032313 0.258234
-0.021293 -0.032382 0.258716
-0.020099 -0.032470 0.259350
-0.019161 -0.033008 0.263584
-0.017962 -0.033143 0.264598
-0.017015 -0.033799 0.269772
-0.015434 -0.033200 0.264939
-0.014294 -0.033525 0.267481
-0.013132 -0.033861 0.270107
-0.011980 -0.034300 0.273566
-0.010282 -0.033089 0.263864
-0.008998 -0.033055 0.263557
-0.007676 -0.032852 0.261897
-0.006443 -0.033021 0.263217
-0.005168 -0.033010 0.263098
-0.003912 -0.033146 0.264163
-0.002640 -0.033223 0.264755
-0.001367 -0.033419 0.266296
-0.000079 -0.033472 0.266706
0.001220 -0.033706 0.268558
0.002527 -0.033793 0.269249
0.003831 -0.033809 0.269373
0.005167 -0.034022 0.271067
0.006479 -0.034018 0.271040
0.007354 -0.032113 0.255875
0.008691 -0.032481 0.258816
0.009921 -0.032407 0.258242
0.011157 -0.032365 0.257927
0.012433 -0.032437 0.258521
0.013654 -0.032366 0.257981
0.014940 -0.032447 0.258652
0.016178 -0.032421 0.258477
0.017404 -0.032374 0.258137
0.018650 -0.032369 0.258136
0.020037 -0.032594 0.259971
0.021469 -0.032861 0.262141
0.023144 -0.033449 0.266881
0.024419 -0.033428 0.266770
0.025075 -0.032603 0.260239
0.026378 -0.032660 0.260747
0.027522 -0.032523 0.259709
0.028761 -0.032504 0.259625
0.029931 -0.032413 0.258958
0.031208 -0.032440 0.259241
0.032512 -0.032491 0.259719
0.033750 -0.032476 0.259668
0.034993 -0.032466 0.259663
0.036191 -0.032417 0.259346
0.037466 -0.032438 0.259589
0.038919 -0.032606 0.261010
0.040193 -0.032618 0.261192
0.041433 -0.032603 0.261155
0.042810 -0.032694 0.261966
0.044191 -0.032782 0.262757
0.045436 -0.032768 0.262729
0.046332 -0.032509 0.260742
0.047724 -0.032602 0.261578
0.049161 -0.032721 0.262623
0.050174 -0.032558 0.261412
0.051650 -0.032697 0.262614
0.053035 -0.032773 0.263317
0.054291 -0.032767 0.263367
0.055621 -0.032805 0.263767
0.057089 -0.032921 0.264799
0.058781 -0.033159 0.266804
0.060635 -0.033475 0.269446
0.061865 -0.033441 0.269269
0.063315 -0.033525 0.270045
0.064810 -0.033629 0.270977
0.066091 -0.033620 0.271002
0.067373 -0.033612 0.271030
0.068745 -0.033648 0.271417
0.070022 -0.033637 0.271425
0.071122 -0.033544 0.270761
0.072078 -0.033386 0.269580
0.073102 -0.033265 0.268696
0.074193 -0.033179 0.268085
0.075293 -0.033099 0.267523
0.076315 -0.032988 0.266711
0.076998 -0.032737 0.264761
0.078566 -0.032864 0.265867
0.079766 -0.032835 0.265715
0.080672 -0.032688 0.264599
0.082401 -0.032874 0.266178
0.083881 -0.032957 0.266916
0.084940 -0.032874 0.266313
0.086356 -0.032929 0.266827
0.088378 -0.033211 0.269174
0.097095 -0.035965 0.291555
0.098327 -0.035908 0.291149
0.100158 -0.036067 0.292501
0.101169 -0.035932 0.291450
0.102501 -0.035912 0.291337
0.103964 -0.035938 0.291590
0.105016 -0.035823 0.290697
0.106352 -0.035807 0.290600
0.107728 -0.035805 0.290608
0.109495 -0.035930 0.291653
0.110939 -0.035949 0.291818
0.112165 -0.035896 0.291404
0.113868 -0.035996 0.292222
0.115241 -0.035990 0.292177
0.116527 -0.035958 0.291910
0.117931 -0.035963 0.291932
0.119107 -0.035898 0.291389
0.120473 -0.035892 0.291313
0.121765 -0.035864 0.291053
0.123018 -0.035825 0.290698
0.124447 -0.035838 0.290754
0.125964 -0.035876 0.291004
0.127538 -0.035928 0.291367
0.128737 -0.035876 0.290868
0.130145 -0.035882 0.290835
0.131581 -0.035895 0.290854
0.132930 -0.035885 0.290670
0.134362 -0.035897 0.290660
0.135851 -0.035924 0.290760
0.137156 -0.035902 0.290454
0.139004 -0.036021 0.291280
0.140713 -0.036102 0.291787
0.142092 -0.036098 0.291592
0.143522 -0.036107 0.291490
0.144896 -0.036102 0.291263
0.146417 -0.036132 0.291314
0.147964 -0.036169 0.291401
0.149262 -0.036145 0.290983
0.150728 -0.036162 0.290881
0.152087 -0.036152 0.290557
-0.124646 -0.027827 0.234596
-0.124340 -0.028008 0.236305
-0.123602 -0.028093 0.237204
-0.122490 -0.028095 0.237383
-0.122163 -0.028278 0.239089
-0.121479 -0.028381 0.240111
-0.120507 -0.028418 0.240564
-0.119922 -0.028548 0.241796
-0.119457 -0.028710 0.243285
-0.118823 -0.028833 0.244447
-0.120185 -0.029448 0.249768
-0.119614 -0.029598 0.251132
-0.118984 -0.029735 0.252386
-0.117979 -0.029780 0.252853
-0.126651 -0.032626 0.277168
-0.138423 -0.036792 0.312751
-0.137796 -0.037017 0.314714
-0.124491 -0.034175 0.290614
-0.122843 -0.034096 0.289963
-0.121543 -0.034113 0.290117
-0.120357 -0.034162 0.290547
-0.119002 -0.034165 0.290567
-0.117766 -0.034201 0.290873
-0.116529 -0.034239 0.291177
-0.115170 -0.034241 0.291177
-0.113782 -0.034234 0.291096
-0.112469 -0.034251 0.291204
-0.111181 -0.034275 0.291375
-0.109532 -0.034188 0.290589
-0.108281 -0.034224 0.290848
-0.106822 -0.034194 0.290542
-0.105471 -0.034198 0.290526
-0.104241 -0.034243 0.290843
-0.103109 -0.034321 0.291442
-0.101632 -0.034285 0.291067
-0.100284 -0.034293 0.291055
-0.099020 -0.034329 0.291286
-0.097753 -0.034366 0.291516
-0.096432 -0.034384 0.291586
-0.094136 -0.034050 0.288667
-0.097970 -0.035957 0.304734
-0.097887 -0.036461 0.308902
-0.095847 -0.036241 0.306930
-0.094121 -0.036134 0.305921
-0.092569 -0.036092 0.305454
-0.090168 -0.035712 0.302128
-0.086443 -0.034787 0.294194
-0.084547 -0.034581 0.292333
-0.085100 -0.035385 0.299018
-0.083177 -0.035170 0.297084
-0.081854 -0.035206 0.297264
-0.080428 -0.035198 0.297074
-0.078976 -0.035178 0.296784
-0.077779 -0.035273 0.297460
-0.076464 -0.035317 0.297702
-0.075056 -0.035319 0.297591
-0.073678 -0.035336 0.297601
-0.072392 -0.035398 0.297997
-0.071081 -0.035450 0.298307
-0.067467 -0.034333 0.288776
-0.066408 -0.034496 0.290018
-0.065110 -0.034540 0.290257
-0.063851 -0.034606 0.290686
-0.062498 -0.034624 0.290704
-0.061169 -0.034656 0.290844
-0.059874 -0.034709 0.291161
-0.058512 -0.034724 0.291163
-0.057156 -0.034745 0.291208
-0.055759 -0.034741 0.291045
-0.054401 -0.034761 0.291091
-0.053042 -0.034783 0.291146
-0.051639 -0.034775 0.290959
-0.050225 -0.034760 0.290706
-0.048820 -0.034751 0.290507
-0.047466 -0.034778 0.290614
-0.046137 -0.034826 0.290894
-0.044753 -0.034834 0.290843
-0.043383 -0.034853 0.290892
-0.042013 -0.034875 0.290956
-0.039837 -0.034205 0.285264
-0.039073 -0.034744 0.289646
-0.037058 -0.034169 0.284747
-0.035703 -0.034182 0.284756
-0.034492 -0.034340 0.285967
-0.032913 -0.034128 0.284108
-0.028611 -0.030954 0.257595
-0.027418 -0.031007 0.257953
-0.026186 -0.031018 0.257970
-0.024993 -0.031080 0.258404
-0.023785 -0.031129 0.258731
-0.022526 -0.031113 0.258529
-0.021361 -0.031232 0.259446
-0.020184 -0.031347 0.260335
-0.019154 -0.031723 0.263390
-0.017956 -0.031851 0.264395
-0.017032 -0.032525 0.269928
-0.015496 -0.032044 0.265879
-0.014487 -0.032664 0.270973
-0.013352 -0.033098 0.274518
-0.011993 -0.033008 0.273725
-0.010658 -0.032972 0.273381
-0.009335 -0.032967 0.273303
-0.007985 -0.032851 0.272300
-0.006638 -0.032704 0.271047
-0.005322 -0.032676 0.270786
-0.004009 -0.032647 0.270526
-0.002683 -0.032450 0.268871
-0.001386 -0.032533 0.269541
-0.000081 -0.032476 0.269052
