ply
format ascii 1.0
element vertex 1680
property float x
property float y
property float z
end_header
-0.091783 -0.073457 0.278366
-0.090602 -0.073561 0.278747
-0.089546 -0.073772 0.279527
-0.088381 -0.073896 0.279978
-0.087917 -0.074620 0.282698
-0.087732 -0.075607 0.286408
-0.087642 -0.076707 0.290544
-0.086346 -0.076770 0.290749
-0.085214 -0.076984 0.291519
-0.083958 -0.077091 0.291884
-0.082679 -0.077179 0.292176
-0.081266 -0.077144 0.291994
-0.079903 -0.077156 0.291993
-0.078932 -0.077554 0.293445
-0.080478 -0.080483 0.304472
-0.078933 -0.080370 0.303989
-0.077553 -0.080425 0.304136
-0.076651 -0.080988 0.306203
-0.074800 -0.080549 0.304479
-0.073800 -0.081028 0.306225
-0.068444 -0.078212 0.295449
-0.065951 -0.076930 0.290543
-0.064687 -0.077059 0.290962
-0.063371 -0.077131 0.291164
-0.062103 -0.077265 0.291603
-0.060775 -0.077329 0.291773
-0.059377 -0.077305 0.291611
-0.058112 -0.077458 0.292118
-0.056726 -0.077452 0.292023
-0.055211 -0.077266 0.291252
-0.053808 -0.077230 0.291045
-0.052442 -0.077249 0.291045
-0.051096 -0.077299 0.291160
-0.049737 -0.077330 0.291207
-0.048359 -0.077334 0.291151
-0.046986 -0.077347 0.291127
-0.045617 -0.077365 0.291127
-0.044233 -0.077360 0.291038
-0.042819 -0.077301 0.290747
-0.041249 -0.076945 0.289342
-0.039645 -0.076502 0.287608
-0.038965 -0.077873 0.292696
-0.037413 -0.077537 0.291370
-0.035895 -0.077249 0.290223
-0.034526 -0.077274 0.290253
-0.032614 -0.076032 0.285529
-0.031277 -0.076084 0.285665
-0.028258 -0.071860 0.269750
-0.027337 -0.072826 0.273321
-0.025788 -0.072132 0.270668
-0.024455 -0.072001 0.270126
-0.023104 -0.071800 0.269322
-0.021725 -0.071480 0.268078
-0.020662 -0.072230 0.270845
-0.019427 -0.072435 0.271569
-0.018088 -0.072255 0.270854
-0.016899 -0.072693 0.272453
-0.015594 -0.072663 0.272304
-0.014334 -0.072859 0.273004
-0.013005 -0.072705 0.272393
-0.011731 -0.072864 0.272954
-0.010411 -0.072739 0.272456
-0.009099 -0.072641 0.272065
-0.007782 -0.072471 0.271400
-0.006457 -0.072137 0.270127
-0.005144 -0.071798 0.268837
-0.003859 -0.071777 0.268740
-0.002580 -0.071870 0.269071
-0.001297 -0.071960 0.269391
-0.000010 -0.072031 0.269645
0.001281 -0.072262 0.270501
0.002567 -0.072094 0.269863
0.003878 -0.072504 0.271393
0.005147 -0.072116 0.269934
0.006436 -0.072112 0.269918
0.007669 -0.071587 0.267953
0.008745 -0.069960 0.261866
0.009995 -0.069948 0.261827
0.011245 -0.069943 0.261813
0.012459 -0.069737 0.261054
0.013692 -0.069665 0.260791
0.014949 -0.069715 0.260993
0.016266 -0.070019 0.262143
0.017526 -0.070048 0.262270
0.018825 -0.070221 0.262936
0.020135 -0.070411 0.263669
0.021531 -0.070860 0.265369
0.023025 -0.071561 0.268022
0.024093 -0.070938 0.265711
0.025172 -0.070407 0.263750
0.026442 -0.070435 0.263883
0.027526 -0.069985 0.262226
0.028551 -0.069433 0.260189
0.029697 -0.069209 0.259382
0.030872 -0.069066 0.258880
0.032174 -0.069209 0.259449
0.033482 -0.069354 0.260026
0.034801 -0.069508 0.260644
0.036162 -0.069734 0.261528
0.037763 -0.070392 0.264034
0.039203 -0.070716 0.265291
0.040715 -0.071148 0.266951
0.042322 -0.071712 0.269110
0.043513 -0.071560 0.268581
0.044726 -0.071452 0.268221
0.045965 -0.071390 0.268028
0.045171 -0.068259 0.256315
0.046192 -0.067964 0.255248
0.047404 -0.067957 0.255264
0.048666 -0.068020 0.255544
0.049832 -0.067949 0.255317
0.051037 -0.067933 0.255301
0.052330 -0.068033 0.255719
0.053676 -0.068196 0.256371
0.055000 -0.068323 0.256890
0.056433 -0.068578 0.257886
0.058534 -0.069617 0.261832
0.061050 -0.071094 0.267430
0.062798 -0.071636 0.269507
0.064218 -0.071789 0.270119
0.065605 -0.071900 0.270572
0.067202 -0.072232 0.271860
0.068862 -0.072618 0.273345
0.070190 -0.072647 0.273485
0.071627 -0.072784 0.274034
0.072945 -0.072799 0.274117
0.073893 -0.072450 0.272830
0.074772 -0.072046 0.271333
0.075709 -0.071711 0.270094
0.076416 -0.071173 0.268084
0.076050 -0.069670 0.262438
0.076613 -0.069052 0.260123
0.077895 -0.069092 0.260285
0.078948 -0.068930 0.259682
0.080211 -0.068954 0.259777
0.082153 -0.069553 0.262033
0.083662 -0.069771 0.262855
0.085445 -0.070209 0.264496
0.086724 -0.070226 0.264550
0.088590 -0.070711 0.266363
0.099441 -0.078252 0.294750
0.100713 -0.078151 0.294345
0.101175 -0.077432 0.291608
0.102980 -0.077748 0.292761
0.104392 -0.077761 0.292772
0.105740 -0.077727 0.292600
0.107087 -0.077694 0.292421
0.108550 -0.077744 0.292551
0.109973 -0.077765 0.292568
0.111442 -0.077817 0.292693
0.112673 -0.077704 0.292192
0.114176 -0.077778 0.292387
0.115756 -0.077903 0.292767
0.117457 -0.078105 0.293428
0.118772 -0.078049 0.293111
0.120027 -0.077955 0.292643
0.121652 -0.078101 0.293069
0.123226 -0.078211 0.293350
0.124684 -0.078246 0.293341
0.126007 -0.078196 0.293005
0.127679 -0.078361 0.293467
0.129143 -0.078397 0.293432
0.130731 -0.078505 0.293660
0.132058 -0.078457 0.293291
0.133486 -0.078469 0.293138
0.134961 -0.078509 0.293073
0.136412 -0.078533 0.292942
0.137911 -0.078584 0.292898
0.139245 -0.078541 0.292493
0.140724 -0.078580 0.292377
0.142227 -0.078631 0.292297
0.144207 -0.078943 0.293167
0.145912 -0.079099 0.293446
0.147440 -0.079157 0.293345
0.149150 -0.079311 0.293582
0.150596 -0.079322 0.293276
0.152083 -0.079355 0.293033
0.153498 -0.079350 0.292634
0.154898 -0.079337 0.292188
-0.121835 -0.059931 0.226761
-0.121032 -0.060070 0.227571
-0.120100 -0.060147 0.228135
-0.119073 -0.060178 0.228511
-0.118255 -0.060315 0.229282
-0.117342 -0.060407 0.229867
-0.116390 -0.060480 0.230373
-0.115514 -0.060594 0.231024
-0.114654 -0.060719 0.231706
-0.113763 -0.060830 0.232325
-0.112920 -0.060969 0.233043
-0.112079 -0.061112 0.233768
-0.111389 -0.061341 0.234813
-0.110695 -0.061573 0.235860
-0.109991 -0.061803 0.236896
-0.109173 -0.061974 0.237695
-0.108273 -0.062102 0.238320
-0.107490 -0.062300 0.239208
-0.106678 -0.062485 0.240039
-0.105746 -0.062603 0.240607
-0.105073 -0.062879 0.241771
-0.104370 -0.063143 0.242886
-0.103380 -0.063236 0.243339
-0.102899 -0.063648 0.245007
-0.102303 -0.063996 0.246429
-0.102460 -0.064829 0.249711
-0.101238 -0.064799 0.249663
-0.100256 -0.064923 0.250203
-0.099678 -0.065316 0.251771
-0.098822 -0.065533 0.252660
-0.097924 -0.065727 0.253452
-0.096938 -0.065867 0.254031
-0.096330 -0.066270 0.255620
-0.095484 -0.066517 0.256603
-0.096139 -0.067831 0.261693
-0.095947 -0.068573 0.264575
-0.095173 -0.068912 0.265900
-0.094227 -0.069135 0.266770
-0.093472 -0.069506 0.268208
-0.093791 -0.070697 0.272803
-0.093863 -0.071732 0.276793
-0.093397 -0.072379 0.279282
-0.092061 -0.072361 0.279201
-0.090776 -0.072382 0.279269
-0.089639 -0.072525 0.279800
-0.088470 -0.072645 0.280241
-0.087684 -0.073089 0.281925
-0.088009 -0.074487 0.287286
-0.087339 -0.075072 0.289510
-0.086386 -0.075430 0.290850
-0.085266 -0.075651 0.291661
-0.083888 -0.075647 0.291601
-0.082619 -0.075742 0.291921
-0.081166 -0.075669 0.291591
-0.079791 -0.075668 0.291534
-0.078627 -0.075869 0.292257
-0.080546 -0.079106 0.304668
-0.079209 -0.079206 0.304992
-0.077855 -0.079292 0.305257
-0.076649 -0.079534 0.306126
-0.074969 -0.079285 0.305100
-0.073928 -0.079714 0.306683
-0.072567 -0.079810 0.306982
-0.068536 -0.076913 0.295769
-0.066030 -0.075642 0.290812
-0.064670 -0.075659 0.290806
-0.063322 -0.075689 0.290853
-0.062079 -0.075850 0.291400
-0.060715 -0.075868 0.291396
-0.059319 -0.075844 0.291233
-0.058004 -0.075927 0.291477
-0.056627 -0.075930 0.291416
-0.055235 -0.075913 0.291277
-0.053862 -0.075922 0.291236
-0.052489 -0.075931 0.291197
-0.051132 -0.075965 0.291254
-0.049792 -0.076027 0.291419
-0.048419 -0.076041 0.291397
-0.046998 -0.075977 0.291082
-0.045599 -0.075947 0.290892
-0.044185 -0.075890 0.290603
-0.042846 -0.075961 0.290808
-0.041295 -0.075649 0.289542
-0.039775 -0.075374 0.288423
-0.039413 -0.077352 0.295923
-0.037363 -0.076042 0.290843
-0.035965 -0.076009 0.290652
-0.034462 -0.075743 0.289571
-0.032586 -0.074602 0.285144
-0.029872 -0.071360 0.272697
-0.029170 -0.072845 0.278316
-0.027073 -0.070826 0.270547
-0.025605 -0.070331 0.268604
-0.024204 -0.069979 0.267209
-0.022907 -0.069904 0.266874
-0.021705 -0.070129 0.267683
-0.020460 -0.070234 0.268040
-0.019316 -0.070722 0.269859
-0.018043 -0.070774 0.270015
-0.016939 -0.071552 0.272942
-0.015608 -0.071417 0.272389
-0.014339 -0.071568 0.272927
-0.013060 -0.071694 0.273373
-0.011750 -0.071656 0.273195
-0.010442 -0.071628 0.273061
-0.009140 -0.071640 0.273076
-0.007802 -0.071323 0.271842
-0.006487 -0.071134 0.271097
-0.005177 -0.070930 0.270298
-0.003872 -0.070662 0.269260
-0.002600 -0.071069 0.270790
-0.001306 -0.071001 0.270520
-0.000013 -0.071007 0.270528
0.001278 -0.070935 0.270243
0.002561 -0.070727 0.269443
0.003851 -0.070764 0.269580
0.005124 -0.070561 0.268801
0.006398 -0.070445 0.268356
0.007621 -0.069893 0.266257
0.008815 -0.069277 0.263911
0.010040 -0.069028 0.262967
0.011241 -0.068687 0.261676
0.012467 -0.068549 0.261159
0.013698 -0.068463 0.260843
0.014963 -0.068546 0.261175
0.016281 -0.068845 0.262327
0.017553 -0.068914 0.262609
0.018813 -0.068932 0.262696
0.020192 -0.069356 0.264330
0.021614 -0.069871 0.266317
0.022986 -0.070173 0.267494
0.024318 -0.070329 0.268115
0.025285 -0.069467 0.264857
0.026502 -0.069339 0.264396
0.027647 -0.069045 0.263308
0.028608 -0.068334 0.260630
0.029666 -0.067908 0.259035
0.030780 -0.067637 0.258038
0.032165 -0.067959 0.259300
0.033468 -0.068091 0.259840
0.034785 -0.068239 0.260446
0.036193 -0.068552 0.261677
0.037782 -0.069174 0.264094
0.039135 -0.069338 0.264761
0.040540 -0.069581 0.265731
0.041969 -0.069848 0.266796
0.043380 -0.070071 0.267692
0.044517 -0.069852 0.266898
0.045354 -0.069186 0.264398
0.045511 -0.067547 0.258179
0.046510 -0.067212 0.256944
0.047849 -0.067372 0.257599
0.048956 -0.067205 0.257005
0.050024 -0.066995 0.256244
0.051195 -0.066929 0.256037
0.052610 -0.067178 0.257032
0.053942 -0.067312 0.257589
0.054903 -0.066987 0.256386
0.056807 -0.067802 0.259547
0.058461 -0.068289 0.261454
0.060943 -0.069704 0.266915
0.062473 -0.069994 0.268066
0.063927 -0.070190 0.268855
0.065588 -0.070600 0.270463
0.067240 -0.070984 0.271975
0.068764 -0.071222 0.272923
0.070222 -0.071383 0.273575
0.071606 -0.071465 0.273923
0.072800 -0.071358 0.273543
0.073840 -0.071107 0.272609
0.074621 -0.070618 0.270761
0.075874 -0.070585 0.270659
0.076406 -0.069895 0.268034
0.076208 -0.068569 0.262967
0.076390 -0.067623 0.259357
0.077664 -0.067658 0.259503
0.078591 -0.067395 0.258504
0.079530 -0.067148 0.257567
0.081587 -0.067841 0.260227
0.082845 -0.067857 0.260288
0.084445 -0.068149 0.261407
0.086002 -0.068398 0.262355
0.088196 -0.069140 0.265188
0.099138 -0.076622 0.293870
0.100406 -0.076522 0.293466
0.101661 -0.076416 0.293034
0.102850 -0.076263 0.292417
0.104300 -0.076306 0.292543
0.105764 -0.076358 0.292700
0.107020 -0.076259 0.292276
0.108439 -0.076278 0.292295
0.109833 -0.076280 0.292241
0.111210 -0.076269 0.292133
0.112528 -0.076219 0.291869
0.113982 -0.076261 0.291949
0.115380 -0.076264 0.291878
0.117154 -0.076513 0.292737
0.118741 -0.076636 0.293105
0.120104 -0.076613 0.292907
0.121473 -0.076594 0.292716
0.123075 -0.076721 0.293075
0.124522 -0.076749 0.293047
0.126279 -0.076966 0.293731
0.127653 -0.076947 0.293506
0.129131 -0.076990 0.293506
0.130662 -0.077064 0.293613
0.132018 -0.077034 0.293316
0.133447 -0.077047 0.293170
0.134994 -0.077126 0.293267
0.136443 -0.077149 0.293138
0.137798 -0.077118 0.292793
0.139353 -0.077199 0.292860
0.140606 -0.077113 0.292278
0.142369 -0.077305 0.292739
0.144358 -0.077615 0.293632
0.145996 -0.077732 0.293778
0.147531 -0.077792 0.293696
0.149145 -0.077893 0.293750
0.150570 -0.077893 0.293409
0.152113 -0.077954 0.293281
0.153509 -0.077939 0.292852
0.154904 -0.077924 0.292404
-0.121939 -0.058889 0.227095
-0.121043 -0.058981 0.227728
-0.120216 -0.059108 0.228486
-0.119191 -0.059139 0.228862
-0.118295 -0.059236 0.229482
-0.117439 -0.059355 0.230174
-0.116605 -0.059487 0.230910
-0.115706 -0.059589 0.231516
-0.114895 -0.059738 0.232299
-0.114132 -0.059915 0.233180
-0.113203 -0.060008 0.233724
-0.112439 -0.060191 0.234612
-0.111931 -0.060516 0.236045
-0.111092 -0.060668 0.236792
-0.110250 -0.060820 0.237535
-0.109514 -0.061035 0.238514
-0.108826 -0.061281 0.239610
-0.108015 -0.061463 0.240446
-0.107130 -0.061606 0.241123
-0.106376 -0.061828 0.242103
-0.105551 -0.062014 0.242932
-0.104729 -0.062205 0.243777
-0.103882 -0.062386 0.244575
-0.102890 -0.062482 0.245035
-0.102498 -0.062949 0.246945
-0.101877 -0.063285 0.248333
-0.101891 -0.064028 0.251312
-0.100452 -0.063865 0.250730
-0.099748 -0.064170 0.251981
-0.099119 -0.064532 0.253448
-0.097796 -0.064445 0.253148
-0.096731 -0.064528 0.253513
-0.096641 -0.065272 0.256467
-0.097301 -0.066548 0.261504
-0.097241 -0.067358 0.264708
-0.096313 -0.067579 0.265594
-0.095436 -0.067843 0.266645
-0.094452 -0.068037 0.267413
-0.093936 -0.068577 0.269540
-0.093926 -0.069508 0.273193
-0.093966 -0.070501 0.277091
-0.092924 -0.070699 0.277859
-0.091798 -0.070838 0.278391
-0.090730 -0.071027 0.279114
-0.089614 -0.071183 0.279703
-0.088487 -0.071335 0.280275
-0.087506 -0.071611 0.281329
-0.086986 -0.072278 0.283917
-0.087286 -0.073658 0.289301
-0.085688 -0.073456 0.288465
-0.084933 -0.073981 0.290483
-0.083999 -0.074365 0.291945
-0.082620 -0.074361 0.291878
-0.081352 -0.074459 0.292212
-0.080139 -0.074611 0.292752
-0.078563 -0.074425 0.291966
-0.080463 -0.077584 0.304298
-0.079130 -0.077683 0.304622
-0.078177 -0.078167 0.306452
-0.076833 -0.078270 0.306789
-0.075165 -0.078042 0.305825
-0.074246 -0.078597 0.307929
-0.072881 -0.078693 0.308230
-0.067255 -0.074098 0.290162
-0.066009 -0.074238 0.290642
-0.064734 -0.074351 0.291010
-0.063370 -0.074365 0.290991
-0.062033 -0.074410 0.291096
-0.060698 -0.074462 0.291221
-0.059296 -0.074431 0.291026
-0.057940 -0.074459 0.291062
-0.056592 -0.074497 0.291134
-0.055232 -0.074523 0.291160
-0.053933 -0.074634 0.291515
-0.052591 -0.074690 0.291660
-0.051237 -0.074731 0.291744
-0.049856 -0.074734 0.291681
-0.048492 -0.074765 0.291723
-0.047058 -0.074685 0.291339
-0.045589 -0.074543 0.290709
-0.044220 -0.074561 0.290709
-0.042865 -0.074606 0.290810
-0.041439 -0.074525 0.290423
-0.039675 -0.073810 0.287569
-0.039630 -0.076358 0.297422
-0.038247 -0.076418 0.297588
-0.036001 -0.074693 0.290804
-0.034438 -0.074307 0.289234
-0.032679 -0.073446 0.285820
-0.030653 -0.071886 0.279687
-0.029217 -0.071628 0.278627
-0.027883 -0.071609 0.278496
-0.026482 -0.071409 0.277661
-0.024969 -0.070869 0.275509
-0.023740 -0.071118 0.276426
-0.022435 -0.071159 0.276535
-0.021052 -0.070939 0.275634
-0.019708 -0.070832 0.275172
-0.018376 -0.070758 0.274841
-0.017039 -0.070649 0.274376
-0.015814 -0.071028 0.275808
-0.014463 -0.070857 0.275103
-0.013206 -0.071156 0.276229
-0.011883 -0.071135 0.276114
-0.010568 -0.071155 0.276162
-0.006554 -0.070534 0.273669
-0.005248 -0.070546 0.273694
-0.003927 -0.070312 0.272767
-0.002620 -0.070222 0.272401
-0.001320 -0.070319 0.272764
-0.000017 -0.070337 0.272821
0.001284 -0.070178 0.272192
0.002573 -0.069844 0.270890
0.003856 -0.069616 0.270001
0.005129 -0.069376 0.269066
0.006400 -0.069207 0.268409
0.007612 -0.068568 0.265932
0.008848 -0.068296 0.264878
0.010059 -0.067917 0.263415
0.011246 -0.067485 0.261746
0.012478 -0.067377 0.261336
0.013703 -0.067260 0.260894
0.015034 -0.067633 0.262356
0.016328 -0.067799 0.263016
0.017630 -0.067967 0.263686
0.019040 -0.068503 0.265786
0.020379 -0.068736 0.266713
0.021662 -0.068760 0.266830
0.023019 -0.069004 0.267801
0.024351 -0.069151 0.268399
0.025415 -0.068561 0.266139
0.026445 -0.067937 0.263748
0.027765 -0.068083 0.264346
0.028678 -0.067261 0.261187
0.029616 -0.066565 0.258518
0.030788 -0.066428 0.258023
0.032049 -0.066487 0.258287
0.033479 -0.066879 0.259851
0.034779 -0.066992 0.260327
0.036145 -0.067221 0.261259
0.037738 -0.067841 0.263713
0.039130 -0.068071 0.264649
0.040424 -0.068124 0.264897
0.041826 -0.068348 0.265813
0.043297 -0.068669 0.267107
0.044545 -0.068628 0.266995
0.045185 -0.067678 0.263347
0.045646 -0.066518 0.258879
0.046579 -0.066090 0.257259
0.047700 -0.065944 0.256735
0.048877 -0.065879 0.256530
0.050054 -0.065819 0.256339
0.051176 -0.065690 0.255883
0.052353 -0.065636 0.255718
0.053886 -0.066022 0.257266
0.055012 -0.065902 0.256844
0.056543 -0.066262 0.258291
0.058589 -0.067196 0.261979
0.060847 -0.068331 0.266446
0.062467 -0.068717 0.267996
0.063914 -0.068901 0.268755
0.065568 -0.069297 0.270340
0.067083 -0.069532 0.271300
0.068473 -0.069633 0.271729
0.069892 -0.069758 0.272255
0.071117 -0.069689 0.272022
0.072143 -0.069430 0.271043
0.073136 -0.069149 0.269980
0.073982 -0.068742 0.268419
0.074912 -0.068424 0.267205
0.075918 -0.068186 0.266301
0.076376 -0.067471 0.263531
0.076779 -0.066733 0.260663
0.078006 -0.066721 0.260634
0.078832 -0.066373 0.259286
0.079535 -0.065933 0.257578
0.081128 -0.066233 0.258758
0.082226 -0.066126 0.258344
0.083456 -0.066128 0.258349
0.084957 -0.066339 0.259172
0.086412 -0.066511 0.259834
0.088214 -0.066940 0.261501
0.099538 -0.074482 0.290946
0.101047 -0.074574 0.291283
0.102838 -0.074869 0.292407
0.104366 -0.074967 0.292756
0.105652 -0.074890 0.292419
0.106927 -0.074809 0.292056
0.108395 -0.074862 0.292214
0.109837 -0.074896 0.292293
0.111252 -0.074912 0.292290
0.112547 -0.074846 0.291967
0.113870 -0.074801 0.291716
0.115340 -0.074852 0.291834
0.116793 -0.074892 0.291896
0.118405 -0.075031 0.292341
0.120178 -0.075267 0.293157
0.121800 -0.075404 0.293579
0.123554 -0.075620 0.294296
0.124801 -0.075523 0.293788
0.126397 -0.075638 0.294094
0.127830 -0.075653 0.294006
0.129203 -0.075633 0.293768
0.130730 -0.075703 0.293869
0.131952 -0.075596 0.293277
0.133412 -0.075626 0.293206
0.134896 -0.075670 0.293173
0.136509 -0.075783 0.293403
0.138019 -0.075838 0.293390
0.139491 -0.075871 0.293283
0.140782 -0.075806 0.292783
0.142330 -0.075879 0.292804
0.144206 -0.076124 0.293476
0.145804 -0.076219 0.293551
0.147265 -0.076241 0.293331
0.148929 -0.076366 0.293494
0.150479 -0.076431 0.293410
0.151911 -0.076436 0.293078
0.153279 -0.076408 0.292604
0.154757 -0.076436 0.292325
-0.122126 -0.057885 0.227578
-0.121318 -0.058017 0.228376
-0.120409 -0.058104 0.228980
-0.119391 -0.058139 0.229370
-0.118558 -0.058266 0.230110
-0.117706 -0.058386 0.230811
-0.116864 -0.058513 0.231532
-0.116040 -0.058652 0.232290
-0.115302 -0.058837 0.233222
-0.114509 -0.058997 0.234047
-0.113696 -0.059151 0.234835
-0.112952 -0.059344 0.235772
-0.112355 -0.059618 0.237024
-0.111649 -0.059840 0.238062
-0.110785 -0.059981 0.238767
-0.110152 -0.060251 0.239978
-0.109236 -0.060370 0.240584
-0.108489 -0.060587 0.241568
-0.107799 -0.060840 0.242692
-0.106891 -0.060974 0.243335
-0.106132 -0.061197 0.244326
-0.105320 -0.061395 0.245207
-0.104379 -0.061520 0.245795
-0.103651 -0.061776 0.246895
-0.103093 -0.062140 0.248423
-0.103075 -0.062841 0.251295
-0.102372 -0.063136 0.252536
-0.101213 -0.063154 0.252663
-0.100458 -0.063427 0.253804
-0.099480 -0.063564 0.254399
-0.098328 -0.063592 0.254550
-0.099297 -0.065010 0.260260
-0.099376 -0.065873 0.263741
-0.098343 -0.066011 0.264319
-0.097302 -0.066148 0.264886
-0.096501 -0.066454 0.266123
-0.095626 -0.066716 0.267179
-0.094761 -0.066992 0.268290
-0.093886 -0.067268 0.269395
-0.093292 -0.067756 0.271345
-0.093583 -0.068910 0.275955
-0.092802 -0.069295 0.277483
-0.091695 -0.069445 0.278065
-0.090764 -0.069734 0.279202
-0.089687 -0.069918 0.279911
-0.088540 -0.070051 0.280417
-0.087567 -0.070329 0.281497
-0.086697 -0.070700 0.282945
-0.086331 -0.071500 0.286103
-0.086095 -0.072434 0.289799
-0.084833 -0.072521 0.290100
-0.083569 -0.072610 0.290407
-0.082441 -0.072821 0.291199
-0.081184 -0.072925 0.291558
-0.079934 -0.073038 0.291952
-0.078833 -0.073293 0.292913
-0.080701 -0.076368 0.305137
-0.079365 -0.076466 0.305462
-0.078056 -0.076596 0.305912
-0.076587 -0.076570 0.305737
-0.075205 -0.076632 0.305913
-0.074033 -0.076915 0.306969
-0.072673 -0.077010 0.307270
-0.068700 -0.074283 0.296317
-0.066013 -0.072862 0.290575
-0.064753 -0.072991 0.291013
-0.063350 -0.072959 0.290811
-0.062091 -0.073095 0.291277
-0.060781 -0.073177 0.291527
-0.059333 -0.073094 0.291116
-0.057985 -0.073132 0.291190
-0.056622 -0.073151 0.291188
-0.055239 -0.073147 0.291095
-0.053868 -0.073157 0.291057
-0.052502 -0.073176 0.291055
-0.051137 -0.073198 0.291064
-0.049795 -0.073254 0.291208
-0.048352 -0.073161 0.290764
-0.047028 -0.073248 0.291032
-0.045643 -0.073243 0.290937
-0.044095 -0.072967 0.289766
-0.042686 -0.072911 0.289469
-0.041200 -0.072716 0.288621
-0.039797 -0.072659 0.288322
-0.039309 -0.074327 0.294871
-0.037937 -0.074386 0.295036
-0.036039 -0.073381 0.290979
-0.034379 -0.072796 0.288593
-0.032938 -0.072648 0.287942
-0.031195 -0.071792 0.284487
-0.029541 -0.071073 0.281575
-0.028304 -0.071336 0.282557
-0.026678 -0.070596 0.279569
-0.025270 -0.070383 0.278671
-0.023830 -0.070056 0.277324
-0.022377 -0.069648 0.275660
-0.021049 -0.069604 0.275436
-0.019724 -0.069564 0.275232
-0.018338 -0.069292 0.274109
-0.017069 -0.069451 0.274695
-0.015612 -0.068807 0.272109
-0.014422 -0.069331 0.274143
-0.013229 -0.069946 0.276537
-0.011905 -0.069925 0.276422
-0.010052 -0.066406 0.262481
-0.008800 -0.066424 0.262521
-0.007748 -0.068205 0.269533
-0.006462 -0.068218 0.269563
-0.005174 -0.068231 0.269590
-0.003892 -0.068337 0.269990
-0.002627 -0.069029 0.272705
-0.001319 -0.068776 0.271692
-0.000020 -0.069142 0.273126
0.001284 -0.068985 0.272496
0.002576 -0.068711 0.271405
0.003858 -0.068420 0.270250
0.005120 -0.068007 0.268613
0.006377 -0.067717 0.267469
0.007614 -0.067343 0.265993
0.008836 -0.066959 0.264478
0.010079 -0.066810 0.263897
0.011310 -0.066626 0.263177
0.012514 -0.066332 0.262028
0.013788 -0.066432 0.262435
0.015057 -0.066493 0.262692
0.016339 -0.066598 0.263121
0.017676 -0.066895 0.264312
0.019001 -0.067106 0.265167
0.020404 -0.067553 0.266958
0.021681 -0.067552 0.266976
0.022964 -0.067571 0.267081
0.024246 -0.067584 0.267160
0.025401 -0.067258 0.265901
0.026619 -0.067123 0.265401
0.027765 -0.066829 0.264271
0.028813 -0.066333 0.262342
0.029881 -0.065922 0.260753
0.030960 -0.065567 0.259387
0.032238 -0.065644 0.259730
0.033593 -0.065867 0.260654
0.034904 -0.065991 0.261183
0.036259 -0.066186 0.261999
0.037618 -0.066376 0.262792
0.039016 -0.066620 0.263806
0.040369 -0.066773 0.264456
0.041812 -0.067062 0.265647
0.043107 -0.067103 0.265859
0.044414 -0.067161 0.266134
0.045267 -0.066547 0.263752
0.045962 -0.065741 0.260604
0.046870 -0.065274 0.258801
0.048132 -0.065311 0.258993
0.049208 -0.065100 0.258205
0.050342 -0.064974 0.257755
0.051528 -0.064919 0.257585
0.052798 -0.064971 0.257838
0.054107 -0.065066 0.258262
0.055458 -0.065207 0.258871
0.057200 -0.065792 0.261239
0.059025 -0.066445 0.263879
0.060949 -0.067179 0.266842
0.062313 -0.067279 0.267284
0.064108 -0.067832 0.269523
0.065739 -0.068192 0.271000
0.067153 -0.068318 0.271541
0.068518 -0.068389 0.271869
0.069859 -0.068435 0.272089
0.071056 -0.068340 0.271752
0.072365 -0.068355 0.271847
0.072913 -0.067663 0.269126
0.073671 -0.067186 0.267263
0.074673 -0.066944 0.266329
0.075363 -0.066435 0.264331
0.075854 -0.065770 0.261710
0.076369 -0.065148 0.259253
0.077594 -0.065140 0.259243
0.078454 -0.064832 0.258032
0.079311 -0.064530 0.256844
0.080695 -0.064660 0.257371
0.082028 -0.064747 0.257721
0.083443 -0.064894 0.258309
0.084808 -0.064998 0.258723
0.086395 -0.065267 0.259790
0.099497 -0.074104 0.294957
0.100766 -0.074006 0.294550
0.101153 -0.073271 0.291605
0.102648 -0.073348 0.291887
0.104170 -0.073442 0.292232
0.105729 -0.073558 0.292661
0.106892 -0.073400 0.291992
0.108222 -0.073359 0.291783
0.109721 -0.073432 0.292023
0.111078 -0.073410 0.291875
0.112440 -0.073391 0.291734
0.113780 -0.073358 0.291534
0.115269 -0.073422 0.291708
0.116700 -0.073447 0.291722
0.118337 -0.073599 0.292234
0.119890 -0.073697 0.292521
0.121274 -0.073689 0.292382
0.122694 -0.073703 0.292321
0.124834 -0.074145 0.293946
0.126275 -0.074166 0.293894
0.127849 -0.074264 0.294138
0.129156 -0.074206 0.293756
0.130515 -0.074179 0.293485
0.131984 -0.074214 0.293450
0.133367 -0.074201 0.293214
0.134928 -0.074286 0.293354
0.136337 -0.074286 0.293149
0.137724 -0.074275 0.292886
0.139081 -0.074248 0.292550
0.140563 -0.074287 0.292462
0.142211 -0.074412 0.292700
0.143810 -0.074510 0.292815
0.145479 -0.074641 0.293048
0.147196 -0.074794 0.293352
0.148895 -0.074935 0.293592
0.150377 -0.074966 0.293383
0.151604 -0.074869 0.292661
0.153086 -0.074899 0.292419
0.154685 -0.074986 0.292378
-0.122336 -0.056888 0.228101
-0.121452 -0.056983 0.228753
-0.120495 -0.057046 0.229264
-0.119667 -0.057172 0.230016
-0.118765 -0.057264 0.230624
-0.117942 -0.057397 0.231384
-0.117232 -0.057587 0.232367
-0.116393 -0.057718 0.233098
-0.115727 -0.057937 0.234178
-0.114877 -0.058068 0.234892
-0.114159 -0.058269 0.235882
-0.113369 -0.058436 0.236728
-0.112547 -0.058591 0.237512
-0.112111 -0.058951 0.239123
-0.111361 -0.059153 0.240083
-0.110526 -0.059312 0.240865
-0.109737 -0.059500 0.241755
-0.108891 -0.059661 0.242528
-0.108166 -0.059893 0.243580
-0.107212 -0.060001 0.244123
-0.106269 -0.060117 0.244695
-0.105624 -0.060407 0.245965
-0.104574 -0.060470 0.246302
-0.103595 -0.060575 0.246806
-0.102918 -0.060861 0.248041
-0.104799 -0.062683 0.255536
-0.104009 -0.062932 0.256610
-0.103249 -0.063206 0.257778
-0.102276 -0.063354 0.258428
-0.101488 -0.063621 0.259561
-0.100794 -0.063954 0.260957
-0.100534 -0.064575 0.263519
-0.099657 -0.064810 0.264504
-0.098938 -0.065155 0.265931
-0.098044 -0.065392 0.266916
-0.097007 -0.065538 0.267523
-0.096067 -0.065756 0.268416
-0.095192 -0.066023 0.269509
-0.094639 -0.066525 0.271553
-0.094259 -0.067163 0.274151
-0.093649 -0.067654 0.276139
-0.092715 -0.067920 0.277211
-0.091763 -0.068181 0.278255
-0.090766 -0.068416 0.279187
-0.089748 -0.068642 0.280081
-0.088595 -0.068769 0.280569
-0.087647 -0.069062 0.281726
-0.087241 -0.069798 0.284689
-0.086655 -0.070410 0.287142
-0.085880 -0.070886 0.289036
-0.085077 -0.071354 0.290895
-0.083937 -0.071549 0.291639
-0.082626 -0.071604 0.291805
-0.081564 -0.071879 0.292869
-0.080871 -0.072495 0.295317
-0.078897 -0.071964 0.293092
-0.081511 -0.075674 0.308135
-0.080162 -0.075772 0.308465
-0.078445 -0.075521 0.307367
-0.076677 -0.075209 0.306026
-0.075626 -0.075602 0.307548
-0.074011 -0.075436 0.306798
-0.072652 -0.075530 0.307100
-0.067867 -0.071993 0.292645
-0.065871 -0.071329 0.289870
-0.064756 -0.071611 0.290937
-0.063343 -0.071570 0.290692
-0.062025 -0.071635 0.290879
-0.060729 -0.071731 0.291187
-0.059364 -0.071746 0.291168
-0.058056 -0.071833 0.291445
-0.056702 -0.071868 0.291503
-0.055351 -0.071906 0.291578
-0.054013 -0.071965 0.291736
-0.052751 -0.072130 0.292325
-0.051319 -0.072067 0.291990
-0.049780 -0.071844 0.291007
-0.048413 -0.071864 0.291011
-0.047047 -0.071888 0.291029
-0.045599 -0.071785 0.290533
-0.044162 -0.071693 0.290083
-0.042798 -0.071716 0.290100
-0.041354 -0.071603 0.289571
-0.039714 -0.071132 0.287593
-0.039551 -0.073368 0.296556
-0.038171 -0.073427 0.296722
-0.036078 -0.072067 0.291157
-0.034246 -0.071140 0.287342
-0.032859 -0.071099 0.287113
-0.031278 -0.070615 0.285095
-0.029765 -0.070251 0.283563
-0.028539 -0.070561 0.284753
-0.027018 -0.070136 0.282977
-0.025495 -0.069660 0.281002
-0.024088 -0.069467 0.280168
-0.022607 -0.069027 0.278340
-0.021172 -0.068680 0.276890
-0.019878 -0.068773 0.277219
-0.018432 -0.068320 0.275347
-0.017241 -0.068814 0.277295
-0.015818 -0.068385 0.275522
-0.014431 -0.068048 0.274129
-0.013126 -0.068072 0.274188
-0.011071 -0.063780 0.256868
-0.009833 -0.063716 0.256579
-0.008611 -0.063745 0.256668
-0.007378 -0.063692 0.256430
-0.006151 -0.063688 0.256390
-0.004912 -0.063511 0.255655
-0.003688 -0.063497 0.255582
-0.002462 -0.063387 0.255122
-0.001242 -0.063417 0.255226
-0.000021 -0.063357 0.254975
0.001198 -0.063308 0.254766
0.002578 -0.067519 0.271704
0.003828 -0.066654 0.268221
0.005065 -0.066050 0.265785
0.006304 -0.065706 0.264402
0.007541 -0.065456 0.263396
0.008784 -0.065331 0.262899
0.010021 -0.065192 0.262345
0.011253 -0.065055 0.261801
0.012474 -0.064888 0.261139
0.013698 -0.064766 0.260661
0.015021 -0.065092 0.261990
0.016317 -0.065263 0.262693
0.017656 -0.065565 0.263930
0.019038 -0.065978 0.265613
0.020423 -0.066348 0.267127
0.021765 -0.066541 0.267931
0.022986 -0.066366 0.267252
0.024296 -0.066452 0.267630
0.025502 -0.066259 0.266882
0.026641 -0.065916 0.265536
0.027852 -0.065778 0.265012
0.028988 -0.065481 0.263853
0.030110 -0.065178 0.262671
0.031152 -0.064734 0.260916
0.032444 -0.064822 0.261313
0.033799 -0.065024 0.262170
0.035068 -0.065054 0.262332
0.036424 -0.065236 0.263112
0.037772 -0.065394 0.263792
0.039149 -0.065589 0.264627
0.040518 -0.065758 0.265355
0.041890 -0.065922 0.266066
0.043375 -0.066250 0.267440
0.044572 -0.066130 0.267005
0.045564 -0.065723 0.265412
0.046251 -0.064908 0.262172
0.047321 -0.064661 0.261221
0.048416 -0.064458 0.260453
0.049366 -0.064078 0.258966
0.050467 -0.063908 0.258329
0.051679 -0.063883 0.258279
0.052848 -0.063807 0.258021
0.054196 -0.063946 0.258633
0.055658 -0.064209 0.259746
0.057370 -0.064744 0.261959
0.059176 -0.065359 0.264499
0.061037 -0.066009 0.267177
0.062515 -0.066225 0.268101
0.064219 -0.066669 0.269943
0.065742 -0.066909 0.270965
0.067103 -0.066980 0.271296
0.068505 -0.067087 0.271774
0.069764 -0.067054 0.271683
0.070965 -0.066966 0.271367
0.072019 -0.066745 0.270511
0.073000 -0.066466 0.269417
0.073535 -0.065798 0.266741
0.074399 -0.065441 0.265327
0.075249 -0.065084 0.263909
0.075837 -0.064516 0.261633
0.076361 -0.063913 0.259209
0.077418 -0.063767 0.258640
0.078471 -0.063623 0.258075
0.079362 -0.063355 0.257002
0.080620 -0.063383 0.257127
0.082219 -0.063674 0.258316
0.083710 -0.063873 0.259133
0.084905 -0.063845 0.259020
0.086784 -0.064324 0.260962
0.098482 -0.071965 0.291955
0.099737 -0.071869 0.291553
0.101177 -0.071906 0.291689
0.102497 -0.071859 0.291476
0.104048 -0.071972 0.291910
0.105591 -0.072076 0.292303
0.106814 -0.071963 0.291807
0.108199 -0.071960 0.291754
0.109636 -0.071991 0.291831
0.111110 -0.072046 0.291996
0.112435 -0.072003 0.291764
0.113765 -0.071965 0.291543
0.115152 -0.071963 0.291461
0.116627 -0.072016 0.291593
0.118324 -0.072203 0.292261
0.120414 -0.072623 0.293863
0.121592 -0.072489 0.293215
0.122649 -0.072286 0.292284
0.124394 -0.072490 0.292985
0.125938 -0.072573 0.293189
0.127498 -0.072663 0.293414
0.128833 -0.072624 0.293108
0.130218 -0.072614 0.292910
0.131778 -0.072701 0.293091
0.133213 -0.072718 0.292979
0.134739 -0.072783 0.293052
0.136144 -0.072782 0.292848
0.137849 -0.072940 0.293271
0.139490 -0.073062 0.293534
0.140360 -0.072781 0.292168
0.142059 -0.072931 0.292521
0.143941 -0.073171 0.293221
0.145494 -0.073241 0.293224
0.146757 -0.073165 0.292628
0.148493 -0.073323 0.292957
0.150150 -0.073441 0.293104
0.151411 -0.073363 0.292459
0.152964 -0.073428 0.292364
0.154465 -0.073467 0.292147
-0.122718 -0.055966 0.228939
-0.121805 -0.056048 0.229542
-0.120930 -0.056149 0.230210
-0.120041 -0.056245 0.230849
-0.119189 -0.056361 0.231556
-0.118354 -0.056487 0.232297
-0.117775 -0.056739 0.233543
-0.116947 -0.056875 0.234304
-0.116177 -0.057041 0.235183
-0.115511 -0.057263 0.236279
-0.114675 -0.057404 0.237033
-0.113779 -0.057517 0.237665
-0.113034 -0.057710 0.238618
-0.112329 -0.057928 0.239665
-0.111567 -0.058120 0.240600
-0.110775 -0.058300 0.241477
-0.110100 -0.058547 0.242620
-0.109352 -0.058759 0.243616
-0.108513 -0.058926 0.244419
-0.107689 -0.059106 0.245264
-0.106942 -0.059332 0.246296
-0.105981 -0.059443 0.246844
-0.105256 -0.059690 0.247952
-0.105280 -0.060373 0.250863
-0.104244 -0.060456 0.251275
-0.111911 -0.065647 0.272915
-0.110782 -0.065738 0.273354
-0.109925 -0.065995 0.274477
-0.108631 -0.065993 0.274514
-0.102351 -0.062925 0.261789
-0.101550 -0.063192 0.262935
-0.100969 -0.063604 0.264677
-0.100059 -0.063817 0.265585
-0.099238 -0.064092 0.266749
-0.098401 -0.064365 0.267895
-0.097350 -0.064502 0.268474
-0.096375 -0.064695 0.269277
-0.095759 -0.065136 0.271112
-0.095405 -0.065770 0.273746
-0.094428 -0.065986 0.274634
-0.093529 -0.066264 0.275774
-0.092749 -0.066635 0.277298
-0.092089 -0.067104 0.279225
-0.091015 -0.067281 0.279934
-0.089994 -0.067502 0.280823
-0.088952 -0.067714 0.281670
-0.087973 -0.067982 0.282745
-0.087117 -0.068354 0.284249
-0.087065 -0.069379 0.288464
-0.086352 -0.069900 0.290583
-0.085143 -0.070032 0.291076
-0.084147 -0.070345 0.292321
-0.082952 -0.070500 0.292908
-0.082970 -0.071708 0.297864
-0.081540 -0.071685 0.297707
-0.078895 -0.070574 0.293028
-0.081250 -0.073977 0.307084
-0.079906 -0.074074 0.307413
-0.078908 -0.074500 0.309108
-0.077595 -0.074641 0.309615
-0.075429 -0.073951 0.306673
-0.074449 -0.074418 0.308531
-0.073082 -0.074511 0.308835
-0.067448 -0.070168 0.290756
-0.066169 -0.070269 0.291097
-0.064846 -0.070327 0.291258
-0.063462 -0.070320 0.291149
-0.062277 -0.070538 0.291971
-0.060915 -0.070561 0.291982
-0.059411 -0.070416 0.291302
-0.058041 -0.070428 0.291269
-0.056661 -0.070429 0.291188
-0.055246 -0.070384 0.290921
-0.053930 -0.070466 0.291179
-0.052539 -0.070453 0.291041
-0.051220 -0.070537 0.291309
-0.049865 -0.070577 0.291392
-0.048414 -0.070478 0.290901
-0.047143 -0.070644 0.291507
-0.045721 -0.070586 0.291185
-0.044240 -0.070431 0.290469
-0.042802 -0.070336 0.290001
-0.041430 -0.070348 0.289973
-0.039710 -0.069750 0.287434
-0.039794 -0.072392 0.298242
-0.038406 -0.072450 0.298409
-0.036069 -0.070655 0.290943
-0.034262 -0.069795 0.287333
-0.033019 -0.070063 0.288368
-0.031352 -0.069414 0.285630
-0.029876 -0.069149 0.284474
-0.028523 -0.069157 0.284447
-0.027031 -0.068811 0.282962
-0.025476 -0.068260 0.280640
-0.024027 -0.067949 0.279306
-0.022636 -0.067774 0.278535
-0.021285 -0.067707 0.278208
-0.019912 -0.067555 0.277532
-0.018559 -0.067455 0.277076
-0.017136 -0.067065 0.275430
-0.015846 -0.067175 0.275838
-0.014517 -0.067124 0.275590
-0.013205 -0.067148 0.275650
-0.011021 -0.062255 0.255532
-0.009915 -0.062994 0.258533
-0.008685 -0.063033 0.258666
-0.007419 -0.062790 0.257641
-0.006215 -0.063076 0.258791
-0.004979 -0.063105 0.258891
-0.003729 -0.062922 0.258117
-0.002496 -0.062953 0.258229
-0.001261 -0.063036 0.258553
-0.000024 -0.062867 0.257851
0.001209 -0.062812 0.257614
0.002550 -0.065585 0.268979
0.003824 -0.065354 0.268028
0.005082 -0.065031 0.266701
0.006370 -0.065144 0.267161
0.007582 -0.064575 0.264832
0.008850 -0.064574 0.264830
0.010105 -0.064490 0.264493
0.011292 -0.064038 0.262650
0.012541 -0.063992 0.262472
0.013783 -0.063926 0.262214
0.015114 -0.064245 0.263539
0.016454 -0.064552 0.264816
0.017741 -0.064622 0.265122
0.019110 -0.064961 0.266537
0.020500 -0.065325 0.268055
0.021915 -0.065720 0.269702
0.023214 -0.065742 0.269822
0.024514 -0.065765 0.269947
0.025846 -0.065866 0.270393
0.026931 -0.065358 0.268343
0.028197 -0.065317 0.268210
0.029349 -0.065025 0.267050
0.030336 -0.064407 0.264552
0.031416 -0.064030 0.263044
0.032517 -0.063723 0.261821
0.033782 -0.063746 0.261959
0.035160 -0.063975 0.262943
0.036555 -0.064216 0.263982
0.037957 -0.064453 0.265001
0.039199 -0.064412 0.264881
0.040542 -0.064535 0.265438
0.041736 -0.064419 0.265011
0.042923 -0.064301 0.264574
0.044064 -0.064122 0.263891
0.045196 -0.063941 0.263196
0.046146 -0.063518 0.261505
0.047261 -0.063339 0.260821
0.048292 -0.063059 0.259723
0.049387 -0.062875 0.259014
0.050488 -0.062707 0.258375
0.051656 -0.062628 0.258101
0.052895 -0.062637 0.258191
0.054189 -0.062709 0.258540
0.055394 -0.062677 0.258457
0.057111 -0.063213 0.260720
0.059158 -0.064084 0.264364
0.061150 -0.064861 0.267618
0.062741 -0.065189 0.269022
0.064279 -0.065448 0.270144
0.065723 -0.065606 0.270842
0.067207 -0.065795 0.271669
0.068403 -0.065701 0.271328
0.069510 -0.065526 0.270650
0.070644 -0.065383 0.270103
0.071560 -0.065046 0.268753
0.072457 -0.064705 0.267382
0.073315 -0.064340 0.265912
0.073937 -0.063785 0.263652
0.074856 -0.063500 0.262505
0.075619 -0.063095 0.260859
0.076300 -0.062634 0.258983
0.077427 -0.062549 0.258654
0.078540 -0.062456 0.258289
0.079528 -0.062267 0.257525
0.080842 -0.062335 0.257825
0.082137 -0.062388 0.258052
0.083583 -0.062551 0.258735
0.085173 -0.062815 0.259834
0.086330 -0.062758 0.259600
0.098009 -0.070243 0.290558
0.099257 -0.070148 0.290157
0.101292 -0.070604 0.292031
0.102652 -0.070584 0.291931
0.104141 -0.070651 0.292188
0.105697 -0.070762 0.292619
0.106872 -0.070618 0.291990
0.108208 -0.070582 0.291805
0.109718 -0.070660 0.292082
0.111211 -0.070725 0.292298
0.112701 -0.070786 0.292495
0.113963 -0.070705 0.292093
0.115536 -0.070816 0.292482
0.117063 -0.070896 0.292736
0.118331 -0.070819 0.292333
0.120014 -0.070990 0.292945
0.121416 -0.070992 0.292854
0.122829 -0.071001 0.292781
0.124276 -0.071029 0.292779
0.125721 -0.071055 0.292759
0.127203 -0.071101 0.292816
0.128468 -0.071026 0.292363
0.129789 -0.070984 0.292034
0.131423 -0.071111 0.292395
0.133023 -0.071218 0.292659
0.134315 -0.071159 0.292232
0.135640 -0.071118 0.291871
0.137192 -0.071197 0.291986
0.138818 -0.071312 0.292237
0.140316 -0.071359 0.292199
0.141863 -0.071430 0.292245
0.143592 -0.071590 0.292645
0.145275 -0.071725 0.292923
0.146696 -0.071728 0.292652
0.148157 -0.071751 0.292445
0.149787 -0.071855 0.292554
0.151057 -0.071785 0.291940
0.152672 -0.071879 0.291976
0.154165 -0.071914 0.291755
-0.123214 -0.055088 0.229988
-0.122159 -0.055106 0.230326
-0.121402 -0.055260 0.231222
-0.120581 -0.055388 0.231997
-0.119590 -0.055439 0.232441
-0.118967 -0.055664 0.233601
-0.118268 -0.055857 0.234620
-0.117612 -0.056074 0.235730
-0.116773 -0.056207 0.236479
-0.115861 -0.056308 0.237083
-0.115163 -0.056515 0.238125
-0.114117 -0.056555 0.238452
-0.113337 -0.056728 0.239333
-0.112653 -0.056953 0.240427
-0.111806 -0.057100 0.241184
-0.111107 -0.057326 0.242265
-0.110213 -0.057455 0.242931
-0.109398 -0.057629 0.243778
-0.108796 -0.057919 0.245112
-0.108029 -0.058128 0.246092
-0.106913 -0.058150 0.246278
-0.106798 -0.058724 0.248793
-0.105272 -0.058526 0.248031
-0.105363 -0.059233 0.251100
-0.113713 -0.066151 0.280621
-0.112553 -0.066245 0.281068
-0.106980 -0.063712 0.270365
-0.107155 -0.064583 0.274098
-0.103060 -0.062871 0.266862
-0.102174 -0.063098 0.267851
-0.100380 -0.062763 0.266448
-0.099349 -0.062903 0.267057
-0.098826 -0.063372 0.269056
-0.097756 -0.063498 0.269597
-0.096846 -0.063733 0.270591
-0.096119 -0.064096 0.272128
-0.095310 -0.064413 0.273466
-0.094806 -0.064948 0.275723
-0.094033 -0.065311 0.277246
-0.093246 -0.065675 0.278766
-0.092112 -0.065801 0.279276
-0.091215 -0.066103 0.280523
-0.090151 -0.066290 0.281286
-0.088959 -0.066389 0.281664
-0.088032 -0.066690 0.282900
-0.088289 -0.067912 0.288038
-0.087301 -0.068199 0.289207
-0.086292 -0.068478 0.290340
-0.085039 -0.068570 0.290674
-0.083644 -0.068549 0.290526
-0.082486 -0.068725 0.291212
-0.081235 -0.068828 0.291583
-0.079618 -0.068618 0.290631
-0.077939 -0.068347 0.289415
-0.075993 -0.067829 0.287152
-0.080003 -0.072704 0.307715
-0.077490 -0.071723 0.303485
-0.076822 -0.072444 0.306457
-0.075470 -0.072534 0.306759
-0.073666 -0.072187 0.305209
-0.072315 -0.072278 0.305510
-0.068629 -0.069992 0.295764
-0.066189 -0.068907 0.291099
-0.064813 -0.068908 0.291021
-0.063465 -0.068940 0.291072
-0.062200 -0.069064 0.291515
-0.060698 -0.068926 0.290846
-0.059399 -0.069017 0.291147
-0.058123 -0.069140 0.291583
-0.056626 -0.069000 0.290907
-0.055309 -0.069077 0.291149
-0.053982 -0.069146 0.291353
-0.052605 -0.069152 0.291295
-0.051224 -0.069155 0.291221
-0.049870 -0.069194 0.291302
-0.048508 -0.069224 0.291347
-0.047101 -0.069191 0.291124
-0.045613 -0.069032 0.290377
-0.044239 -0.069043 0.290340
-0.042794 -0.068939 0.289824
-0.041267 -0.068691 0.288705
-0.039776 -0.068490 0.287782
-0.039271 -0.070032 0.294186
-0.037902 -0.070090 0.294352
-0.035747 -0.068643 0.288202
-0.033999 -0.067895 0.284991
-0.032965 -0.068569 0.287751
-0.031393 -0.068133 0.285854
-0.029772 -0.067548 0.283336
-0.028272 -0.067194 0.281788
-0.026823 -0.066933 0.280632
-0.025287 -0.066416 0.278406
-0.023839 -0.066086 0.276969
-0.022478 -0.065973 0.276441
-0.021143 -0.065928 0.276199
-0.019752 -0.065687 0.275141
-0.018387 -0.065507 0.274341
-0.017094 -0.065578 0.274592
-0.015783 -0.065580 0.274560
-0.014449 -0.065484 0.274116
-0.013189 -0.065740 0.275151
-0.011307 -0.062605 0.261995
-0.010066 -0.062679 0.262273
-0.008821 -0.062749 0.262537
-0.007560 -0.062708 0.262336
-0.006308 -0.062742 0.262453
-0.005050 -0.062713 0.262313
-0.003789 -0.062631 0.261948
-0.002537 -0.062683 0.262149
-0.001281 -0.062626 0.261896
-0.000027 -0.062541 0.261526
0.001229 -0.062740 0.262351
0.002551 -0.064396 0.269266
0.003843 -0.064434 0.269421
0.005113 -0.064175 0.268335
0.006401 -0.064202 0.268447
0.007649 -0.063886 0.267126
0.008907 -0.063734 0.266496
0.010136 -0.063435 0.265252
0.011367 -0.063211 0.264325
0.012615 -0.063119 0.263956
0.013870 -0.063080 0.263806
0.015157 -0.063174 0.264214
0.016477 -0.063386 0.265119
0.017782 -0.063508 0.265653
0.019061 -0.063531 0.265771
0.020372 -0.063649 0.266292
0.021822 -0.064164 0.268471
0.023216 -0.064464 0.269756
0.024486 -0.064406 0.269545
0.025744 -0.064326 0.269246
0.027060 -0.064388 0.269542
0.028275 -0.064219 0.268869
0.029544 -0.064179 0.268742
0.030377 -0.063235 0.264829
0.031459 -0.062865 0.263320
0.032562 -0.062562 0.262095
0.034385 -0.063614 0.266549
0.035633 -0.063567 0.266396
0.037077 -0.063858 0.267664
0.038288 -0.063743 0.267230
0.039832 -0.064172 0.269078
0.041071 -0.064097 0.268817
0.042293 -0.064003 0.268473
0.043318 -0.063622 0.266932
0.044602 -0.063634 0.267034
0.045540 -0.063166 0.265122
0.046336 -0.062531 0.262513
0.047534 -0.062457 0.262256
0.048431 -0.062002 0.260398
0.049344 -0.061589 0.258719
0.050615 -0.061633 0.258956
0.051830 -0.061608 0.258905
0.053193 -0.061756 0.259581
0.054405 -0.061726 0.259509
0.055849 -0.061954 0.260524
0.057649 -0.062559 0.263118
0.059367 -0.063051 0.265243
0.061233 -0.063676 0.267926
0.062839 -0.064011 0.269388
0.064390 -0.064277 0.270560
0.065794 -0.064389 0.271084
0.067234 -0.064531 0.271732
0.068464 -0.064471 0.271526
0.069624 -0.064347 0.271051
0.070575 -0.064039 0.269798
0.071574 -0.063784 0.268770
0.072406 -0.063392 0.267157
0.073317 -0.063082 0.265889
0.074039 -0.062621 0.263985
0.074981 -0.062359 0.262916
0.075841 -0.062039 0.261600
0.076608 -0.061655 0.260006
0.077579 -0.061443 0.259142
0.078812 -0.061443 0.259165
0.079937 -0.061361 0.258837
0.081351 -0.061498 0.259435
0.082486 -0.061424 0.259138
0.084188 -0.061768 0.260601
0.085804 -0.062040 0.261756
0.087454 -0.062328 0.262977
0.098590 -0.069274 0.292282
0.099844 -0.069179 0.291879
0.101281 -0.069212 0.292009
0.102361 -0.069004 0.291115
0.104154 -0.069275 0.292241
0.105675 -0.069361 0.292578
0.106947 -0.069282 0.292218
0.108302 -0.069259 0.292085
0.109753 -0.069297 0.292205
0.111174 -0.069315 0.292233
0.112540 -0.069299 0.292113
0.113875 -0.069265 0.291908
0.115268 -0.069266 0.291846
0.117311 -0.069653 0.293403
0.118698 -0.069646 0.293292
0.120024 -0.069604 0.293024
0.121390 -0.069586 0.292850
0.122724 -0.069550 0.292594
0.124076 -0.069524 0.292374
0.125369 -0.069467 0.292011
0.126789 -0.069481 0.291939
0.128242 -0.069511 0.291928
0.129861 -0.069630 0.292280
0.131186 -0.069591 0.291956
0.132935 -0.069775 0.292559
0.134409 -0.069813 0.292536
0.135491 -0.069648 0.291654
0.137086 -0.069747 0.291869
0.138622 -0.069815 0.291938
0.140269 -0.069937 0.292220
0.141880 -0.070038 0.292405
0.143661 -0.070220 0.292914
0.145244 -0.070303 0.292994
0.146587 -0.070270 0.292575
0.148181 -0.070356 0.292639
0.149834 -0.070468 0.292796
0.151171 -0.070431 0.292317
0.152580 -0.070427 0.291963
0.153926 -0.070395 0.291473
-0.123426 -0.054077 0.230502
-0.122591 -0.054193 0.231255
-0.121724 -0.054296 0.231945
-0.120900 -0.054421 0.232717
-0.120096 -0.054558 0.233527
-0.119198 -0.054654 0.234153
-0.118817 -0.054991 0.235803
-0.117896 -0.055083 0.236390
-0.117000 -0.055188 0.237026
-0.116323 -0.055399 0.238110
-0.115349 -0.055472 0.238590
-0.114488 -0.055601 0.239302
-0.113668 -0.055753 0.240104
-0.113017 -0.055992 0.241274
-0.113269 -0.056687 0.244406
-0.112771 -0.057018 0.245956
-0.112240 -0.057339 0.247460
-0.111890 -0.057760 0.249388
-0.117505 -0.061301 0.264789
-0.115987 -0.061158 0.264272
-0.114863 -0.061222 0.264640
-0.114048 -0.061453 0.265727
-0.108531 -0.063340 0.274308
-0.107395 -0.063431 0.274734
-0.104923 -0.062724 0.271702
-0.104095 -0.062995 0.272899
-0.103131 -0.063190 0.273759
-0.101900 -0.063224 0.273920
-0.100637 -0.063239 0.273991
-0.099042 -0.063043 0.273142
-0.098207 -0.063332 0.274391
-0.097125 -0.063468 0.274971
-0.095573 -0.063296 0.274213
-0.094725 -0.063592 0.275476
-0.094353 -0.064219 0.278174
-0.093904 -0.064812 0.280715
-0.093239 -0.065271 0.282671
-0.092502 -0.065691 0.284459
-0.091516 -0.065945 0.285517
-0.090919 -0.066490 0.287838
-0.089872 -0.066718 0.288780
-0.088461 -0.066679 0.288563
-0.087678 -0.067120 0.290416
-0.086529 -0.067289 0.291093
-0.085297 -0.067399 0.291511
-0.084162 -0.067590 0.292275
-0.082689 -0.067512 0.291875
-0.081470 -0.067642 0.292371
-0.080287 -0.067807 0.293016
-0.078491 -0.067451 0.291407
-0.076640 -0.067034 0.289532
-0.075301 -0.067058 0.289563
-0.078599 -0.071289 0.307753
-0.077247 -0.071383 0.308073
-0.074886 -0.070529 0.304308
-0.074114 -0.071169 0.306981
-0.072755 -0.071259 0.307285
-0.067411 -0.067370 0.290434
-0.066218 -0.067554 0.291141
-0.064974 -0.067693 0.291656
-0.063644 -0.067746 0.291802
-0.062270 -0.067754 0.291751
-0.060811 -0.067669 0.291295
-0.059474 -0.067717 0.291416
-0.058169 -0.067805 0.291709
-0.056752 -0.067765 0.291451
-0.055358 -0.067750 0.291299
-0.054023 -0.067809 0.291467
-0.052666 -0.067843 0.291525
-0.051297 -0.067862 0.291521
-0.049908 -0.067856 0.291410
-0.048541 -0.067881 0.291432
-0.047133 -0.067847 0.291202
-0.045712 -0.067792 0.290884
-0.044309 -0.067762 0.290671
-0.042927 -0.067763 0.290594
-0.041353 -0.067452 0.289182
-0.039866 -0.067264 0.288299
-0.039330 -0.068726 0.294486
-0.037365 -0.067708 0.290048
-0.035730 -0.067232 0.287934
-0.034141 -0.066807 0.286043
-0.033155 -0.067577 0.289267
-0.031799 -0.067626 0.289408
-0.029818 -0.066291 0.283628
-0.028316 -0.065944 0.282079
-0.026865 -0.065688 0.280922
-0.025327 -0.065181 0.278694
-0.023877 -0.064858 0.277256
-0.022514 -0.064747 0.276727
-0.021178 -0.064703 0.276486
-0.019784 -0.064467 0.275427
-0.018521 -0.064654 0.276177
-0.017208 -0.064683 0.276255
-0.015824 -0.064426 0.275113
-0.014510 -0.064431 0.275094
-0.013212 -0.064520 0.275438
-0.011409 -0.061889 0.264170
-0.010019 -0.061119 0.260851
-0.008780 -0.061186 0.261105
-0.007537 -0.061238 0.261303
-0.006275 -0.061137 0.260844
-0.005031 -0.061198 0.261084
-0.003781 -0.061193 0.261043
-0.002533 -0.061260 0.261308
-0.001282 -0.061303 0.261481
-0.000030 -0.061262 0.261291
0.001237 -0.061998 0.264421
0.002536 -0.062789 0.267785
0.003825 -0.062895 0.268236
0.005108 -0.062867 0.268110
0.006384 -0.062779 0.267738
0.007607 -0.062281 0.265616
0.008915 -0.062530 0.266682
0.010150 -0.062264 0.265555
0.011409 -0.062189 0.265245
0.012698 -0.062276 0.265629
0.013913 -0.062020 0.264554
0.015198 -0.062088 0.264858
0.016509 -0.062245 0.265548
0.017836 -0.062435 0.266381
0.019160 -0.062592 0.267076
0.020487 -0.062735 0.267710
0.021978 -0.063337 0.270309
0.023228 -0.063214 0.269815
0.024484 -0.063119 0.269440
0.025906 -0.063439 0.270843
0.027187 -0.063403 0.270725
0.027227 -0.060604 0.258814
0.028460 -0.060590 0.258791
0.029616 -0.060422 0.258114
0.030872 -0.060461 0.258324
0.032150 -0.060538 0.258697
0.033350 -0.060469 0.258443
0.034710 -0.060684 0.259411
0.036073 -0.060890 0.260340
0.037466 -0.061130 0.261413
0.038858 -0.061354 0.262423
0.040278 -0.061606 0.263552
0.041692 -0.061833 0.264575
0.042693 -0.061453 0.263006
0.044268 -0.061898 0.264962
0.045474 -0.061814 0.264661
0.046452 -0.061436 0.263097
0.047475 -0.061134 0.261859
0.048727 -0.061135 0.261919
0.049823 -0.060946 0.261165
0.050848 -0.060680 0.260082
0.052091 -0.060681 0.260145
0.053488 -0.060858 0.260959
0.054793 -0.060925 0.261300
0.056311 -0.061219 0.262620
0.057739 -0.061404 0.263471
0.059294 -0.061715 0.264859
0.061252 -0.062423 0.267952
0.063017 -0.062910 0.270098
0.064387 -0.062990 0.270497
0.065762 -0.063072 0.270903
0.067143 -0.063156 0.271317
0.068426 -0.063147 0.271327
0.069656 -0.063091 0.271135
0.070642 -0.062819 0.270015
0.071453 -0.062404 0.268277
0.072431 -0.062146 0.267213
0.073210 -0.061730 0.265466
0.074040 -0.061370 0.263959
0.075050 -0.061169 0.263130
0.075915 -0.060858 0.261827
0.076757 -0.060539 0.260487
0.077653 -0.060273 0.259370
0.078885 -0.060271 0.259388
0.080133 -0.060281 0.259456
0.081563 -0.060426 0.260098
