ply
format ascii 1.0
element vertex 1725
property float x
property float y
property float z
end_header
-0.007624 -0.003684 0.258258
-0.006380 -0.003690 0.258659
-0.005139 -0.003702 0.259439
-0.003893 -0.003716 0.260422
-0.002630 -0.003719 0.260605
-0.001366 -0.003727 0.261123
-0.000096 -0.003732 0.261497
0.001189 -0.003775 0.264514
0.002475 -0.003776 0.264543
0.003901 -0.003915 0.274292
0.019283 -0.003792 0.265926
0.020564 -0.003790 0.265830
0.022033 -0.003821 0.268036
0.024184 -0.003960 0.277838
0.025517 -0.003957 0.277718
0.026847 -0.003954 0.277593
0.026247 -0.003681 0.258483
0.027436 -0.003673 0.257927
0.028765 -0.003682 0.258688
0.029848 -0.003662 0.257283
0.031153 -0.003668 0.257826
0.032343 -0.003662 0.257424
0.033652 -0.003668 0.257971
0.034937 -0.003672 0.258311
0.036294 -0.003683 0.259152
0.037435 -0.003672 0.258449
0.038729 -0.003676 0.258825
0.040779 -0.003749 0.264075
0.042576 -0.003796 0.267435
0.044407 -0.003842 0.270810
0.044846 -0.003769 0.265752
0.045947 -0.003754 0.264799
0.047170 -0.003750 0.264584
0.048018 -0.003717 0.262341
0.049223 -0.003712 0.262118
0.050518 -0.003715 0.262377
0.051707 -0.003709 0.262099
0.052935 -0.003707 0.262028
0.054036 -0.003696 0.261351
0.055426 -0.003705 0.262077
0.056869 -0.003717 0.263024
0.057956 -0.003705 0.262321
0.059969 -0.003752 0.265757
0.062389 -0.003823 0.270822
0.063720 -0.003824 0.271057
0.064916 -0.003818 0.270728
0.066103 -0.003812 0.270376
0.067322 -0.003808 0.270170
0.068596 -0.003807 0.270188
0.069670 -0.003795 0.269439
0.070567 -0.003774 0.268046
0.071435 -0.003752 0.266597
0.072546 -0.003744 0.266091
0.073545 -0.003730 0.265203
0.074969 -0.003738 0.265851
0.076238 -0.003738 0.265938
0.077444 -0.003735 0.265809
0.078776 -0.003738 0.266111
0.080411 -0.003755 0.267415
0.082146 -0.003776 0.269003
0.083627 -0.003785 0.269727
0.085193 -0.003798 0.270697
0.086449 -0.003796 0.270669
0.087871 -0.003802 0.271154
0.089749 -0.003827 0.273014
0.097378 -0.004094 0.292067
0.098604 -0.004087 0.291655
0.100926 -0.004125 0.294448
0.099384 -0.004007 0.286043
0.101222 -0.004026 0.287458
0.103473 -0.004061 0.289994
0.104703 -0.004055 0.289634
0.106001 -0.004052 0.289467
0.107563 -0.004060 0.290012
0.109125 -0.004067 0.290541
0.110705 -0.004074 0.291099
0.112657 -0.004095 0.292605
0.113912 -0.004090 0.292282
0.115047 -0.004082 0.291656
0.116428 -0.004082 0.291657
0.117575 -0.004074 0.291072
0.118823 -0.004069 0.290742
0.120213 -0.004070 0.290758
0.121075 -0.004053 0.289503
0.122740 -0.004063 0.290165
0.124469 -0.004075 0.290958
0.126075 -0.004082 0.291440
0.127120 -0.004071 0.290618
0.128348 -0.004067 0.290221
0.129797 -0.004069 0.290319
0.131672 -0.004085 0.291345
0.133051 -0.004085 0.291254
0.134116 -0.004076 0.290476
0.135638 -0.004080 0.290680
0.137238 -0.004087 0.291034
0.138880 -0.004095 0.291460
0.140363 -0.004098 0.291530
0.141959 -0.004105 0.291821
0.143346 -0.004105 0.291665
0.144716 -0.004105 0.291466
0.146406 -0.004113 0.291892
0.147698 -0.004111 0.291510
0.149282 -0.004117 0.291690
0.151260 -0.004133 0.292612
0.152268 -0.004123 0.291641
-0.139265 -0.002437 0.262675
-0.138155 -0.002439 0.263098
-0.137177 -0.002443 0.263767
-0.136178 -0.002447 0.264395
-0.135056 -0.002449 0.264779
-0.134100 -0.002454 0.265489
-0.132942 -0.002455 0.265793
-0.131862 -0.002458 0.266252
-0.130806 -0.002461 0.266754
-0.129660 -0.002463 0.267071
-0.128549 -0.002465 0.267455
-0.127251 -0.002464 0.267446
-0.126062 -0.002464 0.267655
-0.125060 -0.002469 0.268262
-0.124028 -0.002473 0.268807
-0.122945 -0.002476 0.269244
-0.121977 -0.002482 0.269933
-0.121028 -0.002488 0.270672
-0.119972 -0.002492 0.271179
-0.118922 -0.002496 0.271702
-0.117838 -0.002500 0.272150
-0.116688 -0.002502 0.272448
-0.115599 -0.002506 0.272889
-0.114486 -0.002509 0.273278
-0.113319 -0.002512 0.273539
-0.112232 -0.002516 0.273994
-0.111137 -0.002520 0.274437
-0.109996 -0.002523 0.274770
-0.108835 -0.002525 0.275054
-0.107682 -0.002528 0.275364
-0.106447 -0.002529 0.275463
-0.105025 -0.002526 0.275073
-0.103537 -0.002521 0.274493
-0.102396 -0.002524 0.274827
-0.101301 -0.002529 0.275291
-0.100115 -0.002531 0.275517
-0.099144 -0.002539 0.276343
-0.098193 -0.002548 0.277247
-0.097392 -0.002561 0.278602
-0.096543 -0.002573 0.279854
-0.095718 -0.002586 0.281206
-0.094755 -0.002596 0.282186
-0.093840 -0.002607 0.283337
-0.092799 -0.002615 0.284133
-0.091706 -0.002622 0.284793
-0.090839 -0.002635 0.286184
-0.089959 -0.002649 0.287573
-0.089716 -0.002682 0.291073
-0.087852 -0.002667 0.289341
-0.087097 -0.002685 0.291266
-0.084895 -0.002659 0.288338
-0.083568 -0.002660 0.288341
-0.082364 -0.002665 0.288775
-0.081140 -0.002670 0.289157
-0.079852 -0.002672 0.289323
-0.078497 -0.002673 0.289249
-0.077340 -0.002680 0.289921
-0.076120 -0.002685 0.290379
-0.074681 -0.002683 0.290005
-0.073491 -0.002690 0.290610
-0.072383 -0.002700 0.291572
-0.071942 -0.002735 0.295313
-0.068395 -0.002652 0.286208
-0.066850 -0.002645 0.285292
-0.065920 -0.002662 0.287020
-0.064407 -0.002656 0.286241
-0.063065 -0.002657 0.286204
-0.061824 -0.002662 0.286647
-0.060545 -0.002666 0.286934
-0.059243 -0.002669 0.287130
-0.057904 -0.002670 0.287155
-0.056624 -0.002674 0.287495
-0.050544 -0.002644 0.283728
-0.039557 -0.002637 0.282061
-0.038607 -0.002665 0.284964
-0.036711 -0.002627 0.280852
-0.035681 -0.002651 0.283324
-0.034729 -0.002683 0.286637
-0.030866 -0.002484 0.265226
-0.029442 -0.002472 0.263854
-0.027639 -0.002425 0.258809
-0.026045 -0.002394 0.255365
-0.024825 -0.002395 0.255436
-0.023836 -0.002420 0.258024
-0.022650 -0.002427 0.258655
-0.021383 -0.002425 0.258407
-0.020104 -0.002422 0.257987
-0.019029 -0.002444 0.260313
-0.017963 -0.002471 0.263113
-0.013610 -0.002615 0.278214
-0.011402 -0.002432 0.258702
-0.010078 -0.002416 0.256925
-0.008870 -0.002427 0.258028
-0.007622 -0.002428 0.258178
-0.006380 -0.002433 0.258645
-0.005144 -0.002443 0.259652
-0.003913 -0.002463 0.261736
-0.002653 -0.002474 0.262892
-0.001381 -0.002485 0.264115
-0.000098 -0.002502 0.265926
0.001197 -0.002507 0.266378
0.002491 -0.002506 0.266267
0.003901 -0.002582 0.274308
0.005234 -0.002581 0.274285
0.009787 -0.002735 0.290663
0.011198 -0.002735 0.290612
0.012608 -0.002734 0.290554
0.020566 -0.002499 0.265845
0.021580 -0.002467 0.262515
0.024118 -0.002604 0.277075
0.025447 -0.002602 0.276957
0.026774 -0.002601 0.276831
0.026107 -0.002415 0.257089
0.027339 -0.002413 0.257014
0.028740 -0.002426 0.258462
0.029841 -0.002414 0.257215
0.031113 -0.002416 0.257491
0.032444 -0.002422 0.258221
0.033751 -0.002426 0.258725
0.035059 -0.002430 0.259206
0.036357 -0.002433 0.259596
0.037544 -0.002429 0.259197
0.039064 -0.002445 0.261057
0.040782 -0.002473 0.264090
0.043824 -0.002577 0.275267
0.045105 -0.002574 0.275060
0.046381 -0.002571 0.274847
0.053054 -0.002573 0.275546
0.053429 -0.002528 0.270821
0.054705 -0.002527 0.270783
0.055679 -0.002512 0.269292
0.056968 -0.002512 0.269361
0.058332 -0.002515 0.269784
0.058757 -0.002478 0.265943
0.060113 -0.002482 0.266392
0.062346 -0.002520 0.270634
0.063612 -0.002519 0.270596
0.064870 -0.002518 0.270530
0.066213 -0.002520 0.270820
0.067428 -0.002517 0.270591
0.068604 -0.002512 0.270217
0.069801 -0.002509 0.269943
0.071045 -0.002507 0.269860
0.072431 -0.002511 0.270312
0.073806 -0.002514 0.270710
0.074935 -0.002508 0.270211
0.076625 -0.002521 0.271720
0.077948 -0.002522 0.271899
0.079355 -0.002526 0.272368
0.080456 -0.002520 0.271784
0.081983 -0.002527 0.272638
0.083214 -0.002525 0.272496
0.084318 -0.002519 0.271951
0.085809 -0.002525 0.272653
0.087043 -0.002524 0.272527
0.087985 -0.002514 0.271505
0.089609 -0.002523 0.272586
0.095484 -0.002650 0.286385
0.097770 -0.002676 0.289185
0.099929 -0.002697 0.291537
0.101207 -0.002695 0.291288
0.102518 -0.002693 0.291140
0.103577 -0.002685 0.290283
0.104888 -0.002683 0.290144
0.106144 -0.002680 0.289857
0.107348 -0.002676 0.289431
0.108707 -0.002676 0.289426
0.110128 -0.002677 0.289581
0.111916 -0.002688 0.290679
0.114046 -0.002706 0.292625
0.115134 -0.002699 0.291877
0.116341 -0.002695 0.291440
0.117699 -0.002695 0.291379
0.119060 -0.002694 0.291323
0.120296 -0.002691 0.290960
0.121413 -0.002686 0.290310
0.122963 -0.002690 0.290696
0.124566 -0.002695 0.291186
0.125879 -0.002694 0.290987
0.127093 -0.002691 0.290559
0.128272 -0.002687 0.290051
0.129541 -0.002685 0.289747
0.131951 -0.002706 0.291965
0.133302 -0.002706 0.291806
0.134058 -0.002694 0.290352
0.135528 -0.002696 0.290449
0.137307 -0.002704 0.291184
0.138659 -0.002704 0.290999
0.141363 -0.002730 0.293611
0.141636 -0.002709 0.291162
0.143279 -0.002714 0.291534
0.144767 -0.002716 0.291574
0.145990 -0.002713 0.291068
0.147568 -0.002717 0.291259
0.149242 -0.002723 0.291617
0.150496 -0.002721 0.291141
0.151695 -0.002718 0.290550
-0.139121 -0.001191 0.262407
-0.138301 -0.001194 0.263378
-0.137309 -0.001195 0.264023
-0.136129 -0.001195 0.264302
-0.135142 -0.001197 0.264952
-0.134094 -0.001199 0.265479
-0.133064 -0.001200 0.266040
-0.131976 -0.001201 0.266483
-0.130827 -0.001202 0.266798
-0.129790 -0.001203 0.267342
-0.128588 -0.001203 0.267539
-0.127427 -0.001204 0.267817
-0.126339 -0.001205 0.268245
-0.125283 -0.001206 0.268743
-0.124219 -0.001208 0.269222
-0.123202 -0.001210 0.269806
-0.122146 -0.001211 0.270308
-0.121113 -0.001213 0.270863
-0.120053 -0.001215 0.271362
-0.119012 -0.001217 0.271909
-0.117891 -0.001218 0.272272
-0.116829 -0.001220 0.272778
-0.115750 -0.001222 0.273246
-0.114504 -0.001222 0.273322
-0.113423 -0.001224 0.273789
-0.112332 -0.001225 0.274239
-0.111248 -0.001227 0.274712
-0.110331 -0.001231 0.275608
-0.109208 -0.001233 0.275997
-0.108155 -0.001235 0.276572
-0.107024 -0.001237 0.276956
-0.105862 -0.001238 0.277263
-0.104702 -0.001239 0.277581
-0.103564 -0.001241 0.277961
-0.102381 -0.001242 0.278227
-0.101247 -0.001244 0.278632
-0.100107 -0.001246 0.279027
-0.098931 -0.001247 0.279330
-0.097902 -0.001251 0.280059
-0.096844 -0.001254 0.280725
-0.095881 -0.001258 0.281683
-0.094832 -0.001261 0.282414
-0.093782 -0.001265 0.283160
-0.092723 -0.001268 0.283901
-0.091858 -0.001275 0.285264
-0.091086 -0.001282 0.286959
-0.089292 -0.001276 0.285441
-0.089068 -0.001292 0.288969
-0.088319 -0.001301 0.290877
-0.085099 -0.001273 0.284582
-0.084859 -0.001289 0.288215
-0.083175 -0.001284 0.286983
-0.082018 -0.001287 0.287560
-0.081020 -0.001293 0.288728
-0.079587 -0.001291 0.288361
-0.078305 -0.001293 0.288539
-0.077163 -0.001296 0.289252
-0.075869 -0.001297 0.289418
-0.074620 -0.001299 0.289766
-0.073373 -0.001301 0.290141
-0.072111 -0.001303 0.290474
-0.071118 -0.001310 0.291928
-0.068295 -0.001283 0.285786
-0.066457 -0.001274 0.283611
-0.065075 -0.001273 0.283339
-0.063771 -0.001274 0.283410
-0.062602 -0.001277 0.284099
-0.061330 -0.001279 0.284352
-0.059933 -0.001278 0.284030
-0.058735 -0.001281 0.284663
-0.058198 -0.001299 0.288610
-0.055958 -0.001279 0.284107
-0.054498 -0.001277 0.283453
-0.053090 -0.001276 0.283052
-0.051802 -0.001277 0.283292
-0.050499 -0.001278 0.283472
-0.049203 -0.001280 0.283710
-0.047868 -0.001280 0.283735
-0.046570 -0.001282 0.284003
-0.045215 -0.001282 0.283940
-0.043889 -0.001283 0.284067
-0.042601 -0.001285 0.284474
-0.040845 -0.001273 0.281684
-0.039546 -0.001275 0.281975
-0.038609 -0.001289 0.284973
-0.036396 -0.001260 0.278442
-0.035459 -0.001274 0.281551
-0.034378 -0.001285 0.283734
-0.031020 -0.001207 0.266544
-0.029068 -0.001180 0.260497
-0.027675 -0.001174 0.259141
-0.026444 -0.001175 0.259269
-0.024744 -0.001154 0.254590
-0.023637 -0.001160 0.255863
-0.022529 -0.001167 0.257270
-0.021389 -0.001173 0.258476
-0.020167 -0.001174 0.258783
-0.018874 -0.001172 0.258187
-0.017897 -0.001190 0.262133
-0.013788 -0.001280 0.281828
-0.011334 -0.001169 0.257156
-0.010093 -0.001169 0.257305
-0.008904 -0.001177 0.259016
-0.007641 -0.001177 0.258829
-0.006391 -0.001178 0.259098
-0.005176 -0.001188 0.261268
-0.003932 -0.001196 0.262990
-0.002677 -0.001206 0.265287
-0.001388 -0.001206 0.265253
-0.000099 -0.001219 0.267965
0.001205 -0.001220 0.268234
0.002504 -0.001217 0.267599
0.003847 -0.001231 0.270561
0.005227 -0.001246 0.273892
0.006558 -0.001246 0.273863
0.007600 -0.001200 0.263811
0.008526 -0.001152 0.253204
0.009811 -0.001158 0.254610
0.010990 -0.001152 0.253267
0.012235 -0.001153 0.253579
0.013489 -0.001155 0.253999
0.014774 -0.001159 0.254883
0.016076 -0.001163 0.255917
0.017362 -0.001166 0.256586
0.018872 -0.001183 0.260248
0.020455 -0.001202 0.264402
0.021679 -0.001198 0.263718
0.024023 -0.001254 0.275985
0.025348 -0.001253 0.275867
0.026669 -0.001252 0.275742
0.025996 -0.001163 0.255998
0.027295 -0.001165 0.256588
0.028622 -0.001168 0.257394
0.029760 -0.001164 0.256508
0.031036 -0.001165 0.256847
0.032301 -0.001166 0.257076
0.033575 -0.001167 0.257370
0.034838 -0.001168 0.257567
0.036053 -0.001167 0.257417
0.037248 -0.001166 0.257149
0.038697 -0.001172 0.258597
0.040053 -0.001175 0.259364
0.053057 -0.001246 0.275555
0.054291 -0.001244 0.275188
0.055278 -0.001236 0.273617
0.056396 -0.001232 0.272754
0.057738 -0.001233 0.273003
0.058819 -0.001228 0.272035
0.059817 -0.001222 0.270736
0.061123 -0.001222 0.270861
0.062379 -0.001221 0.270773
0.063718 -0.001222 0.271045
0.064909 -0.001220 0.270691
0.066103 -0.001219 0.270369
0.067411 -0.001219 0.270519
0.068620 -0.001218 0.270276
0.069769 -0.001215 0.269816
0.071058 -0.001216 0.269905
0.072434 -0.001217 0.270320
0.074934 -0.001237 0.274844
0.076129 -0.001236 0.274516
0.077430 -0.001236 0.274574
0.078545 -0.001233 0.273982
0.080303 -0.001240 0.275620
0.081558 -0.001239 0.275507
0.082412 -0.001232 0.274064
0.083838 -0.001234 0.274539
0.085068 -0.001233 0.274370
0.086266 -0.001232 0.274104
0.086859 -0.001222 0.271950
0.087834 -0.001218 0.271038
0.093192 -0.001274 0.283485
0.094386 -0.001272 0.283090
0.098561 -0.001310 0.291525
0.099195 -0.001300 0.289395
0.100727 -0.001303 0.289907
0.102256 -0.001305 0.290395
0.103540 -0.001304 0.290181
0.104819 -0.001303 0.289954
0.105947 -0.001300 0.289319
0.107251 -0.001300 0.289169
0.109090 -0.001306 0.290446
0.110521 -0.001306 0.290614
0.112436 -0.001313 0.292030
0.113712 -0.001312 0.291769
0.114739 -0.001308 0.290875
0.116259 -0.001310 0.291234
0.117519 -0.001309 0.290934
0.118568 -0.001306 0.290120
0.119977 -0.001307 0.290188
0.121319 -0.001307 0.290087
0.123183 -0.001312 0.291216
0.124509 -0.001312 0.291055
0.125681 -0.001310 0.290532
0.127104 -0.001311 0.290585
0.128220 -0.001309 0.289937
0.129481 -0.001308 0.289616
0.131019 -0.001310 0.289905
0.132803 -0.001314 0.290717
0.133941 -0.001312 0.290101
0.135372 -0.001313 0.290115
0.137293 -0.001319 0.291159
0.138933 -0.001322 0.291577
0.141133 -0.001330 0.293136
0.142769 -0.001333 0.293492
0.143995 -0.001331 0.292994
0.145206 -0.001330 0.292460
0.146557 -0.001330 0.292202
0.147754 -0.001329 0.291629
0.149054 -0.001329 0.291254
0.150508 -0.001330 0.291168
0.152820 -0.001338 0.292709
-0.139450 0.000054 0.263029
-0.138284 0.000054 0.263349
-0.137408 0.000055 0.264215
-0.136203 0.000056 0.264448
-0.135166 0.000056 0.265000
-0.134233 0.000057 0.265754
-0.133033 0.000057 0.265980
-0.131989 0.000058 0.266511
-0.130959 0.000058 0.267069
-0.129741 0.000059 0.267240
-0.128761 0.000059 0.267900
-0.127642 0.000060 0.268269
-0.126564 0.000060 0.268724
-0.125544 0.000061 0.269303
-0.124441 0.000061 0.269705
-0.123414 0.000062 0.270272
-0.122402 0.000063 0.270875
-0.121356 0.000063 0.271409
-0.120345 0.000064 0.272024
-0.119286 0.000064 0.272536
-0.118164 0.000065 0.272906
-0.117079 0.000065 0.273363
-0.116044 0.000066 0.273942
-0.114977 0.000066 0.274450
-0.114035 0.000067 0.275267
-0.112980 0.000067 0.275821
-0.112061 0.000068 0.276720
-0.111315 0.000069 0.278064
-0.110025 0.000069 0.278063
-0.109254 0.000070 0.279383
-0.108523 0.000070 0.280837
-0.107755 0.000071 0.282222
-0.110638 0.000074 0.293318
-0.109271 0.000075 0.293279
-0.107823 0.000075 0.293016
-0.106516 0.000075 0.293132
-0.105645 0.000076 0.294463
-0.104442 0.000077 0.294892
-0.098480 0.000074 0.281713
-0.097362 0.000074 0.282225
-0.096335 0.000075 0.283018
-0.095169 0.000075 0.283419
-0.094251 0.000076 0.284575
-0.093025 0.000076 0.284824
-0.091945 0.000077 0.285534
-0.091196 0.000078 0.287305
-0.090658 0.000079 0.289806
-0.089442 0.000079 0.290183
-0.087396 0.000079 0.287838
-0.085136 0.000078 0.284705
-0.084903 0.000079 0.288366
-0.083759 0.000080 0.288998
-0.082322 0.000080 0.288625
-0.081076 0.000081 0.288926
-0.079746 0.000081 0.288935
-0.078441 0.000081 0.289039
-0.077280 0.000082 0.289692
-0.075931 0.000082 0.289653
-0.074836 0.000083 0.290605
-0.073639 0.000083 0.291193
-0.072210 0.000083 0.290872
-0.071809 0.000085 0.294764
-0.070515 0.000085 0.295076
-0.067061 0.000083 0.286190
-0.058199 0.000085 0.288613
-0.057068 0.000086 0.289747
-0.055705 0.000086 0.289729
-0.054257 0.000086 0.289270
-0.052923 0.000086 0.289420
-0.051338 0.000086 0.288179
-0.049933 0.000086 0.287918
-0.048462 0.000086 0.287259
-0.047166 0.000087 0.287636
-0.045873 0.000087 0.288071
-0.044125 0.000086 0.285597
-0.042602 0.000086 0.284477
-0.040846 0.000086 0.281687
-0.039546 0.000086 0.281978
-0.037628 0.000085 0.277729
-0.036326 0.000085 0.277903
-0.035513 0.000086 0.281981
-0.034382 0.000087 0.283769
-0.030219 0.000080 0.259664
-0.028946 0.000080 0.259395
-0.027579 0.000080 0.258241
-0.026419 0.000080 0.259027
-0.024759 0.000079 0.254742
-0.023853 0.000080 0.258202
-0.022597 0.000080 0.258053
-0.021386 0.000080 0.258434
-0.020218 0.000081 0.259443
-0.019065 0.000081 0.260793
-0.017916 0.000082 0.262410
-0.013788 0.000088 0.281831
-0.011353 0.000081 0.257573
-0.010105 0.000081 0.257601
-0.008957 0.000082 0.260550
-0.007645 0.000081 0.258948
-0.006430 0.000082 0.260666
-0.005203 0.000082 0.262625
-0.003941 0.000083 0.263594
-0.002676 0.000083 0.265155
-0.001390 0.000084 0.265701
-0.000099 0.000085 0.269237
0.001221 0.000085 0.271656
0.002499 0.000084 0.267116
0.003848 0.000085 0.270635
0.005261 0.000087 0.275662
0.006483 0.000085 0.270734
0.007600 0.000083 0.263814
0.008726 0.000081 0.259149
0.009987 0.000081 0.259194
0.011176 0.000081 0.257566
0.012410 0.000081 0.257201
0.013640 0.000080 0.256828
0.014876 0.000080 0.256650
0.016134 0.000080 0.256842
0.017385 0.000080 0.256923
0.018746 0.000081 0.258514
0.020371 0.000082 0.263324
0.021800 0.000083 0.265186
0.023885 0.000085 0.274395
0.025201 0.000085 0.274277
0.025286 0.000081 0.261439
0.025927 0.000079 0.255313
0.027240 0.000079 0.256076
0.028563 0.000079 0.256865
0.029706 0.000079 0.256043
0.030980 0.000079 0.256382
0.032259 0.000079 0.256744
0.033540 0.000079 0.257104
0.034806 0.000079 0.257333
0.035909 0.000078 0.256391
0.037250 0.000078 0.257163
0.038710 0.000079 0.258688
0.040053 0.000079 0.259366
0.053651 0.000083 0.278644
0.054515 0.000082 0.276323
0.055441 0.000081 0.274422
0.056691 0.000081 0.274184
0.057739 0.000080 0.273006
0.056843 0.000077 0.262892
0.059238 0.000078 0.268117
0.060980 0.000079 0.270231
0.062359 0.000079 0.270685
0.063611 0.000078 0.270588
0.064906 0.000078 0.270680
0.066206 0.000078 0.270789
0.067471 0.000078 0.270759
0.068652 0.000077 0.270403
0.069883 0.000077 0.270258
0.071156 0.000077 0.270278
0.072316 0.000076 0.269881
0.073682 0.000076 0.270255
0.074959 0.000076 0.270294
0.075993 0.000075 0.269476
0.077354 0.000075 0.269827
0.078636 0.000075 0.269897
0.079630 0.000074 0.268993
0.080932 0.000074 0.269141
0.082229 0.000074 0.269271
0.083528 0.000074 0.269402
0.085024 0.000073 0.270156
0.085878 0.000073 0.268878
0.087550 0.000073 0.270161
0.089439 0.000073 0.272067
0.097361 0.000078 0.292013
0.098587 0.000078 0.291602
0.099276 0.000077 0.289633
0.100180 0.000076 0.288332
0.102311 0.000076 0.290550
0.103448 0.000076 0.289923
0.104583 0.000075 0.289302
0.105921 0.000075 0.289249
0.107238 0.000074 0.289136
0.108619 0.000074 0.289192
0.110705 0.000074 0.291100
0.112132 0.000074 0.291242
0.113780 0.000074 0.291944
0.114903 0.000073 0.291293
0.116211 0.000073 0.291114
0.117622 0.000072 0.291190
0.119395 0.000072 0.292146
0.120686 0.000071 0.291905
0.121934 0.000071 0.291559
0.123317 0.000071 0.291533
0.124600 0.000070 0.291267
0.125888 0.000070 0.291012
0.127062 0.000069 0.290490
0.128247 0.000068 0.289997
0.129566 0.000068 0.289806
0.131202 0.000068 0.290312
0.132704 0.000067 0.290502
0.134115 0.000067 0.290480
0.135211 0.000066 0.289772
0.136604 0.000066 0.289698
0.138626 0.000065 0.290933
0.139951 0.000065 0.290684
0.141283 0.000064 0.290441
0.143036 0.000064 0.291043
0.144323 0.000063 0.290684
0.145874 0.000063 0.290842
0.147105 0.000062 0.290350
0.148667 0.000062 0.290500
0.150126 0.000061 0.290431
0.149548 0.000060 0.286442
-0.139061 0.001297 0.262297
-0.138231 0.001302 0.263247
-0.137256 0.001305 0.263923
-0.136084 0.001306 0.264216
-0.135178 0.001310 0.265023
-0.134107 0.001312 0.265506
-0.133101 0.001315 0.266115
-0.132030 0.001317 0.266594
-0.130911 0.001319 0.266972
-0.129865 0.001321 0.267497
-0.128802 0.001324 0.267985
-0.127715 0.001326 0.268423
-0.126623 0.001328 0.268850
-0.125460 0.001330 0.269123
-0.124470 0.001333 0.269768
-0.123328 0.001335 0.270084
-0.122396 0.001339 0.270864
-0.121418 0.001343 0.271548
-0.120441 0.001346 0.272241
-0.119591 0.001352 0.273234
-0.118639 0.001356 0.274004
-0.118054 0.001364 0.275639
-0.117137 0.001369 0.276522
-0.116496 0.001377 0.278079
-0.115786 0.001385 0.279496
-0.114799 0.001389 0.280263
-0.115766 0.001418 0.285870
-0.114623 0.001420 0.286330
-0.110069 0.001381 0.278175
-0.109252 0.001387 0.279380
-0.110047 0.001415 0.284781
-0.111819 0.001455 0.292867
-0.110636 0.001458 0.293315
-0.109076 0.001456 0.292757
-0.107852 0.001459 0.293098
-0.106750 0.001463 0.293778
-0.105643 0.001467 0.294460
-0.098730 0.001409 0.282431
-0.100231 0.001450 0.290543
-0.099035 0.001453 0.290953
-0.097448 0.001450 0.290207
-0.095524 0.001442 0.288422
-0.094077 0.001441 0.288048
-0.092932 0.001445 0.288601
-0.091614 0.001446 0.288624
-0.090155 0.001444 0.288199
-0.088855 0.001446 0.288280
-0.087697 0.001449 0.288830
-0.086317 0.001450 0.288657
-0.084775 0.001447 0.287931
-0.083696 0.001452 0.288783
-0.082418 0.001454 0.288965
-0.081207 0.001457 0.289394
-0.079873 0.001458 0.289400
-0.078497 0.001458 0.289251
-0.077255 0.001461 0.289600
-0.075518 0.001454 0.288080
-0.074593 0.001463 0.289663
-0.073403 0.001467 0.290262
-0.071961 0.001466 0.289870
-0.070848 0.001472 0.290822
-0.068370 0.001449 0.286104
-0.067060 0.001451 0.286186
-0.065796 0.001453 0.286480
-0.058184 0.001469 0.288544
-0.057067 0.001476 0.289743
-0.055704 0.001477 0.289726
-0.054256 0.001476 0.289267
-0.052922 0.001477 0.289417
-0.051337 0.001472 0.288175
-0.049932 0.001472 0.287914
-0.048461 0.001469 0.287256
-0.047164 0.001472 0.287633
-0.045872 0.001475 0.288067
-0.044124 0.001463 0.285593
-0.042014 0.001438 0.280556
-0.040773 0.001442 0.281189
-0.039313 0.001438 0.280317
-0.037464 0.001420 0.276526
-0.036221 0.001423 0.277104
-0.035285 0.001440 0.280177
-0.034236 0.001453 0.282569
-0.030267 0.001338 0.260075
-0.028917 0.001334 0.259145
-0.027523 0.001327 0.257722
-0.026236 0.001325 0.257235
-0.024953 0.001323 0.256749
-0.023741 0.001325 0.256992
-0.022567 0.001329 0.257708
-0.021417 0.001335 0.258812
-0.020155 0.001335 0.258637
-0.019095 0.001348 0.261200
-0.017924 0.001356 0.262536
-0.011557 0.001356 0.262210
-0.010288 0.001356 0.262262
-0.009093 0.001368 0.264514
-0.007810 0.001369 0.264555
-0.006562 0.001377 0.266031
-0.005302 0.001385 0.267636
-0.004018 0.001391 0.268718
-0.002726 0.001398 0.270079
-0.001410 0.001395 0.269536
-0.000100 0.001403 0.270976
0.001221 0.001406 0.271652
0.002498 0.001382 0.266973
0.003856 0.001404 0.271152
0.005233 0.001420 0.274212
0.006315 0.001365 0.263711
0.007442 0.001337 0.258335
0.008640 0.001328 0.256591
0.009918 0.001332 0.257394
0.011168 0.001332 0.257366
0.012414 0.001331 0.257273
0.013670 0.001332 0.257409
0.014965 0.001336 0.258193
0.016244 0.001337 0.258605
0.017503 0.001337 0.258660
0.018884 0.001346 0.260419
0.020354 0.001360 0.263099
0.021500 0.001351 0.261545
0.023854 0.001416 0.274046
0.025169 0.001415 0.273928
0.026481 0.001413 0.273804
0.026040 0.001323 0.256432
0.027341 0.001326 0.257025
0.028649 0.001329 0.257640
0.029800 0.001324 0.256862
0.031051 0.001324 0.256974
0.032340 0.001326 0.257389
0.033599 0.001326 0.257561
0.034922 0.001329 0.258189
0.036040 0.001324 0.257329
0.037289 0.001324 0.257434
0.039071 0.001342 0.261100
0.040292 0.001340 0.260914
0.051061 0.001429 0.278961
0.052235 0.001424 0.278149
0.053650 0.001426 0.278640
0.054514 0.001413 0.276320
0.055440 0.001402 0.274418
0.056690 0.001400 0.274180
0.057444 0.001387 0.271615
0.058163 0.001372 0.269000
0.059582 0.001375 0.269674
0.061207 0.001382 0.271239
0.062425 0.001380 0.270974
0.063763 0.001381 0.271239
0.064951 0.001378 0.270868
0.066208 0.001377 0.270801
0.067469 0.001376 0.270755
0.068808 0.001376 0.271021
0.070063 0.001375 0.270955
0.071271 0.001373 0.270716
0.072497 0.001371 0.270557
0.073790 0.001371 0.270654
0.075013 0.001369 0.270491
0.076232 0.001368 0.270327
0.077509 0.001367 0.270371
0.078741 0.001366 0.270259
0.079875 0.001363 0.269821
0.081165 0.001362 0.269919
0.082375 0.001361 0.269750
0.083561 0.001359 0.269511
0.085018 0.001361 0.270139
0.086082 0.001357 0.269518
0.087549 0.001360 0.270161
0.089241 0.001366 0.271466
0.097257 0.001467 0.291702
0.098481 0.001464 0.291291
0.098441 0.001443 0.287198
0.099809 0.001442 0.287267
0.102306 0.001458 0.290540
0.103743 0.001458 0.290752
0.105667 0.001465 0.292302
0.106069 0.001451 0.289654
0.107487 0.001452 0.289810
0.109607 0.001461 0.291825
0.110113 0.001449 0.289544
0.111862 0.001453 0.290542
0.113523 0.001457 0.291287
0.114818 0.001455 0.291078
0.116338 0.001456 0.291434
0.117849 0.001457 0.291754
0.119124 0.001456 0.291482
0.120425 0.001454 0.291275
0.121740 0.001453 0.291096
0.123015 0.001451 0.290821
0.124462 0.001451 0.290945
0.125844 0.001451 0.290911
0.127134 0.001449 0.290657
0.128309 0.001447 0.290140
0.129591 0.001445 0.289864
0.131123 0.001446 0.290137
0.132702 0.001448 0.290497
0.133756 0.001444 0.289701
0.135056 0.001442 0.289440
0.137035 0.001448 0.290613
0.137765 0.001441 0.289128
0.139077 0.001440 0.288869
0.141262 0.001447 0.290397
0.142945 0.001450 0.290860
0.144339 0.001449 0.290717
0.145744 0.001449 0.290584
0.147137 0.001448 0.290414
0.148436 0.001447 0.290048
0.149715 0.001445 0.289636
0.150649 0.001440 0.288551
-0.138628 0.002533 0.261478
-0.137990 0.002545 0.262786
-0.137026 0.002550 0.263481
-0.135761 0.002550 0.263589
-0.134862 0.002557 0.264403
-0.133783 0.002561 0.264864
-0.132841 0.002567 0.265595
-0.131752 0.002571 0.266032
-0.130546 0.002572 0.266227
-0.129390 0.002575 0.266519
-0.128124 0.002575 0.266576
-0.126954 0.002577 0.266826
-0.126054 0.002585 0.267643
-0.124563 0.002580 0.267199
-0.123560 0.002586 0.267797
-0.122950 0.002600 0.269257
-0.121752 0.002602 0.269439
-0.120792 0.002609 0.270148
-0.120404 0.002628 0.272158
-0.119543 0.002638 0.273123
-0.118916 0.002653 0.274643
-0.118653 0.002677 0.277039
-0.117614 0.002683 0.277650
-0.116852 0.002696 0.278930
-0.115684 0.002700 0.279252
-0.114835 0.002711 0.280354
-0.113073 0.002701 0.279222
-0.112085 0.002709 0.279991
-0.110065 0.002692 0.278167
-0.108800 0.002693 0.278226
-0.110043 0.002758 0.284773
-0.106075 0.002691 0.277826
-0.105252 0.002704 0.279041
-0.104106 0.002709 0.279420
-0.102855 0.002711 0.279520
-0.101888 0.002720 0.280401
-0.100740 0.002725 0.280797
-0.099656 0.002732 0.281382
-0.098726 0.002744 0.282423
-0.098626 0.002779 0.285894
-0.098228 0.002806 0.288586
-0.098174 0.002844 0.292373
-0.096670 0.002841 0.291884
-0.094238 0.002810 0.288543
-0.093008 0.002814 0.288841
-0.091709 0.002816 0.288928
-0.090385 0.002818 0.288939
-0.089012 0.002818 0.288793
-0.087997 0.002830 0.289823
-0.086495 0.002826 0.289259
-0.085058 0.002824 0.288897
-0.083939 0.002832 0.289626
-0.082299 0.002823 0.288553
-0.081260 0.002835 0.289591
-0.079469 0.002821 0.287937
-0.078161 0.002823 0.288016
-0.076502 0.002813 0.286784
-0.075345 0.002821 0.287428
-0.073964 0.002820 0.287227
-0.072823 0.002829 0.287973
-0.071596 0.002835 0.288408
-0.070346 0.002840 0.288769
-0.067029 0.002761 0.280497
-0.065544 0.002755 0.279722
-0.063675 0.002732 0.277251
-0.062446 0.002736 0.277527
-0.061215 0.002741 0.277816
-0.059878 0.002741 0.277627
-0.058446 0.002736 0.276990
-0.058181 0.002853 0.288534
-0.056785 0.002853 0.288315
-0.055408 0.002853 0.288196
-0.053682 0.002835 0.286213
-0.052499 0.002846 0.287112
-0.050981 0.002838 0.286184
-0.049469 0.002830 0.285253
-0.047931 0.002820 0.284118
-0.046496 0.002817 0.283566
-0.045315 0.002828 0.284577
-0.043937 0.002828 0.284388
-0.042223 0.002805 0.281954
-0.040690 0.002793 0.280627
-0.039284 0.002789 0.280121
-0.037966 0.002792 0.280234
-0.036068 0.002750 0.275942
-0.035252 0.002791 0.279923
-0.034264 0.002821 0.282807
-0.030219 0.002592 0.259676
-0.028943 0.002590 0.259380
-0.027553 0.002577 0.258008
-0.026337 0.002580 0.258230
-0.025121 0.002584 0.258481
-0.023876 0.002584 0.258458
-0.022638 0.002586 0.258526
-0.021466 0.002596 0.259410
-0.020321 0.002610 0.260775
-0.019079 0.002613 0.260993
-0.017869 0.002621 0.261733
-0.017113 0.002703 0.269762
-0.015360 0.002627 0.262110
-0.014097 0.002628 0.262211
0.001194 0.002667 0.265653
0.002486 0.002667 0.265644
0.003907 0.002758 0.274720
0.005258 0.002766 0.275521
0.006303 0.002642 0.263204
0.007440 0.002593 0.258261
0.008647 0.002578 0.256822
0.009904 0.002580 0.257027
0.011141 0.002577 0.256764
0.012390 0.002577 0.256799
0.013630 0.002575 0.256656
0.014902 0.002579 0.257105
0.016204 0.002587 0.257969
0.017483 0.002591 0.258371
0.018864 0.002608 0.260140
0.020309 0.002632 0.262527
0.021653 0.002640 0.263414
0.023822 0.002742 0.273680
0.025135 0.002740 0.273562
0.024914 0.002580 0.257603
0.026068 0.002570 0.256712
0.027387 0.002577 0.257467
0.028625 0.002576 0.257430
0.029877 0.002576 0.257526
0.031124 0.002575 0.257583
0.032398 0.002577 0.257859
0.033671 0.002579 0.258114
0.034963 0.002582 0.258503
0.036182 0.002579 0.258350
0.037424 0.002578 0.258373
0.039080 0.002605 0.261165
0.042068 0.002716 0.272422
0.043339 0.002713 0.272223
0.045070 0.002738 0.274850
0.046481 0.002743 0.275441
0.048025 0.002755 0.276773
0.049613 0.002769 0.278288
0.051059 0.002774 0.278952
0.052340 0.002770 0.278714
0.053647 0.002768 0.278631
0.054511 0.002744 0.276310
0.055437 0.002723 0.274409
0.056687 0.002720 0.274171
0.057441 0.002693 0.271606
0.058585 0.002685 0.270959
0.059806 0.002681 0.270692
0.060958 0.002674 0.270138
0.062434 0.002682 0.271018
0.063800 0.002684 0.271401
0.065031 0.002681 0.271205
0.066295 0.002679 0.271159
0.067631 0.002680 0.271410
0.068958 0.002681 0.271614
0.070191 0.002678 0.271455
0.071487 0.002677 0.271542
0.072762 0.002676 0.271549
0.074052 0.002675 0.271617
0.075304 0.002673 0.271547
0.076565 0.002671 0.271512
0.077734 0.002667 0.271157
0.079042 0.002667 0.271297
0.080212 0.002662 0.270966
0.081445 0.002660 0.270854
0.082631 0.002656 0.270593
0.083906 0.002655 0.270628
0.085240 0.002656 0.270850
0.086323 0.002649 0.270277
0.087689 0.002651 0.270594
0.089112 0.002655 0.271077
0.097539 0.002864 0.292553
0.098768 0.002859 0.292141
0.099939 0.002852 0.291572
0.101054 0.002844 0.290853
0.102371 0.002841 0.290725
0.103612 0.002837 0.290387
0.105026 0.002838 0.290531
0.106897 0.002850 0.291918
0.108016 0.002843 0.291238
0.109762 0.002851 0.292239
0.110682 0.002839 0.291041
0.111775 0.002831 0.290318
0.113623 0.002842 0.291545
0.114619 0.002832 0.290574
0.115854 0.002828 0.290224
0.117396 0.002832 0.290635
0.119442 0.002847 0.292262
0.120411 0.002837 0.291240
0.121596 0.002831 0.290753
0.123040 0.002832 0.290881
0.124530 0.002834 0.291107
0.125834 0.002832 0.290888
0.127144 0.002830 0.290680
0.128086 0.002820 0.289636
0.129549 0.002821 0.289769
0.131180 0.002826 0.290263
0.132451 0.002823 0.289948
0.134428 0.002835 0.291158
0.135683 0.002832 0.290784
0.137066 0.002831 0.290678
0.138574 0.002833 0.290825
0.139767 0.002829 0.290302
0.141646 0.002838 0.291186
0.142961 0.002836 0.290891
0.144378 0.002836 0.290793
0.145824 0.002836 0.290742
0.147324 0.002838 0.290783
0.148831 0.002839 0.290819
0.149809 0.002831 0.289815
0.151091 0.002828 0.289397
-0.141799 0.003859 0.267456
-0.140469 0.003858 0.267505
-0.139165 0.003857 0.267591
-0.138031 0.003861 0.267993
-0.136626 0.003858 0.267859
-0.135273 0.003856 0.267812
-0.134463 0.003869 0.268836
-0.133202 0.003870 0.268958
-0.132072 0.003874 0.269338
-0.131243 0.003888 0.270333
-0.130334 0.003899 0.271173
-0.129678 0.003918 0.272548
-0.128958 0.003936 0.273808
-0.127879 0.003942 0.274313
-0.120018 0.003984 0.277188
-0.118919 0.003991 0.277661
-0.117869 0.004000 0.278253
-0.117062 0.004017 0.279432
-0.115544 0.004011 0.278916
-0.114332 0.004014 0.279127
-0.112731 0.004004 0.278379
-0.111892 0.004022 0.279511
-0.110742 0.004028 0.279880
-0.110051 0.004051 0.281427
-0.108837 0.004056 0.281655
-0.107335 0.004049 0.281127
-0.106118 0.004054 0.281341
-0.104536 0.004044 0.280577
-0.103127 0.004041 0.280262
-0.101862 0.004043 0.280333
-0.100858 0.004056 0.281129
-0.099432 0.004053 0.280753
-0.098025 0.004049 0.280420
-0.098620 0.004130 0.285880
-0.096663 0.004222 0.291870
-0.092011 0.004077 0.281730
-0.092537 0.004161 0.287383
-0.091307 0.004167 0.287666
-0.089672 0.004155 0.286665
-0.087963 0.004138 0.285396
-0.087635 0.004188 0.288637
-0.086234 0.004186 0.288390
-0.084556 0.004171 0.287198
-0.083919 0.004208 0.289562
-0.082674 0.004214 0.289875
-0.081379 0.004219 0.290019
-0.079972 0.004217 0.289770
-0.078192 0.004196 0.288136
-0.076948 0.004203 0.288462
-0.075858 0.004219 0.289392
-0.071986 0.004078 0.279551
-0.072780 0.004200 0.287812
-0.071890 0.004229 0.289598
-0.070505 0.004229 0.289428
-0.067315 0.004118 0.281702
-0.065569 0.004093 0.279838
-0.064149 0.004088 0.279323
-0.062716 0.004082 0.278738
-0.061552 0.004093 0.279353
-0.060157 0.004089 0.278931
-0.060743 0.004223 0.287884
-0.059452 0.004229 0.288153
-0.057849 0.004213 0.286900
-0.056555 0.004219 0.287158
-0.055003 0.004206 0.286099
-0.053392 0.004187 0.284679
-0.051956 0.004182 0.284151
-0.050679 0.004189 0.284498
-0.049345 0.004192 0.284545
-0.047935 0.004188 0.284153
-0.046194 0.004155 0.281734
-0.044988 0.004169 0.282535
-0.044131 0.004217 0.285657
-0.042544 0.004196 0.284110
-0.040409 0.004118 0.278700
-0.038858 0.004096 0.277089
-0.037793 0.004126 0.278975
-0.035986 0.004074 0.275326
-0.035391 0.004160 0.281033
-0.034203 0.004181 0.282314
-0.030143 0.003838 0.259034
-0.028798 0.003825 0.258097
-0.027525 0.003822 0.257760
-0.026351 0.003833 0.258383
-0.025122 0.003836 0.258509
-0.023811 0.003826 0.257764
-0.022662 0.003843 0.258817
-0.021418 0.003845 0.258846
-0.020218 0.003855 0.259466
-0.019096 0.003883 0.261237
-0.017984 0.003916 0.263436
-0.017111 0.004011 0.269746
-0.015339 0.003894 0.261771
-0.014095 0.003901 0.262195
-0.000101 0.004094 0.274749
0.001182 0.003919 0.263030
0.002473 0.003938 0.264269
0.003906 0.004093 0.274703
0.005257 0.004105 0.275504
0.006260 0.003896 0.261443
0.007467 0.003862 0.259193
0.008696 0.003848 0.258271
0.009974 0.003857 0.258864
0.011181 0.003839 0.257690
0.012445 0.003842 0.257930
0.013703 0.003843 0.258035
0.014952 0.003842 0.257981
0.016186 0.003837 0.257691
0.017527 0.003856 0.259028
0.018836 0.003866 0.259762
0.020269 0.003899 0.262025
0.021658 0.003920 0.263474
0.023832 0.004072 0.273810
0.025146 0.004070 0.273692
0.026457 0.004067 0.273569
0.026119 0.003823 0.257221
0.027412 0.003829 0.257710
0.028808 0.003848 0.259084
0.029868 0.003823 0.257458
0.031181 0.003830 0.258063
0.032367 0.003823 0.257621
0.033652 0.003826 0.257979
0.035234 0.003863 0.260511
0.036155 0.003826 0.258163
0.037411 0.003827 0.258290
0.039190 0.003879 0.261910
0.040731 0.003905 0.263771
0.042050 0.003909 0.264136
0.043044 0.003883 0.262509
0.044094 0.003864 0.261306
0.044707 0.003808 0.257658
0.045724 0.003789 0.256483
0.046865 0.003781 0.256048
0.047937 0.003768 0.255278
0.049127 0.003764 0.255160
0.050366 0.003765 0.255303
0.051694 0.003771 0.255891
0.053016 0.003778 0.256424
0.054327 0.003783 0.256887
0.055813 0.003799 0.258142
0.057850 0.003852 0.261848
0.060372 0.003934 0.267551
0.062083 0.003961 0.269504
0.063678 0.003979 0.270886
0.065002 0.003980 0.271091
0.066296 0.003979 0.271170
0.067616 0.003980 0.271355
0.068923 0.003980 0.271484
0.070231 0.003980 0.271615
0.071496 0.003978 0.271580
0.072755 0.003975 0.271532
0.074037 0.003974 0.271568
0.075300 0.003971 0.271536
0.076492 0.003965 0.271260
0.077730 0.003962 0.271151
0.078967 0.003959 0.271044
0.080186 0.003954 0.270881
0.081457 0.003953 0.270899
0.082743 0.003952 0.270965
0.084000 0.003950 0.270936
0.085441 0.003956 0.271490
0.086454 0.003943 0.270690
0.087851 0.003947 0.271100
0.089210 0.003950 0.271380
0.097855 0.004270 0.293504
0.099087 0.004263 0.293090
0.100068 0.004245 0.291951
0.101082 0.004228 0.290936
0.102384 0.004225 0.290766
0.103748 0.004223 0.290771
0.105006 0.004218 0.290479
0.106511 0.004222 0.290867
0.107757 0.004216 0.290541
0.109018 0.004211 0.290262
0.110765 0.004225 0.291263
0.111754 0.004209 0.290265
0.113110 0.004208 0.290230
0.114766 0.004217 0.290950
0.115995 0.004211 0.290578
0.117225 0.004205 0.290211
0.119079 0.004222 0.291374
0.120117 0.004209 0.290532
0.121524 0.004209 0.290582
0.123035 0.004213 0.290869
0.124289 0.004208 0.290542
0.125542 0.004203 0.290212
0.126959 0.004204 0.290256
0.128373 0.004205 0.290283
0.129495 0.004196 0.289647
0.130865 0.004195 0.289564
0.132412 0.004200 0.289862
0.133757 0.004198 0.289704
0.135299 0.004202 0.289959
0.136752 0.004204 0.290010
0.138398 0.004211 0.290453
0.140280 0.004226 0.291365
0.141508 0.004220 0.290901
0.143043 0.004224 0.291056
0.144488 0.004225 0.291013
0.145886 0.004225 0.290863
0.147434 0.004229 0.290996
0.149118 0.004236 0.291376
0.150066 0.004223 0.290309
0.151149 0.004214 0.289504
-0.126229 0.006023 0.315330
-0.125207 0.006046 0.316442
-0.124007 0.006060 0.317120
-0.122830 0.006076 0.317869
-0.120972 0.006058 0.316849
-0.119579 0.006064 0.317033
-0.118370 0.006079 0.317713
-0.115637 0.006015 0.314265
-0.114173 0.006016 0.314218
-0.112642 0.006013 0.313981
-0.111228 0.006017 0.314067
-0.109340 0.005995 0.312796
-0.093561 0.005502 0.286483
-0.090734 0.005415 0.281790
-0.091298 0.005530 0.287646
-0.081370 0.005597 0.289998
-0.078319 0.005480 0.283790
-0.076997 0.005482 0.283745
-0.076135 0.005518 0.285426
-0.074908 0.005528 0.285775
-0.073573 0.005530 0.285727
-0.072772 0.005573 0.287791
-0.071159 0.005554 0.286666
-0.067312 0.005357 0.276332
-0.066067 0.005363 0.276490
-0.065386 0.005416 0.279067
-0.064861 0.005484 0.282434
-0.063609 0.005493 0.282719
-0.063214 0.005577 0.286908
-0.061935 0.005585 0.287187
-0.060839 0.005611 0.288352
-0.059148 0.005582 0.286694
-0.056647 0.005473 0.280948
-0.054776 0.005421 0.278140
-0.053568 0.005434 0.278649
-0.052549 0.005467 0.280198
-0.051194 0.005466 0.279998
-0.050022 0.005485 0.280825
-0.048941 0.005515 0.282233
-0.047613 0.005519 0.282262
-0.045974 0.005485 0.280406
-0.044644 0.005488 0.280389
-0.043304 0.005489 0.280321
-0.041834 0.005473 0.279384
-0.042344 0.005724 0.292056
-0.040813 0.005707 0.291046
-0.039452 0.005713 0.291233
-0.035701 0.005361 0.273157
-0.035390 0.005518 0.281046
-0.034256 0.005554 0.282768
-0.030213 0.005102 0.259645
-0.028767 0.005069 0.257833
-0.027464 0.005058 0.257202
-0.026260 0.005066 0.257500
-0.025038 0.005071 0.257661
-0.023852 0.005084 0.258232
-0.022627 0.005089 0.258429
-0.021435 0.005104 0.259068
-0.020162 0.005099 0.258756
-0.019093 0.005149 0.261214
-0.017925 0.005178 0.262592
-0.017109 0.005320 0.269723
-0.015431 0.005195 0.263345
-0.014160 0.005198 0.263417
-0.004131 0.005460 0.276355
-0.002782 0.005449 0.275779
-0.001444 0.005459 0.276264
-0.000101 0.005429 0.274726
0.001235 0.005429 0.274724
0.002446 0.005166 0.261396
0.003829 0.005322 0.269300
0.005202 0.005388 0.272630
0.006229 0.005141 0.260148
0.007461 0.005118 0.259014
0.008662 0.005084 0.257288
0.009948 0.005101 0.258196
0.011173 0.005088 0.257515
0.012417 0.005084 0.257365
0.013693 0.005093 0.257858
0.014976 0.005103 0.258405
0.016248 0.005108 0.258686
0.017567 0.005126 0.259640
0.018831 0.005126 0.259712
0.020294 0.005178 0.262357
0.021630 0.005192 0.263155
0.025143 0.005397 0.273669
0.025854 0.005271 0.267345
0.026513 0.005147 0.261116
0.027629 0.005119 0.259764
0.028876 0.005116 0.259708
0.030067 0.005104 0.259191
0.031289 0.005098 0.258969
0.032535 0.005097 0.258970
0.033825 0.005102 0.259318
0.035131 0.005109 0.259765
0.036429 0.005114 0.260132
0.037854 0.005136 0.261358
0.039498 0.005186 0.263983
0.041558 0.005285 0.269140
0.042831 0.005281 0.269054
0.043739 0.005234 0.266756
0.044572 0.005181 0.264149
0.044583 0.005037 0.256956
0.045771 0.005031 0.256756
0.046803 0.005009 0.255719
0.047873 0.004991 0.254946
0.049149 0.004996 0.255288
0.050427 0.005000 0.255625
0.051699 0.005004 0.255923
0.052967 0.005007 0.256198
0.054456 0.005030 0.257508
0.055848 0.005044 0.258317
0.058396 0.005158 0.264327
0.060383 0.005220 0.267608
0.062129 0.005259 0.269711
0.063487 0.005263 0.270082
0.064825 0.005266 0.270362
0.066273 0.005278 0.271085
0.067695 0.005287 0.271681
0.068940 0.005282 0.271558
0.070252 0.005282 0.271707
0.071598 0.005285 0.271979
0.072775 0.005276 0.271614
0.074003 0.005270 0.271452
0.075263 0.005267 0.271412
0.076412 0.005256 0.270982
0.077628 0.005250 0.270800
0.078847 0.005245 0.270641
0.080126 0.005244 0.270684
0.081413 0.005243 0.270758
0.082797 0.005248 0.271146
0.084050 0.005245 0.271102
0.085369 0.005246 0.271269
0.086661 0.005246 0.271345
0.087977 0.005246 0.271493
0.089381 0.005252 0.271905
0.097613 0.005654 0.292782
0.098842 0.005644 0.292370
0.099854 0.005622 0.291331
0.101139 0.005616 0.291105
0.103562 0.005596 0.290255
0.105299 0.005614 0.291292
0.106656 0.005612 0.291265
0.107786 0.005598 0.290623
0.109184 0.005599 0.290706
0.110503 0.005595 0.290576
0.111710 0.005585 0.290152
0.113369 0.005599 0.290896
0.114457 0.005584 0.290170
0.115746 0.005579 0.289956
0.117173 0.005581 0.290084
0.118489 0.005577 0.289932
0.119806 0.005574 0.289780
0.121605 0.005593 0.290776
0.123099 0.005597 0.291022
0.124229 0.005585 0.290402
0.125563 0.005582 0.290260
0.126896 0.005580 0.290112
0.128020 0.005568 0.289485
0.129462 0.005570 0.289573
0.130761 0.005566 0.289333
0.132188 0.005568 0.289369
0.134526 0.005607 0.291367
0.135817 0.005603 0.291068
0.137237 0.005603 0.291035
0.138757 0.005608 0.291203
0.140120 0.005606 0.291028
0.141553 0.005607 0.290988
0.143112 0.005613 0.291192
0.144636 0.005618 0.291308
0.145946 0.005614 0.290978
0.147540 0.005621 0.291200
0.149269 0.005633 0.291667
0.149980 0.005607 0.290137
0.151522 0.005612 0.290212
-0.126217 0.007509 0.315303
-0.125195 0.007537 0.316414
-0.123995 0.007555 0.317093
-0.122817 0.007575 0.317841
-0.120959 0.007552 0.316822
-0.119528 0.007556 0.316904
-0.118357 0.007577 0.317685
-0.116630 0.007563 0.316970
-0.116545 0.007655 0.320751
-0.114569 0.007625 0.319358
-0.113264 0.007638 0.319823
-0.109328 0.007473 0.312768
-0.079766 0.006957 0.289045
-0.078120 0.006933 0.287895
-0.076961 0.006952 0.288536
-0.074862 0.006885 0.285615
-0.072750 0.006815 0.282545
-0.071806 0.006853 0.283982
-0.071149 0.006921 0.286639
-0.067052 0.006650 0.275279
-0.065683 0.006645 0.274896
-0.066394 0.006854 0.283386
-0.065171 0.006867 0.283801
-0.063592 0.006843 0.282658
-0.061124 0.006721 0.277438
-0.059028 0.006634 0.273723
-0.057826 0.006647 0.274088
-0.056808 0.006681 0.275367
-0.055496 0.006682 0.275259
-0.054317 0.006699 0.275824
-0.053189 0.006724 0.276693
-0.052174 0.006765 0.278215
-0.050966 0.006781 0.278769
-0.049944 0.006825 0.280408
-0.048647 0.006832 0.280555
-0.046930 0.006779 0.278228
-0.045654 0.006788 0.278472
-0.044285 0.006783 0.278154
-0.042823 0.006764 0.277222
-0.043478 0.007088 0.290385
-0.041703 0.007025 0.287661
-0.039802 0.006935 0.283861
-0.038461 0.006940 0.283937
-0.037130 0.006948 0.284114
-0.035436 0.006885 0.281429
-0.034223 0.006915 0.282519
-0.030202 0.006355 0.259572
-0.028784 0.006320 0.258005
-0.027527 0.006317 0.257820
-0.026288 0.006319 0.257796
-0.025079 0.006329 0.258102
-0.023860 0.006337 0.258333
-0.022629 0.006342 0.258477
-0.021442 0.006361 0.259172
-0.020241 0.006379 0.259798
-0.019123 0.006426 0.261645
-0.017955 0.006462 0.263046
-0.017036 0.006600 0.268606
-0.015427 0.006472 0.263302
-0.004209 0.006932 0.281621
-0.002841 0.006933 0.281638
-0.001468 0.006914 0.280816
-0.000101 0.006784 0.275526
0.001239 0.006784 0.275523
0.002478 0.006521 0.264852
0.003837 0.006644 0.269824
0.005159 0.006657 0.270375
0.006278 0.006455 0.262182
0.007417 0.006339 0.257465
0.008674 0.006343 0.257630
0.009960 0.006364 0.258514
0.011180 0.006343 0.257690
0.012434 0.006343 0.257731
0.013699 0.006349 0.257996
0.014981 0.006360 0.258495
0.016254 0.006367 0.258806
0.017562 0.006385 0.259580
0.018850 0.006394 0.259986
0.020281 0.006447 0.262207
0.021648 0.006475 0.263387
0.025850 0.006567 0.267317
0.026632 0.006442 0.262305
0.027799 0.006417 0.261378
0.029096 0.006424 0.261708
0.030097 0.006367 0.259463
0.031381 0.006372 0.259750
0.032689 0.006381 0.260216
0.034028 0.006395 0.260888
0.035198 0.006378 0.260277
0.036795 0.006437 0.262758
0.038035 0.006431 0.262625
0.039274 0.006425 0.262497
0.040775 0.006462 0.264085
0.042215 0.006486 0.265203
0.043306 0.006458 0.264130
0.044219 0.006405 0.262070
0.044475 0.006262 0.256347
0.045466 0.006228 0.255058
0.046674 0.006225 0.255030
0.047859 0.006218 0.254883
0.049102 0.006220 0.255053
0.050425 0.006231 0.255625
0.051690 0.006235 0.255895
0.052880 0.006229 0.255787
0.054272 0.006247 0.256647
0.056355 0.006342 0.260672
0.058971 0.006492 0.266942
0.060713 0.006541 0.269081
0.062302 0.006572 0.270475
0.063682 0.006580 0.270927
0.064973 0.006578 0.270994
0.066405 0.006591 0.271637
0.067727 0.006592 0.271819
0.069050 0.006594 0.272003
0.070327 0.006591 0.272005
0.071623 0.006590 0.272083
0.072793 0.006577 0.271692
0.073960 0.006565 0.271305
0.075188 0.006558 0.271151
0.076399 0.006550 0.270946
0.077606 0.006542 0.270735
0.078871 0.006539 0.270729
0.080263 0.006547 0.271155
0.081476 0.006540 0.270976
0.082701 0.006534 0.270841
0.084056 0.006538 0.271130
0.085296 0.006534 0.271044
0.086572 0.006532 0.271074
0.088053 0.006545 0.271735
0.089283 0.006540 0.271614
0.097952 0.007072 0.293807
0.099186 0.007060 0.293393
0.099748 0.007000 0.291028
0.101054 0.006994 0.290866
0.102195 0.006977 0.290239
0.103275 0.006956 0.289453
0.104783 0.006964 0.289871
0.106463 0.006984 0.290742
0.107996 0.006993 0.291194
0.109262 0.006985 0.290917
0.110809 0.006994 0.291386
0.111789 0.006968 0.290361
0.113025 0.006959 0.290017
0.114701 0.006976 0.290790
0.116061 0.006974 0.290748
0.117137 0.006956 0.289997
0.118593 0.006960 0.290189
0.120164 0.006970 0.290646
0.121329 0.006957 0.290117
0.122897 0.006967 0.290543
0.123930 0.006947 0.289703
0.125415 0.006952 0.289919
0.126781 0.006951 0.289847
0.128278 0.006957 0.290067
0.129636 0.006955 0.289960
0.130815 0.006944 0.289452
0.132308 0.006949 0.289629
0.133660 0.006947 0.289488
0.135882 0.006990 0.291204
0.137382 0.006995 0.291340
0.139208 0.007016 0.292147
0.140541 0.007013 0.291899
0.141920 0.007011 0.291739
0.143383 0.007014 0.291737
0.144703 0.007010 0.291436
0.146238 0.007016 0.291553
0.147721 0.007019 0.291551
0.149512 0.007037 0.292135
0.150676 0.007026 0.291476
0.151566 0.007002 0.290289
-0.126203 0.008994 0.315270
-0.125180 0.009028 0.316381
-0.123980 0.009049 0.317060
-0.122802 0.009073 0.317808
-0.120944 0.009046 0.316788
-0.111836 0.008469 0.296516
-0.110898 0.008504 0.297668
-0.116615 0.009058 0.316936
-0.108903 0.008569 0.299726
-0.108126 0.008620 0.301408
-0.107244 0.008663 0.302831
-0.106299 0.008703 0.304111
-0.105328 0.008742 0.305349
-0.104409 0.008786 0.306772
-0.104303 0.008901 0.310656
-0.104046 0.009005 0.314188
-0.074147 0.008807 0.304424
-0.072724 0.008811 0.304384
-0.071299 0.008814 0.304338
-0.064364 0.008122 0.280303
-0.062776 0.008090 0.279049
-0.060819 0.008008 0.276070
-0.059115 0.007957 0.274142
-0.057719 0.007945 0.273597
-0.056562 0.007967 0.274193
-0.055258 0.007968 0.274099
-0.053978 0.007973 0.274121
-0.052734 0.007984 0.274347
-0.051507 0.007997 0.274681
-0.050240 0.008006 0.274820
-0.048997 0.008018 0.275111
-0.047735 0.008028 0.275316
-0.046488 0.008041 0.275632
-0.045181 0.008045 0.275610
-0.043934 0.008059 0.275969
-0.044218 0.008364 0.286279
-0.042448 0.008287 0.283530
-0.040996 0.008270 0.282809
-0.039503 0.008243 0.281753
