ply
format ascii 1.0
element vertex 1744
property float x
property float y
property float z
end_header
-0.043472 0.034603 0.233093
-0.042958 0.035091 0.236288
-0.042424 0.035590 0.239544
-0.041735 0.035982 0.242090
-0.040734 0.036121 0.242923
-0.040378 0.036856 0.247767
-0.039950 0.037567 0.252454
-0.039690 0.041046 0.275517
-0.038322 0.040995 0.275072
-0.037040 0.041035 0.275241
-0.035899 0.041240 0.276521
-0.034546 0.041208 0.276211
-0.032983 0.040913 0.274142
-0.031372 0.040532 0.271502
-0.030898 0.041650 0.278901
-0.029425 0.041462 0.277558
-0.028079 0.041445 0.277357
-0.025369 0.039311 0.263002
-0.023983 0.039113 0.261600
-0.022662 0.039005 0.260807
-0.021432 0.039049 0.261036
-0.020109 0.038921 0.260112
-0.018963 0.039140 0.261519
-0.017976 0.039741 0.265471
-0.016394 0.039019 0.260591
-0.015512 0.039983 0.266975
-0.014542 0.040872 0.272862
-0.012581 0.038876 0.259488
-0.011271 0.038674 0.258097
-0.010020 0.038649 0.257891
-0.008782 0.038677 0.258039
-0.007547 0.038725 0.258328
-0.006329 0.038897 0.259447
-0.005090 0.039002 0.260121
-0.003813 0.038780 0.258617
-0.002601 0.039327 0.262241
-0.001334 0.039299 0.262042
-0.000069 0.039513 0.263449
0.001203 0.039514 0.263452
0.002462 0.039307 0.262064
0.003724 0.039273 0.261832
0.019067 0.039617 0.264351
0.020333 0.039596 0.264252
0.022105 0.040504 0.270359
0.023116 0.039996 0.267011
0.023871 0.039121 0.261219
0.025313 0.039405 0.263163
0.026486 0.039261 0.262256
0.027649 0.039116 0.261348
0.028685 0.038812 0.259375
0.029962 0.038846 0.259664
0.031246 0.038886 0.259991
0.032640 0.039054 0.261181
0.034011 0.039184 0.262118
0.035418 0.039344 0.263256
0.036757 0.039419 0.263834
0.038114 0.039508 0.264508
0.039537 0.039658 0.265586
0.040944 0.039783 0.266504
0.042639 0.040171 0.269185
0.043609 0.039874 0.267277
0.043371 0.038520 0.258283
0.043950 0.037947 0.254523
0.045164 0.037940 0.254552
0.046420 0.037966 0.254811
0.047503 0.037853 0.254139
0.048738 0.037864 0.254301
0.050024 0.037913 0.254715
0.051225 0.037896 0.254688
0.052546 0.037968 0.255256
0.053869 0.038037 0.255807
0.055620 0.038398 0.258327
0.057540 0.038858 0.261511
0.059931 0.039610 0.266663
0.061633 0.039885 0.268601
0.063194 0.040058 0.269862
0.064595 0.040125 0.270407
0.066028 0.040209 0.271064
0.067382 0.040243 0.271381
0.068640 0.040219 0.271310
0.069923 0.040210 0.271341
0.071251 0.040227 0.271542
0.072367 0.040125 0.270945
0.073409 0.039987 0.270098
0.074193 0.039716 0.268347
0.074953 0.039441 0.266572
0.075188 0.038903 0.263016
0.075699 0.038524 0.260529
0.076731 0.038418 0.259882
0.077617 0.038243 0.258771
0.078762 0.038200 0.258545
0.079965 0.038185 0.258511
0.081171 0.038171 0.258484
0.082604 0.038264 0.259173
0.083872 0.038279 0.259329
0.085193 0.038317 0.259642
0.096030 0.042572 0.288533
0.097252 0.042505 0.288133
0.099096 0.042708 0.289558
0.100708 0.042806 0.290271
0.101637 0.042615 0.289022
0.103599 0.042857 0.290699
0.104543 0.042677 0.289509
0.106118 0.042756 0.290072
0.107414 0.042721 0.289862
0.108691 0.042680 0.289602
0.110218 0.042737 0.290000
0.111464 0.042685 0.289653
0.112928 0.042717 0.289869
0.114649 0.042844 0.290725
0.115719 0.042727 0.289921
0.117017 0.042696 0.289697
0.118511 0.042737 0.289948
0.120295 0.042880 0.290888
0.121726 0.042895 0.290952
0.123129 0.042900 0.290943
0.124419 0.042867 0.290661
0.125894 0.042896 0.290801
0.127339 0.042916 0.290862
0.128658 0.042892 0.290624
0.130160 0.042929 0.290792
0.131663 0.042966 0.290947
0.133165 0.043002 0.291083
0.134661 0.043035 0.291194
0.136112 0.043053 0.291193
0.137592 0.043080 0.291239
0.139022 0.043091 0.291167
0.141625 0.043461 0.293511
0.142856 0.043407 0.292981
0.143851 0.043283 0.291966
0.146031 0.043515 0.293335
0.146939 0.043366 0.292132
0.148256 0.043340 0.291740
0.150221 0.043503 0.292602
0.151877 0.043573 0.292831
0.152900 0.043462 0.291828
-0.045868 0.013147 0.086217
-0.045614 0.013192 0.086582
-0.044744 0.016316 0.108029
-0.044307 0.016342 0.108205
-0.044095 0.016453 0.108939
-0.043641 0.016475 0.109080
-0.042545 0.016252 0.107602
-0.041894 0.016195 0.107223
-0.040972 0.016032 0.106131
-0.040801 0.016162 0.106982
-0.042444 0.017022 0.112665
-0.042379 0.017211 0.113900
-0.041775 0.017183 0.113696
-0.041306 0.017210 0.113858
-0.041175 0.017381 0.114968
-0.040735 0.017424 0.115230
-0.041066 0.017803 0.117708
-0.040432 0.017768 0.117448
-0.040333 0.017970 0.118756
-0.039757 0.017962 0.118676
-0.044416 0.020353 0.134439
-0.043853 0.020386 0.134619
-0.043738 0.020631 0.136196
-0.043729 0.020934 0.138157
-0.043428 0.021105 0.139237
-0.044699 0.022056 0.145467
-0.044897 0.022499 0.148340
-0.044678 0.022744 0.149906
-0.044418 0.022976 0.151380
-0.044835 0.023572 0.155248
-0.044699 0.023891 0.157295
-0.045324 0.024635 0.162133
-0.045512 0.025163 0.165544
-0.045445 0.025565 0.168129
-0.045454 0.026027 0.171095
-0.045860 0.026736 0.175688
-0.045967 0.027293 0.179279
-0.045860 0.027743 0.182160
-0.045474 0.028037 0.184018
-0.045437 0.028562 0.187389
-0.045762 0.029341 0.192418
-0.046192 0.030220 0.198102
-0.046296 0.030918 0.202592
-0.045983 0.031361 0.205408
-0.045441 0.031664 0.207309
-0.045181 0.032181 0.210606
-0.044781 0.032620 0.213385
-0.044446 0.033127 0.216615
-0.044148 0.033687 0.220185
-0.044067 0.034444 0.225038
-0.043925 0.035189 0.229813
-0.043435 0.035687 0.232969
-0.042821 0.036107 0.235613
-0.042252 0.036588 0.238656
-0.041287 0.036743 0.239574
-0.040805 0.037350 0.243432
-0.039802 0.037501 0.244320
-0.044132 0.042837 0.278982
-0.042346 0.042386 0.275935
-0.040714 0.042063 0.273733
-0.039648 0.042324 0.275330
-0.038188 0.042168 0.274218
-0.036870 0.042164 0.274092
-0.035786 0.042436 0.275761
-0.034518 0.042502 0.276101
-0.032330 0.041396 0.268828
-0.031337 0.041793 0.271315
-0.028355 0.039455 0.256054
-0.027182 0.039537 0.256512
-0.025915 0.039484 0.256092
-0.024757 0.039600 0.256771
-0.023536 0.039622 0.256840
-0.022362 0.039730 0.257470
-0.021111 0.039706 0.257249
-0.019937 0.039834 0.258012
-0.018880 0.040227 0.260497
-0.017954 0.040975 0.265285
-0.016326 0.040113 0.259650
-0.015715 0.041814 0.270605
-0.014418 0.041833 0.270675
-0.012468 0.039773 0.257302
-0.011271 0.039927 0.258253
-0.010027 0.039928 0.258224
-0.008760 0.039829 0.257543
-0.007531 0.039896 0.257946
-0.006295 0.039945 0.258233
-0.005061 0.040037 0.258800
-0.003785 0.039746 0.256900
-0.002553 0.039870 0.257675
-0.001318 0.040128 0.259328
-0.000068 0.040774 0.263488
0.001219 0.041292 0.266826
0.002494 0.041068 0.265375
0.003775 0.041066 0.265360
0.019688 0.042218 0.273032
0.020520 0.041243 0.266769
0.022053 0.041708 0.269816
0.023112 0.041273 0.267048
0.024268 0.041049 0.265647
0.025474 0.040928 0.264915
0.026513 0.040564 0.262610
0.027826 0.040631 0.263099
0.028862 0.040306 0.261054
0.029981 0.040120 0.259906
0.031348 0.040266 0.260921
0.032720 0.040408 0.261905
0.033997 0.040427 0.262090
0.035409 0.040597 0.263268
0.036784 0.040716 0.264107
0.038016 0.040674 0.263908
0.039383 0.040774 0.264633
0.041135 0.041253 0.267824
0.042596 0.041421 0.268993
0.043481 0.041035 0.266567
0.043361 0.039750 0.258299
0.043997 0.039210 0.254871
0.045353 0.039324 0.255690
0.046417 0.039184 0.254866
0.047717 0.039246 0.255354
0.048938 0.039242 0.255411
0.050189 0.039262 0.255621
0.051483 0.039312 0.256038
0.052741 0.039334 0.256265
0.053958 0.039325 0.256292
0.055549 0.039583 0.258061
0.057401 0.040011 0.260941
0.059991 0.040925 0.266989
0.061617 0.041156 0.268590
0.063070 0.041265 0.269391
0.064566 0.041398 0.270345
0.066031 0.041504 0.271133
0.067428 0.041565 0.271621
0.068717 0.041559 0.271667
0.070044 0.041575 0.271860
0.071575 0.041709 0.272826
0.072728 0.041623 0.272345
0.073387 0.041262 0.270065
0.074592 0.041214 0.269836
0.075304 0.040901 0.267864
0.075357 0.040246 0.263650
0.075895 0.039867 0.261241
0.077050 0.039819 0.260999
0.077979 0.039658 0.260014
0.079227 0.039661 0.260105
0.080488 0.039671 0.260231
0.081927 0.039767 0.260922
0.083285 0.039821 0.261339
0.084321 0.039722 0.260743
0.085890 0.039873 0.261790
0.095886 0.043876 0.288126
0.097108 0.043807 0.287727
0.099495 0.044259 0.290743
0.100019 0.043881 0.288304
0.101964 0.044128 0.289967
0.102971 0.043968 0.288951
0.104803 0.044160 0.290240
0.105963 0.044067 0.289658
0.107386 0.044084 0.289792
0.108761 0.044082 0.289793
0.110339 0.044161 0.290322
0.111587 0.044107 0.289974
0.113001 0.044120 0.290056
0.114541 0.044181 0.290447
0.115772 0.044122 0.290049
0.116994 0.044062 0.289630
0.118382 0.044064 0.289621
0.119840 0.044093 0.289774
0.121148 0.044066 0.289556
0.122558 0.044076 0.289577
0.124176 0.044160 0.290072
0.125778 0.044236 0.290511
0.127246 0.044265 0.290624
0.128517 0.044224 0.290277
0.130119 0.044297 0.290670
0.131615 0.044333 0.290807
0.133206 0.044400 0.291138
0.134692 0.044430 0.291221
0.136040 0.044416 0.290996
0.137581 0.044463 0.291171
0.138991 0.044468 0.291054
0.140451 0.044488 0.291028
0.141901 0.044505 0.290969
0.144805 0.044973 0.293844
0.145940 0.044888 0.293093
0.147049 0.044796 0.292288
0.148750 0.044885 0.292645
0.149945 0.044821 0.291994
0.151544 0.044877 0.292115
0.152682 0.044797 0.291335
-0.045650 0.013493 0.085785
-0.045648 0.013614 0.086627
-0.043657 0.016417 0.105403
-0.044444 0.016904 0.108537
-0.043915 0.016897 0.108492
-0.043301 0.016856 0.108232
-0.042508 0.016745 0.107510
-0.042127 0.016794 0.107821
-0.041741 0.016842 0.108126
-0.040055 0.016362 0.105030
-0.040122 0.016593 0.106507
-0.042351 0.017737 0.113830
-0.041833 0.017744 0.113861
-0.041711 0.017922 0.114983
-0.039920 0.017377 0.111472
-0.041283 0.018210 0.116790
-0.040041 0.018396 0.117909
-0.040117 0.018691 0.119766
-0.044065 0.020823 0.133394
-0.043506 0.020856 0.133572
-0.043371 0.021097 0.135075
-0.043244 0.021348 0.136644
-0.043221 0.021660 0.138596
-0.045702 0.023255 0.148756
-0.045071 0.023292 0.148943
-0.044824 0.023531 0.150424
-0.044557 0.023767 0.151882
-0.044639 0.024201 0.154599
-0.044879 0.024736 0.157960
-0.045067 0.025260 0.161246
-0.045291 0.025822 0.164774
-0.045360 0.026314 0.167853
-0.045423 0.026821 0.171016
-0.045602 0.027415 0.174740
-0.045578 0.027907 0.177807
-0.045305 0.028262 0.179999
-0.045145 0.028703 0.182733
-0.045240 0.029326 0.186625
-0.045472 0.030065 0.191249
-0.046016 0.031045 0.197401
-0.045972 0.031660 0.201229
-0.045755 0.032180 0.204451
-0.045177 0.032463 0.206161
-0.044857 0.032948 0.209156
-0.044619 0.033516 0.212678
-0.044368 0.034101 0.216302
-0.044288 0.034849 0.220954
-0.044195 0.035623 0.225766
-0.043927 0.036289 0.229898
-0.043344 0.036724 0.232560
-0.042794 0.037210 0.235542
-0.042225 0.037706 0.238586
-0.041400 0.037995 0.240317
-0.040389 0.038124 0.241039
-0.045368 0.044080 0.278590
-0.044085 0.044128 0.278789
-0.041813 0.043159 0.272564
-0.040468 0.043116 0.272190
-0.039064 0.043004 0.271384
-0.038363 0.043684 0.275581
-0.036756 0.043347 0.273356
-0.035254 0.043111 0.271773
-0.033945 0.043103 0.271631
-0.031704 0.041864 0.263736
-0.030381 0.041784 0.263152
-0.029009 0.041626 0.262075
-0.027534 0.041301 0.259949
-0.026238 0.041226 0.259403
-0.024949 0.041155 0.258878
-0.023703 0.041151 0.258783
-0.022440 0.041115 0.258491
-0.021268 0.041252 0.259284
-0.019963 0.041132 0.258471
-0.018794 0.041295 0.259436
-0.017917 0.042169 0.264864
-0.016409 0.041578 0.261097
-0.015886 0.043593 0.273695
-0.014575 0.043612 0.273765
-0.012418 0.040854 0.256404
-0.011194 0.040894 0.256618
-0.009984 0.041003 0.257264
-0.008721 0.040894 0.256539
-0.007497 0.040962 0.256935
-0.006264 0.041000 0.257142
-0.005031 0.041059 0.257490
-0.003788 0.041045 0.257380
-0.002545 0.041015 0.257173
-0.001312 0.041257 0.258673
-0.000065 0.041537 0.260410
0.001213 0.042287 0.265108
0.002493 0.042312 0.265253
0.003968 0.044493 0.278922
0.005313 0.044489 0.278901
0.006648 0.044413 0.278426
0.007974 0.044319 0.277843
0.009288 0.044190 0.277047
0.010602 0.044092 0.276449
0.011906 0.043981 0.275766
0.013217 0.043917 0.275390
0.014549 0.043927 0.275474
0.015842 0.043824 0.274857
0.017141 0.043756 0.274458
0.018446 0.043711 0.274210
0.019667 0.043486 0.272835
0.020589 0.042667 0.267740
0.022050 0.042998 0.269860
0.023338 0.042974 0.269752
0.024098 0.042030 0.263871
0.025333 0.041968 0.263532
0.026493 0.041793 0.262489
0.027631 0.041602 0.261339
0.028729 0.041370 0.259938
0.029906 0.041265 0.259341
0.031224 0.041356 0.259970
0.032565 0.041468 0.260743
0.033910 0.041579 0.261501
0.035395 0.041844 0.263242
0.036843 0.042052 0.264616
0.038116 0.042051 0.264683
0.039507 0.042175 0.265542
0.040725 0.042114 0.265235
0.042752 0.042868 0.270059
0.043626 0.042454 0.267533
0.043962 0.041556 0.261951
0.044300 0.040710 0.256698
0.045328 0.040525 0.255616
0.046641 0.040600 0.256165
0.047603 0.040373 0.254814
0.048921 0.040451 0.255390
0.050247 0.040532 0.255984
0.051632 0.040654 0.256843
0.052911 0.040690 0.257156
0.054304 0.040811 0.258003
0.056560 0.041559 0.262821
0.058309 0.041911 0.265135
0.060166 0.042323 0.267830
0.061775 0.042548 0.269342
0.063087 0.042562 0.269522
0.064505 0.042647 0.270144
0.065844 0.042676 0.270421
0.067236 0.042739 0.270902
0.068490 0.042713 0.270825
0.069858 0.042757 0.271192
0.071216 0.042794 0.271511
0.072436 0.042748 0.271300
0.073477 0.042600 0.270442
0.074315 0.042341 0.268879
0.075366 0.042210 0.268128
0.075537 0.041599 0.264319
0.076218 0.041284 0.262390
0.077128 0.041101 0.261301
0.078031 0.040921 0.260221
0.079356 0.040964 0.260560
0.080581 0.040955 0.260565
0.081930 0.041008 0.260963
0.083526 0.041181 0.262122
0.084591 0.041091 0.261606
0.086262 0.041294 0.262949
0.095015 0.044833 0.285534
0.096227 0.044763 0.285139
0.099048 0.045434 0.289457
0.100507 0.045470 0.289727
0.101653 0.045365 0.289097
0.103488 0.045566 0.290414
0.104362 0.045345 0.289031
0.106317 0.045593 0.290634
0.107498 0.045506 0.290103
0.108924 0.045524 0.290231
0.110266 0.045508 0.290133
0.111763 0.045554 0.290431
0.113060 0.045519 0.290204
0.114538 0.045557 0.290435
0.115762 0.045494 0.290017
0.117028 0.045449 0.289705
0.118402 0.045446 0.289658
0.119890 0.045486 0.289880
0.121298 0.045496 0.289899
0.122768 0.045528 0.290051
0.124675 0.045720 0.291215
0.125921 0.045668 0.290817
0.127407 0.045702 0.290963
0.128766 0.045691 0.290810
0.130039 0.045651 0.290458
0.131502 0.045676 0.290523
0.132892 0.045676 0.290413
0.134638 0.045798 0.291064
0.136182 0.045848 0.291256
0.137628 0.045866 0.291224
0.139052 0.045875 0.291131
0.140454 0.045877 0.290982
0.141833 0.045871 0.290772
0.143475 0.045950 0.291086
0.145490 0.046145 0.292126
0.146363 0.045978 0.290857
0.148200 0.046114 0.291494
0.149569 0.046103 0.291189
0.150856 0.046067 0.290713
0.152231 0.046058 0.290393
-0.045331 0.013805 0.085163
-0.045333 0.013929 0.086006
-0.044680 0.017310 0.107870
-0.044243 0.017337 0.108045
-0.043822 0.017371 0.108262
-0.043329 0.017378 0.108302
-0.042888 0.017406 0.108473
-0.039959 0.016412 0.102276
-0.040471 0.016824 0.104841
-0.039533 0.016637 0.103666
-0.039349 0.016766 0.104458
-0.041406 0.017866 0.111296
-0.040949 0.017895 0.111461
-0.040607 0.017975 0.111947
-0.039822 0.019115 0.118898
-0.044099 0.021470 0.133515
-0.043540 0.021504 0.133693
-0.043022 0.021561 0.134007
-0.042706 0.021721 0.134964
-0.042537 0.021962 0.136424
-0.044677 0.023421 0.145442
-0.044926 0.023920 0.148489
-0.044696 0.024174 0.150021
-0.044446 0.024426 0.151531
-0.044563 0.024891 0.154365
-0.045064 0.025590 0.158642
-0.045003 0.025987 0.161051
-0.044982 0.026422 0.163686
-0.045142 0.026980 0.167082
-0.045438 0.027642 0.171112
-0.045392 0.028115 0.173975
-0.045476 0.028687 0.177450
-0.045202 0.029052 0.179634
-0.045121 0.029556 0.182681
-0.045247 0.030219 0.186703
-0.045598 0.031062 0.191834
-0.045611 0.031703 0.195718
-0.045714 0.032436 0.200160
-0.045577 0.033025 0.203714
-0.045184 0.033451 0.206256
-0.044712 0.033836 0.208544
-0.044553 0.034480 0.212429
-0.044292 0.035074 0.215999
-0.044163 0.035803 0.220400
-0.044147 0.036661 0.225595
-0.043738 0.037227 0.228986
-0.043318 0.037814 0.232502
-0.042824 0.038364 0.235791
-0.042056 0.038693 0.237718
-0.040951 0.038721 0.237797
-0.041247 0.040112 0.246249
-0.040682 0.040724 0.249908
-0.044335 0.045723 0.280479
-0.043040 0.045771 0.280673
-0.041396 0.045440 0.278542
-0.040333 0.045745 0.280311
-0.038821 0.045546 0.278987
-0.036867 0.044794 0.274289
-0.035616 0.044873 0.274682
-0.034446 0.045065 0.275763
-0.031260 0.042528 0.260153
-0.030109 0.042664 0.260904
-0.028808 0.042591 0.260375
-0.027428 0.042389 0.259065
-0.026195 0.042406 0.259093
-0.024940 0.042386 0.258901
-0.023665 0.042330 0.258486
-0.022363 0.042218 0.257733
-0.021255 0.042478 0.259260
-0.019931 0.042312 0.258184
-0.018615 0.042144 0.257097
-0.017894 0.043394 0.264668
-0.016367 0.042730 0.260562
-0.016157 0.045683 0.278513
-0.014823 0.045703 0.278583
-0.012363 0.041911 0.255424
-0.011144 0.041952 0.255635
-0.009940 0.042067 0.256297
-0.008691 0.041994 0.255820
-0.007462 0.042016 0.255921
-0.006239 0.042086 0.256314
-0.005006 0.042108 0.256422
-0.003774 0.042152 0.256670
-0.002536 0.042134 0.256542
-0.001301 0.042184 0.256830
-0.000062 0.042343 0.257782
0.001210 0.043401 0.264213
0.002485 0.043409 0.264260
0.003943 0.045531 0.277174
0.005280 0.045528 0.277153
0.006592 0.045359 0.276126
0.007885 0.045135 0.274774
0.009178 0.044979 0.273830
0.010412 0.044603 0.271558
0.011652 0.044338 0.269963
0.013204 0.045193 0.275184
0.014534 0.045203 0.275269
0.015358 0.043765 0.266539
0.016643 0.043766 0.266572
0.018000 0.043940 0.267664
0.019301 0.043961 0.267830
0.020514 0.043793 0.266847
0.021942 0.044077 0.268620
0.023179 0.043968 0.267999
0.024145 0.043382 0.264474
0.025349 0.043262 0.263789
0.026332 0.042793 0.260982
0.027539 0.042715 0.260558
0.028568 0.042380 0.258567
0.029795 0.042353 0.258463
0.031087 0.042418 0.258917
0.032290 0.042360 0.258626
0.033663 0.042521 0.259675
0.035093 0.042741 0.261084
0.036309 0.042693 0.260862
0.037808 0.042970 0.262622
0.039443 0.043378 0.265192
0.041118 0.043805 0.267874
0.042635 0.044041 0.269400
0.043857 0.043967 0.269027
0.045089 0.043908 0.268745
0.045355 0.042938 0.262887
0.046517 0.042845 0.262397
0.047605 0.042691 0.261534
0.048473 0.042352 0.259541
0.049671 0.042311 0.259374
0.050930 0.042324 0.259532
0.052100 0.042262 0.259240
0.053462 0.042357 0.259904
0.054858 0.042473 0.260700
0.056588 0.042836 0.263015
0.058276 0.043153 0.265046
0.060261 0.043671 0.268319
0.061808 0.043857 0.269548
0.062943 0.043749 0.268970
0.064433 0.043886 0.269902
0.065894 0.044000 0.270685
0.067213 0.044015 0.270868
0.068473 0.043992 0.270811
0.069848 0.044043 0.271204
0.071140 0.044040 0.271269
0.072323 0.043971 0.270928
0.073546 0.043928 0.270743
0.074659 0.043822 0.270169
0.075720 0.043690 0.269430
0.076728 0.043532 0.268530
0.077451 0.043220 0.266675
0.078083 0.042868 0.264574
0.078948 0.042654 0.263316
0.080182 0.042641 0.263305
0.081247 0.042542 0.262751
0.082463 0.042522 0.262689
0.083855 0.042593 0.263183
0.085163 0.042620 0.263400
0.086842 0.042829 0.264741
0.097264 0.047281 0.292317
0.098505 0.047208 0.291913
0.099164 0.046862 0.289817
0.100530 0.046855 0.289814
0.101929 0.046864 0.289900
0.103017 0.046731 0.289107
0.104326 0.046700 0.288941
0.106346 0.046984 0.290723
0.107721 0.046979 0.290711
0.109004 0.046935 0.290448
0.110578 0.047016 0.290956
0.111736 0.046920 0.290360
0.113028 0.046882 0.290118
0.114439 0.046894 0.290179
0.115746 0.046863 0.289970
0.116992 0.046809 0.289606
0.118264 0.046765 0.289308
0.119759 0.046811 0.289548
0.120907 0.046721 0.288946
0.121892 0.046570 0.287961
0.124365 0.046985 0.290468
0.125992 0.047075 0.290953
0.127498 0.047118 0.291142
0.128712 0.047053 0.290656
0.129915 0.046986 0.290147
0.131325 0.046994 0.290093
0.133006 0.047098 0.290621
0.134209 0.047032 0.290092
0.135732 0.047079 0.290248
0.137317 0.047146 0.290514
0.138920 0.047217 0.290801
0.140334 0.047224 0.290677
0.142824 0.047588 0.292743
0.144426 0.047653 0.292953
0.145862 0.047662 0.292807
0.147338 0.047684 0.292725
0.148389 0.047569 0.291793
0.149638 0.047519 0.291245
0.151202 0.047569 0.291298
0.152340 0.047485 0.290517
-0.045324 0.014208 0.085127
-0.045226 0.014305 0.085781
-0.044157 0.017412 0.105400
-0.043730 0.017439 0.105574
-0.043985 0.017742 0.107413
-0.043469 0.017738 0.107390
-0.042767 0.017657 0.106898
-0.040050 0.016731 0.101294
-0.041504 0.017547 0.106231
-0.041451 0.017738 0.107382
-0.040730 0.017645 0.106808
-0.040603 0.017809 0.107794
-0.040489 0.017984 0.108838
-0.040155 0.018063 0.109307
-0.041898 0.019092 0.115515
-0.042153 0.020828 0.125873
-0.043868 0.021985 0.132831
-0.043311 0.022020 0.133008
-0.043002 0.022184 0.133963
-0.042394 0.022196 0.134000
-0.042958 0.022831 0.137796
-0.045243 0.024415 0.147310
-0.044618 0.024453 0.147494
-0.044302 0.024665 0.148722
-0.044206 0.025008 0.150743
-0.044418 0.025539 0.153891
-0.044944 0.026271 0.158251
-0.045223 0.026881 0.161869
-0.045437 0.027474 0.165378
-0.045489 0.027987 0.168403
-0.045275 0.028352 0.170538
-0.045257 0.028855 0.173498
-0.045090 0.029280 0.175986
-0.045102 0.029839 0.179282
-0.045080 0.030397 0.182562
-0.045521 0.031295 0.187884
-0.045716 0.032057 0.192380
-0.045515 0.032566 0.195361
-0.045477 0.033216 0.199179
-0.045431 0.033887 0.203122
-0.045062 0.034341 0.205761
-0.044519 0.034680 0.207708
-0.044234 0.035240 0.210977
-0.043815 0.035716 0.213745
-0.043747 0.036508 0.218399
-0.043850 0.037484 0.224149
-0.043887 0.038453 0.229850
-0.043651 0.039224 0.234369
-0.042874 0.039538 0.236154
-0.041580 0.039380 0.235114
-0.042626 0.041489 0.247614
-0.041276 0.041320 0.246511
-0.040333 0.041562 0.247861
-0.040202 0.042680 0.254434
-0.044372 0.048576 0.289475
-0.043435 0.049080 0.292377
-0.042013 0.049053 0.292108
-0.039834 0.048108 0.286383
-0.036860 0.046102 0.274351
-0.035932 0.046603 0.277236
-0.034952 0.047071 0.279928
-0.030835 0.043184 0.256730
-0.029621 0.043208 0.256794
-0.028392 0.043211 0.256732
-0.027190 0.043257 0.256934
-0.025984 0.043302 0.257128
-0.024771 0.043339 0.257273
-0.023555 0.043373 0.257407
-0.022352 0.043438 0.257728
-0.021123 0.043456 0.257768
-0.019982 0.043670 0.258978
-0.018759 0.043720 0.259213
-0.018297 0.045677 0.270761
-0.016637 0.044717 0.265014
-0.016136 0.046968 0.278300
-0.012362 0.043143 0.255542
-0.011133 0.043148 0.255531
-0.009926 0.043249 0.256092
-0.008705 0.043310 0.256418
-0.007465 0.043280 0.256210
-0.006234 0.043301 0.256304
-0.005006 0.043358 0.256616
-0.003778 0.043452 0.257151
-0.002540 0.043469 0.257233
-0.001302 0.043533 0.257598
-0.000061 0.043709 0.258622
0.001211 0.044623 0.264024
0.002497 0.044864 0.265443
0.005275 0.046808 0.276939
0.006586 0.046634 0.275914
0.007543 0.044436 0.262915
0.008759 0.044175 0.261383
0.010029 0.044218 0.261645
0.011208 0.043892 0.259736
0.012473 0.043938 0.260022
0.013810 0.044203 0.261618
0.015120 0.044347 0.262490
0.016436 0.044484 0.263332
0.017859 0.044869 0.265642
0.019228 0.045076 0.266902
0.020402 0.044830 0.265482
0.021893 0.045267 0.268110
0.023314 0.045519 0.269646
0.024124 0.044614 0.264335
0.025380 0.044583 0.264199
0.026190 0.043808 0.259657
0.027392 0.043731 0.259248
0.028517 0.043542 0.258184
0.029742 0.043515 0.258081
0.030929 0.043437 0.257677
0.032225 0.043513 0.258186
0.033481 0.043531 0.258356
0.034670 0.043462 0.258014
0.036071 0.043656 0.259229
0.037597 0.043983 0.261242
0.039205 0.044380 0.263675
0.040553 0.044469 0.264274
0.041852 0.044500 0.264532
0.043199 0.044578 0.265075
0.044654 0.044759 0.266231
0.045971 0.044797 0.266536
0.047234 0.044781 0.266519
0.048267 0.044553 0.265246
0.049608 0.044614 0.265692
0.052287 0.045846 0.273110
0.053458 0.045727 0.272486
0.053658 0.044802 0.267062
0.055023 0.044871 0.267558
0.056380 0.044931 0.267998
0.057657 0.044925 0.268052
0.059123 0.045064 0.268964
0.060556 0.045172 0.269696
0.061848 0.045172 0.269781
0.063137 0.045171 0.269860
0.064484 0.045210 0.270177
0.065842 0.045254 0.270530
0.067274 0.045347 0.271167
0.068597 0.045365 0.271357
0.069840 0.045330 0.271228
0.071072 0.045288 0.271063
0.072545 0.045400 0.271808
0.073763 0.045350 0.271588
0.074873 0.045237 0.270989
0.076076 0.045183 0.270739
0.077250 0.045114 0.270397
0.078065 0.044841 0.268830
0.078940 0.044610 0.267514
0.079677 0.044310 0.265783
0.080890 0.044280 0.265664
0.082066 0.044231 0.265430
0.083248 0.044187 0.265220
0.084530 0.044196 0.265330
0.085994 0.044298 0.265997
0.092480 0.046947 0.281953
0.093680 0.046875 0.281568
0.096252 0.047482 0.285257
0.099085 0.048199 0.289606
0.100370 0.048153 0.289367
0.101978 0.048262 0.290054
0.103069 0.048126 0.289263
0.104707 0.048245 0.290006
0.105943 0.048179 0.289627
0.107854 0.048418 0.291074
0.109003 0.048312 0.290449
0.110383 0.048311 0.290442
0.111791 0.048321 0.290501
0.113023 0.048256 0.290102
0.114407 0.048257 0.290090
0.115712 0.048224 0.289874
0.117024 0.048195 0.289673
0.118653 0.048296 0.290246
0.120098 0.048321 0.290350
0.121057 0.048151 0.289283
0.122378 0.048128 0.289087
0.124622 0.048464 0.291042
0.124716 0.047966 0.287978
0.125416 0.047709 0.286356
0.128486 0.048349 0.290112
0.129583 0.048242 0.289369
0.131132 0.048302 0.289627
0.132452 0.048279 0.289368
0.134521 0.048526 0.290722
0.135751 0.048467 0.290238
0.137266 0.048511 0.290355
0.138744 0.048541 0.290377
0.140165 0.048551 0.290267
0.141521 0.048538 0.290011
0.143060 0.048588 0.290116
0.144910 0.048741 0.290825
0.146702 0.048872 0.291389
0.148139 0.048883 0.291225
0.149572 0.048892 0.291037
0.150953 0.048885 0.290734
0.152186 0.048830 0.290136
-0.045609 0.014706 0.085636
-0.045331 0.014747 0.085957
-0.045134 0.014817 0.086433
-0.041388 0.016786 0.098788
-0.043259 0.017744 0.104434
-0.043569 0.018076 0.106396
-0.043357 0.018197 0.107111
-0.041996 0.017833 0.104970
-0.040259 0.017298 0.101823
-0.041419 0.018922 0.111344
-0.040961 0.018952 0.111508
-0.041867 0.019622 0.115437
-0.041504 0.019707 0.115921
-0.040730 0.019597 0.115254
-0.042249 0.020602 0.121144
-0.041745 0.020635 0.121313
-0.041167 0.020632 0.121266
-0.042119 0.021406 0.125788
-0.042821 0.022073 0.129677
-0.043388 0.022688 0.133262
-0.043008 0.022820 0.134000
-0.042200 0.022725 0.133404
-0.042057 0.022991 0.134926
-0.044675 0.024797 0.145484
-0.044057 0.024835 0.145666
-0.044352 0.025398 0.148919
-0.044541 0.025917 0.151914
-0.044583 0.026366 0.154495
-0.044746 0.026902 0.157585
-0.044823 0.027405 0.160475
-0.045115 0.028058 0.164241
-0.045364 0.028707 0.167982
-0.045229 0.029132 0.170406
-0.045045 0.029539 0.172727
-0.045012 0.030064 0.175728
-0.044958 0.030594 0.178757
-0.044804 0.031074 0.181492
-0.045216 0.031973 0.186677
-0.045774 0.033014 0.192678
-0.045918 0.033793 0.197146
-0.045626 0.034276 0.199891
-0.045338 0.034783 0.202766
-0.044999 0.035272 0.205535
-0.044577 0.035716 0.208042
-0.044507 0.036469 0.212345
-0.044162 0.037027 0.215506
-0.043803 0.037598 0.218748
-0.043683 0.038408 0.223373
-0.043514 0.039215 0.227974
-0.042971 0.039717 0.230803
-0.042011 0.039849 0.231481
-0.044216 0.043071 0.250107
-0.042423 0.042471 0.246527
-0.041363 0.042590 0.247125
-0.040523 0.042950 0.249122
-0.040202 0.043899 0.254532
-0.044459 0.050061 0.290155
-0.043337 0.050368 0.291835
-0.040709 0.048887 0.283156
-0.038949 0.048383 0.280139
-0.036941 0.047525 0.275076
-0.035985 0.048006 0.277767
-0.034870 0.048303 0.279399
-0.030945 0.044576 0.257758
-0.029774 0.044673 0.258238
-0.028553 0.044699 0.258313
-0.027295 0.044666 0.258047
-0.026053 0.044658 0.257927
-0.024851 0.044721 0.258223
-0.023615 0.044728 0.258192
-0.022351 0.044679 0.257843
-0.021118 0.044691 0.257848
-0.019923 0.044787 0.258345
-0.018675 0.044770 0.258185
-0.018273 0.046923 0.270549
-0.016743 0.046291 0.266850
-0.016033 0.048007 0.276686
-0.014680 0.047932 0.276207
-0.012281 0.044090 0.254024
-0.011119 0.044327 0.255348
-0.009916 0.044444 0.255984
-0.008688 0.044465 0.256070
-0.007445 0.044403 0.255680
-0.006231 0.044529 0.256377
-0.005002 0.044574 0.256610
-0.003788 0.044835 0.258094
-0.002534 0.044631 0.256902
-0.001299 0.044747 0.257550
-0.000059 0.044983 0.258899
0.001213 0.045905 0.264193
0.002483 0.045848 0.263858
0.003854 0.047067 0.270873
0.005150 0.046978 0.270357
0.006251 0.045507 0.261897
0.007602 0.046047 0.265008
0.008834 0.045814 0.263676
0.009994 0.045308 0.260778
0.011242 0.045276 0.260607
0.012499 0.045277 0.260634
0.013803 0.045436 0.261569
0.015182 0.045794 0.263653
0.016372 0.045568 0.262380
0.017925 0.046314 0.266707
0.019223 0.046345 0.266921
0.020367 0.046025 0.265117
0.022055 0.046898 0.270184
0.023529 0.047244 0.272218
0.024826 0.047217 0.272108
0.024843 0.044881 0.258694
0.025916 0.044583 0.257026
0.027163 0.044600 0.257171
0.028389 0.044581 0.257116
0.029590 0.044525 0.256851
0.030813 0.044506 0.256799
0.032096 0.044571 0.257234
0.033344 0.044586 0.257380
0.034565 0.044564 0.257317
0.035845 0.044617 0.257690
0.037346 0.044933 0.259579
0.039384 0.045853 0.264965
0.041111 0.046364 0.267991
0.042695 0.046688 0.269940
0.043896 0.046587 0.269432
0.045090 0.046483 0.268911
0.046686 0.046789 0.270759
0.048056 0.046858 0.271236
0.049470 0.046964 0.271935
0.050752 0.046943 0.271895
0.052234 0.047103 0.272906
0.053404 0.046981 0.272283
0.054656 0.046935 0.272101
0.055873 0.046862 0.271763
0.057045 0.046756 0.271231
0.058334 0.046747 0.271264
0.059245 0.046443 0.269584
0.060630 0.046515 0.270089
0.062020 0.046588 0.270596
0.063100 0.046430 0.269760
0.064416 0.046448 0.269949
0.065754 0.046481 0.270225
0.067062 0.046492 0.270369
0.068337 0.046480 0.270382
0.069667 0.046505 0.270606
0.071189 0.046656 0.271561
0.072546 0.046694 0.271862
0.074343 0.047009 0.273772
0.075098 0.046666 0.271849
0.076334 0.046628 0.271701
0.077585 0.046601 0.271612
0.078561 0.046411 0.270577
0.079747 0.046350 0.270288
0.080650 0.046129 0.269062
0.081992 0.046162 0.269316
0.083250 0.046148 0.269290
0.084534 0.046148 0.269346
0.086049 0.046272 0.270124
0.087684 0.046456 0.271248
0.092800 0.048452 0.282955
0.094006 0.048379 0.282569
0.097059 0.049245 0.287671
0.099114 0.049587 0.289709
0.100392 0.049536 0.289447
0.101818 0.049559 0.289611
0.103148 0.049536 0.289499
0.104266 0.049412 0.288796
0.106037 0.049597 0.289893
0.107489 0.049629 0.290094
0.108938 0.049660 0.290279
0.110312 0.049656 0.290253
0.111536 0.049585 0.289836
0.112885 0.049571 0.289741
0.114146 0.049519 0.289420
0.115604 0.049553 0.289592
0.117049 0.049580 0.289723
0.118216 0.049490 0.289160
0.119665 0.049519 0.289286
0.121048 0.049520 0.289240
0.123816 0.050082 0.292459
0.124860 0.049941 0.291570
0.125909 0.049805 0.290704
0.127409 0.049849 0.290875
0.128717 0.049817 0.290598
0.129800 0.049700 0.289813
0.131218 0.049712 0.289774
0.133153 0.049918 0.290855
0.134556 0.049922 0.290748
0.135834 0.049880 0.290364
0.137337 0.049920 0.290450
0.138688 0.049905 0.290202
0.140004 0.049878 0.289873
0.141511 0.049919 0.289927
0.143165 0.050010 0.290261
0.144899 0.050127 0.290730
0.146814 0.050304 0.291536
0.147986 0.050225 0.290844
0.149207 0.050164 0.290243
0.150656 0.050180 0.290076
0.152295 0.050258 0.290252
-0.045571 0.015101 0.085540
-0.045319 0.015153 0.085908
-0.044760 0.015102 0.085692
-0.041282 0.017208 0.098530
-0.041713 0.017585 0.100699
-0.043106 0.018381 0.105263
-0.042901 0.018505 0.105983
-0.040749 0.017784 0.101853
-0.041323 0.019650 0.112500
-0.040859 0.019681 0.112664
-0.040856 0.019938 0.114119
-0.039618 0.019592 0.112118
-0.039214 0.019654 0.112453
-0.038531 0.019575 0.111984
-0.042096 0.021683 0.124016
-0.042286 0.022087 0.126302
-0.042661 0.022601 0.129208
-0.042699 0.022948 0.131163
-0.042068 0.022941 0.131088
-0.041773 0.023120 0.132076
-0.042101 0.023653 0.135088
-0.043810 0.024992 0.142690
-0.044131 0.025567 0.145936
-0.044294 0.026069 0.148751
-0.044443 0.026578 0.151608
-0.044763 0.027207 0.155149
-0.045153 0.027900 0.159051
-0.044989 0.028270 0.161103
-0.045115 0.028837 0.164276
-0.045297 0.029460 0.167770
-0.045048 0.029821 0.169764
-0.045073 0.030379 0.172878
-0.045076 0.030942 0.176022
-0.044948 0.031436 0.178762
-0.044862 0.031977 0.181776
-0.044972 0.032684 0.185719
-0.045755 0.033917 0.192655
-0.045714 0.034576 0.196326
-0.045457 0.035097 0.199206
-0.045179 0.035623 0.202115
-0.044923 0.036190 0.205252
-0.044634 0.036755 0.208376
-0.044384 0.037379 0.211830
-0.044138 0.038034 0.215460
-0.043882 0.038712 0.219219
-0.043546 0.039351 0.222748
-0.043212 0.040024 0.226472
-0.042420 0.040296 0.227925
-0.043300 0.042212 0.238672
-0.042211 0.042261 0.238858
-0.042663 0.043897 0.248012
-0.041726 0.044158 0.249395
-0.040644 0.044275 0.249963
-0.039984 0.044873 0.253253
-0.044777 0.051819 0.292348
-0.042284 0.050510 0.284864
-0.039884 0.049228 0.277536
-0.039392 0.050293 0.283446
-0.037156 0.049130 0.276797
-0.036161 0.049580 0.279246
-0.034855 0.049624 0.279404
-0.030787 0.045581 0.256561
-0.029681 0.045770 0.257545
-0.028490 0.045840 0.257863
-0.027274 0.045872 0.257969
-0.026066 0.045922 0.258178
-0.024879 0.046017 0.258640
-0.023640 0.046021 0.258595
-0.022464 0.046153 0.259273
-0.021200 0.046112 0.258981
-0.019962 0.046124 0.258990
-0.018789 0.046297 0.259904
-0.018335 0.048395 0.271621
-0.016694 0.047439 0.266204
-0.016012 0.049277 0.276464
-0.014660 0.049200 0.275985
-0.012729 0.046973 0.263446
-0.011385 0.046657 0.261631
-0.010090 0.046487 0.260640
-0.008862 0.046622 0.261366
-0.007588 0.046525 0.260787
-0.006340 0.046575 0.261038
-0.005096 0.046688 0.261645
-0.003837 0.046691 0.261645
-0.002584 0.046813 0.262304
-0.001326 0.047010 0.263394
-0.000059 0.047737 0.267452
0.001224 0.047519 0.266225
0.002488 0.047172 0.264269
0.003851 0.048312 0.270654
0.005115 0.047932 0.268523
0.006208 0.046433 0.260132
0.007498 0.046661 0.261416
0.008728 0.046505 0.260550
0.009953 0.046365 0.259774
0.011188 0.046299 0.259422
0.012455 0.046363 0.259799
0.013735 0.046458 0.260349
0.015078 0.046734 0.261919
0.016341 0.046736 0.261962
0.017814 0.047298 0.265142
0.019147 0.047437 0.265952
0.020290 0.047117 0.264192
0.022219 0.048552 0.272283
0.023576 0.048648 0.272860
0.024876 0.048620 0.272749
0.024578 0.045629 0.256013
0.025842 0.045686 0.256380
0.027094 0.045716 0.256599
0.028265 0.045613 0.256074
0.029512 0.045637 0.256262
0.030732 0.045617 0.256206
0.032010 0.045682 0.256630
0.033244 0.045682 0.256691
0.034393 0.045569 0.256119
0.035748 0.045728 0.257077
0.037153 0.045937 0.258320
0.038944 0.046595 0.262084
0.040925 0.047431 0.266861
0.042478 0.047736 0.268649
0.043778 0.047747 0.268787
0.044882 0.047550 0.267754
0.046303 0.047690 0.268617
0.047612 0.047710 0.268808
0.048775 0.047586 0.268189
0.050062 0.047587 0.268277
0.051305 0.047547 0.268128
0.052467 0.047435 0.267580
0.053772 0.047455 0.267772
0.054931 0.047348 0.267253
0.056322 0.047442 0.267861
0.057469 0.047329 0.267309
0.058939 0.047483 0.268257
0.060451 0.047662 0.269356
0.061842 0.047741 0.269883
0.063158 0.047760 0.270071
0.064277 0.047632 0.269429
0.065623 0.047674 0.269744
0.066972 0.047716 0.270065
0.068326 0.047760 0.270393
0.069572 0.047729 0.270294
0.071133 0.047910 0.271396
0.072575 0.048006 0.272018
0.074316 0.048294 0.273721
0.075085 0.047950 0.271847
0.076336 0.047921 0.271752
0.077348 0.047745 0.270825
0.078349 0.047568 0.269886
0.079671 0.047589 0.270068
0.080860 0.047531 0.269800
0.081934 0.047408 0.269161
0.083450 0.047541 0.269970
0.084495 0.047405 0.269251
0.086125 0.047596 0.270391
0.087992 0.047911 0.272227
0.093269 0.050046 0.284406
0.094481 0.049970 0.284019
0.096580 0.050360 0.286270
0.099169 0.050989 0.289886
0.100511 0.050970 0.289807
0.101907 0.050977 0.289878
0.103179 0.050923 0.289595
0.104424 0.050858 0.289240
0.105807 0.050860 0.289268
0.107325 0.050927 0.289655
0.108709 0.050929 0.289667
0.110061 0.050916 0.289592
0.111667 0.051019 0.290170
0.112951 0.050975 0.289903
0.114643 0.051113 0.290670
0.115912 0.051062 0.290351
0.117122 0.050986 0.289887
0.118482 0.050976 0.289793
0.119705 0.050909 0.289362
0.121160 0.050940 0.289484
0.122297 0.050839 0.288846
0.123831 0.050902 0.289138
0.125550 0.051040 0.289841
0.127103 0.051108 0.290140
0.128625 0.051161 0.290351
0.129979 0.051148 0.290172
0.131094 0.051042 0.289456
0.132849 0.051184 0.290142
0.134511 0.051289 0.290599
0.135786 0.051245 0.290208
0.137046 0.051196 0.289777
0.138417 0.051189 0.289575
0.139932 0.051235 0.289659
0.141421 0.051270 0.289674
0.143484 0.051511 0.290834
0.145155 0.051608 0.291169
0.146678 0.051651 0.291186
0.147983 0.051616 0.290755
0.149481 0.051649 0.290689
0.150781 0.051614 0.290225
0.152024 0.051559 0.289639
-0.045761 0.015574 0.085869
-0.045415 0.015595 0.086066
-0.045094 0.015625 0.086307
-0.041754 0.017875 0.099652
-0.043916 0.019014 0.106012
-0.043412 0.019011 0.106008
-0.043517 0.019278 0.107504
-0.043079 0.019308 0.107675
-0.041390 0.020476 0.114137
-0.040649 0.020373 0.113549
-0.039512 0.020067 0.111825
-0.039044 0.020097 0.111975
-0.038367 0.020018 0.111518
-0.042136 0.022290 0.124147
-0.042168 0.022620 0.125964
-0.042026 0.022865 0.127300
-0.041933 0.023145 0.128828
-0.041811 0.023416 0.130305
-0.041599 0.023645 0.131544
-0.041388 0.023881 0.132820
-0.044563 0.026108 0.145168
-0.043946 0.026148 0.145349
-0.044572 0.026940 0.149710
-0.044331 0.027226 0.151252
-0.044476 0.027763 0.154184
-0.044634 0.028325 0.157256
-0.045087 0.029096 0.161486
-0.045039 0.029566 0.164037
-0.044991 0.030052 0.166676
-0.044816 0.030468 0.168928
-0.044949 0.031113 0.172444
-0.045045 0.031756 0.175943
-0.044799 0.032178 0.178216
-0.044819 0.032810 0.181653
-0.045435 0.033912 0.187683
-0.045852 0.034907 0.193116
-0.045534 0.035371 0.195613
-0.045314 0.035932 0.198639
-0.045018 0.036456 0.201459
-0.045011 0.037241 0.205722
-0.044691 0.037797 0.208710
-0.044460 0.038454 0.212262
-0.044052 0.038985 0.215111
-0.043632 0.039532 0.218043
-0.043318 0.040203 0.221661
-0.042862 0.040772 0.224717
-0.043896 0.042825 0.235940
-0.042823 0.042875 0.236128
-0.041898 0.043081 0.237176
-0.042795 0.045223 0.248877
-0.041566 0.045177 0.248535
-0.040654 0.045483 0.250126
-0.039928 0.046022 0.253000
-0.044723 0.053156 0.292116
-0.043020 0.052779 0.289944
-0.039983 0.050684 0.278343
-0.039639 0.051978 0.285351
-0.037350 0.050721 0.278362
-0.036014 0.050714 0.278235
-0.034714 0.050759 0.278392
-0.030768 0.046785 0.256521
-0.029575 0.046840 0.256745
-0.028414 0.046953 0.257288
-0.027177 0.046947 0.257181
-0.025977 0.047005 0.257428
-0.024794 0.047101 0.257888
-0.023598 0.047183 0.258268
-0.022407 0.047284 0.258756
-0.021191 0.047339 0.258999
-0.019979 0.047412 0.259339
-0.018793 0.047562 0.260103
-0.018232 0.049428 0.270246
-0.016861 0.049214 0.269023
-0.015656 0.049491 0.270486
-0.014355 0.049485 0.270409
-0.013010 0.049314 0.269428
-0.011701 0.049256 0.269068
-0.010398 0.049211 0.268786
-0.009072 0.049030 0.267761
-0.007769 0.048928 0.267175
-0.006471 0.048836 0.266640
-0.005180 0.048755 0.266176
-0.003890 0.048640 0.265525
-0.002612 0.048641 0.265510
-0.001335 0.048688 0.265752
-0.000057 0.048962 0.267230
0.001227 0.048856 0.266644
0.002494 0.048524 0.264822
0.003882 0.049986 0.272800
0.005182 0.049855 0.272081
0.006196 0.047578 0.259660
0.007457 0.047649 0.260052
0.008679 0.047484 0.259159
0.009862 0.047171 0.257464
0.011119 0.047247 0.257895
0.012372 0.047290 0.258144
0.013636 0.047362 0.258561
0.014917 0.047477 0.259209
0.016237 0.047686 0.260379
0.017575 0.047917 0.261667
0.018917 0.048126 0.262843
0.020276 0.048349 0.264092
0.021947 0.049247 0.269040
0.023786 0.050399 0.275373
0.025097 0.050370 0.275262
0.024593 0.046885 0.256259
0.025856 0.046939 0.256603
0.027093 0.046944 0.256679
0.028240 0.046799 0.255935
0.029519 0.046876 0.256408
0.030762 0.046891 0.256545
0.032002 0.046900 0.256654
0.033234 0.046898 0.256702
0.034408 0.046817 0.256317
0.035698 0.046894 0.256802
0.037009 0.046992 0.257402
0.038628 0.047461 0.260041
0.040521 0.048228 0.264315
0.041813 0.048255 0.264530
0.042883 0.048030 0.263372
0.044253 0.048146 0.264080
0.045494 0.048118 0.264001
0.046759 0.048117 0.264069
0.048081 0.048173 0.264452
0.049264 0.048090 0.264072
0.050535 0.048095 0.264180
0.051731 0.048030 0.263901
0.052998 0.048032 0.263990
0.054265 0.048035 0.264083
0.055384 0.047908 0.263466
0.056896 0.048120 0.264711
0.058644 0.048518 0.266980
0.060357 0.048871 0.269004
0.061857 0.049040 0.270013
0.063159 0.049048 0.270136
0.064350 0.048971 0.269795
0.065628 0.048963 0.269825
0.066957 0.048991 0.270059
0.068313 0.049038 0.270396
0.069545 0.048996 0.270239
0.070832 0.048993 0.270299
0.072332 0.049135 0.271157
0.073526 0.049069 0.270860
0.074578 0.048910 0.270058
0.075748 0.048834 0.269702
0.076856 0.048720 0.269142
0.078069 0.048676 0.268962
0.079263 0.048622 0.268724
0.080721 0.048728 0.269370
0.082019 0.048736 0.269473
0.083404 0.048795 0.269852
0.084754 0.048832 0.270106
0.086173 0.048907 0.270570
0.088412 0.049437 0.273551
0.092816 0.051146 0.283051
0.094024 0.051069 0.282667
0.098531 0.052762 0.292073
0.099090 0.052322 0.289673
0.100404 0.052288 0.289513
0.101805 0.052300 0.289601
0.103232 0.052324 0.289755
0.104576 0.052305 0.289668
0.106174 0.052413 0.290277
0.107441 0.052357 0.289969
0.108791 0.052341 0.289886
0.110068 0.052292 0.289607
0.111466 0.052301 0.289644
0.112719 0.052242 0.289301
0.114060 0.052224 0.289180
0.115788 0.052383 0.290026
0.117207 0.052399 0.290081
0.118542 0.052378 0.289919
0.120325 0.052552 0.290836
0.121706 0.052549 0.290763
0.123001 0.052510 0.290481
0.124467 0.052544 0.290592
0.125821 0.052530 0.290433
0.127195 0.052524 0.290312
0.128703 0.052573 0.290487
0.129858 0.052479 0.289859
0.131249 0.052481 0.289752
0.132746 0.052524 0.289867
0.134515 0.052674 0.290555
0.135762 0.052617 0.290099
0.136891 0.052517 0.289389
0.138500 0.052601 0.289685
0.139779 0.052559 0.289275
0.143346 0.053370 0.293545
0.144250 0.053183 0.292311
0.144900 0.052907 0.290579
0.146898 0.053123 0.291539
0.148385 0.053153 0.291458
0.150184 0.053292 0.291964
0.151272 0.053179 0.291075
0.152616 0.053157 0.290667
-0.045953 0.016051 0.086203
-0.045497 0.016034 0.086194
-0.043912 0.019293 0.104798
-0.043486 0.019323 0.104970
-0.043904 0.019732 0.107206
-0.043124 0.019607 0.106530
-0.042102 0.019367 0.105232
-0.040820 0.019000 0.103243
-0.042258 0.021180 0.115058
-0.041783 0.021213 0.115226
-0.041709 0.021454 0.116519
-0.040436 0.021076 0.114451
-0.042274 0.022332 0.121249
-0.042939 0.022993 0.124819
-0.042418 0.023029 0.124990
-0.042092 0.023173 0.125751
-0.041908 0.023401 0.126960
-0.041484 0.023499 0.127463
-0.041168 0.023663 0.128319
-0.040773 0.023785 0.128950
-0.041197 0.024396 0.132230
-0.044321 0.026649 0.144401
-0.043706 0.026689 0.144581
-0.043730 0.027127 0.146908
-0.043878 0.027657 0.149737
-0.044078 0.028238 0.152835
-0.044705 0.029116 0.157538
-0.044854 0.029707 0.160685
-0.044721 0.030129 0.162915
-0.044577 0.030558 0.165179
-0.044555 0.031088 0.167985
-0.044712 0.031764 0.171579
-0.044839 0.032442 0.175183
-0.044937 0.033126 0.178812
-0.044755 0.033625 0.181439
-0.044984 0.034458 0.185870
-0.045330 0.035417 0.190973
-0.045440 0.036226 0.195264
-0.045415 0.036959 0.199140
-0.045095 0.037479 0.201864
-0.045081 0.038280 0.206104
-0.044734 0.038828 0.208976
-0.044643 0.039629 0.213206
-0.044201 0.040147 0.215913
-0.043682 0.040618 0.218368
-0.043289 0.041233 0.221590
-0.044723 0.043662 0.234557
-0.043658 0.043713 0.234748
-0.042432 0.043602 0.234062
-0.041949 0.044268 0.237551
-0.043222 0.046877 0.251459
-0.041741 0.046561 0.249679
-0.041125 0.047221 0.253128
-0.040017 0.047338 0.253666
-0.042471 0.051809 0.277527
-0.042967 0.054101 0.289708
-0.040315 0.052451 0.280777
-0.039055 0.052560 0.281270
-0.037746 0.052609 0.281439
-0.036339 0.052520 0.280875
-0.035027 0.052566 0.281033
-0.030852 0.048148 0.257340
-0.029670 0.048228 0.257691
-0.028438 0.048232 0.257635
-0.027213 0.048247 0.257644
-0.025983 0.048254 0.257612
-0.024766 0.048288 0.257725
-0.023536 0.048299 0.257719
-0.022303 0.048305 0.257687
-0.021076 0.048325 0.257734
-0.019850 0.048348 0.257801
-0.018582 0.048269 0.257320
-0.018166 0.050548 0.269417
-0.016891 0.050603 0.269656
-0.015643 0.050755 0.270418
-0.014369 0.050840 0.270821
-0.013049 0.050768 0.270395
-0.011711 0.050599 0.269455
-0.010406 0.050549 0.269146
-0.009088 0.050418 0.268414
-0.007749 0.050101 0.266696
-0.006454 0.050005 0.266159
-0.005155 0.049813 0.265111
-0.003873 0.049728 0.264632
-0.002597 0.049681 0.264366
-0.001327 0.049740 0.264660
-0.000054 0.050277 0.267509
0.001229 0.050121 0.266665
0.002487 0.049619 0.263991
0.003905 0.051571 0.274370
0.005197 0.051285 0.272850
0.006221 0.049011 0.260753
0.007391 0.048453 0.257788
0.008655 0.048581 0.258480
0.009856 0.048373 0.257385
0.011102 0.048403 0.257557
0.012356 0.048459 0.257870
0.013613 0.048516 0.258193
0.014885 0.048610 0.258718
0.016156 0.048691 0.259172
0.017453 0.048829 0.259938
0.018907 0.049358 0.262784
0.020374 0.049854 0.265460
0.022198 0.051113 0.272203
0.023870 0.051902 0.276445
0.024586 0.048100 0.256276
0.025838 0.048136 0.256515
0.027076 0.048143 0.256602
0.028260 0.048058 0.256199
0.029512 0.048092 0.256430
0.030750 0.048100 0.256526
0.032010 0.048142 0.256807
0.033226 0.048116 0.256725
0.034461 0.048118 0.256795
0.035670 0.048085 0.256681
0.036936 0.048128 0.256974
0.038598 0.048668 0.259925
0.040629 0.049624 0.265101
0.041861 0.049577 0.264918
0.042922 0.049336 0.263698
0.043975 0.049098 0.262502
0.045311 0.049181 0.263018
0.046491 0.049097 0.262637
0.047645 0.048988 0.262128
0.048930 0.049017 0.262360
0.050195 0.049024 0.262475
0.051453 0.049025 0.262554
0.052905 0.049205 0.263596
0.054203 0.049238 0.263847
0.055360 0.049144 0.263420
0.056877 0.049366 0.264690
0.058400 0.049584 0.265938
0.060253 0.050066 0.268602
0.061784 0.050267 0.269755
0.063138 0.050318 0.270108
0.064382 0.050281 0.269989
0.065756 0.050345 0.270408
0.067082 0.050371 0.270623
0.068363 0.050362 0.270649
0.069513 0.050258 0.270167
0.070676 0.050169 0.269757
0.071745 0.050016 0.269006
0.072894 0.049924 0.268580
0.073991 0.049799 0.267977
0.074977 0.049606 0.267001
0.076370 0.049683 0.267483
0.077195 0.049395 0.265989
0.078498 0.049416 0.266165
0.079867 0.049478 0.266555
0.081446 0.049666 0.267623
0.082870 0.049756 0.268155
0.084746 0.050109 0.270108
0.086009 0.050095 0.270081
0.088111 0.050563 0.272646
0.090797 0.051347 0.276914
0.096409 0.053740 0.289860
0.097644 0.053660 0.289461
0.099168 0.053739 0.289918
0.100560 0.053744 0.289976
0.101871 0.053707 0.289798
0.103386 0.053777 0.290194
0.104589 0.053686 0.289713
0.105974 0.053688 0.289734
0.107299 0.053660 0.289586
0.108716 0.053679 0.289686
0.110269 0.053763 0.290131
0.111988 0.053925 0.290991
0.113384 0.053930 0.290996
0.114454 0.053781 0.290166
0.115858 0.053791 0.290188
0.117287 0.053812 0.290261
0.118504 0.053736 0.289804
0.119906 0.053745 0.289799
0.120949 0.053594 0.288927
0.122097 0.053493 0.288315
0.124642 0.053999 0.290968
0.125981 0.053977 0.290765
0.127320 0.053957 0.290559
0.128674 0.053942 0.290378
0.130018 0.053924 0.290169
0.131280 0.053872 0.289770
0.132932 0.053979 0.290220
0.134590 0.054087 0.290659
0.135974 0.054084 0.290492
0.137192 0.054015 0.289962
0.138526 0.053992 0.289670
0.140064 0.054049 0.289793
0.141582 0.054097 0.289857
0.143176 0.054173 0.290057
0.144782 0.054252 0.290258
0.146251 0.054278 0.290167
0.147962 0.054393 0.290535
0.149356 0.054390 0.290260
0.150535 0.054309 0.289556
0.152227 0.054414 0.289824
-0.045697 0.016370 0.085692
-0.045477 0.016438 0.086128
-0.045150 0.016468 0.086361
-0.043876 0.019996 0.105907
-0.043298 0.019958 0.105721
-0.043544 0.020305 0.107564
-0.041950 0.019791 0.104850
-0.041521 0.019822 0.105015
-0.039976 0.020290 0.107481
-0.040929 0.021039 0.111443
-0.042037 0.021889 0.115933
-0.041960 0.022136 0.117228
-0.042054 0.022481 0.119039
-0.042239 0.022885 0.121158
-0.042246 0.023202 0.122816
-0.042143 0.023466 0.124194
-0.041755 0.023577 0.124757
-0.041515 0.023775 0.125783
-0.041275 0.023980 0.126838
-0.041258 0.024322 0.128617
-0.040923 0.024484 0.129444
-0.041018 0.024912 0.131676
-0.041104 0.025348 0.133943
-0.042930 0.026887 0.142037
-0.043229 0.027504 0.145254
-0.043942 0.028407 0.149984
-0.044238 0.029066 0.153418
-0.044865 0.029969 0.158134
-0.044865 0.030476 0.160760
-0.044367 0.030657 0.161662
-0.044259 0.031117 0.164038
-0.044382 0.031760 0.167371
-0.044597 0.032494 0.171177
-0.044733 0.033195 0.174813
-0.044728 0.033817 0.178027
-0.044837 0.034550 0.181824
-0.044941 0.035308 0.185747
-0.045173 0.036199 0.190366
-0.045331 0.037066 0.194854
-0.045217 0.037742 0.198336
-0.045239 0.038562 0.202569
-0.044977 0.039171 0.205695
-0.045054 0.040109 0.210543
-0.044482 0.040498 0.212508
-0.043796 0.040799 0.214009
-0.043321 0.041315 0.216637
-0.045531 0.044481 0.233151
-0.044322 0.044380 0.232539
