ply
format ascii 1.0
element vertex 1678
property float x
property float y
property float z
end_header
-0.121217 -0.070034 0.226452
-0.119790 -0.069835 0.226133
-0.119085 -0.070059 0.227166
-0.118319 -0.070250 0.228083
-0.117193 -0.070230 0.228301
-0.116366 -0.070390 0.229093
-0.115589 -0.070583 0.229983
-0.114741 -0.070736 0.230733
-0.113910 -0.070903 0.231518
-0.113013 -0.071033 0.232170
-0.112126 -0.071170 0.232839
-0.111311 -0.071357 0.233661
-0.110354 -0.071456 0.234185
-0.109511 -0.071632 0.234952
-0.108582 -0.071754 0.235534
-0.107704 -0.071913 0.236230
-0.106948 -0.072158 0.237199
-0.105936 -0.072234 0.237605
-0.105119 -0.072445 0.238449
-0.104314 -0.072669 0.239328
-0.103422 -0.072838 0.240017
-0.102491 -0.072982 0.240620
-0.101660 -0.073201 0.241462
-0.100910 -0.073485 0.242510
-0.099829 -0.073532 0.242770
-0.099039 -0.073796 0.243741
-0.098192 -0.074024 0.244588
-0.097239 -0.074176 0.245177
-0.096368 -0.074395 0.245983
-0.095393 -0.074539 0.246533
-0.095481 -0.075527 0.249871
-0.095197 -0.076241 0.252301
-0.095728 -0.077635 0.256973
-0.095235 -0.078223 0.258976
-0.094722 -0.078810 0.260970
-0.093943 -0.079189 0.262271
-0.093780 -0.080104 0.265341
-0.093126 -0.080618 0.267080
-0.095237 -0.083573 0.276902
-0.094970 -0.084494 0.279982
-0.094745 -0.085479 0.283270
-0.092740 -0.084864 0.281250
-0.091603 -0.085036 0.281836
-0.092644 -0.087266 0.289235
-0.092077 -0.088024 0.291755
-0.091084 -0.088391 0.292975
-0.089553 -0.088241 0.292477
-0.088356 -0.088420 0.293064
-0.086849 -0.088290 0.292623
-0.085515 -0.088334 0.292757
-0.084088 -0.088281 0.292568
-0.082753 -0.088326 0.292698
-0.081472 -0.088432 0.293026
-0.085342 -0.094226 0.312201
-0.082699 -0.092908 0.307805
-0.081263 -0.092923 0.307824
-0.079761 -0.092862 0.307588
-0.078450 -0.093026 0.308096
-0.077471 -0.093596 0.309944
-0.075692 -0.093204 0.308607
-0.074292 -0.093272 0.308788
-0.072917 -0.093375 0.309084
-0.068779 -0.089871 0.297442
-0.065890 -0.087889 0.290837
-0.064510 -0.087877 0.290750
-0.063244 -0.088024 0.291190
-0.061984 -0.088187 0.291678
-0.060593 -0.088165 0.291557
-0.059307 -0.088298 0.291946
-0.057927 -0.088296 0.291889
-0.056580 -0.088345 0.291997
-0.055242 -0.088411 0.292162
-0.053800 -0.088309 0.291772
-0.052439 -0.088340 0.291819
-0.050981 -0.088203 0.291313
-0.049636 -0.088261 0.291452
-0.048244 -0.088236 0.291315
-0.046710 -0.087941 0.290288
-0.045385 -0.088034 0.290541
-0.044037 -0.088088 0.290664
-0.042623 -0.088010 0.290355
-0.041214 -0.087935 0.290054
-0.039695 -0.087614 0.288941
-0.039702 -0.090759 0.299259
-0.037605 -0.089148 0.293896
-0.035798 -0.088128 0.290482
-0.034379 -0.088021 0.290080
-0.032255 -0.086024 0.283450
-0.030486 -0.084839 0.279501
-0.028295 -0.082322 0.271165
-0.027211 -0.082940 0.273157
-0.025969 -0.083112 0.273681
-0.024359 -0.082064 0.270189
-0.022824 -0.081164 0.267187
-0.021355 -0.080409 0.264663
-0.020172 -0.080705 0.265602
-0.018613 -0.079432 0.261379
-0.018103 -0.082778 0.272355
-0.016833 -0.082894 0.272703
-0.015420 -0.082269 0.270613
-0.014165 -0.082449 0.271175
-0.012845 -0.082253 0.270502
-0.011433 -0.081355 0.267524
-0.010070 -0.080622 0.265088
-0.008874 -0.081216 0.267017
-0.007539 -0.080520 0.264709
-0.006250 -0.080136 0.263425
-0.005019 -0.080477 0.264528
-0.003757 -0.080412 0.264298
-0.002499 -0.080388 0.264204
-0.001244 -0.080495 0.264540
0.000015 -0.080532 0.264650
0.001278 -0.080751 0.265359
0.002559 -0.081330 0.267255
0.003863 -0.082007 0.269474
0.005130 -0.081758 0.268649
0.006489 -0.082778 0.271996
0.007807 -0.083026 0.272808
0.008631 -0.078695 0.258577
0.009857 -0.078656 0.258451
0.011135 -0.078987 0.259542
0.012337 -0.078774 0.258844
0.013568 -0.078767 0.258829
0.014832 -0.078931 0.259374
0.016086 -0.079027 0.259699
0.017360 -0.079197 0.260266
0.018687 -0.079570 0.261504
0.019943 -0.079611 0.261652
0.021242 -0.079813 0.262328
0.022868 -0.081151 0.266743
0.024011 -0.080723 0.265352
0.025337 -0.080923 0.266029
0.026622 -0.080980 0.266232
0.027657 -0.080303 0.264027
0.028881 -0.080213 0.263753
0.030002 -0.079854 0.262594
0.031198 -0.079716 0.262164
0.032416 -0.079641 0.261938
0.033647 -0.079604 0.261841
0.035011 -0.079873 0.262751
0.036417 -0.080214 0.263899
0.037790 -0.080463 0.264744
0.038766 -0.079878 0.262846
0.040267 -0.080379 0.264521
0.041666 -0.080651 0.265442
0.042897 -0.080591 0.265270
0.043900 -0.080118 0.263741
0.045255 -0.080295 0.264351
0.046352 -0.080018 0.263467
0.047289 -0.079487 0.261745
0.048534 -0.079486 0.261767
0.049984 -0.079814 0.262874
0.050889 -0.079276 0.261127
0.052223 -0.079416 0.261615
0.053447 -0.079387 0.261541
0.054593 -0.079244 0.261095
0.056026 -0.079517 0.262016
0.057536 -0.079884 0.263247
0.059215 -0.080465 0.265182
0.061025 -0.081195 0.267609
0.062687 -0.081704 0.269304
0.064081 -0.081848 0.269796
0.065643 -0.082199 0.270967
0.067227 -0.082562 0.272176
0.068447 -0.082473 0.271897
0.069817 -0.082565 0.272209
0.071140 -0.082598 0.272326
0.072466 -0.082634 0.272450
0.073758 -0.082632 0.272444
0.074958 -0.082526 0.272096
0.076135 -0.082400 0.271678
0.077555 -0.082536 0.272123
0.078594 -0.082270 0.271237
0.079724 -0.082106 0.270684
0.080965 -0.082059 0.270515
0.082021 -0.081829 0.269740
0.083491 -0.082012 0.270322
0.084867 -0.082100 0.270586
0.086894 -0.082805 0.272879
0.087881 -0.082512 0.271881
0.090549 -0.083784 0.276034
0.097399 -0.088833 0.292623
0.098675 -0.088729 0.292227
0.100407 -0.089031 0.293167
0.102007 -0.089208 0.293690
0.103469 -0.089263 0.293804
0.104801 -0.089205 0.293539
0.106086 -0.089109 0.293145
0.107523 -0.089142 0.293167
0.109025 -0.089227 0.293355
0.110359 -0.089174 0.293082
0.111757 -0.089173 0.292975
0.113184 -0.089195 0.292935
0.114565 -0.089181 0.292767
0.116045 -0.089243 0.292846
0.117622 -0.089378 0.293150
0.119273 -0.089564 0.293616
0.120523 -0.089449 0.293086
0.121924 -0.089447 0.292918
0.123508 -0.089577 0.293175
0.125051 -0.089676 0.293316
0.126593 -0.089771 0.293438
0.128140 -0.089868 0.293553
0.129617 -0.089914 0.293491
0.130997 -0.089893 0.293199
0.132537 -0.089980 0.293250
0.133856 -0.089917 0.292799
0.135235 -0.089895 0.292470
0.136786 -0.089987 0.292500
0.138471 -0.090165 0.292792
0.140148 -0.090333 0.293039
0.141795 -0.090479 0.293201
0.144037 -0.090997 0.294552
0.146284 -0.091509 0.295864
0.147200 -0.091186 0.294458
0.148816 -0.091299 0.294446
0.150813 -0.091640 0.295153
0.152347 -0.091697 0.294923
0.153614 -0.091593 0.294160
0.155302 -0.091740 0.294182
0.156935 -0.091852 0.294070
-0.122236 -0.068898 0.226182
-0.121307 -0.068987 0.226807
-0.120121 -0.068931 0.226939
-0.119164 -0.069007 0.227492
-0.118276 -0.069124 0.228170
-0.117264 -0.069171 0.228603
-0.116275 -0.069233 0.229072
-0.115509 -0.069429 0.229976
-0.114637 -0.069565 0.230673
-0.113813 -0.069733 0.231464
-0.113000 -0.069911 0.232280
-0.112129 -0.070057 0.232980
-0.111326 -0.070249 0.233821
-0.110411 -0.070373 0.234431
-0.109579 -0.070553 0.235216
-0.108707 -0.070711 0.235920
-0.107831 -0.070869 0.236618
-0.106959 -0.071034 0.237329
-0.106075 -0.071195 0.238018
-0.105311 -0.071440 0.238982
-0.104473 -0.071640 0.239787
-0.103737 -0.071915 0.240838
-0.102928 -0.072144 0.241729
-0.102060 -0.072338 0.242494
-0.101312 -0.072621 0.243554
-0.100381 -0.072780 0.244187
-0.099435 -0.072930 0.244788
-0.098640 -0.073196 0.245769
-0.097743 -0.073392 0.246510
-0.096724 -0.073500 0.246952
-0.095824 -0.073702 0.247701
-0.095339 -0.074232 0.249550
-0.096098 -0.075756 0.254736
-0.095300 -0.076076 0.255869
-0.094936 -0.076755 0.258204
-0.094329 -0.077253 0.259927
-0.094943 -0.078777 0.265097
-0.094027 -0.079056 0.266071
-0.093445 -0.079626 0.268022
-0.093096 -0.080413 0.270700
-0.093994 -0.082315 0.277126
-0.094299 -0.083743 0.281953
-0.092748 -0.083540 0.281287
-0.091295 -0.083421 0.280898
-0.090757 -0.084147 0.283348
-0.091283 -0.085896 0.289241
-0.090798 -0.086732 0.292055
-0.089552 -0.086856 0.292468
-0.088040 -0.086722 0.292007
-0.086747 -0.086803 0.292266
-0.085215 -0.086643 0.291714
-0.083992 -0.086798 0.292216
-0.082577 -0.086756 0.292054
-0.081187 -0.086739 0.291972
-0.079908 -0.086843 0.292294
-0.083260 -0.092072 0.309859
-0.081898 -0.092180 0.310190
-0.080674 -0.092452 0.311067
-0.079423 -0.092702 0.311870
-0.077670 -0.092365 0.310694
-0.075749 -0.091811 0.308786
-0.074462 -0.092019 0.309440
-0.073085 -0.092122 0.309738
-0.068259 -0.087792 0.295134
-0.065905 -0.086529 0.290840
-0.064693 -0.086743 0.291511
-0.063240 -0.086637 0.291103
-0.061867 -0.086638 0.291055
-0.060607 -0.086801 0.291549
-0.059271 -0.086860 0.291696
-0.057856 -0.086803 0.291450
-0.056470 -0.086789 0.291348
-0.055190 -0.086941 0.291803
-0.053777 -0.086885 0.291559
-0.052385 -0.086862 0.291426
-0.051060 -0.086952 0.291672
-0.049614 -0.086834 0.291220
-0.048219 -0.086803 0.291059
-0.046899 -0.086909 0.291358
-0.045493 -0.086858 0.291130
-0.044089 -0.086805 0.290898
-0.042751 -0.086885 0.291110
-0.041351 -0.086842 0.290910
-0.039924 -0.086734 0.290494
-0.039706 -0.089339 0.299165
-0.037695 -0.087955 0.294477
-0.035851 -0.086870 0.290791
-0.034552 -0.087069 0.291406
-0.032406 -0.085064 0.284646
-0.030486 -0.083503 0.279374
-0.028467 -0.081516 0.272681
-0.027330 -0.081989 0.274217
-0.025950 -0.081740 0.273342
-0.024476 -0.081155 0.271345
-0.023093 -0.080825 0.270201
-0.021859 -0.081008 0.270773
-0.020601 -0.081116 0.271094
-0.019303 -0.081073 0.270916
-0.018087 -0.081395 0.271955
-0.016753 -0.081192 0.271243
-0.015403 -0.080877 0.270160
-0.014132 -0.080950 0.270371
-0.012822 -0.080795 0.269824
-0.011502 -0.080542 0.268952
-0.010175 -0.080164 0.267664
-0.008918 -0.080309 0.268126
-0.007623 -0.080101 0.267408
-0.006313 -0.079631 0.265818
-0.005045 -0.079577 0.265620
-0.003791 -0.079786 0.266301
-0.002520 -0.079700 0.265997
-0.001252 -0.079543 0.265459
0.000012 -0.079819 0.266367
0.001278 -0.079690 0.265927
0.002558 -0.080115 0.267336
0.003814 -0.079770 0.266180
0.005110 -0.080214 0.267654
0.006442 -0.080933 0.270051
0.007617 -0.079769 0.266166
0.008674 -0.077876 0.259848
0.009888 -0.077692 0.259237
0.011171 -0.078030 0.260368
0.012385 -0.077863 0.259814
0.013610 -0.077790 0.259577
0.014877 -0.077953 0.260129
0.016187 -0.078294 0.261276
0.017439 -0.078328 0.261400
0.018720 -0.078477 0.261909
0.020016 -0.078666 0.262556
0.021356 -0.078999 0.263680
0.022763 -0.079526 0.265458
0.023940 -0.079238 0.264512
0.025201 -0.079241 0.264543
0.026503 -0.079366 0.264981
0.027646 -0.079025 0.263862
0.028811 -0.078775 0.263050
0.029982 -0.078560 0.262356
0.031161 -0.078383 0.261789
0.032361 -0.078270 0.261435
0.033618 -0.078299 0.261559
0.035000 -0.078605 0.262606
0.036270 -0.078649 0.262780
0.037577 -0.078765 0.263195
0.038843 -0.078793 0.263317
0.040130 -0.078858 0.263561
0.041604 -0.079278 0.264993
0.042875 -0.079294 0.265078
0.044019 -0.079084 0.264405
0.045301 -0.079126 0.264573
0.046525 -0.079066 0.264400
0.047509 -0.078613 0.262916
0.048529 -0.078241 0.261700
0.049732 -0.078174 0.261504
0.051044 -0.078279 0.261884
0.052536 -0.078647 0.263142
0.053843 -0.078729 0.263442
0.055152 -0.078809 0.263734
0.056589 -0.079064 0.264616
0.058093 -0.079400 0.265762
0.059424 -0.079489 0.266086
0.061058 -0.079974 0.267729
0.062696 -0.080442 0.269317
0.064096 -0.080591 0.269838
0.065716 -0.081007 0.271246
0.067162 -0.081196 0.271896
0.068466 -0.081209 0.271956
0.069798 -0.081256 0.272124
0.070903 -0.081040 0.271410
0.072264 -0.081119 0.271685
0.073464 -0.081018 0.271352
0.074627 -0.080881 0.270896
0.075899 -0.080863 0.270839
0.077213 -0.080892 0.270932
0.078366 -0.080752 0.270458
0.079623 -0.080723 0.270354
0.080838 -0.080653 0.270106
0.081997 -0.080529 0.269677
0.083222 -0.080474 0.269474
0.084620 -0.080584 0.269823
0.086401 -0.081051 0.271359
0.087377 -0.080760 0.270356
0.089767 -0.081765 0.273685
0.092307 -0.082876 0.277366
0.099476 -0.088053 0.294644
0.099737 -0.087057 0.291260
0.101814 -0.087650 0.293188
0.103371 -0.087787 0.293581
0.104838 -0.087844 0.293705
0.106077 -0.087711 0.293186
0.107534 -0.087760 0.293268
0.108999 -0.087814 0.293360
0.110275 -0.087715 0.292938
0.111708 -0.087743 0.292930
0.113047 -0.087697 0.292671
0.114467 -0.087714 0.292611
0.116032 -0.087840 0.292910
0.117460 -0.087861 0.292850
0.118949 -0.087927 0.292928
0.120465 -0.088010 0.293058
0.121841 -0.087991 0.292837
0.123462 -0.088147 0.293191
0.124991 -0.088234 0.293307
0.126583 -0.088364 0.293552
0.127957 -0.088339 0.293275
0.129460 -0.088404 0.293284
0.130860 -0.088397 0.293046
0.132281 -0.088405 0.292842
0.133810 -0.088483 0.292864
0.135103 -0.088406 0.292358
0.136828 -0.088610 0.292767
0.138575 -0.088824 0.293197
0.140076 -0.088877 0.293082
0.141928 -0.089150 0.293674
0.143943 -0.089518 0.294567
0.145312 -0.089482 0.294111
0.147291 -0.089818 0.294864
0.148859 -0.089899 0.294763
0.150521 -0.090036 0.294823
0.152188 -0.090172 0.294864
0.153650 -0.090185 0.294486
0.155251 -0.090279 0.294350
0.156759 -0.090317 0.294015
-0.122142 -0.067749 0.226195
-0.121355 -0.067917 0.227079
-0.120243 -0.067903 0.227345
-0.119187 -0.067922 0.227705
-0.118324 -0.068052 0.228427
-0.117374 -0.068134 0.228974
-0.116418 -0.068214 0.229505
-0.115590 -0.068372 0.230286
-0.114797 -0.068553 0.231136
-0.113976 -0.068722 0.231935
-0.113077 -0.068845 0.232572
-0.112193 -0.068982 0.233241
-0.111314 -0.069123 0.233920
-0.110429 -0.069264 0.234586
-0.109578 -0.069430 0.235329
-0.108727 -0.069598 0.236073
-0.107868 -0.069766 0.236807
-0.106993 -0.069926 0.237507
-0.106216 -0.070154 0.238430
-0.105431 -0.070383 0.239347
-0.104645 -0.070615 0.240271
-0.103777 -0.070797 0.241017
-0.103001 -0.071047 0.241984
-0.102275 -0.071336 0.243082
-0.101255 -0.071425 0.243491
-0.100562 -0.071750 0.244697
-0.099674 -0.071942 0.245442
-0.098762 -0.072120 0.246137
-0.097959 -0.072383 0.247115
-0.097173 -0.072665 0.248152
-0.096514 -0.073050 0.249536
-0.096265 -0.073760 0.252023
-0.096348 -0.074744 0.255445
-0.095265 -0.074838 0.255817
-0.095108 -0.075670 0.258711
-0.095175 -0.076705 0.262292
-0.095048 -0.077609 0.265421
-0.094490 -0.078180 0.267409
-0.093620 -0.078505 0.268549
-0.093024 -0.079072 0.270514
-0.093303 -0.080408 0.275106
-0.094565 -0.082642 0.282763
-0.092572 -0.082054 0.280764
-0.090814 -0.081660 0.279425
-0.089964 -0.082084 0.280877
-0.089147 -0.082551 0.282473
-0.090086 -0.084682 0.289760
-0.088883 -0.084834 0.290274
-0.087568 -0.084884 0.290431
-0.086537 -0.085213 0.291542
-0.085118 -0.085166 0.291364
-0.083761 -0.085180 0.291389
-0.082730 -0.085532 0.292569
-0.081341 -0.085519 0.292497
-0.079982 -0.085538 0.292530
-0.082753 -0.090052 0.307932
-0.081399 -0.090159 0.308262
-0.080279 -0.090534 0.309501
-0.079059 -0.090807 0.310393
-0.077605 -0.090816 0.310379
-0.076098 -0.090763 0.310150
-0.074731 -0.090879 0.310497
-0.073350 -0.090981 0.310796
-0.067890 -0.085926 0.293477
-0.066112 -0.085417 0.291689
-0.064437 -0.085023 0.290291
-0.063376 -0.085439 0.291657
-0.062004 -0.085445 0.291625
-0.060596 -0.085401 0.291418
-0.059381 -0.085633 0.292154
-0.057912 -0.085501 0.291648
-0.056587 -0.085582 0.291867
-0.055218 -0.085596 0.291858
-0.053808 -0.085548 0.291636
-0.052447 -0.085578 0.291680
-0.050976 -0.085424 0.291096
-0.049654 -0.085517 0.291355
-0.048301 -0.085563 0.291453
-0.046882 -0.085491 0.291151
-0.045515 -0.085512 0.291163
-0.044117 -0.085473 0.290972
-0.042768 -0.085532 0.291116
-0.041416 -0.085587 0.291247
-0.039813 -0.085110 0.289566
-0.039768 -0.088049 0.299509
-0.037532 -0.086175 0.293079
-0.036008 -0.085854 0.291933
-0.034672 -0.085976 0.292294
-0.033308 -0.086033 0.292435
-0.030501 -0.082207 0.279381
-0.028278 -0.079679 0.270744
-0.027376 -0.080811 0.274543
-0.025750 -0.079810 0.271098
-0.024424 -0.079684 0.270628
-0.023160 -0.079757 0.270835
-0.021881 -0.079789 0.270900
-0.020612 -0.079858 0.271098
-0.019340 -0.079925 0.271286
-0.018154 -0.080382 0.272801
-0.016848 -0.080338 0.272618
-0.015521 -0.080183 0.272057
-0.014211 -0.080093 0.271719
-0.012971 -0.080416 0.272786
-0.011628 -0.080101 0.271690
-0.010332 -0.080077 0.271580
-0.009053 -0.080202 0.271979
-0.007724 -0.079839 0.270725
-0.006427 -0.079733 0.270346
-0.005132 -0.079609 0.269907
-0.003848 -0.079640 0.269992
-0.002561 -0.079591 0.269813
-0.001276 -0.079563 0.269703
0.000009 -0.079315 0.268849
0.001290 -0.079365 0.269008
0.002564 -0.079134 0.268216
0.003840 -0.079094 0.268075
0.005129 -0.079284 0.268713
0.006435 -0.079608 0.269808
0.007648 -0.078860 0.267272
0.008752 -0.077357 0.262178
0.009998 -0.077330 0.262089
0.011263 -0.077444 0.262480
0.012477 -0.077216 0.261711
0.013732 -0.077259 0.261864
0.014997 -0.077346 0.262168
0.016257 -0.077397 0.262352
0.017536 -0.077525 0.262796
0.018810 -0.077615 0.263113
0.020076 -0.077664 0.263297
0.021428 -0.078018 0.264511
0.022828 -0.078497 0.266154
0.024051 -0.078349 0.265670
0.025259 -0.078171 0.265088
0.026471 -0.078019 0.264592
0.027734 -0.078026 0.264637
0.028937 -0.077870 0.264132
0.030056 -0.077512 0.262943
0.031399 -0.077734 0.263723
0.032622 -0.077657 0.263487
0.033862 -0.077621 0.263391
0.035300 -0.078027 0.264797
0.036514 -0.077927 0.264488
0.037782 -0.077944 0.264575
0.039054 -0.077968 0.264685
0.040130 -0.077611 0.263504
0.041519 -0.077865 0.264395
0.042688 -0.077700 0.263868
0.043793 -0.077433 0.262992
0.045041 -0.077427 0.263002
0.046281 -0.077407 0.262966
0.047256 -0.076957 0.261467
0.048137 -0.076381 0.259539
0.049150 -0.076037 0.258400
0.050135 -0.075668 0.257176
0.051399 -0.075727 0.257405
0.052596 -0.075687 0.257299
0.053820 -0.075689 0.257331
0.055295 -0.076033 0.258527
0.056704 -0.076274 0.259375
0.058373 -0.076848 0.261352
0.060870 -0.078464 0.266874
0.062589 -0.079032 0.268829
0.064172 -0.079409 0.270133
0.065841 -0.079875 0.271739
0.067267 -0.080035 0.272303
0.068619 -0.080102 0.272548
0.069748 -0.079911 0.271912
0.071027 -0.079896 0.271875
0.072115 -0.079669 0.271115
0.073632 -0.079917 0.271967
0.074653 -0.079627 0.270985
0.075720 -0.079395 0.270201
0.077089 -0.079481 0.270496
0.077998 -0.079100 0.269195
0.079148 -0.078969 0.268747
0.080295 -0.078841 0.268302
0.081407 -0.078682 0.267751
0.082753 -0.078752 0.267972
0.084152 -0.078868 0.268351
0.086049 -0.079441 0.270278
0.086959 -0.079099 0.269089
0.089311 -0.080060 0.272325
0.092406 -0.081650 0.277697
0.099580 -0.086748 0.294995
0.100369 -0.086220 0.293151
0.101763 -0.086218 0.293091
0.103328 -0.086359 0.293513
0.104848 -0.086460 0.293791
0.105981 -0.086242 0.292982
0.107312 -0.086190 0.292728
0.108692 -0.086178 0.292606
0.110112 -0.086197 0.292581
0.111598 -0.086267 0.292723
0.112931 -0.086218 0.292453
0.114423 -0.086290 0.292587
0.115958 -0.086393 0.292818
0.117380 -0.086409 0.292747
0.118857 -0.086466 0.292806
0.120249 -0.086460 0.292642
0.121925 -0.086655 0.293152
0.123385 -0.086695 0.293127
0.124947 -0.086805 0.293327
0.126477 -0.086889 0.293434
0.128162 -0.087078 0.293880
0.129415 -0.086972 0.293323
0.130924 -0.087038 0.293335
0.132446 -0.087112 0.293362
0.133810 -0.087081 0.293024
0.135356 -0.087167 0.293069
0.136776 -0.087172 0.292829
0.138549 -0.087399 0.293321
0.140487 -0.087725 0.294128
0.142141 -0.087868 0.294309
0.144098 -0.088194 0.295086
0.145503 -0.088179 0.294707
0.146965 -0.088198 0.294427
0.148798 -0.088438 0.294866
0.150627 -0.088670 0.295261
0.152178 -0.088736 0.295085
0.153716 -0.088793 0.294862
0.155449 -0.088960 0.294984
0.156835 -0.088928 0.294425
-0.122104 -0.066633 0.226305
-0.121266 -0.066769 0.227086
-0.120337 -0.066857 0.227691
-0.119261 -0.066865 0.228010
-0.118428 -0.067010 0.228784
-0.117527 -0.067119 0.229425
-0.116507 -0.067162 0.229829
-0.115643 -0.067297 0.230535
-0.114841 -0.067471 0.231364
-0.114015 -0.067633 0.232147
-0.113158 -0.067781 0.232867
-0.112331 -0.067949 0.233651
-0.111539 -0.068143 0.234511
-0.110705 -0.068314 0.235287
-0.109811 -0.068452 0.235939
-0.108946 -0.068610 0.236655
-0.107986 -0.068712 0.237165
-0.107160 -0.068902 0.237974
-0.106323 -0.069089 0.238764
-0.105430 -0.069244 0.239434
-0.104748 -0.069542 0.240594
-0.104107 -0.069874 0.241864
-0.103347 -0.070132 0.242875
-0.102413 -0.070277 0.243484
-0.101802 -0.070650 0.244878
-0.100904 -0.070829 0.245594
-0.100046 -0.071042 0.246419
-0.099209 -0.071274 0.247309
-0.098395 -0.071529 0.248270
-0.097563 -0.071776 0.249199
-0.096478 -0.071842 0.249491
-0.096095 -0.072439 0.251623
-0.096637 -0.073756 0.256253
-0.096073 -0.074251 0.258024
-0.095312 -0.074606 0.259302
-0.094965 -0.075298 0.261745
-0.094442 -0.075866 0.263757
-0.093524 -0.076129 0.264698
-0.093740 -0.077333 0.268913
-0.093436 -0.078137 0.271728
-0.093304 -0.079108 0.275123
-0.092874 -0.079850 0.277716
-0.092376 -0.080555 0.280176
-0.091053 -0.080550 0.280162
-0.089756 -0.080569 0.280227
-0.088996 -0.081077 0.281989
-0.088443 -0.081791 0.284468
-0.088380 -0.082989 0.288621
-0.087590 -0.083531 0.290489
-0.086265 -0.083571 0.290611
-0.085045 -0.083716 0.291092
-0.083904 -0.083944 0.291861
-0.082628 -0.084044 0.292179
-0.081395 -0.084190 0.292657
-0.080095 -0.084273 0.292910
-0.081729 -0.087498 0.304081
-0.080393 -0.087603 0.304407
-0.078868 -0.087502 0.304013
-0.077964 -0.088099 0.306040
-0.077123 -0.088790 0.308395
-0.075271 -0.088323 0.306724
-0.074208 -0.088781 0.308262
-0.072837 -0.088882 0.308560
-0.067533 -0.084089 0.291868
-0.065738 -0.083557 0.289969
-0.064697 -0.083983 0.291391
-0.063247 -0.083883 0.290990
-0.061863 -0.083869 0.290884
-0.060573 -0.083985 0.291228
-0.059262 -0.084077 0.291490
-0.057874 -0.084060 0.291372
-0.056491 -0.084051 0.291280
-0.055184 -0.084158 0.291592
-0.053763 -0.084091 0.291298
-0.052470 -0.084227 0.291709
-0.051135 -0.084300 0.291901
-0.049663 -0.084146 0.291307
-0.048384 -0.084320 0.291850
-0.046999 -0.084314 0.291767
-0.045567 -0.084221 0.291385
-0.044229 -0.084300 0.291599
-0.042778 -0.084164 0.291068
-0.041353 -0.084071 0.290689
-0.039392 -0.082844 0.286388
-0.039833 -0.086762 0.299876
-0.037654 -0.085051 0.293904
-0.035768 -0.083898 0.289864
-0.034631 -0.084479 0.291816
-0.033269 -0.084536 0.291958
-0.030199 -0.080071 0.276487
-0.028396 -0.078712 0.271747
-0.027254 -0.079142 0.273186
-0.025800 -0.078664 0.271489
-0.024487 -0.078590 0.271191
-0.023052 -0.078095 0.269438
-0.021802 -0.078204 0.269774
-0.020574 -0.078410 0.270446
-0.019330 -0.078581 0.270996
-0.018147 -0.079041 0.272542
-0.016933 -0.079429 0.273845
-0.015607 -0.079306 0.273388
-0.014359 -0.079602 0.274377
-0.013079 -0.079758 0.274881
-0.011775 -0.079785 0.274947
-0.010484 -0.079917 0.275374
-0.009177 -0.079955 0.275479
-0.007857 -0.079871 0.275165
-0.006546 -0.079860 0.275105
-0.005222 -0.079655 0.274380
-0.003903 -0.079401 0.273488
-0.002598 -0.079333 0.273235
-0.001297 -0.079387 0.273409
0.000005 -0.078975 0.271975
0.001300 -0.078893 0.271682
0.002581 -0.078467 0.270208
0.003853 -0.078158 0.269138
0.005142 -0.078253 0.269458
0.006410 -0.078053 0.268768
0.007627 -0.077398 0.266512
0.008800 -0.076555 0.263611
0.009993 -0.076072 0.261950
0.011234 -0.076018 0.261765
0.012471 -0.075953 0.261548
0.013677 -0.075727 0.260780
0.014933 -0.075792 0.261013
0.016221 -0.075994 0.261717
0.017484 -0.076063 0.261969
0.018760 -0.076172 0.262357
0.020038 -0.076278 0.262736
0.021329 -0.076413 0.263220
0.022694 -0.076786 0.264524
0.023831 -0.076390 0.263179
0.025009 -0.076158 0.262401
0.026357 -0.076439 0.263389
0.027503 -0.076137 0.262373
0.028802 -0.076266 0.262843
0.030097 -0.076373 0.263238
0.031296 -0.076237 0.262797
0.032635 -0.076441 0.263526
0.033860 -0.076370 0.263311
0.035193 -0.076542 0.263934
0.036512 -0.076672 0.264411
0.037967 -0.077067 0.265805
0.039398 -0.077393 0.266959
0.040512 -0.077092 0.265954
0.041925 -0.077362 0.266919
0.043304 -0.077554 0.267616
0.044441 -0.077317 0.266829
0.045499 -0.076957 0.265622
0.045378 -0.074677 0.257784
0.046494 -0.074499 0.257201
0.047722 -0.074504 0.257252
0.048669 -0.074081 0.255823
0.049831 -0.074000 0.255573
0.051007 -0.073942 0.255404
0.052140 -0.073824 0.255027
0.053292 -0.073740 0.254765
0.054500 -0.073734 0.254773
0.055758 -0.073795 0.255012
0.057730 -0.074778 0.258436
0.060524 -0.076763 0.265325
0.062828 -0.078057 0.269824
0.064238 -0.078212 0.270384
0.065742 -0.078472 0.271308
0.067211 -0.078682 0.272054
0.068672 -0.078873 0.272736
0.069838 -0.078726 0.272245
0.071034 -0.078617 0.271887
0.072353 -0.078645 0.271998
0.073516 -0.078506 0.271528
0.074557 -0.078244 0.270630
0.075482 -0.077871 0.269346
0.076541 -0.077646 0.268573
0.077474 -0.077303 0.267388
0.078170 -0.076738 0.265431
0.079212 -0.076525 0.264691
0.080321 -0.076383 0.264192
0.081428 -0.076243 0.263696
0.082749 -0.076304 0.263893
0.084377 -0.076643 0.265048
0.086255 -0.077195 0.266934
0.087009 -0.076740 0.265334
0.088164 -0.076647 0.264980
0.100441 -0.084892 0.293402
0.101665 -0.084747 0.292853
0.103248 -0.084902 0.293334
0.104175 -0.084521 0.291957
0.105757 -0.084674 0.292421
0.107222 -0.084731 0.292545
0.108473 -0.084619 0.292081
0.109904 -0.084649 0.292099
0.111454 -0.084767 0.292417
0.113013 -0.084891 0.292744
0.114663 -0.085078 0.293284
0.116207 -0.085183 0.293535
0.117516 -0.085115 0.293179
0.118955 -0.085143 0.293143
0.120415 -0.085184 0.293149
0.121964 -0.085286 0.293355
0.123268 -0.085218 0.292963
0.124910 -0.085380 0.293358
0.126373 -0.085419 0.293318
0.128065 -0.085610 0.293787
0.129487 -0.085618 0.293621
0.130917 -0.085631 0.293461
0.132349 -0.085645 0.293292
0.133852 -0.085704 0.293268
0.135220 -0.085677 0.292935
0.136673 -0.085703 0.292772
0.138405 -0.085902 0.293187
0.140273 -0.086180 0.293858
0.142187 -0.086480 0.294589
0.143833 -0.086613 0.294737
0.145568 -0.086797 0.295040
0.147394 -0.087030 0.295495
0.148869 -0.087054 0.295222
0.150323 -0.087065 0.294889
0.152081 -0.087251 0.295129
0.153319 -0.087137 0.294340
0.155027 -0.087290 0.294432
0.156478 -0.087296 0.294012
-0.122016 -0.065490 0.226315
-0.121099 -0.065581 0.226940
-0.120257 -0.065714 0.227702
-0.119215 -0.065740 0.228078
-0.118307 -0.065841 0.228702
-0.117481 -0.065990 0.229482
-0.116536 -0.066075 0.230028
-0.115733 -0.066242 0.230850
-0.114881 -0.066384 0.231575
-0.114035 -0.066533 0.232313
-0.113248 -0.066720 0.233175
-0.112413 -0.066881 0.233941
-0.111669 -0.067101 0.234898
-0.110847 -0.067278 0.235700
-0.110014 -0.067451 0.236482
-0.109195 -0.067637 0.237298
-0.108360 -0.067817 0.238085
-0.107573 -0.068031 0.238984
-0.106759 -0.068233 0.239834
-0.106007 -0.068478 0.240830
-0.105514 -0.068898 0.242433
-0.104610 -0.069057 0.243111
-0.103799 -0.069281 0.244009
-0.102892 -0.069445 0.244693
-0.102059 -0.069664 0.245562
-0.101241 -0.069897 0.246477
-0.100442 -0.070150 0.247453
-0.099594 -0.070374 0.248323
-0.098676 -0.070554 0.249029
-0.097922 -0.070856 0.250165
-0.097070 -0.071095 0.251067
-0.098106 -0.072738 0.256930
-0.097321 -0.073057 0.258105
-0.096351 -0.073242 0.258805
-0.095653 -0.073642 0.260260
-0.095070 -0.074142 0.262063
-0.094423 -0.074604 0.263728
-0.094809 -0.075906 0.268357
-0.093919 -0.076207 0.269446
-0.093498 -0.076903 0.271924
-0.093463 -0.077940 0.275602
-0.092920 -0.078576 0.277862
-0.092334 -0.079194 0.280051
-0.090770 -0.078979 0.279292
-0.089590 -0.079096 0.279703
-0.088439 -0.079244 0.280219
-0.087836 -0.079894 0.282506
-0.087517 -0.080827 0.285788
-0.087129 -0.081723 0.288940
-0.086582 -0.082497 0.291654
-0.085223 -0.082510 0.291674
-0.083773 -0.082434 0.291378
-0.082718 -0.082750 0.292463
-0.081372 -0.082782 0.292541
-0.080063 -0.082853 0.292755
-0.078710 -0.082879 0.292808
-0.080590 -0.086373 0.305107
-0.079249 -0.086477 0.305429
-0.077922 -0.086602 0.305820
-0.077271 -0.087497 0.308930
-0.075065 -0.086632 0.305825
-0.074268 -0.087390 0.308446
-0.072897 -0.087491 0.308744
-0.067702 -0.082912 0.292531
-0.065252 -0.081574 0.287757
-0.063535 -0.081117 0.286086
-0.063373 -0.082667 0.291496
-0.061936 -0.082586 0.291150
-0.060569 -0.082596 0.291126
-0.059304 -0.082750 0.291608
-0.058007 -0.082866 0.291954
-0.056562 -0.082771 0.291559
-0.055257 -0.082881 0.291884
-0.053920 -0.082946 0.292052
-0.052488 -0.082867 0.291708
-0.051158 -0.082949 0.291936
-0.049791 -0.082973 0.291957
-0.048372 -0.082909 0.291668
-0.046992 -0.082912 0.291617
-0.045653 -0.082987 0.291819
-0.044294 -0.083032 0.291912
-0.042879 -0.082971 0.291638
-0.041488 -0.082953 0.291514
-0.039309 -0.081305 0.285664
-0.039718 -0.085084 0.298880
-0.037540 -0.083394 0.292885
-0.036114 -0.083310 0.292533
-0.034839 -0.083581 0.293428
-0.032969 -0.082390 0.289190
-0.030114 -0.078526 0.275575
-0.028586 -0.077928 0.273428
-0.027539 -0.078649 0.275909
-0.025736 -0.077171 0.270677
-0.024375 -0.076935 0.269805
-0.023121 -0.077032 0.270099
-0.021839 -0.077039 0.270082
-0.020598 -0.077200 0.270606
-0.019436 -0.077703 0.272328
-0.018212 -0.078009 0.273363
-0.016972 -0.078288 0.274305
-0.015751 -0.078710 0.275746
-0.014534 -0.079229 0.277533
-0.013178 -0.079023 0.276777
-0.011903 -0.079306 0.277740
-0.010610 -0.079531 0.278498
-0.009287 -0.079556 0.278560
-0.007972 -0.079679 0.278966
-0.006642 -0.079656 0.278862
-0.005290 -0.079308 0.277625
-0.003950 -0.078982 0.276465
-0.002632 -0.078954 0.276349
-0.001312 -0.078796 0.275782
0.000002 -0.078602 0.275091
0.001310 -0.078414 0.274423
0.002611 -0.078191 0.273634
0.003880 -0.077473 0.271114
0.005167 -0.077396 0.270841
0.006441 -0.077179 0.270076
0.007654 -0.076437 0.267480
0.008831 -0.075591 0.264520
0.010053 -0.075292 0.263477
0.011271 -0.075037 0.262591
0.012472 -0.074728 0.261514
0.013736 -0.074824 0.261858
0.015005 -0.074924 0.262221
0.016303 -0.075142 0.262995
0.017570 -0.075196 0.263198
0.018785 -0.075036 0.262649
0.020086 -0.075215 0.263294
0.021405 -0.075438 0.264094
0.022680 -0.075492 0.264302
0.023816 -0.075100 0.262948
0.024923 -0.074657 0.261422
0.026179 -0.074687 0.261549
0.027349 -0.074476 0.260834
0.028484 -0.074193 0.259870
0.029809 -0.074408 0.260650
0.031042 -0.074385 0.260596
0.032359 -0.074558 0.261230
0.033564 -0.074468 0.260948
0.034939 -0.074750 0.261964
0.036199 -0.074774 0.262080
0.037597 -0.075071 0.263153
0.038936 -0.075234 0.263760
0.040214 -0.075274 0.263934
0.041392 -0.075131 0.263465
0.042911 -0.075595 0.265129
0.044222 -0.075678 0.265455
0.045263 -0.075307 0.264187
0.045411 -0.073510 0.257917
0.046616 -0.073473 0.257820
0.047879 -0.073527 0.258046
0.048856 -0.073151 0.256761
0.049985 -0.073015 0.256314
0.051190 -0.072993 0.256271
0.052226 -0.072738 0.255408
0.053543 -0.072876 0.255925
0.054531 -0.072570 0.254881
0.055790 -0.072629 0.255121
0.057638 -0.073438 0.257991
0.060610 -0.075614 0.265666
0.062640 -0.076550 0.268984
0.064399 -0.077125 0.271030
0.065680 -0.077115 0.271023
0.067346 -0.077550 0.272575
0.068659 -0.077568 0.272661
0.070130 -0.077761 0.273362
0.071219 -0.077531 0.272574
0.072141 -0.077131 0.271185
0.073312 -0.077007 0.270763
0.074112 -0.076504 0.269004
0.075020 -0.076127 0.267689
0.076041 -0.075876 0.266815
0.076704 -0.075282 0.264729
0.077397 -0.074735 0.262809
0.078534 -0.074628 0.262431
0.079675 -0.074528 0.262074
0.080717 -0.074340 0.261404
0.082114 -0.074479 0.261883
0.083381 -0.074499 0.261936
0.085151 -0.074959 0.263537
0.085863 -0.074489 0.261862
0.088174 -0.075400 0.265036
0.100161 -0.084443 0.296788
0.101448 -0.084339 0.296380
0.101553 -0.083268 0.292573
0.102920 -0.083247 0.292449
0.104439 -0.083347 0.292746
0.105866 -0.083373 0.292776
0.106991 -0.083163 0.291970
0.108407 -0.083182 0.291963
0.109972 -0.083314 0.292344
0.111415 -0.083350 0.292385
0.113050 -0.083528 0.292914
0.114317 -0.083432 0.292479
0.115935 -0.083592 0.292930
0.117506 -0.083715 0.293244
0.118855 -0.083678 0.292991
0.120237 -0.083665 0.292814
0.121805 -0.083780 0.293075
0.123249 -0.083809 0.293025
0.124729 -0.083861 0.293047
0.126169 -0.083884 0.292961
0.128038 -0.084190 0.293850
0.129398 -0.084158 0.293549
0.130868 -0.084197 0.293487
0.132300 -0.084211 0.293324
0.133734 -0.084226 0.293155
0.135148 -0.084228 0.292929
0.136647 -0.084283 0.292874
0.138344 -0.084457 0.293222
0.140361 -0.084821 0.294214
0.142162 -0.085049 0.294717
0.144061 -0.085330 0.295390
0.145455 -0.085309 0.295002
0.146905 -0.085321 0.294714
0.148560 -0.085451 0.294816
0.150134 -0.085532 0.294734
0.151709 -0.085612 0.294630
0.153036 -0.085551 0.294026
0.154719 -0.085690 0.294086
0.156348 -0.085795 0.294014
-0.122230 -0.064509 0.226880
-0.121440 -0.064667 0.227743
-0.120603 -0.064802 0.228514
-0.119490 -0.064791 0.228756
-0.118623 -0.064914 0.229459
-0.117778 -0.065052 0.230204
-0.116888 -0.065167 0.230858
-0.116046 -0.065312 0.231607
-0.115207 -0.065461 0.232361
-0.114396 -0.065628 0.233172
-0.113736 -0.065887 0.234298
-0.112759 -0.065966 0.234773
-0.112002 -0.066176 0.235710
-0.111147 -0.066332 0.236444
-0.110254 -0.066469 0.237098
-0.109384 -0.066622 0.237806
-0.108530 -0.066788 0.238552
-0.107742 -0.066999 0.239450
-0.106899 -0.067180 0.240232
-0.106408 -0.067588 0.241822
-0.105654 -0.067837 0.242833
-0.104879 -0.068077 0.243810
-0.104083 -0.068309 0.244749
-0.103248 -0.068521 0.245608
-0.102397 -0.068726 0.246438
-0.101747 -0.069073 0.247770
-0.101020 -0.069375 0.248933
-0.100037 -0.069506 0.249480
-0.099399 -0.069883 0.250904
-0.098875 -0.070350 0.252644
-0.098243 -0.070751 0.254143
-0.098335 -0.071690 0.257568
-0.097509 -0.071974 0.258638
-0.096675 -0.072259 0.259707
-0.096101 -0.072750 0.261507
-0.095371 -0.073133 0.262916
-0.094734 -0.073598 0.264618
-0.094197 -0.074154 0.266641
-0.094160 -0.075126 0.270152
-0.093926 -0.075964 0.273179
-0.093488 -0.076657 0.275684
-0.092578 -0.076979 0.276845
-0.091607 -0.077257 0.277849
-0.090520 -0.077445 0.278521
-0.089274 -0.077500 0.278713
-0.088129 -0.077646 0.279227
-0.087062 -0.077866 0.280004
-0.087878 -0.079803 0.286950
-0.087526 -0.080723 0.290238
-0.086358 -0.080908 0.290875
-0.084945 -0.080867 0.290698
-0.083733 -0.081017 0.291206
-0.082395 -0.081049 0.291288
-0.081022 -0.081047 0.291245
-0.079794 -0.081193 0.291730
-0.078530 -0.081307 0.292094
-0.080604 -0.084942 0.305108
-0.079263 -0.085046 0.305430
-0.078069 -0.085314 0.306342
-0.077165 -0.085915 0.308448
-0.075201 -0.085336 0.306314
-0.074179 -0.085826 0.308013
-0.072811 -0.085925 0.308312
-0.068026 -0.081915 0.293863
-0.066027 -0.081162 0.291102
-0.064693 -0.081213 0.291226
-0.063437 -0.081365 0.291712
-0.062010 -0.081300 0.291418
-0.060672 -0.081351 0.291538
-0.059392 -0.081486 0.291956
-0.057862 -0.081275 0.291136
-0.056586 -0.081418 0.291587
-0.055256 -0.081491 0.291783
-0.053799 -0.081375 0.291301
-0.052511 -0.081515 0.291739
-0.051177 -0.081589 0.291937
-0.049748 -0.081513 0.291601
-0.048354 -0.081491 0.291455
-0.047036 -0.081598 0.291773
-0.045685 -0.081655 0.291912
-0.044254 -0.081567 0.291537
-0.042861 -0.081546 0.291396
-0.040904 -0.080414 0.287289
-0.039680 -0.080696 0.288238
-0.039783 -0.083793 0.299236
-0.037355 -0.081591 0.291312
-0.035945 -0.081529 0.291031
-0.034551 -0.081499 0.290868
-0.032621 -0.080153 0.286007
-0.030899 -0.079219 0.282621
-0.029151 -0.078135 0.278700
-0.027803 -0.078067 0.278409
-0.026179 -0.077181 0.275198
-0.024728 -0.076739 0.273577
-0.023275 -0.076239 0.271747
-0.021954 -0.076140 0.271351
-0.020711 -0.076318 0.271945
-0.019418 -0.076320 0.271910
-0.018215 -0.076707 0.273250
-0.017004 -0.077112 0.274655
-0.015806 -0.077651 0.276540
-0.014601 -0.078251 0.278640
-0.013275 -0.078252 0.278611
-0.011978 -0.078450 0.279286
-0.010728 -0.079045 0.281374
-0.009368 -0.078879 0.280757
-0.008048 -0.079058 0.281370
-0.006719 -0.079199 0.281846
-0.005348 -0.078793 0.280382
-0.003981 -0.078200 0.278251
-0.002656 -0.078246 0.278398
-0.001319 -0.077669 0.276331
-0.000001 -0.077631 0.276184
0.001309 -0.077190 0.274602
0.002599 -0.076624 0.272581
0.003876 -0.076176 0.270981
0.005148 -0.075869 0.269883
0.006403 -0.075485 0.268516
0.007663 -0.075280 0.267785
0.008836 -0.074395 0.264639
0.010060 -0.074116 0.263652
0.011299 -0.073991 0.263213
0.012499 -0.073663 0.262051
0.013782 -0.073835 0.262673
0.015051 -0.073915 0.262967
0.016355 -0.074136 0.263767
0.017671 -0.074380 0.264648
0.018945 -0.074424 0.264821
0.020172 -0.074288 0.264356
0.021405 -0.074192 0.264031
0.022725 -0.074389 0.264752
0.023821 -0.073872 0.262936
0.025046 -0.073785 0.262648
0.026238 -0.073613 0.262062
0.027455 -0.073524 0.261771
0.028670 -0.073440 0.261497
0.029900 -0.073397 0.261375
0.031301 -0.073760 0.262698
0.032558 -0.073771 0.262767
0.033864 -0.073886 0.263208
0.035305 -0.074278 0.264636
0.036479 -0.074100 0.264034
0.037892 -0.074403 0.265149
0.039157 -0.074405 0.265192
0.040383 -0.074336 0.264982
0.041491 -0.074060 0.264034
0.042747 -0.074055 0.264052
0.044096 -0.074208 0.264634
0.044963 -0.073565 0.262376
0.045753 -0.072833 0.259802
0.046800 -0.072537 0.258785
0.048047 -0.072559 0.258899
0.049106 -0.072303 0.258023
0.050203 -0.072113 0.257381
0.051540 -0.072270 0.257974
0.052675 -0.072142 0.257554
0.053856 -0.072082 0.257374
0.054871 -0.071807 0.256426
0.056298 -0.072072 0.257406
0.058117 -0.072816 0.260094
0.061053 -0.074899 0.267568
0.062820 -0.075493 0.269721
0.064391 -0.075832 0.270961
0.065675 -0.075826 0.270970
0.067285 -0.076190 0.272296
0.068785 -0.076417 0.273135
0.069989 -0.076314 0.272789
0.071172 -0.076191 0.272374
0.072066 -0.075769 0.270883
0.073125 -0.075533 0.270057
0.074026 -0.075143 0.268679
0.074919 -0.074760 0.267322
0.075849 -0.074424 0.266132
0.076502 -0.073833 0.264026
0.077292 -0.073391 0.262449
0.078257 -0.073127 0.261505
0.079238 -0.072885 0.260639
0.080439 -0.072850 0.260509
0.081692 -0.072863 0.260548
0.083167 -0.073070 0.261275
0.084838 -0.073441 0.262586
0.085730 -0.073136 0.261477
0.088033 -0.074027 0.264637
0.098163 -0.081380 0.290895
0.099422 -0.081279 0.290495
0.101435 -0.081786 0.292270
0.103028 -0.081946 0.292795
0.104427 -0.081951 0.292759
0.105956 -0.082055 0.293073
0.107274 -0.081995 0.292796
0.108839 -0.082123 0.293185
0.110113 -0.082031 0.292779
0.111574 -0.082079 0.292868
0.113052 -0.082138 0.292990
0.114263 -0.082004 0.292415
0.115722 -0.082049 0.292470
0.117180 -0.082092 0.292513
0.118875 -0.082298 0.293128
0.120251 -0.082282 0.292941
0.121702 -0.082316 0.292925
0.123185 -0.082370 0.292974
0.124626 -0.082396 0.292911
0.126131 -0.082463 0.292985
0.127869 -0.082679 0.293579
0.129171 -0.082611 0.293157
0.130673 -0.082672 0.293178
0.132145 -0.082712 0.293114
0.133525 -0.082694 0.292837
0.135146 -0.082825 0.293072
0.136780 -0.082960 0.293312
0.138334 -0.083045 0.293360
0.140027 -0.083210 0.293678
0.141868 -0.083459 0.294279
0.143405 -0.083527 0.294223
0.145174 -0.083726 0.294618
0.146754 -0.083814 0.294603
0.148402 -0.083939 0.294703
0.150011 -0.084039 0.294700
0.151576 -0.084112 0.294585
0.152840 -0.084019 0.293871
0.154542 -0.084166 0.293979
0.156074 -0.084219 0.293738
-0.122582 -0.063595 0.227696
-0.121676 -0.063692 0.228343
-0.120810 -0.063811 0.229059
-0.119820 -0.063866 0.229534
-0.118946 -0.063985 0.230227
-0.118071 -0.064106 0.230915
-0.117249 -0.064257 0.231704
-0.116359 -0.064375 0.232359
-0.115594 -0.064565 0.233265
-0.114786 -0.064733 0.234086
-0.113951 -0.064890 0.234856
-0.113165 -0.065079 0.235730
-0.112332 -0.065243 0.236510
-0.111552 -0.065443 0.237406
-0.110748 -0.065632 0.238259
-0.109945 -0.065826 0.239120
-0.109071 -0.065980 0.239830
-0.108773 -0.066491 0.241826
-0.107881 -0.066645 0.242521
-0.106947 -0.066776 0.243125
-0.106230 -0.067048 0.244233
-0.105252 -0.067158 0.244747
-0.104348 -0.067319 0.245437
-0.103668 -0.067630 0.246668
-0.102782 -0.067812 0.247423
-0.101999 -0.068067 0.248439
-0.101649 -0.068621 0.250538
-0.101070 -0.069030 0.252105
-0.100562 -0.069499 0.253884
-0.099669 -0.069710 0.254716
-0.098895 -0.070010 0.255868
-0.099145 -0.071051 0.259725
-0.098056 -0.071148 0.260121
-0.097328 -0.071511 0.261491
-0.096777 -0.072016 0.263371
-0.095909 -0.072295 0.264421
-0.095188 -0.072694 0.265904
-0.094288 -0.072965 0.266915
-0.093949 -0.073683 0.269556
-0.093537 -0.074363 0.272056
-0.093072 -0.075018 0.274461
-0.092277 -0.075424 0.275946
-0.091309 -0.075696 0.276941
-0.090450 -0.076069 0.278298
-0.089162 -0.076087 0.278353
-0.088145 -0.076339 0.279263
-0.087573 -0.076991 0.281630
-0.085524 -0.076345 0.279246
-0.087375 -0.079214 0.289714
-0.086390 -0.079562 0.290959
-0.085315 -0.079837 0.291932
-0.083870 -0.079770 0.291651
-0.082613 -0.079881 0.292022
-0.081349 -0.079990 0.292380
-0.080182 -0.080200 0.293103
-0.078718 -0.080115 0.292748
-0.079567 -0.082423 0.301131
-0.078244 -0.082524 0.301450
-0.077449 -0.083197 0.303854
-0.076353 -0.083564 0.305138
-0.074396 -0.082987 0.302972
-0.074119 -0.084296 0.307693
-0.072753 -0.084395 0.307992
-0.067406 -0.079787 0.291115
-0.066004 -0.079753 0.290928
-0.064617 -0.079737 0.290807
-0.063447 -0.079992 0.291676
-0.062109 -0.080044 0.291799
-0.060692 -0.079994 0.291553
-0.059445 -0.080170 0.292127
-0.058113 -0.080238 0.292310
-0.056655 -0.080130 0.291850
-0.055274 -0.080129 0.291780
-0.053890 -0.080124 0.291693
-0.052530 -0.080155 0.291740
-0.051162 -0.080175 0.291746
-0.049782 -0.080179 0.291692
-0.048447 -0.080255 0.291902
-0.047054 -0.080239 0.291775
-0.045710 -0.080306 0.291954
-0.044377 -0.080400 0.292227
-0.042922 -0.080270 0.291693
-0.040940 -0.079113 0.287423
-0.039482 -0.078924 0.286674
-0.037416 -0.080330 0.291655
-0.036057 -0.080389 0.291809
-0.034334 -0.079607 0.288912
-0.032938 -0.079549 0.288642
-0.031050 -0.078247 0.283864
-0.029425 -0.077520 0.281173
-0.028078 -0.077494 0.281024
-0.026478 -0.076728 0.278198
-0.024933 -0.076052 0.275699
-0.023600 -0.075982 0.275398
-0.022176 -0.075594 0.273944
-0.020783 -0.075273 0.272738
-0.019538 -0.075479 0.273443
-0.018289 -0.075696 0.274190
-0.017097 -0.076204 0.275990
-0.015950 -0.077011 0.278875
-0.014691 -0.077376 0.280163
-0.013360 -0.077402 0.280223
-0.012001 -0.077245 0.279621
-0.010749 -0.077830 0.281712
-0.009386 -0.077668 0.281094
-0.008064 -0.077844 0.281708
-0.006733 -0.077982 0.282185
-0.005360 -0.077583 0.280719
-0.003991 -0.076999 0.278585
-0.002664 -0.077044 0.278733
-0.001324 -0.076476 0.276663
-0.000004 -0.076439 0.276517
0.001307 -0.076004 0.274932
0.002611 -0.075761 0.274043
0.003869 -0.074807 0.270585
0.005138 -0.074479 0.269397
0.006371 -0.073871 0.267193
0.007606 -0.073478 0.265775
0.008831 -0.073122 0.264487
0.010046 -0.072777 0.263244
0.011284 -0.072657 0.262815
0.012504 -0.072460 0.262109
0.013780 -0.072589 0.262585
0.015058 -0.072710 0.263033
0.016340 -0.072826 0.263466
0.017639 -0.072997 0.264099
0.018927 -0.073102 0.264497
0.020200 -0.073141 0.264658
0.021352 -0.072764 0.263312
0.022619 -0.072796 0.263449
0.023866 -0.072763 0.263353
0.024996 -0.072397 0.262052
0.026362 -0.072715 0.263229
0.027554 -0.072548 0.262652
0.028801 -0.072532 0.262623
0.030112 -0.072670 0.263153
0.031402 -0.072752 0.263479
0.032759 -0.072973 0.264314
0.034096 -0.073138 0.264945
0.035428 -0.073279 0.265488
0.036810 -0.073510 0.266363
0.038073 -0.073497 0.266349
0.039471 -0.073735 0.267249
0.040605 -0.073482 0.266372
0.041881 -0.073493 0.266448
0.042942 -0.073136 0.265192
0.044281 -0.073260 0.265681
0.045225 -0.072742 0.263841
0.045823 -0.071711 0.260139
0.046824 -0.071347 0.258857
0.048281 -0.071680 0.260105
0.049128 -0.071113 0.258084
0.050202 -0.070892 0.257322
0.051498 -0.070990 0.257713
0.052716 -0.070978 0.257708
0.054086 -0.071165 0.258425
0.055277 -0.071115 0.258278
0.056779 -0.071458 0.259561
0.058569 -0.072142 0.262078
0.060512 -0.072980 0.265159
0.062502 -0.073841 0.268319
0.063975 -0.074067 0.269174
0.065550 -0.074402 0.270423
0.067100 -0.074694 0.271516
0.068368 -0.074669 0.271451
0.069566 -0.074569 0.271116
0.070672 -0.074376 0.270437
0.071644 -0.074051 0.269278
0.072470 -0.073588 0.267617
0.073614 -0.073460 0.267168
0.074592 -0.073173 0.266141
0.075259 -0.072596 0.264054
0.076255 -0.072350 0.263168
0.076862 -0.071748 0.260987
0.077757 -0.071430 0.259835
0.078862 -0.071312 0.259405
0.079963 -0.071193 0.258973
0.081006 -0.071028 0.258366
0.082140 -0.070946 0.258059
0.083973 -0.071461 0.259923
0.085034 -0.071314 0.259371
0.086670 -0.071646 0.260558
0.097066 -0.079109 0.287670
0.098310 -0.079008 0.287275
0.101652 -0.080574 0.292929
0.103227 -0.080715 0.293400
0.104653 -0.080737 0.293433
0.105959 -0.080668 0.293127
0.107160 -0.080521 0.292535
0.108483 -0.080468 0.292278
0.109959 -0.080529 0.292428
0.111256 -0.080459 0.292094
0.112695 -0.080493 0.292131
0.114063 -0.080474 0.291971
0.115766 -0.080690 0.292657
0.117480 -0.080909 0.293341
0.119121 -0.081072 0.293819
0.120343 -0.080950 0.293251
0.121798 -0.080985 0.293248
0.123190 -0.080979 0.293085
0.124699 -0.081048 0.293185
0.126204 -0.081113 0.293263
0.127646 -0.081137 0.293180
0.129238 -0.081254 0.293426
0.130502 -0.081165 0.292916
0.131986 -0.081213 0.292892
0.133513 -0.081287 0.292946
0.135007 -0.081338 0.292911
0.136614 -0.081456 0.293102
0.138221 -0.081571 0.293271
0.139978 -0.081772 0.293733
0.141536 -0.081854 0.293755
0.143342 -0.082076 0.294265
0.145015 -0.082218 0.294474
0.146653 -0.082338 0.294586
0.148146 -0.082375 0.294386
0.149945 -0.082579 0.294769
0.151694 -0.082752 0.295022
0.152690 -0.082515 0.293797
0.154291 -0.082606 0.293724
0.155907 -0.082704 0.293653
-0.122663 -0.062538 0.228004
-0.121743 -0.062626 0.228621
-0.120967 -0.062789 0.229503
-0.119922 -0.062816 0.229873
-0.119047 -0.062932 0.230559
-0.118230 -0.063082 0.231357
-0.117390 -0.063223 0.232111
-0.116612 -0.063400 0.232988
-0.115718 -0.063517 0.233633
-0.114968 -0.063716 0.234572
-0.114132 -0.063870 0.235338
-0.113290 -0.064025 0.236096
-0.112598 -0.064268 0.237171
-0.111832 -0.064473 0.238101
-0.111126 -0.064718 0.239165
-0.110296 -0.064895 0.239973
-0.109735 -0.065235 0.241377
-0.109040 -0.065502 0.242503
-0.108166 -0.065666 0.243241
-0.107275 -0.065823 0.243945
-0.106364 -0.065972 0.244610
-0.105575 -0.066200 0.245566
-0.104757 -0.066415 0.246464
-0.103696 -0.066479 0.246795
-0.102951 -0.066750 0.247887
-0.102444 -0.067182 0.249575
-0.102060 -0.067707 0.251599
-0.101900 -0.068394 0.254222
-0.101493 -0.068930 0.256279
-0.100621 -0.069159 0.257189
-0.100325 -0.069795 0.259606
-0.099562 -0.070117 0.260850
-0.098491 -0.070228 0.261305
-0.097899 -0.070687 0.263051
-0.097152 -0.071045 0.264416
-0.096303 -0.071337 0.265526
-0.095422 -0.071612 0.266573
-0.094876 -0.072150 0.268592
-0.094369 -0.072732 0.270771
-0.093557 -0.073093 0.272120
-0.092835 -0.073534 0.273766
-0.092111 -0.073986 0.275448
-0.091290 -0.074372 0.276880
-0.090262 -0.074598 0.277713
-0.089258 -0.074852 0.278643
-0.088244 -0.075103 0.279563
-0.087207 -0.075344 0.280437
-0.087108 -0.076413 0.284394
-0.086679 -0.077224 0.287381
-0.085753 -0.077609 0.288783
-0.084492 -0.077699 0.289084
-0.083419 -0.077968 0.290046
-0.082469 -0.078362 0.291474
-0.081142 -0.078406 0.291594
-0.080065 -0.078698 0.292632
-0.078666 -0.078677 0.292506
-0.079813 -0.081248 0.302011
-0.078487 -0.081349 0.302331
-0.077159 -0.081451 0.302653
-0.076595 -0.082379 0.306044
-0.074423 -0.081580 0.303014
-0.073347 -0.081975 0.304419
-0.071996 -0.082072 0.304716
-0.068078 -0.079187 0.293942
-0.066135 -0.078528 0.291431
-0.064805 -0.078584 0.291575
-0.063474 -0.078641 0.291719
-0.061983 -0.078499 0.291124
-0.060707 -0.078628 0.291536
-0.059333 -0.078633 0.291488
-0.057881 -0.078533 0.291049
-0.056598 -0.078663 0.291462
-0.055192 -0.078625 0.291249
-0.053842 -0.078667 0.291336
-0.052518 -0.078750 0.291573
-0.051209 -0.078860 0.291912
-0.049835 -0.078873 0.291891
-0.048441 -0.078855 0.291755
-0.047107 -0.078938 0.291992
-0.045749 -0.078982 0.292087
-0.044411 -0.079066 0.292330
-0.042983 -0.078991 0.291985
-0.041135 -0.078112 0.288672
-0.039711 -0.078005 0.288210
-0.036152 -0.079201 0.292438
-0.034327 -0.078208 0.288711
-0.033044 -0.078420 0.289433
-0.031277 -0.077452 0.285805
-0.029679 -0.076832 0.283462
-0.028322 -0.076809 0.283323
-0.026747 -0.076161 0.280878
-0.025224 -0.075601 0.278764
-0.023701 -0.074981 0.276428
-0.022262 -0.074567 0.274857
-0.020923 -0.074459 0.274414
-0.019517 -0.074085 0.272991
-0.018358 -0.074658 0.275063
-0.017029 -0.074574 0.274715
-0.015782 -0.074873 0.275776
-0.014564 -0.075369 0.277570
-0.013246 -0.075395 0.277629
-0.010935 -0.069149 0.254603
-0.009752 -0.069374 0.255403
-0.008535 -0.069384 0.255413
-0.007337 -0.069572 0.256080
-0.006142 -0.069875 0.257174
-0.004924 -0.070004 0.257631
-0.003689 -0.069896 0.257214
-0.002477 -0.070323 0.258772
-0.001243 -0.070391 0.259006
-0.000007 -0.070463 0.259261
0.001234 -0.070647 0.259924
0.002612 -0.074574 0.274368
0.003862 -0.073439 0.270186
0.005091 -0.072563 0.266959
0.006355 -0.072451 0.266544
0.007626 -0.072430 0.266466
0.008863 -0.072147 0.265428
0.010080 -0.071783 0.264091
0.011338 -0.071763 0.264024
0.012551 -0.071491 0.263031
0.013797 -0.071442 0.262862
0.015112 -0.071724 0.263913
0.016375 -0.071734 0.263963
0.017717 -0.072065 0.265197
0.019039 -0.072279 0.266002
0.020306 -0.072266 0.265973
