ply
format ascii 1.0
element vertex 1681
property float x
property float y
property float z
end_header
-0.033145 -0.106543 0.292729
-0.032050 -0.107510 0.295357
-0.030561 -0.107182 0.294429
-0.028998 -0.106552 0.292670
-0.027429 -0.105838 0.290682
-0.025920 -0.105292 0.289156
-0.024133 -0.103490 0.284182
-0.022811 -0.103589 0.284430
-0.021528 -0.103894 0.285241
-0.020060 -0.103281 0.283536
-0.018636 -0.102827 0.282265
-0.017285 -0.102732 0.281981
-0.015731 -0.101319 0.278081
-0.014320 -0.100656 0.276240
-0.012956 -0.100215 0.275012
-0.011501 -0.098899 0.271381
-0.010130 -0.098062 0.269066
-0.008783 -0.097264 0.266858
-0.007460 -0.096490 0.264720
-0.006171 -0.095941 0.263196
-0.004920 -0.095866 0.262976
-0.003693 -0.096335 0.264250
-0.002452 -0.096776 0.265447
-0.001191 -0.096495 0.264664
0.000064 -0.096995 0.266024
0.001321 -0.096789 0.265448
0.002579 -0.096765 0.265371
0.003829 -0.096568 0.264823
0.005083 -0.096551 0.264767
0.006362 -0.096918 0.265767
0.007589 -0.096492 0.264593
0.008777 -0.095777 0.262627
0.009960 -0.095177 0.260974
0.011107 -0.094408 0.258863
0.012297 -0.094125 0.258083
0.013473 -0.093793 0.257170
0.014805 -0.094508 0.259128
0.016044 -0.094567 0.259288
0.017421 -0.095376 0.261507
0.018859 -0.096386 0.264274
0.020217 -0.096885 0.265642
0.021582 -0.097360 0.266946
0.022899 -0.097578 0.267546
0.024373 -0.098404 0.269811
0.025783 -0.098904 0.271183
0.026941 -0.098434 0.269898
0.028266 -0.098591 0.270330
0.029303 -0.097771 0.268086
0.030208 -0.096596 0.264866
0.031464 -0.096596 0.264871
0.032533 -0.096042 0.263354
0.033826 -0.096165 0.263692
0.035108 -0.096248 0.263923
0.036056 -0.095443 0.261719
0.037223 -0.095252 0.261197
0.038680 -0.095790 0.262675
0.039838 -0.095578 0.262096
0.041339 -0.096176 0.263737
0.042550 -0.096084 0.263485
0.043640 -0.095732 0.262519
0.044744 -0.095431 0.261694
0.045429 -0.094274 0.258519
0.046553 -0.094065 0.257945
0.048013 -0.094529 0.259213
0.048906 -0.093883 0.257436
0.050292 -0.094189 0.258270
0.051570 -0.094284 0.258526
0.052995 -0.094636 0.259482
0.054194 -0.094579 0.259316
0.055237 -0.094257 0.258422
0.056741 -0.094720 0.259678
0.058268 -0.095198 0.260976
0.059850 -0.095747 0.262462
0.061690 -0.096676 0.264991
0.063311 -0.097233 0.266497
0.065225 -0.098208 0.269147
0.066914 -0.098813 0.270778
0.068679 -0.099507 0.272649
0.070243 -0.099888 0.273661
0.071957 -0.100464 0.275206
0.073345 -0.100572 0.275464
0.074618 -0.100524 0.275289
0.075786 -0.100335 0.274729
0.077112 -0.100360 0.274749
0.078368 -0.100294 0.274517
0.079752 -0.100392 0.274729
0.081338 -0.100736 0.275612
0.082411 -0.100445 0.274750
0.083431 -0.100098 0.273735
0.085252 -0.100708 0.275331
0.087119 -0.101354 0.277018
0.088421 -0.101332 0.276876
0.089870 -0.101477 0.277185
0.092239 -0.102641 0.280271
0.098408 -0.107941 0.294637
0.099716 -0.107835 0.294236
0.101314 -0.108040 0.294679
0.102888 -0.108214 0.295030
0.104322 -0.108238 0.294966
0.105513 -0.108013 0.294216
0.107167 -0.108261 0.294747
0.108552 -0.108235 0.294523
0.110131 -0.108400 0.294813
0.111710 -0.108561 0.295082
0.113110 -0.108546 0.294865
0.114612 -0.108628 0.294903
0.116153 -0.108745 0.295025
0.117659 -0.108826 0.295042
0.119194 -0.108932 0.295114
0.120588 -0.108907 0.294825
0.122123 -0.109010 0.294869
0.123603 -0.109060 0.294761
0.125172 -0.109188 0.294852
0.126744 -0.109315 0.294926
0.128234 -0.109369 0.294794
0.129887 -0.109560 0.295016
0.131525 -0.109734 0.295179
0.133086 -0.109840 0.295147
0.134668 -0.109961 0.295139
0.136383 -0.110188 0.295399
0.138099 -0.110410 0.295631
0.139653 -0.110499 0.295492
0.141549 -0.110854 0.296045
0.143281 -0.111075 0.296222
0.144760 -0.111096 0.295850
0.146078 -0.110995 0.295133
0.147832 -0.111224 0.295275
0.149330 -0.111258 0.294878
0.150527 -0.111069 0.293870
0.152370 -0.111355 0.294100
0.154100 -0.111554 0.294076
0.155094 -0.111222 0.292628
0.156890 -0.111465 0.292671
0.158724 -0.111730 0.292744
-0.129350 -0.088006 0.236045
-0.128297 -0.088072 0.236676
-0.127508 -0.088323 0.237787
-0.126278 -0.088270 0.238067
-0.125207 -0.088329 0.238629
-0.124387 -0.088567 0.239661
-0.123377 -0.088674 0.240324
-0.122403 -0.088809 0.241050
-0.121562 -0.089043 0.242033
-0.120390 -0.089038 0.242351
-0.119279 -0.089078 0.242782
-0.117662 -0.088738 0.242158
-0.115806 -0.088209 0.241007
-0.114175 -0.087843 0.240284
-0.113040 -0.087854 0.240582
-0.111951 -0.087902 0.240969
-0.110385 -0.087573 0.240309
-0.109377 -0.087684 0.240849
-0.108360 -0.087791 0.241365
-0.106986 -0.087607 0.241074
-0.105868 -0.087632 0.241347
-0.104520 -0.087464 0.241080
-0.103529 -0.087595 0.241628
-0.102513 -0.087708 0.242117
-0.101499 -0.087825 0.242611
-0.100511 -0.087968 0.243168
-0.099635 -0.088213 0.244001
-0.098860 -0.088554 0.245091
-0.097948 -0.088780 0.245857
-0.097167 -0.089132 0.246965
-0.096380 -0.089486 0.248074
-0.105611 -0.099265 0.275317
-0.108269 -0.103033 0.285901
-0.106255 -0.102394 0.284252
-0.102957 -0.100486 0.279070
-0.103352 -0.102179 0.283882
-0.101771 -0.101939 0.283317
-0.100436 -0.101941 0.283418
-0.099858 -0.102722 0.285683
-0.099005 -0.103237 0.287201
-0.098131 -0.103746 0.288696
-0.097369 -0.104388 0.290557
-0.096093 -0.104490 0.290911
-0.094754 -0.104526 0.291077
-0.093630 -0.104803 0.291907
-0.092467 -0.105045 0.292635
-0.090849 -0.104769 0.291915
-0.088739 -0.103908 0.289562
-0.088474 -0.105216 0.293247
-0.093951 -0.113501 0.316378
-0.092558 -0.113620 0.316746
-0.091684 -0.114391 0.318925
-0.090085 -0.114268 0.318609
-0.088144 -0.113699 0.317045
-0.087028 -0.114194 0.318447
-0.085762 -0.114505 0.319330
-0.084102 -0.114294 0.318752
-0.082788 -0.114553 0.319484
-0.081345 -0.114640 0.319731
-0.080316 -0.115325 0.321644
-0.078118 -0.114325 0.318855
-0.077063 -0.114991 0.320711
-0.075625 -0.115102 0.321014
-0.067697 -0.105137 0.293216
-0.065962 -0.104577 0.291644
-0.064598 -0.104593 0.291677
-0.063313 -0.104741 0.292077
-0.061938 -0.104744 0.292069
-0.060578 -0.104772 0.292130
-0.059224 -0.104812 0.292224
-0.057847 -0.104813 0.292207
-0.056484 -0.104840 0.292260
-0.055128 -0.104882 0.292355
-0.053698 -0.104781 0.292051
-0.052355 -0.104851 0.292222
-0.051012 -0.104923 0.292396
-0.049561 -0.104770 0.291946
-0.048204 -0.104816 0.292046
-0.046758 -0.104663 0.291593
-0.045353 -0.104597 0.291381
-0.043997 -0.104643 0.291478
-0.042547 -0.104462 0.290945
-0.041163 -0.104436 0.290843
-0.039762 -0.104362 0.290609
-0.039175 -0.106499 0.296530
-0.037798 -0.106566 0.296685
-0.036419 -0.106630 0.296834
-0.034016 -0.103585 0.288328
-0.033204 -0.105332 0.293160
-0.026963 -0.093320 0.259675
-0.025966 -0.094159 0.261985
-0.024574 -0.093573 0.260329
-0.023422 -0.093890 0.261187
-0.022425 -0.094901 0.263973
-0.021388 -0.095846 0.266578
-0.020244 -0.096407 0.268113
-0.019105 -0.097062 0.269912
-0.018012 -0.098068 0.272686
-0.016825 -0.098676 0.274353
-0.015502 -0.098518 0.273891
-0.014203 -0.098502 0.273825
-0.012873 -0.098251 0.273107
-0.011517 -0.097719 0.271610
-0.010132 -0.096769 0.268951
-0.008764 -0.095739 0.266070
-0.007453 -0.095093 0.264256
-0.006141 -0.094170 0.261676
-0.004903 -0.094210 0.261774
-0.003683 -0.094729 0.263202
-0.002447 -0.095157 0.264376
-0.001196 -0.095316 0.264805
0.000060 -0.095647 0.265714
0.001321 -0.095794 0.266112
0.002575 -0.095519 0.265338
0.003827 -0.095360 0.264888
0.005094 -0.095583 0.265499
0.006352 -0.095570 0.265457
0.007581 -0.095197 0.264413
0.008785 -0.094654 0.262900
0.009966 -0.094035 0.261178
0.011123 -0.093348 0.259265
0.012300 -0.092953 0.258165
0.013492 -0.092731 0.257548
0.014762 -0.093033 0.258383
0.016147 -0.093963 0.260966
0.017445 -0.094289 0.261870
0.018869 -0.095203 0.264410
0.020358 -0.096311 0.267490
0.021706 -0.096666 0.268477
0.023028 -0.096867 0.269038
0.024510 -0.097687 0.271319
0.025887 -0.098025 0.272261
0.026947 -0.097191 0.269946
0.028271 -0.097337 0.270358
0.029357 -0.096690 0.268562
0.030486 -0.096231 0.267293
0.031431 -0.095252 0.264577
0.032527 -0.094787 0.263293
0.033929 -0.095214 0.264481
0.034954 -0.094592 0.262760
0.035999 -0.094063 0.261295
0.037359 -0.094368 0.262146
0.038765 -0.094762 0.263244
0.040127 -0.095031 0.263994
0.041418 -0.095116 0.264236
0.042868 -0.095553 0.265452
0.044014 -0.095308 0.264772
0.045127 -0.095005 0.263932
0.046016 -0.094260 0.261863
0.046844 -0.093430 0.259559
0.048117 -0.093510 0.259779
0.049227 -0.093277 0.259131
0.050423 -0.093213 0.258950
0.051847 -0.093566 0.259925
0.053316 -0.093979 0.261067
0.054730 -0.094280 0.261897
0.055816 -0.094014 0.261151
0.057371 -0.094533 0.262582
0.058921 -0.095022 0.263928
0.060411 -0.095395 0.264949
0.061945 -0.095821 0.266119
0.063647 -0.096484 0.267940
0.065211 -0.096918 0.269124
0.066869 -0.097470 0.270636
0.068476 -0.097929 0.271884
0.070319 -0.098702 0.274001
0.072015 -0.099244 0.275475
0.073288 -0.099195 0.275304
0.074858 -0.099541 0.276228
0.076092 -0.099438 0.275899
0.077279 -0.099276 0.275407
0.078780 -0.099517 0.276029
0.080195 -0.099643 0.276324
0.081409 -0.099519 0.275925
0.082817 -0.099633 0.276182
0.083926 -0.099388 0.275439
0.085465 -0.099652 0.276103
0.087034 -0.099944 0.276838
0.088727 -0.100367 0.277931
0.089921 -0.100220 0.277442
0.091508 -0.100510 0.278154
0.099793 -0.108043 0.298901
0.101119 -0.107935 0.298495
0.101155 -0.106473 0.294340
0.102814 -0.106736 0.294948
0.104339 -0.106853 0.295148
0.105521 -0.106621 0.294376
0.107043 -0.106735 0.294551
0.108548 -0.106829 0.294665
0.110190 -0.107053 0.295128
0.111660 -0.107107 0.295113
0.113131 -0.107160 0.295090
0.114537 -0.107151 0.294886
0.116007 -0.107201 0.294835
0.117553 -0.107319 0.294964
0.118976 -0.107324 0.294770
0.120543 -0.107456 0.294916
0.121959 -0.107452 0.294680
0.123539 -0.107592 0.294825
0.125054 -0.107672 0.294796
0.126495 -0.107687 0.294577
0.128052 -0.107799 0.294614
0.129510 -0.107826 0.294405
0.131060 -0.107930 0.294390
0.132637 -0.108051 0.294413
0.134272 -0.108218 0.294544
0.135900 -0.108375 0.294633
0.137559 -0.108553 0.294764
0.139380 -0.108854 0.295213
0.141173 -0.109127 0.295567
0.142806 -0.109272 0.295559
0.144340 -0.109339 0.295321
0.145825 -0.109367 0.294962
0.147496 -0.109534 0.294955
0.148980 -0.109559 0.294550
0.150411 -0.109545 0.294018
0.152125 -0.109736 0.294013
0.153933 -0.109990 0.294157
0.155112 -0.109794 0.293072
0.156701 -0.109889 0.292742
0.158424 -0.110075 0.292630
-0.129630 -0.087031 0.236865
-0.128573 -0.087096 0.237486
-0.127406 -0.087087 0.237890
-0.126052 -0.086949 0.237923
-0.124874 -0.086931 0.238268
-0.123630 -0.086866 0.238468
-0.122101 -0.086598 0.238095
-0.120753 -0.086454 0.238048
-0.119239 -0.086188 0.237647
-0.117446 -0.085713 0.236656
-0.116137 -0.085586 0.236609
-0.115217 -0.085747 0.237345
-0.113965 -0.085660 0.237384
-0.112468 -0.085387 0.236894
-0.111647 -0.085625 0.237813
-0.110660 -0.085741 0.238381
-0.109111 -0.085419 0.237720
-0.108216 -0.085608 0.238471
-0.107253 -0.085746 0.239072
-0.106175 -0.085795 0.239414
-0.105184 -0.085915 0.239948
-0.104142 -0.085997 0.240365
-0.103219 -0.086179 0.241055
-0.102259 -0.086335 0.241662
-0.101329 -0.086520 0.242344
-0.100308 -0.086631 0.242811
-0.099389 -0.086833 0.243529
-0.098693 -0.087237 0.244804
-0.097974 -0.087631 0.246045
-0.096965 -0.087771 0.246568
-0.096324 -0.088252 0.248042
-0.095709 -0.088769 0.249612
-0.106550 -0.100058 0.281480
-0.105047 -0.099893 0.281133
-0.103809 -0.099979 0.281485
-0.102496 -0.099994 0.281632
-0.101788 -0.100608 0.283460
-0.100187 -0.100345 0.282808
-0.099140 -0.100636 0.283714
-0.098547 -0.101402 0.285956
-0.098077 -0.102319 0.288616
-0.097155 -0.102783 0.289995
-0.095897 -0.102899 0.290389
-0.094656 -0.103038 0.290840
-0.093546 -0.103325 0.291705
-0.092270 -0.103436 0.292068
-0.090769 -0.103293 0.291710
-0.089212 -0.103081 0.291154
-0.088077 -0.103358 0.291972
-0.093489 -0.111450 0.314864
-0.092104 -0.111568 0.315230
-0.091318 -0.112428 0.317685
-0.090036 -0.112696 0.318466
-0.087828 -0.111794 0.315936
-0.086647 -0.112191 0.317073
-0.085410 -0.112527 0.318035
-0.083800 -0.112377 0.317618
-0.082467 -0.112600 0.318252
-0.080886 -0.112484 0.317928
-0.079804 -0.113072 0.319589
-0.077383 -0.111750 0.315848
-0.076303 -0.112351 0.317539
-0.068151 -0.104442 0.295168
-0.065995 -0.103245 0.291772
-0.064620 -0.103244 0.291756
-0.063299 -0.103332 0.291986
-0.061977 -0.103421 0.292219
-0.060615 -0.103447 0.292276
-0.059253 -0.103475 0.292333
-0.057884 -0.103490 0.292352
-0.056500 -0.103481 0.292302
-0.055115 -0.103467 0.292239
-0.053756 -0.103504 0.292318
-0.052359 -0.103469 0.292190
-0.050974 -0.103455 0.292123
-0.049602 -0.103468 0.292133
-0.048183 -0.103380 0.291854
-0.046788 -0.103343 0.291718
-0.045351 -0.103205 0.291300
-0.043953 -0.103152 0.291120
-0.042580 -0.103154 0.291095
-0.041038 -0.102737 0.289885
-0.039605 -0.102569 0.289381
-0.039631 -0.106306 0.299892
-0.038238 -0.106374 0.300049
-0.034951 -0.100974 0.284787
-0.033623 -0.101027 0.284906
-0.029491 -0.096327 0.271595
-0.027242 -0.093033 0.262279
-0.026050 -0.093203 0.262729
-0.024829 -0.093284 0.262932
-0.023406 -0.092575 0.260907
-0.022319 -0.093189 0.262611
-0.021239 -0.093909 0.264617
-0.019993 -0.093938 0.264672
-0.018904 -0.094759 0.266960
-0.017812 -0.095678 0.269526
-0.016754 -0.096940 0.273057
-0.015411 -0.096624 0.272143
-0.014212 -0.097243 0.273866
-0.012906 -0.097173 0.273648
-0.011527 -0.096481 0.271678
-0.010181 -0.095921 0.270083
-0.008794 -0.094761 0.266797
-0.007451 -0.093772 0.263996
-0.006170 -0.093311 0.262683
-0.004919 -0.093192 0.262331
-0.003688 -0.093508 0.263205
-0.002447 -0.093757 0.263895
-0.001199 -0.094010 0.264594
0.000055 -0.094229 0.265199
0.001321 -0.094798 0.266791
0.002585 -0.094759 0.266670
0.003854 -0.094869 0.266971
0.005109 -0.094668 0.266398
0.006384 -0.094846 0.266892
0.007625 -0.094532 0.266003
0.008796 -0.093566 0.263279
0.009970 -0.092870 0.261316
0.011140 -0.092294 0.259694
0.012280 -0.091605 0.257752
0.013469 -0.091379 0.257115
0.014754 -0.091782 0.258249
0.016082 -0.092372 0.259909
0.017481 -0.093257 0.262399
0.018946 -0.094351 0.265480
0.020386 -0.095192 0.267849
0.021837 -0.095987 0.270088
0.023178 -0.096230 0.270774
0.024530 -0.096496 0.271528
0.025929 -0.096908 0.272689
0.027052 -0.096298 0.270980
0.028244 -0.095980 0.270090
0.029537 -0.096017 0.270199
0.030541 -0.095147 0.267757
0.031405 -0.093932 0.264343
0.032387 -0.093148 0.262145
0.033642 -0.093177 0.262232
0.034818 -0.092994 0.261723
0.035980 -0.092787 0.261147
0.037104 -0.092498 0.260340
0.038362 -0.092553 0.260501
0.039661 -0.092698 0.260916
0.040962 -0.092841 0.261321
0.042095 -0.092604 0.260661
0.043383 -0.092711 0.260966
0.044700 -0.092874 0.261428
0.045683 -0.092353 0.259966
0.046766 -0.092054 0.259126
0.047965 -0.091995 0.258960
0.049112 -0.091840 0.258526
0.050404 -0.091959 0.258860
0.051699 -0.092076 0.259188
0.053215 -0.092572 0.260581
0.054858 -0.093262 0.262520
0.055926 -0.092966 0.261679
0.057464 -0.093446 0.263023
0.059026 -0.093944 0.264415
0.060466 -0.094231 0.265212
0.062318 -0.095134 0.267742
0.063785 -0.095427 0.268550
0.065338 -0.095833 0.269675
0.067127 -0.096564 0.271713
0.068670 -0.096919 0.272689
0.070412 -0.097537 0.274404
0.071981 -0.097896 0.275387
0.073323 -0.097941 0.275481
0.074714 -0.098047 0.275747
0.076064 -0.098097 0.275850
0.077149 -0.097809 0.274999
0.078504 -0.097868 0.275121
0.079637 -0.097652 0.274467
0.080942 -0.097651 0.274411
0.082503 -0.097952 0.275204
0.084103 -0.098292 0.276097
0.085720 -0.098639 0.277007
0.087617 -0.099294 0.278777
0.089288 -0.099676 0.279776
0.090505 -0.099548 0.279337
0.092482 -0.100247 0.281213
0.098014 -0.104724 0.293679
0.099314 -0.104618 0.293280
0.101336 -0.105264 0.294984
0.102909 -0.105432 0.295343
0.104498 -0.105612 0.295727
0.105680 -0.105381 0.294953
0.107060 -0.105352 0.294738
0.108638 -0.105514 0.295052
0.110037 -0.105502 0.294869
0.111555 -0.105601 0.294990
0.113023 -0.105652 0.294968
0.114494 -0.105705 0.294942
0.116058 -0.105840 0.295137
0.117457 -0.105824 0.294902
0.118997 -0.105934 0.295009
0.120472 -0.105983 0.294935
0.121971 -0.106053 0.294910
0.123510 -0.106154 0.294962
0.124928 -0.106152 0.294714
0.126479 -0.106260 0.294762
0.127970 -0.106316 0.294654
0.129496 -0.106400 0.294611
0.131065 -0.106517 0.294645
0.132580 -0.106587 0.294540
0.134160 -0.106708 0.294558
0.135853 -0.106915 0.294801
0.137516 -0.107094 0.294950
0.139248 -0.107323 0.295221
0.140985 -0.107551 0.295473
0.142525 -0.107625 0.295284
0.144255 -0.107840 0.295464
0.145761 -0.107884 0.295161
0.147351 -0.107990 0.295004
0.148967 -0.108112 0.294873
0.150521 -0.108186 0.294593
0.152158 -0.108319 0.294450
0.153800 -0.108452 0.294286
0.155250 -0.108449 0.293731
0.156796 -0.108512 0.293330
0.158273 -0.108526 0.292774
-0.128766 -0.085294 0.235584
-0.127351 -0.085114 0.235518
-0.125925 -0.084922 0.235402
-0.124719 -0.084878 0.235677
-0.123207 -0.084622 0.235348
-0.121569 -0.084274 0.234744
-0.120523 -0.084335 0.235263
-0.119054 -0.084097 0.234935
-0.117654 -0.083904 0.234716
-0.116399 -0.083812 0.234767
-0.115183 -0.083748 0.234880
-0.114351 -0.083963 0.235767
-0.113054 -0.083838 0.235688
-0.112026 -0.083913 0.236157
-0.111200 -0.084141 0.237049
-0.110002 -0.084090 0.237144
-0.109019 -0.084205 0.237696
-0.108078 -0.084354 0.238338
-0.107137 -0.084507 0.238977
-0.106193 -0.084661 0.239614
-0.105165 -0.084751 0.240060
-0.104329 -0.084998 0.240945
-0.103383 -0.085161 0.241581
-0.102420 -0.085314 0.242183
-0.101611 -0.085600 0.243154
-0.100576 -0.085700 0.243590
-0.099849 -0.086067 0.244779
-0.099109 -0.086432 0.245956
-0.098160 -0.086622 0.246628
-0.097266 -0.086865 0.247444
-0.096712 -0.087422 0.249149
-0.096424 -0.088235 0.251580
-0.096495 -0.089402 0.255016
-0.096716 -0.090739 0.258932
-0.103853 -0.098682 0.281705
-0.102822 -0.098970 0.282624
-0.101054 -0.098546 0.281507
-0.100226 -0.099040 0.283004
-0.098905 -0.099053 0.283123
-0.097834 -0.099320 0.283963
-0.097555 -0.100411 0.287152
-0.097408 -0.101670 0.290818
-0.095922 -0.101548 0.290529
-0.094538 -0.101531 0.290536
-0.093507 -0.101899 0.291640
-0.092000 -0.101751 0.291262
-0.090575 -0.101691 0.291131
-0.089123 -0.101599 0.290905
-0.087725 -0.101567 0.290845
-0.093047 -0.109437 0.313413
-0.091671 -0.109555 0.313777
-0.090553 -0.109992 0.315051
-0.089300 -0.110276 0.315883
-0.087860 -0.110336 0.316070
-0.086274 -0.110210 0.315720
-0.085110 -0.110630 0.316929
-0.083803 -0.110875 0.317637
-0.082446 -0.111061 0.318171
-0.081020 -0.111161 0.318454
-0.080104 -0.111976 0.320786
-0.077786 -0.110826 0.317482
-0.076561 -0.111219 0.318599
-0.075134 -0.111329 0.318900
-0.068252 -0.103194 0.295584
-0.066077 -0.101985 0.292107
-0.064779 -0.102110 0.292445
-0.063407 -0.102118 0.292451
-0.062060 -0.102171 0.292580
-0.060711 -0.102221 0.292701
-0.059335 -0.102227 0.292693
-0.057961 -0.102238 0.292699
-0.056582 -0.102240 0.292679
-0.055228 -0.102288 0.292790
-0.053779 -0.102159 0.292392
-0.052425 -0.102207 0.292499
-0.051027 -0.102171 0.292365
-0.049542 -0.101956 0.291718
-0.048191 -0.102010 0.291842
-0.046679 -0.101716 0.290969
-0.045341 -0.101797 0.291166
-0.043927 -0.101705 0.290872
-0.042562 -0.101724 0.290894
-0.041062 -0.101414 0.289972
-0.039554 -0.101059 0.288925
-0.039487 -0.104496 0.298715
-0.038100 -0.104562 0.298872
-0.035335 -0.100708 0.287823
-0.033751 -0.100044 0.285891
-0.032418 -0.100102 0.286025
-0.029544 -0.095199 0.271986
-0.027895 -0.093977 0.268464
-0.026477 -0.093455 0.266944
-0.025260 -0.093624 0.267398
-0.023805 -0.092881 0.265247
-0.022644 -0.093271 0.266333
-0.021580 -0.094127 0.268752
-0.020274 -0.093968 0.268270
-0.019110 -0.094493 0.269744
-0.017923 -0.094970 0.271079
-0.016761 -0.095664 0.273038
-0.015468 -0.095667 0.273022
-0.014149 -0.095488 0.272488
-0.012877 -0.095631 0.272873
-0.011514 -0.095046 0.271185
-0.010128 -0.094110 0.268494
-0.008791 -0.093423 0.266514
-0.007472 -0.092728 0.264515
-0.006187 -0.092264 0.263173
-0.004937 -0.092215 0.263020
-0.003699 -0.092452 0.263682
-0.002448 -0.092422 0.263581
-0.001203 -0.092729 0.264445
0.000052 -0.093315 0.266103
0.001315 -0.093441 0.266452
0.002584 -0.093605 0.266912
0.003864 -0.093958 0.267910
0.005113 -0.093560 0.266767
0.006408 -0.093982 0.267964
0.007660 -0.093748 0.267291
0.008898 -0.093438 0.266402
0.010115 -0.093000 0.265150
0.011296 -0.092371 0.263354
0.012466 -0.091784 0.261679
0.013645 -0.091360 0.260470
0.014901 -0.091485 0.260824
0.016253 -0.092133 0.262674
0.017584 -0.092577 0.263942
0.018985 -0.093303 0.266014
0.020368 -0.093861 0.267608
0.021815 -0.094624 0.269788
0.023149 -0.094847 0.270427
0.024351 -0.094528 0.269524
0.025665 -0.094657 0.269898
0.026928 -0.094590 0.269714
0.028128 -0.094322 0.268956
0.029382 -0.094251 0.268759
0.030615 -0.094119 0.268391
0.031627 -0.093345 0.266193
0.032681 -0.092750 0.264502
0.033954 -0.092797 0.264646
0.035151 -0.092640 0.264204
0.036368 -0.092545 0.263943
0.037485 -0.092212 0.263000
0.038892 -0.092587 0.264079
0.039796 -0.091782 0.261789
0.040944 -0.091569 0.261189
0.042177 -0.091554 0.261154
0.043341 -0.091394 0.260702
0.044918 -0.092090 0.262695
0.046488 -0.092734 0.264539
0.046824 -0.090946 0.259443
0.048071 -0.090975 0.259529
0.049898 -0.092073 0.262664
0.050095 -0.090182 0.257272
0.051491 -0.090489 0.258147
0.052975 -0.090931 0.259408
0.054581 -0.091560 0.261202
0.055791 -0.091510 0.261055
0.057210 -0.091797 0.261871
0.058844 -0.092410 0.263613
0.060309 -0.092737 0.264536
0.061988 -0.093373 0.266343
0.063387 -0.093571 0.266895
0.065335 -0.094556 0.269690
0.066970 -0.095058 0.271105
0.068429 -0.095295 0.271762
0.070078 -0.095785 0.273136
0.071677 -0.096188 0.274262
0.072836 -0.095997 0.273691
0.074428 -0.096373 0.274734
0.075892 -0.096574 0.275271
0.076830 -0.096111 0.273915
0.078164 -0.096148 0.273981
0.079371 -0.096032 0.273608
0.080614 -0.095962 0.273361
0.082154 -0.096241 0.274105
0.083773 -0.096604 0.275081
0.085427 -0.096995 0.276135
0.086999 -0.097282 0.276888
0.089021 -0.098057 0.279022
0.090408 -0.098119 0.279125
0.092218 -0.098631 0.280502
0.096679 -0.101924 0.289779
0.097960 -0.101819 0.289386
0.101041 -0.103561 0.294236
0.102818 -0.103938 0.295199
0.104349 -0.104059 0.295427
0.105455 -0.103758 0.294451
0.107053 -0.103944 0.294850
0.108462 -0.103942 0.294711
0.109962 -0.104027 0.294810
0.111454 -0.104103 0.294873
0.113007 -0.104232 0.295081
0.114495 -0.104300 0.295105
0.115861 -0.104255 0.294803
0.117494 -0.104449 0.295167
0.119015 -0.104540 0.295230
0.120385 -0.104498 0.294908
0.121848 -0.104536 0.294802
0.123513 -0.104745 0.295168
0.124930 -0.104741 0.294923
0.126325 -0.104718 0.294614
0.127944 -0.104880 0.294814
0.129439 -0.104938 0.294707
0.130919 -0.104983 0.294552
0.132618 -0.105200 0.294867
0.134223 -0.105338 0.294947
0.135848 -0.105489 0.295049
0.137512 -0.105667 0.295211
0.139177 -0.105841 0.295348
0.140797 -0.105978 0.295365
0.142531 -0.106198 0.295595
0.144093 -0.106286 0.295440
0.145695 -0.106401 0.295344
0.147305 -0.106520 0.295240
0.148951 -0.106662 0.295179
0.150318 -0.106603 0.294545
0.151783 -0.106614 0.294084
0.153416 -0.106742 0.293923
0.154921 -0.106779 0.293490
0.156308 -0.106735 0.292813
0.157869 -0.106809 0.292435
-0.126886 -0.082909 0.232428
-0.125724 -0.082887 0.232784
-0.124599 -0.082889 0.233191
-0.123078 -0.082625 0.232832
-0.121492 -0.082312 0.232320
-0.120220 -0.082209 0.232380
-0.118831 -0.082023 0.232192
-0.117511 -0.081881 0.232114
-0.116524 -0.081972 0.232681
-0.115516 -0.082049 0.233198
-0.114561 -0.082165 0.233815
-0.113688 -0.082344 0.234599
-0.112673 -0.082423 0.235087
-0.111850 -0.082644 0.235971
-0.110916 -0.082788 0.236625
-0.109926 -0.082892 0.237155
-0.109081 -0.083110 0.238000
-0.108051 -0.083190 0.238442
-0.107113 -0.083342 0.239084
-0.106110 -0.083447 0.239580
-0.105136 -0.083578 0.240141
-0.104248 -0.083780 0.240901
-0.103245 -0.083894 0.241398
-0.102251 -0.084017 0.241915
-0.101337 -0.084211 0.242626
-0.100374 -0.084367 0.243224
-0.099429 -0.084543 0.243868
-0.098526 -0.084758 0.244623
-0.097606 -0.084964 0.245344
-0.096757 -0.085238 0.246254
-0.095990 -0.085592 0.247390
-0.095836 -0.086507 0.250143
-0.097564 -0.089166 0.257936
-0.097046 -0.089813 0.259907
-0.097853 -0.091719 0.265517
-0.104867 -0.099568 0.288336
-0.103622 -0.099679 0.288748
-0.100022 -0.097497 0.282508
-0.099472 -0.098269 0.284823
-0.098633 -0.098773 0.286355
-0.097555 -0.099048 0.287218
-0.096851 -0.099717 0.289218
-0.095473 -0.099700 0.289226
-0.094143 -0.099734 0.289375
-0.092868 -0.099829 0.289696
-0.091671 -0.100012 0.290268
-0.090452 -0.100175 0.290780
-0.089091 -0.100184 0.290838
-0.087847 -0.100327 0.291280
-0.088355 -0.102507 0.297636
-0.091789 -0.108208 0.314210
-0.090031 -0.107874 0.313258
-0.089194 -0.108650 0.315526
-0.087331 -0.108182 0.314177
-0.085975 -0.108338 0.314637
-0.084789 -0.108716 0.315739
-0.083169 -0.108542 0.315235
-0.081650 -0.108495 0.315095
-0.080535 -0.108995 0.316542
-0.079872 -0.110136 0.319847
-0.077520 -0.108947 0.316384
-0.077137 -0.110533 0.320975
-0.075700 -0.110643 0.321279
-0.067652 -0.100896 0.292960
-0.066089 -0.100618 0.292134
-0.064712 -0.100618 0.292111
-0.063369 -0.100670 0.292241
-0.062071 -0.100800 0.292594
-0.060687 -0.100791 0.292543
-0.059312 -0.100798 0.292537
-0.057994 -0.100904 0.292816
-0.056585 -0.100855 0.292643
-0.055220 -0.100883 0.292694
-0.053824 -0.100853 0.292576
-0.052416 -0.100801 0.292392
-0.051038 -0.100804 0.292369
-0.049630 -0.100746 0.292167
-0.048225 -0.100692 0.291976
-0.046808 -0.100608 0.291700
-0.045415 -0.100574 0.291564
-0.044040 -0.100577 0.291539
-0.042645 -0.100535 0.291384
-0.041155 -0.100257 0.290541
-0.039777 -0.100245 0.290470
-0.040143 -0.104783 0.303583
-0.038733 -0.104851 0.303743
-0.035235 -0.099054 0.286914
-0.033750 -0.098676 0.285785
-0.030777 -0.093738 0.271451
-0.029065 -0.092378 0.267482
-0.027459 -0.091243 0.264167
-0.026284 -0.091504 0.264890
-0.024925 -0.091117 0.263741
-0.023610 -0.090861 0.262972
-0.022423 -0.091094 0.263617
-0.021298 -0.091624 0.265123
-0.020135 -0.092045 0.266316
-0.018956 -0.092444 0.267441
-0.017744 -0.092728 0.268237
-0.016702 -0.094018 0.271944
-0.015435 -0.094147 0.272293
-0.014067 -0.093625 0.270759
-0.012824 -0.093916 0.271579
-0.011503 -0.093646 0.270777
-0.010131 -0.092825 0.268383
-0.008810 -0.092315 0.266890
-0.007503 -0.091806 0.265398
-0.006223 -0.091493 0.264477
-0.004952 -0.091170 0.263528
-0.003695 -0.091002 0.263028
-0.002457 -0.091340 0.263989
-0.001207 -0.091506 0.264458
0.000048 -0.091989 0.265843
0.001312 -0.092237 0.266547
0.002585 -0.092529 0.267381
0.003854 -0.092535 0.267391
0.005133 -0.092710 0.267890
0.006424 -0.092999 0.268717
0.007680 -0.092773 0.268059
0.008958 -0.092828 0.268214
0.010198 -0.092531 0.267355
0.011376 -0.091796 0.265228
0.012620 -0.091692 0.264926
0.013820 -0.091309 0.263820
0.015076 -0.091331 0.263883
0.016446 -0.091984 0.265772
0.017757 -0.092242 0.266522
0.019152 -0.092872 0.268346
0.020535 -0.093366 0.269776
0.021886 -0.093667 0.270651
0.023131 -0.093507 0.270193
0.024292 -0.093040 0.268853
0.025386 -0.092374 0.266935
0.026530 -0.091945 0.265703
0.027303 -0.090330 0.261043
0.028389 -0.089844 0.259647
0.029554 -0.089640 0.259065
0.030716 -0.089441 0.258500
0.031943 -0.089440 0.258505
0.033148 -0.089377 0.258334
0.034409 -0.089469 0.258609
0.035769 -0.089799 0.259572
0.037042 -0.089898 0.259869
0.038232 -0.089794 0.259576
0.039472 -0.089811 0.259636
0.040936 -0.090321 0.261121
0.041996 -0.089936 0.260016
0.043441 -0.090375 0.261293
0.044615 -0.090239 0.260908
0.046054 -0.090633 0.262055
0.047170 -0.090387 0.261352
0.047922 -0.089474 0.258717
0.049174 -0.089516 0.258843
0.050376 -0.089468 0.258709
0.051410 -0.089131 0.257739
0.052728 -0.089291 0.258203
0.054315 -0.089887 0.259927
0.055654 -0.090057 0.260418
0.057136 -0.090444 0.261537
0.058835 -0.091152 0.263580
0.060368 -0.091578 0.264807
0.062133 -0.092331 0.266979
0.063705 -0.092774 0.268251
0.065437 -0.093428 0.270129
0.067074 -0.093923 0.271548
0.068537 -0.094160 0.272216
0.070223 -0.094690 0.273730
0.071501 -0.094660 0.273621
0.073009 -0.094929 0.274376
0.074484 -0.095147 0.274981
0.075520 -0.094807 0.273967
0.076664 -0.094611 0.273368
0.077645 -0.094223 0.272210
0.078997 -0.094292 0.272370
0.080178 -0.094156 0.271936
0.081968 -0.094730 0.273545
0.083128 -0.094568 0.273027
0.085169 -0.095398 0.275368
0.086835 -0.095790 0.276437
0.088272 -0.095921 0.276751
0.090494 -0.096888 0.279470
0.092289 -0.097377 0.280805
0.099682 -0.103674 0.298876
0.101001 -0.103565 0.298470
0.100588 -0.101707 0.293021
0.102307 -0.102028 0.293841
0.104040 -0.102352 0.294665
0.105180 -0.102093 0.293803
0.106663 -0.102168 0.293898
0.108159 -0.102255 0.294018
0.109607 -0.102293 0.293992
0.111109 -0.102381 0.294099
0.112615 -0.102470 0.294203
0.114175 -0.102605 0.294430
0.115846 -0.102836 0.294922
0.117358 -0.102922 0.294991
0.118954 -0.103078 0.295251
0.120486 -0.103176 0.295333
0.122075 -0.103318 0.295535
0.123546 -0.103360 0.295438
0.124934 -0.103332 0.295129
0.126401 -0.103368 0.294995
0.127835 -0.103378 0.294774
0.129409 -0.103499 0.294857
0.130921 -0.103568 0.294782
0.132392 -0.103604 0.294597
0.134086 -0.103811 0.294887
0.135676 -0.103935 0.294926
0.137257 -0.104048 0.294921
0.138961 -0.104252 0.295156
0.140648 -0.104439 0.295329
0.142424 -0.104687 0.295658
0.144144 -0.104889 0.295839
0.145678 -0.104954 0.295614
0.147283 -0.105068 0.295510
0.148890 -0.105180 0.295383
0.150323 -0.105169 0.294890
0.151858 -0.105229 0.294576
0.153434 -0.105315 0.294316
0.155015 -0.105404 0.294038
0.156542 -0.105454 0.293633
0.158031 -0.105477 0.293129
-0.124517 -0.080243 0.228357
-0.123299 -0.080171 0.228554
-0.122156 -0.080147 0.228871
-0.120960 -0.080087 0.229070
-0.119850 -0.080084 0.229416
-0.118871 -0.080169 0.230001
-0.117733 -0.080148 0.230269
-0.116735 -0.080223 0.230798
-0.115927 -0.080431 0.231698
-0.115094 -0.080625 0.232549
-0.114300 -0.080852 0.233480
-0.113488 -0.081069 0.234376
-0.112615 -0.081248 0.235151
-0.111621 -0.081341 0.235668
-0.110624 -0.081435 0.236175
-0.109747 -0.081620 0.236937
-0.108738 -0.081710 0.237415
-0.107722 -0.081796 0.237872
-0.106787 -0.081946 0.238507
-0.105818 -0.082074 0.239068
-0.104906 -0.082249 0.239757
-0.103915 -0.082365 0.240267
-0.102972 -0.082522 0.240890
-0.102040 -0.082691 0.241542
-0.101065 -0.082830 0.242095
-0.100168 -0.083037 0.242842
-0.099260 -0.083238 0.243566
-0.098318 -0.083416 0.244215
-0.097335 -0.083564 0.244768
-0.096418 -0.083771 0.245490
-0.095463 -0.083952 0.246127
-0.095011 -0.084584 0.248083
-0.096147 -0.086663 0.254278
-0.096995 -0.088533 0.259859
-0.096397 -0.089113 0.261651
-0.095892 -0.089795 0.263738
-0.095725 -0.090816 0.266817
-0.100132 -0.096262 0.282893
-0.098737 -0.096202 0.282787
-0.098785 -0.097565 0.286863
-0.097935 -0.098066 0.288399
-0.096735 -0.098227 0.288929
-0.095374 -0.098228 0.288981
-0.094217 -0.098440 0.289654
-0.092973 -0.098567 0.290069
-0.091494 -0.098445 0.289745
-0.090277 -0.098605 0.290251
-0.089177 -0.098901 0.291149
-0.088045 -0.099169 0.291965
-0.087814 -0.100478 0.295838
-0.091238 -0.106078 0.312345
-0.089867 -0.106195 0.312703
-0.088706 -0.106568 0.313812
-0.087149 -0.106472 0.313534
-0.085959 -0.106826 0.314581
-0.084260 -0.106550 0.313768
-0.082958 -0.106776 0.314431
-0.081607 -0.106945 0.314922
-0.080218 -0.107071 0.315284
-0.079663 -0.108335 0.318992
-0.077217 -0.107026 0.315125
-0.075986 -0.107384 0.316162
-0.074572 -0.107493 0.316462
-0.068390 -0.100592 0.296126
-0.066045 -0.099166 0.291906
-0.064724 -0.099250 0.292131
-0.063376 -0.099295 0.292237
-0.062075 -0.099417 0.292569
-0.060708 -0.099437 0.292600
-0.059365 -0.099498 0.292751
-0.057994 -0.099515 0.292768
-0.056619 -0.099525 0.292766
-0.055208 -0.099470 0.292571
-0.053772 -0.099367 0.292235
-0.052397 -0.099374 0.292221
-0.050953 -0.099247 0.291813
-0.049621 -0.099337 0.292042
-0.048158 -0.099164 0.291495
-0.046821 -0.099247 0.291703
-0.045400 -0.099152 0.291387
-0.043985 -0.099065 0.291095
-0.042667 -0.099197 0.291446
-0.041116 -0.098780 0.290183
-0.039651 -0.098546 0.289456
-0.039959 -0.102860 0.302090
-0.038556 -0.102927 0.302250
-0.035554 -0.098568 0.289410
-0.034161 -0.098497 0.289167
-0.032813 -0.098556 0.289303
-0.029413 -0.092188 0.270579
-0.027694 -0.090751 0.266327
-0.026381 -0.090569 0.265761
-0.025091 -0.090454 0.265395
-0.023719 -0.090015 0.264076
-0.022473 -0.090029 0.264086
-0.021322 -0.090451 0.265294
-0.020165 -0.090901 0.266586
-0.018986 -0.091305 0.267744
-0.017761 -0.091524 0.268360
-0.016785 -0.093166 0.273148
-0.015379 -0.092495 0.271155
-0.014032 -0.092087 0.269936
-0.012761 -0.092148 0.270090
-0.011425 -0.091698 0.268749
-0.010109 -0.091326 0.267638
-0.008776 -0.090663 0.265677
-0.007498 -0.090442 0.265010
-0.006222 -0.090169 0.264192
-0.004948 -0.089791 0.263070
-0.003705 -0.089910 0.263402
-0.002457 -0.089959 0.263532
-0.001207 -0.089998 0.263633
0.000044 -0.090393 0.264779
0.001306 -0.090770 0.265874
0.002571 -0.090905 0.266261
0.003847 -0.091197 0.267108
0.005155 -0.091901 0.269161
0.006422 -0.091748 0.268707
0.007691 -0.091678 0.268499
0.008984 -0.091861 0.269031
0.010209 -0.091399 0.267675
0.011383 -0.090622 0.265398
0.012662 -0.090763 0.265810
0.013835 -0.090180 0.264104
0.015124 -0.090387 0.264712
0.016427 -0.090643 0.265464
0.017735 -0.090885 0.266175
0.019187 -0.091785 0.268815
0.020457 -0.091754 0.268729
0.021858 -0.092281 0.270280
0.023145 -0.092295 0.270328
0.024239 -0.091578 0.268236
0.025486 -0.091479 0.267953
0.026538 -0.090725 0.265753
0.027289 -0.089058 0.260881
0.028529 -0.089062 0.260902
0.029780 -0.089098 0.261017
0.030900 -0.088752 0.260014
0.032172 -0.088857 0.260332
0.033389 -0.088803 0.260186
0.034587 -0.088707 0.259915
0.035781 -0.088607 0.259635
0.036975 -0.088513 0.259370
0.038148 -0.088377 0.258984
0.039564 -0.088794 0.260218
0.040985 -0.089198 0.261411
0.043083 -0.091007 0.266724
0.043719 -0.089714 0.262945
0.044933 -0.089643 0.262749
0.046795 -0.090835 0.266252
0.047194 -0.089200 0.261468
0.048427 -0.089184 0.261431
0.049790 -0.089401 0.262075
0.050345 -0.088194 0.258543
0.051310 -0.087743 0.257228
0.052626 -0.087902 0.257697
0.053903 -0.087988 0.257954
0.055625 -0.088782 0.260283
0.057213 -0.089331 0.261892
0.058964 -0.090106 0.264164
0.060382 -0.090350 0.264878
0.062280 -0.091288 0.267624
0.063849 -0.091715 0.268870
0.065391 -0.092088 0.269955
0.067108 -0.092688 0.271703
0.068423 -0.092721 0.271787
0.069907 -0.092977 0.272522
0.071402 -0.093237 0.273268
0.072880 -0.093467 0.273921
0.074093 -0.093355 0.273571
0.075225 -0.093146 0.272930
0.076369 -0.092959 0.272356
0.077594 -0.092875 0.272075
0.078919 -0.092911 0.272146
0.080349 -0.093069 0.272569
0.081749 -0.093186 0.272869
0.082958 -0.093086 0.272527
0.085017 -0.093928 0.274941
0.086996 -0.094657 0.277018
0.088804 -0.095180 0.278489
0.090457 -0.095525 0.279430
0.092802 -0.096581 0.282446
0.097259 -0.099771 0.291697
0.098544 -0.099665 0.291302
0.100774 -0.100503 0.293661
0.102106 -0.100435 0.293364
0.103837 -0.100756 0.294197
0.105112 -0.100632 0.293726
0.106531 -0.100647 0.293651
0.108015 -0.100722 0.293747
0.109352 -0.100660 0.293435
0.110987 -0.100871 0.293911
0.113133 -0.101534 0.295695
0.114403 -0.101405 0.295164
0.115827 -0.101414 0.295026
0.117562 -0.101691 0.295660
0.119075 -0.101772 0.295712
0.120428 -0.101716 0.295359
0.121946 -0.101799 0.295400
0.123407 -0.101832 0.295287
0.124972 -0.101950 0.295408
0.126334 -0.101902 0.295035
0.127784 -0.101924 0.294858
0.129353 -0.102040 0.294938
0.130795 -0.102054 0.294714
0.132310 -0.102124 0.294638
0.133962 -0.102297 0.294847
0.135656 -0.102498 0.295121
0.137282 -0.102644 0.295223
0.138775 -0.102689 0.295018
0.140535 -0.102928 0.295357
0.142340 -0.103195 0.295758
0.144016 -0.103364 0.295861
0.145748 -0.103569 0.296051
0.147131 -0.103524 0.295508
0.148596 -0.103538 0.295114
0.150182 -0.103634 0.294937
0.151629 -0.103634 0.294465
0.153013 -0.103590 0.293852
0.154486 -0.103607 0.293390
0.156074 -0.103701 0.293122
0.157596 -0.103749 0.292703
-0.123771 -0.078651 0.227249
-0.122599 -0.078605 0.227507
-0.121579 -0.078656 0.228032
-0.120571 -0.078717 0.228569
-0.119530 -0.078757 0.229032
-0.118608 -0.078877 0.229714
-0.117592 -0.078936 0.230206
-0.116671 -0.079061 0.230877
-0.115894 -0.079287 0.231833
-0.114975 -0.079419 0.232503
-0.114098 -0.079584 0.233256
-0.113296 -0.079805 0.234165
-0.112398 -0.079961 0.234873
-0.111462 -0.080094 0.235504
-0.110504 -0.080213 0.236086
-0.109542 -0.080332 0.236656
-0.108663 -0.080516 0.237407
-0.107594 -0.080560 0.237739
-0.106659 -0.080707 0.238366
-0.105790 -0.080909 0.239144
-0.104802 -0.081022 0.239655
-0.103863 -0.081176 0.240278
-0.102956 -0.081359 0.240980
-0.102005 -0.081511 0.241581
-0.101058 -0.081670 0.242194
-0.100159 -0.081872 0.242932
-0.099199 -0.082027 0.243523
-0.098265 -0.082210 0.244187
-0.097297 -0.082366 0.244769
-0.096362 -0.082556 0.245442
-0.095392 -0.082720 0.246032
-0.094552 -0.083002 0.246969
-0.093979 -0.083528 0.248626
-0.095952 -0.086359 0.257143
-0.096356 -0.087833 0.261616
-0.095780 -0.088439 0.263502
-0.094948 -0.088823 0.264718
-0.094124 -0.089225 0.265985
-0.100878 -0.096917 0.288986
-0.098232 -0.095666 0.285317
-0.097925 -0.096689 0.288426
-0.096515 -0.096637 0.288324
-0.095140 -0.096620 0.288319
-0.094035 -0.096880 0.289137
-0.092694 -0.096901 0.289238
-0.091362 -0.096932 0.289363
-0.090382 -0.097344 0.290622
-0.089451 -0.097821 0.292073
-0.088380 -0.098158 0.293099
-0.087455 -0.098671 0.294647
-0.090695 -0.103975 0.310499
-0.089333 -0.104091 0.310855
-0.089006 -0.105437 0.314883
-0.087376 -0.105259 0.314352
-0.085557 -0.104843 0.313109
-0.084602 -0.105490 0.315039
-0.083137 -0.105514 0.315102
-0.081822 -0.105731 0.315740
-0.080942 -0.106529 0.318110
-0.079855 -0.107079 0.319739
-0.077575 -0.106022 0.316564
-0.077259 -0.107659 0.321432
-0.075822 -0.107769 0.321737
-0.068215 -0.098934 0.295335
-0.066088 -0.097845 0.292061
-0.064730 -0.097873 0.292117
-0.063382 -0.097917 0.292221
-0.062081 -0.098037 0.292550
-0.060704 -0.098041 0.292530
-0.059352 -0.098087 0.292635
-0.057966 -0.098076 0.292569
-0.056579 -0.098064 0.292499
-0.055242 -0.098139 0.292687
-0.053776 -0.097985 0.292190
-0.052408 -0.098005 0.292212
-0.051011 -0.097972 0.292076
-0.049573 -0.097855 0.291689
-0.048220 -0.097904 0.291796
-0.046762 -0.097736 0.291257
-0.045381 -0.097724 0.291183
-0.044025 -0.097768 0.291274
-0.042735 -0.097965 0.291823
-0.041181 -0.097551 0.290548
-0.039704 -0.097295 0.289749
-0.039838 -0.101114 0.301079
-0.038440 -0.101181 0.301238
-0.035345 -0.096613 0.287603
-0.034219 -0.097280 0.289549
-0.031026 -0.091881 0.273442
-0.029432 -0.090953 0.270648
-0.027870 -0.090044 0.267909
-0.026580 -0.089972 0.267662
-0.025193 -0.089546 0.266361
-0.023826 -0.089150 0.265151
-0.022606 -0.089288 0.265530
-0.021370 -0.089379 0.265772
-0.020160 -0.089597 0.266391
-0.018951 -0.089852 0.267119
-0.017884 -0.090859 0.270085
-0.016799 -0.091924 0.273224
-0.015585 -0.092408 0.274636
-0.014044 -0.090859 0.270009
-0.012789 -0.091041 0.270525
-0.011509 -0.091059 0.270555
-0.010134 -0.090246 0.268120
-0.008816 -0.089768 0.266679
-0.007507 -0.089253 0.265130
-0.006231 -0.088992 0.264338
-0.004959 -0.088662 0.263340
-0.003710 -0.088679 0.263376
-0.002461 -0.088707 0.263444
-0.001212 -0.088812 0.263745
0.000040 -0.089228 0.264967
0.001304 -0.089632 0.266157
0.002579 -0.090031 0.267331
0.003859 -0.090298 0.268117
0.005171 -0.090987 0.270155
0.006458 -0.091035 0.270293
0.007722 -0.090811 0.269623
0.008996 -0.090741 0.269412
0.010232 -0.090361 0.268280
0.011455 -0.089961 0.267094
0.012712 -0.089880 0.266852
0.013930 -0.089558 0.265897
0.015155 -0.089335 0.265237
0.016529 -0.089959 0.267094
0.017827 -0.090106 0.267536
0.019030 -0.089783 0.266583
0.020487 -0.090626 0.269091
0.021742 -0.090531 0.268815
0.022971 -0.090342 0.268263
0.024323 -0.090632 0.269133
0.025435 -0.090041 0.267388
0.026523 -0.089428 0.265577
0.027521 -0.088579 0.263065
0.028828 -0.088755 0.263599
0.029989 -0.088486 0.262814
0.031188 -0.088344 0.262404
0.032535 -0.088618 0.263231
0.033679 -0.088339 0.262415
0.034850 -0.088149 0.261864
0.036125 -0.088224 0.262098
0.037227 -0.087887 0.261110
0.038467 -0.087885 0.261119
0.039668 -0.087799 0.260875
0.040970 -0.087933 0.261288
0.042570 -0.088682 0.263527
0.043694 -0.088423 0.262768
0.044761 -0.088067 0.261723
0.046163 -0.088370 0.262637
0.047805 -0.089106 0.264836
0.048217 -0.087569 0.260277
0.049584 -0.087800 0.260976
0.050735 -0.087648 0.260533
0.051463 -0.086789 0.257987
0.052548 -0.086557 0.257304
0.054212 -0.087269 0.259428
0.055746 -0.087743 0.260842
0.057314 -0.088249 0.262350
0.059106 -0.089073 0.264801
0.060701 -0.089570 0.266278
0.062465 -0.090291 0.268422
0.063930 -0.090561 0.269220
0.065481 -0.090938 0.270336
0.066913 -0.091138 0.270925
0.068490 -0.091525 0.272066
0.069786 -0.091530 0.272070
0.071237 -0.091734 0.272660
0.072608 -0.091829 0.272924
0.073753 -0.091639 0.272342
0.074834 -0.091379 0.271546
0.076005 -0.091235 0.271093
0.077254 -0.091187 0.270923
0.078329 -0.090940 0.270155
0.079768 -0.091115 0.270640
0.081069 -0.091131 0.270649
0.082455 -0.091240 0.270928
0.084591 -0.092162 0.273619
0.086639 -0.092963 0.275943
0.088731 -0.093784 0.278325
0.090205 -0.093939 0.278722
0.092434 -0.094864 0.281399
0.099002 -0.100153 0.297010
0.100310 -0.100044 0.296608
0.100867 -0.099202 0.294022
0.102417 -0.099345 0.294353
0.103891 -0.099412 0.294453
0.105090 -0.099217 0.293770
0.106468 -0.099194 0.293589
0.107938 -0.099256 0.293655
0.109356 -0.099268 0.293566
0.110651 -0.099172 0.293147
0.112256 -0.099351 0.293536
0.113839 -0.099506 0.293845
0.115615 -0.099825 0.294628
0.117074 -0.099865 0.294581
0.118624 -0.099981 0.294749
0.120228 -0.100139 0.295029
0.121593 -0.100097 0.294710
0.123032 -0.100115 0.294561
0.124554 -0.100200 0.294598
0.125980 -0.100207 0.294394
0.127424 -0.100228 0.294220
0.128914 -0.100284 0.294139
0.130446 -0.100370 0.294134
0.132137 -0.100577 0.294468
0.133803 -0.100759 0.294719
0.135518 -0.100974 0.295051
0.136961 -0.100985 0.294771
0.138391 -0.100985 0.294449
0.140141 -0.101217 0.294784
0.142030 -0.101543 0.295378
0.143756 -0.101747 0.295601
0.145221 -0.101764 0.295262
0.146808 -0.101865 0.295151
0.148411 -0.101975 0.295048
0.149970 -0.102053 0.294833
0.151467 -0.102088 0.294473
0.152776 -0.101997 0.293731
0.154163 -0.101958 0.293121
0.155824 -0.102100 0.293007
0.157195 -0.102050 0.292323
-0.123605 -0.077435 0.227191
-0.122537 -0.077454 0.227633
-0.121516 -0.077504 0.228147
-0.120407 -0.077499 0.228484
-0.119436 -0.077583 0.229071
-0.118423 -0.077641 0.229569
-0.117261 -0.077602 0.229765
-0.116359 -0.077735 0.230460
-0.115434 -0.077857 0.231107
-0.114423 -0.077922 0.231575
-0.113520 -0.078062 0.232256
-0.112604 -0.078196 0.232909
-0.111705 -0.078345 0.233597
-0.110727 -0.078441 0.234115
-0.109837 -0.078602 0.234819
-0.109022 -0.078821 0.235687
-0.108071 -0.078945 0.236262
-0.107353 -0.079244 0.237351
-0.106439 -0.079403 0.238014
-0.105535 -0.079573 0.238701
-0.104730 -0.079821 0.239618
-0.103816 -0.079992 0.240293
-0.102894 -0.080161 0.240954
-0.102012 -0.080364 0.241712
-0.101103 -0.080552 0.242415
-0.100169 -0.080723 0.243061
-0.099225 -0.080889 0.243689
-0.098289 -0.081067 0.244343
-0.097332 -0.081232 0.244950
-0.096358 -0.081386 0.245522
-0.095366 -0.081528 0.246049
-0.094648 -0.081912 0.247301
-0.095084 -0.083315 0.251628
-0.095820 -0.085021 0.256865
-0.096179 -0.086431 0.261206
-0.095718 -0.087133 0.263400
-0.094887 -0.087511 0.264612
-0.094521 -0.088334 0.267167
-0.094181 -0.089203 0.269856
-0.099507 -0.095538 0.289077
-0.097716 -0.095119 0.287862
-0.097345 -0.096090 0.290851
-0.096510 -0.096625 0.292515
-0.095021 -0.096512 0.292209
-0.093992 -0.096868 0.293322
-0.093034 -0.097310 0.294692
-0.091827 -0.097501 0.295296
-0.090495 -0.097563 0.295504
-0.088504 -0.096906 0.293530
-0.087182 -0.096972 0.293743
-0.085897 -0.097082 0.294086
-0.089967 -0.103347 0.313070
-0.088593 -0.103463 0.313423
-0.087678 -0.104129 0.315439
-0.085869 -0.103737 0.314247
-0.084321 -0.103652 0.313983
-0.083239 -0.104148 0.315475
-0.081395 -0.103691 0.314076
-0.080016 -0.103820 0.314451
-0.079258 -0.104775 0.317325
-0.077074 -0.103846 0.314490
-0.076060 -0.104488 0.316411
-0.074647 -0.104596 0.316712
-0.067182 -0.096057 0.290829
-0.066140 -0.096536 0.292252
-0.064810 -0.096606 0.292434
-0.063393 -0.096547 0.292223
-0.062068 -0.096629 0.292439
-0.060763 -0.096747 0.292762
-0.059312 -0.096632 0.292380
-0.057936 -0.096636 0.292357
-0.056654 -0.096802 0.292821
-0.055179 -0.096639 0.292289
-0.053866 -0.096758 0.292611
-0.052482 -0.096751 0.292552
-0.051039 -0.096635 0.292159
-0.049663 -0.096642 0.292139
-0.048221 -0.096517 0.291722
-0.046853 -0.096537 0.291740
-0.045405 -0.096388 0.291250
-0.043983 -0.096289 0.290908
-0.042607 -0.096286 0.290857
-0.041249 -0.096324 0.290932
-0.039713 -0.095936 0.289717
-0.038836 -0.097170 0.293402
-0.037473 -0.097235 0.293558
-0.035270 -0.095040 0.286891
-0.034332 -0.096213 0.290394
-0.032978 -0.096272 0.290531
-0.029637 -0.090284 0.272424
-0.027981 -0.089117 0.268867
-0.026810 -0.089459 0.269863
-0.025408 -0.089023 0.268515
-0.024049 -0.088700 0.267508
-0.022776 -0.088679 0.267411
-0.021539 -0.088800 0.267746
-0.020418 -0.089448 0.269668
-0.019090 -0.089213 0.268932
-0.017911 -0.089693 0.270348
-0.016748 -0.090332 0.272246
-0.015497 -0.090565 0.272923
-0.014114 -0.089999 0.271192
-0.012809 -0.089868 0.270771
-0.011489 -0.089594 0.269921
-0.010160 -0.089164 0.268604
-0.008799 -0.088298 0.265975
-0.007492 -0.087771 0.264368
-0.006193 -0.087148 0.262474
-0.004956 -0.087295 0.262899
-0.003698 -0.087063 0.262188
-0.002459 -0.087247 0.262726
-0.001215 -0.087503 0.263485
0.000036 -0.087832 0.264463
0.001304 -0.088617 0.266817
0.002584 -0.089088 0.268225
0.003875 -0.089485 0.269413
0.005164 -0.089646 0.269893
0.006473 -0.090015 0.270997
0.007703 -0.089357 0.269012
0.008972 -0.089266 0.268736
0.010249 -0.089267 0.268737
0.011474 -0.088866 0.267529
0.012714 -0.088649 0.266877
0.013992 -0.088717 0.267083
0.015256 -0.088688 0.266998
0.016582 -0.088993 0.267920
0.017924 -0.089337 0.268962
0.019165 -0.089165 0.268451
0.020450 -0.089207 0.268582
0.021849 -0.089708 0.270099
0.022956 -0.089024 0.268050
0.024251 -0.089102 0.268295
0.025490 -0.088976 0.267928
0.026548 -0.088262 0.265787
0.027565 -0.087481 0.263449
0.028706 -0.087143 0.262443
0.029887 -0.086953 0.261884
0.031046 -0.086714 0.261177
0.032280 -0.086696 0.261136
0.033490 -0.086614 0.260905
0.034679 -0.086488 0.260541
0.035919 -0.086493 0.260571
0.037026 -0.086189 0.259668
0.038335 -0.086359 0.260195
0.039704 -0.086648 0.261082
0.041188 -0.087163 0.262650
0.042365 -0.087018 0.262227
0.043812 -0.087419 0.263451
0.045052 -0.087395 0.263395
0.046243 -0.087282 0.263068
0.047748 -0.087752 0.264498
0.048998 -0.087741 0.264476
0.049940 -0.087191 0.262832
0.050966 -0.086811 0.261698
0.052145 -0.086705 0.261389
0.053516 -0.086916 0.262035
0.054792 -0.086965 0.262190
0.056124 -0.087099 0.262602
0.057802 -0.087752 0.264580
0.059233 -0.088011 0.265363
0.060788 -0.088439 0.266658
0.062574 -0.089179 0.268891
0.063989 -0.089371 0.269470
0.065421 -0.089579 0.270095
0.066898 -0.089839 0.270874
0.068326 -0.090025 0.271428
0.069712 -0.090148 0.271793
0.071067 -0.090230 0.272027
0.072332 -0.090195 0.271910
0.073630 -0.090202 0.271913
0.074488 -0.089678 0.270315
0.075861 -0.089783 0.270609
0.077049 -0.089668 0.270237
0.078088 -0.089386 0.269359
0.079466 -0.089496 0.269659
0.080995 -0.089768 0.270444
0.082382 -0.089878 0.270735
0.084269 -0.090521 0.272628
0.086543 -0.091554 0.275692
0.088470 -0.092195 0.277567
0.089866 -0.092272 0.277741
0.092073 -0.093166 0.280369
0.097966 -0.097712 0.293978
0.099259 -0.097605 0.293580
0.100648 -0.097595 0.293470
0.102026 -0.097575 0.293320
0.103662 -0.097798 0.293896
0.104989 -0.097728 0.293585
0.106387 -0.097725 0.293469
0.107836 -0.097769 0.293487
0.109297 -0.097821 0.293522
0.110724 -0.097842 0.293460
0.112220 -0.097923 0.293565
0.113738 -0.098021 0.293715
0.115362 -0.098206 0.294120
0.117049 -0.098440 0.294660
0.118650 -0.098597 0.294961
0.120131 -0.098651 0.294944
0.121636 -0.098725 0.294975
0.123104 -0.098766 0.294901
0.124494 -0.098744 0.294628
0.126092 -0.098886 0.294835
0.127467 -0.098852 0.294504
0.128956 -0.098906 0.294426
0.130556 -0.099043 0.294582
0.132039 -0.099089 0.294455
0.133469 -0.099095 0.294197
0.135152 -0.099286 0.294476
0.136661 -0.099347 0.294356
0.138179 -0.099413 0.294234
0.139634 -0.099433 0.293962
0.141585 -0.099802 0.294707
0.143397 -0.100066 0.295126
0.145270 -0.100367 0.295635
0.146706 -0.100363 0.295227
0.148111 -0.100338 0.294742
0.149862 -0.100546 0.294922
0.151415 -0.100618 0.294684
