ply
format ascii 1.0
element vertex 1744
property float x
property float y
property float z
end_header
0.062714 0.089512 0.269625
0.063823 0.089271 0.268901
0.065211 0.089423 0.269356
0.066591 0.089558 0.269761
0.067862 0.089544 0.269715
0.069321 0.089774 0.270400
0.070697 0.089891 0.270742
0.072508 0.090545 0.272699
0.074098 0.090907 0.273773
0.075424 0.090936 0.273844
0.076804 0.091029 0.274104
0.077866 0.090748 0.273233
0.078613 0.090116 0.271302
0.079956 0.090175 0.271451
0.080892 0.089780 0.270229
0.081882 0.089457 0.269219
0.083210 0.089509 0.269332
0.084915 0.089957 0.270635
0.086458 0.090223 0.271384
0.087397 0.089859 0.270238
0.090522 0.091722 0.275778
0.095433 0.095314 0.286513
0.096692 0.095210 0.286125
0.097971 0.095127 0.285799
0.099711 0.095489 0.286802
0.101135 0.095541 0.286871
0.102942 0.095949 0.287999
0.104147 0.095794 0.287430
0.105420 0.095703 0.287048
0.106924 0.095821 0.287288
0.108287 0.095812 0.287139
0.109501 0.095673 0.286592
0.111444 0.096166 0.287930
0.112872 0.096209 0.287912
0.113876 0.095892 0.286812
0.115632 0.096209 0.287598
0.117140 0.096315 0.287743
0.118599 0.096378 0.287753
0.119894 0.096308 0.287353
0.121273 0.096306 0.287148
0.122772 0.096398 0.287215
0.123704 0.096049 0.285954
0.125125 0.096082 0.285824
0.132688 0.097587 0.289256
0.133965 0.097497 0.288698
0.135142 0.097336 0.287917
0.137053 0.097702 0.288680
0.138299 0.097592 0.288020
0.139454 0.097420 0.287164
0.142211 0.098359 0.289566
0.143452 0.098240 0.288835
0.145671 0.098789 0.290046
0.147422 0.099011 0.290280
0.149004 0.099117 0.290153
0.150608 0.099235 0.290043
0.152417 0.099485 0.290295
0.154221 0.099726 0.290500
0.155541 0.099653 0.289768
-0.045192 0.028744 0.083023
-0.045089 0.028936 0.083719
-0.044789 0.029004 0.084053
-0.044494 0.029077 0.084395
-0.044717 0.029493 0.085731
-0.041065 0.032853 0.097302
-0.040695 0.032927 0.097577
-0.042783 0.035014 0.103820
-0.042270 0.034996 0.103819
-0.041893 0.035091 0.104153
-0.041802 0.035432 0.105213
-0.041226 0.035364 0.105057
-0.041347 0.035899 0.106693
-0.041206 0.036218 0.107682
-0.041302 0.036755 0.109318
-0.041562 0.037455 0.111436
-0.041058 0.037474 0.111530
-0.040940 0.037852 0.112686
-0.043045 0.040320 0.120068
-0.042178 0.040035 0.119249
-0.041665 0.040081 0.119414
-0.061274 0.066084 0.197119
-0.060629 0.066394 0.198059
-0.059981 0.066709 0.199012
-0.059181 0.066863 0.199483
-0.058347 0.066984 0.199851
-0.057729 0.067361 0.200980
-0.056917 0.067520 0.201457
-0.056150 0.067738 0.202108
-0.055426 0.068016 0.202939
-0.054716 0.068323 0.203849
-0.053916 0.068526 0.204449
-0.053186 0.068826 0.205337
-0.052346 0.068993 0.205827
-0.051472 0.069121 0.206196
-0.050693 0.069383 0.206967
-0.049828 0.069536 0.207409
-0.049060 0.069833 0.208277
-0.048371 0.070257 0.209527
-0.047558 0.070515 0.210275
-0.046708 0.070728 0.210891
-0.045921 0.071047 0.211820
-0.045031 0.071218 0.212309
-0.044525 0.072019 0.214672
-0.043832 0.072545 0.216217
-0.043394 0.073531 0.219128
-0.054605 0.094785 0.282435
-0.053321 0.094870 0.282652
-0.052252 0.095352 0.284053
-0.051078 0.095662 0.284938
-0.049898 0.095978 0.285842
-0.048443 0.095769 0.285180
-0.047177 0.095932 0.285628
-0.045947 0.096179 0.286325
-0.044476 0.095923 0.285522
-0.043168 0.096012 0.285749
-0.041752 0.095858 0.285253
-0.040425 0.095908 0.285361
-0.039105 0.095976 0.285523
-0.037763 0.095995 0.285542
-0.036081 0.095117 0.282892
-0.033936 0.092907 0.276280
-0.032631 0.092911 0.276256
-0.030720 0.091118 0.270890
-0.029488 0.091270 0.271307
-0.027934 0.090395 0.268670
-0.026466 0.089727 0.266652
-0.025355 0.090262 0.268208
-0.024158 0.090535 0.268986
-0.022848 0.090386 0.268512
-0.021576 0.090384 0.268476
-0.020317 0.090438 0.268607
-0.019037 0.090402 0.268471
-0.017689 0.090013 0.267289
-0.016507 0.090473 0.268627
-0.015194 0.090230 0.267880
-0.013966 0.090499 0.268655
-0.012696 0.090519 0.268691
-0.011383 0.090208 0.267742
-0.010121 0.090274 0.267919
-0.008858 0.090343 0.268102
-0.007599 0.090488 0.268513
-0.006326 0.090490 0.268500
-0.005053 0.090490 0.268484
-0.003775 0.090375 0.268127
-0.002499 0.090242 0.267719
-0.001224 0.089828 0.266478
0.000041 0.090291 0.267839
0.001309 0.090093 0.267242
0.002575 0.090040 0.267075
0.003883 0.090988 0.269878
0.005151 0.090768 0.269220
0.006243 0.088151 0.261452
0.007352 0.086589 0.256816
0.008561 0.086487 0.256510
0.009763 0.086352 0.256108
0.010969 0.086278 0.255887
0.012208 0.086451 0.256402
0.013467 0.086718 0.257194
0.014744 0.087050 0.258181
0.016052 0.087497 0.259512
0.017333 0.087746 0.260255
0.018643 0.088093 0.261289
0.020099 0.089048 0.264128
0.021311 0.088874 0.263619
0.022805 0.089829 0.266460
0.024171 0.090205 0.267583
0.025431 0.090166 0.267479
0.025292 0.085409 0.253377
0.026634 0.085858 0.254718
0.027845 0.085860 0.254736
0.029045 0.085832 0.254666
0.030294 0.085945 0.255012
0.031473 0.085857 0.254764
0.032815 0.086206 0.255813
0.034136 0.086475 0.256625
0.035367 0.086505 0.256728
0.036600 0.086539 0.256841
0.037875 0.086666 0.257232
0.039274 0.087059 0.258412
0.040473 0.086999 0.258248
0.041361 0.086294 0.256169
0.042680 0.086500 0.256795
0.043828 0.086360 0.256392
0.044792 0.085875 0.254965
0.046036 0.085937 0.255160
0.047188 0.085828 0.254849
0.048458 0.085935 0.255176
0.050167 0.086795 0.257740
0.051621 0.087185 0.258907
0.052811 0.087119 0.258719
0.054282 0.087511 0.259888
0.055677 0.087764 0.260646
0.057413 0.088532 0.262934
0.059214 0.089366 0.265413
0.060906 0.090003 0.267307
0.062576 0.090584 0.269032
0.063805 0.090514 0.268821
0.065031 0.090444 0.268610
0.066450 0.090640 0.269185
0.067623 0.090497 0.268755
0.069000 0.090628 0.269134
0.070667 0.091130 0.270609
0.072160 0.091392 0.271371
0.073209 0.091093 0.270466
0.074537 0.091144 0.270598
0.075693 0.090988 0.270109
0.076532 0.090462 0.268520
0.077168 0.089717 0.266280
0.078198 0.089446 0.265443
0.079563 0.089562 0.265748
0.080319 0.088999 0.264038
0.082026 0.089490 0.265451
0.083870 0.090114 0.267252
0.085240 0.090217 0.267505
0.086612 0.090319 0.267750
0.089317 0.091789 0.272043
0.096588 0.096461 0.285743
0.097844 0.096356 0.285350
0.099794 0.096928 0.286955
0.101372 0.097128 0.287452
0.102991 0.097361 0.288041
0.104386 0.097380 0.287989
0.105682 0.097306 0.287658
0.107157 0.097397 0.287804
0.108652 0.097503 0.287991
0.110455 0.097880 0.288967
0.111638 0.097705 0.288307
0.112623 0.097363 0.287146
0.114448 0.097745 0.288116
0.115723 0.097656 0.287683
0.116982 0.097554 0.287207
0.118600 0.097751 0.287601
0.119852 0.097644 0.287092
0.121095 0.097533 0.286561
0.122534 0.097581 0.286487
0.123844 0.097526 0.286100
0.125032 0.097376 0.285426
0.126686 0.097589 0.285802
0.129336 0.098557 0.288376
0.135839 0.099231 0.289172
0.137125 0.099145 0.288594
0.139296 0.099694 0.289848
0.141434 0.100209 0.290984
0.142140 0.099709 0.289157
0.144046 0.100052 0.289759
0.145985 0.100411 0.290387
0.147756 0.100648 0.290645
0.149375 0.100778 0.290573
0.151225 0.101060 0.290916
0.152786 0.101145 0.290671
0.154405 0.101267 0.290512
0.156112 0.101442 0.290483
-0.045408 0.029289 0.083326
-0.045125 0.029368 0.083696
-0.044896 0.029484 0.084166
-0.044694 0.029620 0.084689
-0.044694 0.029893 0.085602
-0.045379 0.031216 0.089768
-0.044136 0.030653 0.088261
-0.041210 0.033435 0.097597
-0.040736 0.033426 0.097630
-0.042745 0.035476 0.103679
-0.042114 0.035359 0.103392
-0.041675 0.035401 0.103569
-0.041328 0.035524 0.103979
-0.041186 0.035828 0.104917
-0.040687 0.035825 0.104953
-0.040920 0.036474 0.106897
-0.040973 0.036977 0.108413
-0.042059 0.038438 0.112735
-0.041892 0.038775 0.113764
-0.044160 0.041405 0.121516
-0.043432 0.041258 0.121119
-0.042910 0.041305 0.121289
-0.062483 0.067320 0.197969
-0.061618 0.067393 0.198206
-0.060836 0.067561 0.198719
-0.060039 0.067717 0.199193
-0.059208 0.067839 0.199565
-0.058494 0.068102 0.200347
-0.057667 0.068238 0.200756
-0.056816 0.068352 0.201096
-0.056101 0.068635 0.201932
-0.055303 0.068824 0.202489
-0.054554 0.069083 0.203250
-0.053772 0.069308 0.203909
-0.052922 0.069452 0.204327
-0.052068 0.069596 0.204746
-0.051199 0.069725 0.205116
-0.050355 0.069894 0.205601
-0.049717 0.070361 0.206964
-0.049013 0.070752 0.208102
-0.048267 0.071097 0.209100
-0.047432 0.071322 0.209744
-0.046558 0.071497 0.210241
-0.045764 0.071805 0.211130
-0.044903 0.072020 0.211742
-0.044205 0.072511 0.213164
-0.043392 0.072833 0.214087
-0.043646 0.075004 0.220445
-0.054889 0.096626 0.283963
-0.053598 0.096712 0.284181
-0.052383 0.096943 0.284829
-0.051167 0.097186 0.285507
-0.049809 0.097164 0.285407
-0.048455 0.097149 0.285326
-0.047190 0.097316 0.285781
-0.045866 0.097369 0.285899
-0.044493 0.097318 0.285713
-0.043164 0.097363 0.285809
-0.041762 0.097239 0.285408
-0.039719 0.095569 0.280467
-0.039167 0.097492 0.286073
-0.037841 0.097557 0.286229
-0.035802 0.095723 0.280811
-0.034242 0.095075 0.278874
-0.032492 0.093829 0.275184
-0.030621 0.092113 0.270117
-0.029373 0.092204 0.270350
-0.027916 0.091620 0.268605
-0.026348 0.090594 0.265567
-0.024999 0.090260 0.264556
-0.023930 0.090956 0.266563
-0.022522 0.090366 0.264804
-0.021192 0.090041 0.263824
-0.019958 0.090108 0.263993
-0.018696 0.090049 0.263793
-0.017534 0.090498 0.265081
-0.016251 0.090344 0.264602
-0.015137 0.091178 0.267020
-0.013844 0.090996 0.266464
-0.012574 0.090939 0.266274
-0.011379 0.091472 0.267812
-0.010074 0.091151 0.266852
-0.008812 0.091175 0.266902
-0.007576 0.091534 0.267934
-0.006321 0.091749 0.268545
-0.005051 0.091795 0.268666
-0.003784 0.091970 0.269163
-0.002497 0.091583 0.268015
-0.001222 0.091290 0.267144
0.000045 0.091626 0.268115
0.001317 0.091652 0.268181
0.002572 0.091076 0.266488
0.003875 0.091987 0.269145
0.005159 0.092124 0.269537
0.006438 0.092117 0.269512
0.007373 0.088017 0.257511
0.008578 0.087842 0.256997
0.009737 0.087303 0.255417
0.010992 0.087648 0.256426
0.012220 0.087726 0.256652
0.013466 0.087906 0.257180
0.014738 0.088218 0.258093
0.015960 0.088202 0.258049
0.017231 0.088436 0.258739
0.018523 0.088741 0.259636
0.019991 0.089802 0.262746
0.021426 0.090595 0.265071
0.022707 0.090687 0.265347
0.024047 0.090989 0.266240
0.025300 0.090951 0.266137
0.025008 0.085624 0.250558
0.026215 0.085684 0.250743
0.027430 0.085760 0.250977
0.028653 0.085854 0.251262
0.029813 0.085760 0.250995
0.031081 0.085973 0.251630
0.032254 0.085916 0.251474
0.033405 0.085806 0.251164
0.034873 0.086488 0.253173
0.035799 0.085826 0.251247
0.036981 0.085802 0.251188
0.040628 0.091319 0.267353
0.040813 0.088956 0.260446
0.041515 0.087826 0.257149
0.042689 0.087730 0.256878
0.043353 0.086619 0.253636
0.044321 0.086161 0.252306
0.045604 0.086322 0.252787
0.046568 0.085886 0.251519
0.048015 0.086341 0.252859
0.049721 0.087229 0.255467
0.050974 0.087298 0.255675
0.052505 0.087827 0.257230
0.053859 0.088045 0.257873
0.055336 0.088447 0.259056
0.057211 0.089456 0.262013
0.059218 0.090624 0.265433
0.060563 0.090751 0.265803
0.062144 0.091219 0.267171
0.063937 0.091973 0.269374
0.064954 0.091602 0.268283
0.066469 0.091935 0.269249
0.067627 0.091771 0.268757
0.068911 0.091780 0.268771
0.070505 0.092195 0.269970
0.071937 0.092387 0.270512
0.072783 0.091832 0.268866
0.073871 0.091597 0.268153
0.075362 0.091860 0.268897
0.076149 0.091271 0.267141
0.076966 0.090737 0.265544
0.077720 0.090146 0.263777
0.078797 0.089942 0.263143
0.080025 0.089915 0.263020
0.081473 0.090133 0.263609
0.083503 0.090978 0.266025
0.085521 0.091784 0.268325
0.086302 0.091258 0.266727
0.088682 0.092414 0.270038
0.097164 0.097028 0.283280
0.099563 0.098060 0.286199
0.101135 0.098260 0.286684
0.102733 0.098479 0.287218
0.104119 0.098493 0.287144
0.105380 0.098389 0.286725
0.106802 0.098436 0.286737
0.108469 0.098705 0.287385
0.109638 0.098519 0.286705
0.111290 0.098767 0.287277
0.113120 0.099164 0.288276
0.114587 0.099238 0.288323
0.115981 0.099247 0.288176
0.117494 0.099356 0.288309
0.118875 0.099352 0.288106
0.120128 0.099243 0.287588
0.121529 0.099256 0.287415
0.122835 0.099194 0.287012
0.124064 0.099070 0.286423
0.124525 0.098343 0.284078
0.125922 0.098363 0.283883
0.129245 0.099869 0.287965
0.130519 0.099778 0.287421
0.137042 0.100476 0.288173
0.138075 0.100207 0.287053
0.138919 0.099808 0.285547
0.143163 0.101836 0.290962
0.143576 0.101125 0.288531
0.145462 0.101455 0.289054
0.148098 0.102297 0.291012
0.149636 0.102371 0.290765
0.151095 0.102390 0.290341
0.152839 0.102600 0.290437
0.154534 0.102773 0.290406
0.156160 0.102898 0.290213
-0.044986 0.029420 0.082454
-0.045177 0.029810 0.083697
-0.045046 0.029994 0.084355
-0.044826 0.030121 0.084850
-0.044803 0.030383 0.085723
-0.044586 0.030518 0.086232
-0.044273 0.030879 0.087500
-0.045014 0.031697 0.089936
-0.041174 0.033870 0.097462
-0.040371 0.033587 0.096707
-0.039983 0.033646 0.096935
-0.041711 0.035508 0.102356
-0.041371 0.035632 0.102769
-0.041540 0.036203 0.104469
-0.040717 0.035913 0.103680
-0.040884 0.036499 0.105420
-0.041598 0.037594 0.108629
-0.041975 0.038409 0.111027
-0.041722 0.038660 0.111794
-0.041439 0.038889 0.112497
-0.044435 0.042242 0.122236
-0.043908 0.042290 0.122410
-0.062362 0.068125 0.197561
-0.061465 0.068162 0.197692
-0.060642 0.068284 0.198064
-0.059927 0.068532 0.198802
-0.059102 0.068661 0.199193
-0.058381 0.068916 0.199946
-0.057594 0.069101 0.200492
-0.056821 0.069310 0.201107
-0.056046 0.069523 0.201730
-0.055277 0.069750 0.202393
-0.054459 0.069923 0.202896
-0.053622 0.070078 0.203345
-0.052837 0.070306 0.204005
-0.051989 0.070459 0.204444
-0.051151 0.070630 0.204934
-0.050415 0.070953 0.205864
-0.049583 0.071150 0.206424
-0.048862 0.071517 0.207479
-0.048103 0.071843 0.208412
-0.047273 0.072073 0.209065
-0.046453 0.072331 0.209796
-0.045672 0.072661 0.210736
-0.044913 0.073041 0.211821
-0.044156 0.073441 0.212962
-0.043447 0.073943 0.214396
-0.043578 0.075931 0.220140
-0.054755 0.097734 0.283321
-0.053191 0.097317 0.282082
-0.052306 0.098153 0.284474
-0.051099 0.098411 0.285191
-0.049719 0.098342 0.284957
-0.048422 0.098439 0.285204
-0.047150 0.098592 0.285616
-0.045877 0.098753 0.286048
-0.044507 0.098709 0.285885
-0.043167 0.098730 0.285909
-0.040827 0.096391 0.279101
-0.039296 0.095871 0.277561
-0.038256 0.100006 0.289461
-0.036076 0.097804 0.283055
-0.034545 0.097258 0.281439
-0.033235 0.097317 0.281576
-0.030318 0.092479 0.267546
-0.029134 0.092737 0.268258
-0.027665 0.092067 0.266292
-0.026302 0.091706 0.265214
-0.024916 0.091224 0.263791
-0.023749 0.091535 0.264661
-0.022598 0.091944 0.265816
-0.021199 0.091336 0.264029
-0.019963 0.091398 0.264183
-0.018679 0.091233 0.263679
-0.017369 0.090906 0.262708
-0.016083 0.090671 0.262004
-0.014920 0.091141 0.263339
-0.013656 0.091028 0.262989
-0.012392 0.090891 0.262572
-0.011169 0.091065 0.263052
-0.009911 0.090952 0.262707
-0.008684 0.091143 0.263239
-0.007452 0.091327 0.263752
-0.006216 0.091534 0.264334
-0.004971 0.091671 0.264712
-0.003729 0.091981 0.265594
-0.002482 0.092422 0.266852
-0.001212 0.092021 0.265683
0.000048 0.092617 0.267391
0.001320 0.092904 0.268208
0.002578 0.092395 0.266731
0.003901 0.093796 0.270765
0.005198 0.094032 0.271439
0.006150 0.089161 0.257373
0.007276 0.088024 0.254087
0.008497 0.088180 0.254534
0.009755 0.088644 0.255869
0.011016 0.089026 0.256969
0.012215 0.088882 0.256553
0.013477 0.089175 0.257400
0.014757 0.089534 0.258437
0.016010 0.089679 0.258857
0.017304 0.090023 0.259852
0.018610 0.090378 0.260882
0.020031 0.091211 0.263289
0.021369 0.091593 0.264398
0.022599 0.091491 0.264108
0.023979 0.091976 0.265515
0.025261 0.092057 0.265758
0.026636 0.092452 0.266906
0.027934 0.092556 0.267216
0.029274 0.092782 0.267877
0.030672 0.093167 0.268996
0.032054 0.093474 0.269894
0.033368 0.093568 0.270175
0.034667 0.093613 0.270315
0.035207 0.091678 0.264739
0.036528 0.091839 0.265215
0.038364 0.093244 0.269282
0.039035 0.091815 0.265164
0.040567 0.092439 0.266977
0.041405 0.091490 0.264247
0.042221 0.090549 0.261540
0.043006 0.089599 0.258803
0.043849 0.088819 0.256561
0.044601 0.087900 0.253914
0.045716 0.087728 0.253423
0.046628 0.087184 0.251859
0.047746 0.087042 0.251453
0.049492 0.088024 0.254298
0.050765 0.088138 0.254631
0.052134 0.088410 0.255420
0.053535 0.088723 0.256324
0.055085 0.089262 0.257883
0.056638 0.089784 0.259390
0.058378 0.090572 0.261664
0.060114 0.091321 0.263826
0.061742 0.091880 0.265434
0.063335 0.092365 0.266827
0.064662 0.092451 0.267065
0.066293 0.092958 0.268518
0.067337 0.092640 0.267585
0.068780 0.092872 0.268239
0.070134 0.092977 0.268523
0.071406 0.092972 0.268485
0.072537 0.092786 0.267925
0.073573 0.092488 0.267036
0.074715 0.092330 0.266551
0.075799 0.092108 0.265874
0.076259 0.091146 0.263061
0.076813 0.090325 0.260652
0.078060 0.090333 0.260633
0.079308 0.090342 0.260611
0.080857 0.090688 0.261556
0.082676 0.091322 0.263328
0.084884 0.092360 0.266261
0.085862 0.092049 0.265299
0.086956 0.091869 0.264711
0.097997 0.099214 0.285616
0.099717 0.099570 0.286544
0.101055 0.099540 0.286354
0.102689 0.099799 0.286988
0.104064 0.099803 0.286881
0.105284 0.099660 0.286347
0.106795 0.099791 0.286593
0.108116 0.099745 0.286322
0.109326 0.099598 0.285755
0.110768 0.099664 0.285792
0.111985 0.099527 0.285239
0.114677 0.100689 0.288397
0.115964 0.100604 0.287975
0.117306 0.100570 0.287686
0.118767 0.100635 0.287675
0.120088 0.100582 0.287317
0.121381 0.100507 0.286884
0.122607 0.100380 0.286293
0.124068 0.100444 0.286237
0.125266 0.100296 0.285568
0.125979 0.099768 0.283805
0.127606 0.099967 0.284099
0.127704 0.098977 0.281003
0.129705 0.099467 0.282100
0.139633 0.102740 0.290026
0.140938 0.102660 0.289422
0.143226 0.103291 0.290805
0.144446 0.103145 0.289984
0.146320 0.103465 0.290454
0.148201 0.103784 0.290899
0.150092 0.104104 0.291324
0.151729 0.104243 0.291221
0.153588 0.104530 0.291510
0.155300 0.104712 0.291483
0.156643 0.104644 0.290738
-0.045376 0.030083 0.083070
-0.045074 0.030151 0.083408
-0.044973 0.030356 0.084124
-0.044669 0.030427 0.084461
-0.044707 0.030734 0.085448
-0.044369 0.030786 0.085725
-0.044022 0.031125 0.086920
-0.044988 0.032114 0.089802
-0.040865 0.034078 0.096680
-0.041053 0.034623 0.098289
-0.042141 0.035949 0.102115
-0.042266 0.036474 0.103667
-0.041909 0.036591 0.104057
-0.041469 0.036637 0.104243
-0.041137 0.036781 0.104704
-0.040696 0.036830 0.104894
-0.040486 0.037092 0.105687
-0.040225 0.037313 0.106359
-0.045846 0.043065 0.122803
-0.045316 0.043112 0.122983
-0.044785 0.043159 0.123161
-0.063817 0.068625 0.196222
-0.063052 0.068799 0.196751
-0.062321 0.069016 0.197402
-0.061517 0.069157 0.197833
-0.060636 0.069214 0.198020
-0.059889 0.069430 0.198657
-0.059074 0.069570 0.199078
-0.058320 0.069791 0.199723
-0.057559 0.070008 0.200359
-0.056750 0.070174 0.200845
-0.055957 0.070366 0.201403
-0.055098 0.070480 0.201734
-0.054294 0.070668 0.202278
-0.053370 0.070706 0.202388
-0.052495 0.070811 0.202688
-0.051757 0.071108 0.203535
-0.050647 0.070896 0.202926
-0.049717 0.070932 0.203021
-0.049657 0.072236 0.206747
-0.048834 0.072459 0.207375
-0.048045 0.072742 0.208177
-0.047175 0.072914 0.208656
-0.046391 0.073227 0.209538
-0.045552 0.073467 0.210209
-0.044796 0.073851 0.211294
-0.044273 0.074649 0.213559
-0.043714 0.075422 0.215751
-0.055953 0.098836 0.282704
-0.054668 0.098922 0.282925
-0.053615 0.099443 0.284387
-0.052263 0.099421 0.284295
-0.050854 0.099288 0.283885
-0.049707 0.099673 0.284954
-0.048348 0.099641 0.284832
-0.047001 0.099635 0.284783
-0.045665 0.099650 0.284794
-0.044446 0.099931 0.285565
-0.043099 0.099932 0.285536
-0.041509 0.099353 0.283847
-0.039345 0.097316 0.277994
-0.039529 0.101143 0.288894
-0.038190 0.101210 0.289051
-0.035964 0.098845 0.282263
-0.034684 0.098997 0.282666
-0.033369 0.099057 0.282804
-0.030222 0.093459 0.266790
-0.028637 0.092413 0.263775
-0.027171 0.091674 0.261637
-0.025603 0.090501 0.258261
-0.024169 0.089711 0.255979
-0.022767 0.088964 0.253819
-0.022556 0.093045 0.265436
-0.021159 0.092429 0.263651
-0.019421 0.090148 0.257120
-0.018571 0.091966 0.262280
-0.017334 0.091988 0.262318
-0.016006 0.091492 0.260879
-0.014874 0.092130 0.262676
-0.013653 0.092280 0.263080
-0.012330 0.091707 0.261427
-0.011078 0.091591 0.261075
-0.009771 0.090935 0.259186
-0.008493 0.090391 0.257619
-0.007274 0.090406 0.257643
-0.006068 0.090626 0.258255
-0.004839 0.090521 0.257938
-0.003632 0.090914 0.259045
-0.002421 0.091541 0.260817
-0.001189 0.091831 0.261631
0.000052 0.093111 0.265268
0.001314 0.093458 0.266246
0.002570 0.093230 0.265587
0.003874 0.094336 0.268729
0.005163 0.094602 0.269479
0.006079 0.089292 0.254347
0.007285 0.089286 0.254326
0.008494 0.089321 0.254419
0.009693 0.089248 0.254210
0.010920 0.089430 0.254724
0.012154 0.089616 0.255254
0.013399 0.089848 0.255913
0.014614 0.089854 0.255930
0.015927 0.090418 0.257539
0.017104 0.090179 0.256860
0.018376 0.090445 0.257619
0.019831 0.091519 0.260683
0.021341 0.092708 0.264073
0.022661 0.092983 0.264863
0.023936 0.093052 0.265063
0.025205 0.093095 0.265192
0.026595 0.093560 0.266524
0.027892 0.093666 0.266833
0.029229 0.093895 0.267494
0.030625 0.094285 0.268612
0.032005 0.094597 0.269509
0.033317 0.094693 0.269789
0.034614 0.094739 0.269929
0.035827 0.094558 0.269424
0.037127 0.094613 0.269588
0.038306 0.094368 0.268899
0.039474 0.094109 0.268170
0.040607 0.093786 0.267259
0.041820 0.093662 0.266914
0.042614 0.092636 0.263997
0.043293 0.091424 0.260549
0.043977 0.090289 0.257321
0.044865 0.089623 0.255430
0.045892 0.089263 0.254409
0.046683 0.088474 0.252165
0.047785 0.088299 0.251670
0.049148 0.088602 0.252537
0.050575 0.089003 0.253682
0.052072 0.089507 0.255118
0.053668 0.090154 0.256961
0.054746 0.089920 0.256294
0.056641 0.091011 0.259400
0.059340 0.093318 0.265968
0.060284 0.092828 0.264564
0.061635 0.092970 0.264961
0.063764 0.094257 0.268619
0.064923 0.094088 0.268125
0.066047 0.093876 0.267503
0.067325 0.093885 0.267512
0.068540 0.093808 0.267274
0.069755 0.093735 0.267044
0.070983 0.093681 0.266865
0.071957 0.093299 0.265747
0.072928 0.092927 0.264657
0.073837 0.092489 0.263375
0.074865 0.092213 0.262552
0.075774 0.091800 0.261337
0.076449 0.091123 0.259367
0.077646 0.091079 0.259196
0.078806 0.090994 0.258902
0.080343 0.091340 0.259831
0.081967 0.091773 0.261003
0.083815 0.092440 0.262836
0.085516 0.092928 0.264155
0.086968 0.093134 0.264666
0.097836 0.101818 0.289167
0.097323 0.099875 0.283554
0.099429 0.100637 0.285613
0.100801 0.100644 0.285526
0.102408 0.100883 0.286089
0.104331 0.101424 0.287499
0.105800 0.101514 0.287626
0.107315 0.101645 0.287859
0.108817 0.101761 0.288044
0.110367 0.101918 0.288335
0.111897 0.102053 0.288557
0.113209 0.101988 0.288204
0.114904 0.102265 0.288811
0.116394 0.102355 0.288879
0.117644 0.102235 0.288345
0.119051 0.102252 0.288187
0.120439 0.102253 0.287973
0.121822 0.102249 0.287739
0.123065 0.102129 0.287166
0.124470 0.102144 0.286962
0.126174 0.102403 0.287430
0.127831 0.102617 0.287760
0.129203 0.102600 0.287432
0.129997 0.102129 0.285819
0.129621 0.100758 0.281680
0.135097 0.103918 0.290188
0.136396 0.103833 0.289610
0.140861 0.104004 0.288980
0.139971 0.102321 0.283906
0.143557 0.103910 0.287896
0.145254 0.104114 0.288024
0.148537 0.105439 0.291230
0.149586 0.105168 0.290003
0.151981 0.105841 0.291354
0.153377 0.105811 0.290748
0.154815 0.105809 0.290199
0.156861 0.106220 0.290756
-0.044944 0.030200 0.082176
-0.044910 0.030448 0.083005
-0.044650 0.030546 0.083422
-0.044543 0.030752 0.084125
-0.044553 0.031043 0.085061
-0.044138 0.031041 0.085189
-0.043524 0.031190 0.085851
-0.043143 0.031214 0.086035
-0.040948 0.034610 0.096821
-0.040530 0.034645 0.096984
-0.040362 0.034898 0.097754
-0.041685 0.036460 0.102192
-0.041368 0.036608 0.102664
-0.040818 0.036550 0.102560
-0.040557 0.036754 0.103184
-0.040183 0.036858 0.103528
-0.039597 0.036769 0.103325
-0.039177 0.036833 0.103548
-0.064420 0.069210 0.195172
-0.063647 0.069369 0.195659
-0.062861 0.069520 0.196120
-0.062105 0.069709 0.196684
-0.061309 0.069856 0.197131
-0.060505 0.070001 0.197566
-0.059769 0.070229 0.198234
-0.059015 0.070443 0.198857
-0.058272 0.070677 0.199538
-0.057535 0.070928 0.200260
-0.056676 0.071032 0.200568
-0.055885 0.071227 0.201130
-0.055152 0.071505 0.201923
-0.054230 0.071543 0.202038
-0.053391 0.071693 0.202464
-0.052619 0.071940 0.203166
-0.051741 0.072051 0.203478
-0.050843 0.072136 0.203716
-0.050174 0.072554 0.204895
-0.049598 0.073128 0.206510
-0.048788 0.073372 0.207192
-0.047922 0.073540 0.207659
-0.047075 0.073746 0.208230
-0.046291 0.074061 0.209107
-0.045558 0.074473 0.210257
-0.044853 0.074949 0.211589
-0.044183 0.075509 0.213154
-0.043640 0.076316 0.215416
-0.056135 0.100503 0.283667
-0.054845 0.100590 0.283889
-0.053529 0.100632 0.283980
-0.052169 0.100591 0.283839
-0.050944 0.100814 0.284441
-0.049666 0.100943 0.284778
-0.048332 0.100961 0.284799
-0.047035 0.101061 0.285053
-0.045725 0.101138 0.285239
-0.044392 0.101166 0.285288
-0.043060 0.101201 0.285355
-0.041104 0.099721 0.281152
-0.039365 0.098689 0.278213
-0.039367 0.105750 0.298051
-0.035983 0.100245 0.282506
-0.034718 0.100443 0.283032
-0.033400 0.100503 0.283170
-0.030298 0.094971 0.267555
-0.028652 0.093721 0.264004
-0.027302 0.093372 0.262993
-0.025871 0.092698 0.261067
-0.024409 0.091840 0.258624
-0.023237 0.092043 0.259168
-0.022039 0.092157 0.259463
-0.020813 0.092160 0.259448
-0.019497 0.091742 0.258246
-0.018354 0.092139 0.259339
-0.017142 0.092216 0.259534
-0.015810 0.091612 0.257809
-0.014732 0.092507 0.260308
-0.013579 0.093048 0.261807
-0.012265 0.092484 0.260200
-0.011094 0.092990 0.261604
-0.009875 0.093175 0.262106
-0.008590 0.092704 0.260764
-0.007364 0.092815 0.261059
-0.006117 0.092654 0.260589
-0.004860 0.092215 0.259341
-0.003658 0.092897 0.261243
-0.002427 0.093163 0.261978
-0.001185 0.093031 0.261595
0.000056 0.094085 0.264548
0.001317 0.094614 0.266024
0.002563 0.094099 0.264566
0.003879 0.095626 0.268850
0.005172 0.095982 0.269844
0.006451 0.095975 0.269819
0.007166 0.088977 0.250139
0.008382 0.089292 0.251020
0.009632 0.089851 0.252586
0.010789 0.089519 0.251650
0.012032 0.089891 0.252694
0.013286 0.090265 0.253745
0.014561 0.090712 0.255000
0.015909 0.091509 0.257243
0.017068 0.091186 0.256334
0.018392 0.091726 0.257855
0.019894 0.093031 0.261526
0.021189 0.093273 0.262210
0.022509 0.093589 0.263102
0.023751 0.093566 0.263042
0.025030 0.093683 0.263374
0.026307 0.093783 0.263660
0.027712 0.094305 0.265135
0.028955 0.094259 0.265011
0.030327 0.094617 0.266024
0.031725 0.095024 0.267174
0.033128 0.095414 0.268279
0.034495 0.095676 0.269021
0.035770 0.095673 0.269020
0.037112 0.095842 0.269502
0.038339 0.095712 0.269145
0.039441 0.095289 0.267962
0.040731 0.095334 0.268093
0.041471 0.094127 0.264705
0.042292 0.093168 0.262015
0.042851 0.091704 0.257902
0.043613 0.090744 0.255206
0.044430 0.089945 0.252964
0.045299 0.089291 0.251127
0.046356 0.089033 0.250404
0.047672 0.089273 0.251079
0.049068 0.089645 0.252127
0.050489 0.090045 0.253250
0.051950 0.090496 0.254518
0.053437 0.090970 0.255848
0.054761 0.091153 0.256358
0.056393 0.091830 0.258254
0.058095 0.092588 0.260379
0.059723 0.093199 0.262087
0.061354 0.093790 0.263737
0.062647 0.093850 0.263892
0.064433 0.094633 0.266079
0.065796 0.094775 0.266458
0.067112 0.094846 0.266638
0.068286 0.094717 0.266253
0.069471 0.094609 0.265922
0.070654 0.094500 0.265589
0.071677 0.094186 0.264674
0.072230 0.093275 0.262080
0.073350 0.093115 0.261593
0.074470 0.092959 0.261115
0.075397 0.092572 0.259984
0.076156 0.091995 0.258318
0.077355 0.091958 0.258164
0.078598 0.091975 0.258157
0.079529 0.091632 0.257135
0.080724 0.091598 0.256977
0.082119 0.091788 0.257445
0.083842 0.092334 0.258904
0.084049 0.091219 0.255701
0.096452 0.103183 0.289148
0.097732 0.103077 0.288756
0.097515 0.101419 0.284009
0.099925 0.102499 0.286927
0.101148 0.102350 0.286395
0.102705 0.102537 0.286799
0.104113 0.102574 0.286773
0.105171 0.102268 0.285784
0.107014 0.102724 0.286916
0.108335 0.102674 0.286627
0.109980 0.102927 0.287177
0.111385 0.102953 0.287085
0.112861 0.103043 0.287159
0.114338 0.103131 0.287224
0.115913 0.103304 0.287514
0.117474 0.103462 0.287751
0.118818 0.103426 0.287439
0.120456 0.103644 0.287823
0.121753 0.103567 0.287379
0.123101 0.103534 0.287046
0.124741 0.103745 0.287377
0.126812 0.104305 0.288662
0.128182 0.104284 0.288324
0.129422 0.104157 0.287684
0.131166 0.104435 0.288146
0.131241 0.103392 0.284954
0.132837 0.103556 0.285079
0.134948 0.104113 0.286269
0.137034 0.104640 0.287358
0.146093 0.107169 0.292662
0.147433 0.107098 0.292015
0.149872 0.107819 0.293504
0.151435 0.107902 0.293234
0.152443 0.107591 0.291875
0.153949 0.107634 0.291454
0.155528 0.107728 0.291148
0.156972 0.107726 0.290560
-0.044431 0.030254 0.081133
-0.044434 0.030528 0.082023
-0.044524 0.030867 0.083086
-0.044384 0.031052 0.083728
-0.044564 0.031465 0.084985
-0.044179 0.031485 0.085174
-0.043494 0.031585 0.085704
-0.043066 0.031575 0.085797
-0.040334 0.034546 0.095313
-0.040149 0.034778 0.096018
-0.040415 0.035410 0.097828
-0.042013 0.037238 0.102942
-0.041481 0.037198 0.102894
-0.041093 0.037289 0.103201
-0.040727 0.037401 0.103568
-0.040555 0.037696 0.104439
-0.040071 0.037706 0.104516
-0.039619 0.037746 0.104674
-0.065280 0.070071 0.194902
-0.064433 0.070149 0.195163
-0.063696 0.070352 0.195770
-0.062812 0.070395 0.195928
-0.062061 0.070590 0.196506
-0.061317 0.070800 0.197123
-0.060479 0.070906 0.197449
-0.059786 0.071188 0.198261
-0.058954 0.071312 0.198629
-0.058163 0.071489 0.199142
-0.057380 0.071682 0.199699
-0.056552 0.071826 0.200115
-0.055746 0.072001 0.200618
-0.054927 0.072166 0.201088
-0.054104 0.072331 0.201557
-0.053228 0.072431 0.201841
-0.052468 0.072695 0.202582
-0.051686 0.072937 0.203261
-0.050857 0.073121 0.203774
-0.050110 0.073432 0.204640
-0.049343 0.073726 0.205455
-0.048481 0.073887 0.205899
-0.047799 0.074334 0.207139
-0.046932 0.074507 0.207614
-0.046148 0.074821 0.208480
-0.045312 0.075063 0.209145
-0.044818 0.075894 0.211447
-0.044344 0.076798 0.213954
-0.056191 0.099580 0.277404
-0.054932 0.099666 0.277625
-0.053884 0.100151 0.278954
-0.053510 0.101944 0.283927
-0.052102 0.101807 0.283519
-0.050860 0.101996 0.284023
-0.049569 0.102097 0.284277
-0.048326 0.102302 0.284824
-0.046989 0.102317 0.284837
-0.045509 0.102011 0.283956
-0.044372 0.102477 0.285228
-0.043039 0.102507 0.285283
-0.041066 0.100967 0.280967
-0.039468 0.100276 0.279015
-0.040677 0.106915 0.297459
-0.039298 0.106984 0.297619
-0.035992 0.101618 0.282662
-0.035146 0.103050 0.286616
-0.033812 0.103111 0.286755
-0.030025 0.095382 0.265232
-0.028620 0.094878 0.263805
-0.027171 0.094177 0.261828
-0.025870 0.093942 0.261151
-0.024493 0.093398 0.259612
-0.023182 0.093062 0.258652
-0.022051 0.093450 0.259706
-0.020794 0.093319 0.259317
-0.019496 0.092978 0.258346
-0.018364 0.093436 0.259596
-0.017194 0.093749 0.260442
-0.015903 0.093402 0.259458
-0.014663 0.093327 0.259227
-0.013519 0.093896 0.260787
-0.012290 0.093933 0.260870
-0.011005 0.093507 0.259669
-0.009759 0.093350 0.259213
-0.008555 0.093600 0.259890
-0.007304 0.093327 0.259118
-0.006073 0.093263 0.258922
-0.004864 0.093605 0.259859
-0.003628 0.093457 0.259433
-0.002407 0.093764 0.260273
-0.001180 0.094254 0.261621
0.000059 0.094251 0.261602
0.001306 0.094815 0.263157
0.002565 0.095288 0.264460
0.003844 0.095922 0.266211
0.005112 0.096053 0.266566
0.006378 0.096091 0.266663
0.007641 0.096082 0.266633
0.009264 0.099957 0.277381
0.010516 0.099369 0.275745
0.011903 0.100034 0.277587
0.013041 0.098695 0.273869
0.014333 0.098651 0.273742
0.015459 0.097563 0.270723
0.016366 0.095369 0.264634
0.017570 0.095095 0.263874
0.018842 0.095203 0.264176
0.020125 0.095345 0.264570
0.021345 0.095192 0.264148
0.022592 0.095168 0.264085
0.023644 0.094370 0.261873
0.024885 0.094366 0.261864
0.026192 0.094602 0.262524
0.027444 0.094625 0.262592
0.028659 0.094525 0.262320
0.029904 0.094526 0.262327
0.031230 0.094776 0.263025
0.032565 0.095030 0.263737
0.033902 0.095271 0.264409
0.035113 0.095155 0.264094
0.036425 0.095309 0.264526
0.038022 0.096176 0.266936
0.039069 0.095639 0.265452
0.040363 0.095722 0.265686
0.041457 0.095337 0.264622
0.042668 0.095240 0.264356
0.043573 0.094481 0.262252
0.043894 0.092536 0.256854
0.044799 0.091892 0.255069
0.045794 0.091462 0.253875
0.046529 0.090547 0.251337
0.047737 0.090578 0.251420
0.049150 0.090985 0.252548
0.050511 0.091278 0.253358
0.051977 0.091743 0.254645
0.053661 0.092562 0.256912
0.054999 0.092762 0.257460
0.056477 0.093185 0.258624
0.058496 0.094462 0.262159
0.060165 0.095133 0.264009
0.061152 0.094720 0.262847
0.062836 0.095382 0.264667
0.064385 0.095816 0.265852
0.065457 0.095538 0.265059
0.066835 0.095707 0.265505
0.067980 0.095543 0.265022
0.069233 0.095535 0.264972
0.070179 0.095109 0.263760
0.071426 0.095101 0.263701
0.072361 0.094683 0.262506
0.073267 0.094243 0.261245
0.074255 0.093920 0.260306
0.074997 0.093303 0.258548
0.075686 0.092640 0.256663
0.076832 0.092548 0.256353
0.077871 0.092333 0.255699
0.079366 0.092657 0.256534
0.080862 0.092971 0.257338
0.082332 0.093247 0.258031
0.083640 0.093334 0.258195
0.084963 0.093435 0.258395
0.086109 0.093341 0.258050
0.097627 0.104334 0.288340
0.097717 0.102977 0.284484
0.099597 0.103519 0.285868
0.101137 0.103697 0.286242
0.102416 0.103606 0.285865
0.103666 0.103489 0.285410
0.105457 0.103908 0.286425
0.107068 0.104140 0.286918
0.108404 0.104103 0.286660
0.109849 0.104169 0.286680
0.111354 0.104291 0.286844
0.112923 0.104469 0.287152
0.114855 0.104973 0.288348
0.116311 0.105036 0.288322
0.117577 0.104928 0.287817
0.119102 0.105050 0.287935
0.120546 0.105099 0.287840
0.121930 0.105095 0.287591
0.123555 0.105296 0.287891
0.124924 0.105277 0.287577
0.126676 0.105577 0.288124
0.128157 0.105648 0.288032
0.129623 0.105704 0.287887
0.131092 0.105761 0.287731
0.132582 0.105835 0.287606
0.134039 0.105880 0.287388
0.135359 0.105817 0.286864
0.136956 0.105970 0.286908
0.138681 0.106217 0.287194
0.152325 0.111039 0.297946
0.153706 0.110975 0.297260
0.153723 0.109935 0.293944
0.154754 0.109634 0.292588
0.156907 0.110126 0.293323
0.157862 0.109775 0.291788
-0.044072 0.030405 0.080369
-0.044396 0.030904 0.081846
-0.044363 0.031161 0.082681
-0.044524 0.031560 0.083889
-0.044337 0.031718 0.084453
-0.044098 0.031841 0.084920
-0.043734 0.031876 0.085146
-0.043356 0.031900 0.085341
-0.043257 0.032133 0.086089
-0.040365 0.035028 0.095326
-0.039684 0.034828 0.094849
-0.039954 0.035468 0.096656
-0.041840 0.037573 0.102460
-0.041651 0.037843 0.103259
-0.041228 0.037905 0.103488
-0.040598 0.037774 0.103189
-0.040515 0.038156 0.104287
-0.065249 0.070962 0.194755
-0.064341 0.070973 0.194836
-0.063684 0.071266 0.195684
-0.062847 0.071363 0.195992
-0.062081 0.071545 0.196530
-0.061322 0.071741 0.197103
-0.060565 0.071944 0.197695
-0.059775 0.072115 0.198192
-0.058972 0.072275 0.198659
-0.058194 0.072471 0.199222
-0.057438 0.072702 0.199879
-0.056618 0.072858 0.200327
-0.055759 0.072968 0.200644
-0.054944 0.073142 0.201136
-0.054085 0.073261 0.201475
-0.053235 0.073396 0.201857
-0.052395 0.073552 0.202293
-0.051597 0.073772 0.202903
-0.050766 0.073954 0.203405
-0.049917 0.074115 0.203851
-0.049249 0.074557 0.205067
-0.048499 0.074891 0.205983
-0.047746 0.075233 0.206918
-0.046917 0.075467 0.207558
-0.046057 0.075660 0.208081
-0.045285 0.076010 0.209036
-0.044724 0.076736 0.211023
-0.044146 0.077467 0.213022
-0.056852 0.102084 0.280701
-0.055577 0.102172 0.280924
-0.054699 0.103011 0.283213
-0.053400 0.103079 0.283381
-0.051955 0.102863 0.282765
-0.050848 0.103321 0.284004
-0.049551 0.103410 0.284224
-0.048162 0.103305 0.283911
-0.046925 0.103530 0.284506
-0.045526 0.103400 0.284124
-0.044217 0.103473 0.284299
-0.042959 0.103672 0.284818
-0.041428 0.103207 0.283514
-0.039626 0.102012 0.280205
-0.040965 0.109098 0.299640
-0.039575 0.109168 0.299801
-0.035826 0.102490 0.281436
-0.034756 0.103257 0.283515
-0.031626 0.097724 0.268295
-0.029852 0.096090 0.263784
-0.028516 0.095788 0.262929
-0.026967 0.094712 0.259951
-0.025672 0.094465 0.259249
-0.024341 0.094055 0.258099
-0.023017 0.093629 0.256908
-0.021819 0.093700 0.257077
-0.020586 0.093619 0.256833
-0.019346 0.093495 0.256470
-0.018302 0.094364 0.258832
-0.017164 0.094840 0.260116
-0.015889 0.094568 0.259350
-0.014676 0.094659 0.259578
-0.013524 0.095191 0.261016
-0.012282 0.095139 0.260854
-0.011022 0.094915 0.260224
-0.009764 0.094661 0.259508
-0.008506 0.094324 0.258569
-0.007253 0.093949 0.257524
-0.006022 0.093765 0.257005
-0.004808 0.093816 0.257130
-0.003593 0.093867 0.257257
-0.002383 0.094183 0.258110
-0.001164 0.094460 0.258858
0.000063 0.095510 0.261724
0.001312 0.096222 0.263663
0.002601 0.097735 0.267799
0.003939 0.099486 0.272588
0.005225 0.099388 0.272312
0.006589 0.100512 0.275382
0.007940 0.101107 0.277006
0.009252 0.101096 0.276969
0.010502 0.100501 0.275335
0.011886 0.101174 0.277175
0.013023 0.099820 0.273462
0.014313 0.099775 0.273336
0.015436 0.098675 0.270320
0.016632 0.098169 0.268933
0.017514 0.096020 0.263045
0.019040 0.097445 0.266949
0.020227 0.097069 0.265920
0.021266 0.096068 0.263177
0.022606 0.096460 0.264254
0.023674 0.095716 0.262217
0.024866 0.095518 0.261677
0.026062 0.095353 0.261227
0.027343 0.095503 0.261640
0.028589 0.095518 0.261686
0.029804 0.095437 0.261468
0.031120 0.095671 0.262110
0.032381 0.095725 0.262261
0.033632 0.095744 0.262317
0.034895 0.095796 0.262464
0.036139 0.095795 0.262464
0.037233 0.095407 0.261403
0.038492 0.095456 0.261540
0.039638 0.095229 0.260920
0.040850 0.095168 0.260755
0.042423 0.095928 0.262839
0.043487 0.095528 0.261743
0.043564 0.093040 0.254927
0.044487 0.092444 0.253293
0.045487 0.092036 0.252174
0.046362 0.091403 0.250436
0.047683 0.091656 0.251129
0.048823 0.091559 0.250857
0.050231 0.091957 0.251943
0.051761 0.092556 0.253576
0.053027 0.092665 0.253865
0.054805 0.093644 0.256537
0.056273 0.094062 0.257671
0.057835 0.094616 0.259175
0.059885 0.095928 0.262755
0.061269 0.096142 0.263322
0.062537 0.096169 0.263377
0.064378 0.097059 0.265792
0.065730 0.097191 0.266128
0.066905 0.097061 0.265746
0.068129 0.097006 0.265565
0.069205 0.096745 0.264818
0.070573 0.096895 0.265194
0.071751 0.096783 0.264848
0.072715 0.096391 0.263735
0.073615 0.095930 0.262428
0.074484 0.095443 0.261049
0.074788 0.094261 0.257766
0.075670 0.093832 0.256539
0.076657 0.093547 0.255701
0.077330 0.092892 0.253851
0.078543 0.092896 0.253796
0.079741 0.092883 0.253691
0.081059 0.093008 0.253957
0.083014 0.093849 0.256175
0.084159 0.093763 0.255855
0.085628 0.094035 0.256508
0.096669 0.104663 0.285395
0.097634 0.104238 0.284126
0.100105 0.105410 0.287201
0.101471 0.105402 0.287058
0.102850 0.105408 0.286942
0.104096 0.105279 0.286453
0.105551 0.105363 0.286534
0.106948 0.105387 0.286447
0.108448 0.105510 0.286620
0.109858 0.105543 0.286542
0.111369 0.105671 0.286713
0.112893 0.105809 0.286901
0.114652 0.106161 0.287658
0.116449 0.106539 0.288477
0.117666 0.106383 0.287840
0.119212 0.106525 0.287999
0.120635 0.106554 0.287844
0.122047 0.106574 0.287651
0.123487 0.106617 0.287510
0.124818 0.106566 0.287104
0.126237 0.106590 0.286890
0.127682 0.106635 0.286719
0.129217 0.106754 0.286732
0.130634 0.106773 0.286465
0.132184 0.106900 0.286472
0.134229 0.107420 0.287518
0.135801 0.107554 0.287512
0.136884 0.107302 0.286461
0.138607 0.107552 0.286733
0.141051 0.108350 0.288446
-0.044416 0.031042 0.080884
-0.044434 0.031333 0.081805
-0.044172 0.031431 0.082218
-0.044154 0.031706 0.083087
-0.044396 0.032174 0.084462
-0.044096 0.032255 0.084817
-0.043688 0.032257 0.084959
-0.043321 0.032290 0.085178
-0.043234 0.032534 0.085950
-0.039451 0.034681 0.093108
-0.042558 0.037837 0.101655
-0.042116 0.037874 0.101825
-0.042015 0.038222 0.102830
-0.041202 0.037923 0.102090
-0.040911 0.038103 0.102636
-0.040644 0.038310 0.103253
-0.065911 0.071607 0.193889
-0.065006 0.071618 0.193974
-0.064333 0.071889 0.194759
-0.063562 0.072056 0.195259
-0.062742 0.072172 0.195617
-0.061993 0.072375 0.196209
-0.061215 0.072548 0.196717
-0.060457 0.072751 0.197303
-0.059679 0.072938 0.197841
-0.058867 0.073086 0.198273
-0.058137 0.073344 0.198999
-0.057381 0.073576 0.199652
-0.056616 0.073805 0.200294
-0.055736 0.073888 0.200540
-0.054928 0.074074 0.201060
-0.054111 0.074251 0.201555
-0.053150 0.074234 0.201521
-0.052374 0.074481 0.202202
-0.051551 0.074668 0.202717
-0.050706 0.074829 0.203159
-0.049917 0.075082 0.203850
-0.049199 0.075453 0.204858
-0.048495 0.075862 0.205969
-0.047725 0.076180 0.206831
-0.046810 0.076277 0.207091
-0.045962 0.076489 0.207664
-0.045191 0.076841 0.208614
-0.044831 0.077924 0.211546
-0.044651 0.079375 0.215476
-0.056516 0.102805 0.279068
-0.055597 0.103542 0.281055
-0.054773 0.104498 0.283632
-0.053393 0.104412 0.283383
-0.052085 0.104468 0.283515
-0.050875 0.104728 0.284202
-0.049552 0.104763 0.284278
-0.048212 0.104764 0.284258
-0.046856 0.104729 0.284141
-0.045519 0.104735 0.284134
-0.044193 0.104768 0.284199
-0.042851 0.104764 0.284165
-0.041449 0.104611 0.283724
-0.039426 0.102824 0.278853
-0.040813 0.110118 0.298608
-0.039429 0.110187 0.298769
-0.035783 0.103707 0.281172
-0.034661 0.104324 0.282820
-0.031520 0.098672 0.267473
-0.029813 0.097225 0.263526
-0.028416 0.096704 0.262091
-0.026970 0.095965 0.260064
-0.025613 0.095485 0.258739
-0.024242 0.094902 0.257138
-0.023069 0.095074 0.257580
-0.021825 0.094961 0.257252
-0.020617 0.094994 0.257319
-0.019436 0.095169 0.257772
-0.018261 0.095394 0.258360
-0.017064 0.095530 0.258709
-0.015924 0.096036 0.260057
-0.014693 0.096025 0.260008
-0.013489 0.096208 0.260485
-0.012247 0.096126 0.260246
-0.011002 0.096010 0.259912
-0.009725 0.095546 0.258640
-0.008485 0.095358 0.258114
-0.007242 0.095073 0.257328
-0.006014 0.094910 0.256871
-0.004809 0.095134 0.257465
-0.003586 0.095019 0.257139
-0.002373 0.095195 0.257602
-0.001162 0.095841 0.259340
0.000067 0.096583 0.261336
0.001327 0.098279 0.265914
0.002615 0.099379 0.268880
0.003926 0.100344 0.271483
0.005240 0.100880 0.272923
0.006517 0.100641 0.272269
0.007879 0.101577 0.274793
0.009180 0.101563 0.274748
0.010398 0.100751 0.272548
0.011661 0.100509 0.271887
0.013029 0.101131 0.273567
0.014260 0.100666 0.272305
0.015465 0.100117 0.270817
0.016672 0.099662 0.269583
0.017896 0.099361 0.268768
0.019035 0.098661 0.266874
0.020197 0.098161 0.265522
0.021235 0.097154 0.262796
0.022406 0.096833 0.261929
0.023457 0.096050 0.259812
0.024572 0.095598 0.258589
0.025688 0.095189 0.257485
0.027042 0.095661 0.258763
0.028258 0.095624 0.258664
0.029519 0.095738 0.258976
0.030746 0.095736 0.258971
0.032022 0.095879 0.259359
0.033204 0.095741 0.258988
0.034483 0.095883 0.259374
0.035797 0.096108 0.259983
0.036856 0.095656 0.258763
0.038203 0.095958 0.259580
0.039327 0.095698 0.258877
0.040496 0.095559 0.258500
0.042047 0.096301 0.260508
0.043266 0.096265 0.260409
0.043248 0.093555 0.253074
0.044202 0.093034 0.251664
0.045238 0.092712 0.250788
0.046120 0.092097 0.249119
0.047246 0.091986 0.248815
0.048450 0.092033 0.248933
0.049961 0.092644 0.250578
0.051321 0.092952 0.251402
0.052424 0.092793 0.250962
0.054375 0.094107 0.254502
0.055868 0.094590 0.255794
0.057536 0.095342 0.257810
0.059373 0.096335 0.260479
0.061108 0.097126 0.262597
0.062609 0.097522 0.263644
0.064166 0.097987 0.264876
0.065736 0.098454 0.266111
0.067185 0.098726 0.266814
0.068585 0.098916 0.267294
0.069794 0.098829 0.267024
0.071034 0.098788 0.266873
0.071987 0.098355 0.265663
0.072769 0.097709 0.263873
0.073473 0.096981 0.261857
0.073910 0.095931 0.258971
0.074605 0.095244 0.257063
0.075329 0.094617 0.255314
0.075949 0.093880 0.253265
0.077089 0.093799 0.252981
0.078143 0.093618 0.252423
0.079223 0.093472 0.251956
0.080877 0.093998 0.253297
0.082322 0.094269 0.253945
0.083343 0.094054 0.253277
0.085773 0.095412 0.256840
0.096566 0.105903 0.284972
0.097990 0.105970 0.285035
0.099712 0.106353 0.285944
0.101385 0.106675 0.286679
0.102725 0.106641 0.286452
0.103993 0.106536 0.286025
0.105437 0.106610 0.286073
0.106934 0.106735 0.286251
0.108429 0.106855 0.286406
0.109782 0.106834 0.286175
0.111277 0.106950 0.286301
0.112765 0.107055 0.286391
0.114313 0.107215 0.286619
0.116080 0.107573 0.287365
0.117586 0.107685 0.287442
0.119071 0.107774 0.287448
0.120578 0.107881 0.287492
0.122100 0.107999 0.287552
0.123509 0.108015 0.287330
0.124892 0.108008 0.287035
0.126385 0.108095 0.286979
0.128214 0.108464 0.287657
0.129747 0.108578 0.287644
0.131330 0.108731 0.287720
0.133089 0.109024 0.288152
0.134506 0.109034 0.287820
0.135995 0.109101 0.287623
0.137866 0.109469 0.288205
0.139260 0.109456 0.287763
0.140980 0.109696 0.287971
0.142293 0.109618 0.287324
0.144495 0.110219 0.288439
0.146377 0.110567 0.288865
-0.044457 0.031470 0.080843
-0.044081 0.031484 0.081043
-0.043949 0.031675 0.081692
-0.043897 0.031926 0.082496
-0.044221 0.032459 0.084023
-0.043911 0.032532 0.084357
-0.043702 0.032682 0.084886
-0.043460 0.032809 0.085352
-0.039852 0.035484 0.093992
-0.038541 0.034706 0.092000
-0.039408 0.035894 0.095219
-0.041218 0.037979 0.100818
-0.038725 0.036101 0.095897
-0.040872 0.038556 0.102482
-0.066463 0.072135 0.192713
-0.066008 0.072636 0.194112
-0.065161 0.072712 0.194375
-0.064280 0.072754 0.194541
-0.063562 0.072983 0.195206
-0.062716 0.073070 0.195485
-0.061888 0.073181 0.195827
-0.061144 0.073397 0.196446
-0.060352 0.073560 0.196920
-0.059610 0.073789 0.197570
-0.058787 0.073925 0.197966
-0.057970 0.074074 0.198392
-0.057134 0.074202 0.198763
-0.056289 0.074323 0.199110
-0.055430 0.074429 0.199416
-0.054541 0.074498 0.199620
-0.053731 0.074679 0.200120
-0.052868 0.074791 0.200435
-0.051973 0.074862 0.200639
-0.051172 0.075074 0.201216
-0.050405 0.075344 0.201947
-0.049838 0.075928 0.203520
-0.049123 0.076306 0.204538
-0.048418 0.076715 0.205638
-0.047654 0.077046 0.206526
-0.046769 0.077192 0.206916
-0.045942 0.077440 0.207578
-0.045087 0.077652 0.208142
-0.044655 0.078617 0.210726
-0.058011 0.104454 0.279970
-0.056740 0.104543 0.280197
-0.055624 0.104928 0.281219
-0.054783 0.105863 0.283710
-0.053387 0.105746 0.283383
-0.052220 0.106089 0.284285
-0.050968 0.106273 0.284761
-0.049587 0.106189 0.284517
-0.048310 0.106330 0.284878
-0.046965 0.106326 0.284847
-0.045512 0.106071 0.284143
-0.044258 0.106277 0.284674
-0.042897 0.106232 0.284531
-0.041316 0.105622 0.282874
-0.039242 0.103667 0.277616
-0.039360 0.111417 0.298321
-0.035548 0.104358 0.279397
-0.034024 0.103734 0.277702
-0.031421 0.099637 0.266711
-0.029764 0.098323 0.263171
-0.028357 0.097755 0.261629
-0.026833 0.096714 0.258820
-0.025439 0.096066 0.257064
-0.024130 0.095691 0.256041
-0.022932 0.095737 0.256143
-0.021744 0.095838 0.256391
-0.020444 0.095423 0.255259
-0.019289 0.095676 0.255918
-0.018126 0.095922 0.256556
-0.016998 0.096403 0.257822
-0.015819 0.096645 0.258449
-0.014629 0.096861 0.259007
-0.013440 0.097114 0.259666
-0.012220 0.097179 0.259823
-0.010947 0.096787 0.258758
-0.009695 0.096507 0.257992
-0.008437 0.096075 0.256822
-0.007207 0.095877 0.256277
-0.005993 0.095857 0.256209
-0.004786 0.095966 0.256488
-0.003582 0.096241 0.257210
-0.002366 0.096288 0.257323
-0.001153 0.096679 0.258354
0.000071 0.097739 0.261177
0.001317 0.098451 0.263070
0.002585 0.099335 0.265420
0.003903 0.100929 0.269669
0.005221 0.101712 0.271753
0.006484 0.101351 0.270780
0.007797 0.101743 0.271822
0.009094 0.101858 0.272123
0.010347 0.101507 0.271177
0.011535 0.100658 0.268905
0.012800 0.100594 0.268730
0.014060 0.100499 0.268472
0.015363 0.100700 0.269004
0.016628 0.100644 0.268853
0.017855 0.100379 0.268141
0.018987 0.099651 0.266194
0.020199 0.099408 0.265544
0.021183 0.098136 0.262146
0.022300 0.097588 0.260680
0.023316 0.096682 0.258259
0.024296 0.095718 0.255684
0.025479 0.095610 0.255396
0.026655 0.095485 0.255062
0.027902 0.095618 0.255417
0.029192 0.095875 0.256104
0.030344 0.095682 0.255588
0.031641 0.095939 0.256275
0.032873 0.095988 0.256407
0.034285 0.096542 0.257886
0.035505 0.096534 0.257864
0.036929 0.097063 0.259276
0.038242 0.097275 0.259841
0.039649 0.097706 0.260990
0.040629 0.097090 0.259344
0.042084 0.097613 0.260737
0.043328 0.097630 0.260778
0.042753 0.093659 0.250169
0.043771 0.093300 0.249203
0.045020 0.093439 0.249568
0.046112 0.093252 0.249062
0.047218 0.093103 0.248657
0.048469 0.093240 0.249012
0.049858 0.093629 0.250042
0.051184 0.093883 0.250709
0.052442 0.094007 0.251024
0.054314 0.095199 0.254193
0.055809 0.095694 0.255496
0.057510 0.096512 0.257662
0.059672 0.098054 0.261757
0.061092 0.098338 0.262491
0.062870 0.099177 0.264703
0.064317 0.099469 0.265455
0.066052 0.100187 0.267341
