ply
format ascii 1.0
element vertex 1723
property float x
property float y
property float z
end_header
-0.067394 -0.004041 0.287620
-0.066022 -0.004041 0.287472
-0.064618 -0.004039 0.287183
-0.063505 -0.004055 0.288211
-0.062223 -0.004061 0.288504
-0.060825 -0.004059 0.288266
-0.059582 -0.004069 0.288780
-0.058336 -0.004078 0.289306
-0.057042 -0.004084 0.289624
-0.039975 -0.004040 0.285047
-0.039467 -0.004131 0.291322
-0.036981 -0.004013 0.282930
-0.035871 -0.004042 0.284842
-0.034675 -0.004063 0.286200
-0.030463 -0.003717 0.261773
-0.029057 -0.003699 0.260411
-0.027580 -0.003670 0.258270
-0.026365 -0.003675 0.258508
-0.025154 -0.003680 0.258828
-0.023870 -0.003675 0.258397
-0.022666 -0.003683 0.258847
-0.021427 -0.003686 0.258953
-0.020135 -0.003678 0.258386
-0.019131 -0.003727 0.261712
-0.017913 -0.003737 0.262386
-0.017012 -0.003821 0.268170
-0.015378 -0.003740 0.262427
-0.013269 -0.003867 0.271256
-0.011392 -0.003685 0.258478
-0.010113 -0.003677 0.257835
-0.008873 -0.003682 0.258133
-0.007613 -0.003679 0.257899
-0.006377 -0.003689 0.258555
-0.005127 -0.003693 0.258804
-0.003870 -0.003694 0.258858
-0.002629 -0.003717 0.260488
-0.001363 -0.003719 0.260618
-0.000096 -0.003731 0.261429
0.001177 -0.003739 0.261967
0.002462 -0.003755 0.263073
0.003828 -0.003842 0.269201
0.006402 -0.003816 0.267361
0.007536 -0.003734 0.261593
0.008839 -0.003747 0.262520
0.010117 -0.003747 0.262560
0.011365 -0.003738 0.261918
0.012658 -0.003743 0.262347
0.013980 -0.003756 0.263250
0.015259 -0.003756 0.263271
0.016598 -0.003769 0.264236
0.017835 -0.003759 0.263586
0.019347 -0.003805 0.266808
0.020664 -0.003808 0.267125
0.021898 -0.003797 0.266390
0.023485 -0.003845 0.269810
0.024779 -0.003843 0.269694
0.025974 -0.003826 0.268564
0.027312 -0.003831 0.268972
0.028553 -0.003822 0.268429
0.029771 -0.003811 0.267735
0.031059 -0.003810 0.267717
0.032253 -0.003798 0.266933
0.033494 -0.003792 0.266585
0.034841 -0.003798 0.267087
0.036066 -0.003791 0.266662
0.037287 -0.003784 0.266239
0.038458 -0.003772 0.265511
0.039786 -0.003776 0.265887
0.040815 -0.003753 0.264314
0.041618 -0.003710 0.261415
0.042757 -0.003699 0.260752
0.044083 -0.003705 0.261234
0.044495 -0.003636 0.256431
0.045662 -0.003630 0.256127
0.046844 -0.003626 0.255927
0.048049 -0.003624 0.255867
0.049204 -0.003618 0.255557
0.050341 -0.003611 0.255175
0.051640 -0.003616 0.255614
0.052888 -0.003617 0.255798
0.053995 -0.003609 0.255313
0.055366 -0.003618 0.256073
0.057354 -0.003667 0.259596
0.059880 -0.003747 0.265361
0.062036 -0.003801 0.269293
0.063519 -0.003812 0.270205
0.064791 -0.003811 0.270205
0.066163 -0.003815 0.270622
0.067540 -0.003820 0.271042
0.069058 -0.003832 0.272011
0.070347 -0.003832 0.272058
0.071874 -0.003844 0.273010
0.073543 -0.003863 0.274464
0.075239 -0.003883 0.275971
0.076345 -0.003872 0.275299
0.077307 -0.003854 0.274140
0.078884 -0.003867 0.275169
0.080155 -0.003865 0.275115
0.081437 -0.003864 0.275102
0.083032 -0.003877 0.276131
0.084369 -0.003878 0.276283
0.085878 -0.003887 0.276986
0.087063 -0.003881 0.276639
0.088526 -0.003888 0.277174
0.090397 -0.003911 0.278949
0.094502 -0.004030 0.287473
0.095713 -0.004024 0.287072
0.100266 -0.004156 0.296571
0.099341 -0.004060 0.289824
0.100909 -0.004068 0.290433
0.103829 -0.004075 0.290991
0.104962 -0.004065 0.290351
0.106437 -0.004069 0.290659
0.107729 -0.004066 0.290460
0.109053 -0.004064 0.290348
0.110490 -0.004066 0.290532
0.111968 -0.004070 0.290816
0.113534 -0.004077 0.291310
0.114857 -0.004075 0.291175
0.116018 -0.004067 0.290631
0.117405 -0.004068 0.290652
0.118623 -0.004063 0.290254
0.120133 -0.004067 0.290564
0.121319 -0.004061 0.290085
0.122980 -0.004071 0.290734
0.124547 -0.004077 0.291140
0.125947 -0.004078 0.291143
0.127404 -0.004081 0.291267
0.128629 -0.004076 0.290857
0.129930 -0.004074 0.290616
0.131305 -0.004074 0.290532
0.132707 -0.004075 0.290502
0.134383 -0.004084 0.291053
0.135753 -0.004084 0.290927
0.137082 -0.004082 0.290705
0.138844 -0.004094 0.291384
0.139616 -0.004076 0.289980
0.141963 -0.004105 0.291829
0.143882 -0.004120 0.292757
0.144578 -0.004101 0.291188
0.146336 -0.004111 0.291754
0.147813 -0.004114 0.291738
0.148924 -0.004107 0.290992
0.150731 -0.004119 0.291590
0.152199 -0.004121 0.291509
-0.155269 -0.002717 0.292861
-0.152187 -0.002687 0.289819
-0.150622 -0.002683 0.289619
-0.149432 -0.002685 0.290127
-0.148214 -0.002688 0.290577
-0.146677 -0.002684 0.290388
-0.144979 -0.002677 0.289859
-0.143570 -0.002676 0.289892
-0.142170 -0.002675 0.289929
-0.140950 -0.002677 0.290326
-0.139536 -0.002676 0.290315
-0.138055 -0.002673 0.290152
-0.136204 -0.002663 0.289188
-0.135085 -0.002667 0.289766
-0.133515 -0.002662 0.289368
-0.131121 -0.002641 0.287147
-0.126122 -0.002566 0.279105
-0.137960 -0.002836 0.308541
-0.136741 -0.002840 0.309083
-0.137287 -0.002882 0.313660
-0.134617 -0.002856 0.310902
-0.122992 -0.002638 0.287166
-0.121921 -0.002643 0.287812
-0.120680 -0.002645 0.288063
-0.119567 -0.002650 0.288621
-0.118448 -0.002655 0.289170
-0.117235 -0.002658 0.289496
-0.115830 -0.002656 0.289342
-0.114243 -0.002651 0.288721
-0.113046 -0.002654 0.289081
-0.111514 -0.002650 0.288575
-0.110287 -0.002652 0.288854
-0.108655 -0.002645 0.288062
-0.107362 -0.002646 0.288155
-0.105897 -0.002643 0.287783
-0.104765 -0.002649 0.288314
-0.103398 -0.002648 0.288201
-0.102126 -0.002650 0.288351
-0.101014 -0.002656 0.288963
-0.099586 -0.002654 0.288672
-0.098287 -0.002655 0.288752
-0.097201 -0.002663 0.289471
-0.094911 -0.002637 0.286570
-0.093950 -0.002647 0.287658
-0.093863 -0.002683 0.291490
-0.092442 -0.002682 0.291232
-0.091209 -0.002686 0.291570
-0.089995 -0.002690 0.291978
-0.088356 -0.002682 0.291003
-0.086994 -0.002682 0.290923
-0.085695 -0.002684 0.291058
-0.083876 -0.002670 0.289405
-0.082225 -0.002661 0.288290
-0.080940 -0.002663 0.288446
-0.079640 -0.002665 0.288553
-0.078252 -0.002664 0.288347
-0.076993 -0.002668 0.288620
-0.075858 -0.002676 0.289380
-0.074698 -0.002684 0.290071
-0.073341 -0.002684 0.290016
-0.072244 -0.002694 0.291011
-0.071662 -0.002725 0.294164
-0.068137 -0.002642 0.285129
-0.066935 -0.002648 0.285656
-0.065697 -0.002653 0.286051
-0.064409 -0.002656 0.286248
-0.063076 -0.002657 0.286254
-0.061805 -0.002661 0.286559
-0.060566 -0.002667 0.287032
-0.059097 -0.002662 0.286418
-0.057721 -0.002662 0.286248
-0.054978 -0.002661 0.285952
-0.039611 -0.002640 0.282443
-0.038830 -0.002680 0.286608
-0.036953 -0.002645 0.282703
-0.035929 -0.002670 0.285291
-0.034799 -0.002689 0.287219
-0.030352 -0.002442 0.260811
-0.028974 -0.002432 0.259655
-0.027583 -0.002420 0.258292
-0.026357 -0.002422 0.258416
-0.025133 -0.002425 0.258598
-0.023878 -0.002424 0.258472
-0.022630 -0.002425 0.258432
-0.021420 -0.002429 0.258860
-0.020145 -0.002427 0.258503
-0.019228 -0.002470 0.263035
-0.017994 -0.002475 0.263560
-0.016940 -0.002508 0.267031
-0.015470 -0.002480 0.263986
-0.014581 -0.002549 0.271204
-0.013271 -0.002550 0.271271
-0.011296 -0.002409 0.256292
-0.010076 -0.002415 0.256866
-0.008864 -0.002425 0.257850
-0.007599 -0.002421 0.257401
-0.006365 -0.002427 0.258049
-0.005126 -0.002434 0.258759
-0.003873 -0.002437 0.259062
-0.002616 -0.002439 0.259193
-0.001360 -0.002447 0.260026
-0.000096 -0.002452 0.260544
0.001179 -0.002468 0.262300
0.002446 -0.002460 0.261408
0.010893 -0.002660 0.282710
0.012265 -0.002660 0.282654
0.013603 -0.002652 0.281918
0.014916 -0.002642 0.280871
0.016163 -0.002623 0.278853
0.017567 -0.002630 0.279654
0.018905 -0.002627 0.279393
0.020253 -0.002626 0.279299
0.021095 -0.002563 0.272683
0.022107 -0.002528 0.268928
0.023836 -0.002573 0.273835
0.025150 -0.002572 0.273717
0.026551 -0.002579 0.274523
0.027864 -0.002577 0.274393
0.028555 -0.002521 0.268444
0.029773 -0.002514 0.267750
0.031061 -0.002513 0.267732
0.032256 -0.002505 0.266948
0.033497 -0.002501 0.266600
0.034844 -0.002505 0.267102
0.036069 -0.002500 0.266677
0.037290 -0.002495 0.266254
0.038461 -0.002488 0.265526
0.039496 -0.002472 0.263941
0.040685 -0.002467 0.263463
0.041997 -0.002469 0.263790
0.042725 -0.002438 0.260546
0.043956 -0.002437 0.260476
0.044538 -0.002400 0.256675
0.045707 -0.002397 0.256373
0.046985 -0.002399 0.256692
0.048114 -0.002394 0.256205
0.049185 -0.002386 0.255451
0.050434 -0.002387 0.255639
0.051649 -0.002386 0.255656
0.052848 -0.002385 0.255602
0.054030 -0.002383 0.255472
0.055259 -0.002383 0.255570
0.057414 -0.002422 0.259862
0.059824 -0.002470 0.265111
0.062204 -0.002515 0.270015
0.063772 -0.002526 0.271274
0.065073 -0.002526 0.271376
0.066402 -0.002527 0.271593
0.067699 -0.002527 0.271676
0.069064 -0.002529 0.272029
0.070324 -0.002528 0.271965
0.071716 -0.002531 0.272409
0.073069 -0.002533 0.272690
0.074878 -0.002550 0.274644
0.076075 -0.002546 0.274321
0.077104 -0.002537 0.273419
0.078576 -0.002543 0.274090
0.080087 -0.002549 0.274878
0.081439 -0.002551 0.275103
0.082892 -0.002555 0.275662
0.084442 -0.002562 0.276518
0.086110 -0.002573 0.277732
0.087196 -0.002566 0.277061
0.088513 -0.002566 0.277131
0.090314 -0.002580 0.278690
0.091490 -0.002576 0.278306
0.097941 -0.002719 0.293754
0.099175 -0.002714 0.293340
0.099489 -0.002685 0.290255
0.101090 -0.002691 0.290951
0.102675 -0.002697 0.291584
0.104084 -0.002698 0.291705
0.105079 -0.002688 0.290674
0.106480 -0.002689 0.290773
0.107953 -0.002691 0.291064
0.109064 -0.002685 0.290378
0.110444 -0.002685 0.290411
0.111980 -0.002689 0.290845
0.113596 -0.002695 0.291469
0.114876 -0.002693 0.291223
0.116101 -0.002689 0.290839
0.116985 -0.002678 0.289612
0.118975 -0.002693 0.291116
0.120135 -0.002688 0.290570
0.121539 -0.002689 0.290613
0.122926 -0.002689 0.290606
0.124305 -0.002689 0.290575
0.125750 -0.002691 0.290688
0.127110 -0.002691 0.290598
0.128383 -0.002689 0.290303
0.129953 -0.002693 0.290668
0.131217 -0.002691 0.290341
0.132989 -0.002700 0.291122
0.134529 -0.002703 0.291372
0.136286 -0.002711 0.292073
0.137195 -0.002702 0.290947
0.138176 -0.002694 0.289984
0.140393 -0.002711 0.291597
0.140886 -0.002694 0.289619
0.144130 -0.002730 0.293267
0.145064 -0.002722 0.292172
0.146530 -0.002723 0.292145
0.147735 -0.002720 0.291588
0.148914 -0.002717 0.290977
0.150057 -0.002713 0.290290
0.151426 -0.002713 0.290034
-0.154772 -0.001325 0.291928
-0.151952 -0.001312 0.289375
-0.150653 -0.001312 0.289682
-0.149645 -0.001314 0.290545
-0.148162 -0.001313 0.290478
-0.146919 -0.001313 0.290869
-0.145555 -0.001313 0.291014
-0.143442 -0.001305 0.289634
-0.141914 -0.001303 0.289410
-0.140801 -0.001305 0.290021
-0.139362 -0.001304 0.289954
-0.138021 -0.001304 0.290084
-0.136651 -0.001303 0.290140
-0.135083 -0.001301 0.289765
-0.133319 -0.001296 0.288944
-0.129609 -0.001273 0.283838
-0.126704 -0.001257 0.280396
-0.137441 -0.001377 0.307381
-0.136227 -0.001379 0.307921
-0.137246 -0.001404 0.313567
-0.134345 -0.001388 0.310275
-0.122743 -0.001282 0.286586
-0.121657 -0.001284 0.287191
-0.120437 -0.001285 0.287483
-0.119207 -0.001286 0.287751
-0.118206 -0.001290 0.288580
-0.116790 -0.001288 0.288395
-0.115568 -0.001290 0.288689
-0.114481 -0.001292 0.289323
-0.112769 -0.001288 0.288373
-0.111295 -0.001286 0.288008
-0.110075 -0.001287 0.288298
-0.108638 -0.001286 0.288016
-0.107433 -0.001287 0.288345
-0.105951 -0.001285 0.287929
-0.104819 -0.001288 0.288460
-0.103567 -0.001289 0.288671
-0.102234 -0.001289 0.288656
-0.101070 -0.001291 0.289124
-0.099849 -0.001292 0.289435
-0.098529 -0.001293 0.289462
-0.097187 -0.001293 0.289428
-0.094277 -0.001272 0.284654
-0.093699 -0.001282 0.286889
-0.094004 -0.001304 0.291927
-0.092560 -0.001303 0.291604
-0.091247 -0.001304 0.291690
-0.089957 -0.001305 0.291853
-0.088312 -0.001301 0.290854
-0.086737 -0.001297 0.290063
-0.085013 -0.001292 0.288740
-0.083744 -0.001293 0.288945
-0.082379 -0.001293 0.288827
-0.080965 -0.001292 0.288530
-0.079729 -0.001294 0.288873
-0.078554 -0.001297 0.289455
-0.077233 -0.001297 0.289516
-0.076053 -0.001300 0.290119
-0.074869 -0.001304 0.290732
-0.073549 -0.001304 0.290839
-0.072343 -0.001307 0.291406
-0.071200 -0.001312 0.292263
-0.068241 -0.001282 0.285559
-0.067042 -0.001285 0.286107
-0.065241 -0.001276 0.284061
-0.063914 -0.001276 0.284045
-0.062607 -0.001277 0.284121
-0.061284 -0.001278 0.284138
-0.060006 -0.001279 0.284375
-0.058676 -0.001280 0.284375
-0.057311 -0.001279 0.284214
-0.055941 -0.001279 0.284023
-0.054453 -0.001276 0.283221
-0.053134 -0.001277 0.283283
-0.051776 -0.001276 0.283150
-0.050441 -0.001277 0.283144
-0.049154 -0.001279 0.283424
-0.045174 -0.001281 0.283680
-0.043848 -0.001282 0.283802
-0.042455 -0.001281 0.283500
-0.041128 -0.001282 0.283639
-0.039744 -0.001281 0.283386
-0.038956 -0.001301 0.287535
-0.036760 -0.001272 0.281222
-0.035927 -0.001291 0.285265
-0.034575 -0.001292 0.285362
-0.030267 -0.001178 0.260080
-0.028910 -0.001174 0.259079
-0.027585 -0.001170 0.258305
-0.026329 -0.001170 0.258137
-0.025111 -0.001171 0.258374
-0.023871 -0.001172 0.258400
-0.022630 -0.001172 0.258420
-0.021450 -0.001176 0.259215
-0.020137 -0.001173 0.258405
-0.019333 -0.001200 0.264463
-0.018063 -0.001201 0.264567
-0.016941 -0.001213 0.267040
-0.015586 -0.001208 0.265944
-0.014358 -0.001213 0.267051
-0.013068 -0.001214 0.267117
-0.011265 -0.001161 0.255582
-0.010062 -0.001166 0.256507
-0.008862 -0.001172 0.257788
-0.007583 -0.001168 0.256864
-0.006373 -0.001175 0.258345
-0.005119 -0.001175 0.258394
-0.003869 -0.001176 0.258725
-0.002604 -0.001174 0.258065
-0.001356 -0.001179 0.259185
-0.000096 -0.001182 0.259854
0.001175 -0.001189 0.261488
0.002447 -0.001190 0.261532
0.003719 -0.001190 0.261517
0.020998 -0.001234 0.271424
0.022052 -0.001219 0.268255
0.023595 -0.001232 0.271068
0.024896 -0.001231 0.270952
0.025113 -0.001179 0.259652
0.026328 -0.001177 0.259263
0.027599 -0.001178 0.259448
0.028718 -0.001172 0.258255
0.029918 -0.001170 0.257872
0.031161 -0.001170 0.257886
0.032456 -0.001172 0.258315
0.033772 -0.001174 0.258884
0.035142 -0.001178 0.259819
0.036433 -0.001179 0.260130
0.037609 -0.001177 0.259638
0.038992 -0.001181 0.260568
0.040362 -0.001184 0.261367
0.041798 -0.001189 0.262541
0.042767 -0.001181 0.260801
0.044014 -0.001181 0.260815
0.044805 -0.001169 0.258210
0.045978 -0.001167 0.257889
0.047184 -0.001166 0.257775
0.048289 -0.001163 0.257135
0.049606 -0.001165 0.257634
0.050962 -0.001167 0.258310
0.052167 -0.001167 0.258218
0.053494 -0.001169 0.258720
0.055078 -0.001176 0.260422
0.056519 -0.001180 0.261396
0.057975 -0.001184 0.262400
0.060010 -0.001200 0.265929
0.062144 -0.001217 0.269753
0.063688 -0.001222 0.270917
0.064966 -0.001222 0.270930
0.066433 -0.001225 0.271716
0.067729 -0.001225 0.271793
0.068951 -0.001224 0.271583
0.070259 -0.001224 0.271713
0.071316 -0.001220 0.270885
0.071600 -0.001203 0.267208
0.072694 -0.001200 0.266629
0.073826 -0.001198 0.266211
0.074931 -0.001196 0.265710
0.075935 -0.001192 0.264876
0.077182 -0.001192 0.264908
0.078110 -0.001187 0.263857
0.079251 -0.001185 0.263551
0.080821 -0.001190 0.264658
0.082398 -0.001195 0.265758
0.084348 -0.001205 0.268009
0.086072 -0.001211 0.269487
0.087865 -0.001219 0.271134
0.089876 -0.001229 0.273397
0.098973 -0.001334 0.296848
0.100219 -0.001332 0.296429
0.101373 -0.001329 0.295749
0.101115 -0.001308 0.291022
0.102756 -0.001311 0.291816
0.104002 -0.001310 0.291476
0.104946 -0.001305 0.290306
0.106442 -0.001306 0.290669
0.107783 -0.001306 0.290604
0.109180 -0.001307 0.290685
0.110680 -0.001308 0.291033
0.112100 -0.001309 0.291158
0.113399 -0.001308 0.290965
0.114720 -0.001308 0.290828
0.116101 -0.001308 0.290839
0.117382 -0.001308 0.290597
0.118547 -0.001306 0.290069
0.120259 -0.001310 0.290869
0.121516 -0.001309 0.290558
0.122919 -0.001309 0.290591
0.124378 -0.001311 0.290748
0.125709 -0.001310 0.290596
0.127086 -0.001311 0.290544
0.128509 -0.001312 0.290590
0.129962 -0.001313 0.290691
0.131432 -0.001314 0.290818
0.132848 -0.001315 0.290814
0.134374 -0.001317 0.291039
0.135487 -0.001314 0.290362
0.137200 -0.001318 0.290960
0.138338 -0.001316 0.290328
0.138945 -0.001309 0.288592
0.142532 -0.001330 0.293006
0.143687 -0.001329 0.292367
0.144823 -0.001327 0.291689
0.146323 -0.001328 0.291736
0.147724 -0.001329 0.291571
0.148736 -0.001326 0.290632
0.150144 -0.001327 0.290463
0.151902 -0.001330 0.290950
-0.154448 0.000060 0.291318
-0.151625 0.000060 0.288755
-0.150072 0.000060 0.288566
-0.148805 0.000061 0.288915
-0.147171 0.000061 0.288536
-0.145905 0.000062 0.288864
-0.144453 0.000062 0.288813
-0.143135 0.000063 0.289017
-0.141734 0.000063 0.289043
-0.140347 0.000064 0.289088
-0.139111 0.000064 0.289434
-0.137204 0.000064 0.288367
-0.135956 0.000065 0.288665
-0.134988 0.000066 0.289562
-0.133468 0.000066 0.289268
-0.131115 0.000066 0.287138
-0.129983 0.000066 0.287653
-0.135104 0.000071 0.305384
-0.136002 0.000073 0.310727
-0.134686 0.000074 0.311064
-0.123110 0.000069 0.287444
-0.122057 0.000069 0.288137
-0.121034 0.000070 0.288910
-0.119605 0.000070 0.288713
-0.118528 0.000071 0.289367
-0.117641 0.000071 0.290498
-0.114773 0.000071 0.286704
-0.113502 0.000071 0.286849
-0.112210 0.000072 0.286942
-0.110981 0.000072 0.287196
-0.109624 0.000072 0.287116
-0.108429 0.000073 0.287462
-0.107022 0.000073 0.287242
-0.105782 0.000074 0.287469
-0.104616 0.000074 0.287902
-0.103373 0.000075 0.288131
-0.102097 0.000075 0.288270
-0.100913 0.000075 0.288673
-0.099933 0.000076 0.289678
-0.097555 0.000076 0.286601
-0.096175 0.000076 0.286412
-0.094636 0.000076 0.285740
-0.092298 0.000076 0.282598
-0.093637 0.000078 0.290789
-0.092283 0.000078 0.290732
-0.090779 0.000079 0.290193
-0.089701 0.000079 0.291024
-0.088183 0.000079 0.290431
-0.086538 0.000079 0.289395
-0.085015 0.000080 0.288745
-0.083771 0.000080 0.289039
-0.082232 0.000080 0.288312
-0.080799 0.000080 0.287939
-0.079721 0.000081 0.288846
-0.078141 0.000081 0.287934
-0.076864 0.000081 0.288132
-0.075756 0.000082 0.288987
-0.074583 0.000082 0.289624
-0.073257 0.000083 0.289682
-0.071971 0.000083 0.289910
-0.070930 0.000084 0.291158
-0.069652 0.000084 0.291466
-0.067171 0.000083 0.286659
-0.066033 0.000083 0.287512
-0.058225 0.000085 0.288744
-0.057091 0.000086 0.289860
-0.055887 0.000086 0.290677
-0.054550 0.000087 0.290834
-0.052926 0.000086 0.289438
-0.051293 0.000086 0.287925
-0.049930 0.000086 0.287901
-0.045795 0.000087 0.287582
-0.043926 0.000086 0.284306
-0.042456 0.000086 0.283503
-0.041129 0.000086 0.283642
-0.040183 0.000087 0.286521
-0.038844 0.000088 0.286705
-0.036598 0.000086 0.279980
-0.035831 0.000087 0.284508
-0.034724 0.000088 0.286589
-0.030224 0.000080 0.259702
-0.028909 0.000080 0.259068
-0.027547 0.000080 0.257941
-0.026312 0.000080 0.257970
-0.025125 0.000080 0.258512
-0.023846 0.000080 0.258122
-0.022639 0.000080 0.258524
-0.021478 0.000081 0.259547
-0.020160 0.000081 0.258696
-0.019211 0.000082 0.262792
-0.018136 0.000083 0.265632
-0.016982 0.000084 0.267683
-0.015431 0.000082 0.263303
-0.014435 0.000084 0.268475
-0.013138 0.000084 0.268542
-0.011352 0.000081 0.257556
-0.010065 0.000080 0.256590
-0.008888 0.000081 0.258543
-0.007642 0.000081 0.258846
-0.006384 0.000081 0.258794
-0.005133 0.000081 0.259112
-0.003884 0.000082 0.259789
-0.002622 0.000082 0.259825
-0.001362 0.000082 0.260276
-0.000096 0.000082 0.260473
0.001173 0.000082 0.260946
0.002448 0.000082 0.261639
0.003708 0.000082 0.260771
0.020495 0.000083 0.264922
0.022045 0.000083 0.268164
0.023589 0.000084 0.270992
0.024889 0.000084 0.270876
0.025537 0.000082 0.264037
0.026115 0.000080 0.257171
0.027298 0.000079 0.256619
0.028635 0.000080 0.257507
0.029806 0.000079 0.256903
0.031100 0.000079 0.257375
0.032402 0.000079 0.257882
0.033662 0.000079 0.258039
0.035140 0.000080 0.259800
0.036327 0.000079 0.259375
0.037503 0.000079 0.258905
0.038965 0.000079 0.260393
0.040588 0.000080 0.262831
0.042020 0.000080 0.263932
0.043045 0.000079 0.262496
0.044418 0.000079 0.263211
0.045332 0.000079 0.261244
0.046329 0.000078 0.259859
0.047512 0.000078 0.259567
0.048729 0.000077 0.259480
0.050053 0.000077 0.259952
0.051379 0.000077 0.260424
0.052651 0.000077 0.260613
0.054172 0.000077 0.262001
0.055628 0.000077 0.263023
0.056982 0.000077 0.263538
0.058304 0.000077 0.263887
0.060437 0.000078 0.267822
0.062484 0.000079 0.271226
0.063655 0.000079 0.270776
0.064990 0.000078 0.271030
0.066314 0.000078 0.271233
0.067521 0.000078 0.270962
0.068833 0.000078 0.271118
0.070063 0.000077 0.270951
0.071054 0.000077 0.269892
0.071566 0.000076 0.267082
0.072330 0.000075 0.265294
0.073764 0.000075 0.265986
0.074579 0.000074 0.264462
0.075406 0.000073 0.263033
0.076527 0.000073 0.262658
0.077426 0.000072 0.261547
0.078672 0.000072 0.261627
0.080340 0.000072 0.263085
0.081806 0.000072 0.263848
0.083585 0.000072 0.265583
0.085628 0.000073 0.268096
0.087269 0.000073 0.269294
0.089050 0.000073 0.270884
0.098406 0.000079 0.295148
0.099645 0.000078 0.294732
0.101783 0.000079 0.296948
0.100481 0.000076 0.289200
0.102016 0.000076 0.289713
0.104520 0.000075 0.289127
0.105909 0.000075 0.289217
0.107587 0.000075 0.290077
0.108717 0.000074 0.289455
0.110236 0.000074 0.289866
0.111865 0.000074 0.290547
0.112590 0.000073 0.288891
0.113759 0.000072 0.288392
0.116058 0.000072 0.290732
0.117522 0.000072 0.290943
0.119237 0.000072 0.291758
0.120272 0.000071 0.290904
0.121621 0.000071 0.290811
0.123066 0.000070 0.290941
0.124408 0.000070 0.290819
0.125686 0.000069 0.290545
0.126944 0.000069 0.290222
0.128683 0.000069 0.290984
0.129747 0.000068 0.290211
0.131311 0.000068 0.290551
0.132694 0.000067 0.290480
0.133876 0.000067 0.289963
0.135696 0.000066 0.290811
0.136628 0.000066 0.289749
0.137514 0.000065 0.288599
0.139916 0.000065 0.290610
0.140601 0.000064 0.289039
0.142989 0.000064 0.290949
0.144321 0.000063 0.290679
0.145629 0.000063 0.290355
0.147189 0.000062 0.290517
0.148658 0.000062 0.290483
0.149787 0.000061 0.289775
0.151189 0.000061 0.289586
-0.154765 0.001444 0.291917
-0.150947 0.001421 0.287463
-0.149385 0.001420 0.287246
-0.148218 0.001422 0.287775
-0.147015 0.001424 0.288231
-0.145074 0.001419 0.287219
-0.143980 0.001422 0.287867
-0.142770 0.001424 0.288281
-0.141334 0.001424 0.288228
-0.140072 0.001425 0.288521
-0.138934 0.001428 0.289067
-0.137572 0.001429 0.289141
-0.135732 0.001424 0.288192
-0.134751 0.001428 0.289054
-0.133155 0.001426 0.288591
-0.131326 0.001422 0.287601
-0.126173 0.001380 0.279221
-0.136729 0.001512 0.305790
-0.135521 0.001515 0.306327
-0.136399 0.001542 0.311634
-0.135165 0.001545 0.312171
-0.122045 0.001411 0.284958
-0.121427 0.001419 0.286651
-0.119900 0.001418 0.286202
-0.118590 0.001418 0.286264
-0.118191 0.001430 0.288546
-0.116287 0.001424 0.287156
-0.114881 0.001424 0.286974
-0.113769 0.001427 0.287527
-0.112297 0.001426 0.287166
-0.111037 0.001427 0.287343
-0.109982 0.001432 0.288056
-0.108465 0.001430 0.287558
-0.107086 0.001430 0.287417
-0.105787 0.001431 0.287483
-0.104659 0.001434 0.288022
-0.103302 0.001435 0.287934
-0.101967 0.001435 0.287905
-0.100858 0.001439 0.288518
-0.098433 0.001424 0.285333
-0.097366 0.001428 0.286049
-0.096240 0.001432 0.286610
-0.094751 0.001430 0.286088
-0.093713 0.001435 0.286934
-0.093220 0.001449 0.289494
-0.091977 0.001451 0.289768
-0.090252 0.001446 0.288510
-0.089099 0.001450 0.289070
-0.087968 0.001454 0.289723
-0.086413 0.001451 0.288978
-0.085092 0.001452 0.289009
-0.083812 0.001454 0.289184
-0.082613 0.001457 0.289649
-0.081162 0.001456 0.289236
-0.079735 0.001456 0.288900
-0.078233 0.001453 0.288276
-0.077140 0.001459 0.289169
-0.075553 0.001455 0.288215
-0.074065 0.001453 0.287612
-0.073028 0.001460 0.288778
-0.071817 0.001463 0.289293
-0.070704 0.001469 0.290229
-0.068420 0.001450 0.286311
-0.067170 0.001453 0.286655
-0.066032 0.001458 0.287509
-0.064758 0.001461 0.287799
-0.058224 0.001470 0.288740
-0.057089 0.001477 0.289856
-0.055886 0.001482 0.290673
-0.054549 0.001484 0.290831
-0.052925 0.001478 0.289434
-0.051292 0.001471 0.287921
-0.049929 0.001471 0.287897
-0.048542 0.001472 0.287737
-0.047175 0.001472 0.287699
-0.045794 0.001472 0.287579
-0.043925 0.001456 0.284303
-0.041960 0.001436 0.280193
-0.040535 0.001434 0.279549
-0.039282 0.001437 0.280100
-0.037673 0.001428 0.278066
-0.036473 0.001433 0.279033
-0.035785 0.001460 0.284148
-0.034527 0.001465 0.284968
-0.030209 0.001335 0.259579
-0.028888 0.001332 0.258880
-0.027635 0.001332 0.258773
-0.026377 0.001332 0.258614
-0.025200 0.001336 0.259287
-0.023878 0.001332 0.258477
-0.022634 0.001333 0.258478
-0.021500 0.001340 0.259819
-0.020139 0.001334 0.258433
-0.019315 0.001364 0.264215
-0.018075 0.001367 0.264737
-0.017154 0.001397 0.270388
-0.015509 0.001367 0.264639
-0.014580 0.001401 0.271176
-0.013270 0.001402 0.271243
-0.011344 0.001331 0.257367
-0.010105 0.001332 0.257601
-0.008894 0.001338 0.258740
-0.007649 0.001340 0.259087
-0.006382 0.001339 0.258737
-0.005135 0.001341 0.259198
-0.003890 0.001347 0.260180
-0.002617 0.001342 0.259297
-0.001360 0.001346 0.260000
-0.000096 0.001350 0.260793
0.001179 0.001358 0.262280
0.002462 0.001362 0.263134
0.003742 0.001362 0.263119
0.020955 0.001400 0.270876
0.022123 0.001391 0.269126
0.024888 0.001399 0.270872
0.025170 0.001343 0.260243
0.026026 0.001323 0.256297
0.027288 0.001323 0.256524
0.028558 0.001324 0.256826
0.029791 0.001324 0.256779
0.031011 0.001323 0.256646
0.032240 0.001322 0.256598
0.033532 0.001324 0.257045
0.034828 0.001325 0.257495
0.035955 0.001321 0.256721
0.037255 0.001323 0.257195
0.038880 0.001335 0.259824
0.040603 0.001351 0.262928
0.042097 0.001358 0.264420
0.043220 0.001353 0.263568
0.044333 0.001348 0.262707
0.045572 0.001347 0.262628
0.046882 0.001348 0.262965
0.048160 0.001348 0.263109
0.049351 0.001345 0.262791
0.050527 0.001343 0.262418
0.052012 0.001348 0.263637
0.053310 0.001349 0.263875
0.054506 0.001346 0.263619
0.055678 0.001344 0.263263
0.057081 0.001347 0.263997
0.058620 0.001353 0.265320
0.060934 0.001376 0.270026
0.062441 0.001380 0.271044
0.063593 0.001377 0.270516
0.064954 0.001378 0.270882
0.066310 0.001379 0.271218
0.067471 0.001376 0.270762
0.068827 0.001377 0.271094
0.070006 0.001374 0.270735
0.070976 0.001367 0.269597
0.071471 0.001352 0.266730
0.072092 0.001339 0.264423
0.073590 0.001343 0.265362
0.074241 0.001332 0.263265
0.074738 0.001318 0.260705
0.075390 0.001308 0.258756
0.076456 0.001304 0.258271
0.077612 0.001303 0.258104
0.078808 0.001302 0.258069
0.080185 0.001304 0.258623
0.082202 0.001316 0.261190
0.083995 0.001324 0.262985
0.085206 0.001323 0.262931
0.087322 0.001336 0.265629
0.100511 0.001494 0.297295
0.101757 0.001491 0.296871
0.100640 0.001454 0.289660
0.103688 0.001458 0.290597
0.104763 0.001453 0.289800
0.106331 0.001455 0.290369
0.107443 0.001451 0.289689
0.109306 0.001457 0.291024
0.110201 0.001450 0.289776
0.111782 0.001452 0.290335
0.113329 0.001454 0.290789
0.114758 0.001454 0.290927
0.116064 0.001453 0.290748
0.117230 0.001450 0.290221
0.118732 0.001451 0.290524
0.120421 0.001454 0.291265
0.121471 0.001450 0.290454
0.122922 0.001450 0.290601
0.124437 0.001451 0.290888
0.125759 0.001450 0.290715
0.127172 0.001450 0.290743
0.128474 0.001448 0.290512
0.130068 0.001450 0.290930
0.131243 0.001447 0.290403
0.132538 0.001446 0.290138
0.133750 0.001444 0.289689
0.135015 0.001442 0.289352
0.136409 0.001442 0.289285
0.137413 0.001437 0.288388
0.138966 0.001438 0.288639
0.140831 0.001443 0.289512
0.143090 0.001451 0.291156
0.144485 0.001451 0.291011
0.146006 0.001451 0.291105
0.147294 0.001450 0.290723
0.148604 0.001448 0.290377
0.149656 0.001445 0.289522
0.150485 0.001439 0.288238
-0.151846 0.002775 0.286409
-0.150193 0.002770 0.286026
-0.148418 0.002762 0.285384
-0.147767 0.002776 0.286899
-0.146552 0.002779 0.287322
-0.144119 0.002759 0.285328
-0.142601 0.002756 0.285108
-0.141582 0.002763 0.285880
-0.140037 0.002759 0.285582
-0.138866 0.002763 0.286037
-0.138167 0.002777 0.287471
-0.136570 0.002772 0.287036
-0.134927 0.002767 0.286482
-0.135328 0.002803 0.290291
-0.129563 0.002712 0.280807
-0.128814 0.002724 0.282100
-0.129986 0.002778 0.287661
-0.134403 0.002934 0.303802
-0.136394 0.003010 0.311625
-0.134370 0.002998 0.310336
-0.120587 0.002720 0.281556
-0.119211 0.002719 0.281421
-0.117832 0.002718 0.281268
-0.117223 0.002735 0.282965
-0.116137 0.002742 0.283531
-0.115495 0.002758 0.285203
-0.114228 0.002761 0.285346
-0.113178 0.002768 0.286034
-0.112023 0.002773 0.286468
-0.110669 0.002773 0.286391
-0.108972 0.002765 0.285412
-0.107880 0.002772 0.286010
-0.106713 0.002777 0.286416
-0.105464 0.002779 0.286609
-0.104156 0.002781 0.286641
-0.102960 0.002785 0.286985
-0.101887 0.002793 0.287681
-0.100275 0.002787 0.286854
-0.098324 0.002770 0.285020
-0.097160 0.002775 0.285448
-0.096351 0.002791 0.286942
-0.094691 0.002783 0.285911
-0.094153 0.002807 0.288285
-0.093052 0.002815 0.288976
-0.092130 0.002829 0.290254
-0.090418 0.002819 0.289045
-0.089144 0.002822 0.289223
-0.088150 0.002835 0.290326
-0.086507 0.002826 0.289299
-0.084658 0.002810 0.287539
-0.084032 0.002836 0.289948
-0.081610 0.002800 0.286136
-0.080282 0.002801 0.286104
-0.079142 0.002809 0.286755
-0.077988 0.002817 0.287378
-0.076809 0.002824 0.287933
-0.075570 0.002829 0.288283
-0.074580 0.002844 0.289617
-0.073299 0.002848 0.289857
-0.071886 0.002847 0.289576
-0.070896 0.002863 0.291026
-0.067842 0.002794 0.283900
-0.065858 0.002768 0.281062
-0.063669 0.002732 0.277225
-0.062492 0.002738 0.277731
-0.061189 0.002740 0.277695
-0.059872 0.002740 0.277599
-0.058665 0.002746 0.278029
-0.057985 0.002777 0.281034
-0.056720 0.002782 0.281292
-0.056669 0.002847 0.287727
-0.055307 0.002848 0.287669
-0.053710 0.002837 0.286364
-0.052408 0.002841 0.286615
-0.050975 0.002838 0.286152
-0.049529 0.002834 0.285595
-0.048004 0.002825 0.284553
-0.046631 0.002825 0.284384
-0.045503 0.002840 0.285758
-0.044061 0.002836 0.285194
-0.041988 0.002789 0.280390
-0.040612 0.002788 0.280085
-0.039171 0.002781 0.279312
-0.038092 0.002801 0.281170
-0.036224 0.002762 0.277134
-0.035755 0.002831 0.283916
-0.034426 0.002835 0.284143
-0.030262 0.002595 0.260043
-0.028973 0.002592 0.259648
-0.027811 0.002601 0.260429
-0.026559 0.002602 0.260411
-0.025270 0.002599 0.260016
-0.024009 0.002599 0.259903
-0.022823 0.002607 0.260644
-0.021585 0.002610 0.260849
-0.020266 0.002603 0.260068
-0.019304 0.002644 0.264068
-0.018072 0.002651 0.264714
-0.016943 0.002676 0.267076
-0.015594 0.002666 0.266093
-0.014521 0.002707 0.270090
-0.013216 0.002708 0.270157
-0.011511 0.002619 0.261180
-0.010179 0.002603 0.259492
-0.008928 0.002605 0.259727
-0.007668 0.002606 0.259724
-0.006400 0.002603 0.259440
-0.005148 0.002608 0.259858
-0.003892 0.002613 0.260322
-0.002631 0.002617 0.260751
-0.001366 0.002622 0.261176
-0.000096 0.002626 0.261598
0.001178 0.002631 0.262027
0.002452 0.002631 0.262021
0.004034 0.002848 0.283695
0.005413 0.002848 0.283672
0.006845 0.002870 0.285840
0.008191 0.002854 0.284320
0.009572 0.002854 0.284277
0.010864 0.002830 0.281952
0.012178 0.002817 0.280657
0.013539 0.002816 0.280595
0.014790 0.002794 0.278506
0.016186 0.002802 0.279261
0.017374 0.002774 0.276591
0.018852 0.002794 0.278605
0.020196 0.002792 0.278511
0.020873 0.002705 0.269813
0.021925 0.002673 0.266719
0.024996 0.002588 0.258456
0.026065 0.002570 0.256682
0.027362 0.002574 0.257233
0.028575 0.002571 0.256984
0.029808 0.002570 0.256932
0.031024 0.002567 0.256758
0.032254 0.002566 0.256710
0.033499 0.002566 0.256794
0.034729 0.002564 0.256772
0.035918 0.002560 0.256461
0.037153 0.002560 0.256500
0.038564 0.002571 0.257718
0.041187 0.002659 0.266720
0.042566 0.002665 0.267368
0.043822 0.002662 0.267240
0.044897 0.002649 0.266053
0.046664 0.002677 0.268931
0.047655 0.002659 0.267305
0.049165 0.002671 0.268607
0.050518 0.002674 0.269014
0.052735 0.002721 0.273892
0.053986 0.002717 0.273648
0.054944 0.002699 0.271970
0.056001 0.002687 0.270855
0.057108 0.002677 0.270031
0.057781 0.002648 0.267238
0.059156 0.002652 0.267753
0.061095 0.002680 0.270747
0.062412 0.002681 0.270924
0.063644 0.002677 0.270737
0.064940 0.002677 0.270828
0.066253 0.002677 0.270989
0.067559 0.002677 0.271119
0.068730 0.002672 0.270716
0.069837 0.002664 0.270084
0.070641 0.002645 0.268330
0.071072 0.002614 0.265242
0.072026 0.002602 0.264184
0.073363 0.002604 0.264547
0.073918 0.002579 0.262124
0.074581 0.002558 0.260161
0.075118 0.002534 0.257827
0.076467 0.002538 0.258313
0.077568 0.002533 0.257959
0.078607 0.002527 0.257414
0.079871 0.002527 0.257612
0.081118 0.002528 0.257752
0.082611 0.002535 0.258654
0.084239 0.002547 0.259949
0.085174 0.002537 0.259097
0.100652 0.002872 0.293651
0.100601 0.002831 0.289549
0.102432 0.002843 0.290899
0.104000 0.002848 0.291472
0.104631 0.002827 0.289437
0.106776 0.002847 0.291586
0.107953 0.002841 0.291067
0.109100 0.002834 0.290478
0.110595 0.002837 0.290812
0.111858 0.002833 0.290533
0.113037 0.002828 0.290041
0.114763 0.002836 0.290941
0.116191 0.002836 0.291066
0.117513 0.002834 0.290925
0.119552 0.002850 0.292530
0.120345 0.002835 0.291082
0.121478 0.002829 0.290471
0.122925 0.002830 0.290608
0.124187 0.002827 0.290304
0.125529 0.002825 0.290182
0.126658 0.002819 0.289567
0.128721 0.002834 0.291071
0.130242 0.002836 0.291321
0.131601 0.002835 0.291193
0.132741 0.002829 0.290582
0.134118 0.002828 0.290486
0.135383 0.002825 0.290141
0.136676 0.002823 0.289850
0.138467 0.002831 0.290600
0.139349 0.002820 0.289433
0.140619 0.002817 0.289074
0.142697 0.002831 0.290353
0.145299 0.002854 0.292648
0.146218 0.002844 0.291527
0.147730 0.002846 0.291584
0.148951 0.002842 0.291053
0.150126 0.002837 0.290429
0.151345 0.002833 0.289884
-0.138845 0.004195 0.291816
-0.137696 0.004202 0.292360
-0.135321 0.004172 0.290277
-0.134177 0.004179 0.290808
-0.131793 0.004147 0.288623
-0.129980 0.004133 0.287648
-0.134364 0.004460 0.310322
-0.123151 0.004133 0.287544
-0.121973 0.004139 0.287942
-0.120608 0.004139 0.287895
-0.119489 0.004148 0.288437
-0.117885 0.004139 0.287800
-0.115691 0.004110 0.285689
-0.114505 0.004116 0.286038
-0.112831 0.004104 0.285159
-0.111893 0.004119 0.286139
-0.110468 0.004117 0.285875
-0.109034 0.004113 0.285579
-0.108630 0.004150 0.288002
-0.105436 0.004079 0.282994
-0.104118 0.004080 0.282955
-0.102662 0.004075 0.282533
-0.100919 0.004059 0.281298
-0.099806 0.004068 0.281809
-0.098743 0.004079 0.282475
-0.097329 0.004076 0.282139
-0.096201 0.004085 0.282633
-0.096344 0.004149 0.286927
-0.092776 0.004052 0.280132
-0.093366 0.004137 0.285879
-0.092428 0.004156 0.287044
-0.091728 0.004186 0.288995
-0.089926 0.004166 0.287477
-0.088698 0.004173 0.287782
-0.087725 0.004192 0.288933
-0.086395 0.004194 0.288929
-0.085164 0.004201 0.289264
-0.083774 0.004200 0.289062
-0.082978 0.004230 0.290941
-0.081686 0.004235 0.291113
-0.079358 0.004185 0.287545
-0.077661 0.004167 0.286180
-0.076439 0.004175 0.286556
-0.075558 0.004202 0.288246
-0.073828 0.004182 0.286707
-0.072633 0.004192 0.287231
-0.071386 0.004199 0.287567
-0.070016 0.004200 0.287421
-0.067366 0.004121 0.281913
-0.065807 0.004108 0.280853
-0.064427 0.004106 0.280532
-0.062635 0.004077 0.278377
-0.061375 0.004081 0.278547
-0.059916 0.004073 0.277812
-0.060945 0.004237 0.288842
-0.059649 0.004243 0.289112
-0.057592 0.004194 0.285623
-0.056303 0.004200 0.285880
-0.054818 0.004192 0.285136
-0.053374 0.004186 0.284584
-0.052063 0.004190 0.284736
-0.050672 0.004189 0.284458
-0.049185 0.004178 0.283621
-0.047732 0.004171 0.282954
-0.046190 0.004154 0.281705
-0.044710 0.004143 0.280788
-0.044120 0.004216 0.285583
-0.042499 0.004192 0.283810
-0.040050 0.004082 0.276220
-0.038699 0.004080 0.275961
-0.038910 0.004248 0.287215
-0.037564 0.004252 0.287394
-0.035833 0.004212 0.284549
-0.034456 0.004212 0.284402
-0.030259 0.003853 0.260031
-0.028880 0.003836 0.258830
-0.027604 0.003833 0.258497
-0.026372 0.003836 0.258582
-0.025169 0.003843 0.258992
-0.023918 0.003843 0.258928
-0.022702 0.003850 0.259273
-0.021477 0.003855 0.259558
-0.020182 0.003848 0.258996
-0.019230 0.003910 0.263070
-0.018080 0.003937 0.264845
-0.017125 0.004015 0.269968
-0.015443 0.003920 0.263532
-0.014659 0.004057 0.272681
-0.013342 0.004059 0.272749
-0.011514 0.003888 0.261248
-0.010159 0.003856 0.259007
-0.008939 0.003872 0.260067
-0.007668 0.003868 0.259773
-0.006401 0.003865 0.259529
-0.005150 0.003873 0.259993
-0.003889 0.003875 0.260122
-0.002633 0.003888 0.260944
-0.001366 0.003891 0.261161
-0.000097 0.003914 0.262659
0.001182 0.003918 0.262942
0.002470 0.003934 0.263996
0.003924 0.004112 0.275966
0.005266 0.004112 0.275944
0.006844 0.004259 0.285823
0.007464 0.003861 0.259098
0.008692 0.003846 0.258146
0.009990 0.003863 0.259265
0.011200 0.003845 0.258117
0.012474 0.003851 0.258532
0.013775 0.003863 0.259398
0.015076 0.003873 0.260113
0.016396 0.003886 0.261037
0.017694 0.003893 0.261498
0.019123 0.003925 0.263719
0.020458 0.003935 0.264459
0.021790 0.003943 0.265081
0.024867 0.003822 0.257127
0.026043 0.003812 0.256477
0.027328 0.003817 0.256923
0.028536 0.003812 0.256635
0.029771 0.003810 0.256622
0.031002 0.003808 0.256588
0.032302 0.003815 0.257103
0.033553 0.003815 0.257221
0.034763 0.003811 0.257029
0.035984 0.003808 0.256941
0.037259 0.003811 0.257240
0.038725 0.003833 0.258805
0.040361 0.003869 0.261377
0.042562 0.003956 0.267352
0.043818 0.003953 0.267225
0.044893 0.003934 0.266038
0.046660 0.003974 0.268916
0.047651 0.003949 0.267290
0.049161 0.003966 0.268592
0.050514 0.003970 0.268999
0.051497 0.003946 0.267468
0.052868 0.003952 0.267986
0.054251 0.003958 0.268549
0.055417 0.003949 0.268035
0.056497 0.003934 0.267149
0.057673 0.003926 0.266748
0.059481 0.003960 0.269231
0.061141 0.003984 0.270955
0.062390 0.003980 0.270835
0.063618 0.003975 0.270631
0.064950 0.003977 0.270875
0.066227 0.003975 0.270891
0.067499 0.003973 0.270885
0.068760 0.003971 0.270844
0.069940 0.003964 0.270490
0.070708 0.003934 0.268589
0.071151 0.003887 0.265543
0.071857 0.003857 0.263570
0.073385 0.003870 0.264632
0.074051 0.003839 0.262601
0.074447 0.003795 0.259698
0.075153 0.003767 0.257953
0.076454 0.003770 0.258274
0.077476 0.003760 0.257658
0.078550 0.003752 0.257232
0.079920 0.003758 0.257776
0.081258 0.003763 0.258201
0.082498 0.003763 0.258305
0.083777 0.003764 0.258528
0.085154 0.003770 0.259040
0.101797 0.004318 0.296997
0.100922 0.004222 0.290477
0.103816 0.004226 0.290961
0.105192 0.004225 0.290993
0.106697 0.004230 0.291373
0.107866 0.004221 0.290836
0.109484 0.004229 0.291502
0.111056 0.004236 0.292028
0.111588 0.004203 0.289834
0.113675 0.004229 0.291680
0.115009 0.004226 0.291567
0.116263 0.004221 0.291250
0.117538 0.004217 0.290987
0.118905 0.004215 0.290950
0.120234 0.004213 0.290813
0.121307 0.004202 0.290062
0.122813 0.004206 0.290344
0.124306 0.004209 0.290581
0.125476 0.004201 0.290060
0.127204 0.004212 0.290816
0.128504 0.004209 0.290579
0.129958 0.004211 0.290684
0.131642 0.004220 0.291286
0.133052 0.004220 0.291262
0.134147 0.004210 0.290549
0.135592 0.004212 0.290588
0.136952 0.004210 0.290435
0.138115 0.004203 0.289859
0.139679 0.004208 0.290116
0.140868 0.004201 0.289583
0.144267 0.004260 0.293546
0.144957 0.004239 0.291956
0.146227 0.004235 0.291542
0.147537 0.004231 0.291198
0.148758 0.004226 0.290672
0.149868 0.004217 0.289925
0.151076 0.004212 0.289364
-0.126010 0.006158 0.322242
-0.125589 0.006213 0.325009
-0.124726 0.006246 0.326681
-0.123923 0.006284 0.328551
-0.123370 0.006335 0.331134
-0.094356 0.005470 0.284908
-0.093174 0.005480 0.285297
-0.091813 0.005479 0.285141
-0.091566 0.005546 0.288491
-0.090359 0.005556 0.288871
-0.082970 0.005612 0.290920
-0.078943 0.005430 0.281347
-0.078009 0.005459 0.282666
-0.077652 0.005529 0.286159
-0.076431 0.005539 0.286535
-0.074016 0.005462 0.282373
-0.072004 0.005412 0.279635
-0.071348 0.005464 0.282158
-0.069402 0.005417 0.279589
-0.068131 0.005422 0.279695
-0.066617 0.005407 0.278791
-0.065461 0.005422 0.279388
-0.064573 0.005460 0.281182
-0.065840 0.005685 0.292635
-0.063921 0.005639 0.290117
-0.062183 0.005608 0.288338
-0.060533 0.005583 0.286902
-0.059011 0.005569 0.286032
-0.057323 0.005538 0.284302
-0.055794 0.005522 0.283311
-0.054341 0.005512 0.282669
-0.052985 0.005513 0.282524
-0.051607 0.005510 0.282258
-0.050364 0.005523 0.282745
-0.049136 0.005537 0.283355
-0.047626 0.005520 0.282335
-0.045717 0.005455 0.278839
-0.044523 0.005473 0.279628
-0.043561 0.005521 0.281980
-0.041982 0.005493 0.280375
-0.041685 0.005635 0.287516
-0.039437 0.005515 0.281234
-0.038042 0.005509 0.280829
-0.036958 0.005550 0.282773
-0.035629 0.005555 0.282944
-0.034261 0.005555 0.282811
-0.030210 0.005102 0.259625
-0.028860 0.005085 0.258664
-0.027596 0.005082 0.258444
-0.025926 0.005001 0.254227
-0.024723 0.005007 0.254414
-0.023606 0.005031 0.255569
-0.022643 0.005093 0.258608
-0.021458 0.005109 0.259346
-0.020193 0.005107 0.259156
-0.019300 0.005205 0.264053
-0.018052 0.005214 0.264440
-0.017065 0.005306 0.269026
-0.015600 0.005252 0.266240
-0.014770 0.005421 0.274753
-0.013442 0.005424 0.274821
-0.011417 0.005114 0.259066
-0.010177 0.005123 0.259475
-0.008959 0.005147 0.260652
-0.007650 0.005119 0.259173
-0.006394 0.005121 0.259257
-0.005157 0.005143 0.260365
-0.003899 0.005153 0.260834
-0.002645 0.005180 0.262175
-0.001368 0.005170 0.261653
-0.000096 0.005190 0.262637
0.001183 0.005203 0.263266
0.002463 0.005203 0.263257
0.005309 0.005498 0.278214
0.006232 0.005144 0.260278
0.007451 0.005111 0.258639
0.008687 0.005099 0.258028
0.009958 0.005106 0.258450
0.011197 0.005098 0.258064
0.012472 0.005107 0.258509
0.013736 0.005109 0.258666
0.015023 0.005119 0.259211
0.016330 0.005134 0.259987
0.017623 0.005142 0.260460
0.018947 0.005158 0.261317
0.020302 0.005180 0.262458
0.021674 0.005203 0.263692
0.025094 0.005116 0.259483
0.026043 0.005055 0.256487
0.027295 0.005057 0.256625
0.028524 0.005054 0.256546
0.029756 0.005051 0.256509
0.031011 0.005053 0.256672
0.032259 0.005053 0.256773
0.033493 0.005052 0.256771
0.034664 0.005041 0.256313
0.035950 0.005047 0.256713
0.037361 0.005069 0.257955
0.038860 0.005102 0.259719
0.040400 0.005138 0.261643
0.041628 0.005133 0.261499
0.043140 0.005162 0.263105
0.044439 0.005165 0.263359
0.045716 0.005165 0.263487
0.046974 0.005164 0.263503
0.048248 0.005163 0.263614
0.049489 0.005160 0.263551
0.050796 0.005163 0.263839
0.052063 0.005162 0.263917
0.053498 0.005178 0.264832
0.054906 0.005190 0.265576
0.055925 0.005166 0.264454
0.057312 0.005176 0.265089
0.059450 0.005252 0.269100
0.061126 0.005284 0.270902
0.062306 0.005274 0.270481
0.063626 0.005275 0.270675
0.064925 0.005274 0.270782
0.066122 0.005266 0.270468
0.067411 0.005265 0.270541
0.068712 0.005265 0.270662
0.069815 0.005250 0.270015
0.070640 0.005215 0.268337
0.071161 0.005159 0.265588
0.072026 0.005129 0.264199
0.073216 0.005124 0.264031
0.074130 0.005099 0.262889
0.074490 0.005038 0.259854
0.075301 0.005009 0.258467
0.076229 0.004989 0.257520
0.077343 0.004981 0.257224
0.078561 0.004980 0.257274
0.079731 0.004976 0.257171
0.081328 0.004998 0.258428
0.082851 0.005015 0.259416
0.083969 0.005007 0.259126
0.085712 0.005037 0.260744
0.101103 0.005692 0.294977
0.100872 0.005601 0.290336
0.104054 0.005622 0.291632
0.105245 0.005611 0.291145
0.106609 0.005610 0.291136
0.108075 0.005613 0.291402
0.109719 0.005626 0.292131
0.111170 0.005629 0.292330
0.112330 0.005617 0.291765
0.113612 0.005611 0.291521
0.114860 0.005603 0.291189
0.116173 0.005600 0.291026
0.117452 0.005594 0.290776
0.118702 0.005587 0.290454
0.120117 0.005588 0.290531
0.121821 0.005602 0.291293
0.123099 0.005597 0.291022
0.124354 0.005591 0.290696
0.125644 0.005586 0.290449
0.127342 0.005599 0.291133
0.128670 0.005596 0.290956
0.130108 0.005598 0.291018
0.131536 0.005599 0.291049
0.132806 0.005594 0.290723
0.134031 0.005586 0.290295
0.135371 0.005584 0.290113
0.137050 0.005596 0.290640
0.137994 0.005577 0.289602
0.139367 0.005576 0.289465
0.141073 0.005588 0.290001
0.144395 0.005664 0.293803
0.145189 0.005639 0.292421
0.146308 0.005628 0.291699
0.147765 0.005630 0.291645
0.148991 0.005623 0.291123
0.150157 0.005614 0.290480
0.151486 0.005610 0.290143
-0.125997 0.007677 0.322214
-0.125576 0.007745 0.324981
-0.124713 0.007787 0.326653
-0.123910 0.007833 0.328523
-0.123357 0.007897 0.331105
-0.122014 0.007912 0.331602
-0.074758 0.006876 0.285219
-0.073522 0.006887 0.285540
-0.072397 0.006910 0.286322
-0.070863 0.006893 0.285488
-0.069431 0.006886 0.285044
-0.067096 0.006788 0.280811
-0.064736 0.006682 0.276309
-0.065986 0.006953 0.287349
-0.064642 0.006956 0.287324
-0.061057 0.006713 0.277133
-0.059028 0.006634 0.273720
-0.057785 0.006642 0.273895
-0.056774 0.006677 0.275205
-0.055487 0.006681 0.275213
-0.054240 0.006690 0.275434
-0.053283 0.006736 0.277180
-0.052421 0.006797 0.279535
-0.051162 0.006808 0.279841
-0.050169 0.006856 0.281671
-0.048705 0.006840 0.280889
-0.046673 0.006741 0.276705
-0.045473 0.006761 0.277366
-0.044281 0.006783 0.278129
-0.042756 0.006753 0.276791
-0.042735 0.006967 0.285424
-0.041613 0.007010 0.287038
-0.039768 0.006930 0.283617
-0.038302 0.006912 0.282762
-0.036976 0.006919 0.282939
-0.035640 0.006925 0.283046
-0.034268 0.006924 0.282888
-0.030335 0.006383 0.260714
-0.028889 0.006343 0.258945
-0.027605 0.006335 0.258544
-0.026351 0.006334 0.258412
-0.025181 0.006355 0.259150
-0.023869 0.006339 0.258432
-0.022748 0.006376 0.259833
-0.021551 0.006394 0.260495
-0.020140 0.006347 0.258496
-0.019257 0.006471 0.263481
-0.018053 0.006497 0.264486
-0.017246 0.006682 0.271909
-0.015456 0.006484 0.263796
-0.015066 0.006891 0.280302
-0.013713 0.006894 0.280371
-0.012563 0.007012 0.285114
-0.011183 0.007015 0.285171
-0.009937 0.007114 0.289149
-0.008535 0.007116 0.289194
-0.007132 0.007118 0.289232
-0.005740 0.007134 0.289825
-0.004332 0.007135 0.289850
-0.002924 0.007136 0.289867
0.002463 0.006481 0.263229
0.005308 0.006850 0.278184
0.006231 0.006408 0.260250
0.007422 0.006344 0.257665
0.008692 0.006356 0.258183
0.009932 0.006346 0.257783
0.011192 0.006350 0.257954
0.012450 0.006352 0.258070
0.013707 0.006353 0.258146
0.015010 0.006373 0.258994
0.016281 0.006378 0.259235
0.017612 0.006403 0.260317
0.018900 0.006411 0.260674
0.020255 0.006439 0.261868
0.021611 0.006464 0.262931
0.025018 0.006355 0.258712
0.026069 0.006306 0.256761
0.027346 0.006313 0.257118
0.028636 0.006322 0.257564
0.029848 0.006314 0.257310
0.031143 0.006323 0.257776
0.032428 0.006330 0.258136
0.033722 0.006338 0.258542
0.034972 0.006337 0.258606
0.036206 0.006334 0.258557
0.037504 0.006341 0.258956
0.038852 0.006356 0.259680
0.041032 0.006502 0.265748
0.043382 0.006666 0.272532
0.044947 0.006702 0.274141
0.046220 0.006694 0.273929
0.047488 0.006686 0.273712
0.048841 0.006690 0.273993
0.050103 0.006682 0.273765
0.051419 0.006681 0.273843
0.052466 0.006646 0.272530
0.053505 0.006612 0.271239
0.054662 0.006593 0.270607
0.055684 0.006560 0.269351
0.056848 0.006544 0.268830
0.057819 0.006507 0.267445
0.059307 0.006529 0.268463
0.061122 0.006585 0.270897
0.062492 0.006592 0.271300
0.063785 0.006590 0.271365
0.064943 0.006575 0.270868
0.066185 0.006569 0.270737
0.067429 0.006563 0.270622
0.068699 0.006560 0.270623
0.069911 0.006552 0.270396
0.070681 0.006503 0.268506
0.071125 0.006426 0.265467
0.071827 0.006375 0.263477
0.073296 0.006393 0.264326
0.074149 0.006357 0.262964
0.074794 0.006305 0.260924
0.075366 0.006249 0.258699
0.076198 0.006215 0.257423
0.077329 0.006207 0.257183
0.078402 0.006194 0.256762
0.079401 0.006176 0.256115
0.080695 0.006181 0.256424
0.082048 0.006191 0.256907
0.083512 0.006208 0.257721
0.084735 0.006207 0.257777
0.101129 0.007097 0.295057
0.101026 0.006992 0.290788
0.102297 0.006984 0.290528
0.104751 0.006962 0.289782
0.106181 0.006965 0.289973
0.108190 0.007005 0.291717
0.109600 0.007006 0.291817
0.110880 0.006999 0.291570
0.112160 0.006992 0.291327
0.113626 0.006996 0.291560
0.114875 0.006987 0.291231
0.116205 0.006983 0.291108
0.117373 0.006970 0.290580
0.118654 0.006963 0.290337
0.120404 0.006984 0.291226
0.120549 0.006912 0.288251
0.121843 0.006907 0.288053
0.124289 0.006967 0.290543
0.125359 0.006949 0.289788
0.127160 0.006972 0.290715
0.128787 0.006984 0.291217
0.130488 0.007001 0.291866
0.131738 0.006993 0.291495
0.133176 0.006995 0.291529
0.134520 0.006992 0.291351
0.136199 0.007006 0.291883
0.137506 0.007001 0.291603
0.138511 0.006981 0.290683
0.141332 0.007052 0.293543
0.143027 0.007066 0.294014
0.143729 0.007031 0.292442
0.144289 0.006990 0.290603
0.146605 0.007034 0.292284
0.147563 0.007012 0.291239
0.149010 0.007014 0.291153
0.150296 0.007008 0.290740
0.151672 0.007006 0.290492
-0.122194 0.008134 0.285312
-0.121062 0.008148 0.285794
-0.120647 0.008211 0.287996
-0.119501 0.008226 0.288473
