ply
format ascii 1.0
element vertex 1745
property float x
property float y
property float z
end_header
0.128426 0.079994 0.288373
0.129859 0.080023 0.288288
0.131634 0.080261 0.288941
0.133208 0.080372 0.289126
0.134670 0.080413 0.289049
0.136210 0.080500 0.289124
0.137840 0.080638 0.289368
0.139524 0.080805 0.289701
0.141068 0.080887 0.289718
0.142675 0.081003 0.289844
0.144470 0.081223 0.290325
0.146489 0.081564 0.291219
0.148567 0.081930 0.292187
0.150164 0.082026 0.292174
0.151513 0.081987 0.291662
0.152986 0.082014 0.291369
0.154257 0.081933 0.290676
-0.045200 0.023884 0.083936
-0.044743 0.023855 0.083946
-0.044063 0.023706 0.083525
-0.041994 0.027912 0.099936
-0.041700 0.028031 0.100399
-0.042357 0.028800 0.103187
-0.040969 0.028179 0.100996
-0.040560 0.030755 0.110415
-0.040623 0.031202 0.112034
-0.040113 0.031216 0.112092
-0.039996 0.031539 0.113261
-0.039861 0.031857 0.114410
-0.041256 0.033422 0.120039
-0.040695 0.033426 0.120054
-0.040934 0.034095 0.122458
-0.040653 0.034343 0.123351
-0.040246 0.034492 0.123882
-0.039700 0.034524 0.123993
-0.039412 0.034784 0.124922
-0.038920 0.034869 0.125221
-0.040620 0.036952 0.132690
-0.041968 0.038774 0.139224
-0.042182 0.039589 0.142137
-0.041238 0.039327 0.141180
-0.057514 0.056675 0.203409
-0.056627 0.056746 0.203638
-0.056309 0.057400 0.205952
-0.055769 0.057845 0.207519
-0.055335 0.058419 0.209543
-0.055149 0.059280 0.212599
-0.055098 0.060321 0.216293
-0.054296 0.060564 0.217126
-0.053470 0.060788 0.217888
-0.052325 0.060651 0.217357
-0.051469 0.060852 0.218033
-0.050392 0.060793 0.217778
-0.049583 0.061062 0.218697
-0.049247 0.061938 0.221788
-0.048358 0.062141 0.222467
-0.047366 0.062217 0.222691
-0.046461 0.062415 0.223350
-0.045509 0.062555 0.223804
-0.044542 0.062683 0.224210
-0.043649 0.062924 0.225021
-0.042764 0.063189 0.225917
-0.042058 0.063738 0.227828
-0.041346 0.064306 0.229807
-0.040819 0.065200 0.232951
-0.048607 0.079795 0.285031
-0.047301 0.079869 0.285230
-0.045850 0.079694 0.284542
-0.044519 0.079724 0.284586
-0.043150 0.079686 0.284388
-0.041801 0.079683 0.284314
-0.040267 0.079317 0.282946
-0.038869 0.079201 0.282472
-0.037926 0.080037 0.285394
-0.036600 0.080098 0.285550
-0.034853 0.079207 0.282315
-0.030684 0.072522 0.258437
-0.029411 0.072407 0.257978
-0.028191 0.072418 0.257967
-0.027008 0.072533 0.258328
-0.025782 0.072534 0.258285
-0.024537 0.072483 0.258057
-0.023312 0.072486 0.258022
-0.022090 0.072503 0.258037
-0.020833 0.072397 0.257620
-0.019602 0.072374 0.257497
-0.018392 0.072432 0.257663
-0.017430 0.073546 0.261590
-0.016443 0.074715 0.265711
-0.015337 0.075495 0.268451
-0.014075 0.075583 0.268729
-0.012607 0.074466 0.264727
-0.011152 0.073188 0.260155
-0.009828 0.072560 0.257894
-0.008647 0.072957 0.259280
-0.007373 0.072579 0.257914
-0.006140 0.072525 0.257701
-0.004930 0.072791 0.258626
-0.003702 0.072867 0.258878
-0.002475 0.073063 0.259558
-0.001242 0.073288 0.260344
-0.000001 0.073199 0.260018
0.001251 0.073917 0.262558
0.002519 0.074404 0.264279
0.003832 0.075450 0.267988
0.005170 0.076334 0.271122
0.006466 0.076376 0.271269
0.007718 0.075964 0.269806
0.009010 0.076010 0.269970
0.010310 0.076102 0.270301
0.011533 0.075672 0.268780
0.012721 0.075116 0.266811
0.013946 0.074860 0.265912
0.015145 0.074522 0.264724
0.016352 0.074269 0.263838
0.017538 0.073966 0.262774
0.018819 0.074072 0.263168
0.020151 0.074357 0.264197
0.021451 0.074498 0.264717
0.022670 0.074354 0.264226
0.024022 0.074638 0.265260
0.025105 0.074103 0.263383
0.025979 0.073031 0.259595
0.027256 0.073135 0.259993
0.028458 0.073039 0.259679
0.029522 0.072610 0.258181
0.030804 0.072732 0.258643
0.032178 0.073051 0.259809
0.033609 0.073473 0.261344
0.034814 0.073388 0.261073
0.036208 0.073692 0.262189
0.037488 0.073753 0.262439
0.038746 0.073765 0.262520
0.039888 0.073566 0.261845
0.041351 0.073951 0.263252
0.042518 0.073799 0.262750
0.043733 0.073738 0.262568
0.043764 0.071738 0.255485
0.044688 0.071273 0.253864
0.046028 0.071475 0.254621
0.047216 0.071439 0.254528
0.048181 0.071074 0.253266
0.049490 0.071224 0.253836
0.050723 0.071259 0.253994
0.052042 0.071410 0.254570
0.053154 0.071276 0.254126
0.054410 0.071337 0.254380
0.056001 0.071826 0.256156
0.058263 0.073135 0.260859
0.060636 0.074526 0.265854
0.062278 0.074980 0.267507
0.063756 0.075223 0.268403
0.065314 0.075548 0.269594
0.066772 0.075747 0.270333
0.068229 0.075938 0.271042
0.069488 0.075905 0.270949
0.070681 0.075802 0.270604
0.071912 0.075744 0.270418
0.073148 0.075692 0.270252
0.074280 0.075536 0.269713
0.075486 0.075460 0.269454
0.076694 0.075388 0.269209
0.077789 0.075209 0.268578
0.079042 0.075186 0.268503
0.080505 0.075360 0.269128
0.081980 0.075539 0.269769
0.083516 0.075768 0.270584
0.085076 0.076012 0.271449
0.086639 0.076252 0.272295
0.088205 0.076486 0.273116
0.089748 0.076694 0.273842
0.091455 0.077035 0.275034
0.096694 0.080298 0.286658
0.097541 0.079875 0.285112
0.099078 0.080020 0.285592
0.100368 0.079964 0.285351
0.102501 0.080573 0.287475
0.103720 0.080456 0.287005
0.104496 0.080003 0.285329
0.105660 0.079855 0.284737
0.107345 0.080099 0.285536
0.108571 0.079999 0.285100
0.116540 0.079866 0.284014
0.117372 0.079509 0.282619
0.120008 0.080369 0.285536
0.123022 0.081459 0.289259
0.124409 0.081459 0.289104
0.125659 0.081371 0.288624
0.127074 0.081391 0.288517
0.128708 0.081548 0.288888
0.130152 0.081583 0.288814
0.131585 0.081611 0.288703
0.133220 0.081761 0.289016
0.134774 0.081859 0.289131
0.136123 0.081833 0.288793
0.137544 0.081849 0.288594
0.139401 0.082122 0.289285
0.141528 0.082546 0.290497
0.142943 0.082551 0.290216
0.144719 0.082763 0.290646
0.146332 0.082877 0.290720
0.148494 0.083298 0.291848
0.149982 0.083335 0.291618
0.151627 0.083459 0.291671
0.153046 0.083457 0.291267
0.154452 0.083448 0.290819
-0.045900 0.024665 0.085174
-0.045412 0.024623 0.085141
-0.045137 0.024696 0.085504
-0.041733 0.028209 0.099287
-0.041493 0.028365 0.099876
-0.042105 0.029114 0.102549
-0.040492 0.028324 0.099799
-0.041648 0.031710 0.111915
-0.041175 0.031751 0.112078
-0.039479 0.030838 0.108869
-0.040288 0.031883 0.112572
-0.039811 0.031925 0.112729
-0.041937 0.034084 0.120363
-0.041514 0.034202 0.120786
-0.040980 0.034230 0.120890
-0.040750 0.034517 0.121905
-0.040454 0.034755 0.122747
-0.040096 0.034946 0.123422
-0.039748 0.035152 0.124146
-0.039720 0.035651 0.125905
-0.040727 0.037108 0.131044
-0.040109 0.037107 0.131032
-0.042833 0.040245 0.142105
-0.042219 0.040297 0.142274
-0.041602 0.040348 0.142441
-0.058256 0.057425 0.202709
-0.057220 0.057343 0.202396
-0.057047 0.058138 0.205177
-0.056304 0.058368 0.205962
-0.055831 0.058893 0.207784
-0.055041 0.059095 0.208465
-0.054407 0.059475 0.209774
-0.053816 0.059918 0.211303
-0.053772 0.060998 0.215073
-0.052848 0.061102 0.215401
-0.052178 0.061508 0.216796
-0.050961 0.061275 0.215931
-0.050067 0.061427 0.216427
-0.049304 0.061750 0.217522
-0.048291 0.061767 0.217540
-0.047924 0.062629 0.220531
-0.047253 0.063124 0.222225
-0.046282 0.063230 0.222554
-0.045316 0.063349 0.222924
-0.044434 0.063594 0.223738
-0.043492 0.063763 0.224283
-0.042625 0.064052 0.225253
-0.041737 0.064325 0.226163
-0.041104 0.065016 0.228541
-0.040756 0.066207 0.232678
-0.047258 0.081152 0.285077
-0.045991 0.081299 0.285530
-0.044546 0.081129 0.284871
-0.043331 0.081381 0.285695
-0.041964 0.081355 0.285542
-0.040281 0.080694 0.283162
-0.039554 0.081967 0.287571
-0.038223 0.082038 0.287759
-0.036577 0.081411 0.285501
-0.035145 0.081230 0.284810
-0.030544 0.073418 0.257370
-0.029361 0.073514 0.257658
-0.028150 0.073547 0.257724
-0.026953 0.073619 0.257929
-0.025714 0.073577 0.257737
-0.024512 0.073644 0.257924
-0.023286 0.073642 0.257874
-0.022063 0.073650 0.257859
-0.020928 0.073968 0.258934
-0.019679 0.073901 0.258659
-0.018390 0.073664 0.257793
-0.017414 0.074735 0.261504
-0.016565 0.076561 0.267855
-0.015582 0.078016 0.272912
-0.014234 0.077748 0.271939
-0.012675 0.076152 0.266326
-0.010998 0.073418 0.256736
-0.009789 0.073520 0.257067
-0.008570 0.073562 0.257189
-0.007333 0.073434 0.256719
-0.006113 0.073461 0.256793
-0.004897 0.073567 0.257144
-0.003683 0.073777 0.257860
-0.002452 0.073711 0.257614
-0.001226 0.073746 0.257723
0.000002 0.073878 0.258174
0.001260 0.075498 0.263824
0.002539 0.076171 0.266167
0.003872 0.077453 0.270639
0.005142 0.077165 0.269630
0.006417 0.077044 0.269206
0.007750 0.077537 0.270926
0.008972 0.076942 0.268850
0.010255 0.076953 0.268891
0.011532 0.076926 0.268801
0.012721 0.076368 0.266859
0.013968 0.076231 0.266388
0.015174 0.075911 0.265280
0.016393 0.075699 0.264552
0.017619 0.075548 0.264037
0.018801 0.075243 0.262987
0.020115 0.075470 0.263796
0.021322 0.075291 0.263190
0.022578 0.075297 0.263229
0.023850 0.075349 0.263432
0.024895 0.074716 0.261243
0.026123 0.074669 0.261102
0.027231 0.074297 0.259828
0.028461 0.074274 0.259772
0.029601 0.074029 0.258942
0.030699 0.073703 0.257831
0.032070 0.074031 0.259006
0.033438 0.074330 0.260082
0.034738 0.074459 0.260567
0.036023 0.074550 0.260917
0.037411 0.074840 0.261965
0.038717 0.074953 0.262394
0.040049 0.075107 0.262967
0.041423 0.075328 0.263777
0.042727 0.075412 0.264105
0.044244 0.075857 0.265701
0.043317 0.072204 0.252939
0.044577 0.072293 0.253286
0.045836 0.072379 0.253620
0.046898 0.072154 0.252868
0.048162 0.072245 0.253222
0.049374 0.072255 0.253290
0.050700 0.072428 0.253930
0.052059 0.072638 0.254697
0.053159 0.072485 0.254195
0.054503 0.072664 0.254856
0.056405 0.073565 0.258046
0.058520 0.074697 0.262047
0.060682 0.075842 0.266096
0.062313 0.076288 0.267692
0.063729 0.076459 0.268321
0.065205 0.076696 0.269178
0.066698 0.076941 0.270065
0.068105 0.077080 0.270577
0.069507 0.077208 0.271048
0.070769 0.077179 0.270967
0.071987 0.077103 0.270721
0.073300 0.077130 0.270831
0.074370 0.076905 0.270053
0.075820 0.077073 0.270656
0.076832 0.076798 0.269700
0.077927 0.076614 0.269060
0.079153 0.076562 0.268881
0.080426 0.076558 0.268865
0.082093 0.076921 0.270139
0.083566 0.077095 0.270743
0.085293 0.077494 0.272135
0.087078 0.077933 0.273660
0.088736 0.078247 0.274747
0.090340 0.078505 0.275630
0.091538 0.078407 0.275262
0.098187 0.082916 0.291058
0.097658 0.081322 0.285426
0.099092 0.081383 0.285599
0.100440 0.081373 0.285518
0.101626 0.081235 0.284979
0.103033 0.081273 0.285058
0.104472 0.081336 0.285215
0.105994 0.081461 0.285583
0.107221 0.081358 0.285147
0.108455 0.081264 0.284734
0.108137 0.080023 0.280299
0.110767 0.080967 0.283512
0.119447 0.082282 0.287521
0.120679 0.082184 0.287034
0.122156 0.082252 0.287120
0.124367 0.082809 0.288899
0.125823 0.082855 0.288887
0.127028 0.082737 0.288294
0.129028 0.083133 0.289481
0.130598 0.083246 0.289674
0.131959 0.083226 0.289388
0.133735 0.083465 0.289991
0.135316 0.083578 0.290146
0.136572 0.083490 0.289592
0.138070 0.083551 0.289538
0.139712 0.083696 0.289764
0.141074 0.083672 0.289393
0.142865 0.083901 0.289877
0.144403 0.083978 0.289824
0.146220 0.084214 0.290303
0.148017 0.084434 0.290709
0.149742 0.084608 0.290942
0.151271 0.084670 0.290769
0.152768 0.084713 0.290512
0.154243 0.084743 0.290193
-0.045933 0.025095 0.085171
-0.045691 0.025187 0.085602
-0.045018 0.025041 0.085218
-0.041933 0.028817 0.099737
-0.041999 0.029190 0.101066
-0.042068 0.029573 0.102433
-0.039510 0.028098 0.097356
-0.040842 0.029386 0.101852
-0.040145 0.031075 0.107861
-0.040869 0.032041 0.111232
-0.040313 0.032015 0.111158
-0.039634 0.031889 0.110735
-0.040379 0.032921 0.114330
-0.041534 0.034320 0.119200
-0.041276 0.034573 0.120088
-0.040541 0.034429 0.119592
-0.040343 0.034743 0.120686
-0.040129 0.035052 0.121762
-0.041045 0.036371 0.126345
-0.041128 0.036980 0.128460
-0.041172 0.037571 0.130510
-0.040393 0.037417 0.129973
-0.040107 0.037724 0.131031
-0.058183 0.058311 0.202476
-0.057493 0.058578 0.203384
-0.056938 0.058995 0.204808
-0.056172 0.059203 0.205507
-0.055526 0.059548 0.206677
-0.054872 0.059897 0.207860
-0.054498 0.060569 0.210161
-0.053871 0.060981 0.211556
-0.053264 0.061430 0.213081
-0.052361 0.061549 0.213458
-0.051573 0.061810 0.214327
-0.050701 0.061979 0.214876
-0.049897 0.062241 0.215743
-0.049045 0.062451 0.216430
-0.048308 0.062820 0.217668
-0.047612 0.063260 0.219150
-0.046968 0.063790 0.220943
-0.046066 0.063987 0.221580
-0.045167 0.064196 0.222259
-0.044260 0.064403 0.222930
-0.043342 0.064605 0.223582
-0.042476 0.064895 0.224540
-0.041757 0.065432 0.226348
-0.041214 0.066280 0.229232
-0.048243 0.081892 0.283107
-0.046946 0.081966 0.283304
-0.045956 0.082596 0.285421
-0.044641 0.082662 0.285589
-0.043325 0.082730 0.285767
-0.041959 0.082705 0.285622
-0.040221 0.081921 0.282854
-0.039797 0.083852 0.289466
-0.038160 0.083274 0.287412
-0.036721 0.083099 0.286751
-0.035199 0.082719 0.285384
-0.030452 0.074425 0.256721
-0.029268 0.074511 0.256969
-0.028025 0.074448 0.256705
-0.026761 0.074320 0.256217
-0.025569 0.074389 0.256412
-0.024276 0.074160 0.255579
-0.023029 0.074053 0.255167
-0.021809 0.074024 0.255026
-0.020593 0.074008 0.254931
-0.019397 0.074066 0.255095
-0.018162 0.073976 0.254746
-0.017492 0.076333 0.262829
-0.016646 0.078229 0.269321
-0.015549 0.079165 0.272510
-0.014418 0.080082 0.275631
-0.012439 0.075999 0.261549
-0.010946 0.074309 0.255707
-0.009745 0.074432 0.256104
-0.008527 0.074437 0.256096
-0.007310 0.074458 0.256146
-0.006087 0.074410 0.255960
-0.004885 0.074652 0.256775
-0.003665 0.074701 0.256925
-0.002433 0.074445 0.256029
-0.001215 0.074520 0.256276
0.000005 0.074580 0.256469
0.001233 0.074926 0.257648
0.002585 0.078742 0.270763
0.003930 0.079855 0.274583
0.005199 0.079264 0.272548
0.006480 0.079056 0.271829
0.007778 0.079081 0.271915
0.009016 0.078585 0.270208
0.010273 0.078350 0.269405
0.011497 0.077943 0.268009
0.012719 0.077607 0.266859
0.013974 0.077518 0.266561
0.015259 0.077591 0.266823
0.016501 0.077452 0.266354
0.017677 0.077048 0.264979
0.018893 0.076857 0.264336
0.020099 0.076651 0.263644
0.021266 0.076333 0.262569
0.022476 0.076191 0.262100
0.023840 0.076561 0.263390
0.024898 0.075961 0.261347
0.026051 0.075694 0.260451
0.027333 0.075806 0.260863
0.028434 0.075431 0.259597
0.029551 0.075127 0.258574
0.030807 0.075186 0.258806
0.032072 0.075262 0.259093
0.033434 0.075551 0.260119
0.034795 0.075817 0.261064
0.036019 0.075777 0.260956
0.037383 0.076023 0.261835
0.038800 0.076357 0.263019
0.040193 0.076626 0.263976
0.041417 0.076566 0.263802
0.042686 0.076589 0.263916
0.044181 0.077004 0.265381
0.046355 0.078549 0.270738
0.043978 0.072504 0.249937
0.045723 0.073397 0.253046
0.046882 0.073327 0.252836
0.047788 0.072872 0.251302
0.049226 0.073234 0.252580
0.050367 0.073146 0.252308
0.051606 0.073201 0.252529
0.053242 0.073803 0.254637
0.054428 0.073768 0.254547
0.055611 0.073732 0.254450
0.058370 0.075741 0.261414
0.060758 0.077196 0.266464
0.062497 0.077784 0.268519
0.063772 0.077782 0.268538
0.065202 0.077965 0.269195
0.066646 0.078156 0.269879
0.067936 0.078165 0.269930
0.069245 0.078194 0.270049
0.070486 0.078146 0.269902
0.071781 0.078159 0.269963
0.072940 0.078025 0.269515
0.074163 0.077964 0.269313
0.075471 0.077993 0.269421
0.076822 0.078063 0.269671
0.078078 0.078038 0.269585
0.079343 0.078021 0.269527
0.080694 0.078088 0.269757
0.082462 0.078550 0.271345
0.084215 0.078984 0.272836
0.085896 0.079338 0.274045
0.087949 0.080020 0.276382
0.089476 0.080210 0.277019
0.091536 0.080865 0.279255
0.096820 0.084309 0.291116
0.098085 0.084205 0.290722
0.098273 0.083193 0.287186
0.099730 0.083268 0.287401
0.101426 0.083538 0.288280
0.102945 0.083656 0.288631
0.104470 0.083776 0.288984
0.105591 0.083573 0.288215
0.106941 0.083554 0.288075
0.108190 0.083458 0.287663
0.109481 0.083395 0.287360
0.109813 0.082614 0.284575
0.110668 0.082239 0.283185
0.112603 0.082666 0.284549
0.113825 0.082567 0.284092
0.122915 0.084139 0.288796
0.124156 0.084041 0.288294
0.125954 0.084319 0.289068
0.127692 0.084551 0.289674
0.128955 0.084467 0.289187
0.130460 0.084541 0.289232
0.132002 0.084637 0.289340
0.133557 0.084739 0.289458
0.135316 0.084967 0.289992
0.136587 0.084887 0.289463
0.137955 0.084868 0.289129
0.139605 0.085022 0.289370
0.140922 0.084972 0.288902
0.142360 0.084994 0.288667
0.143914 0.085084 0.288650
0.145878 0.085413 0.289422
0.148052 0.085857 0.290569
0.150254 0.086309 0.291719
0.151792 0.086374 0.291544
0.153305 0.086424 0.291299
0.154858 0.086495 0.291107
-0.045730 0.025394 0.084727
-0.045175 0.025311 0.084571
-0.042262 0.029520 0.100490
-0.042055 0.029708 0.101173
-0.042026 0.030029 0.102305
-0.041052 0.029674 0.101131
-0.039564 0.028934 0.098644
-0.040187 0.031224 0.106592
-0.040368 0.031761 0.108446
-0.041313 0.032921 0.112426
-0.040622 0.032790 0.111996
-0.039910 0.032638 0.111494
-0.041001 0.033977 0.116083
-0.040368 0.033904 0.115844
-0.041019 0.034922 0.119334
-0.040416 0.034886 0.119217
-0.040466 0.035420 0.121049
-0.040125 0.035623 0.121747
-0.042058 0.037879 0.129460
-0.040827 0.037312 0.127520
-0.041311 0.038317 0.130954
-0.041024 0.038626 0.132008
-0.040454 0.038674 0.132169
-0.057556 0.059606 0.203630
-0.056763 0.059779 0.204203
-0.056036 0.060030 0.205038
-0.055435 0.060427 0.206369
-0.054947 0.060964 0.208174
-0.054274 0.061311 0.209332
-0.053503 0.061559 0.210148
-0.052856 0.061961 0.211488
-0.052189 0.062355 0.212800
-0.051364 0.062571 0.213504
-0.050572 0.062837 0.214375
-0.049736 0.063059 0.215094
-0.048905 0.063296 0.215865
-0.048091 0.063567 0.216748
-0.047467 0.064104 0.218540
-0.046725 0.064504 0.219860
-0.045932 0.064849 0.220995
-0.044948 0.064934 0.221242
-0.044040 0.065137 0.221888
-0.043167 0.065402 0.222747
-0.042303 0.065693 0.223695
-0.041257 0.065711 0.223711
-0.041019 0.067050 0.228223
-0.049022 0.082297 0.280063
-0.047741 0.082373 0.280262
-0.046985 0.083384 0.283644
-0.046168 0.084341 0.286843
-0.044864 0.084441 0.287125
-0.043350 0.084141 0.286048
-0.042180 0.084511 0.287247
-0.040336 0.083508 0.283784
-0.039532 0.084665 0.287659
-0.038063 0.084428 0.286798
-0.036717 0.084459 0.286846
-0.035294 0.084308 0.286282
-0.030302 0.075278 0.255571
-0.028976 0.074984 0.254525
-0.027729 0.074876 0.254115
-0.026556 0.074967 0.254380
-0.025326 0.074900 0.254107
-0.024018 0.074583 0.252990
-0.022883 0.074796 0.253672
-0.021667 0.074755 0.253495
-0.020412 0.074571 0.252833
-0.019271 0.074803 0.253583
-0.018058 0.074768 0.253429
-0.017270 0.076613 0.259646
-0.016747 0.080008 0.271117
-0.015629 0.080893 0.274083
-0.014391 0.081258 0.275288
-0.012098 0.075143 0.254543
-0.010911 0.075309 0.255080
-0.009723 0.075506 0.255719
-0.008526 0.075673 0.256263
-0.007317 0.075781 0.256607
-0.006094 0.075753 0.256491
-0.004878 0.075812 0.256672
-0.003668 0.076060 0.257497
-0.002441 0.076004 0.257289
-0.001215 0.075939 0.257056
0.000009 0.075985 0.257202
0.001228 0.075678 0.256153
0.002613 0.080779 0.273410
0.003914 0.080777 0.273395
0.005172 0.080091 0.271070
0.006422 0.079583 0.269345
0.007768 0.080242 0.271575
0.008896 0.078777 0.266619
0.010150 0.078655 0.266207
0.011301 0.077845 0.263469
0.012526 0.077665 0.262864
0.013830 0.077953 0.263847
0.015057 0.077803 0.263349
0.016284 0.077671 0.262913
0.017527 0.077630 0.262785
0.018761 0.077555 0.262545
0.019951 0.077322 0.261772
0.021163 0.077194 0.261353
0.022383 0.077109 0.261083
0.023685 0.077300 0.261750
0.024885 0.077154 0.261274
0.025942 0.076601 0.259424
0.027061 0.076272 0.258332
0.028376 0.076502 0.259134
0.029372 0.075886 0.257072
0.030601 0.075899 0.257140
0.031968 0.076239 0.258321
0.033300 0.076474 0.259143
0.034581 0.076577 0.259521
0.035888 0.076730 0.260067
0.037191 0.076865 0.260554
0.038848 0.077697 0.263405
0.040556 0.078577 0.266421
0.041964 0.078840 0.267345
0.043263 0.078889 0.267543
0.044748 0.079264 0.268847
0.046289 0.079715 0.270408
0.047535 0.079647 0.270212
0.048430 0.079010 0.268080
0.049807 0.079171 0.268660
0.051136 0.079251 0.268963
0.052212 0.078942 0.267948
0.053313 0.078686 0.267110
0.054505 0.078573 0.266755
0.055603 0.078334 0.265972
0.056974 0.078479 0.266494
0.058182 0.078399 0.266251
0.059431 0.078377 0.266204
0.060876 0.078608 0.267014
0.062297 0.078800 0.267692
0.063672 0.078927 0.268144
0.065211 0.079248 0.269256
0.066594 0.079371 0.269696
0.067973 0.079484 0.270100
0.069324 0.079561 0.270376
0.070498 0.079435 0.269964
0.071865 0.079528 0.270291
0.072852 0.079204 0.269200
0.074154 0.079228 0.269291
0.075443 0.079237 0.269328
0.076740 0.079254 0.269387
0.078095 0.079330 0.269644
0.079469 0.079422 0.269954
0.081000 0.079664 0.270772
0.082848 0.080207 0.272606
0.085024 0.081045 0.275443
0.086847 0.081527 0.277063
0.088526 0.081860 0.278176
0.090768 0.082698 0.280996
0.092329 0.082899 0.281649
0.095933 0.084902 0.288419
0.097188 0.084799 0.288029
0.098380 0.084644 0.287461
0.099935 0.084803 0.287950
0.101851 0.085258 0.289441
0.103020 0.085085 0.288791
0.104518 0.085184 0.289061
0.105871 0.085164 0.288921
0.107192 0.085118 0.288688
0.108481 0.085050 0.288370
0.109721 0.084944 0.287920
0.111145 0.084982 0.287951
0.109792 0.082921 0.280865
0.111969 0.083544 0.282864
0.113587 0.083741 0.283410
0.118244 0.086146 0.291420
0.119498 0.086045 0.290939
0.124393 0.085578 0.288724
0.125636 0.085481 0.288214
0.127296 0.085667 0.288646
0.128976 0.085861 0.289098
0.130347 0.085848 0.288839
0.132006 0.086023 0.289200
0.133554 0.086122 0.289296
0.135420 0.086422 0.290054
0.136800 0.086410 0.289748
0.138257 0.086445 0.289590
0.139645 0.086436 0.289272
0.141176 0.086516 0.289236
0.142749 0.086619 0.289262
0.144615 0.086896 0.289854
0.146176 0.086987 0.289804
0.148105 0.087292 0.290455
0.149977 0.087558 0.290955
0.151246 0.087470 0.290262
0.152854 0.087579 0.290202
0.154944 0.087958 0.291018
-0.045768 0.025826 0.084729
-0.045597 0.025961 0.085295
-0.045117 0.025920 0.085278
-0.042737 0.029997 0.100413
-0.042019 0.029824 0.099879
-0.041989 0.030141 0.100985
-0.041139 0.029869 0.100116
-0.040626 0.029840 0.100055
-0.040025 0.029744 0.099769
-0.041624 0.032457 0.108997
-0.042190 0.033310 0.111886
-0.041867 0.033472 0.112457
-0.041190 0.033353 0.112077
-0.040535 0.033247 0.111742
-0.040847 0.033944 0.114100
-0.040918 0.034456 0.115836
-0.040882 0.034890 0.117310
-0.040764 0.035265 0.118581
-0.040538 0.035557 0.119571
-0.042345 0.037664 0.126665
-0.041802 0.037711 0.126831
-0.042009 0.038447 0.129309
-0.041805 0.038822 0.130574
-0.041106 0.038742 0.130304
-0.046429 0.044422 0.149406
-0.057641 0.060658 0.203948
-0.056824 0.060811 0.204445
-0.055933 0.060888 0.204683
-0.055242 0.061190 0.205677
-0.054604 0.061562 0.206904
-0.054184 0.062199 0.209017
-0.053308 0.062325 0.209414
-0.052577 0.062629 0.210406
-0.051869 0.062973 0.211532
-0.051162 0.063332 0.212705
-0.050359 0.063584 0.213516
-0.049612 0.063919 0.214606
-0.048811 0.064196 0.215501
-0.047965 0.064425 0.216231
-0.047175 0.064740 0.217251
-0.046455 0.065168 0.218646
-0.045651 0.065495 0.219704
-0.044863 0.065859 0.220884
-0.043875 0.065942 0.221120
-0.043062 0.066298 0.222270
-0.042168 0.066544 0.223054
-0.041519 0.067199 0.225204
-0.040964 0.068045 0.227994
-0.049484 0.084418 0.282800
-0.047885 0.083958 0.281205
-0.047247 0.085205 0.285325
-0.046155 0.085682 0.286867
-0.044629 0.085359 0.285728
-0.043366 0.085535 0.286262
-0.042186 0.085892 0.287401
-0.040242 0.084663 0.283233
-0.040004 0.087065 0.291215
-0.038654 0.087130 0.291378
-0.036795 0.086010 0.287581
-0.035465 0.086089 0.287792
-0.029953 0.075617 0.252739
-0.028794 0.075721 0.253043
-0.027592 0.075713 0.252973
-0.026440 0.075852 0.253393
-0.025218 0.075791 0.253149
-0.024056 0.075913 0.253516
-0.022932 0.076174 0.254345
-0.021671 0.075986 0.253679
-0.020506 0.076133 0.254133
-0.019322 0.076220 0.254387
-0.018086 0.076105 0.253968
-0.018235 0.082211 0.274310
-0.016938 0.082244 0.274384
-0.015633 0.082233 0.274317
-0.014334 0.082262 0.274379
-0.011945 0.075412 0.251507
-0.010823 0.075923 0.253183
-0.009646 0.076133 0.253859
-0.008435 0.076101 0.253731
-0.007229 0.076101 0.253707
-0.006024 0.076130 0.253788
-0.004811 0.076032 0.253442
-0.003615 0.076239 0.254115
-0.002402 0.076116 0.253692
-0.001193 0.075943 0.253099
0.000012 0.076332 0.254385
0.001237 0.077250 0.257436
0.002598 0.081529 0.271686
0.003913 0.081988 0.273208
0.005178 0.081418 0.271305
0.006416 0.080746 0.269061
0.007717 0.080965 0.269788
0.008923 0.080254 0.267421
0.010174 0.080086 0.266863
0.011364 0.079518 0.264972
0.012521 0.078860 0.262786
0.013812 0.079086 0.263546
0.015020 0.078844 0.262746
0.016235 0.078667 0.262165
0.017489 0.078695 0.262272
0.018720 0.078620 0.262035
0.019949 0.078547 0.261806
0.021051 0.078009 0.260026
0.022346 0.078210 0.260714
0.023680 0.078517 0.261754
0.024793 0.078098 0.260376
0.025895 0.077683 0.259014
0.027000 0.077318 0.257818
0.028261 0.077409 0.258142
0.029362 0.077074 0.257047
0.030433 0.076690 0.255792
0.031685 0.076773 0.256093
0.032991 0.076976 0.256796
0.034095 0.076711 0.255936
0.035232 0.076535 0.255376
0.036359 0.076349 0.254782
0.038548 0.078334 0.261437
0.040623 0.079969 0.266923
0.042071 0.080309 0.268087
0.043243 0.080117 0.267475
0.044514 0.080115 0.267500
0.045904 0.080320 0.268214
0.047138 0.080248 0.268004
0.048361 0.080163 0.267750
0.049736 0.080327 0.268330
0.051064 0.080409 0.268632
0.052139 0.080097 0.267619
0.053239 0.079838 0.266783
0.054429 0.079724 0.266429
0.055527 0.079482 0.265647
0.056896 0.079630 0.266169
0.058359 0.079900 0.267097
0.059749 0.080062 0.267661
0.061170 0.080257 0.268337
0.062540 0.080378 0.268765
0.063800 0.080356 0.268711
0.065257 0.080577 0.269471
0.066566 0.080611 0.269602
0.068034 0.080833 0.270361
0.069313 0.080826 0.270352
0.070767 0.081020 0.271010
0.072259 0.081248 0.271784
0.073309 0.080981 0.270897
0.074562 0.080943 0.270776
0.076186 0.081303 0.271981
0.077422 0.081243 0.271781
0.078710 0.081238 0.271762
0.080187 0.081426 0.272384
0.081810 0.081754 0.273471
0.083636 0.082271 0.275188
0.085326 0.082640 0.276404
0.087709 0.083659 0.279791
0.089347 0.083948 0.280734
0.091039 0.084277 0.281806
0.093483 0.085283 0.285137
0.095441 0.085824 0.286906
0.096691 0.085721 0.286518
0.098994 0.086542 0.289212
0.100301 0.086482 0.288958
0.101713 0.086511 0.288997
0.103065 0.086490 0.288862
0.104443 0.086491 0.288794
0.105835 0.086504 0.288760
0.107203 0.086496 0.288651
0.108595 0.086508 0.288600
0.109874 0.086430 0.288245
0.111284 0.086456 0.288229
0.112615 0.086421 0.288003
0.114003 0.086430 0.287914
0.115509 0.086527 0.288112
0.115821 0.085737 0.285349
0.117896 0.086256 0.286935
0.119133 0.086157 0.286454
0.125541 0.086790 0.287864
0.126025 0.086175 0.285630
0.128012 0.086590 0.286796
0.130501 0.087332 0.289032
0.132146 0.087499 0.289352
0.133615 0.087547 0.289267
0.135251 0.087703 0.289525
0.136662 0.087711 0.289282
0.138003 0.087674 0.288878
0.139643 0.087825 0.289082
0.141088 0.087853 0.288861
0.142559 0.087895 0.288676
0.144238 0.088064 0.288889
0.146456 0.088555 0.290143
0.147970 0.088615 0.289966
0.150837 0.089477 0.292389
0.152020 0.089332 0.291506
0.153219 0.089199 0.290642
0.154767 0.089271 0.290426
-0.045598 0.026139 0.084343
-0.045384 0.026250 0.084826
-0.045007 0.026267 0.085003
-0.042701 0.030448 0.100293
-0.042039 0.030313 0.099895
-0.041714 0.030419 0.100292
-0.041009 0.030249 0.099772
-0.040526 0.030239 0.099780
-0.040088 0.030264 0.099900
-0.040063 0.030605 0.101059
-0.042406 0.032784 0.108289
-0.042422 0.033196 0.109684
-0.041958 0.033237 0.109850
-0.041445 0.033241 0.109890
-0.041152 0.033423 0.110516
-0.040469 0.033289 0.110096
-0.040117 0.033428 0.110575
-0.040316 0.034035 0.112604
-0.041061 0.035126 0.116229
-0.041202 0.035722 0.118215
-0.040958 0.035996 0.119137
-0.040797 0.036353 0.120327
-0.041154 0.037187 0.123097
-0.042322 0.038787 0.128404
-0.042042 0.039089 0.129407
-0.042170 0.039784 0.131712
-0.041602 0.039833 0.131877
-0.057466 0.061436 0.203349
-0.056694 0.061636 0.203995
-0.055859 0.061775 0.204436
-0.055039 0.061934 0.204945
-0.054649 0.062593 0.207103
-0.054045 0.063026 0.208512
-0.053255 0.063254 0.209239
-0.052435 0.063454 0.209874
-0.051610 0.063656 0.210513
-0.050883 0.063989 0.211585
-0.050296 0.064515 0.213292
-0.049500 0.064789 0.214166
-0.048716 0.065091 0.215128
-0.047902 0.065364 0.215995
-0.047024 0.065559 0.216605
-0.046284 0.065962 0.217897
-0.045411 0.066187 0.218605
-0.044588 0.066498 0.219592
-0.043741 0.066788 0.220509
-0.042998 0.067254 0.222007
-0.042301 0.067816 0.223822
-0.041696 0.068560 0.226235
-0.041215 0.069552 0.229467
-0.049407 0.085628 0.282450
-0.048654 0.086664 0.285814
-0.047334 0.086721 0.285948
-0.045991 0.086739 0.285952
-0.044677 0.086814 0.286146
-0.043359 0.086884 0.286323
-0.041992 0.086858 0.286186
-0.040126 0.085765 0.282530
-0.040031 0.088512 0.291526
-0.038679 0.088577 0.291689
-0.036734 0.087238 0.287227
-0.035320 0.087107 0.286745
-0.033985 0.087166 0.286889
-0.032072 0.085687 0.281974
-0.030602 0.085314 0.280698
-0.029054 0.084682 0.278574
-0.027469 0.083876 0.275877
-0.026012 0.083398 0.274265
-0.024670 0.083259 0.273766
-0.023409 0.083396 0.274174
-0.021988 0.082941 0.272639
-0.020657 0.082792 0.272113
-0.019381 0.082861 0.272304
-0.018094 0.082886 0.272349
-0.016827 0.083015 0.272742
-0.015520 0.082955 0.272511
-0.014276 0.083245 0.273436
-0.013055 0.083750 0.275064
-0.010975 0.078233 0.256917
-0.009779 0.078432 0.257548
-0.008557 0.078451 0.257586
-0.002581 0.083177 0.273009
-0.001277 0.082804 0.271771
0.000016 0.083336 0.273504
0.001315 0.083189 0.273012
0.002605 0.082933 0.272162
0.003891 0.082743 0.271531
0.005182 0.082731 0.271487
0.006431 0.082183 0.269684
0.007649 0.081486 0.267398
0.008865 0.080973 0.265714
0.010156 0.081184 0.266407
0.011286 0.080203 0.263191
0.012477 0.079807 0.261895
0.013742 0.079917 0.262262
0.014986 0.079894 0.262194
0.016216 0.079806 0.261913
0.017485 0.079909 0.262264
0.018732 0.079901 0.262248
0.019939 0.079738 0.261727
0.021150 0.079606 0.261307
0.022383 0.079569 0.261200
0.023736 0.079938 0.262429
0.024903 0.079679 0.261596
0.025763 0.078504 0.257756
0.027037 0.078643 0.258232
0.028251 0.078600 0.258115
0.029424 0.078453 0.257654
0.030664 0.078489 0.257792
0.031793 0.078248 0.257025
0.033071 0.078378 0.257476
0.034484 0.078808 0.258912
0.035199 0.077668 0.255195
0.036353 0.077539 0.254795
0.038352 0.079164 0.260160
0.040481 0.080946 0.266044
0.041968 0.081376 0.267488
0.043000 0.080924 0.266027
0.044291 0.080971 0.266210
0.045365 0.080630 0.265118
0.046439 0.080307 0.264083
0.047803 0.080489 0.264710
0.048930 0.080272 0.264023
0.050545 0.080847 0.265942
0.051685 0.080653 0.265330
0.052977 0.080700 0.265513
0.054147 0.080562 0.265084
0.055242 0.080322 0.264319
0.056788 0.080735 0.265700
0.058145 0.080865 0.266153
0.059819 0.081422 0.268007
0.061409 0.081843 0.269414
0.062596 0.081720 0.269029
0.063819 0.081649 0.268814
0.065265 0.081861 0.269528
0.066561 0.081879 0.269602
0.067886 0.081932 0.269787
0.069222 0.081996 0.270010
0.070602 0.082108 0.270387
0.072087 0.082337 0.271147
0.073470 0.082443 0.271500
0.074981 0.082685 0.272301
0.076284 0.082694 0.272330
0.077493 0.082603 0.272026
0.078907 0.082730 0.272439
0.080600 0.083140 0.273780
0.082013 0.083252 0.274135
0.083547 0.083484 0.274880
0.085353 0.083974 0.276474
0.087333 0.084618 0.278570
0.089191 0.085127 0.280216
0.091519 0.086061 0.283261
0.093283 0.086447 0.284493
0.096138 0.087819 0.288963
0.097399 0.087714 0.288573
0.098770 0.087712 0.288512
0.100025 0.087607 0.288110
0.101732 0.087896 0.288996
0.102948 0.087759 0.288476
0.104240 0.087689 0.288170
0.105614 0.087688 0.288088
0.106976 0.087678 0.287967
0.108364 0.087690 0.287912
0.109694 0.087654 0.287694
0.110984 0.087588 0.287368
0.112419 0.087636 0.287411
0.113819 0.087656 0.287355
0.115292 0.087731 0.287470
0.116398 0.087528 0.286668
0.117564 0.087374 0.286017
0.116503 0.085588 0.280020
0.118620 0.086150 0.281698
0.120413 0.086467 0.282564
0.127919 0.087896 0.286440
0.129021 0.087708 0.285601
0.132546 0.089153 0.290067
0.133876 0.089106 0.289665
0.135045 0.088955 0.288910
0.136605 0.089062 0.288981
0.138249 0.089220 0.289206
0.139614 0.089197 0.288827
0.140985 0.089178 0.288450
0.142732 0.089395 0.288817
0.145113 0.090000 0.290424
0.146400 0.089922 0.289807
0.148075 0.090082 0.289938
0.149979 0.090376 0.290483
0.151505 0.090438 0.290266
0.153089 0.090535 0.290136
0.154530 0.090545 0.289712
-0.045490 0.026485 0.084071
-0.045289 0.026605 0.084577
-0.045155 0.026766 0.085213
-0.042560 0.031168 0.101097
-0.042268 0.031305 0.101590
-0.042108 0.031545 0.102413
-0.041933 0.031779 0.103216
-0.040505 0.031057 0.100911
-0.042822 0.033224 0.107991
-0.042365 0.033265 0.108159
-0.042132 0.033485 0.108907
-0.041698 0.033549 0.109147
-0.041188 0.033551 0.109185
-0.040753 0.033617 0.109425
-0.040443 0.033789 0.110008
-0.040772 0.034505 0.112363
-0.041481 0.035566 0.115840
-0.041305 0.035888 0.116905
-0.040959 0.036067 0.117506
-0.040994 0.036592 0.119232
-0.041052 0.037152 0.121068
-0.042126 0.038661 0.125996
-0.042115 0.039202 0.127770
-0.041993 0.039654 0.129251
-0.057607 0.062550 0.203861
-0.056776 0.062691 0.204308
-0.055937 0.062829 0.204741
-0.055099 0.062974 0.205194
-0.054311 0.063180 0.205845
-0.053712 0.063618 0.207252
-0.053005 0.063943 0.208287
-0.052284 0.064262 0.209303
-0.051513 0.064531 0.210153
-0.050736 0.064804 0.211012
-0.050134 0.065314 0.212645
-0.049442 0.065727 0.213958
-0.048672 0.066051 0.214979
-0.047824 0.066279 0.215689
-0.046950 0.066482 0.216317
-0.046099 0.066727 0.217079
-0.045247 0.066981 0.217869
-0.044386 0.067234 0.218653
-0.043498 0.067457 0.219341
-0.042794 0.067984 0.221016
-0.042095 0.068544 0.222799
-0.041849 0.069891 0.227135
-0.050577 0.086688 0.281673
-0.049291 0.086766 0.281876
-0.048595 0.087918 0.285565
-0.047250 0.087927 0.285542
-0.045883 0.087893 0.285382
-0.044619 0.088060 0.285872
-0.043312 0.088152 0.286120
-0.041793 0.087803 0.284936
-0.040179 0.087227 0.283015
-0.040121 0.090105 0.292302
-0.038766 0.090171 0.292464
-0.036449 0.087920 0.285115
-0.034885 0.087385 0.283330
-0.033517 0.087316 0.283062
-0.032017 0.086884 0.281614
-0.030548 0.086505 0.280339
-0.029003 0.085864 0.278217
-0.027421 0.085046 0.275524
-0.025966 0.084561 0.273913
-0.024626 0.084420 0.273414
-0.023367 0.084558 0.273821
-0.021948 0.084096 0.272288
-0.020619 0.083945 0.271763
-0.019346 0.084014 0.271953
-0.018060 0.084036 0.271989
-0.016796 0.084174 0.272404
-0.015445 0.083857 0.271347
-0.014268 0.084517 0.273453
-0.013030 0.084914 0.274708
-0.011729 0.084938 0.274759
-0.010314 0.084047 0.271850
-0.003869 0.084323 0.272642
-0.002573 0.084332 0.272654
-0.001277 0.084353 0.272710
0.000020 0.084493 0.273149
0.001316 0.084344 0.272658
0.002609 0.084231 0.272284
0.003886 0.083855 0.271060
0.005179 0.083902 0.271208
0.006412 0.083171 0.268839
0.007635 0.082568 0.266889
0.008802 0.081620 0.263823
0.010032 0.081412 0.263151
0.011238 0.081084 0.262096
0.012400 0.080529 0.260305
0.013635 0.080512 0.260256
0.014902 0.080668 0.260767
0.016160 0.080753 0.261047
0.017369 0.080601 0.260567
0.018634 0.080712 0.260935
0.019918 0.080884 0.261503
0.021139 0.080797 0.261235
0.022576 0.081495 0.263507
0.023860 0.081599 0.263860
0.025104 0.081562 0.263757
0.025506 0.078924 0.255244
0.026802 0.079164 0.256039
0.028184 0.079629 0.257562
0.029247 0.079189 0.256159
0.030471 0.079204 0.256229
0.031718 0.079274 0.256476
0.033028 0.079489 0.257196
0.034277 0.079549 0.257412
0.035435 0.079402 0.256959
0.036613 0.079307 0.256675
0.038087 0.079836 0.258414
0.040445 0.082130 0.265865
0.041679 0.082069 0.265694
0.042791 0.081780 0.264783
0.043906 0.081513 0.263945
0.045059 0.081330 0.263379
0.046281 0.081277 0.263231
0.047446 0.081128 0.262776
0.048743 0.081208 0.263057
0.050050 0.081299 0.263379
0.051213 0.081159 0.262949
0.052322 0.080941 0.262267
0.053770 0.081245 0.263274
0.054746 0.080839 0.261981
0.056159 0.081082 0.262788
0.057721 0.081523 0.264240
0.059661 0.082469 0.267325
0.061282 0.082944 0.268882
0.062648 0.083060 0.269276
0.064039 0.083205 0.269761
0.065322 0.083207 0.269781
0.066728 0.083361 0.270293
0.068079 0.083443 0.270569
0.069220 0.083268 0.270010
0.070515 0.083282 0.270060
0.071799 0.083283 0.270068
0.073216 0.083436 0.270564
0.074246 0.083149 0.269631
0.075222 0.082812 0.268534
0.076546 0.082863 0.268695
0.077636 0.082664 0.268040
0.079229 0.082998 0.269109
0.081130 0.083639 0.271170
0.082330 0.083547 0.270853
0.084408 0.084337 0.273389
0.086704 0.085316 0.276537
0.088541 0.085822 0.278144
0.090413 0.086345 0.279803
0.092714 0.087258 0.282719
0.095037 0.088164 0.285609
0.096284 0.088061 0.285223
0.098785 0.089091 0.288504
0.100063 0.089005 0.288164
0.101764 0.089293 0.289028
0.103041 0.089206 0.288673
0.104256 0.089068 0.288148
0.105767 0.089183 0.288433
0.107153 0.089191 0.288367
0.108587 0.089239 0.288423
0.110165 0.089401 0.288843
0.111626 0.089466 0.288939
0.112892 0.089375 0.288525
0.114116 0.089253 0.288005
0.115345 0.089138 0.287497
0.116616 0.089058 0.287094
0.117870 0.088966 0.286649
0.119087 0.088849 0.286111
0.120124 0.088602 0.285146
0.120317 0.087744 0.282210
0.123532 0.089086 0.286336
0.130676 0.090217 0.289104
0.131934 0.090124 0.288561
0.133588 0.090300 0.288868
0.135323 0.090527 0.289325
0.136758 0.090550 0.289115
0.138114 0.090521 0.288728
0.139863 0.090748 0.289140
0.141243 0.090733 0.288766
0.142949 0.090925 0.289040
0.144481 0.091004 0.288934
0.146265 0.091239 0.289306
0.147922 0.091390 0.289395
0.149933 0.091755 0.290143
0.151428 0.091801 0.289859
0.153425 0.092146 0.290502
0.155207 0.092358 0.290702
-0.045109 0.026668 0.083290
-0.044956 0.026816 0.083881
-0.044811 0.026971 0.084492
-0.042313 0.031464 0.100473
-0.041761 0.031406 0.100337
-0.041924 0.031891 0.101931
-0.041895 0.032239 0.103089
-0.040468 0.031506 0.100787
-0.040108 0.031598 0.101117
-0.042494 0.033880 0.108458
-0.042033 0.033921 0.108625
-0.041578 0.033967 0.108806
-0.041246 0.034116 0.109316
-0.040844 0.034211 0.109648
-0.040293 0.034182 0.109580
-0.040083 0.034445 0.110446
-0.041154 0.035830 0.114909
-0.041099 0.036259 0.116305
-0.040670 0.036364 0.116661
-0.040418 0.036634 0.117543
-0.041061 0.037733 0.121083
-0.040357 0.037608 0.120694
-0.042067 0.039760 0.127614
-0.057513 0.063411 0.203540
-0.056875 0.063769 0.204680
-0.055057 0.063896 0.205057
-0.054322 0.064167 0.205911
-0.053626 0.064496 0.206947
-0.052813 0.064693 0.207559
-0.052129 0.065059 0.208711
-0.051392 0.065373 0.209692
-0.050640 0.065679 0.210648
-0.050036 0.066192 0.212268
-0.049351 0.066618 0.213604
-0.048512 0.066849 0.214315
-0.047684 0.067105 0.215104
-0.046793 0.067282 0.215641
-0.045929 0.067506 0.216325
-0.045124 0.067830 0.217329
-0.044275 0.068101 0.218164
-0.043501 0.068504 0.219417
-0.042715 0.068906 0.220669
-0.042065 0.069553 0.222702
-0.041628 0.070594 0.225998
-0.050477 0.087854 0.281206
-0.049827 0.089065 0.285033
-0.048531 0.089158 0.285283
-0.047215 0.089217 0.285422
-0.045901 0.089285 0.285590
-0.044608 0.089400 0.285906
-0.043263 0.089414 0.285901
-0.041856 0.089296 0.285476
-0.039956 0.088084 0.281554
-0.040054 0.091345 0.291926
-0.036282 0.088872 0.283927
-0.034905 0.088789 0.283615
-0.033427 0.088431 0.282426
-0.031797 0.087625 0.279808
-0.030269 0.087042 0.277903
-0.028783 0.086531 0.276229
-0.027159 0.085538 0.273018
-0.025541 0.084468 0.269561
-0.024198 0.084239 0.268793
-0.022914 0.084203 0.268640
-0.021737 0.084579 0.269805
-0.020381 0.084265 0.268768
-0.019182 0.084598 0.269796
-0.018024 0.085178 0.271612
-0.016787 0.085437 0.272408
-0.015407 0.084960 0.270856
-0.014188 0.085359 0.272100
-0.012964 0.085803 0.273487
-0.011558 0.085017 0.270956
-0.010293 0.085193 0.271493
-0.008999 0.085146 0.271320
-0.007728 0.085341 0.271918
-0.006447 0.085488 0.272366
-0.005144 0.085341 0.271881
-0.003850 0.085292 0.271707
-0.002558 0.085262 0.271597
-0.001265 0.085054 0.270919
0.000023 0.085212 0.271410
0.001314 0.085311 0.271717
0.002588 0.084713 0.269801
0.003872 0.084740 0.269881
0.005160 0.084829 0.270160
0.006362 0.083744 0.266699
0.007565 0.083035 0.264439
0.008779 0.082624 0.263127
0.010018 0.082523 0.262809
0.011193 0.081973 0.261057
0.012400 0.081747 0.260341
0.013615 0.081611 0.259914
0.014865 0.081684 0.260150
0.016104 0.081694 0.260191
0.017359 0.081778 0.260466
0.018610 0.081833 0.260652
0.019953 0.082259 0.262019
0.021162 0.082112 0.261563
0.022652 0.083015 0.264454
0.023940 0.083121 0.264806
0.025188 0.083083 0.264702
0.025447 0.079940 0.254705
0.026661 0.079949 0.254750
0.027901 0.080031 0.255030
0.029052 0.079860 0.254502
0.030226 0.079764 0.254218
0.031470 0.079854 0.254522
0.032698 0.079899 0.254687
0.033910 0.079900 0.254711
0.035137 0.079936 0.254848
0.036313 0.079858 0.254624
0.037583 0.079984 0.255048
0.039661 0.081768 0.260758
0.040870 0.081708 0.260590
0.042070 0.081632 0.260371
0.043385 0.081777 0.260859
0.044481 0.081514 0.260041
0.045836 0.081726 0.260741
0.046937 0.081486 0.259999
0.047959 0.081124 0.258866
0.049297 0.081302 0.259457
0.050755 0.081664 0.260635
0.051835 0.081415 0.259860
0.053323 0.081803 0.261117
0.054483 0.081681 0.260749
0.055834 0.081846 0.261294
0.057260 0.082110 0.262154
0.059293 0.083215 0.265700
0.061317 0.084261 0.269055
0.062605 0.084275 0.269112
0.064075 0.084527 0.269931
0.065520 0.084737 0.270613
0.066899 0.084855 0.270998
0.068430 0.085158 0.271973
0.069579 0.084982 0.271417
0.070907 0.085029 0.271569
0.072435 0.085308 0.272462
0.073293 0.084803 0.270846
0.074365 0.084558 0.270059
0.075562 0.084461 0.269743
0.076500 0.084082 0.268522
0.077879 0.084194 0.268865
0.079202 0.084241 0.269000
0.080626 0.084393 0.269464
0.082278 0.084774 0.270659
0.083931 0.085146 0.271818
0.085819 0.085739 0.273682
0.087782 0.086390 0.275724
0.088909 0.086210 0.275110
0.091027 0.086983 0.277532
0.096906 0.091276 0.291178
0.098179 0.091170 0.290785
0.097896 0.089643 0.285853
0.100339 0.090619 0.288899
0.101596 0.090512 0.288487
0.103039 0.090572 0.288598
0.104326 0.090494 0.288268
0.105607 0.090413 0.287920
0.106986 0.090418 0.287837
0.108260 0.090334 0.287467
0.109702 0.090391 0.287538
0.111017 0.090342 0.287266
0.112576 0.090491 0.287616
0.113985 0.090518 0.287568
0.115447 0.090585 0.287641
0.116855 0.090608 0.287566
0.118408 0.090742 0.287834
0.119491 0.090518 0.286955
0.121030 0.090639 0.287165
0.122588 0.090771 0.287399
0.123436 0.090382 0.285971
0.124937 0.090472 0.286054
0.131843 0.091443 0.288187
0.132345 0.090832 0.286001
0.135077 0.091748 0.288609
0.136794 0.091963 0.288996
0.138171 0.091948 0.288645
0.139551 0.091934 0.288285
0.141291 0.092156 0.288648
0.142806 0.092227 0.288525
0.144276 0.092269 0.288290
0.146470 0.092768 0.289468
0.148330 0.093048 0.289942
0.150185 0.093320 0.290370
0.151999 0.093560 0.290681
0.153587 0.093658 0.290529
0.155004 0.093652 0.290032
-0.045121 0.027080 0.083235
-0.045023 0.027263 0.083930
-0.044792 0.027369 0.084382
-0.042145 0.031815 0.100036
-0.041735 0.031863 0.100238
-0.042107 0.032516 0.102342
-0.041856 0.032698 0.102960
-0.040489 0.032002 0.100810
-0.039876 0.031891 0.100502
-0.042072 0.034053 0.107353
-0.041646 0.034118 0.107596
-0.041084 0.034073 0.107488
-0.040928 0.034368 0.108450
-0.040533 0.034466 0.108788
-0.040187 0.034609 0.109268
-0.042441 0.037025 0.116923
-0.041942 0.037070 0.117089
-0.041389 0.037069 0.117109
-0.041183 0.037382 0.118118
-0.041023 0.037746 0.119286
-0.040583 0.037859 0.119661
-0.040240 0.038067 0.120332
-0.058134 0.064003 0.202386
-0.057394 0.064241 0.203132
-0.056469 0.064276 0.203233
-0.055786 0.064592 0.204221
-0.055014 0.064815 0.204912
-0.054160 0.064947 0.205316
-0.053448 0.065259 0.206284
-0.052693 0.065527 0.207115
-0.052023 0.065914 0.208318
-0.051219 0.066143 0.209018
-0.050474 0.066457 0.209987
-0.049742 0.066803 0.211057
-0.049191 0.067411 0.212950
-0.048392 0.067697 0.213825
-0.047556 0.067942 0.214572
-0.046653 0.068100 0.215039
-0.045807 0.068350 0.215798
-0.044992 0.068660 0.216745
-0.044247 0.069093 0.218078
-0.043405 0.069391 0.218986
-0.042753 0.070016 0.220923
-0.042198 0.070834 0.223469
-0.041562 0.071555 0.225707
-0.051130 0.090344 0.284927
-0.049829 0.090424 0.285132
-0.048571 0.090589 0.285606
-0.047231 0.090607 0.285614
-0.045941 0.090724 0.285935
-0.044668 0.090882 0.286386
-0.043314 0.090881 0.286338
-0.041968 0.090897 0.286340
-0.039781 0.089033 0.280421
-0.039876 0.092325 0.290741
-0.038529 0.092391 0.290902
-0.036073 0.089707 0.282405
-0.034272 0.088507 0.278584
-0.033011 0.088662 0.279029
-0.031198 0.087284 0.274650
-0.029740 0.086825 0.273165
-0.028358 0.086555 0.272275
-0.026808 0.085722 0.269615
-0.025302 0.084955 0.267164
-0.024000 0.084827 0.266726
-0.022787 0.085019 0.267293
-0.021480 0.084861 0.266761
-0.020185 0.084733 0.266326
-0.018925 0.084744 0.266328
-0.017612 0.084507 0.265550
-0.016382 0.084658 0.265997
-0.015081 0.084441 0.265283
-0.013802 0.084317 0.264868
-0.012546 0.084317 0.264843
-0.011252 0.084043 0.263956
-0.009954 0.083661 0.262732
-0.008707 0.083662 0.262714
-0.007487 0.083976 0.263680
-0.006240 0.084036 0.263849
-0.004998 0.084228 0.264434
-0.003757 0.084563 0.265470
-0.002510 0.085035 0.266937
-0.001250 0.085562 0.268578
0.000026 0.085610 0.268717
0.001308 0.085916 0.269667
0.002577 0.085525 0.268430
0.003870 0.085902 0.269605
0.005165 0.086141 0.270350
0.006358 0.084906 0.266469
0.007514 0.083681 0.262623
0.008720 0.083275 0.261348
0.010012 0.083688 0.262643
0.011182 0.083109 0.260826
0.012382 0.082838 0.259979
0.013623 0.082871 0.260088
0.014864 0.082896 0.260169
0.016074 0.082757 0.259740
0.017346 0.082937 0.260314
0.018637 0.083173 0.261065
0.019939 0.083431 0.261883
0.021345 0.084063 0.263877
0.022755 0.084642 0.265708
0.024096 0.084915 0.266579
0.025352 0.084877 0.266474
0.025400 0.080990 0.254288
0.026628 0.081047 0.254483
0.027885 0.081186 0.254933
0.029004 0.080927 0.254140
0.030225 0.080962 0.254266
0.031471 0.081058 0.254586
0.032619 0.080903 0.254118
0.033860 0.080983 0.254389
0.035057 0.080952 0.254314
0.036100 0.080583 0.253173
0.037618 0.081263 0.255330
0.039722 0.083125 0.261204
0.040933 0.083065 0.261036
0.041941 0.082606 0.259615
0.043243 0.082736 0.260047
0.044264 0.082338 0.258815
0.045352 0.082081 0.258030
0.046356 0.081689 0.256819
0.047380 0.081353 0.255780
0.048667 0.081473 0.256176
0.050015 0.081686 0.256867
0.051430 0.081996 0.257860
0.052944 0.082446 0.259293
0.054102 0.082333 0.258956
0.055536 0.082636 0.259923
0.057202 0.083264 0.261914
0.058877 0.083877 0.263857
0.060886 0.084930 0.267183
0.062614 0.085558 0.269169
0.064094 0.085827 0.270025
0.065313 0.085743 0.269768
0.066744 0.085935 0.270379
0.068057 0.085971 0.270497
0.069218 0.085817 0.270015
0.070383 0.085673 0.269560
0.071469 0.085441 0.268826
0.072457 0.085100 0.267750
0.073699 0.085065 0.267631
0.074871 0.084951 0.267262
0.076415 0.085256 0.268209
0.077429 0.084970 0.267294
0.078568 0.084827 0.266824
0.080430 0.085458 0.268785
0.081732 0.085482 0.268835
0.082983 0.085454 0.268716
0.085039 0.086242 0.271159
0.086646 0.086559 0.272116
0.087384 0.086011 0.270351
0.090057 0.087355 0.274530
0.098074 0.092447 0.290417
0.098569 0.091622 0.287758
0.100100 0.091768 0.288146
0.101417 0.091717 0.287908
0.103118 0.092010 0.288747
0.104243 0.091788 0.287961
0.105533 0.091714 0.287636
0.107008 0.091801 0.287808
0.108334 0.091760 0.287571
0.109604 0.091673 0.287184
0.111162 0.091826 0.287541
0.112563 0.091847 0.287477
0.113816 0.091749 0.287031
0.115560 0.092042 0.287804
0.116913 0.092023 0.287589
0.118167 0.091926 0.287123
0.119744 0.092079 0.287431
0.120978 0.091968 0.286902
0.122413 0.092011 0.286847
0.123760 0.091987 0.286571
0.124842 0.091769 0.285682
0.126726 0.092139 0.286612
0.135375 0.093339 0.289049
0.136645 0.093251 0.288479
0.138276 0.093407 0.288654
0.140035 0.093647 0.289068
0.141242 0.093515 0.288322
0.142671 0.093532 0.288019
0.144737 0.093962 0.288970
0.146556 0.094224 0.289386
0.147841 0.094142 0.288728
0.150123 0.094690 0.289979
0.151814 0.094858 0.290048
0.153455 0.094992 0.289991
0.154982 0.095053 0.289691
-0.045043 0.027436 0.083009
-0.044881 0.027584 0.083587
-0.044953 0.027878 0.084609
-0.042059 0.032225 0.099792
-0.041866 0.032441 0.100515
-0.041746 0.032719 0.101426
-0.041239 0.032697 0.101405
-0.040506 0.032494 0.100819
-0.041949 0.034051 0.105695
-0.041119 0.033779 0.104891
-0.041197 0.034255 0.106408
-0.040913 0.034438 0.107012
-0.040742 0.034722 0.107928
-0.040572 0.035015 0.108869
-0.039882 0.034860 0.108417
-0.039772 0.035215 0.109547
-0.040724 0.036531 0.113668
-0.041350 0.037588 0.116978
-0.040241 0.037073 0.115397
-0.040977 0.038267 0.119136
-0.057197 0.064978 0.202441
-0.055968 0.065772 0.204901
-0.055010 0.065780 0.204913
-0.054220 0.065993 0.205564
