ply
format ascii 1.0
element vertex 1745
property float x
property float y
property float z
end_header
0.017509 0.066774 0.229671
0.018649 0.066940 0.230256
0.019749 0.066946 0.230297
0.020899 0.067117 0.230903
0.022034 0.067224 0.231287
0.023219 0.067466 0.232140
0.024495 0.067937 0.233781
0.025777 0.068382 0.235337
0.026903 0.068396 0.235409
0.028100 0.068579 0.236064
0.029279 0.068708 0.236531
0.030439 0.068783 0.236816
0.031652 0.068968 0.237480
0.032839 0.069085 0.237913
0.034030 0.069204 0.238350
0.035216 0.069305 0.238726
0.036402 0.069398 0.239076
0.037676 0.069649 0.239971
0.039146 0.070236 0.242026
0.040360 0.070346 0.242434
0.041543 0.070394 0.242632
0.042786 0.070539 0.243162
0.044225 0.070992 0.244754
0.045272 0.070808 0.244153
0.046811 0.071383 0.246166
0.048110 0.071573 0.246852
0.049264 0.071543 0.246780
0.050500 0.071632 0.247117
0.051761 0.071750 0.247552
0.052848 0.071628 0.247161
0.054345 0.072053 0.248658
0.055993 0.072657 0.250770
0.057319 0.072827 0.251383
0.058518 0.072831 0.251423
0.059842 0.072988 0.251988
0.061320 0.073323 0.253168
0.062619 0.073434 0.253571
0.063961 0.073591 0.254136
0.065413 0.073866 0.255104
0.066732 0.073984 0.255527
0.068170 0.074227 0.256381
0.069638 0.074494 0.257316
0.070859 0.074491 0.257317
0.072119 0.074528 0.257454
0.073372 0.074558 0.257562
0.074537 0.074498 0.257358
0.075772 0.074509 0.257396
0.077027 0.074540 0.257499
0.078259 0.074547 0.257517
0.079697 0.074746 0.258197
0.081200 0.075000 0.259061
0.081073 0.073764 0.254774
0.081060 0.072665 0.250962
0.081601 0.072088 0.248945
0.082545 0.071879 0.248194
0.083742 0.071892 0.248212
0.084602 0.071620 0.247237
0.085097 0.071050 0.245231
0.086092 0.070908 0.244695
0.086673 0.070432 0.243007
0.086986 0.069755 0.240619
0.087597 0.069331 0.239100
0.088300 0.068989 0.237860
0.089186 0.068798 0.237133
0.090190 0.068701 0.236727
0.089800 0.067558 0.232712
0.091711 0.068152 0.234676
0.092447 0.067869 0.233615
0.093179 0.067590 0.232562
0.094350 0.067632 0.232606
0.095099 0.067375 0.231616
0.095843 0.067120 0.230625
0.096860 0.067059 0.230297
0.097576 0.066793 0.229260
0.098256 0.066510 0.228153
0.098988 0.066267 0.227181
0.099514 0.065893 0.225751
0.100135 0.065589 0.224558
0.101049 0.065481 0.224026
0.101691 0.065202 0.222900
0.102403 0.064973 0.221938
0.102311 0.064243 0.219260
0.102192 0.063511 0.216571
0.102511 0.063064 0.214846
0.103248 0.062880 0.214010
0.103743 0.062554 0.212682
0.104078 0.062138 0.211042
0.104673 0.061885 0.209944
0.105465 0.061751 0.209243
0.106160 0.061564 0.208351
0.106789 0.061342 0.207332
0.107469 0.061153 0.206415
0.108195 0.060994 0.205584
0.109032 0.060899 0.204962
-1.023809 0.568530 1.896897
-1.027800 0.575875 1.924114
-1.046904 0.591898 1.980318
-1.030218 0.587795 1.969126
-1.026134 0.590872 1.981875
-1.021890 0.593915 1.994425
-0.924897 0.542603 1.824161
-0.900816 0.533498 1.795473
-0.890056 0.532183 1.792879
-0.886704 0.535316 1.805189
-0.872577 0.531941 1.795473
-1.556070 0.957985 3.236368
-1.542369 0.959028 3.242612
-1.506168 0.945960 3.200981
-1.478447 0.938006 3.176474
-1.453598 0.931731 3.157493
-1.429454 0.925782 3.139469
-1.419585 0.929051 3.152589
-0.962934 0.643724 2.186965
-0.953736 0.644493 2.190765
-0.940741 0.642686 2.185738
-0.935623 0.646280 2.199016
-0.925984 0.646797 2.201765
-0.701313 0.512881 1.748552
-0.708311 0.524157 1.787553
-0.687868 0.515153 1.757355
-0.677418 0.513505 1.752197
-0.673728 0.517004 1.764562
-0.313164 0.290463 0.992711
-0.307678 0.289695 0.990063
-0.303094 0.289764 0.990263
-0.299123 0.290431 0.992496
-0.294210 0.290191 0.991616
-0.289444 0.290090 0.991203
-0.285148 0.290464 0.992399
-0.280292 0.290272 0.991654
-0.275387 0.290022 0.990696
-0.270670 0.289964 0.990390
-0.264918 0.288777 0.986216
-0.258570 0.286886 0.979634
-0.252404 0.285132 0.973513
-0.245766 0.282770 0.965310
-0.238348 0.279405 0.953679
-0.231250 0.276294 0.942913
-0.223768 0.272591 0.930128
-0.214736 0.266816 0.910269
-0.210679 0.267114 0.911129
-0.153485 0.198651 0.677479
-0.148329 0.196059 0.668517
-0.142431 0.192353 0.655759
-0.140457 0.193899 0.660904
-0.134868 0.190413 0.648897
-0.129852 0.187591 0.639157
-0.125689 0.185898 0.633263
-0.121840 0.184598 0.628708
-0.118411 0.183885 0.626155
-0.115450 0.183882 0.626015
-0.112256 0.183497 0.624578
-0.109545 0.183903 0.625833
-0.106684 0.184071 0.626278
-0.116125 0.206083 0.701027
-0.113797 0.207888 0.707025
-0.110731 0.208415 0.708674
-0.106588 0.206883 0.703322
-0.086024 0.190815 0.648186
-0.081435 0.187323 0.636202
-0.078277 0.186982 0.634925
-0.075539 0.187657 0.637100
-0.071995 0.186306 0.632399
-0.067638 0.182639 0.619840
-0.023915 0.074261 0.251898
-0.022453 0.073392 0.248910
-0.021285 0.073439 0.249032
-0.019917 0.072762 0.246700
-0.018726 0.072688 0.246413
-0.017490 0.072414 0.245450
-0.016208 0.071900 0.243676
-0.014758 0.070506 0.238919
-0.013484 0.069790 0.236463
-0.012290 0.069397 0.235105
-0.011076 0.068797 0.233046
-0.009851 0.067990 0.230287
-0.008563 0.066498 0.225213
-0.007503 0.066597 0.225525
-0.006433 0.066620 0.225584
-0.005353 0.066545 0.225315
-0.004283 0.066564 0.225362
-0.003192 0.066190 0.224083
-0.002106 0.065583 0.222012
-0.001035 0.064674 0.218925
0.000007 0.063907 0.216320
0.001034 0.063701 0.215613
0.002054 0.063504 0.214939
0.003092 0.063801 0.215938
0.004127 0.063906 0.216291
0.005288 0.065535 0.221802
0.006346 0.065549 0.221846
0.007422 0.065723 0.222436
0.008486 0.065759 0.222562
0.009581 0.066003 0.223389
0.010704 0.066365 0.224618
0.011834 0.066706 0.225780
0.012938 0.066854 0.226288
0.014049 0.067012 0.226832
0.015152 0.067110 0.227175
0.016352 0.067598 0.228839
0.017463 0.067678 0.229123
0.018546 0.067647 0.229030
0.019697 0.067856 0.229755
0.020877 0.068136 0.230719
0.022069 0.068423 0.231709
0.023210 0.068534 0.232105
0.024421 0.068831 0.233131
0.025658 0.069173 0.234310
0.026955 0.069641 0.235916
0.028071 0.069623 0.235881
0.029202 0.069641 0.235964
0.030397 0.069806 0.236547
0.031589 0.069952 0.237069
0.032777 0.070078 0.237523
0.033909 0.070082 0.237561
0.035062 0.070126 0.237740
0.036460 0.070642 0.239517
0.037738 0.070901 0.240423
0.039133 0.071359 0.242005
0.040329 0.071438 0.242300
0.041652 0.071729 0.243318
0.042874 0.071838 0.243717
0.044058 0.071878 0.243882
0.045273 0.071965 0.244206
0.046555 0.072150 0.244866
0.048218 0.072904 0.247454
0.049334 0.072814 0.247177
0.050503 0.072805 0.247172
0.051779 0.072946 0.247678
0.052917 0.072891 0.247520
0.054684 0.073685 0.250243
0.055873 0.073685 0.250266
0.057135 0.073777 0.250605
0.058445 0.073927 0.251138
0.059826 0.074159 0.251948
0.061284 0.074475 0.253041
0.062582 0.074589 0.253448
0.063789 0.074591 0.253472
0.065131 0.074749 0.254024
0.066439 0.074862 0.254423
0.067948 0.075193 0.255561
0.069470 0.075527 0.256704
0.070785 0.075628 0.257054
0.071989 0.075609 0.256997
0.073288 0.075689 0.257270
0.074491 0.075669 0.257201
0.075672 0.075626 0.257053
0.076896 0.075628 0.257053
0.078105 0.075615 0.257000
0.079351 0.075638 0.257066
0.080600 0.075663 0.257134
0.081669 0.075520 0.256630
0.080778 0.073596 0.250068
0.081380 0.073068 0.248248
0.082504 0.073017 0.248047
0.083292 0.072674 0.246847
0.084240 0.072479 0.246146
0.085120 0.072231 0.245261
0.085881 0.071890 0.244057
0.086747 0.071645 0.243174
0.087285 0.071139 0.241402
0.087581 0.070451 0.239007
0.087952 0.069841 0.236873
0.089005 0.069780 0.236596
0.089856 0.069565 0.235791
0.090648 0.069310 0.234846
0.091452 0.069070 0.233949
0.092385 0.068932 0.233391
0.093360 0.068828 0.232941
0.094223 0.068646 0.232219
0.094977 0.068388 0.231238
0.095818 0.068199 0.230481
0.096620 0.067986 0.229640
0.097412 0.067771 0.228784
0.098189 0.067551 0.227903
0.098980 0.067345 0.227064
0.099621 0.067042 0.225892
0.100207 0.066709 0.224613
0.101105 0.066589 0.224040
0.101875 0.066388 0.223189
0.102357 0.066005 0.221720
0.102839 0.065630 0.220271
0.102862 0.064973 0.217866
0.103215 0.064535 0.216191
0.103807 0.064254 0.215034
0.104189 0.063850 0.213459
0.104541 0.063435 0.211839
0.104862 0.063010 0.210177
0.105528 0.062798 0.209218
0.106247 0.062622 0.208367
0.106798 0.062350 0.207189
0.107371 0.062096 0.206060
0.108166 0.061974 0.205359
0.108859 0.061797 0.204461
-1.025369 0.578590 1.898240
-1.024101 0.583067 1.915682
-1.042516 0.598933 1.970522
-1.030446 0.597417 1.968120
-1.025352 0.599955 1.978968
-1.017341 0.600818 1.984196
-0.912190 0.543789 1.797921
-0.896605 0.539577 1.785951
-0.887641 0.539309 1.786928
-0.883965 0.542278 1.798559
-0.871205 0.539679 1.791641
-1.477381 0.952463 3.172665
-1.434417 0.934281 3.114398
-1.428377 0.940020 3.135726
-0.961544 0.653172 2.182971
-0.948847 0.651542 2.178743
-0.940910 0.653180 2.185374
-0.933810 0.655442 2.194032
-0.922954 0.655089 2.193874
-0.714861 0.531231 1.781892
-0.707341 0.531891 1.784694
-0.683139 0.519872 1.744898
-0.677179 0.521612 1.751228
-0.320721 0.297837 1.001740
-0.313068 0.295064 0.992416
-0.307573 0.294273 0.989745
-0.303192 0.294540 0.990618
-0.299063 0.295064 0.992346
-0.294156 0.294825 0.991493
-0.289371 0.294702 0.991021
-0.284901 0.294902 0.991624
-0.280076 0.294734 0.990981
-0.275183 0.294490 0.990069
-0.270280 0.294225 0.989080
-0.264886 0.293407 0.986223
-0.259256 0.292295 0.982372
-0.252603 0.289967 0.974426
-0.245309 0.286806 0.963675
-0.237622 0.283055 0.950940
-0.229453 0.278576 0.935756
-0.222795 0.275794 0.926267
-0.218674 0.276102 0.927157
-0.152059 0.199987 0.671338
-0.146654 0.196978 0.661124
-0.141180 0.193746 0.650161
-0.139225 0.195306 0.655277
-0.134207 0.192544 0.645891
-0.129440 0.190021 0.637308
-0.125221 0.188201 0.631085
-0.121317 0.186778 0.626194
-0.117791 0.185881 0.623068
-0.114149 0.184750 0.619156
-0.110687 0.183859 0.616050
-0.107696 0.183724 0.615474
-0.104908 0.183937 0.616068
-0.101958 0.183870 0.615722
-0.099211 0.184176 0.616627
-0.096524 0.184617 0.617981
-0.093805 0.185020 0.619211
-0.091246 0.185777 0.621626
-0.088485 0.186159 0.622782
-0.085488 0.186054 0.622314
-0.082535 0.186041 0.622155
-0.079569 0.185997 0.621893
-0.076322 0.185267 0.619340
-0.073392 0.185282 0.619278
-0.071035 0.186802 0.624250
-0.067229 0.184480 0.616381
-0.064345 0.184593 0.616655
-0.017458 0.073460 0.245142
-0.016092 0.072550 0.242074
-0.014847 0.072091 0.240514
-0.013626 0.071677 0.239104
-0.012440 0.071393 0.238128
-0.011116 0.070175 0.234041
-0.009939 0.069727 0.232523
-0.008752 0.069080 0.230343
-0.007580 0.068384 0.228001
-0.006454 0.067944 0.226513
-0.005279 0.066712 0.222390
-0.004173 0.065947 0.219825
-0.003115 0.065686 0.218942
-0.002063 0.065370 0.217873
-0.001019 0.064888 0.216258
0.000010 0.064344 0.214433
0.001030 0.064345 0.214429
0.002061 0.064652 0.215447
0.003092 0.064771 0.215836
0.004119 0.064769 0.215825
0.005166 0.065021 0.216663
0.006291 0.066005 0.219941
0.007376 0.066346 0.221076
0.008470 0.066671 0.222161
0.009551 0.066834 0.222705
0.010696 0.067364 0.224479
0.011801 0.067573 0.225180
0.012925 0.067844 0.226088
0.014044 0.068054 0.226796
0.015167 0.068245 0.227445
0.016287 0.068403 0.227982
0.017397 0.068496 0.228305
0.018504 0.068571 0.228566
0.019634 0.068717 0.229067
0.020878 0.069227 0.230784
0.022042 0.069431 0.231480
0.023189 0.069568 0.231955
0.024402 0.069879 0.233010
0.025713 0.070429 0.234867
0.026878 0.070553 0.235301
0.028013 0.070592 0.235453
0.029165 0.070667 0.235725
0.030360 0.070837 0.236316
0.031645 0.071199 0.237547
0.032839 0.071336 0.238031
0.034050 0.071501 0.238605
0.035260 0.071652 0.239134
0.036586 0.072021 0.240394
0.037650 0.071870 0.239917
0.039039 0.072329 0.241475
0.040317 0.072560 0.242275
0.041573 0.072742 0.242908
0.042847 0.072944 0.243612
0.043975 0.072893 0.243469
0.045211 0.073018 0.243915
0.046499 0.073220 0.244616
0.048075 0.073853 0.246758
0.049327 0.073971 0.247178
0.050515 0.073990 0.247267
0.051701 0.074005 0.247342
0.053456 0.074815 0.250075
0.054695 0.074883 0.250327
0.055966 0.074992 0.250713
0.057148 0.074979 0.250693
0.058336 0.074974 0.250696
0.059661 0.075142 0.251276
0.061143 0.075498 0.252484
0.062579 0.075783 0.253455
0.063786 0.075786 0.253480
0.065009 0.075807 0.253561
0.066392 0.076011 0.254255
0.067875 0.076319 0.255295
0.069386 0.076647 0.256401
0.070624 0.076668 0.256476
0.071869 0.076696 0.256572
0.073133 0.076742 0.256726
0.074352 0.076741 0.256717
0.075555 0.076723 0.256650
0.076685 0.076632 0.256339
0.077874 0.076603 0.256229
0.079130 0.076639 0.256333
0.079981 0.076288 0.255141
0.080088 0.075248 0.251641
0.080838 0.074834 0.250230
0.081357 0.074221 0.248152
0.081992 0.073730 0.246476
0.083531 0.074054 0.247523
0.084257 0.073659 0.246159
0.084958 0.073252 0.244755
0.085779 0.072958 0.243723
0.086414 0.072517 0.242194
0.087103 0.072132 0.240849
0.087668 0.071655 0.239194
0.088177 0.071145 0.237421
0.089006 0.070903 0.236542
0.089731 0.070585 0.235401
0.090528 0.070331 0.234471
0.091418 0.070155 0.233794
0.092181 0.069886 0.232802
0.093027 0.069686 0.232034
0.094007 0.069590 0.231607
0.094801 0.069359 0.230725
0.095568 0.069115 0.229794
0.096418 0.068935 0.229068
0.097288 0.068773 0.228397
0.098229 0.068665 0.227897
0.098893 0.068368 0.226762
0.099650 0.068140 0.225852
0.100401 0.067914 0.224938
0.101229 0.067743 0.224200
0.101792 0.067400 0.222887
0.102512 0.067168 0.221932
0.103209 0.066925 0.220934
0.103417 0.066374 0.218909
0.103699 0.065880 0.217070
0.104269 0.065578 0.215852
0.104580 0.065120 0.214116
0.104806 0.064619 0.212228
0.105059 0.064143 0.210419
0.105824 0.063987 0.209647
0.106328 0.063677 0.208362
0.106930 0.063431 0.207278
0.107590 0.063223 0.206308
0.108159 0.062967 0.205168
0.108893 0.062810 0.204342
-1.029533 0.590171 1.904339
-1.027767 0.594452 1.920972
-1.048555 0.611976 1.980377
-1.031940 0.607790 1.969476
-1.029010 0.611663 1.984573
-1.017750 0.610611 1.983592
-0.906965 0.549266 1.786405
-0.895712 0.547606 1.783002
-0.886333 0.547071 1.783166
-0.880812 0.548930 1.791052
-0.868587 0.546607 1.785210
-1.391596 0.902225 2.954474
-1.379062 0.903205 2.960047
-1.356898 0.897834 2.944679
-1.344432 0.898835 2.950087
-0.962792 0.664413 2.184928
-0.955481 0.666523 2.193135
-0.946337 0.667386 2.197176
-0.935138 0.666805 2.196390
-0.930073 0.670632 2.210068
-0.715739 0.540336 1.783613
-0.704857 0.538446 1.777990
-0.689930 0.533384 1.761838
-0.682544 0.534100 1.764725
-0.320345 0.302217 1.000548
-0.312886 0.299581 0.991838
-0.307627 0.299004 0.989929
-0.304146 0.300164 0.993757
-0.299039 0.299731 0.992299
-0.294048 0.299402 0.991175
-0.289339 0.299355 0.990972
-0.284606 0.299281 0.990669
-0.279797 0.299123 0.990079
-0.274692 0.298638 0.988395
-0.269734 0.298300 0.987190
-0.264623 0.297777 0.985363
-0.258819 0.296443 0.980843
-0.252657 0.294643 0.974777
-0.245612 0.291727 0.965010
-0.236492 0.286190 0.946574
-0.228713 0.282096 0.932906
-0.220807 0.277680 0.918171
-0.151688 0.202673 0.669846
-0.145861 0.199032 0.657705
-0.140967 0.196533 0.649336
-0.139082 0.198211 0.654768
-0.134130 0.195495 0.645686
-0.129688 0.193414 0.638699
-0.125452 0.191550 0.632430
-0.121267 0.189674 0.626121
-0.117720 0.188727 0.622879
-0.114195 0.187768 0.619598
-0.110685 0.186784 0.616237
-0.107674 0.186612 0.615552
-0.104858 0.186778 0.615984
-0.101879 0.186656 0.615464
-0.099043 0.186794 0.615805
-0.096237 0.187000 0.616368
-0.093389 0.187137 0.616702
-0.090729 0.187669 0.618341
-0.087950 0.187983 0.619263
-0.085028 0.188004 0.619217
-0.082170 0.188174 0.619666
-0.079295 0.188314 0.620016
-0.076189 0.187898 0.618537
-0.073127 0.187560 0.617317
-0.070265 0.187727 0.617760
-0.067068 0.186977 0.615190
-0.063577 0.185304 0.609584
-0.013600 0.072692 0.238799
-0.012404 0.072333 0.237592
-0.011158 0.071576 0.235079
-0.009958 0.070989 0.233130
-0.008806 0.070635 0.231946
-0.007620 0.069867 0.229403
-0.006448 0.068990 0.226505
-0.005354 0.068775 0.225783
-0.004249 0.068262 0.224082
-0.003149 0.067526 0.221652
-0.002048 0.066005 0.216645
-0.001007 0.065295 0.214305
0.000012 0.064907 0.213023
0.001029 0.065129 0.213742
0.002047 0.065159 0.213834
0.003073 0.065345 0.214438
0.004103 0.065506 0.214963
0.005191 0.066334 0.217678
0.006292 0.067025 0.219943
0.007387 0.067474 0.221415
0.008468 0.067692 0.222132
0.009528 0.067712 0.222201
0.010646 0.068097 0.223468
0.011760 0.068393 0.224443
0.012884 0.068686 0.225411
0.014056 0.069177 0.227031
0.015169 0.069322 0.227515
0.016241 0.069279 0.227383
0.017369 0.069459 0.227988
0.018503 0.069646 0.228613
0.019688 0.069991 0.229758
0.020842 0.070192 0.230433
0.022014 0.070434 0.231244
0.023135 0.070498 0.231470
0.024381 0.070916 0.232862
0.025612 0.071257 0.234002
0.026826 0.071526 0.234905
0.027993 0.071652 0.235338
0.029176 0.071808 0.235871
0.030321 0.071861 0.236067
0.031524 0.072043 0.236687
0.032760 0.072287 0.237512
0.033941 0.072394 0.237888
0.035060 0.072369 0.237830
0.036338 0.072662 0.238818
0.037624 0.072954 0.239802
0.038914 0.073235 0.240751
0.040045 0.073208 0.240689
0.041494 0.073750 0.242495
0.042717 0.073870 0.242915
0.043905 0.073926 0.243125
0.045281 0.074286 0.244334
0.046719 0.074728 0.245813
0.047933 0.074799 0.246071
0.049142 0.074859 0.246292
0.050380 0.074958 0.246645
0.051658 0.075112 0.247172
0.052797 0.075061 0.247027
0.054656 0.076013 0.250183
0.055915 0.076107 0.250513
0.057137 0.076149 0.250671
0.058302 0.076115 0.250574
0.059570 0.076213 0.250916
0.060987 0.076495 0.251861
0.062311 0.076651 0.252386
0.063565 0.076717 0.252615
0.064854 0.076822 0.252971
0.066433 0.077260 0.254422
0.067843 0.077489 0.255183
0.069241 0.077696 0.255871
0.070656 0.077916 0.256594
0.071830 0.077867 0.256432
0.073077 0.077896 0.256525
0.074298 0.077897 0.256522
0.075469 0.077847 0.256349
0.076615 0.077774 0.256095
0.077773 0.077714 0.255882
0.079038 0.077761 0.256019
0.079952 0.077467 0.255027
0.079769 0.076134 0.250615
0.079367 0.074634 0.245650
0.080748 0.074831 0.246265
0.082540 0.075397 0.248091
0.083042 0.074785 0.246036
0.083997 0.074593 0.245358
0.084882 0.074344 0.244492
0.085642 0.073995 0.243289
0.086752 0.073952 0.243091
0.087326 0.073461 0.241413
0.087763 0.072868 0.239396
0.088373 0.072431 0.237890
0.088762 0.071827 0.235829
0.089622 0.071615 0.235051
0.090484 0.071409 0.234288
0.091448 0.071288 0.233797
0.092277 0.071066 0.232969
0.093045 0.070802 0.231999
0.093972 0.070664 0.231436
0.094695 0.070378 0.230381
0.095667 0.070281 0.229939
0.096612 0.070167 0.229434
0.097431 0.069965 0.228635
0.098283 0.069790 0.227919
0.099237 0.069691 0.227442
0.099897 0.069390 0.226299
0.100564 0.069100 0.225185
0.101314 0.068873 0.224270
0.102018 0.068619 0.223259
0.102623 0.068305 0.222043
0.103329 0.068063 0.221058
0.103515 0.067488 0.218980
0.103770 0.066969 0.217078
0.104074 0.066491 0.215304
0.104269 0.065954 0.213330
0.104810 0.065644 0.212083
0.104973 0.065105 0.210089
0.105731 0.064942 0.209300
0.106274 0.064652 0.208089
0.106816 0.064366 0.206884
0.107488 0.064163 0.205935
0.108195 0.063985 0.205053
0.108710 0.063697 0.203809
-1.028392 0.598739 1.900563
-1.026698 0.603124 1.917353
-1.048485 0.621508 1.978629
-1.024136 0.612630 1.953044
-1.007761 0.608403 1.942114
-1.016435 0.619361 1.979576
-0.904531 0.556361 1.780351
-0.897294 0.557155 1.784934
-0.890819 0.558441 1.791013
-0.880357 0.557229 1.788995
-0.869761 0.555909 1.786535
-1.396069 0.901115 2.898685
-1.383705 0.902049 2.904317
-1.368957 0.901432 2.904832
-1.378066 0.916672 2.956368
-1.337936 0.899136 2.902076
-1.324403 0.899296 2.904743
-1.312087 0.900295 2.910018
-0.964822 0.676230 2.188614
-0.955249 0.676786 2.191722
-0.945463 0.677201 2.194305
-0.937272 0.678782 2.200600
-0.926344 0.678393 2.200444
-0.715072 0.548278 1.781455
-0.695381 0.539518 1.753627
-0.685843 0.538521 1.750972
-0.673720 0.535444 1.741510
-0.318039 0.304737 0.993319
-0.312292 0.303692 0.989941
-0.307100 0.303164 0.988233
-0.303573 0.304288 0.991897
-0.298615 0.303991 0.990917
-0.293749 0.303780 0.990206
-0.288949 0.303631 0.989687
-0.284131 0.303458 0.989076
-0.279270 0.303234 0.988287
-0.274199 0.302770 0.986708
-0.269141 0.302304 0.985115
-0.263766 0.301460 0.982279
-0.258393 0.300589 0.979348
-0.252080 0.298573 0.972677
-0.244288 0.294699 0.959949
-0.234710 0.288483 0.939590
-0.225076 0.281958 0.918222
-0.219345 0.280162 0.912255
-0.215282 0.280469 0.913128
-0.151724 0.205898 0.670148
-0.146719 0.203339 0.661717
-0.142626 0.201962 0.657133
-0.139869 0.202456 0.658636
-0.135038 0.199903 0.650222
-0.130198 0.197218 0.641380
-0.125917 0.195273 0.634945
-0.121719 0.193365 0.628632
-0.117933 0.192033 0.624191
-0.114396 0.191047 0.620877
-0.111175 0.190553 0.619159
-0.108122 0.190327 0.618312
-0.105167 0.190267 0.618006
-0.102379 0.190513 0.618694
-0.099576 0.190745 0.619335
-0.096819 0.191084 0.620324
-0.094091 0.191503 0.621570
-0.091301 0.191818 0.622481
-0.088387 0.191883 0.622582
-0.085523 0.192069 0.623076
-0.082504 0.191905 0.622434
-0.079735 0.192334 0.623716
-0.076591 0.191855 0.622059
-0.073385 0.191178 0.619759
-0.070507 0.191336 0.620168
-0.067179 0.190232 0.616490
-0.063512 0.188025 0.609241
-0.060659 0.188133 0.609498
-0.013220 0.078309 0.253367
-0.012040 0.078463 0.253839
-0.010121 0.073297 0.237104
-0.008938 0.072830 0.235569
-0.007788 0.072548 0.234638
-0.006669 0.072501 0.234467
-0.005506 0.071864 0.232390
-0.004303 0.070254 0.227168
-0.003158 0.068829 0.222544
-0.002096 0.068702 0.222123
-0.001010 0.066734 0.215749
0.000015 0.066361 0.214533
0.001026 0.065745 0.212534
0.002044 0.065983 0.213295
0.003066 0.066152 0.213837
0.004086 0.066195 0.213971
0.005194 0.067369 0.217762
0.006301 0.068137 0.220241
0.007391 0.068534 0.221525
0.008442 0.068512 0.221454
0.009521 0.068696 0.222052
0.010602 0.068858 0.222580
0.011729 0.069255 0.223867
0.012887 0.069759 0.225501
0.013998 0.069949 0.226124
0.015107 0.070103 0.226628
0.016221 0.070259 0.227142
0.017367 0.070526 0.228015
0.018477 0.070620 0.228331
0.019631 0.070864 0.229135
0.020773 0.071043 0.229726
0.021980 0.071413 0.230937
0.023116 0.071529 0.231328
0.024272 0.071692 0.231871
0.025590 0.072301 0.233859
0.026827 0.072638 0.234968
0.027993 0.072761 0.235386
0.029151 0.072857 0.235717
0.030302 0.072929 0.235971
0.031479 0.073057 0.236405
0.032700 0.073273 0.237125
0.034009 0.073666 0.238419
0.035178 0.073739 0.238680
0.036458 0.074034 0.239656
0.037691 0.074217 0.240271
0.038695 0.073953 0.239442
0.040117 0.074478 0.241166
0.041372 0.074675 0.241826
0.042664 0.074924 0.242655
0.043884 0.075038 0.243049
0.045121 0.075174 0.243513
0.046381 0.075341 0.244075
0.047836 0.075807 0.245608
0.049093 0.075946 0.246080
0.050369 0.076107 0.246625
0.051625 0.076230 0.247044
0.052819 0.076259 0.247158
0.054294 0.076683 0.248550
0.055560 0.076801 0.248952
0.056897 0.077009 0.249643
0.058176 0.077132 0.250056
0.059567 0.077395 0.250923
0.060908 0.077584 0.251549
0.062298 0.077827 0.252348
0.063483 0.077810 0.252302
0.064736 0.077874 0.252519
0.066112 0.078082 0.253199
0.067731 0.078565 0.254767
0.069255 0.078921 0.255924
0.070506 0.078961 0.256050
0.071729 0.078966 0.256064
0.072967 0.078989 0.256132
0.074196 0.079001 0.256161
0.075361 0.078946 0.255971
0.076515 0.078881 0.255744
0.077711 0.078861 0.255659
0.078811 0.078745 0.255261
0.079867 0.078589 0.254730
0.080616 0.078140 0.253246
0.080961 0.077318 0.250552
0.080614 0.075869 0.245820
0.082529 0.076560 0.248020
0.083115 0.076017 0.246214
0.083771 0.075551 0.244656
0.084543 0.075201 0.243471
0.085172 0.074734 0.241904
0.085522 0.074039 0.239591
0.086748 0.074110 0.239756
0.087711 0.073959 0.239195
0.088221 0.073432 0.237417
0.088882 0.073044 0.236081
0.089691 0.072786 0.235162
0.090527 0.072556 0.234326
0.091330 0.072305 0.233417
0.092058 0.072001 0.232335
0.092936 0.071821 0.231643
0.093786 0.071623 0.230890
0.094601 0.071403 0.230060
0.095513 0.071261 0.229473
0.096396 0.071101 0.228822
0.097520 0.071119 0.228740
0.098449 0.070997 0.228195
0.099260 0.070793 0.227383
0.100147 0.070647 0.226749
0.100953 0.070448 0.225936
0.101683 0.070200 0.224960
0.102059 0.069716 0.223220
0.102762 0.069463 0.222211
0.103402 0.069172 0.221076
0.103784 0.068718 0.219407
0.103754 0.068002 0.216899
0.104140 0.067570 0.215290
0.104624 0.067209 0.213900
0.104999 0.066787 0.212306
0.105484 0.066441 0.210948
0.105977 0.066107 0.209618
0.106299 0.065674 0.207964
0.106921 0.065433 0.206909
0.107693 0.065287 0.206143
0.108277 0.065031 0.205018
0.108920 0.064814 0.204006
-1.023192 0.604888 1.889237
-1.029464 0.614065 1.920834
-1.041189 0.626690 1.963198
-1.031209 0.626364 1.964927
-1.026243 0.629105 1.976174
-1.008143 0.623772 1.961933
-0.901802 0.563227 1.773676
-0.890636 0.561539 1.770433
-0.882922 0.562016 1.773923
-0.877864 0.564211 1.782755
-0.866469 0.562335 1.778643
-1.385088 0.907800 2.874130
-1.372798 0.908724 2.879729
-1.359060 0.908700 2.882201
-1.340535 0.905442 2.874290
-1.319351 0.900304 2.860271
-1.313622 0.905716 2.879656
-1.285961 0.895960 2.850703
-1.273856 0.896952 2.855821
-0.966892 0.688120 2.192343
-0.957350 0.688722 2.195616
-0.944515 0.686944 2.191224
-0.938149 0.689883 2.201813
-0.928818 0.690684 2.205514
-0.714404 0.556204 1.779265
-0.693800 0.546585 1.749153
-0.687934 0.548484 1.755849
-0.680477 0.549146 1.758545
-0.319046 0.310413 0.996423
-0.311966 0.308051 0.988880
-0.308214 0.308953 0.991803
-0.303809 0.309218 0.992667
-0.298364 0.308417 0.990096
-0.293608 0.308314 0.989755
-0.288858 0.308214 0.989411
-0.283858 0.307840 0.988174
-0.278979 0.307587 0.987318
-0.273966 0.307176 0.985941
-0.268960 0.306758 0.984537
-0.263642 0.305964 0.981914
-0.258545 0.305404 0.980034
-0.252440 0.303610 0.974186
-0.244337 0.299302 0.960268
-0.240083 0.299637 0.961237
-0.220901 0.280996 0.901332
-0.217273 0.281796 0.903788
-0.209228 0.276786 0.887608
-0.205265 0.277083 0.888440
-0.151504 0.208770 0.669309
-0.146390 0.206014 0.660376
-0.144020 0.207081 0.663700
-0.139320 0.204773 0.656201
-0.134630 0.202375 0.648417
-0.129987 0.199938 0.640505
-0.125652 0.197870 0.633775
-0.121738 0.196380 0.628901
-0.117801 0.194778 0.623666
-0.114367 0.193949 0.620906
-0.111151 0.193454 0.619213
-0.108021 0.193087 0.617932
-0.104959 0.192823 0.616981
-0.102024 0.192785 0.616754
-0.099116 0.192799 0.616690
-0.096417 0.193231 0.617964
-0.093637 0.193524 0.618793
-0.090783 0.193678 0.619180
-0.087959 0.193907 0.619806
-0.085213 0.194330 0.621054
-0.082192 0.194136 0.620327
-0.079356 0.194381 0.621006
-0.076443 0.194449 0.621121
-0.073339 0.194016 0.619637
-0.070347 0.193857 0.619033
-0.067039 0.192776 0.615482
-0.063630 0.191294 0.610659
-0.059536 0.187513 0.598498
-0.013326 0.080174 0.255572
-0.012038 0.079675 0.253955
-0.010781 0.079299 0.252731
-0.009570 0.079207 0.252415
-0.008400 0.079480 0.253263
-0.007198 0.079496 0.253295
-0.005523 0.073239 0.233341
-0.004379 0.072646 0.231436
-0.003192 0.070698 0.225216
-0.002100 0.069982 0.222922
-0.001032 0.069400 0.221057
0.000018 0.068089 0.216874
0.001028 0.066697 0.212430
0.002039 0.066741 0.212564
0.003058 0.066932 0.213168
0.004078 0.067043 0.213516
0.005227 0.068799 0.219105
0.006277 0.068895 0.219406
0.007352 0.069188 0.220340
0.008430 0.069438 0.221136
0.009508 0.069637 0.221773
0.010588 0.069800 0.222294
0.011737 0.070351 0.224052
0.012852 0.070626 0.224932
0.013951 0.070772 0.225404
0.015099 0.071132 0.226558
0.016204 0.071253 0.226954
0.017340 0.071484 0.227697
0.018483 0.071717 0.228450
0.019631 0.071945 0.229188
0.020834 0.072335 0.230446
0.021973 0.072477 0.230912
0.023264 0.073083 0.232856
0.024403 0.073179 0.233178
0.025606 0.073449 0.234054
0.026759 0.073558 0.234419
0.027915 0.073667 0.234786
0.029106 0.073857 0.235407
0.030251 0.073918 0.235623
0.031424 0.074043 0.236040
0.032763 0.074535 0.237629
0.033929 0.074614 0.237903
0.035210 0.074934 0.238943
0.036419 0.075085 0.239446
0.037562 0.075093 0.239495
0.038790 0.075268 0.240074
0.040054 0.075500 0.240834
0.041347 0.075770 0.241718
0.042601 0.075958 0.242338
0.043851 0.076129 0.242905
0.045254 0.076548 0.244265
0.046338 0.076422 0.243882
0.047643 0.076657 0.244655
0.048898 0.076802 0.245135
0.050265 0.077111 0.246143
0.051464 0.077155 0.246302
0.052815 0.077421 0.247167
0.054267 0.077818 0.248451
0.055541 0.077949 0.248886
0.056952 0.078263 0.249902
0.058154 0.078283 0.249980
0.059516 0.078512 0.250724
0.060812 0.078649 0.251168
0.062158 0.078842 0.251794
0.063419 0.078922 0.252056
0.064691 0.079013 0.252351
0.065982 0.079123 0.252707
0.067595 0.079607 0.254254
0.068892 0.079710 0.254581
0.070313 0.079950 0.255342
0.071540 0.079965 0.255383
0.072692 0.079897 0.255156
0.073960 0.079957 0.255335
0.075126 0.079906 0.255156
0.076305 0.079870 0.255024
0.077470 0.079821 0.254844
0.078659 0.079797 0.254744
0.079821 0.079747 0.254554
0.079697 0.078433 0.250329
0.079468 0.077056 0.245897
0.080497 0.076921 0.245427
0.081691 0.076945 0.245460
0.082503 0.076613 0.244356
0.083574 0.076528 0.244032
0.084480 0.076296 0.243236
0.085183 0.075890 0.241881
0.085924 0.075528 0.240662
0.086812 0.075302 0.239873
0.087660 0.075048 0.238990
0.088084 0.074442 0.236981
0.088531 0.073871 0.235079
0.089297 0.073578 0.234054
0.090039 0.073271 0.232984
0.090888 0.073058 0.232207
0.091788 0.072891 0.231568
0.092328 0.072444 0.230038
0.093531 0.072524 0.230170
0.094567 0.072472 0.229881
0.095360 0.072237 0.229004
0.096518 0.072282 0.229007
0.097309 0.072053 0.228135
0.098329 0.071998 0.227804
0.099155 0.071803 0.227025
0.099983 0.071613 0.226254
0.100832 0.071442 0.225537
0.101674 0.071270 0.224808
0.102198 0.070881 0.223387
0.102675 0.070469 0.221884
0.103305 0.070168 0.220725
0.103732 0.069736 0.219148
0.103944 0.069171 0.217143
0.104522 0.068858 0.215923
0.104956 0.068456 0.214417
0.105283 0.067994 0.212713
0.105435 0.067429 0.210679
0.105877 0.067058 0.209244
0.106412 0.066753 0.208005
0.106842 0.066388 0.206570
0.107673 0.066276 0.205912
0.108395 0.066100 0.205043
0.108828 0.065753 0.203631
-1.015473 0.609434 1.873223
-1.010013 0.611603 1.882828
-1.052072 0.642849 1.981979
-1.040426 0.641551 1.980809
-1.031758 0.642082 1.985166
-1.009138 0.633861 1.962319
-0.902141 0.571987 1.772990
-0.890674 0.570083 1.769207
-0.885711 0.572345 1.778264
-0.876782 0.572064 1.779338
-0.863860 0.569148 1.772118
-1.385135 0.921603 2.872399
-1.372819 0.922525 2.878011
-1.345083 0.913000 2.850880
-1.330233 0.912116 2.850584
-1.319688 0.914197 2.859443
-1.302490 0.911665 2.853760
-1.290335 0.912648 2.858963
-0.966826 0.698512 2.191181
-0.952862 0.695894 2.184358
-0.947414 0.699507 2.197021
-0.939462 0.701330 2.204004
-0.930103 0.702133 2.207715
-0.693140 0.554350 1.746970
-0.661362 0.535299 1.687556
-0.318596 0.314680 0.994963
-0.312106 0.312868 0.989286
-0.308233 0.313662 0.991836
-0.303709 0.313809 0.992327
-0.298423 0.313161 0.990291
-0.293476 0.312854 0.989320
-0.288580 0.312593 0.988485
-0.283642 0.312276 0.987461
-0.278724 0.311972 0.986465
-0.273553 0.311370 0.984517
-0.268097 0.310418 0.981452
-0.262183 0.308892 0.976565
-0.255886 0.306854 0.970051
-0.249275 0.304356 0.962077
-0.245018 0.304695 0.963063
-0.227591 0.288361 0.911345
-0.221901 0.286555 0.905544
-0.215433 0.283654 0.896275
-0.211437 0.283958 0.897130
-0.152805 0.213762 0.675184
-0.148594 0.212291 0.670448
-0.144859 0.211453 0.667706
-0.139976 0.208864 0.659437
-0.134751 0.205636 0.649151
-0.130094 0.203145 0.641190
-0.125957 0.201367 0.635478
-0.121856 0.199560 0.629678
-0.117922 0.197943 0.624478
-0.114606 0.197309 0.622378
-0.111366 0.196776 0.620595
-0.108371 0.196658 0.620119
-0.105274 0.196345 0.619030
-0.102425 0.196488 0.619379
-0.099687 0.196859 0.620446
-0.096990 0.197339 0.621853
-0.094009 0.197250 0.621470
-0.091151 0.197423 0.621912
-0.088297 0.197618 0.622422
-0.085428 0.197790 0.622865
-0.082533 0.197912 0.623147
-0.079576 0.197892 0.622983
-0.076696 0.198068 0.623438
-0.073621 0.197731 0.622282
-0.070567 0.197430 0.621237
-0.067372 0.196689 0.618812
-0.064095 0.195632 0.615395
-0.060441 0.193269 0.607875
-0.014257 0.079827 0.250790
-0.013072 0.079853 0.250846
-0.011885 0.079880 0.250905
-0.010667 0.079674 0.250235
-0.009459 0.079501 0.249668
-0.008273 0.079493 0.249622
-0.007070 0.079297 0.248989
-0.005880 0.079186 0.248621
-0.004683 0.078914 0.247750
-0.003490 0.078559 0.246622
-0.002100 0.071151 0.223353
-0.001036 0.070916 0.222606
0.000022 0.070387 0.220934
0.001041 0.068404 0.214701
0.002048 0.067976 0.213352
0.003059 0.067896 0.213093
0.004104 0.068438 0.214790
0.005346 0.071398 0.224078
0.006313 0.070305 0.220644
0.007388 0.070554 0.221425
0.008445 0.070594 0.221548
0.009499 0.070598 0.221561
0.010568 0.070708 0.221910
0.011659 0.070921 0.222584
0.012834 0.071574 0.224635
0.013977 0.071961 0.225857
0.015088 0.072141 0.226428
0.016196 0.072281 0.226877
0.017305 0.072406 0.227276
0.018382 0.072392 0.227243
0.019592 0.072876 0.228773
0.020758 0.073152 0.229652
0.021936 0.073440 0.230569
0.023222 0.074044 0.232479
0.024374 0.074188 0.232945
0.025534 0.074339 0.233435
0.026708 0.074520 0.234018
0.027869 0.074651 0.234446
0.029060 0.074848 0.235082
0.030219 0.074950 0.235420
0.031353 0.074986 0.235551
0.032607 0.075296 0.236544
0.033993 0.075881 0.238401
0.035181 0.075999 0.238791
0.036310 0.075985 0.238768
0.037564 0.076228 0.239552
0.038811 0.076442 0.240243
0.040140 0.076800 0.241388
0.041382 0.076976 0.241962
0.042608 0.077114 0.242416
0.043899 0.077360 0.243208
0.045149 0.077521 0.243734
0.046377 0.077638 0.244119
0.047723 0.077943 0.245096
0.048887 0.077941 0.245107
0.050152 0.078098 0.245619
0.051487 0.078354 0.246439
0.052739 0.078474 0.246832
0.054101 0.078750 0.247715
0.055591 0.079195 0.249129
0.056901 0.079372 0.249696
0.058149 0.079457 0.249975
0.059451 0.079609 0.250462
0.060700 0.079687 0.250715
0.062026 0.079860 0.251265
0.063331 0.080001 0.251713
0.064567 0.080051 0.251871
0.065976 0.080309 0.252682
0.067408 0.080585 0.253550
0.068924 0.080951 0.254694
0.070187 0.081011 0.254876
0.071437 0.081055 0.255005
0.072658 0.081064 0.255022
0.073902 0.081099 0.255116
0.075094 0.081077 0.255027
0.076225 0.080990 0.254733
0.077434 0.080987 0.254697
0.078616 0.080957 0.254574
0.079643 0.080770 0.253955
0.079204 0.079124 0.248744
0.079378 0.078131 0.245582
0.080190 0.077784 0.244450
0.081343 0.077774 0.244371
0.082353 0.077629 0.243865
0.083304 0.077433 0.243195
0.084142 0.077138 0.242211
0.085010 0.076880 0.241333
0.085966 0.076705 0.240716
0.086690 0.076331 0.239471
0.087585 0.076116 0.238717
0.087933 0.075437 0.236504
0.088566 0.075016 0.235097
0.089537 0.074889 0.234606
0.090299 0.074592 0.233575
0.091034 0.074280 0.232494
0.091800 0.074001 0.231510
0.092603 0.073758 0.230631
0.093674 0.073731 0.230424
0.094673 0.073649 0.230037
0.095510 0.073444 0.229259
0.096506 0.073365 0.228868
0.097490 0.073278 0.228446
0.098267 0.073039 0.227541
0.099074 0.072828 0.226717
0.099707 0.072494 0.225504
0.100652 0.072392 0.225004
0.101411 0.072160 0.224091
0.102005 0.071816 0.222824
0.102666 0.071527 0.221719
0.103087 0.071077 0.220110
0.103673 0.070750 0.218870
0.104025 0.070270 0.217155
0.104390 0.069809 0.215486
0.104823 0.069403 0.213979
0.105223 0.068982 0.212419
0.105541 0.068516 0.210714
0.105854 0.068056 0.209017
0.106309 0.067695 0.207617
0.106765 0.067342 0.206228
0.107545 0.067197 0.205470
0.108147 0.066945 0.204369
0.108755 0.066701 0.203284
-1.029658 0.627184 1.897539
-1.021227 0.627637 1.901941
-1.057118 0.655587 1.989672
-1.053989 0.659628 2.004867
-1.020892 0.644816 1.962594
-1.008585 0.642982 1.959635
-0.900812 0.579681 1.768977
-0.891978 0.579451 1.770444
-0.882807 0.578996 1.771128
-0.874897 0.579367 1.774250
-0.866941 0.579715 1.777219
-1.370601 0.925564 2.840381
-1.358389 0.926472 2.845946
-1.338082 0.921822 2.834300
-1.330469 0.925913 2.849406
-1.307395 0.919218 2.831197
-1.297004 0.921394 2.840186
-1.284877 0.922371 2.845376
-0.967127 0.709173 2.190803
-0.953490 0.706761 2.184786
-0.951873 0.713303 2.206382
-0.938023 0.710723 2.199697
-0.926194 0.709634 2.197549
-0.317810 0.318599 0.992444
-0.311408 0.316836 0.987020
-0.309001 0.319146 0.994268
-0.303383 0.318161 0.991236
-0.297987 0.317380 0.988831
-0.293313 0.317357 0.988771
-0.288470 0.317147 0.988117
-0.283548 0.316843 0.987159
-0.278613 0.316514 0.986112
-0.273535 0.316008 0.984503
-0.267922 0.314856 0.980872
-0.260516 0.311520 0.970430
-0.252963 0.307887 0.959052
-0.245842 0.304657 0.948924
-0.237220 0.299413 0.932516
-0.227272 0.292266 0.910179
-0.220822 0.289430 0.901262
-0.212485 0.283961 0.884141
-0.151994 0.215811 0.671722
-0.147275 0.213558 0.664627
-0.145268 0.215226 0.669730
-0.139494 0.211262 0.657308
-0.134889 0.208930 0.649961
-0.130300 0.206513 0.642351
-0.126326 0.204980 0.637491
-0.122273 0.203243 0.631994
-0.118642 0.202137 0.628461
-0.115145 0.201207 0.625475
-0.111933 0.200741 0.623928
-0.108823 0.200437 0.622888
-0.105819 0.200318 0.622420
-0.103026 0.200604 0.623208
-0.100096 0.200631 0.623194
-0.097232 0.200797 0.623610
-0.094451 0.201149 0.624605
-0.091493 0.201136 0.624465
-0.088627 0.201333 0.624977
-0.085894 0.201854 0.626496
-0.082969 0.201944 0.626679
-0.080070 0.202108 0.627091
-0.077128 0.202173 0.627196
-0.074197 0.202274 0.627413
-0.071121 0.201972 0.626384
-0.067940 0.201331 0.624304
-0.064806 0.200777 0.622498
-0.061220 0.198704 0.615985
-0.058333 0.198811 0.616231
-0.014148 0.080414 0.249009
-0.012992 0.080568 0.249462
-0.011827 0.080698 0.249841
-0.010611 0.080461 0.249083
-0.009407 0.080271 0.248475
-0.008203 0.080033 0.247717
-0.007016 0.079903 0.247297
-0.005821 0.079617 0.246392
-0.004639 0.079398 0.245701
-0.003464 0.079201 0.245075
-0.002295 0.079032 0.244538
-0.001132 0.078886 0.244074
0.000027 0.077886 0.240969
0.001050 0.069850 0.216100
0.002067 0.069508 0.215035
0.003098 0.069724 0.215698
0.004433 0.074973 0.231930
0.005496 0.074455 0.230322
0.006367 0.071931 0.222512
0.007389 0.071585 0.221439
0.008426 0.071460 0.221054
0.009491 0.071566 0.221382
0.010564 0.071711 0.221832
0.011640 0.071846 0.222252
0.012810 0.072492 0.224256
0.013899 0.072612 0.224633
0.015038 0.072957 0.225704
0.016149 0.073132 0.226252
0.017257 0.073271 0.226691
0.018390 0.073492 0.227385
0.019568 0.073858 0.228527
0.020678 0.073947 0.228812
0.021976 0.074660 0.231029
0.023175 0.074986 0.232052
0.024327 0.075140 0.232542
0.025462 0.075229 0.232830
0.026647 0.075448 0.233523
0.027770 0.075484 0.233650
0.029017 0.075841 0.234772
0.030227 0.076078 0.235522
0.031371 0.076141 0.235731
0.032701 0.076631 0.237266
0.033877 0.076742 0.237627
0.035095 0.076936 0.238247
0.036322 0.077138 0.238889
0.037582 0.077395 0.239705
0.038769 0.077491 0.240020
0.040158 0.077975 0.241536
0.041402 0.078155 0.242112
0.042583 0.078212 0.242305
0.043748 0.078237 0.242403
0.045094 0.078576 0.243470
0.046303 0.078665 0.243763
0.047537 0.078791 0.244168
0.048810 0.078973 0.244748
0.050066 0.079121 0.245222
0.051299 0.079227 0.245562
0.052608 0.079442 0.246241
0.054021 0.079801 0.247368
0.055510 0.080255 0.248786
0.056718 0.080292 0.248909
0.057987 0.080411 0.249286
0.059339 0.080640 0.250001
0.060660 0.080817 0.250556
0.062006 0.081021 0.251190
0.063214 0.081040 0.251250
0.064451 0.081094 0.251417
0.065735 0.081205 0.251757
0.067346 0.081707 0.253310
0.068692 0.081877 0.253829
0.069986 0.081979 0.254135
0.071212 0.082000 0.254187
0.072456 0.082041 0.254298
0.073681 0.082059 0.254334
0.074886 0.082053 0.254295
0.076114 0.082074 0.254335
0.077263 0.082009 0.254105
0.078518 0.082057 0.254222
0.079674 0.082002 0.254016
0.079689 0.080792 0.250228
0.079539 0.079453 0.246037
0.080300 0.079049 0.244740
0.081390 0.078975 0.244463
0.082468 0.078893 0.244153
0.083047 0.078342 0.242388
0.083880 0.078041 0.241397
0.084637 0.077680 0.240211
0.085344 0.077282 0.238910
0.086184 0.077015 0.238007
0.087061 0.076786 0.237217
0.087713 0.076368 0.235837
0.088519 0.076092 0.234893
0.089133 0.075660 0.233462
0.089781 0.075268 0.232150
0.090676 0.075089 0.231490
0.091805 0.075106 0.231428
0.092243 0.074564 0.229637
0.093500 0.074689 0.229893
0.094533 0.074634 0.229591
0.095185 0.074283 0.228369
0.096222 0.074236 0.228078
0.097080 0.074055 0.227365
0.097894 0.073844 0.226554
0.098710 0.073640 0.225756
0.099548 0.073455 0.225013
0.100399 0.073285 0.224302
0.101199 0.073080 0.223481
0.101964 0.072855 0.222590
0.102461 0.072446 0.221126
0.102992 0.072068 0.219751
0.103596 0.071749 0.218548
0.103780 0.071147 0.216478
0.104116 0.070662 0.214753
0.104650 0.070319 0.213453
0.104954 0.069829 0.211698
0.105336 0.069401 0.210123
0.105942 0.069126 0.209003
0.106408 0.068766 0.207615
0.106848 0.068396 0.206189
0.107386 0.068096 0.204960
0.107960 0.067824 0.203806
0.108505 0.067538 0.202599
-1.065805 0.664682 1.983027
-1.056999 0.665168 1.987572
-1.048948 0.666142 1.993459
-1.039737 0.666391 1.997061
-1.015893 0.657180 1.972155
-0.897759 0.586225 1.761533
-0.885533 0.583737 1.756256
-0.879580 0.585375 1.763300
-0.872828 0.586509 1.768745
-0.862019 0.584914 1.765869
-1.370769 0.939311 2.838775
-1.358530 0.940215 2.844353
-1.335967 0.933921 2.828012
-1.337170 0.944282 2.861996
-1.324891 0.945239 2.867385
-1.294462 0.933133 2.833005
-1.268522 0.924042 2.807617
-1.256516 0.925017 2.812690
-0.968359 0.720536 2.192487
-0.956576 0.719492 2.190794
-0.947092 0.720174 2.194281
-0.938650 0.721673 2.200187
-0.928233 0.721671 2.201448
-0.327221 0.328047 1.006857
-0.317401 0.322878 0.991086
-0.311681 0.321787 0.987817
-0.308629 0.323460 0.993018
-0.303215 0.322671 0.990647
-0.298027 0.322102 0.988938
-0.293159 0.321865 0.988237
-0.288334 0.321670 0.987652
-0.283287 0.321216 0.986260
-0.278112 0.320601 0.984361
-0.272532 0.319490 0.980930
-0.266653 0.317985 0.976277
-0.259340 0.314686 0.966111
-0.249545 0.308205 0.946164
-0.243495 0.306198 0.939946
-0.236202 0.302524 0.928606
-0.223344 0.291450 0.894547
-0.216675 0.288182 0.884444
-0.209829 0.284547 0.873207
-0.154458 0.222545 0.682726
-0.148738 0.218861 0.671349
-0.144882 0.217820 0.668076
-0.139218 0.213954 0.656136
-0.134052 0.210697 0.646064
-0.129522 0.208310 0.638660
-0.125620 0.206844 0.634077
-0.122048 0.205862 0.630981
-0.118547 0.204957 0.628117
-0.115268 0.204396 0.626309
-0.112446 0.204639 0.626960
-0.109672 0.204984 0.627926
-0.106693 0.204957 0.627747
-0.103953 0.205398 0.629005
-0.101120 0.205678 0.629766
-0.098199 0.205790 0.630014
-0.095336 0.206036 0.630672
-0.092380 0.206088 0.630734
-0.089294 0.205847 0.629900
-0.086467 0.206206 0.630905
-0.083426 0.206062 0.630369
-0.080538 0.206300 0.631004
-0.077579 0.206367 0.631116
-0.074538 0.206212 0.630552
-0.071677 0.206565 0.631539
-0.068437 0.205809 0.629140
-0.065200 0.204991 0.626553
-0.061919 0.203954 0.623300
-0.057882 0.200197 0.611738
-0.055013 0.200299 0.611969
-0.049508 0.190281 0.581287
-0.014311 0.082558 0.252034
-0.013050 0.082141 0.250737
-0.011802 0.081733 0.249468
-0.010608 0.081649 0.249190
-0.009379 0.081237 0.247912
-0.008186 0.081073 0.247393
-0.006986 0.080773 0.246458
-0.005777 0.080212 0.244729
-0.004608 0.080084 0.244321
-0.003438 0.079837 0.243555
-0.002273 0.079513 0.242554
-0.001118 0.079268 0.241795
0.000030 0.078442 0.239265
0.001158 0.077951 0.237756
0.002279 0.077681 0.236926
0.003401 0.077598 0.236666
0.004523 0.077569 0.236572
0.005622 0.077234 0.235545
0.006668 0.076403 0.233006
0.007438 0.073090 0.222902
0.008472 0.072880 0.222260
0.009510 0.072744 0.221846
0.010563 0.072738 0.221830
0.011651 0.072954 0.222490
0.012776 0.073344 0.223683
0.013887 0.073599 0.224465
0.015010 0.073876 0.225314
0.016148 0.074188 0.226274
0.017229 0.074212 0.226355
0.018369 0.074474 0.227159
0.019523 0.074761 0.228046
0.020758 0.075310 0.229731
0.021932 0.075595 0.230610
0.023065 0.075718 0.230995
0.024317 0.076201 0.232482
0.025458 0.076312 0.232832
0.026601 0.076415 0.233162
0.027758 0.076552 0.233593
0.028951 0.076772 0.234278
0.030178 0.077063 0.235181
0.031317 0.077117 0.235362
0.032542 0.077372 0.236156
0.033821 0.077733 0.237274
0.035095 0.078060 0.238286
0.036306 0.078228 0.238818
0.037493 0.078339 0.239171
0.038693 0.078469 0.239585
0.039946 0.078695 0.240290
0.041149 0.078814 0.240670
0.042506 0.079211 0.241899
0.044194 0.080190 0.244904
0.045146 0.079817 0.243778
0.046279 0.079773 0.243660
0.047605 0.080057 0.244540
0.048791 0.080098 0.244678
0.049983 0.080145 0.244834
0.051290 0.080370 0.245535
0.052555 0.080523 0.246011
0.054037 0.080992 0.247453
0.055192 0.080963 0.247373
0.056645 0.081361 0.248597
0.057922 0.081497 0.249018
0.059256 0.081705 0.249657
0.060613 0.081936 0.250366
0.061872 0.082029 0.250649
0.063106 0.082085 0.250819
0.064364 0.082170 0.251074
0.065657 0.082295 0.251451
0.067092 0.082590 0.252344
0.068521 0.082869 0.253184
0.069807 0.082967 0.253472
0.071072 0.083037 0.253667
0.072313 0.083078 0.253774
0.073522 0.083081 0.253761
0.074748 0.083101 0.253799
0.075950 0.083097 0.253756
0.077116 0.083052 0.253587
0.078391 0.083125 0.253774
0.079565 0.083090 0.253628
0.081107 0.083435 0.254637
0.079331 0.080406 0.245349
0.079939 0.079846 0.243591
0.080846 0.079597 0.242776
0.082015 0.079609 0.242756
0.082882 0.079331 0.241846
0.083759 0.079071 0.240986
0.084551 0.078738 0.239901
0.085236 0.078315 0.238537
0.086177 0.078137 0.237913
0.086876 0.077746 0.236637
0.087740 0.077511 0.235830
0.088176 0.076908 0.233900
0.089115 0.076753 0.233328
0.089929 0.076496 0.232441
0.090700 0.076209 0.231455
0.091681 0.076104 0.231016
0.092451 0.075827 0.230052
0.093382 0.075688 0.229497
0.094366 0.075593 0.229072
0.095101 0.075305 0.228051
0.096009 0.075158 0.227454
0.096757 0.074890 0.226485
0.097653 0.074742 0.225869
0.098370 0.074462 0.224846
0.099142 0.074228 0.223957
0.100077 0.074120 0.223440
0.100821 0.073874 0.222500
0.101695 0.073728 0.221850
0.102346 0.073425 0.220720
0.102746 0.072950 0.219066
0.103281 0.072579 0.217718
0.103671 0.072115 0.216081
0.104163 0.071730 0.214675
0.104672 0.071364 0.213316
0.105347 0.071118 0.212306
0.105488 0.070519 0.210234
0.105819 0.070058 0.208564
0.106317 0.069715 0.207237
0.106698 0.069302 0.205694
0.107245 0.069003 0.204479
0.107945 0.068808 0.203559
0.108471 0.068506 0.202311
-1.066426 0.680842 2.003339
-1.053201 0.678553 1.999652
-1.046625 0.680544 2.008455
-1.037776 0.681082 2.012859
-0.897798 0.594761 1.760108
-0.887807 0.593731 1.759315
-0.878810 0.593353 1.760355
-0.873224 0.595293 1.768189
-0.859529 0.591690 1.759462
-1.387658 0.964687 2.871695
-1.375242 0.965597 2.877357
-1.347797 0.955868 2.851157
-1.336213 0.957304 2.858114
-0.964735 0.728260 2.183128
-0.954490 0.728345 2.184907
-0.952349 0.734684 2.205387
-0.937080 0.730925 2.195483
-0.928709 0.732523 2.201595
-0.326833 0.332416 1.005549
-0.318337 0.328533 0.993912
-0.311694 0.326474 0.987775
-0.308715 0.328250 0.993227
-0.303472 0.327635 0.991431
-0.298024 0.326777 0.988886
-0.293047 0.326416 0.987833
-0.288069 0.326043 0.986730
-0.283022 0.325578 0.985335
-0.278378 0.325570 0.985312
-0.272908 0.324579 0.982307
-0.267173 0.323234 0.978214
-0.262859 0.323590 0.979265
-0.245917 0.308138 0.932466
-0.239184 0.305147 0.923372
-0.230914 0.300050 0.907896
-0.222404 0.294441 0.890867
-0.216469 0.292093 0.883697
-0.212530 0.292398 0.884552
-0.152965 0.223598 0.676230
-0.147741 0.220556 0.666960
-0.144394 0.220243 0.665941
-0.139237 0.217096 0.656350
-0.134080 0.213806 0.646325
-0.129906 0.211966 0.640686
-0.125906 0.210330 0.635660
-0.122223 0.209157 0.632034
-0.118955 0.208654 0.630428
-0.115752 0.208243 0.629100
-0.112709 0.208103 0.628593
-0.110073 0.208730 0.630397
-0.107307 0.209138 0.631538
-0.104497 0.209481 0.632485
-0.101631 0.209729 0.633142
-0.098893 0.210264 0.634666
-0.095838 0.210138 0.634195
-0.092924 0.210325 0.634665
-0.089934 0.210343 0.634629
-0.086968 0.210424 0.634781
-0.083984 0.210464 0.634813
-0.081135 0.210860 0.635916
-0.078121 0.210840 0.635767
-0.075145 0.210925 0.635935
-0.072117 0.210866 0.635668
-0.068942 0.210355 0.634043
-0.065671 0.209490 0.631352
-0.062501 0.208880 0.629432
-0.058508 0.205323 0.618633
-0.054306 0.200619 0.604385
-0.050473 0.196830 0.592897
-0.047687 0.196920 0.593098
-0.019892 0.116442 0.350520
-0.013024 0.083188 0.250393
-0.011822 0.083077 0.250037
-0.010586 0.082682 0.248825
-0.009309 0.081833 0.246252
-0.008122 0.081632 0.245626
-0.006929 0.081306 0.244628
-0.005749 0.081033 0.243790
-0.004590 0.080987 0.243637
-0.003427 0.080814 0.243103
-0.002258 0.080265 0.241436
-0.001088 0.078504 0.236129
0.000033 0.078465 0.236000
0.001154 0.078541 0.236221
0.002265 0.078180 0.235126
0.003375 0.078050 0.234727
0.004492 0.078096 0.234860
0.005585 0.077796 0.233953
0.006654 0.077304 0.232470
0.007769 0.077421 0.232822
0.008528 0.074391 0.223709
0.009551 0.074092 0.222807
0.010554 0.073708 0.221654
0.011602 0.073675 0.221557
