ply
format ascii 1.0
element vertex 1745
property float x
property float y
property float z
end_header
-0.907474 0.612612 1.756845
-0.896136 0.610652 1.753683
-0.886674 0.609946 1.754010
-0.880616 0.611590 1.761003
-0.866989 0.607960 1.752709
-0.971996 0.746726 2.172047
-0.962214 0.747146 2.174963
-0.958026 0.751968 2.190622
-0.941805 0.747346 2.178695
-0.932674 0.748311 2.182972
-0.319764 0.334540 0.983532
-0.314749 0.334133 0.982470
-0.311686 0.335815 0.987539
-0.305632 0.334278 0.983124
-0.300624 0.333856 0.981974
-0.296032 0.333890 0.982148
-0.291315 0.333782 0.981895
-0.286351 0.333383 0.980771
-0.281347 0.332924 0.979459
-0.276950 0.333179 0.980238
-0.270333 0.330728 0.973042
-0.260906 0.324695 0.955298
-0.248423 0.314581 0.925536
-0.243705 0.314116 0.924153
-0.232494 0.305111 0.897639
-0.224118 0.299565 0.881290
-0.217897 0.296743 0.872951
-0.208950 0.290028 0.853154
-0.150287 0.225981 0.664571
-0.146452 0.224899 0.661333
-0.141581 0.222146 0.653178
-0.136803 0.219419 0.645098
-0.132545 0.217420 0.639156
-0.129267 0.216975 0.637781
-0.126005 0.216535 0.636419
-0.122968 0.216470 0.636158
-0.120168 0.216830 0.637141
-0.117176 0.216853 0.637133
-0.114247 0.216999 0.637485
-0.111776 0.218044 0.640477
-0.108812 0.218160 0.640737
-0.105958 0.218510 0.641683
-0.103057 0.218780 0.642393
-0.100104 0.218954 0.642822
-0.097153 0.219143 0.643291
-0.094264 0.219489 0.644224
-0.091388 0.219890 0.645316
-0.088635 0.220623 0.647384
-0.085355 0.220052 0.645623
-0.082545 0.220695 0.647427
-0.079629 0.221094 0.648514
-0.076573 0.221121 0.648509
-0.073748 0.221846 0.650555
-0.070410 0.221021 0.648055
-0.067152 0.220387 0.646115
-0.064124 0.220483 0.646320
-0.060531 0.218550 0.640577
-0.057528 0.218657 0.640817
-0.023525 0.121416 0.355643
-0.021751 0.120918 0.354150
-0.020225 0.121827 0.356778
-0.018540 0.121865 0.356857
-0.016850 0.121867 0.356834
-0.009396 0.085017 0.248895
-0.008218 0.085036 0.248930
-0.006908 0.083458 0.244296
-0.005603 0.081322 0.238026
-0.004448 0.080838 0.236597
-0.003314 0.080548 0.235733
-0.002187 0.080189 0.234670
-0.001068 0.079745 0.233360
0.000039 0.079827 0.233590
0.001142 0.079486 0.232584
0.002235 0.079143 0.231570
0.003299 0.078305 0.229113
0.004390 0.078394 0.229365
0.005487 0.078512 0.229706
0.006565 0.078377 0.229307
0.007633 0.078166 0.228686
0.008558 0.076732 0.224489
0.009514 0.075857 0.221930
0.010520 0.075519 0.220941
0.011518 0.075194 0.219988
0.012572 0.075252 0.220160
0.013650 0.075434 0.220696
0.014721 0.075554 0.221050
0.015814 0.075766 0.221674
0.016945 0.076118 0.222708
0.018097 0.076518 0.223885
0.019244 0.076856 0.224880
0.020325 0.076905 0.225029
0.021441 0.077076 0.225538
0.022685 0.077670 0.227283
0.023996 0.078429 0.229512
0.025149 0.078629 0.230106
0.026310 0.078836 0.230721
0.027458 0.078985 0.231167
0.028618 0.079158 0.231684
0.029875 0.079577 0.232922
0.031038 0.079724 0.233361
0.032159 0.079757 0.233469
0.033371 0.080005 0.234207
0.034626 0.080338 0.235193
0.035773 0.080405 0.235400
0.037086 0.080833 0.236663
0.038360 0.081151 0.237605
0.039526 0.081230 0.237846
0.040735 0.081389 0.238321
0.041911 0.081476 0.238585
0.043423 0.082193 0.240696
0.044628 0.082308 0.241041
0.045839 0.082428 0.241399
0.047019 0.082489 0.241584
0.048255 0.082640 0.242033
0.049479 0.082766 0.242408
0.050897 0.083202 0.243689
0.052227 0.083478 0.244502
0.053597 0.083806 0.245464
0.054799 0.083862 0.245627
0.056052 0.083991 0.246005
0.057395 0.084247 0.246751
0.058572 0.084255 0.246770
0.059893 0.084465 0.247379
0.061239 0.084701 0.248063
0.062644 0.085009 0.248955
0.063802 0.084976 0.248845
0.065060 0.085074 0.249118
0.066356 0.085219 0.249524
0.067658 0.085366 0.249934
0.068917 0.085454 0.250168
0.070077 0.085418 0.250039
0.071403 0.085583 0.250492
0.072784 0.085806 0.251114
0.074101 0.085949 0.251496
0.075398 0.086063 0.251794
0.076621 0.086091 0.251831
0.078085 0.086384 0.252644
0.079026 0.086100 0.251763
0.080478 0.086372 0.252504
0.079260 0.083812 0.244963
0.079099 0.082428 0.240860
0.080169 0.082348 0.240561
0.081453 0.082487 0.240898
0.081780 0.081666 0.238429
0.082110 0.080871 0.236030
0.083138 0.080775 0.235669
0.084109 0.080627 0.235150
0.084988 0.080396 0.234386
0.085957 0.080255 0.233877
0.086825 0.080024 0.233103
0.087738 0.079840 0.232460
0.088581 0.079598 0.231640
0.089340 0.079286 0.230615
0.090345 0.079199 0.230234
0.091041 0.078845 0.229075
0.091656 0.078432 0.227736
0.092549 0.078262 0.227099
0.093456 0.078108 0.226501
0.094152 0.077783 0.225402
0.094865 0.077479 0.224355
0.095672 0.077258 0.223543
0.096631 0.077163 0.223087
0.097132 0.076709 0.221586
0.098055 0.076594 0.221058
0.098823 0.076362 0.220183
0.099484 0.076052 0.219077
0.100367 0.075917 0.218466
0.101098 0.075672 0.217527
0.101765 0.075383 0.216457
0.102341 0.075034 0.215204
0.102865 0.074654 0.213853
0.103386 0.074279 0.212510
0.103901 0.073908 0.211168
0.104524 0.073620 0.210053
0.104991 0.073228 0.208632
0.105454 0.072841 0.207217
0.106101 0.072587 0.206170
0.106605 0.072241 0.204851
0.107320 0.072043 0.203937
0.107772 0.071674 0.202529
0.108328 0.071380 0.201320
-1.077829 0.711220 1.996848
-1.067385 0.710715 1.998825
-1.057452 0.710544 2.001607
-1.048504 0.711038 2.006134
-0.906767 0.620653 1.753747
-0.897401 0.620023 1.754484
-0.885705 0.617757 1.750479
-0.878833 0.618845 1.755873
-0.867003 0.616429 1.751228
-0.982617 0.757346 2.169520
-0.968521 0.754409 2.162925
-0.958714 0.754788 2.165745
-0.955013 0.760033 2.182463
-0.939175 0.755630 2.171398
-0.930531 0.756982 2.176789
-0.317970 0.337295 0.977857
-0.313336 0.337264 0.977916
-0.309632 0.338248 0.980903
-0.304756 0.337961 0.980191
-0.300088 0.337901 0.980119
-0.295637 0.338087 0.980749
-0.290825 0.337861 0.980170
-0.286107 0.337737 0.979876
-0.281481 0.337720 0.979877
-0.276512 0.337285 0.978654
-0.270544 0.335596 0.973780
-0.256085 0.323135 0.937640
-0.251939 0.323479 0.938644
-0.240489 0.314288 0.911972
-0.231057 0.307451 0.892120
-0.222055 0.300942 0.873213
-0.214967 0.296832 0.861260
-0.211127 0.297134 0.862105
-0.149422 0.227813 0.660824
-0.146379 0.227922 0.661089
-0.141366 0.224900 0.652274
-0.136933 0.222690 0.645807
-0.132874 0.220999 0.640847
-0.129511 0.220416 0.639095
-0.126506 0.220428 0.639066
-0.123424 0.220303 0.638639
-0.120614 0.220673 0.639641
-0.117701 0.220864 0.640126
-0.114739 0.220975 0.640374
-0.112226 0.221977 0.643205
-0.109346 0.222291 0.644041
-0.106467 0.222625 0.644931
-0.103689 0.223195 0.646504
-0.100649 0.223220 0.646496
-0.097852 0.223803 0.648106
-0.095135 0.224612 0.650369
-0.092133 0.224781 0.650777
-0.089452 0.225769 0.653557
-0.086478 0.226066 0.654335
-0.083376 0.226035 0.654167
-0.080420 0.226415 0.655184
-0.077450 0.226783 0.656171
-0.074266 0.226532 0.655365
-0.071093 0.226292 0.654592
-0.067659 0.225163 0.651252
-0.064393 0.224514 0.649298
-0.061083 0.223636 0.646686
-0.056987 0.219640 0.635061
-0.023630 0.123681 0.357422
-0.021745 0.122592 0.354244
-0.020117 0.122888 0.355067
-0.018453 0.123008 0.355381
-0.016816 0.123346 0.356328
-0.015289 0.124652 0.360071
-0.008201 0.086066 0.248576
-0.006954 0.085227 0.246135
-0.005714 0.084130 0.242953
-0.004543 0.083770 0.241897
-0.003302 0.081456 0.235201
-0.002169 0.080769 0.233206
-0.001058 0.080343 0.231965
0.000042 0.080215 0.231584
0.001134 0.079795 0.230365
0.002224 0.079724 0.230151
0.003304 0.079443 0.229332
0.004367 0.078990 0.228018
0.005418 0.078560 0.226772
0.006395 0.077364 0.223315
0.007465 0.077470 0.223617
0.008512 0.077347 0.223260
0.009526 0.076985 0.222214
0.010496 0.076370 0.220437
0.011522 0.076241 0.220067
0.012573 0.076283 0.220189
0.013609 0.076233 0.220044
0.014695 0.076452 0.220679
0.015785 0.076658 0.221277
0.016901 0.076960 0.222154
0.018035 0.077299 0.223137
0.019222 0.077818 0.224639
0.020316 0.077928 0.224962
0.021412 0.078032 0.225268
0.022528 0.078193 0.225740
0.023730 0.078627 0.227001
0.025114 0.079600 0.229816
0.026295 0.079872 0.230610
0.027399 0.079900 0.230701
0.028568 0.080109 0.231311
0.029740 0.080307 0.231894
0.030928 0.080535 0.232562
0.032072 0.080636 0.232861
0.033212 0.080721 0.233115
0.034456 0.081045 0.234060
0.035727 0.081409 0.235122
0.036978 0.081708 0.235993
0.038345 0.082238 0.237533
0.039505 0.082304 0.237734
0.040755 0.082552 0.238456
0.041968 0.082711 0.238925
0.043118 0.082743 0.239022
0.044394 0.083006 0.239788
0.045538 0.083017 0.239827
0.046915 0.083440 0.241055
0.048136 0.083573 0.241443
0.049407 0.083787 0.242062
0.050743 0.084095 0.242954
0.052104 0.084432 0.243930
0.053494 0.084800 0.244991
0.054718 0.084893 0.245259
0.055965 0.085018 0.245616
0.057241 0.085182 0.246085
0.058505 0.085320 0.246476
0.059788 0.085481 0.246932
0.061122 0.085707 0.247573
0.062418 0.085872 0.248038
0.063617 0.085901 0.248104
0.064871 0.086000 0.248373
0.066196 0.086189 0.248898
0.067917 0.086877 0.250862
0.069126 0.086897 0.250894
0.070245 0.086806 0.250601
0.071472 0.086849 0.250695
0.072610 0.086784 0.250471
0.073786 0.086767 0.250383
0.075123 0.086935 0.250828
0.076774 0.087455 0.252283
0.077875 0.087343 0.251910
0.079681 0.088014 0.253790
0.079605 0.086616 0.249701
0.080064 0.085833 0.247383
0.079136 0.083606 0.240903
0.079955 0.083264 0.239848
0.080726 0.082881 0.238674
0.081807 0.082822 0.238429
0.082873 0.082751 0.238142
0.083678 0.082424 0.237115
0.084090 0.081724 0.235011
0.084794 0.081322 0.233759
0.085781 0.081198 0.233302
0.086742 0.081053 0.232779
0.087557 0.080777 0.231875
0.088310 0.080452 0.230825
0.089306 0.080353 0.230417
0.090262 0.080221 0.229909
0.090996 0.079897 0.228844
0.091755 0.079602 0.227858
0.092515 0.079315 0.226887
0.093252 0.079016 0.225875
0.094045 0.078769 0.225008
0.094675 0.078394 0.223765
0.095484 0.078173 0.222958
0.096321 0.077980 0.222222
0.097119 0.077760 0.221402
0.097855 0.077496 0.220448
0.098710 0.077330 0.219766
0.099453 0.077081 0.218839
0.100168 0.076816 0.217859
0.101074 0.076701 0.217295
0.101601 0.076304 0.215923
0.102197 0.075965 0.214710
0.102595 0.075488 0.213096
0.103138 0.075126 0.211799
0.103907 0.074935 0.210972
0.104435 0.074574 0.209659
0.104925 0.074194 0.208283
0.105465 0.073857 0.207014
0.106210 0.073667 0.206150
0.106706 0.073310 0.204806
0.107531 0.073184 0.204094
0.108063 0.072862 0.202824
0.108374 0.072398 0.201147
-1.075914 0.719702 1.990973
-1.064195 0.718317 1.990602
-1.054220 0.718095 1.993310
-1.045274 0.718578 1.997841
-0.904040 0.627280 1.746685
-0.890887 0.623972 1.740028
-0.882904 0.624256 1.743273
-0.877709 0.626537 1.752005
-0.864571 0.623137 1.744753
-0.981872 0.767160 2.166407
-0.964132 0.761299 2.151718
-0.953647 0.761104 2.152943
-0.948968 0.765589 2.167335
-0.935475 0.762985 2.161582
-0.926222 0.763819 2.165491
-0.317221 0.341121 0.975377
-0.313555 0.342134 0.978438
-0.311242 0.344676 0.985856
-0.304444 0.342252 0.979055
-0.299783 0.342194 0.979006
-0.295418 0.342477 0.979920
-0.290600 0.342236 0.979320
-0.285865 0.342088 0.978972
-0.281244 0.342072 0.978990
-0.274644 0.339609 0.971994
-0.266780 0.335474 0.960197
-0.252571 0.323080 0.924751
-0.248132 0.322969 0.924450
-0.238707 0.316247 0.905218
-0.227237 0.306523 0.877383
-0.220781 0.303328 0.868230
-0.213310 0.298592 0.854656
-0.205264 0.292853 0.838206
-0.151203 0.233698 0.668767
-0.146196 0.230768 0.660339
-0.141703 0.228538 0.653914
-0.136863 0.225637 0.645565
-0.133002 0.224256 0.641560
-0.129835 0.224007 0.640794
-0.126770 0.223927 0.640507
-0.123874 0.224150 0.641084
-0.121006 0.224436 0.641840
-0.118432 0.225295 0.644232
-0.115491 0.225484 0.644705
-0.112768 0.226122 0.646460
-0.110057 0.226818 0.648380
-0.107120 0.227075 0.649042
-0.104316 0.227640 0.650582
-0.101400 0.227985 0.651494
-0.098586 0.228589 0.653145
-0.095774 0.229238 0.654925
-0.092816 0.229569 0.655793
-0.090043 0.230397 0.658081
-0.087077 0.230771 0.659072
-0.083986 0.230830 0.659165
-0.080921 0.230971 0.659490
-0.077869 0.231158 0.659949
-0.074603 0.230702 0.658571
-0.071265 0.229977 0.656425
-0.067885 0.229039 0.653676
-0.064517 0.228059 0.650806
-0.061205 0.227186 0.648246
-0.057023 0.222823 0.635728
-0.054041 0.222925 0.635953
-0.025418 0.125872 0.358976
-0.023619 0.125342 0.357430
-0.021920 0.125299 0.357276
-0.020358 0.126096 0.359517
-0.018592 0.125666 0.358260
-0.016912 0.125784 0.358568
-0.015257 0.126140 0.359554
-0.013595 0.126521 0.360615
-0.012310 0.131016 0.373401
-0.010623 0.132037 0.376285
-0.008896 0.132862 0.378612
-0.002162 0.081732 0.232871
-0.001053 0.081362 0.231804
0.000045 0.080784 0.230150
0.001133 0.080555 0.229486
0.002214 0.080315 0.228795
0.003295 0.080219 0.228513
0.004377 0.080198 0.228449
0.005403 0.079363 0.226064
0.006368 0.078045 0.222306
0.007428 0.078109 0.222483
0.008457 0.077872 0.221807
0.009433 0.077247 0.220023
0.010433 0.076926 0.219109
0.011382 0.076324 0.217392
0.012480 0.076733 0.218560
0.013543 0.076881 0.218980
0.014621 0.077090 0.219578
0.015778 0.077657 0.221194
0.016911 0.078042 0.222295
0.018021 0.078285 0.222990
0.019143 0.078549 0.223745
0.020231 0.078651 0.224043
0.021325 0.078765 0.224373
0.022507 0.079178 0.225554
0.023641 0.079393 0.226173
0.024965 0.080199 0.228474
0.026079 0.080289 0.228737
0.027381 0.080931 0.230575
0.028505 0.081015 0.230821
0.029707 0.081307 0.231659
0.030874 0.081487 0.232179
0.032028 0.081620 0.232567
0.033204 0.081799 0.233084
0.034360 0.081916 0.233427
0.035598 0.082218 0.234293
0.036808 0.082438 0.234928
0.038021 0.082651 0.235540
0.039266 0.082921 0.236316
0.040471 0.083091 0.236807
0.041752 0.083404 0.237706
0.043018 0.083674 0.238479
0.044259 0.083879 0.239068
0.045530 0.084133 0.239795
0.046843 0.084448 0.240696
0.048051 0.084562 0.241024
0.049288 0.084722 0.241478
0.050608 0.085013 0.242308
0.051878 0.085210 0.242867
0.053326 0.085684 0.244215
0.054607 0.085875 0.244754
0.055808 0.085935 0.244921
0.057109 0.086143 0.245505
0.058317 0.086205 0.245671
0.059681 0.086491 0.246474
0.061056 0.086781 0.247288
0.062422 0.087048 0.248032
0.063624 0.087080 0.248105
0.064915 0.087230 0.248512
0.066190 0.087355 0.248843
0.067598 0.087646 0.249647
0.068793 0.087657 0.249648
0.070148 0.087869 0.250219
0.071223 0.087727 0.249779
0.072322 0.087618 0.249432
0.073599 0.087726 0.249698
0.075122 0.088119 0.250771
0.076973 0.088878 0.252882
0.077842 0.088497 0.251742
0.078609 0.088013 0.250311
0.079076 0.087213 0.247975
0.079967 0.086898 0.247015
0.078577 0.084149 0.239132
0.078792 0.083171 0.236284
0.079977 0.083231 0.236380
0.080792 0.082910 0.235389
0.081815 0.082809 0.235017
0.082835 0.082706 0.234635
0.083637 0.082393 0.233652
0.084630 0.082272 0.233210
0.085571 0.082105 0.232631
0.086497 0.081927 0.232018
0.087480 0.081808 0.231565
0.088379 0.081613 0.230892
0.089173 0.081328 0.229957
0.090019 0.081096 0.229168
0.090957 0.080952 0.228621
0.091703 0.080642 0.227598
0.092454 0.080345 0.226604
0.093252 0.080094 0.225736
0.094055 0.079853 0.224890
0.094875 0.079632 0.224091
0.095645 0.079374 0.223182
0.096320 0.079044 0.222063
0.097035 0.078753 0.221049
0.097771 0.078486 0.220093
0.098391 0.078132 0.218884
0.099089 0.077847 0.217862
0.099990 0.077726 0.217290
0.100659 0.077428 0.216215
0.101384 0.077180 0.215270
0.102214 0.077015 0.214548
0.102620 0.076537 0.212945
0.102913 0.075986 0.211128
0.103565 0.075708 0.210064
0.104417 0.075580 0.209404
0.104954 0.075228 0.208114
0.105431 0.074840 0.206714
0.106005 0.074528 0.205513
0.106525 0.074185 0.204213
0.107405 0.074096 0.203602
0.107994 0.073810 0.202435
0.108599 0.073539 0.201298
-1.077770 0.730707 1.991997
-1.064731 0.728412 1.989275
-1.056833 0.729624 1.995988
-1.047840 0.730097 2.000551
-0.901054 0.633675 1.739071
-0.891595 0.632924 1.739624
-0.883170 0.632901 1.742070
-0.875950 0.633749 1.746816
-0.864561 0.631568 1.743112
-0.978849 0.775154 2.158211
-0.962581 0.770367 2.146793
-0.953470 0.771268 2.151129
-0.945217 0.772889 2.157400
-0.933495 0.771680 2.155689
-0.923554 0.771933 2.157984
-0.321941 0.350888 0.989696
-0.314368 0.347669 0.980795
-0.310122 0.348090 0.982144
-0.304960 0.347478 0.980565
-0.299728 0.346768 0.978693
-0.295162 0.346818 0.978950
-0.290410 0.346648 0.978574
-0.284991 0.345664 0.975887
-0.279333 0.344353 0.972262
-0.272381 0.341376 0.963921
-0.263545 0.335899 0.948505
-0.255395 0.331122 0.935055
-0.244052 0.321965 0.909225
-0.236936 0.318157 0.898491
-0.229807 0.314194 0.887309
-0.219339 0.305433 0.862570
-0.212436 0.301402 0.851178
-0.205385 0.297001 0.838736
-0.157897 0.242308 0.684215
-0.151286 0.237000 0.669194
-0.146684 0.234679 0.662605
-0.142313 0.232636 0.656799
-0.137438 0.229660 0.648354
-0.133430 0.228031 0.643711
-0.130620 0.228421 0.644762
-0.127362 0.228028 0.643601
-0.124555 0.228442 0.644715
-0.121811 0.228996 0.646222
-0.119111 0.229666 0.648052
-0.116356 0.230259 0.649663
-0.113554 0.230790 0.651099
-0.110772 0.231394 0.652735
-0.108029 0.232114 0.654700
-0.105032 0.232317 0.655204
-0.102229 0.232974 0.656986
-0.099235 0.233223 0.657619
-0.096354 0.233763 0.659070
-0.093335 0.233994 0.659649
-0.090538 0.234815 0.661890
-0.087464 0.234953 0.662204
-0.084419 0.235180 0.662773
-0.081240 0.235039 0.662302
-0.078059 0.234880 0.661782
-0.074762 0.234346 0.660205
-0.071301 0.233229 0.656987
-0.067842 0.232019 0.653509
-0.064433 0.230869 0.650202
-0.060902 0.229147 0.645284
-0.057259 0.226804 0.638622
-0.053169 0.222326 0.625951
-0.025369 0.127354 0.358456
-0.023653 0.127241 0.358106
-0.022040 0.127714 0.359406
-0.020400 0.128099 0.360459
-0.018718 0.128264 0.360894
-0.017212 0.129785 0.365146
-0.015635 0.131055 0.368690
-0.014059 0.132660 0.373178
-0.012283 0.132555 0.372859
-0.010599 0.133587 0.375738
-0.008875 0.134422 0.378061
-0.007121 0.135129 0.380030
-0.001121 0.088052 0.247594
0.000052 0.088138 0.247825
0.001228 0.088234 0.248086
0.002238 0.082155 0.230985
0.003301 0.081379 0.228796
0.004273 0.079287 0.222907
0.005306 0.078945 0.221941
0.006345 0.078774 0.221454
0.007376 0.078575 0.220891
0.008423 0.078574 0.220886
0.009441 0.078335 0.220210
0.010442 0.078010 0.219297
0.011311 0.076850 0.216033
0.012398 0.077238 0.217124
0.013519 0.077763 0.218599
0.014578 0.077884 0.218943
0.015710 0.078350 0.220253
0.016809 0.078605 0.220971
0.017876 0.078689 0.221211
0.018974 0.078892 0.221784
0.020099 0.079179 0.222594
0.021256 0.079557 0.223661
0.022387 0.079806 0.224367
0.023515 0.080022 0.224979
0.024796 0.080719 0.226943
0.026017 0.081169 0.228214
0.027315 0.081813 0.230031
0.028452 0.081946 0.230409
0.029627 0.082174 0.231058
0.030771 0.082302 0.231422
0.031918 0.082428 0.231784
0.033097 0.082627 0.232349
0.034251 0.082750 0.232702
0.035444 0.082960 0.233295
0.036658 0.083201 0.233981
0.037915 0.083524 0.234894
0.039139 0.083760 0.235562
0.040345 0.083944 0.236083
0.041562 0.084140 0.236638
0.042855 0.084474 0.237579
0.044250 0.084988 0.239028
0.045541 0.085282 0.239855
0.046775 0.085456 0.240345
0.047977 0.085566 0.240653
0.049180 0.085672 0.240950
0.050484 0.085943 0.241710
0.051798 0.086222 0.242488
0.053237 0.086690 0.243800
0.054529 0.086904 0.244394
0.055701 0.086922 0.244436
0.056932 0.087030 0.244728
0.058242 0.087251 0.245337
0.059346 0.087161 0.245069
0.060787 0.087560 0.246173
0.062076 0.087729 0.246631
0.063460 0.088023 0.247436
0.064658 0.088054 0.247498
0.065920 0.088168 0.247793
0.067231 0.088343 0.248255
0.068491 0.088445 0.248511
0.069651 0.088419 0.248400
0.070827 0.088411 0.248342
0.071910 0.088291 0.247961
0.073161 0.088376 0.248156
0.075019 0.089182 0.250369
0.076678 0.089728 0.251850
0.077617 0.089428 0.250952
0.078306 0.088854 0.249279
0.079678 0.089060 0.249793
0.079376 0.087416 0.245114
0.079197 0.085953 0.240941
0.079319 0.084855 0.237786
0.079859 0.084227 0.235949
0.081531 0.084795 0.237455
0.081493 0.083593 0.234002
0.082379 0.083358 0.233252
0.083406 0.083270 0.232908
0.084305 0.083058 0.232212
0.085161 0.082811 0.231412
0.086333 0.082872 0.231469
0.087376 0.082809 0.231173
0.088262 0.082602 0.230469
0.089106 0.082360 0.229661
0.089808 0.081996 0.228506
0.090752 0.081857 0.227975
0.091416 0.081472 0.226751
0.092167 0.081173 0.225760
0.092973 0.080929 0.224916
0.093782 0.080692 0.224087
0.094643 0.080507 0.223391
0.095261 0.080119 0.222129
0.096026 0.079863 0.221223
0.096881 0.079686 0.220529
0.097424 0.079260 0.219139
0.098248 0.079068 0.218388
0.099031 0.078849 0.217553
0.099686 0.078532 0.216440
0.100456 0.078313 0.215587
0.101236 0.078104 0.214756
0.101851 0.077775 0.213581
0.102592 0.077546 0.212675
0.103048 0.077110 0.211189
0.103677 0.076809 0.210067
0.104331 0.076533 0.209001
0.104958 0.076244 0.207887
0.105492 0.075892 0.206593
0.106082 0.075587 0.205414
0.106432 0.075118 0.203781
0.107355 0.075058 0.203244
0.107906 0.074742 0.202000
0.108369 0.074371 0.200594
-1.076885 0.739864 1.987868
-1.065133 0.738424 1.987612
-1.055520 0.738456 1.991170
-1.046513 0.738916 1.995748
-0.905082 0.645014 1.744924
-0.890593 0.640661 1.735820
-0.881749 0.640325 1.737474
-0.875393 0.641809 1.743964
-0.864470 0.639941 1.741249
-0.975130 0.782528 2.148430
-0.962006 0.780195 2.143987
-0.951801 0.780206 2.145891
-0.942724 0.781152 2.150289
-0.932693 0.781320 2.152465
-0.922312 0.781196 2.153759
-0.323907 0.357751 0.995522
-0.314338 0.352284 0.980504
-0.311134 0.353894 0.985162
-0.304524 0.351621 0.978996
-0.299574 0.351225 0.978037
-0.294686 0.350890 0.977235
-0.289782 0.350524 0.976334
-0.284390 0.349548 0.973717
-0.278412 0.347808 0.968959
-0.270695 0.343801 0.957873
-0.263040 0.339740 0.946620
-0.253219 0.332693 0.927037
-0.244324 0.326635 0.910197
-0.235996 0.321134 0.894899
-0.227227 0.314823 0.877332
-0.218954 0.308978 0.861054
-0.211253 0.303734 0.846444
-0.203510 0.298227 0.831094
-0.157663 0.245188 0.683242
-0.152513 0.242120 0.674667
-0.147364 0.238923 0.665732
-0.142449 0.235977 0.657490
-0.138219 0.234059 0.652109
-0.134675 0.233242 0.649794
-0.131380 0.232827 0.648595
-0.128395 0.232958 0.648914
-0.125613 0.233470 0.650292
-0.122921 0.234181 0.652221
-0.120080 0.234637 0.653436
-0.117230 0.235099 0.654666
-0.114559 0.235956 0.656992
-0.111474 0.235982 0.657004
-0.108792 0.236890 0.659471
-0.105912 0.237406 0.660843
-0.102903 0.237657 0.661475
-0.099721 0.237510 0.661001
-0.096812 0.238027 0.662373
-0.093750 0.238189 0.662756
-0.090780 0.238605 0.663844
-0.087785 0.238984 0.664830
-0.084706 0.239152 0.665227
-0.081537 0.239071 0.664933
-0.078258 0.238648 0.663688
-0.074851 0.237783 0.661214
-0.071473 0.236937 0.658796
-0.067844 0.235149 0.653758
-0.064285 0.233444 0.648952
-0.061022 0.232695 0.646805
-0.057700 0.231630 0.643783
-0.054022 0.228942 0.636251
-0.051035 0.229039 0.636462
-0.025296 0.128702 0.357578
-0.023666 0.129037 0.358477
-0.021949 0.128911 0.358095
-0.020375 0.129679 0.360199
-0.018720 0.130020 0.361119
-0.017069 0.130465 0.362326
-0.015804 0.134283 0.372903
-0.014091 0.134783 0.374266
-0.012296 0.134524 0.373521
-0.010689 0.136591 0.379238
-0.008895 0.136607 0.379259
-0.007103 0.136691 0.379471
-0.005285 0.136133 0.377900
-0.003518 0.137037 0.380391
-0.001128 0.090030 0.249895
0.000056 0.089991 0.249778
0.001236 0.089710 0.248988
0.002425 0.090063 0.249957
0.003609 0.090061 0.249943
0.004672 0.087782 0.243613
0.005281 0.079566 0.220806
0.006304 0.079264 0.219961
0.007328 0.079072 0.219426
0.008334 0.078747 0.218520
0.009307 0.078224 0.217066
0.010303 0.077974 0.216369
0.011223 0.077245 0.214343
0.012271 0.077442 0.214892
0.013406 0.078121 0.216775
0.014559 0.078801 0.218662
0.015620 0.078921 0.218996
0.016679 0.079018 0.219266
0.017742 0.079124 0.219560
0.018888 0.079566 0.220789
0.020019 0.079899 0.221716
0.021229 0.080500 0.223388
0.022313 0.080592 0.223645
0.023365 0.080562 0.223567
0.024547 0.080963 0.224682
0.026180 0.082756 0.229662
0.027330 0.082941 0.230180
0.028451 0.083026 0.230420
0.029564 0.083081 0.230578
0.030698 0.083190 0.230885
0.031837 0.083304 0.231206
0.032975 0.083409 0.231502
0.034106 0.083490 0.231730
0.035213 0.083509 0.231786
0.036574 0.084109 0.233455
0.037873 0.084537 0.234648
0.039068 0.084715 0.235143
0.040307 0.084974 0.235865
0.041583 0.085295 0.236757
0.042903 0.085689 0.237851
0.044136 0.085891 0.238413
0.045364 0.086075 0.238921
0.046610 0.086281 0.239493
0.047858 0.086484 0.240052
0.049081 0.086631 0.240455
0.050298 0.086762 0.240813
0.051612 0.087049 0.241604
0.052976 0.087408 0.242590
0.054334 0.087741 0.243507
0.055488 0.087738 0.243485
0.056738 0.087883 0.243874
0.057957 0.087975 0.244115
0.059174 0.088061 0.244335
0.060438 0.088212 0.244734
0.061777 0.088464 0.245412
0.063172 0.088786 0.246280
0.064418 0.088890 0.246542
0.065685 0.089019 0.246871
0.067078 0.089311 0.247648
0.068424 0.089531 0.248222
0.069522 0.089425 0.247891
0.070717 0.089445 0.247904
0.071893 0.089441 0.247847
0.072805 0.089113 0.246891
0.074346 0.089554 0.248059
0.076171 0.090318 0.250120
0.076998 0.089892 0.248879
0.078031 0.089717 0.248330
0.078752 0.089192 0.246811
0.079417 0.088622 0.245159
0.079139 0.087030 0.240681
0.079472 0.086146 0.238159
0.080235 0.085747 0.236972
0.080975 0.085334 0.235743
0.081937 0.085163 0.235179
0.082663 0.084755 0.233955
0.083263 0.084231 0.232405
0.084030 0.083887 0.231349
0.085118 0.083867 0.231182
0.086034 0.083681 0.230551
0.087023 0.083570 0.230121
0.087990 0.083441 0.229633
0.088892 0.083254 0.228983
0.089720 0.083002 0.228148
0.090632 0.082834 0.227535
0.091531 0.082658 0.226896
0.092302 0.082372 0.225947
0.092997 0.082025 0.224824
0.093750 0.081736 0.223856
0.094541 0.081487 0.222988
0.095059 0.081011 0.221494
0.095760 0.080699 0.220440
0.096348 0.080301 0.219144
0.097105 0.080049 0.218242
0.097978 0.079899 0.217604
0.098737 0.079659 0.216717
0.099481 0.079412 0.215800
0.100377 0.079290 0.215216
0.101163 0.079084 0.214392
0.101813 0.078778 0.213288
0.102432 0.078454 0.212125
0.102945 0.078056 0.210754
0.103491 0.077690 0.209461
0.104114 0.077389 0.208330
0.104743 0.077098 0.207217
0.105372 0.076812 0.206107
0.105902 0.076460 0.204808
0.106500 0.076164 0.203647
0.107090 0.075867 0.202472
0.107830 0.075681 0.201579
0.108527 0.075468 0.200599
-1.075626 0.748747 1.982966
-1.063837 0.747254 1.982699
-1.048290 0.743070 1.975124
-1.039318 0.743515 1.979693
-0.909774 0.656908 1.751969
-0.892075 0.650191 1.736789
-0.883073 0.649745 1.738225
-0.876711 0.651253 1.744785
-0.865841 0.649409 1.742265
-0.974264 0.792144 2.144876
-0.961024 0.789678 2.140213
-0.951516 0.790259 2.143714
-0.944150 0.792652 2.152055
-0.933690 0.792472 2.153332
-0.924341 0.793240 2.157111
-0.319895 0.357982 0.982959
-0.314813 0.357473 0.981769
-0.310100 0.357373 0.981687
-0.304641 0.356399 0.979187
-0.298801 0.354942 0.975343
-0.293868 0.354533 0.974365
-0.288883 0.354049 0.973163
-0.283542 0.353107 0.970688
-0.277826 0.351658 0.966808
-0.269986 0.347428 0.955269
-0.261197 0.341813 0.939904
-0.252690 0.336381 0.925031
-0.248586 0.336721 0.926019
-0.235669 0.324924 0.893616
-0.226724 0.318274 0.875358
-0.217956 0.311631 0.857111
-0.210882 0.307206 0.844952
-0.207104 0.307504 0.845778
-0.158348 0.249507 0.686239
-0.153190 0.246409 0.677702
-0.147717 0.242661 0.667372
-0.142822 0.239722 0.659264
-0.138781 0.238117 0.654821
-0.135173 0.237198 0.652260
-0.131766 0.236599 0.650577
-0.128796 0.236774 0.651017
-0.126254 0.237765 0.653700
-0.123342 0.238090 0.654547
-0.120891 0.239347 0.657954
-0.118059 0.239894 0.659406
-0.115244 0.240507 0.661037
-0.112527 0.241364 0.663338
-0.109520 0.241631 0.664015
-0.106588 0.242085 0.665202
-0.103415 0.242002 0.664914
-0.100344 0.242160 0.665287
-0.097133 0.241981 0.664733
-0.094111 0.242277 0.665480
-0.091147 0.242747 0.666707
-0.088116 0.243065 0.667517
-0.084987 0.243128 0.667623
-0.081730 0.242816 0.666703
-0.078437 0.242368 0.665407
-0.074946 0.241247 0.662266
-0.071458 0.240038 0.658882
-0.067961 0.238687 0.655111
-0.064235 0.236365 0.648677
-0.060940 0.235477 0.646178
-0.057675 0.234614 0.643753
-0.054171 0.232634 0.638261
-0.050048 0.227601 0.624398
-0.047115 0.227692 0.624592
-0.025543 0.131699 0.361239
-0.023756 0.131259 0.360002
-0.022062 0.131313 0.360119
-0.020445 0.131870 0.361619
-0.018794 0.132286 0.362733
-0.017285 0.133897 0.367122
-0.015895 0.136882 0.375280
-0.014195 0.137618 0.377274
-0.012422 0.137757 0.377629
-0.010689 0.138457 0.379525
-0.008940 0.139199 0.381536
-0.007114 0.138804 0.380432
-0.005299 0.138460 0.379471
-0.003506 0.138597 0.379825
-0.001671 0.135602 0.371600
0.000090 0.137352 0.376379
0.001232 0.090320 0.247491
0.002374 0.089182 0.244363
0.003511 0.088685 0.242992
0.004668 0.088782 0.243250
0.005821 0.088798 0.243289
0.006973 0.088790 0.243261
0.007988 0.087287 0.239137
0.008308 0.079507 0.217821
0.009197 0.078280 0.214455
0.010195 0.078143 0.214076
0.011211 0.078151 0.214096
0.012258 0.078356 0.214657
0.013320 0.078620 0.215380
0.014429 0.079106 0.216709
0.015510 0.079379 0.217457
0.016617 0.079747 0.218465
0.017743 0.080154 0.219583
0.018874 0.080539 0.220637
0.020058 0.081094 0.222159
0.021162 0.081288 0.222694
0.022255 0.081425 0.223071
0.023317 0.081439 0.223112
0.024389 0.081486 0.223243
0.025671 0.082204 0.225212
0.027245 0.083758 0.229473
0.028401 0.083957 0.230022
0.029508 0.084005 0.230156
0.030637 0.084106 0.230436
0.031760 0.084188 0.230662
0.033009 0.084584 0.231751
0.034046 0.084430 0.231331
0.035260 0.084709 0.232097
0.036478 0.084982 0.232848
0.037640 0.085113 0.233207
0.038869 0.085382 0.233945
0.040253 0.085967 0.235548
0.041681 0.086613 0.237318
0.042865 0.086730 0.237636
0.044017 0.086778 0.237767
0.045256 0.086991 0.238346
0.046489 0.087183 0.238868
0.047723 0.087367 0.239367
0.048956 0.087540 0.239833
0.050188 0.087704 0.240275
0.051516 0.088023 0.241140
0.052844 0.088331 0.241971
0.054146 0.088580 0.242641
0.055335 0.088640 0.242792
0.056506 0.088669 0.242854
0.057786 0.088863 0.243368
0.058989 0.088934 0.243543
0.060334 0.089212 0.244281
0.061721 0.089541 0.245155
0.063023 0.089736 0.245662
0.064321 0.089918 0.246131
0.065548 0.089996 0.246312
0.066891 0.090228 0.246911
0.068003 0.090145 0.246646
0.069302 0.090309 0.247053
0.070805 0.090728 0.248154
0.071523 0.090145 0.246510
0.072931 0.090436 0.247254
0.074240 0.090598 0.247640
0.075831 0.091092 0.248931
0.077311 0.091439 0.249816
0.078384 0.091302 0.249374
0.078860 0.090484 0.247066
0.078934 0.089236 0.243584
0.078639 0.087613 0.239074
0.078838 0.086579 0.236171
0.079230 0.085782 0.233912
0.080272 0.085702 0.233601
0.081266 0.085572 0.233152
0.082075 0.085255 0.232188
0.082974 0.085038 0.231491
0.083917 0.084871 0.230925
0.084886 0.084735 0.230437
0.085839 0.084586 0.229909
0.086801 0.084449 0.229408
0.087784 0.084336 0.228966
0.088640 0.084105 0.228198
0.089532 0.083914 0.227532
0.090506 0.083803 0.227076
0.091366 0.083590 0.226339
0.092161 0.083323 0.225449
0.092890 0.083004 0.224409
0.093621 0.082694 0.223387
0.094351 0.082389 0.222375
0.095033 0.082050 0.221262
0.095657 0.081669 0.220027
0.096285 0.081300 0.218820
0.097042 0.081046 0.217914
0.097727 0.080738 0.216855
0.098469 0.080484 0.215932
0.099191 0.080217 0.214968
0.100017 0.080041 0.214236
0.100823 0.079851 0.213458
0.101535 0.079592 0.212485
0.102246 0.079338 0.211515
0.102805 0.078971 0.210235
0.103286 0.078552 0.208807
0.103930 0.078265 0.207717
0.104526 0.077946 0.206536
0.105111 0.077626 0.205338
0.105505 0.077172 0.203776
0.105880 0.076713 0.202189
0.106795 0.076650 0.201633
0.107247 0.076258 0.200200
0.107983 0.076074 0.199297
-1.074183 0.757477 1.977640
-1.060554 0.754646 1.974005
-1.047876 0.752447 1.971852
-1.038881 0.752878 1.976442
-0.910186 0.665761 1.750689
-0.893143 0.659443 1.736876
-0.884289 0.659110 1.738688
-0.877009 0.659955 1.743504
-0.866128 0.658081 1.741031
-0.991726 0.808344 2.156707
-0.975921 0.803821 2.146809
-0.961901 0.800688 2.140513
-0.950024 0.799292 2.138759
-0.945462 0.804087 2.153493
-0.933468 0.802597 2.151322
-0.925403 0.804491 2.158142
-0.916006 0.805257 2.161862
-0.335258 0.374635 1.014944
-0.321911 0.364930 0.988897
-0.315079 0.362435 0.982360
-0.310333 0.362301 0.982202
-0.304051 0.360342 0.977083
-0.298438 0.359129 0.973966
-0.293554 0.358770 0.973150
-0.288478 0.358160 0.971640
-0.283231 0.357315 0.969478
-0.277263 0.355519 0.964719
-0.270205 0.352241 0.955926
-0.261483 0.346647 0.940833
-0.257310 0.346995 0.941855
-0.227880 0.324067 0.879777
-0.218967 0.317158 0.861054
-0.211362 0.311918 0.846851
-0.158491 0.252989 0.686874
-0.153801 0.250618 0.680428
-0.148612 0.247317 0.671452
-0.143771 0.244462 0.663682
-0.139751 0.242910 0.659445
-0.135936 0.241650 0.655998
-0.132869 0.241694 0.656086
-0.129770 0.241679 0.656013
-0.127337 0.242934 0.659383
-0.124550 0.243562 0.661045
-0.121699 0.244093 0.662445
-0.119214 0.245405 0.665960
-0.116354 0.245996 0.667516
-0.113483 0.246596 0.669092
-0.110530 0.247048 0.670265
-0.107344 0.246989 0.670051
-0.104371 0.247432 0.671199
-0.101048 0.247050 0.670104
-0.097946 0.247197 0.670446
-0.094861 0.247402 0.670941
-0.091729 0.247493 0.671129
-0.088494 0.247303 0.670554
-0.085134 0.246740 0.668965
-0.081903 0.246519 0.668306
-0.078390 0.245399 0.665209
-0.074974 0.244500 0.662710
-0.071464 0.243204 0.659138
-0.067745 0.241049 0.653238
-0.064204 0.239350 0.648576
-0.060485 0.236788 0.641577
-0.057208 0.235776 0.638779
-0.054082 0.235307 0.637452
-0.050487 0.232623 0.630127
-0.047527 0.232714 0.630323
-0.025101 0.131128 0.355141
-0.023414 0.131083 0.354989
-0.021719 0.130982 0.354688
-0.020121 0.131500 0.356066
-0.018498 0.131935 0.357216
-0.016914 0.132764 0.359436
-0.015963 0.139303 0.377113
-0.014182 0.139334 0.377173
-0.012417 0.139548 0.377728
-0.010732 0.140901 0.381367
-0.008908 0.140590 0.380504
-0.007099 0.140436 0.380065
-0.005277 0.139814 0.378363
-0.003479 0.139550 0.377630
-0.001686 0.139129 0.376474
0.000096 0.138891 0.375814
0.001864 0.138016 0.373431
0.003654 0.138855 0.375687
0.003529 0.090196 0.244026
0.004607 0.088700 0.239971
0.005710 0.088178 0.238552
0.006849 0.088288 0.238842
0.007978 0.088266 0.238778
0.008938 0.086607 0.234286
0.009946 0.085725 0.231896
0.010187 0.079071 0.213891
0.011226 0.079253 0.214382
0.012263 0.079390 0.214750
0.013279 0.079376 0.214712
0.014418 0.080052 0.216539
0.015511 0.080397 0.217470
0.016675 0.081046 0.219227
0.017754 0.081230 0.219722
0.018798 0.081240 0.219750
0.019966 0.081757 0.221151
0.021081 0.082016 0.221852
0.022198 0.082258 0.222508
0.023219 0.082136 0.222179
0.024537 0.083034 0.224609
0.025683 0.083297 0.225321
0.026999 0.084069 0.227410
0.028147 0.084276 0.227973
0.029354 0.084640 0.228958
0.030449 0.084665 0.229028
0.031543 0.084686 0.229087
0.032744 0.084984 0.229894
0.033827 0.084965 0.229843
0.034956 0.085060 0.230099
0.036246 0.085530 0.231371
0.037425 0.085717 0.231877
0.038626 0.085942 0.232482
0.040208 0.086979 0.235285
0.041581 0.087519 0.236745
0.042620 0.087346 0.236272
0.043799 0.087463 0.236584
0.045062 0.087736 0.237318
0.046370 0.088080 0.238243
0.047644 0.088347 0.238956
0.048811 0.088407 0.239108
0.050051 0.088593 0.239601
0.051361 0.088890 0.240394
0.052809 0.089411 0.241788
0.054028 0.089528 0.242089
0.055296 0.089720 0.242591
0.056538 0.089864 0.242962
0.057757 0.089964 0.243211
0.059031 0.090146 0.243680
0.060235 0.090215 0.243841
0.061560 0.090459 0.244472
0.062768 0.090525 0.244622
0.064061 0.090711 0.245090
0.065311 0.090829 0.245372
0.066760 0.091214 0.246375
0.068046 0.091367 0.246746
0.069096 0.091204 0.246259
0.070230 0.091154 0.246076
0.071471 0.091243 0.246266
0.072607 0.091197 0.246086
0.074198 0.091716 0.247427
0.075345 0.091677 0.247257
0.076305 0.091416 0.246486
0.077353 0.091266 0.246010
0.078210 0.090898 0.244944
0.078452 0.089838 0.242007
0.078878 0.089015 0.239707
0.079415 0.088340 0.237802
0.079872 0.087595 0.235706
0.080179 0.086709 0.233228
0.081112 0.086515 0.232606
0.081867 0.086139 0.231490
0.082724 0.085878 0.230679
0.083637 0.085681 0.230035
0.084513 0.085453 0.229300
0.085447 0.085288 0.228733
0.086476 0.085220 0.228418
0.087448 0.085100 0.227955
0.088339 0.084903 0.227283
0.089290 0.084769 0.226772
0.090171 0.084572 0.226086
0.091012 0.084343 0.225309
0.091976 0.084232 0.224838
0.092654 0.083864 0.223675
0.093343 0.083514 0.222556
0.094149 0.083276 0.221725
0.094820 0.082925 0.220587
0.095497 0.082587 0.219479
0.096098 0.082191 0.218206
0.096730 0.081830 0.217021
0.097503 0.081595 0.216161
0.098260 0.081351 0.215270
0.098944 0.081053 0.214224
0.099759 0.080866 0.213466
0.100501 0.080626 0.212555
0.101279 0.080419 0.211722
0.102079 0.080232 0.210934
0.102604 0.079836 0.209584
0.103097 0.079422 0.208178
0.103584 0.079013 0.206773
0.104154 0.078673 0.205540
0.104726 0.078342 0.204319
0.105173 0.077924 0.202861
0.105740 0.077602 0.201640
0.105967 0.077039 0.199781
0.106827 0.076942 0.199119
0.107460 0.076685 0.198028
-1.073808 0.766946 1.974191
-1.058715 0.763022 1.967921
-1.043106 0.758650 1.960310
-1.034125 0.759064 1.964903
-0.905146 0.670585 1.738860
-0.893683 0.668324 1.735863
-0.883074 0.666664 1.734300
-0.877650 0.668926 1.742833
-0.863869 0.664801 1.734616
-0.991024 0.818154 2.153328
-0.973484 0.812120 2.139669
-0.963695 0.812493 2.142782
-0.953979 0.812936 2.145994
-0.945003 0.814026 2.150831
-0.934117 0.813479 2.151257
-0.913477 0.804330 2.128835
-0.903026 0.804050 2.129786
-0.338261 0.377463 1.009040
-0.334864 0.379006 1.013450
-0.319942 0.367362 0.982573
-0.315054 0.367067 0.982022
-0.308569 0.364875 0.976378
-0.303929 0.364831 0.976466
-0.298190 0.363446 0.972948
-0.293355 0.363138 0.972295
-0.288102 0.362294 0.970194
-0.282879 0.361462 0.968109
-0.277152 0.359948 0.964183
-0.270293 0.356889 0.956103
-0.262336 0.352253 0.943785
-0.253780 0.346639 0.928832
-0.246143 0.342105 0.916757
-0.242061 0.342439 0.917719
-0.227561 0.327779 0.878484
-0.218331 0.320307 0.858503
-0.210388 0.314479 0.842914
-0.159065 0.257176 0.689369
-0.153796 0.253839 0.680422
-0.148431 0.250197 0.670655
-0.143902 0.247838 0.664319
-0.139668 0.245894 0.659091
-0.136111 0.245079 0.656889
-0.133522 0.246011 0.659363
-0.130837 0.246806 0.661467
-0.127754 0.246874 0.661616
-0.125363 0.248313 0.665440
-0.122608 0.249087 0.667476
-0.119997 0.250203 0.670428
-0.117263 0.251116 0.672831
-0.114261 0.251489 0.673784
-0.111343 0.252075 0.675307
-0.108145 0.252045 0.675177
-0.105097 0.252369 0.675995
-0.101839 0.252196 0.675480
-0.098708 0.252338 0.675806
-0.095429 0.252100 0.675113
-0.092081 0.251654 0.673863
-0.088859 0.251534 0.673487
-0.085409 0.250737 0.671295
-0.081986 0.249959 0.669156
-0.078413 0.248645 0.665582
-0.074947 0.247577 0.662667
-0.071435 0.246255 0.659072
-0.067712 0.244055 0.653127
-0.064137 0.242201 0.648112
-0.060540 0.240080 0.642382
-0.057430 0.239762 0.641478
-0.054110 0.238487 0.638013
-0.050686 0.236578 0.632856
-0.047714 0.236670 0.633052
-0.025089 0.132772 0.355115
-0.023338 0.132358 0.353981
-0.021596 0.131939 0.352835
-0.020097 0.133063 0.355815
-0.018446 0.133291 0.356397
-0.016868 0.134144 0.358656
-0.015532 0.137322 0.367127
-0.014011 0.139472 0.372851
-0.012352 0.140665 0.376016
-0.010594 0.140943 0.376739
-0.008843 0.141454 0.378082
-0.007099 0.142351 0.380460
-0.005284 0.141957 0.379389
-0.003478 0.141516 0.378191
-0.001684 0.141216 0.377372
0.000102 0.140841 0.376355
0.001883 0.140794 0.376212
0.003654 0.140389 0.375117
0.005429 0.140386 0.375096
0.007105 0.138436 0.369872
0.005704 0.089152 0.238190
0.006817 0.088962 0.237674
0.007895 0.088427 0.236239
0.008993 0.088222 0.235688
0.010109 0.088219 0.235674
0.011192 0.087958 0.234972
0.012303 0.087941 0.234923
0.012349 0.080949 0.216241
0.013362 0.080876 0.216046
0.014401 0.080963 0.216275
0.015417 0.080915 0.216147
0.017789 0.087549 0.233865
0.018967 0.087871 0.234726
0.019213 0.084080 0.224597
0.020193 0.083732 0.223668
0.021213 0.083572 0.223240
0.022245 0.083475 0.222980
0.023292 0.083440 0.222886
0.024410 0.083651 0.223450
0.025568 0.083976 0.224318
0.026768 0.084405 0.225464
0.028163 0.085394 0.228107
0.029335 0.085657 0.228808
0.030512 0.085917 0.229503
0.031638 0.086020 0.229778
0.032797 0.086202 0.230263
0.033955 0.086372 0.230716
0.035070 0.086422 0.230849
0.036188 0.086477 0.230993
0.037364 0.086665 0.231494
0.038524 0.086804 0.231861
0.040123 0.087897 0.234777
0.041483 0.088423 0.236179
0.042721 0.088666 0.236822
0.043790 0.088557 0.236523
0.044983 0.088695 0.236884
0.046212 0.088897 0.237414
0.047431 0.089071 0.237870
0.048684 0.089298 0.238465
0.049904 0.089456 0.238873
0.051219 0.089775 0.239709
0.052561 0.090123 0.240623
0.053920 0.090487 0.241577
0.055135 0.090598 0.241853
0.056383 0.090758 0.242259
0.057612 0.090881 0.242563
0.058878 0.091058 0.243010
0.060136 0.091215 0.243400
0.061266 0.091175 0.243262
0.062474 0.091251 0.243430
0.063862 0.091581 0.244274
0.065718 0.092560 0.246847
0.067773 0.093778 0.250052
0.069688 0.094765 0.252638
0.070040 0.093629 0.249559
0.070861 0.093146 0.248219
0.071990 0.093078 0.247983
0.073082 0.092965 0.247622
0.074115 0.092781 0.247069
0.075172 0.092633 0.246606
0.075990 0.092199 0.245381
0.076736 0.091692 0.243957
0.077757 0.091525 0.243433
0.078357 0.090873 0.241617
0.078364 0.089563 0.238049
0.079158 0.089177 0.236930
0.079771 0.088600 0.235303
0.080302 0.087950 0.233477
0.081039 0.087539 0.232283
0.081820 0.087187 0.231239
0.082457 0.086693 0.229815
0.083289 0.086413 0.228954
0.084181 0.086203 0.228272
0.085146 0.086072 0.227793
0.086105 0.085938 0.227303
0.086996 0.085740 0.226636
0.088057 0.085713 0.226413
0.088960 0.085534 0.225784
0.089900 0.085394 0.225253
0.090654 0.085084 0.224262
0.091552 0.084913 0.223636
0.092390 0.084692 0.222867
0.093073 0.084336 0.221738
0.093681 0.083919 0.220444
0.094502 0.083701 0.219663
0.095146 0.083334 0.218482
0.095634 0.082839 0.216960
0.096345 0.082545 0.215958
0.097115 0.082308 0.215095
0.097931 0.082114 0.214338
0.098767 0.081941 0.213624
0.099658 0.081816 0.213026
0.100411 0.081582 0.212135
0.101087 0.081291 0.211085
0.101945 0.081150 0.210414
0.102522 0.080790 0.209165
0.102858 0.080250 0.207441
0.103368 0.079854 0.206080
0.104013 0.079570 0.204994
0.104462 0.079142 0.203529
0.104881 0.078699 0.202014
0.105563 0.078461 0.201013
0.105939 0.078002 0.199432
0.106547 0.077720 0.198292
0.107422 0.077636 0.197642
-1.046675 0.750316 1.900465
-1.037788 0.750628 1.905210
-1.052434 0.768122 1.953506
-1.032122 0.760189 1.937038
-1.023208 0.760584 1.941607
-0.902155 0.676852 1.730909
-0.892588 0.675977 1.731599
-0.883990 0.675826 1.734027
-0.878202 0.677842 1.741913
-0.868719 0.677018 1.742401
-0.990330 0.827958 2.149897
-0.975134 0.823820 2.141439
-0.961944 0.821309 2.137098
-0.960324 0.828729 2.158517
-0.950845 0.829454 2.162432
-0.933727 0.823459 2.148730
-0.924313 0.824202 2.152513
-0.337870 0.381813 1.007533
-0.329097 0.377210 0.995682
-0.316082 0.367540 0.970426
-0.312425 0.368627 0.973550
-0.308920 0.369929 0.977227
-0.302388 0.367592 0.971271
-0.297063 0.366671 0.969041
-0.292284 0.366408 0.968531
-0.287360 0.365951 0.967496
-0.281508 0.364280 0.963233
-0.275654 0.362551 0.958804
-0.268988 0.359680 0.951337
-0.260168 0.353780 0.935847
-0.256008 0.354126 0.936863
-0.244400 0.343999 0.910160
-0.227243 0.331481 0.877177
-0.216256 0.321296 0.850278
-0.212450 0.321598 0.851122
-0.155339 0.254344 0.673212
-0.152709 0.255250 0.675614
-0.147247 0.251359 0.665315
-0.142805 0.249077 0.659272
-0.139426 0.248589 0.657972
-0.136164 0.248295 0.657179
-0.133217 0.248573 0.657897
-0.130586 0.249468 0.660246
-0.127940 0.250380 0.662635
-0.125140 0.251027 0.664319
-0.122733 0.252517 0.668231
-0.120220 0.253861 0.671753
-0.117332 0.254465 0.673315
-0.114740 0.255761 0.676706
-0.111353 0.255311 0.675472
-0.108211 0.255412 0.675697
-0.105220 0.255886 0.676906
-0.102011 0.255846 0.676751
-0.098651 0.255409 0.675547
-0.095229 0.254780 0.673834
-0.092038 0.254747 0.673698
-0.088481 0.253661 0.670773
-0.084884 0.252377 0.667325
-0.081665 0.252164 0.666710
-0.078089 0.250785 0.663011
-0.074639 0.249713 0.660124
-0.071079 0.248165 0.655981
-0.067474 0.246309 0.651022
-0.063831 0.244134 0.645223
-0.060254 0.242008 0.639554
-0.057366 0.242568 0.640984
-0.054097 0.241489 0.638084
-0.050689 0.239631 0.633125
-0.047716 0.239723 0.633321
-0.024848 0.133188 0.351841
-0.023190 0.133217 0.351891
-0.021560 0.133420 0.352403
-0.020075 0.134637 0.355592
-0.018445 0.135010 0.356554
-0.016837 0.135634 0.358180
-0.015597 0.139694 0.368878
-0.013997 0.141149 0.372695
-0.012330 0.142259 0.375605
-0.010576 0.142563 0.376385
-0.008836 0.143222 0.378105
-0.007066 0.143606 0.379099
-0.005255 0.143118 0.377791
-0.003460 0.142814 0.376972
-0.001672 0.142499 0.376121
0.000107 0.141901 0.374528
0.001871 0.141238 0.372762
0.003631 0.141076 0.372320
0.005352 0.139973 0.369396
0.007099 0.139943 0.369305
0.008847 0.139934 0.369270
0.008016 0.090872 0.239787
0.009150 0.090860 0.239751
0.010195 0.090056 0.237623
0.011113 0.088407 0.233268
0.012093 0.087508 0.230891
0.013036 0.086508 0.228248
0.013353 0.081822 0.215883
0.014426 0.082111 0.216643
0.015514 0.082438 0.217502
0.017505 0.087225 0.230130
0.018632 0.087394 0.230575
0.019750 0.087506 0.230868
0.020767 0.087183 0.230015
0.021363 0.085212 0.224814
0.022438 0.085252 0.224916
0.023521 0.085313 0.225077
0.024596 0.085342 0.225151
0.025560 0.084997 0.224242
0.026956 0.086060 0.227043
0.028110 0.086300 0.227674
0.029314 0.086669 0.228647
0.030358 0.086555 0.228344
0.031450 0.086581 0.228412
0.032685 0.086986 0.229477
0.033915 0.087350 0.230434
0.035096 0.087571 0.231015
0.036239 0.087686 0.231313
0.037393 0.087820 0.231663
0.038624 0.088122 0.232455
0.039962 0.088645 0.233828
0.041419 0.089394 0.235797
0.042356 0.089012 0.234782
0.043816 0.089721 0.236643
0.045047 0.089938 0.237206
0.046283 0.090154 0.237762
0.047490 0.090303 0.238144
0.048734 0.090514 0.238686
0.049924 0.090618 0.238944
0.051240 0.090939 0.239775
0.052585 0.091298 0.240702
0.053877 0.091551 0.241349
0.055070 0.091630 0.241533
0.056236 0.091660 0.241588
0.057444 0.091757 0.241817
0.058564 0.091712 0.241669
0.059702 0.091696 0.241596
0.061001 0.091923 0.242159
0.064944 0.096051 0.252996
0.066228 0.096170 0.253269
0.067330 0.096023 0.252839
0.068329 0.095738 0.252039
0.069339 0.095478 0.251305
0.070356 0.095234 0.250611
0.071272 0.094865 0.249584
0.072107 0.094403 0.248308
0.073201 0.094289 0.247945
0.074106 0.093938 0.246954
0.074963 0.093539 0.245836
0.075995 0.093367 0.245307
0.076296 0.092315 0.242466
0.077037 0.091819 0.241082
0.077879 0.091456 0.240042
0.078331 0.090653 0.237844
0.078834 0.089930 0.235853
0.079217 0.089093 0.233559
0.079688 0.088377 0.231578
0.080480 0.088031 0.230564
0.081389 0.087821 0.229900
0.082160 0.087469 0.228862
0.082993 0.087192 0.228012
0.084010 0.087112 0.227675
0.084912 0.086917 0.227029
0.085846 0.086759 0.226477
0.086871 0.086695 0.226162
0.087858 0.086596 0.225748
0.088885 0.086539 0.225437
0.089808 0.086382 0.224860
0.090522 0.086030 0.223768
0.091427 0.085866 0.223159
0.092240 0.085620 0.222330
0.092970 0.085304 0.221310
0.093498 0.084811 0.219826
0.094373 0.084641 0.219173
0.095264 0.084489 0.218556
0.095402 0.083679 0.216231
0.096286 0.083534 0.215619
0.097207 0.083424 0.215084
0.097829 0.083062 0.213895
0.098710 0.082925 0.213274
0.099523 0.082735 0.212506
0.100171 0.082412 0.211389
0.101052 0.082286 0.210765
0.101794 0.082051 0.209850
0.102286 0.081620 0.208427
0.102662 0.081106 0.206780
0.103322 0.080825 0.205716
0.103882 0.080471 0.204456
0.104331 0.080039 0.202988
0.104589 0.079470 0.201160
0.104856 0.078918 0.199367
0.105716 0.078818 0.198704
0.106399 0.078590 0.197699
0.107008 0.078311 0.196555
-1.046270 0.759428 1.896790
-1.040438 0.761979 1.907213
-1.053625 0.778631 1.952878
-1.034012 0.771129 1.937857
-1.025054 0.771507 1.942461
-0.900958 0.684428 1.726332
-0.888177 0.681068 1.720839
-0.881757 0.682569 1.727505
-0.876092 0.684689 1.735642
-0.860989 0.679404 1.724888
-0.971526 0.831060 2.131595
-0.959343 0.829355 2.129460
-0.947593 0.827992 2.128103
-0.942884 0.832819 2.142576
-0.931110 0.831445 2.141016
-0.912475 0.823845 2.123322
-0.328712 0.381494 0.994176
-0.316676 0.372849 0.971935
-0.313656 0.374721 0.977085
-0.306863 0.372075 0.970436
-0.302587 0.372447 0.971642
-0.297222 0.371471 0.969311
-0.292525 0.371311 0.969096
-0.286788 0.369806 0.965353
-0.281186 0.368429 0.961928
-0.275931 0.367469 0.959579
-0.269074 0.364309 0.951467
-0.261329 0.359819 0.939867
-0.253230 0.354679 0.926554
-0.249102 0.355018 0.927543
-0.157179 0.260590 0.681167
-0.151918 0.257117 0.672103
-0.147018 0.254120 0.664275
-0.143934 0.254200 0.664488
-0.140129 0.252984 0.661307
-0.136737 0.252472 0.659964
-0.134675 0.254453 0.665130
-0.131273 0.253935 0.663762
-0.129046 0.255719 0.668407
-0.126231 0.256400 0.670165
