ply
format ascii 1.0
element vertex 1685
property float x
property float y
property float z
end_header
0.043149 -0.020907 0.256072
0.044673 -0.021043 0.257829
0.046130 -0.021140 0.259119
0.047464 -0.021178 0.259681
0.048674 -0.021160 0.259553
0.049994 -0.021189 0.260012
0.051330 -0.021223 0.260532
0.052692 -0.021267 0.261169
0.054060 -0.021310 0.261802
0.055620 -0.021426 0.263330
0.056976 -0.021460 0.263844
0.058321 -0.021488 0.264294
0.059946 -0.021616 0.265974
0.061333 -0.021654 0.266551
0.063053 -0.021806 0.268529
0.064347 -0.021808 0.268652
0.065775 -0.021854 0.269326
0.067184 -0.021892 0.269901
0.068745 -0.021977 0.271055
0.070290 -0.022054 0.272109
0.071703 -0.022088 0.272629
0.073178 -0.022139 0.273360
0.074559 -0.022160 0.273727
0.075988 -0.022195 0.274255
0.077415 -0.022228 0.274759
0.079010 -0.022307 0.275837
0.080385 -0.022323 0.276126
0.081708 -0.022323 0.276230
0.082979 -0.022310 0.276156
0.084300 -0.022311 0.276252
0.085490 -0.022277 0.275922
0.086685 -0.022245 0.275615
0.087988 -0.022242 0.275658
0.089015 -0.022170 0.274843
0.089806 -0.022043 0.273337
0.089528 -0.021660 0.268660
0.089991 -0.021465 0.266308
0.091074 -0.021421 0.265825
0.092112 -0.021368 0.265223
0.093043 -0.021292 0.264333
0.094001 -0.021224 0.263540
0.095051 -0.021179 0.263018
0.096107 -0.021135 0.262521
0.097111 -0.021082 0.261895
0.098100 -0.021027 0.261241
0.099078 -0.020971 0.260571
0.100061 -0.020917 0.259925
0.100820 -0.020818 0.258716
0.101742 -0.020755 0.257945
0.102592 -0.020679 0.257007
0.103614 -0.020639 0.256508
0.104519 -0.020577 0.255731
0.105302 -0.020493 0.254673
0.106198 -0.020432 0.253901
0.107090 -0.020372 0.253128
0.107889 -0.020295 0.252151
0.108508 -0.020187 0.250772
0.109212 -0.020097 0.249609
0.109899 -0.020006 0.248426
0.110582 -0.019916 0.247252
0.111126 -0.019803 0.245788
0.111757 -0.019708 0.244534
0.112269 -0.019594 0.243042
0.112623 -0.019455 0.241233
0.112673 -0.019267 0.238808
0.112797 -0.019095 0.236577
0.113377 -0.019003 0.235330
0.113651 -0.018862 0.233466
0.114133 -0.018758 0.232054
0.114034 -0.018561 0.229490
0.114216 -0.018413 0.227525
0.114326 -0.018257 0.225445
0.114752 -0.018154 0.224012
0.115164 -0.018050 0.222566
0.115766 -0.017978 0.221498
-1.612092 -0.230090 3.038067
-1.607077 -0.231427 3.057988
-1.613082 -0.234391 3.099297
-1.600746 -0.234720 3.105661
-1.584846 -0.234527 3.105001
-1.580870 -0.236112 3.127763
-1.574212 -0.237323 3.145464
-1.544117 -0.234991 3.116072
-1.526381 -0.239086 3.174335
-1.513819 -0.239454 3.180318
-1.496974 -0.239145 3.177209
-1.488648 -0.240205 3.192186
-1.479666 -0.241179 3.205938
-1.470813 -0.242196 3.220152
-1.463529 -0.243494 3.238033
-1.452682 -0.244222 3.248225
-1.441530 -0.244913 3.257850
-1.427669 -0.245154 3.261400
-1.417261 -0.246000 3.272915
-1.404997 -0.246539 3.280263
-1.394299 -0.247368 3.291391
-1.381957 -0.247921 3.298766
-1.369373 -0.248443 3.305649
-1.356537 -0.248931 3.312006
-1.344509 -0.249581 3.320439
-1.331688 -0.250097 3.327028
-1.320011 -0.250843 3.336601
-1.310170 -0.251961 3.351045
-1.299029 -0.252853 3.362420
-1.287516 -0.253693 3.373049
-1.275309 -0.254417 3.382056
-1.261786 -0.254893 3.387712
-1.248775 -0.255487 3.394866
-1.235398 -0.256020 3.401160
-1.222658 -0.256702 3.409365
-1.209918 -0.257402 3.417760
-1.197462 -0.258182 3.427163
-1.184530 -0.258879 3.435421
-1.170128 -0.259271 3.439564
-1.156370 -0.259819 3.445728
-1.141094 -0.260036 3.447470
-1.128560 -0.260895 3.457661
-1.114147 -0.261337 3.462299
-0.117672 -0.056751 0.740190
-0.113559 -0.056474 0.736253
-0.110637 -0.056790 0.740063
-0.107184 -0.056846 0.740480
-0.103731 -0.056905 0.740955
-0.100614 -0.057160 0.743971
-0.097421 -0.057389 0.746657
-0.094063 -0.057535 0.748273
-0.090658 -0.057663 0.749653
-0.087124 -0.057716 0.750068
-0.020573 -0.020408 0.264557
-0.019024 -0.020123 0.260793
-0.017413 -0.019729 0.255615
-0.016103 -0.019640 0.254405
-0.014808 -0.019555 0.253251
-0.013424 -0.019330 0.250275
-0.012254 -0.019395 0.251078
-0.010472 -0.018403 0.238181
-0.009219 -0.018208 0.235629
-0.008041 -0.018126 0.234528
-0.006876 -0.018053 0.233552
-0.005727 -0.018003 0.232873
-0.004602 -0.018020 0.233071
-0.003474 -0.018034 0.233227
-0.002343 -0.018034 0.233206
-0.001214 -0.018070 0.233657
-0.000077 -0.017463 0.225791
0.001021 -0.017505 0.226328
0.002126 -0.017555 0.226974
0.003231 -0.017575 0.227230
0.004334 -0.017574 0.227210
0.005437 -0.017574 0.227226
0.006643 -0.017852 0.230816
0.007876 -0.018109 0.234162
0.009028 -0.018139 0.234561
0.010190 -0.018181 0.235126
0.011361 -0.018228 0.235753
0.012582 -0.018340 0.237229
0.013757 -0.018372 0.237666
0.014954 -0.018426 0.238398
0.016157 -0.018478 0.239109
0.017359 -0.018523 0.239727
0.018559 -0.018560 0.240245
0.019777 -0.018609 0.240929
0.021029 -0.018683 0.241938
0.022300 -0.018766 0.243056
0.023565 -0.018835 0.244013
0.024774 -0.018855 0.244328
0.025979 -0.018870 0.244578
0.027232 -0.018917 0.245256
0.028453 -0.018939 0.245603
0.029971 -0.019149 0.248397
0.031170 -0.019147 0.248439
0.032470 -0.019204 0.249257
0.033746 -0.019244 0.249855
0.035198 -0.019378 0.251669
0.036519 -0.019433 0.252472
0.037769 -0.019448 0.252749
0.039079 -0.019492 0.253409
0.040389 -0.019534 0.254036
0.041750 -0.019596 0.254939
0.043094 -0.019648 0.255704
0.044291 -0.019632 0.255581
0.045905 -0.019796 0.257812
0.047237 -0.019833 0.258393
0.048576 -0.019871 0.258991
0.049957 -0.019924 0.259776
0.051270 -0.019948 0.260190
0.052583 -0.019970 0.260585
0.054188 -0.020100 0.262385
0.055618 -0.020161 0.263282
0.056977 -0.020193 0.263810
0.058326 -0.020221 0.264279
0.059968 -0.020347 0.266031
0.061750 -0.020515 0.268328
0.063032 -0.020512 0.268402
0.064473 -0.020561 0.269145
0.065811 -0.020575 0.269437
0.067139 -0.020586 0.269688
0.068589 -0.020633 0.270410
0.070213 -0.020730 0.271782
0.071782 -0.020807 0.272897
0.073274 -0.020859 0.273690
0.074611 -0.020867 0.273888
0.075971 -0.020880 0.274167
0.077354 -0.020899 0.274515
0.078947 -0.020974 0.275589
0.080330 -0.020991 0.275911
0.081660 -0.020994 0.276043
0.083003 -0.020999 0.276212
0.084248 -0.020981 0.276059
0.085516 -0.020968 0.275982
0.086705 -0.020937 0.275658
0.087915 -0.020912 0.275408
0.089031 -0.020866 0.274875
0.089958 -0.020777 0.273781
0.089496 -0.020375 0.268549
0.090006 -0.020202 0.266335
0.091051 -0.020152 0.265743
0.092099 -0.020105 0.265175
0.093124 -0.020053 0.264551
0.094108 -0.019995 0.263830
0.095100 -0.019939 0.263144
0.096042 -0.019875 0.262335
0.096947 -0.019805 0.261447
0.097976 -0.019761 0.260905
0.098867 -0.019691 0.260010
0.099725 -0.019617 0.259048
0.100739 -0.019574 0.258507
0.101463 -0.019477 0.257234
0.102416 -0.019426 0.256563
0.103525 -0.019405 0.256288
0.104341 -0.019330 0.255299
0.105255 -0.019275 0.254561
0.106244 -0.019235 0.254014
0.107016 -0.019157 0.252959
0.107782 -0.019079 0.251907
0.108498 -0.018995 0.250756
0.109342 -0.018934 0.249915
0.109885 -0.018823 0.248404
0.110615 -0.018747 0.247337
0.111267 -0.018658 0.246110
0.111904 -0.018570 0.244868
0.112301 -0.018443 0.243125
0.112605 -0.018304 0.241208
0.112713 -0.018137 0.238909
0.112868 -0.017980 0.236744
0.113049 -0.017830 0.234665
0.113519 -0.017729 0.233215
0.113968 -0.017626 0.231740
0.114264 -0.017502 0.229975
0.114477 -0.017367 0.228067
0.114884 -0.017264 0.226569
0.115221 -0.017153 0.224952
0.115306 -0.017007 0.222866
0.115608 -0.016895 0.221223
-1.622374 -0.217044 3.057766
-1.612427 -0.217644 3.068475
-1.601880 -0.218174 3.078065
-1.592410 -0.218861 3.089763
-1.578891 -0.219000 3.093596
-1.573139 -0.220229 3.112712
-1.573901 -0.222402 3.145075
-1.547411 -0.220730 3.122936
-1.509066 -0.223737 3.170493
-1.507256 -0.225691 3.199178
-1.496196 -0.226286 3.208503
-1.480641 -0.226207 3.208169
-1.472512 -0.227273 3.223977
-1.463472 -0.228219 3.237998
-1.452710 -0.228913 3.248364
-1.439715 -0.229267 3.253810
-1.426183 -0.229543 3.258057
-1.413603 -0.229979 3.264502
-1.400243 -0.230298 3.269186
-1.389166 -0.231003 3.279283
-1.375968 -0.231367 3.284464
-1.364479 -0.232031 3.293818
-1.352735 -0.232667 3.302693
-1.342048 -0.233501 3.314317
-1.328501 -0.233852 3.319005
-1.319844 -0.235082 3.336108
-1.309481 -0.236035 3.349199
-1.297343 -0.236687 3.357958
-1.286955 -0.237679 3.371468
-1.272461 -0.237928 3.374378
-1.260287 -0.238622 3.383548
-1.246644 -0.239054 3.388921
-1.234181 -0.239725 3.397645
-1.220518 -0.240179 3.403219
-1.209154 -0.241103 3.415407
-1.196687 -0.241830 3.424741
-1.182362 -0.242196 3.428913
-1.168611 -0.242692 3.434872
-1.152475 -0.242700 3.433879
-1.138991 -0.243275 3.440860
-1.127761 -0.244355 3.454940
-0.117736 -0.053218 0.740442
-0.114533 -0.053383 0.742421
-0.111121 -0.053458 0.743146
-0.107876 -0.053621 0.745102
-0.104461 -0.053708 0.746004
-0.101288 -0.053931 0.748794
-0.097758 -0.053972 0.749074
-0.094353 -0.054089 0.750412
-0.090831 -0.054146 0.750908
-0.086967 -0.053994 0.748535
-0.082915 -0.053709 0.744313
-0.079666 -0.053941 0.747267
-0.076121 -0.053985 0.747633
-0.023281 -0.019250 0.266344
-0.022008 -0.019264 0.266451
-0.020585 -0.019139 0.264651
-0.018816 -0.018654 0.257878
-0.017442 -0.018521 0.255974
-0.016137 -0.018445 0.254861
-0.014278 -0.017671 0.244121
-0.012936 -0.017457 0.241103
-0.011647 -0.017277 0.238578
-0.010406 -0.017138 0.236607
-0.009278 -0.017173 0.237052
-0.008141 -0.017199 0.237380
-0.006976 -0.017164 0.236857
-0.005845 -0.017217 0.237569
-0.004680 -0.017173 0.236923
-0.003498 -0.017015 0.234728
-0.002357 -0.017002 0.234530
-0.001216 -0.016965 0.233996
-0.000081 -0.016961 0.233933
0.001019 -0.016376 0.225860
0.002116 -0.016382 0.225934
0.003230 -0.016468 0.227118
0.004330 -0.016458 0.226986
0.005430 -0.016453 0.226920
0.006713 -0.016909 0.233211
0.007862 -0.016944 0.233706
0.009026 -0.017000 0.234495
0.010172 -0.017011 0.234664
0.011324 -0.017031 0.234961
0.012520 -0.017106 0.236025
0.013744 -0.017204 0.237409
0.014960 -0.017277 0.238442
0.016180 -0.017344 0.239410
0.017390 -0.017392 0.240108
0.018565 -0.017402 0.240282
0.019785 -0.017449 0.240986
0.021040 -0.017521 0.242030
0.022460 -0.017715 0.244762
0.023605 -0.017684 0.244377
0.024784 -0.017679 0.244375
0.026032 -0.017723 0.245037
0.027221 -0.017724 0.245115
0.028473 -0.017764 0.245732
0.029772 -0.017829 0.246707
0.031215 -0.017972 0.248754
0.032432 -0.017979 0.248925
0.033683 -0.018003 0.249342
0.035216 -0.018172 0.251755
0.036525 -0.018217 0.252470
0.037801 -0.018244 0.252922
0.039068 -0.018264 0.253293
0.040293 -0.018265 0.253389
0.041581 -0.018293 0.253868
0.042952 -0.018355 0.254817
0.044663 -0.018555 0.257688
0.045900 -0.018552 0.257747
0.047167 -0.018561 0.257972
0.048514 -0.018600 0.258616
0.049825 -0.018625 0.259054
0.051132 -0.018646 0.259448
0.052379 -0.018645 0.259536
0.053968 -0.018763 0.261284
0.055673 -0.018915 0.263503
0.057181 -0.018994 0.264719
0.058689 -0.019071 0.265889
0.060144 -0.019127 0.266781
0.061612 -0.019185 0.267691
0.062961 -0.019204 0.268067
0.064476 -0.019272 0.269123
0.065802 -0.019282 0.269372
0.067083 -0.019279 0.269430
0.068517 -0.019319 0.270095
0.070027 -0.019378 0.271032
0.071820 -0.019512 0.273013
0.073221 -0.019537 0.273465
0.074740 -0.019592 0.274334
0.076121 -0.019609 0.274679
0.077635 -0.019660 0.275489
0.078969 -0.019664 0.275643
0.080329 -0.019674 0.275884
0.081642 -0.019672 0.275958
0.083026 -0.019688 0.276267
0.084327 -0.019683 0.276295
0.085557 -0.019663 0.276095
0.086833 -0.019653 0.276046
0.088047 -0.019630 0.275805
0.089227 -0.019600 0.275462
0.090100 -0.019505 0.274198
0.090685 -0.019351 0.272102
0.090038 -0.018942 0.266416
0.090740 -0.018824 0.264821
0.091841 -0.018791 0.264419
0.093117 -0.018794 0.264521
0.094004 -0.018720 0.263527
0.094935 -0.018656 0.262678
0.096021 -0.018625 0.262272
0.097034 -0.018579 0.261674
0.097950 -0.018517 0.260829
0.098846 -0.018453 0.259952
0.099791 -0.018399 0.259215
0.100835 -0.018364 0.258750
0.101756 -0.018309 0.257977
0.102638 -0.018247 0.257119
0.103673 -0.018214 0.256656
0.104508 -0.018147 0.255709
0.105303 -0.018075 0.254679
0.106282 -0.018035 0.254108
0.107109 -0.017971 0.253184
0.107953 -0.017911 0.252313
0.108738 -0.017843 0.251319
0.109576 -0.017785 0.250459
0.110388 -0.017724 0.249550
0.110876 -0.017613 0.247931
0.111439 -0.017516 0.246502
0.111945 -0.017412 0.244970
0.112336 -0.017293 0.243214
0.112549 -0.017148 0.241104
0.112818 -0.017016 0.239146
0.112789 -0.016841 0.236594
0.112822 -0.016679 0.234213
0.113304 -0.016586 0.232792
0.113940 -0.016517 0.231703
0.114259 -0.016404 0.229985
0.114138 -0.016231 0.227414
0.113880 -0.016041 0.224612
0.114615 -0.015994 0.223793
0.115064 -0.015907 0.222424
0.115398 -0.015807 0.220848
-1.639157 -0.204626 3.089700
-1.620170 -0.204066 3.083496
-1.623233 -0.206298 3.119370
-1.610834 -0.206588 3.125771
-1.583704 -0.204978 3.103268
-1.601491 -0.209205 3.169045
-1.588937 -0.209511 3.175338
-1.532634 -0.209965 3.187677
-1.520034 -0.210290 3.193683
-1.515215 -0.211708 3.216206
-1.508072 -0.212826 3.234093
-1.483397 -0.211469 3.214250
-1.474823 -0.212403 3.229132
-1.463352 -0.212935 3.237814
-1.452006 -0.213497 3.246860
-1.442147 -0.214292 3.259365
-1.427391 -0.214368 3.260860
-1.416050 -0.214965 3.270186
-1.402195 -0.215190 3.273762
-1.388056 -0.215376 3.276669
-1.377988 -0.216205 3.289280
-1.367641 -0.217009 3.301432
-1.354264 -0.217345 3.306395
-1.342796 -0.217999 3.316122
-1.330029 -0.218456 3.322766
-1.319341 -0.219269 3.334766
-1.306228 -0.219694 3.340796
-1.295069 -0.220462 3.351979
-1.281897 -0.220903 3.358112
-1.270235 -0.221618 3.368357
-1.259506 -0.222517 3.381322
-1.247024 -0.223125 3.389811
-1.235356 -0.223896 3.400724
-1.222909 -0.224545 3.409718
-1.209298 -0.224995 3.415634
-1.195111 -0.225349 3.420036
-1.180382 -0.225609 3.422966
-1.166689 -0.226078 3.429006
-1.146640 -0.225311 3.416265
-1.134672 -0.226132 3.427571
-1.124632 -0.227368 3.445099
-0.119688 -0.050478 0.752577
-0.115481 -0.050221 0.748418
-0.112681 -0.050579 0.753433
-0.108829 -0.050472 0.751536
-0.104860 -0.050303 0.748703
-0.101690 -0.050519 0.751609
-0.098502 -0.050741 0.754625
-0.095079 -0.050855 0.756025
-0.091539 -0.050913 0.756598
-0.087810 -0.050866 0.755628
-0.084193 -0.050884 0.755620
-0.080459 -0.050829 0.754538
-0.075946 -0.050253 0.745744
-0.023109 -0.017829 0.264321
-0.021518 -0.017573 0.260457
-0.020010 -0.017358 0.257197
-0.018622 -0.017225 0.255155
-0.016896 -0.016739 0.247895
-0.015389 -0.016412 0.242995
-0.014188 -0.016384 0.242529
-0.013004 -0.016372 0.242302
-0.011829 -0.016371 0.242231
-0.010660 -0.016380 0.242325
-0.009476 -0.016363 0.242034
-0.008294 -0.016347 0.241761
-0.007089 -0.016273 0.240625
-0.005879 -0.016156 0.238873
-0.004706 -0.016107 0.238124
-0.003542 -0.016069 0.237539
-0.002381 -0.016016 0.236725
-0.001227 -0.015953 0.235787
-0.000082 -0.015894 0.234896
0.001017 -0.015268 0.225631
0.002123 -0.015340 0.226692
0.003239 -0.015411 0.227745
0.004335 -0.015377 0.227241
0.005454 -0.015420 0.227885
0.006617 -0.015551 0.229831
0.007858 -0.015803 0.233557
0.009024 -0.015858 0.234391
0.010180 -0.015886 0.234820
0.011331 -0.015901 0.235065
0.012502 -0.015938 0.235648
0.013709 -0.016012 0.236756
0.014953 -0.016114 0.238301
0.016164 -0.016168 0.239139
0.017365 -0.016205 0.239731
0.018549 -0.016223 0.240033
0.019803 -0.016296 0.241166
0.021005 -0.016321 0.241579
0.022400 -0.016485 0.244062
0.023600 -0.016497 0.244283
0.024811 -0.016514 0.244607
0.026021 -0.016529 0.244887
0.027273 -0.016569 0.245536
0.028522 -0.016603 0.246113
0.029821 -0.016663 0.247071
0.031123 -0.016719 0.247977
0.032436 -0.016777 0.248912
0.033927 -0.016920 0.251105
0.035262 -0.016978 0.252043
0.036484 -0.016979 0.252146
0.037769 -0.017008 0.252665
0.039056 -0.017037 0.253177
0.040328 -0.017057 0.253568
0.041645 -0.017095 0.254220
0.042906 -0.017108 0.254508
0.044360 -0.017195 0.255902
0.045912 -0.017315 0.257776
0.047173 -0.017321 0.257969
0.048420 -0.017322 0.258082
0.049813 -0.017374 0.258952
0.051284 -0.017450 0.260183
0.052690 -0.017500 0.261045
0.054022 -0.017525 0.261509
0.055500 -0.017594 0.262652
0.056991 -0.017664 0.263806
0.058393 -0.017705 0.264516
0.060025 -0.017812 0.266218
0.061350 -0.017825 0.266523
0.062875 -0.017894 0.267669
0.064362 -0.017950 0.268617
0.065831 -0.017999 0.269459
0.067114 -0.017997 0.269527
0.068517 -0.018026 0.270064
0.069923 -0.018054 0.270601
0.071685 -0.018172 0.272471
0.073228 -0.018231 0.273461
0.074567 -0.018238 0.273672
0.076083 -0.018288 0.274519
0.077464 -0.018304 0.274857
0.079002 -0.018355 0.275734
0.080333 -0.018358 0.275873
0.081659 -0.018360 0.275995
0.083010 -0.018367 0.276194
0.084355 -0.018372 0.276367
0.085652 -0.018367 0.276381
0.086896 -0.018352 0.276227
0.088150 -0.018338 0.276108
0.089378 -0.018320 0.275914
0.090273 -0.018235 0.274708
0.090956 -0.018110 0.272901
0.090470 -0.017759 0.267683
0.091272 -0.017667 0.266362
0.092145 -0.017592 0.265283
0.093171 -0.017547 0.264664
0.094156 -0.017496 0.263942
0.095102 -0.017439 0.263131
0.096023 -0.017379 0.262267
0.097022 -0.017334 0.261634
0.097892 -0.017268 0.260671
0.098806 -0.017211 0.259841
0.099803 -0.017170 0.259243
0.100795 -0.017129 0.258642
0.101799 -0.017091 0.258083
0.102704 -0.017037 0.257283
0.103573 -0.016979 0.256409
0.104507 -0.016933 0.255706
0.105387 -0.016879 0.254884
0.106271 -0.016827 0.254084
0.107111 -0.016769 0.253191
0.107988 -0.016719 0.252400
0.108869 -0.016670 0.251627
0.109485 -0.016582 0.250258
0.110187 -0.016509 0.249105
0.110677 -0.016406 0.247495
0.111267 -0.016319 0.246131
0.111550 -0.016190 0.244118
0.111754 -0.016052 0.241965
0.112202 -0.015952 0.240372
0.112454 -0.015827 0.238388
0.112480 -0.015672 0.235959
0.112730 -0.015551 0.234037
0.113193 -0.015462 0.232581
0.113305 -0.015327 0.230428
0.113542 -0.015211 0.228560
0.113446 -0.015053 0.226054
0.113805 -0.014959 0.224485
0.114591 -0.014921 0.223767
0.114860 -0.014818 0.222050
0.115349 -0.014744 0.220777
-1.639428 -0.189995 3.090490
-1.626249 -0.190154 3.095332
-1.621365 -0.191294 3.116033
-1.608670 -0.191526 3.121810
-1.585844 -0.190545 3.107685
-1.582310 -0.191886 3.131303
-1.526985 -0.194198 3.176077
-1.524863 -0.195837 3.203968
-1.522528 -0.197481 3.231856
-1.508398 -0.197613 3.234906
-1.490262 -0.197219 3.229224
-1.478898 -0.197722 3.238143
-1.468629 -0.198383 3.249567
-1.454799 -0.198573 3.253171
-1.442616 -0.198994 3.260476
-1.428242 -0.199118 3.262844
-1.413212 -0.199154 3.263661
-1.398587 -0.199248 3.265357
-1.389302 -0.200114 3.279616
-1.378789 -0.200820 3.291187
-1.365345 -0.201111 3.295873
-1.355814 -0.201992 3.310148
-1.342490 -0.202322 3.315325
-1.328426 -0.202547 3.318709
-1.316979 -0.203182 3.328732
-1.304998 -0.203748 3.337574
-1.292621 -0.204266 3.345554
-1.281953 -0.205071 3.358159
-1.270309 -0.205738 3.368442
-1.259397 -0.206541 3.380907
-1.248127 -0.207307 3.392673
-1.234170 -0.207640 3.397312
-1.220460 -0.208024 3.402734
-1.206994 -0.208461 3.408957
-1.193692 -0.208939 3.415795
-1.180185 -0.209393 3.422203
-1.168568 -0.210201 3.434325
-1.156109 -0.210878 3.444261
-1.146423 -0.212087 3.462838
-1.132937 -0.212618 3.470299
-0.119412 -0.046747 0.750709
-0.115987 -0.046820 0.751558
-0.112663 -0.046941 0.753170
-0.108991 -0.046920 0.752517
-0.105318 -0.046897 0.751831
-0.102162 -0.047111 0.754957
-0.098649 -0.047170 0.755602
-0.095191 -0.047260 0.756765
-0.091758 -0.047371 0.758255
-0.088056 -0.047348 0.757595
-0.084466 -0.047384 0.757909
-0.080766 -0.047360 0.757258
-0.077173 -0.047399 0.757630
-0.023850 -0.016184 0.258513
-0.022616 -0.016195 0.258623
-0.021196 -0.016067 0.256495
-0.019704 -0.015865 0.253199
-0.018206 -0.015631 0.249406
-0.016856 -0.015500 0.247250
-0.015620 -0.015461 0.246572
-0.014515 -0.015558 0.248051
-0.013429 -0.015694 0.250170
-0.012064 -0.015498 0.246994
-0.010845 -0.015467 0.246465
-0.009574 -0.015346 0.244485
-0.008371 -0.015313 0.243929
-0.007179 -0.015296 0.243620
-0.005975 -0.015240 0.242697
-0.004773 -0.015164 0.241464
-0.003580 -0.015075 0.240017
-0.002391 -0.014926 0.237632
-0.001215 -0.014656 0.233313
-0.000082 -0.014633 0.232934
0.001018 -0.014199 0.226014
0.002124 -0.014253 0.226878
0.003238 -0.014304 0.227684
0.004341 -0.014295 0.227544
0.005479 -0.014382 0.228928
0.006613 -0.014428 0.229672
0.007807 -0.014576 0.232031
0.009004 -0.014689 0.233846
0.010168 -0.014730 0.234515
0.011338 -0.014770 0.235188
0.012534 -0.014834 0.236226
0.013733 -0.014889 0.237134
0.014917 -0.014922 0.237683
0.016162 -0.015006 0.239065
0.017372 -0.015049 0.239783
0.018581 -0.015085 0.240409
0.019849 -0.015163 0.241692
0.021162 -0.015264 0.243346
0.022375 -0.015286 0.243750
0.023570 -0.015294 0.243934
0.024792 -0.015318 0.244375
0.026006 -0.015335 0.244715
0.027240 -0.015362 0.245203
0.028527 -0.015415 0.246122
0.029789 -0.015451 0.246764
0.031256 -0.015586 0.248997
0.032520 -0.015614 0.249520
0.033764 -0.015631 0.249865
0.035128 -0.015700 0.251045
0.036495 -0.015765 0.252180
0.037756 -0.015783 0.252542
0.039020 -0.015800 0.252906
0.040322 -0.015831 0.253498
0.041647 -0.015869 0.254194
0.042983 -0.015909 0.254926
0.044183 -0.015898 0.254846
0.045712 -0.016003 0.256618
0.047118 -0.016060 0.257632
0.048537 -0.016118 0.258672
0.049899 -0.016155 0.259364
0.051081 -0.016134 0.259124
0.052474 -0.016178 0.259942
0.054182 -0.016316 0.262249
0.055614 -0.016366 0.263160
0.056880 -0.016365 0.263261
0.058231 -0.016389 0.263748
0.059587 -0.016413 0.264246
0.061317 -0.016537 0.266351
0.062837 -0.016601 0.267477
0.064352 -0.016660 0.268545
0.065791 -0.016698 0.269266
0.067189 -0.016725 0.269799
0.068557 -0.016742 0.270195
0.070048 -0.016789 0.271059
0.071725 -0.016878 0.272599
0.073149 -0.016905 0.273144
0.074627 -0.016944 0.273868
0.076031 -0.016965 0.274307
0.077572 -0.017015 0.275218
0.078974 -0.017033 0.275612
0.080313 -0.017037 0.275783
0.081618 -0.017035 0.275835
0.082993 -0.017046 0.276116
0.084427 -0.017069 0.276584
0.085826 -0.017085 0.276925
0.087041 -0.017064 0.276670
0.088259 -0.017044 0.276434
0.089435 -0.017017 0.276073
0.090357 -0.016943 0.274949
0.090973 -0.016814 0.272938
0.090797 -0.016545 0.268637
0.091583 -0.016456 0.267258
0.092310 -0.016360 0.265748
0.093345 -0.016319 0.265149
0.094233 -0.016255 0.264151
0.095172 -0.016200 0.263318
0.096078 -0.016142 0.262411
0.096956 -0.016080 0.261451
0.097855 -0.016024 0.260565
0.098832 -0.015981 0.259904
0.099758 -0.015932 0.259123
0.100763 -0.015896 0.258559
0.101759 -0.015859 0.257980
0.102577 -0.015796 0.256964
0.103617 -0.015769 0.256518
0.104541 -0.015724 0.255791
0.105188 -0.015640 0.254405
0.106153 -0.015604 0.253806
0.107127 -0.015570 0.253235
0.107921 -0.015511 0.252247
0.108590 -0.015435 0.250987
0.109380 -0.015378 0.250023
0.110091 -0.015312 0.248895
0.110849 -0.015253 0.247886
0.111318 -0.015156 0.246253
0.111946 -0.015083 0.244993
0.112142 -0.014954 0.242817
0.111960 -0.014777 0.239867
0.112507 -0.014699 0.238514
0.112785 -0.014588 0.236613
0.112461 -0.014402 0.233492
0.112863 -0.014312 0.231917
0.112911 -0.014179 0.229644
0.113538 -0.014121 0.228570
0.113248 -0.013950 0.225678
0.113478 -0.013847 0.223859
0.113952 -0.013775 0.222538
0.114559 -0.013720 0.221491
0.115060 -0.013653 0.220246
-1.637161 -0.175088 3.086476
-1.637498 -0.176690 3.116989
-1.630962 -0.177573 3.134712
-1.620703 -0.178064 3.145386
-1.600615 -0.177474 3.136841
-1.590506 -0.177990 3.147719
-1.578050 -0.178251 3.153968
-1.550523 -0.180210 3.192868
-1.526058 -0.179095 3.174287
-1.521907 -0.180366 3.197884
-1.515149 -0.181350 3.216307
-1.508229 -0.182334 3.234648
-1.494165 -0.182467 3.237774
-1.479891 -0.182576 3.240399
-1.468697 -0.183072 3.249787
-1.456656 -0.183472 3.257382
-1.444305 -0.183841 3.264343
-1.431426 -0.184151 3.270155
-1.418681 -0.184485 3.276317
-1.405114 -0.184718 3.280610
-1.391558 -0.184958 3.284946
-1.378835 -0.185316 3.291290
-1.365044 -0.185537 3.295129
-1.352775 -0.185973 3.302700
-1.338041 -0.186076 3.304298
-1.325443 -0.186482 3.311207
-1.312438 -0.186841 3.317194
-1.301057 -0.187442 3.327425
-1.290348 -0.188156 3.339590
-1.281774 -0.189203 3.357595
-1.270651 -0.189895 3.369243
-1.260501 -0.190753 3.383755
-1.246757 -0.191082 3.388825
-1.234222 -0.191607 3.397321
-1.220389 -0.191942 3.402388
-1.206114 -0.192216 3.406315
-1.193052 -0.192693 3.413794
-1.179745 -0.193143 3.420748
-1.166750 -0.193658 3.428791
-1.154300 -0.194280 3.438668
-1.142758 -0.195074 3.451558
-1.133287 -0.196251 3.471149
-0.121953 -0.044051 0.766555
-0.117113 -0.043620 0.758730
-0.113782 -0.043742 0.760523
-0.109786 -0.043608 0.757874
-0.105568 -0.043373 0.753483
-0.102125 -0.043452 0.754546
-0.098602 -0.043502 0.755106
-0.095185 -0.043604 0.756581
-0.091566 -0.043617 0.756527
-0.088068 -0.043692 0.757553
-0.084163 -0.043564 0.755048
-0.079943 -0.043253 0.749400
-0.025091 -0.014927 0.258453
-0.023860 -0.014938 0.258569
-0.022394 -0.014796 0.256029
-0.021007 -0.014692 0.254158
-0.019749 -0.014671 0.253721
-0.018525 -0.014674 0.253710
-0.017355 -0.014724 0.254505
-0.016081 -0.014687 0.253798
-0.014800 -0.014636 0.252872
-0.013547 -0.014607 0.252302
-0.012240 -0.014508 0.250543
-0.010961 -0.014423 0.249034
-0.009699 -0.014343 0.247601
-0.008461 -0.014280 0.246491
-0.007209 -0.014171 0.244562
-0.005996 -0.014111 0.243497
-0.004784 -0.014022 0.241929
-0.003540 -0.013752 0.237259
-0.002370 -0.013647 0.235422
-0.001208 -0.013441 0.231847
-0.000081 -0.013234 0.228280
0.001017 -0.013096 0.225878
0.002124 -0.013155 0.226902
0.003226 -0.013152 0.226850
0.004322 -0.013135 0.226544
0.005506 -0.013337 0.230031
0.006639 -0.013368 0.230576
0.007816 -0.013465 0.232267
0.008989 -0.013532 0.233436
0.010144 -0.013560 0.233948
0.011303 -0.013587 0.234424
0.012454 -0.013600 0.234684
0.013630 -0.013636 0.235323
0.014943 -0.013793 0.238076
0.016168 -0.013852 0.239120
0.017414 -0.013920 0.240339
0.018646 -0.013969 0.241223
0.019846 -0.013989 0.241622
0.021207 -0.014114 0.243834
0.022411 -0.014127 0.244109
0.023645 -0.014157 0.244676
0.024832 -0.014157 0.244737
0.026047 -0.014172 0.245060
0.027349 -0.014231 0.246146
0.028618 -0.014269 0.246868
0.029942 -0.014330 0.247997
0.031218 -0.014364 0.248663
0.032503 -0.014400 0.249353
0.033757 -0.014420 0.249777
0.035202 -0.014517 0.251545
0.036501 -0.014550 0.252190
0.037756 -0.014563 0.252508
0.039046 -0.014589 0.253041
0.040361 -0.014622 0.253705
0.041662 -0.014648 0.254254
0.043006 -0.014688 0.255034
0.044323 -0.014716 0.255620
0.045794 -0.014792 0.257044
0.047166 -0.014834 0.257859
0.048443 -0.014844 0.258135
0.050151 -0.014982 0.260645
0.051677 -0.015061 0.262112
0.052917 -0.015054 0.262102
0.054243 -0.015072 0.262513
0.055526 -0.015077 0.262709
0.057209 -0.015188 0.264753
0.058363 -0.015157 0.264319
0.060038 -0.015260 0.266217
0.061378 -0.015275 0.266586
0.062818 -0.015313 0.267370
0.064218 -0.015341 0.267962
0.065722 -0.015392 0.268957
0.067067 -0.015404 0.269285
0.068529 -0.015442 0.270060
0.069893 -0.015458 0.270434
0.071444 -0.015513 0.271507
0.073149 -0.015599 0.273118
0.074423 -0.015592 0.273099
0.075962 -0.015640 0.274036
0.077653 -0.015716 0.275484
0.079108 -0.015744 0.276060
0.080357 -0.015730 0.275917
0.081763 -0.015746 0.276304
0.083150 -0.015759 0.276620
0.084589 -0.015781 0.277097
0.085888 -0.015776 0.277110
0.087119 -0.015760 0.276903
0.088411 -0.015755 0.276896
0.089528 -0.015719 0.276347
0.090400 -0.015641 0.275066
0.090912 -0.015505 0.272741
0.090765 -0.015262 0.268531
0.090976 -0.015084 0.265476
0.092119 -0.015065 0.265186
0.093323 -0.015055 0.265075
0.094107 -0.014979 0.263789
0.094981 -0.014919 0.262780
0.095851 -0.014860 0.261784
0.096882 -0.014827 0.261245
0.097929 -0.014797 0.260758
0.098849 -0.014749 0.259944
0.099798 -0.014707 0.259222
0.100797 -0.014673 0.258643
0.101776 -0.014637 0.258021
0.102642 -0.014586 0.257127
0.103526 -0.014538 0.256292
0.104549 -0.014511 0.255812
0.105329 -0.014451 0.254748
0.106224 -0.014408 0.253977
0.106975 -0.014347 0.252878
0.107732 -0.014288 0.251809
0.108470 -0.014228 0.250715
0.109291 -0.014179 0.249827
0.110061 -0.014126 0.248834
0.110620 -0.014046 0.247383
0.111154 -0.013966 0.245899
0.111373 -0.013847 0.243750
0.111969 -0.013778 0.242451
0.111923 -0.013632 0.239799
0.112454 -0.013558 0.238413
0.112384 -0.013414 0.235785
0.112669 -0.013315 0.233939
0.112635 -0.013180 0.231462
0.112573 -0.013045 0.228970
0.113530 -0.013030 0.228570
0.113430 -0.012894 0.226057
0.113178 -0.012744 0.223284
0.113606 -0.012673 0.221881
0.113959 -0.012595 0.220349
0.114626 -0.012552 0.219435
-1.643561 -0.161070 3.098780
-1.626811 -0.160854 3.096873
-1.623939 -0.162019 3.121429
-1.601835 -0.161269 3.108971
-1.586655 -0.161210 3.109673
-1.580544 -0.162079 3.128183
-1.564853 -0.161973 3.127761
-1.550788 -0.165161 3.193553
-1.553175 -0.167027 3.230819
-1.525651 -0.165681 3.205867
-1.529270 -0.167725 3.246391
-1.517954 -0.168155 3.255602
-1.495690 -0.167369 3.241164
-1.483067 -0.167657 3.247427
-1.470416 -0.167949 3.253656
-1.458566 -0.168339 3.261707
-1.448922 -0.168995 3.274822
-1.438584 -0.169583 3.286543
-1.424961 -0.169793 3.290844
-1.410989 -0.169966 3.294341
-1.396012 -0.170021 3.295463
-1.381233 -0.170101 3.297008
-1.367730 -0.170342 3.301594
-1.354755 -0.170656 3.307509
-1.342288 -0.171042 3.314749
-1.328192 -0.171227 3.318029
-1.314634 -0.171487 3.322689
-1.302898 -0.171994 3.332068
-1.291306 -0.172533 3.341992
-1.279573 -0.173067 3.351746
-1.267037 -0.173503 3.359567
-1.254843 -0.173999 3.368460
-1.244855 -0.174817 3.383540
-1.231562 -0.175187 3.389873
-1.220997 -0.175959 3.403947
-1.210916 -0.176824 3.419731
-1.196899 -0.177129 3.424646
-1.184398 -0.177670 3.434074
-1.161838 -0.176696 3.414181
-1.144509 -0.176502 3.409318
-1.124354 -0.175861 3.395776
-0.170084 -0.046467 0.885249
-0.163460 -0.045798 0.872108
-0.157258 -0.045216 0.860620
-0.153334 -0.045276 0.861351
-0.147796 -0.044849 0.852837
-0.143881 -0.044904 0.853503
-0.121473 -0.040201 0.763420
-0.117237 -0.040008 0.759417
-0.113202 -0.039872 0.756526
-0.109923 -0.040004 0.758696
-0.106075 -0.039930 0.756983
-0.102291 -0.039876 0.755649
-0.098746 -0.039914 0.756078
-0.095232 -0.039969 0.756821
-0.091648 -0.039998 0.757076
-0.088007 -0.040003 0.756895
-0.084246 -0.039952 0.755662
-0.080667 -0.039987 0.756050
-0.025094 -0.013678 0.258437
-0.024019 -0.013778 0.260246
-0.022915 -0.013871 0.261933
-0.021640 -0.013867 0.261770
-0.020308 -0.013822 0.260858
-0.019097 -0.013860 0.261502
-0.017416 -0.013538 0.255358
-0.016170 -0.013531 0.255157
-0.014883 -0.013485 0.254238
-0.013610 -0.013445 0.253425
-0.012306 -0.013363 0.251830
-0.010983 -0.013240 0.249467
-0.009687 -0.013124 0.247247
-0.008430 -0.013035 0.245520
-0.007220 -0.013003 0.244884
-0.006007 -0.012951 0.243877
-0.004771 -0.012810 0.241201
-0.003541 -0.012601 0.237239
-0.002377 -0.012539 0.236044
-0.001185 -0.012071 0.227234
-0.000081 -0.012026 0.226366
0.001020 -0.012040 0.226619
0.002135 -0.012116 0.228042
0.003257 -0.012168 0.229014
0.004408 -0.012275 0.231043
0.005527 -0.012268 0.230904
0.006658 -0.012282 0.231190
0.007836 -0.012370 0.232845
0.008969 -0.012371 0.232891
0.010147 -0.012428 0.233972
0.011286 -0.012430 0.234047
0.012528 -0.012535 0.236046
0.013696 -0.012555 0.236447
0.014933 -0.012629 0.237883
0.016149 -0.012677 0.238811
0.017382 -0.012731 0.239866
0.018559 -0.012739 0.240060
0.019873 -0.012835 0.241919
0.021113 -0.012875 0.242718
0.022394 -0.012934 0.243891
0.023599 -0.012946 0.244168
0.024815 -0.012962 0.244534
0.026037 -0.012980 0.244931
0.027345 -0.013037 0.246078
0.028562 -0.013048 0.246354
0.029839 -0.013085 0.247108
0.031128 -0.013123 0.247912
0.032406 -0.013154 0.248575
0.033709 -0.013193 0.249390
0.034910 -0.013191 0.249422
0.036418 -0.013301 0.251587
0.037632 -0.013299 0.251644
0.039008 -0.013354 0.252765
0.040366 -0.013399 0.253705
0.041745 -0.013448 0.254726
0.042983 -0.013450 0.254866
0.044305 -0.013478 0.255483
0.045637 -0.013507 0.256135
0.047190 -0.013598 0.257963
0.048630 -0.013653 0.259102
0.049892 -0.013656 0.259269
0.051143 -0.013657 0.259378
0.053047 -0.013827 0.262721
0.054257 -0.013813 0.262553
0.055662 -0.013848 0.263327
0.057040 -0.013875 0.263946
0.058552 -0.013932 0.265148
0.059958 -0.013963 0.265834
0.061324 -0.013983 0.266327
0.062676 -0.013999 0.266741
0.064127 -0.014036 0.267558
0.065641 -0.014085 0.268601
0.067132 -0.014128 0.269520
0.068626 -0.014169 0.270419
0.070015 -0.014188 0.270881
0.071715 -0.014268 0.272513
0.073244 -0.014311 0.273452
0.074500 -0.014301 0.273360
0.075890 -0.014316 0.273754
0.077350 -0.014344 0.274390
0.078856 -0.014379 0.275164
0.080403 -0.014421 0.276055
0.081693 -0.014416 0.276052
0.082979 -0.014410 0.276034
0.084597 -0.014461 0.277107
0.085830 -0.014446 0.276905
0.087116 -0.014440 0.276878
0.088428 -0.014438 0.276935
0.089533 -0.014403 0.276346
0.090519 -0.014351 0.275416
0.091281 -0.014265 0.273836
0.091571 -0.014108 0.270903
0.091202 -0.013856 0.266128
0.092206 -0.013816 0.265427
0.093217 -0.013779 0.264766
0.093915 -0.013697 0.263242
0.094923 -0.013662 0.262615
0.095680 -0.013592 0.261311
0.096735 -0.013565 0.260844
0.097770 -0.013537 0.260330
0.098709 -0.013496 0.259574
0.099663 -0.013458 0.258869
0.100652 -0.013426 0.258270
0.101664 -0.013397 0.257735
0.102597 -0.013359 0.257014
0.103564 -0.013326 0.256384
0.104517 -0.013292 0.255733
0.105384 -0.013249 0.254881
0.106142 -0.013192 0.253782
0.106754 -0.013119 0.252357
0.107622 -0.013079 0.251557
0.108314 -0.013018 0.250358
0.109083 -0.012968 0.249355
0.109652 -0.012896 0.247915
0.110266 -0.012830 0.246597
0.110738 -0.012749 0.244986
0.111220 -0.012671 0.243423
0.111676 -0.012592 0.241827
0.112262 -0.012529 0.240535
0.112800 -0.012462 0.239156
0.113084 -0.012368 0.237265
0.112040 -0.012133 0.232643
0.112315 -0.012043 0.230818
0.112483 -0.011944 0.228801
0.112416 -0.011823 0.226341
0.112697 -0.011739 0.224612
0.113007 -0.011661 0.222962
0.113261 -0.011578 0.221224
0.113736 -0.011519 0.219935
0.114522 -0.011492 0.219256
-1.646144 -0.146599 3.103868
-1.636453 -0.147039 3.115435
-1.629028 -0.147692 3.131409
-1.610288 -0.147322 3.125562
-1.592818 -0.147062 3.121927
-1.573898 -0.146664 3.115194
-1.567631 -0.147448 3.133467
-1.573836 -0.149431 3.177139
-1.551031 -0.150105 3.194179
-1.528619 -0.149377 3.179856
-1.520469 -0.150042 3.195083
-1.510216 -0.150511 3.206039
-1.513743 -0.152376 3.246657
-1.499081 -0.152430 3.248591
-1.484765 -0.152522 3.251215
-1.473265 -0.152907 3.260019
-1.462467 -0.153375 3.270480
-1.451846 -0.153871 3.281472
-1.440947 -0.154348 3.291970
-1.425746 -0.154371 3.292677
-1.411299 -0.154476 3.295077
-1.396548 -0.154551 3.296730
-1.381792 -0.154627 3.298334
-1.368966 -0.154923 3.304564
-1.356641 -0.155283 3.312089
-1.343378 -0.155544 3.317407
-1.329121 -0.155694 3.320306
-1.316737 -0.156071 3.327952
-1.304669 -0.156494 3.336536
-1.291284 -0.156768 3.341866
-1.278135 -0.157078 3.347899
-1.266098 -0.157535 3.356990
-1.252619 -0.157821 3.362393
-1.243527 -0.158675 3.379824
-1.232145 -0.159256 3.391364
-1.219725 -0.159715 3.400276
-1.208512 -0.160348 3.412809
-1.195481 -0.160753 3.420448
-1.184692 -0.161475 3.434772
-1.171144 -0.161836 3.441366
-1.166339 -0.163432 3.474175
-1.151955 -0.163713 3.478958
-0.193162 -0.044612 0.936673
-0.181323 -0.042871 0.899700
-0.176226 -0.042679 0.895236
-0.170143 -0.042233 0.885450
-0.164449 -0.041863 0.877274
-0.159744 -0.041731 0.874114
-0.155144 -0.041621 0.871405
-0.150003 -0.041356 0.865456
-0.143394 -0.040660 0.850498
-0.139479 -0.040710 0.851147
-0.121627 -0.036571 0.764285
-0.116781 -0.036208 0.756357
-0.113498 -0.036321 0.758395
-0.110018 -0.036377 0.759244
-0.106068 -0.036276 0.756819
-0.102363 -0.036255 0.756065
-0.098735 -0.036260 0.755879
-0.095192 -0.036299 0.756387
-0.091528 -0.036292 0.755967
-0.087983 -0.036335 0.756570
-0.084052 -0.036215 0.753800
-0.078912 -0.035539 0.739477
-0.025614 -0.012684 0.263751
-0.024357 -0.012694 0.263870
-0.022999 -0.012649 0.262849
-0.021610 -0.012581 0.261360
-0.020311 -0.012560 0.260854
-0.019068 -0.012573 0.261058
-0.017717 -0.012512 0.259726
-0.016333 -0.012417 0.257680
-0.015032 -0.012374 0.256735
-0.013719 -0.012313 0.255407
-0.012253 -0.012087 0.250687
-0.010948 -0.011990 0.248621
-0.009660 -0.011890 0.246505
-0.008460 -0.011885 0.246350
-0.007263 -0.011882 0.246267
-0.006049 -0.011848 0.245521
-0.004823 -0.011764 0.243752
-0.003519 -0.011376 0.235700
-0.002280 -0.010925 0.226325
-0.001178 -0.010904 0.225888
-0.000081 -0.010861 0.224971
0.001020 -0.010936 0.226526
0.002133 -0.011002 0.227890
0.003257 -0.011058 0.229034
0.004418 -0.011178 0.231530
0.005550 -0.011193 0.231846
0.006657 -0.011158 0.231137
0.007825 -0.011222 0.232477
0.008988 -0.011264 0.233359
0.010160 -0.011307 0.234263
0.011340 -0.011348 0.235140
0.012523 -0.011385 0.235919
0.013715 -0.011423 0.236749
0.014896 -0.011447 0.237264
0.016098 -0.011482 0.238037
0.017346 -0.011543 0.239330
0.018548 -0.011568 0.239894
0.019867 -0.011658 0.241817
0.021092 -0.011686 0.242446
0.022377 -0.011743 0.243677
0.023601 -0.011763 0.244161
0.024819 -0.011779 0.244541
0.026024 -0.011788 0.244787
0.027287 -0.011820 0.245530
0.028538 -0.011845 0.246116
0.029843 -0.011890 0.247111
0.031134 -0.011926 0.247932
0.032515 -0.011992 0.249382
0.033765 -0.012007 0.249775
0.035073 -0.012041 0.250561
0.036380 -0.012072 0.251291
0.037684 -0.012100 0.251963
0.038966 -0.012120 0.252463
0.040341 -0.012166 0.253521
0.041721 -0.012212 0.254556
0.042915 -0.012201 0.254431
0.044177 -0.012210 0.254716
0.045461 -0.012225 0.255119
0.047517 -0.012441 0.259724
0.048902 -0.012474 0.260523
0.050243 -0.012495 0.261065
0.051703 -0.012544 0.262189
0.053114 -0.012579 0.263024
0.054349 -0.012572 0.262977
0.055738 -0.012599 0.263659
0.057041 -0.012607 0.263923
0.058474 -0.012642 0.264771
0.059906 -0.012676 0.265580
0.061301 -0.012700 0.266200
0.062689 -0.012722 0.266773
0.063977 -0.012723 0.266908
0.065425 -0.012756 0.267697
0.066834 -0.012780 0.268302
0.068671 -0.012883 0.270574
0.070096 -0.012906 0.271177
0.071516 -0.012928 0.271736
0.072923 -0.012946 0.272234
0.074360 -0.012970 0.272826
0.075748 -0.012984 0.273226
0.077542 -0.013066 0.275050
0.079065 -0.013100 0.275875
0.080422 -0.013106 0.276102
0.081707 -0.013100 0.276083
0.083171 -0.013123 0.276658
0.084570 -0.013135 0.277003
0.085879 -0.013133 0.277048
0.087169 -0.013128 0.277033
0.088476 -0.013126 0.277070
0.089697 -0.013111 0.276840
0.090505 -0.013037 0.275360
0.091060 -0.012930 0.273161
0.090843 -0.012717 0.268739
0.091210 -0.012591 0.266139
0.092679 -0.012618 0.266780
0.093574 -0.012568 0.265771
0.094222 -0.012486 0.264096
0.095046 -0.012430 0.262948
0.095957 -0.012386 0.262062
0.096873 -0.012344 0.261210
0.097859 -0.012311 0.260564
0.098812 -0.012276 0.259841
0.099638 -0.012226 0.258803
0.100565 -0.012189 0.258043
0.101630 -0.012169 0.257649
0.102494 -0.012127 0.256754
0.103369 -0.012086 0.255902
0.104311 -0.012055 0.255231
0.105174 -0.012015 0.254375
0.105934 -0.011964 0.253287
0.106654 -0.011910 0.252126
0.107431 -0.011863 0.251113
0.108030 -0.011798 0.249707
0.108613 -0.011733 0.248287
0.109143 -0.011664 0.246770
0.109997 -0.011630 0.246002
0.110432 -0.011553 0.244316
0.111133 -0.011505 0.243240
0.111459 -0.011420 0.241365
0.111828 -0.011341 0.239612
0.112279 -0.011272 0.238062
0.112684 -0.011199 0.236436
0.112902 -0.011110 0.234445
0.112374 -0.010950 0.230951
0.112424 -0.010848 0.228693
0.112432 -0.010745 0.226386
0.112305 -0.010631 0.223844
0.112662 -0.010564 0.222296
0.113300 -0.010524 0.221316
0.113761 -0.010470 0.220000
0.114139 -0.010408 0.218539
-1.645335 -0.131810 3.102539
-1.637666 -0.132368 3.117933
-1.626583 -0.132657 3.126887
-1.612558 -0.132710 3.130136
-1.602703 -0.133110 3.141460
-1.584386 -0.132809 3.136102
-1.565963 -0.132494 3.130272
-1.574050 -0.134437 3.177703
-1.553479 -0.133946 3.167505
-1.540533 -0.134110 3.172672
-1.542990 -0.135631 3.209856
-1.535239 -0.136277 3.226217
-1.524297 -0.136649 3.236019
-1.514405 -0.137124 3.248156
-1.502164 -0.137394 3.255343
-1.487802 -0.137475 3.257925
-1.475480 -0.137747 3.264973
-1.463381 -0.138046 3.272570
-1.452832 -0.138500 3.283736
-1.439761 -0.138721 3.289290
-1.426331 -0.138912 3.294048
-1.413530 -0.139169 3.300296
-1.400036 -0.139363 3.304967
-1.385088 -0.139415 3.306196
-1.369812 -0.139435 3.306591
-1.355047 -0.139509 3.308176
-1.343401 -0.139910 3.317434
-1.328009 -0.139925 3.317491
-1.317184 -0.140428 3.329035
-1.301679 -0.140438 3.328833
-1.290601 -0.140932 3.340036
-1.281109 -0.141614 3.355620
-1.266339 -0.141722 3.357549
-1.255948 -0.142330 3.371244
-1.244437 -0.142825 3.382201
-1.233589 -0.143410 3.395234
-1.221844 -0.143904 3.406071
-1.208551 -0.144228 3.412798
-1.195747 -0.144619 3.421080
-1.182595 -0.144979 3.428558
-1.165993 -0.144920 3.426087
-1.155921 -0.145683 3.442988
-1.142912 -0.146092 3.451486
-1.100921 -0.146999 3.469115
-1.081152 -0.146537 3.456893
-0.216404 -0.042028 0.982486
-0.208636 -0.041417 0.967727
-0.200789 -0.040762 0.951966
-0.193221 -0.040135 0.936864
-0.185835 -0.039517 0.921989
-0.177724 -0.038711 0.902745
-0.171336 -0.038249 0.891557
-0.166207 -0.038052 0.886548
-0.160739 -0.037765 0.879456
-0.155563 -0.037534 0.873660
-0.148659 -0.036861 0.857599
-0.142200 -0.036264 0.843313
-0.138318 -0.036308 0.843956
-0.122385 -0.033095 0.768949
-0.117028 -0.032632 0.757859
-0.113091 -0.032548 0.755582
-0.109959 -0.032698 0.758737
-0.105959 -0.032591 0.755944
-0.102177 -0.032547 0.754594
-0.098358 -0.032486 0.752889
-0.094807 -0.032513 0.753227
-0.091346 -0.032575 0.754359
-0.087571 -0.032524 0.752918
-0.083937 -0.032525 0.752657
-0.079052 -0.032019 0.740682
-0.024702 -0.011578 0.267556
-0.023086 -0.011418 0.263800
-0.021703 -0.011363 0.262446
-0.020280 -0.011278 0.260413
-0.019025 -0.011282 0.260424
-0.017653 -0.011211 0.258732
-0.016292 -0.011138 0.256985
-0.014971 -0.011083 0.255642
-0.013618 -0.010991 0.253483
-0.012246 -0.010865 0.250507
-0.010917 -0.010752 0.247874
-0.009672 -0.010706 0.246769
-0.008532 -0.010778 0.248387
-0.007276 -0.010704 0.246650
-0.006039 -0.010636 0.245043
-0.004620 -0.010134 0.233440
-0.003486 -0.010135 0.233446
-0.002318 -0.009986 0.230001
-0.001173 -0.009761 0.224811
-0.000081 -0.009789 0.225437
0.001019 -0.009833 0.226437
0.002136 -0.009909 0.228186
0.003254 -0.009937 0.228827
0.004377 -0.009962 0.229402
0.005547 -0.010062 0.231708
0.006649 -0.010025 0.230868
0.007816 -0.010083 0.232211
0.008976 -0.010118 0.233033
0.010175 -0.010185 0.234590
0.011256 -0.010131 0.233368
0.012566 -0.010275 0.236712
0.013716 -0.010275 0.236742
0.014915 -0.010308 0.237544
0.016110 -0.010334 0.238188
0.017360 -0.010390 0.239507
0.018637 -0.010453 0.241016
0.019886 -0.010495 0.242017
0.021094 -0.010511 0.242442
0.022395 -0.010570 0.243844
0.023613 -0.010585 0.244252
0.024827 -0.010597 0.244597
0.026044 -0.010610 0.244943
0.027279 -0.010628 0.245430
0.028558 -0.010661 0.246260
0.029816 -0.010684 0.246865
0.031101 -0.010714 0.247643
0.032611 -0.010817 0.250095
0.033843 -0.010824 0.250325
0.035092 -0.010835 0.250669
0.036405 -0.010865 0.251436
0.037671 -0.010879 0.251854
0.038978 -0.010904 0.252511
0.040310 -0.010934 0.253296
0.041646 -0.010963 0.254068
0.043056 -0.011010 0.255241
0.044288 -0.011009 0.255334
0.045719 -0.011057 0.256543
0.047145 -0.011101 0.257664
0.048796 -0.011195 0.259939
0.050317 -0.011255 0.261427
0.051806 -0.011305 0.262688
0.053050 -0.011300 0.262683
0.054368 -0.011311 0.263044
0.055760 -0.011336 0.263743
0.057332 -0.011396 0.265249
0.058628 -0.011400 0.265443
0.059983 -0.011415 0.265898
0.061330 -0.011428 0.266308
0.062694 -0.011443 0.266772
0.064062 -0.011459 0.267243
0.065582 -0.011500 0.268321
0.067120 -0.011543 0.269431
0.068638 -0.011581 0.270424
0.070036 -0.011598 0.270924
0.071371 -0.011604 0.271170
0.072825 -0.011629 0.271852
0.074318 -0.011658 0.272656
0.075663 -0.011665 0.272901
0.077298 -0.011714 0.274169
0.078827 -0.011747 0.275030
0.080138 -0.011746 0.275112
0.081530 -0.011757 0.275470
0.082940 -0.011771 0.275875
0.084429 -0.011795 0.276530
0.085803 -0.011802 0.276793
0.087110 -0.011800 0.276833
0.088397 -0.011795 0.276813
0.089739 -0.011798 0.276959
0.090699 -0.011752 0.275943
0.091265 -0.011656 0.273768
0.090567 -0.011404 0.267914
0.090772 -0.011271 0.264855
0.091988 -0.011265 0.264784
0.092983 -0.011233 0.264087
0.093660 -0.011164 0.262514
0.094696 -0.011139 0.261973
0.095655 -0.011105 0.261233
0.096537 -0.011064 0.260299
0.097655 -0.011050 0.260015
0.098678 -0.011027 0.259483
0.099603 -0.010993 0.258708
0.100583 -0.010965 0.258086
0.101594 -0.010942 0.257556
0.102462 -0.010904 0.256673
0.103367 -0.010871 0.255899
0.104126 -0.010824 0.254777
0.105072 -0.010796 0.254129
0.105817 -0.010750 0.253011
0.106462 -0.010693 0.251672
0.107164 -0.010644 0.250493
0.107893 -0.010599 0.249394
0.108449 -0.010538 0.247916
0.108914 -0.010469 0.246256
0.109766 -0.010439 0.245491
0.110363 -0.010386 0.244170
0.110703 -0.010309 0.242305
0.111460 -0.010273 0.241376
0.111837 -0.010202 0.239640
0.112022 -0.010116 0.237525
0.112305 -0.010040 0.235651
0.112436 -0.009953 0.233487
0.112738 -0.009882 0.231709
0.112428 -0.009759 0.228714
0.112074 -0.009635 0.225678
0.112235 -0.009557 0.223718
0.112542 -0.009493 0.222072
0.113242 -0.009463 0.221216
0.113643 -0.009408 0.219786
0.114114 -0.009361 0.218506
-1.644283 -0.117019 3.100732
-1.633153 -0.117264 3.109508
-1.617217 -0.117166 3.109040
-1.607167 -0.117497 3.119821
-1.592234 -0.117473 3.121082
-1.580711 -0.117704 3.128960
-1.569388 -0.117954 3.137244
-1.574242 -0.119437 3.178207
-1.548247 -0.118585 3.156947
-1.532360 -0.118499 3.155942
-1.540183 -0.120262 3.204111
-1.528146 -0.120495 3.211399
-1.517148 -0.120815 3.220922
-1.515547 -0.121898 3.250677
-1.502524 -0.122075 3.256186
-1.488733 -0.122192 3.260020
-1.476261 -0.122422 3.266751
-1.464261 -0.122696 3.274577
-1.453978 -0.123122 3.286358
-1.440989 -0.123326 3.292121
-1.429249 -0.123642 3.300805
-1.417778 -0.123989 3.310224
-1.404459 -0.124180 3.315410
-1.390124 -0.124286 3.318214
-1.374369 -0.124265 3.317580
-1.361254 -0.124485 3.323311
-1.345642 -0.124480 3.322943
-1.328402 -0.124323 3.318440
-1.311430 -0.124187 3.314453
-1.302439 -0.124814 3.330730
-1.288736 -0.124998 3.335153
-1.276577 -0.125339 3.343684
-1.267936 -0.126039 3.361713
-1.257510 -0.126576 3.375357
-1.247270 -0.127147 3.389816
-1.235943 -0.127620 3.401619
-1.225278 -0.128175 3.415543
-1.210696 -0.128330 3.418747
-1.199107 -0.128811 3.430576
-1.185480 -0.129084 3.436800
-1.172178 -0.129399 3.444130
-1.155786 -0.129379 3.442452
-1.143697 -0.129846 3.453714
-1.115163 -0.130313 3.463670
-1.098356 -0.130257 3.460867
-1.082385 -0.130299 3.460663
-1.069686 -0.130743 3.471084
-0.243911 -0.038717 1.020967
-0.237085 -0.038398 1.012085
-0.230734 -0.038145 1.004933
-0.223510 -0.037734 0.993624
-0.216462 -0.037336 0.982662
-0.209532 -0.036941 0.971794
-0.201732 -0.036372 0.956347
-0.194086 -0.035804 0.940965
-0.186289 -0.035181 0.924150
-0.179289 -0.034682 0.910608
-0.172078 -0.034117 0.895331
-0.166077 -0.033768 0.885766
-0.160783 -0.033549 0.879606
-0.154866 -0.033185 0.869652
-0.150296 -0.033097 0.866953
-0.143693 -0.032544 0.852078
-0.139771 -0.032584 0.852728
-0.121834 -0.029260 0.765398
-0.116716 -0.028904 0.755753
-0.112728 -0.028813 0.753066
-0.109894 -0.029022 0.758193
-0.105867 -0.028919 0.755197
-0.101936 -0.028836 0.752719
-0.098249 -0.028819 0.751967
-0.094540 -0.028793 0.751005
-0.090912 -0.028792 0.750682
-0.087641 -0.028907 0.753424
-0.083225 -0.028640 0.746177
-0.077838 -0.027998 0.729207
-0.026225 -0.010372 0.269966
-0.024752 -0.010303 0.268064
-0.023050 -0.010125 0.263350
-0.021648 -0.010066 0.261739
-0.020352 -0.010051 0.261295
-0.019068 -0.010042 0.260980
-0.017714 -0.009991 0.259599
-0.016211 -0.009843 0.255672
-0.014861 -0.009770 0.253720
-0.013544 -0.009707 0.252050
-0.012303 -0.009693 0.251627
-0.011015 -0.009634 0.250058
-0.009792 -0.009626 0.249787
-0.008550 -0.009593 0.248893
-0.007344 -0.009596 0.248931
-0.005695 -0.008907 0.231034
-0.004579 -0.008919 0.231317
-0.003461 -0.008933 0.231660
-0.002285 -0.008740 0.226637
-0.001178 -0.008700 0.225585
-0.000082 -0.008682 0.225120
0.001022 -0.008760 0.227121
0.002133 -0.008792 0.227943
0.003257 -0.008834 0.229043
0.004429 -0.008952 0.232108
0.005560 -0.008957 0.232219
0.006681 -0.008946 0.231960
0.007837 -0.008978 0.232802
0.009001 -0.009011 0.233657
0.010209 -0.009075 0.235346
0.011409 -0.009119 0.236516
0.012533 -0.009101 0.236063
0.013737 -0.009139 0.237075
0.014923 -0.009160 0.237655
0.016125 -0.009187 0.238387
0.017350 -0.009222 0.239340
0.018549 -0.009240 0.239856
0.019824 -0.009292 0.241240
0.021082 -0.009330 0.242286
0.022357 -0.009371 0.243409
0.023591 -0.009392 0.244008
0.024807 -0.009404 0.244379
0.026002 -0.009407 0.244527
