ply
format ascii 1.0
element vertex 1685
property float x
property float y
property float z
end_header
-0.476326 -0.420747 1.682491
-0.460942 -0.414047 1.655385
-0.454944 -0.415693 1.661640
-0.453718 -0.421834 1.685840
-0.409095 -0.442341 1.764508
-0.404505 -0.446476 1.780548
-0.284051 -0.417872 1.661180
-0.276440 -0.418279 1.662361
-0.268497 -0.418196 1.661592
-0.260250 -0.417618 1.658865
-0.253267 -0.419098 1.664312
-0.245488 -0.419313 1.664743
-0.238166 -0.420351 1.668444
-0.231421 -0.422514 1.676612
-0.273082 -0.516361 2.048513
-0.263551 -0.516774 2.049658
-0.255996 -0.521243 2.066894
-0.248229 -0.525622 2.083778
-0.238702 -0.526485 2.086726
-0.230033 -0.529395 2.097800
-0.220927 -0.531524 2.105780
-0.212104 -0.534567 2.117392
-0.202730 -0.536457 2.124445
-0.192924 -0.537346 2.127546
-0.182929 -0.537775 2.128840
-0.173157 -0.538954 2.133115
-0.163558 -0.540853 2.140253
-0.154284 -0.544151 2.152936
-0.144261 -0.545095 2.156322
-0.134359 -0.546675 2.162235
-0.124763 -0.549868 2.174543
-0.114866 -0.552196 2.183446
-0.104783 -0.554012 2.190337
-0.094350 -0.554173 2.190704
-0.083988 -0.554849 2.193122
-0.073551 -0.555153 2.194089
-0.062786 -0.552668 2.184051
-0.052206 -0.551164 2.177912
-0.041556 -0.547981 2.165158
-0.030974 -0.543899 2.148871
-0.020539 -0.539632 2.131878
-0.010236 -0.533878 2.109029
-0.000149 -0.527332 2.083069
0.009697 -0.521148 2.058565
0.019315 -0.515115 2.034673
0.028785 -0.510475 2.016304
0.038215 -0.507636 2.005066
0.047706 -0.506572 2.000859
0.057088 -0.504904 1.994278
0.066525 -0.504126 1.991234
0.076037 -0.504035 1.990917
0.013155 -0.077494 0.306107
0.014523 -0.076983 0.304099
0.016012 -0.077147 0.304763
0.017327 -0.076516 0.302286
0.018692 -0.076185 0.300998
0.019985 -0.075629 0.298823
0.021364 -0.075451 0.298143
0.022809 -0.075517 0.298428
0.024313 -0.075755 0.299396
0.025756 -0.075787 0.299556
0.027329 -0.076177 0.301129
0.028847 -0.076384 0.301981
0.030291 -0.076384 0.302018
0.031690 -0.076275 0.301624
0.033026 -0.076030 0.300694
0.034458 -0.076020 0.300696
0.035830 -0.075880 0.300187
0.037119 -0.075584 0.299058
0.038467 -0.075424 0.298470
0.039818 -0.075283 0.297959
0.041203 -0.075211 0.297725
0.042568 -0.075110 0.297374
0.044050 -0.075216 0.297844
0.045444 -0.075168 0.297704
0.046732 -0.074953 0.296907
0.048023 -0.074757 0.296180
0.049263 -0.074493 0.295189
0.050622 -0.074420 0.294954
0.051970 -0.074335 0.294669
0.053272 -0.074190 0.294149
0.054718 -0.074247 0.294432
0.056046 -0.074145 0.294083
0.057614 -0.074359 0.294985
0.059371 -0.074801 0.296792
0.061104 -0.075191 0.298396
0.062970 -0.075724 0.300569
0.064890 -0.076298 0.302900
0.067078 -0.077154 0.306352
0.068931 -0.077596 0.308164
0.070524 -0.077733 0.308762
0.072284 -0.078045 0.310054
0.073676 -0.077955 0.309749
0.074107 -0.076872 0.305493
0.074375 -0.075665 0.300743
0.075228 -0.075087 0.298491
0.076216 -0.074663 0.296850
0.077396 -0.074438 0.295999
0.078594 -0.074239 0.295247
0.079683 -0.073946 0.294117
0.080635 -0.073537 0.292528
0.081407 -0.072982 0.290349
0.082435 -0.072669 0.289136
0.083076 -0.072033 0.286629
0.084308 -0.071921 0.286207
0.085088 -0.071432 0.284283
0.085875 -0.070965 0.282440
0.086769 -0.070599 0.280997
0.087937 -0.070463 0.280469
0.088626 -0.069954 0.278450
0.089329 -0.069471 0.276528
0.090339 -0.069237 0.275596
0.091275 -0.068954 0.274463
0.092012 -0.068530 0.272768
0.092964 -0.068276 0.271745
0.093811 -0.067952 0.270439
0.094638 -0.067624 0.269109
0.095453 -0.067296 0.267777
0.096084 -0.066848 0.265963
0.096893 -0.066534 0.264679
0.097475 -0.066074 0.262807
0.098065 -0.065631 0.261000
0.098523 -0.065112 0.258883
0.099097 -0.064682 0.257117
0.100119 -0.064550 0.256531
0.100916 -0.064279 0.255384
0.101697 -0.064004 0.254217
0.102498 -0.063748 0.253121
0.103350 -0.063530 0.252165
0.104211 -0.063321 0.251243
0.104928 -0.063031 0.249993
0.105682 -0.062770 0.248849
0.106476 -0.062537 0.247814
0.107174 -0.062254 0.246570
0.107895 -0.061991 0.245398
0.108621 -0.061735 0.244252
0.109170 -0.061386 0.242727
0.109513 -0.060929 0.240769
0.110199 -0.060671 0.239589
0.110796 -0.060370 0.238232
0.111280 -0.060014 0.236650
0.111842 -0.059706 0.235254
0.112282 -0.059341 0.233620
0.113010 -0.059133 0.232599
0.113187 -0.058643 0.230462
0.113869 -0.058423 0.229374
0.114557 -0.058209 0.228303
0.114964 -0.057859 0.226686
0.115758 -0.057707 0.225842
0.116594 -0.057580 0.225077
0.117219 -0.057351 0.223908
0.117981 -0.057193 0.223002
-1.488241 -0.692051 2.774890
-1.483864 -0.696205 2.794852
-1.472601 -0.697176 2.801907
-1.455937 -0.695584 2.798516
-1.447983 -0.698163 2.811768
-1.435431 -0.698554 2.816082
-1.421827 -0.698436 2.818212
-1.410594 -0.699492 2.824955
-1.404318 -0.703051 2.841697
-1.400731 -0.708039 2.864120
-1.394704 -0.711879 2.881811
-1.387545 -0.715213 2.897356
-1.395170 -0.726310 2.944278
-1.385807 -0.728699 2.955823
-1.373581 -0.729616 2.961299
-1.352366 -0.725729 2.947166
-1.348299 -0.731059 2.970366
-1.333498 -0.730621 2.970039
-1.436478 -0.795391 3.234814
-1.423116 -0.796440 3.240458
-1.414015 -0.799923 3.255916
-1.405502 -0.803819 3.272972
-1.400738 -0.809970 3.299130
-1.387723 -0.811436 3.306121
-1.376909 -0.814236 3.318470
-1.368517 -0.818550 3.336908
-1.354529 -0.819580 3.341878
-1.343918 -0.822701 3.355298
-1.331378 -0.824702 3.364077
-1.318152 -0.826322 3.371227
-1.305502 -0.828347 3.379957
-1.291955 -0.829848 3.386476
-1.279299 -0.831965 3.395445
-1.268519 -0.835372 3.409609
-1.255800 -0.837574 3.418790
-1.245092 -0.841192 3.433690
-1.232130 -0.843363 3.442621
-1.226298 -0.850538 3.471919
-1.228756 -0.863735 3.525739
-0.573102 -0.408359 1.666860
-0.564034 -0.407468 1.663146
-0.553186 -0.405248 1.653985
-0.553286 -0.411100 1.677741
-0.536589 -0.404460 1.650497
-0.529564 -0.405024 1.652626
-0.504454 -0.391566 1.597530
-0.497627 -0.392108 1.599537
-0.494112 -0.395316 1.612401
-0.479665 -0.389743 1.589430
-0.473367 -0.390720 1.593157
-0.474780 -0.398195 1.623361
-0.479270 -0.408538 1.665227
-0.480072 -0.416030 1.695440
-0.472715 -0.416586 1.697369
-0.465334 -0.417139 1.699272
-0.282611 -0.407874 1.652111
-0.274999 -0.408213 1.653034
-0.266945 -0.407896 1.651307
-0.259843 -0.409061 1.655580
-0.253602 -0.411697 1.665808
-0.246117 -0.412416 1.668284
-0.238244 -0.412514 1.668251
-0.231554 -0.414739 1.676820
-0.224963 -0.417305 1.686774
-0.264858 -0.509483 2.058856
-0.255260 -0.509881 2.059970
-0.248229 -0.515645 2.082763
-0.237708 -0.514340 2.077010
-0.229886 -0.519013 2.095408
-0.221245 -0.522181 2.107734
-0.212162 -0.524555 2.116863
-0.203346 -0.527863 2.129769
-0.194268 -0.530805 2.141212
-0.184952 -0.533386 2.151201
-0.174431 -0.532594 2.147605
-0.164460 -0.533488 2.150821
-0.155166 -0.536844 2.163977
-0.145066 -0.537695 2.167049
-0.134838 -0.538168 2.168609
-0.124709 -0.539146 2.172227
-0.114731 -0.541020 2.179466
-0.104630 -0.542628 2.185652
-0.094206 -0.542738 2.185821
-0.083627 -0.541872 2.182076
-0.073188 -0.541805 2.181571
-0.062664 -0.540973 2.178003
-0.052085 -0.539253 2.170877
-0.041490 -0.536481 2.159540
-0.030955 -0.532903 2.144976
-0.020531 -0.528647 2.127709
-0.010247 -0.523214 2.105725
-0.000171 -0.516614 2.079065
0.009647 -0.509825 2.051666
0.019255 -0.504364 2.029629
0.028796 -0.501391 2.017626
0.038250 -0.498777 2.007081
0.047747 -0.497652 2.002549
0.057211 -0.496615 1.998390
0.066764 -0.496539 1.998113
0.011788 -0.076682 0.308584
0.013061 -0.075508 0.303870
0.014413 -0.074972 0.301722
0.015962 -0.075468 0.303735
0.017232 -0.074673 0.300552
0.018538 -0.074143 0.298439
0.019870 -0.073786 0.297023
0.021237 -0.073597 0.296288
0.022671 -0.073651 0.296528
0.024167 -0.073886 0.297506
0.025612 -0.073947 0.297782
0.027179 -0.074337 0.299383
0.028660 -0.074463 0.299926
0.030121 -0.074529 0.300230
0.031557 -0.074527 0.300262
0.032867 -0.074244 0.299161
0.034294 -0.074235 0.299168
0.035665 -0.074111 0.298713
0.037042 -0.074009 0.298349
0.038405 -0.073887 0.297902
0.039816 -0.073862 0.297850
0.041256 -0.073891 0.298017
0.042698 -0.073921 0.298192
0.044163 -0.073989 0.298516
0.045594 -0.073997 0.298604
0.046977 -0.073929 0.298382
0.048366 -0.073874 0.298215
0.049566 -0.073541 0.296927
0.050988 -0.073547 0.297007
0.052318 -0.073422 0.296561
0.053587 -0.073222 0.295809
0.054958 -0.073169 0.295649
0.056248 -0.073012 0.295073
0.057828 -0.073229 0.296010
0.059443 -0.073480 0.297079
0.061191 -0.073880 0.298757
0.063014 -0.074350 0.300712
0.064986 -0.074970 0.303280
0.066918 -0.075519 0.305558
0.068815 -0.076006 0.307583
0.070142 -0.075855 0.307029
0.072373 -0.076668 0.310377
0.072493 -0.075258 0.304722
0.073314 -0.074616 0.302173
0.073971 -0.073835 0.299061
0.075169 -0.073613 0.298212
0.076370 -0.073403 0.297406
0.077404 -0.073043 0.295990
0.078491 -0.072744 0.294820
0.079596 -0.072472 0.293761
0.080513 -0.072041 0.292052
0.081385 -0.071586 0.290240
0.082336 -0.071214 0.288763
0.083242 -0.070815 0.287178
0.084115 -0.070403 0.285531
0.085088 -0.070085 0.284266
0.085933 -0.069674 0.282618
0.086933 -0.069398 0.281518
0.087955 -0.069149 0.280520
0.088655 -0.068657 0.278535
0.089549 -0.068329 0.277207
0.090596 -0.068124 0.276379
0.091241 -0.067628 0.274366
0.091911 -0.067163 0.272475
0.092700 -0.066798 0.270981
0.093651 -0.066557 0.269992
0.094582 -0.066310 0.268968
0.095306 -0.065925 0.267383
0.096322 -0.065749 0.266644
0.097013 -0.065360 0.265032
0.097495 -0.064841 0.262890
0.098060 -0.064390 0.261018
0.098687 -0.063990 0.259349
0.099288 -0.063584 0.257649
0.100337 -0.063471 0.257131
0.101140 -0.063207 0.255996
0.101632 -0.062757 0.254103
0.102278 -0.062412 0.252627
0.103335 -0.062323 0.252183
0.104112 -0.062068 0.251062
0.104779 -0.061754 0.249698
0.105379 -0.061409 0.248200
0.106305 -0.061259 0.247483
0.107199 -0.061094 0.246699
0.107629 -0.060671 0.244867
0.108279 -0.060380 0.243560
0.108790 -0.060019 0.241962
0.109057 -0.059531 0.239851
0.109719 -0.059268 0.238635
0.110464 -0.059054 0.237609
0.110860 -0.058660 0.235853
0.111213 -0.058251 0.234029
0.111664 -0.057901 0.232435
0.112445 -0.057728 0.231542
0.112919 -0.057401 0.230026
0.113494 -0.057132 0.228732
0.114155 -0.056911 0.227621
0.114894 -0.056733 0.226671
0.115585 -0.056534 0.225631
0.116474 -0.056436 0.224977
0.117198 -0.056259 0.224004
0.117887 -0.056069 0.222964
-1.490532 -0.679759 2.780699
-1.482229 -0.682036 2.793259
-1.469839 -0.682457 2.798081
-1.455785 -0.682107 2.799599
-1.444039 -0.682843 2.805434
-1.433789 -0.684307 2.814134
-1.422606 -0.685350 2.820981
-1.415786 -0.688536 2.836533
-1.410482 -0.692528 2.855307
-1.406522 -0.697263 2.877055
-1.406663 -0.704145 2.907578
-1.395076 -0.705235 2.914093
-1.379377 -0.704248 2.911911
-1.379631 -0.711469 2.943574
-1.363863 -0.710490 2.941226
-1.349987 -0.710488 2.942814
-1.340921 -0.713045 2.954903
-1.326184 -0.712608 2.954497
-1.455042 -0.790140 3.277396
-1.441525 -0.791192 3.283111
-1.427761 -0.792130 3.288256
-1.403495 -0.787199 3.268935
-1.405410 -0.797006 3.310733
-1.390855 -0.797590 3.314137
-1.377599 -0.798940 3.320642
-1.366374 -0.801514 3.332153
-1.352891 -0.802808 3.338260
-1.338932 -0.803847 3.343232
-1.327447 -0.806415 3.354486
-1.315088 -0.808508 3.363689
-1.302078 -0.810247 3.371351
-1.289743 -0.812455 3.380894
-1.278106 -0.815164 3.392453
-1.266999 -0.818285 3.405659
-1.254780 -0.820758 3.416108
-1.243291 -0.823781 3.428779
-1.231270 -0.826526 3.440234
-1.227710 -0.835099 3.475891
-1.229970 -0.847917 3.529154
-0.569860 -0.398220 1.657380
-0.565100 -0.400367 1.666220
-0.557714 -0.400687 1.667436
-0.553860 -0.403591 1.679374
-0.495667 -0.394977 1.642241
-0.488609 -0.395522 1.644224
-0.483126 -0.397379 1.651648
-0.475996 -0.397921 1.653586
-0.469780 -0.399258 1.658810
-0.466380 -0.403075 1.674319
-0.466738 -0.410326 1.704072
-0.283016 -0.400570 1.653828
-0.275784 -0.401471 1.657090
-0.268636 -0.402551 1.661088
-0.260416 -0.402042 1.658534
-0.252972 -0.402738 1.660957
-0.246084 -0.404393 1.667337
-0.239316 -0.406362 1.675011
-0.231896 -0.407323 1.678537
-0.224738 -0.408829 1.684312
-0.218146 -0.411515 1.694952
-0.255652 -0.500790 2.062150
-0.248613 -0.506455 2.084971
-0.235735 -0.521922 2.147643
-0.225655 -0.522281 2.148638
-0.216316 -0.524473 2.157185
-0.205310 -0.522643 2.149205
-0.195736 -0.524457 2.156221
-0.185565 -0.524785 2.157141
-0.175596 -0.525760 2.160735
-0.164430 -0.523048 2.149191
-0.155881 -0.528856 2.172675
-0.146154 -0.531212 2.181985
-0.134657 -0.527005 2.164355
-0.125701 -0.532876 2.188133
-0.115353 -0.533371 2.189848
-0.104839 -0.533128 2.188552
-0.094409 -0.533305 2.189000
-0.083800 -0.532395 2.185004
-0.073314 -0.532117 2.183624
-0.062701 -0.530680 2.177505
-0.052092 -0.528719 2.169255
-0.041520 -0.526245 2.158924
-0.030920 -0.521685 2.140057
-0.020481 -0.516666 2.119330
-0.010230 -0.511219 2.096869
-0.000192 -0.504350 2.068594
0.009611 -0.499234 2.047536
0.019215 -0.494182 2.026755
0.028712 -0.490664 2.012288
0.038264 -0.489620 2.007986
0.047735 -0.488168 2.002025
0.057232 -0.487414 1.998950
0.066793 -0.487338 1.998672
0.011852 -0.075639 0.310218
0.013235 -0.075055 0.307832
0.014535 -0.074171 0.304221
0.015983 -0.074128 0.304062
0.017331 -0.073671 0.302206
0.018595 -0.072954 0.299283
0.019910 -0.072524 0.297542
0.021249 -0.072232 0.296368
0.022634 -0.072125 0.295956
0.024030 -0.072063 0.295732
0.025483 -0.072168 0.296194
0.026969 -0.072350 0.296976
0.028491 -0.072607 0.298066
0.029913 -0.072595 0.298054
0.031349 -0.072619 0.298194
0.032751 -0.072563 0.298007
0.034154 -0.072515 0.297852
0.035518 -0.072390 0.297387
0.036964 -0.072437 0.297627
0.038366 -0.072396 0.297507
0.039822 -0.072456 0.297802
0.041353 -0.072643 0.298625
0.042811 -0.072696 0.298893
0.044309 -0.072809 0.299412
0.045768 -0.072853 0.299650
0.047173 -0.072813 0.299540
0.048579 -0.072774 0.299438
0.049905 -0.072622 0.298870
0.051224 -0.072469 0.298298
0.052489 -0.072249 0.297452
0.053757 -0.072044 0.296668
0.055100 -0.071948 0.296333
0.056533 -0.071972 0.296492
0.058045 -0.072093 0.297047
0.059702 -0.072383 0.298302
0.061524 -0.072855 0.300308
0.063322 -0.073278 0.302111
0.065160 -0.073728 0.304027
0.066917 -0.074068 0.305488
0.068706 -0.074427 0.307032
0.070981 -0.075288 0.310641
0.072377 -0.075200 0.310339
0.071917 -0.073226 0.302246
0.072870 -0.072740 0.300293
0.074069 -0.072513 0.299410
0.075218 -0.072246 0.298359
0.076324 -0.071949 0.297183
0.077384 -0.071621 0.295872
0.078473 -0.071330 0.294717
0.079504 -0.070997 0.293385
0.080413 -0.070569 0.291657
0.081188 -0.070040 0.289506
0.082076 -0.069625 0.287824
0.082958 -0.069218 0.286175
0.083984 -0.068942 0.285064
0.085012 -0.068676 0.283992
0.085924 -0.068327 0.282571
0.086966 -0.068090 0.281611
0.088055 -0.067897 0.280829
0.088722 -0.067389 0.278740
0.088957 -0.066573 0.275372
0.089866 -0.066277 0.274153
0.090766 -0.065982 0.272937
0.091604 -0.065652 0.271569
0.092521 -0.065387 0.270465
0.093431 -0.065124 0.269367
0.094406 -0.064914 0.268481
0.095194 -0.064582 0.267087
0.095961 -0.064244 0.265663
0.096897 -0.064027 0.264737
0.097306 -0.063472 0.262406
0.098054 -0.063148 0.261030
0.098749 -0.062800 0.259545
0.099496 -0.062493 0.258224
0.100336 -0.062250 0.257167
0.101038 -0.061929 0.255778
0.101458 -0.061445 0.253713
0.102070 -0.061087 0.252161
0.103102 -0.060986 0.251663
0.103912 -0.060758 0.250634
0.104550 -0.060435 0.249211
0.105322 -0.060196 0.248125
0.106194 -0.060019 0.247288
0.107032 -0.059826 0.246383
0.107676 -0.059531 0.245045
0.108273 -0.059216 0.243621
0.108922 -0.058936 0.242334
0.109286 -0.058510 0.240436
0.109831 -0.058188 0.238962
0.110312 -0.057839 0.237372
0.111092 -0.057652 0.236437
0.111564 -0.057311 0.234862
0.112201 -0.057061 0.233653
0.113014 -0.056904 0.232815
0.113173 -0.056424 0.230650
0.113718 -0.056144 0.229293
0.114416 -0.055944 0.228254
0.114845 -0.055618 0.226692
0.115450 -0.055383 0.225489
0.116466 -0.055346 0.225086
0.117021 -0.055094 0.223795
0.117825 -0.054963 0.222983
-1.488280 -0.665396 2.777978
-1.481663 -0.668379 2.793624
-1.469506 -0.668896 2.798826
-1.456917 -0.669224 2.803102
-1.448591 -0.671536 2.815555
-1.439245 -0.673414 2.826073
-1.430479 -0.675602 2.837776
-1.422881 -0.678389 2.851886
-1.417449 -0.682273 2.870506
-1.415930 -0.688134 2.897359
-1.422616 -0.698137 2.941578
-1.410466 -0.699004 2.947217
-1.396767 -0.699113 2.949554
-1.384604 -0.700002 2.955073
-1.372426 -0.700901 2.960535
-1.350908 -0.697001 2.945615
-1.330711 -0.693710 2.933151
-1.341924 -0.706896 2.990280
-1.448695 -0.771233 3.263837
-1.435256 -0.772270 3.269524
-1.431556 -0.778626 3.297646
-1.408103 -0.774262 3.280271
-1.403453 -0.780255 3.306687
-1.393020 -0.783131 3.319816
-1.379507 -0.784323 3.325721
-1.365514 -0.785266 3.330490
-1.353280 -0.787256 3.339615
-1.339532 -0.788401 3.345083
-1.325995 -0.789700 3.351126
-1.315655 -0.792958 3.365407
-1.303448 -0.795157 3.375126
-1.290231 -0.796787 3.382360
-1.278761 -0.799551 3.394338
-1.268136 -0.802920 3.408822
-1.256983 -0.806037 3.422174
-1.244233 -0.808198 3.431402
-1.234452 -0.812372 3.449112
-1.229073 -0.819591 3.479696
-0.570423 -0.390777 1.658957
-0.558041 -0.387592 1.645325
-0.550314 -0.387597 1.645212
-0.485551 -0.379308 1.608510
-0.483473 -0.383669 1.626707
-0.493188 -0.397678 1.685784
-0.485915 -0.398225 1.687766
-0.480817 -0.400602 1.697484
-0.473460 -0.401146 1.699422
-0.467284 -0.402727 1.705735
-0.281338 -0.390354 1.643371
-0.276813 -0.395034 1.662600
-0.268854 -0.394943 1.661751
-0.260582 -0.394374 1.658893
-0.252949 -0.394769 1.660095
-0.245866 -0.396076 1.665133
-0.238935 -0.397722 1.671602
-0.231924 -0.399345 1.677979
-0.225366 -0.401891 1.688236
-0.218322 -0.403729 1.695519
-0.210060 -0.403370 1.693587
-0.202384 -0.404152 1.696450
-0.194445 -0.404453 1.697307
-0.214440 -0.535109 2.243583
-0.203859 -0.535438 2.244491
-0.192209 -0.532840 2.233149
-0.179661 -0.527301 2.209505
-0.168596 -0.525699 2.202379
-0.158421 -0.526845 2.206783
-0.147776 -0.526483 2.204887
-0.136828 -0.524901 2.197902
-0.126286 -0.524748 2.196920
-0.115893 -0.525246 2.198682
-0.105268 -0.524684 2.196022
-0.094640 -0.523989 2.192830
-0.083980 -0.522924 2.188108
-0.073375 -0.521948 2.183779
-0.062778 -0.520711 2.178377
-0.052160 -0.518793 2.170152
-0.041536 -0.515839 2.157613
-0.031004 -0.512454 2.143293
-0.020576 -0.508324 2.125877
-0.010213 -0.499299 2.088017
-0.000213 -0.493228 2.062530
0.009540 -0.486885 2.035928
0.019178 -0.484072 2.024104
0.028748 -0.481980 2.015318
0.038269 -0.480335 2.008423
0.047744 -0.478878 2.002329
0.057284 -0.478450 2.000554
0.066857 -0.478375 2.000275
0.011706 -0.073259 0.306335
0.013069 -0.072677 0.303909
0.014456 -0.072334 0.302488
0.015931 -0.072450 0.302991
0.017233 -0.071829 0.300411
0.018590 -0.071511 0.299105
0.019953 -0.071265 0.298096
0.021258 -0.070853 0.296401
0.022658 -0.070794 0.296181
0.024031 -0.070658 0.295644
0.025502 -0.070812 0.296320
0.026980 -0.070968 0.297009
0.028454 -0.071097 0.297587
0.029861 -0.071055 0.297450
0.031323 -0.071139 0.297845
0.032716 -0.071070 0.297596
0.034122 -0.071031 0.297480
0.035562 -0.071063 0.297661
0.037056 -0.071196 0.298267
0.038473 -0.071178 0.298240
0.039917 -0.071208 0.298421
0.041530 -0.071528 0.299813
0.043030 -0.071639 0.300332
0.044568 -0.071802 0.301076
0.046074 -0.071906 0.301569
0.047557 -0.071968 0.301885
0.048954 -0.071900 0.301662
0.050283 -0.071740 0.301048
0.051571 -0.071532 0.300235
0.052900 -0.071389 0.299699
0.054203 -0.071219 0.299048
0.055605 -0.071186 0.298970
0.057016 -0.071165 0.298945
0.058513 -0.071250 0.299365
0.060119 -0.071461 0.300312
0.061848 -0.071805 0.301820
0.063744 -0.072321 0.304053
0.064939 -0.072038 0.302925
0.066988 -0.072694 0.305746
0.068790 -0.073058 0.307342
0.069481 -0.072253 0.304014
0.070134 -0.071442 0.300661
0.071459 -0.071334 0.300266
0.072803 -0.071249 0.299964
0.073994 -0.071020 0.299053
0.075200 -0.070814 0.298239
0.076418 -0.070627 0.297503
0.077440 -0.070268 0.296041
0.078474 -0.069933 0.294677
0.079579 -0.069672 0.293625
0.080516 -0.069275 0.291993
0.081221 -0.068695 0.289591
0.081927 -0.068136 0.287273
0.082863 -0.067784 0.285820
0.084065 -0.067656 0.285316
0.084852 -0.067204 0.283437
0.085625 -0.066755 0.281570
0.086128 -0.066113 0.278885
0.087338 -0.066024 0.278529
0.087612 -0.065242 0.275243
0.088645 -0.065039 0.274398
0.089698 -0.064856 0.273636
0.090611 -0.064578 0.272470
0.091382 -0.064209 0.270912
0.092346 -0.063984 0.269960
0.093270 -0.063738 0.268911
0.094175 -0.063486 0.267835
0.095079 -0.063239 0.266777
0.095923 -0.062959 0.265576
0.096729 -0.062663 0.264297
0.097557 -0.062388 0.263106
0.098191 -0.061997 0.261422
0.099015 -0.061734 0.260272
0.099682 -0.061382 0.258740
0.100456 -0.061103 0.257511
0.100940 -0.060656 0.255569
0.101721 -0.060397 0.254411
0.102391 -0.060078 0.253000
0.103219 -0.059859 0.251998
0.104062 -0.059652 0.251046
0.104652 -0.059308 0.249507
0.105190 -0.058942 0.247872
0.106052 -0.058763 0.247019
0.106759 -0.058504 0.245817
0.107068 -0.058034 0.243729
0.108030 -0.057925 0.243144
0.108488 -0.057550 0.241441
0.108899 -0.057160 0.239662
0.109542 -0.056897 0.238415
0.110121 -0.056607 0.237044
0.110772 -0.056359 0.235843
0.111339 -0.056074 0.234480
0.111972 -0.055828 0.233268
0.112699 -0.055633 0.232264
0.113390 -0.055424 0.231194
0.113695 -0.055032 0.229352
0.114347 -0.054815 0.228226
0.114981 -0.054593 0.227074
0.115618 -0.054376 0.225934
0.116526 -0.054290 0.225325
0.117095 -0.054048 0.224062
0.117789 -0.053869 0.223045
-1.490046 -0.652834 2.782703
-1.481804 -0.655046 2.795267
-1.469506 -0.655490 2.800153
-1.455727 -0.655276 2.802087
-1.448503 -0.658037 2.816613
-1.435676 -0.658281 2.820245
-1.429417 -0.661570 2.836805
-1.423856 -0.665248 2.854936
-1.414922 -0.667406 2.866439
-1.407943 -0.670538 2.882022
-1.423481 -0.684561 2.944349
-1.343540 -0.679305 2.930302
-1.324550 -0.676657 2.920279
-1.342865 -0.693212 2.993060
-1.449672 -0.756284 3.266737
-1.436243 -0.757310 3.272426
-1.427137 -0.760664 3.288080
-1.407105 -0.758204 3.278513
-1.400855 -0.763198 3.301092
-1.388036 -0.764687 3.308422
-1.375896 -0.766588 3.317457
-1.364666 -0.769046 3.328822
-1.351984 -0.770735 3.336777
-1.339996 -0.772864 3.346561
-1.328297 -0.775212 3.357223
-1.316597 -0.777617 3.368058
-1.304522 -0.779857 3.378105
-1.290375 -0.780899 3.382895
-1.278479 -0.783347 3.393708
-1.266213 -0.785628 3.403733
-1.255767 -0.789112 3.418904
-1.246138 -0.793207 3.436660
-1.234174 -0.795903 3.448297
-1.226418 -0.801422 3.472103
-1.225343 -0.811516 3.515668
-0.496219 -0.379867 1.643620
-0.489165 -0.380399 1.645610
-0.487369 -0.385103 1.665627
-0.479400 -0.385005 1.664851
-0.478728 -0.397474 1.718005
-0.471270 -0.398015 1.719941
-0.291266 -0.385325 1.655276
-0.277862 -0.377788 1.622421
-0.274271 -0.383545 1.646665
-0.268382 -0.386330 1.658145
-0.259196 -0.384397 1.649377
-0.251895 -0.385226 1.652467
-0.245392 -0.387368 1.661189
-0.238140 -0.388433 1.665300
-0.231114 -0.389952 1.671358
-0.223748 -0.390986 1.675340
-0.216458 -0.392236 1.680257
-0.208490 -0.392305 1.680120
-0.201058 -0.393431 1.684519
-0.193762 -0.394927 1.690508
-0.185836 -0.395214 1.691331
-0.204181 -0.525484 2.246813
-0.193560 -0.525777 2.247602
-0.182805 -0.525721 2.246919
-0.172163 -0.526003 2.247693
-0.159320 -0.519153 2.218015
-0.149053 -0.520318 2.222606
-0.137406 -0.516482 2.205850
-0.127473 -0.518982 2.216177
-0.116827 -0.518773 2.214956
-0.105803 -0.516684 2.205725
-0.095112 -0.515936 2.202240
-0.084230 -0.513837 2.193012
-0.073517 -0.512325 2.186310
-0.062773 -0.510065 2.176437
-0.052145 -0.508038 2.167581
-0.041593 -0.505935 2.158427
-0.030967 -0.501244 2.138248
-0.020502 -0.495843 2.115067
-0.010192 -0.487289 2.078462
-0.000232 -0.478972 2.042890
0.009504 -0.476370 2.031711
0.019135 -0.473820 2.020780
0.028724 -0.472268 2.014124
0.038261 -0.470861 2.008102
0.047755 -0.469596 2.002708
0.057333 -0.469436 2.002045
0.066918 -0.469361 2.001765
0.011682 -0.071666 0.305657
0.013149 -0.071673 0.305696
0.014411 -0.070677 0.301464
0.015908 -0.070910 0.302471
0.017297 -0.070664 0.301441
0.018614 -0.070181 0.299405
0.019910 -0.069695 0.297356
0.021245 -0.069403 0.296136
0.022640 -0.069329 0.295850
0.024039 -0.069275 0.295652
0.025463 -0.069296 0.295775
0.026926 -0.069414 0.296314
0.028430 -0.069620 0.297231
0.029831 -0.069569 0.297055
0.031314 -0.069702 0.297664
0.032783 -0.069794 0.298105
0.034157 -0.069685 0.297683
0.035684 -0.069884 0.298584
0.037066 -0.069796 0.298256
0.038517 -0.069838 0.298489
0.040044 -0.070010 0.299278
0.041571 -0.070170 0.300016
0.043039 -0.070223 0.300301
0.044683 -0.070550 0.301755
0.046193 -0.070652 0.302252
0.047654 -0.070675 0.302411
0.049163 -0.070767 0.302865
0.050518 -0.070636 0.302370
0.051845 -0.070475 0.301740
0.053103 -0.070231 0.300762
0.054559 -0.070255 0.300930
0.056026 -0.070292 0.301153
0.057451 -0.070276 0.301149
0.058950 -0.070349 0.301526
0.060429 -0.070395 0.301788
0.062289 -0.070872 0.303898
0.063471 -0.070573 0.302682
0.065301 -0.070992 0.304543
0.067070 -0.071328 0.306050
0.068905 -0.071719 0.307790
0.069247 -0.070571 0.302927
0.070303 -0.070183 0.301323
0.071524 -0.069972 0.300478
0.072950 -0.069966 0.300513
0.074116 -0.069715 0.299492
0.075186 -0.069386 0.298136
0.076230 -0.069044 0.296721
0.077401 -0.068828 0.295847
0.078508 -0.068565 0.294765
0.079459 -0.068176 0.293143
0.080367 -0.067764 0.291416
0.080764 -0.066944 0.287931
0.081734 -0.066617 0.286566
0.082442 -0.066091 0.284340
0.083257 -0.065666 0.282547
0.084643 -0.065698 0.282715
0.085485 -0.065314 0.281090
0.086330 -0.064942 0.279518
0.087135 -0.064554 0.277868
0.087636 -0.063955 0.275308
0.088340 -0.063519 0.273445
0.089448 -0.063382 0.272867
0.090422 -0.063156 0.271900
0.091323 -0.062885 0.270738
0.092168 -0.062584 0.269442
0.093013 -0.062292 0.268178
0.094065 -0.062144 0.267531
0.094831 -0.061813 0.266093
0.095732 -0.061578 0.265063
0.096534 -0.061286 0.263782
0.097431 -0.061061 0.262786
0.098094 -0.060697 0.261187
0.098928 -0.060447 0.260071
0.099736 -0.060187 0.258909
0.100540 -0.059931 0.257757
0.101218 -0.059607 0.256309
0.101834 -0.059255 0.254733
0.102526 -0.058954 0.253374
0.103196 -0.058649 0.251987
0.103896 -0.058366 0.250695
0.104497 -0.058036 0.249189
0.105181 -0.057758 0.247904
0.105880 -0.057495 0.246675
0.106632 -0.057265 0.245585
0.107380 -0.057039 0.244502
0.107808 -0.056650 0.242712
0.108727 -0.056524 0.242044
0.109290 -0.056218 0.240597
0.109924 -0.055954 0.239323
0.110512 -0.055671 0.237965
0.110961 -0.055326 0.236329
0.111650 -0.055106 0.235222
0.112186 -0.054816 0.233807
0.112723 -0.054532 0.232409
0.113585 -0.054409 0.231690
0.114009 -0.054081 0.230087
0.114359 -0.053724 0.228356
0.114991 -0.053506 0.227202
0.115823 -0.053383 0.226446
0.116700 -0.053283 0.225779
0.117363 -0.053089 0.224697
0.118013 -0.052892 0.223594
-1.498314 -0.643032 2.799527
-1.488091 -0.644373 2.808462
-1.473506 -0.643833 2.809055
-1.460207 -0.643851 2.811940
-1.450279 -0.645370 2.821248
-1.438014 -0.645869 2.825972
-1.427196 -0.647034 2.833489
-1.422934 -0.651221 2.854136
-1.418617 -0.655464 2.874935
-1.413815 -0.659564 2.895012
-1.397527 -0.658334 2.891589
-1.344437 -0.665856 2.932977
-1.312325 -0.656701 2.893993
-1.447162 -0.731772 3.226221
-1.433922 -0.732767 3.231901
-1.442460 -0.745032 3.287214
-1.428727 -0.745935 3.292323
-1.410400 -0.744434 3.286724
-1.402937 -0.748699 3.306492
-1.391851 -0.751104 3.317969
-1.376645 -0.751316 3.319675
-1.364676 -0.753321 3.329218
-1.352317 -0.755154 3.337928
-1.339571 -0.756814 3.345790
-1.326559 -0.758360 3.353080
-1.315508 -0.761080 3.365484
-1.303726 -0.763438 3.376217
-1.289666 -0.764504 3.381170
-1.276644 -0.766221 3.388932
-1.264546 -0.768543 3.399307
-1.253388 -0.771504 3.412443
-1.238990 -0.772522 3.416924
-1.231724 -0.778072 3.441391
-1.225722 -0.784580 3.470034
-1.226511 -0.795670 3.518881
-0.495061 -0.377105 1.665188
-0.487903 -0.377635 1.667180
-0.481878 -0.379075 1.673169
-0.291666 -0.377949 1.656905
-0.284306 -0.378629 1.659392
-0.275768 -0.377735 1.654979
-0.268324 -0.378331 1.657102
-0.260635 -0.378608 1.657831
-0.252250 -0.377862 1.654086
-0.245481 -0.379566 1.661070
-0.238421 -0.380918 1.666519
-0.231000 -0.381768 1.669774
-0.223323 -0.382241 1.671390
-0.216232 -0.383790 1.677712
-0.208548 -0.384365 1.679788
-0.200735 -0.384740 1.680995
-0.193354 -0.386008 1.686112
-0.185678 -0.386774 1.689043
-0.177774 -0.387115 1.690131
-0.170051 -0.387899 1.693162
-0.193863 -0.515780 2.249891
-0.182166 -0.513113 2.237804
-0.171563 -0.513391 2.238578
-0.159430 -0.508823 2.218250
-0.150200 -0.513532 2.238379
-0.139048 -0.511890 2.230843
-0.127807 -0.509621 2.220599
-0.117228 -0.509822 2.221136
-0.106464 -0.509182 2.218030
-0.095535 -0.507523 2.210506
-0.084514 -0.504909 2.198847
-0.073698 -0.502944 2.190037
-0.062929 -0.500711 2.180083
-0.052158 -0.497579 2.166237
-0.041518 -0.494450 2.152430
-0.030945 -0.490316 2.134267
-0.020441 -0.483761 2.105593
-0.010212 -0.477288 2.077298
-0.000252 -0.470091 2.045877
0.009473 -0.466117 2.028506
0.019113 -0.464086 2.019611
0.028722 -0.462912 2.014462
0.038271 -0.461603 2.008750
0.047790 -0.460521 2.004046
0.057399 -0.460525 2.004082
0.066997 -0.460451 2.003802
0.011759 -0.070680 0.307596
0.013108 -0.070007 0.304679
0.014604 -0.070175 0.305424
0.015983 -0.069802 0.303818
0.017278 -0.069157 0.301033
0.018633 -0.068831 0.299634
0.019915 -0.068298 0.297341
0.021275 -0.068088 0.296455
0.022650 -0.067951 0.295887
0.024061 -0.067931 0.295833
0.025486 -0.067948 0.295943
0.026916 -0.067978 0.296109
0.028401 -0.068136 0.296839
0.029897 -0.068304 0.297610
0.031319 -0.068295 0.297617
0.032816 -0.068443 0.298305
0.034272 -0.068498 0.298594
0.035757 -0.068603 0.299102
0.037198 -0.068618 0.299221
0.038661 -0.068671 0.299505
0.040092 -0.068665 0.299536
0.041647 -0.068867 0.300472
0.043140 -0.068953 0.300908
0.044689 -0.069122 0.301703
0.046313 -0.069392 0.302943
0.047794 -0.069439 0.303212
0.049288 -0.069501 0.303544
0.050799 -0.069582 0.303963
0.052287 -0.069628 0.304231
0.053721 -0.069601 0.304180
0.055197 -0.069629 0.304369
0.056652 -0.069629 0.304436
0.058224 -0.069770 0.305119
0.059892 -0.070016 0.306262
0.061529 -0.070215 0.307202
0.063334 -0.070591 0.308918
0.064867 -0.070655 0.309267
0.066322 -0.070632 0.309233
0.067720 -0.070551 0.308948
0.068987 -0.070340 0.308090
0.069018 -0.068903 0.301861
0.070192 -0.068643 0.300786
0.071338 -0.068367 0.299639
0.072674 -0.068279 0.299317
0.073949 -0.068139 0.298765
0.074984 -0.067787 0.297279
0.076109 -0.067529 0.296203
0.077225 -0.067271 0.295129
0.078341 -0.067023 0.294091
0.079365 -0.066706 0.292753
0.080371 -0.066386 0.291396
0.081190 -0.065924 0.289414
0.081542 -0.065105 0.285860
0.082114 -0.064485 0.283178
0.083173 -0.064262 0.282236
0.084329 -0.064119 0.281644
0.085252 -0.063807 0.280302
0.086203 -0.063525 0.279091
0.086946 -0.063100 0.277250
0.087748 -0.062730 0.275645
0.088358 -0.062235 0.273490
0.089315 -0.061996 0.272454
0.090397 -0.061850 0.271821
0.091271 -0.061567 0.270583
0.092215 -0.061338 0.269580
0.093009 -0.061018 0.268169
0.094009 -0.060839 0.267377
0.094849 -0.060563 0.266153
0.095784 -0.060354 0.265218
0.096677 -0.060124 0.264189
0.097379 -0.059783 0.262664
0.097986 -0.059393 0.260920
0.098826 -0.059152 0.259827
0.099621 -0.058891 0.258637
0.100360 -0.058603 0.257327
0.101112 -0.058330 0.256074
0.101878 -0.058071 0.254878
0.102416 -0.057689 0.253142
0.102698 -0.057174 0.250813
0.103335 -0.056867 0.249386
0.104104 -0.056637 0.248299
0.104936 -0.056448 0.247378
0.105607 -0.056176 0.246093
0.106409 -0.055980 0.245131
0.107236 -0.055800 0.244235
0.107971 -0.055578 0.243143
0.108792 -0.055403 0.242255
0.109528 -0.055190 0.241191
0.110251 -0.054975 0.240108
0.110952 -0.054753 0.238991
0.111457 -0.054440 0.237468
0.112040 -0.054170 0.236127
0.112621 -0.053906 0.234800
0.113419 -0.053749 0.233934
0.113963 -0.053476 0.232555
0.114267 -0.053097 0.230707
0.114791 -0.052827 0.229320
0.115232 -0.052524 0.227784
0.115868 -0.052314 0.226644
0.116903 -0.052287 0.226285
0.117563 -0.052094 0.225196
0.118198 -0.051894 0.224067
-1.502684 -0.631445 2.809030
-1.487648 -0.630734 2.808910
-1.470554 -0.629130 2.804658
-1.461696 -0.631053 2.815992
-1.449866 -0.631718 2.821583
-1.440317 -0.633399 2.831593
-1.426943 -0.633413 2.834032
-1.418311 -0.635555 2.845868
-1.409161 -0.637503 2.856734
-1.403608 -0.641132 2.875035
-1.386202 -0.639367 2.869035
-1.406964 -0.655345 2.942584
-1.385348 -0.651707 2.927977
-1.354858 -0.643779 2.893966
-1.342994 -0.644631 2.899301
-1.300297 -0.630550 2.837343
-1.295163 -0.634581 2.856771
-1.457282 -0.721505 3.249449
-1.443968 -0.722494 3.255168
-1.436668 -0.726547 3.274596
-1.424548 -0.728224 3.283233
-1.408833 -0.728081 3.283574
-1.399324 -0.731178 3.298437
-1.389332 -0.734090 3.312386
-1.377897 -0.736298 3.323076
-1.364857 -0.737689 3.330000
-1.354262 -0.740450 3.343033
-1.341153 -0.741885 3.350003
-1.327987 -0.743324 3.356915
-1.315612 -0.745246 3.365934
-1.303168 -0.747176 3.374920
-1.290039 -0.748756 3.382257
-1.278177 -0.751121 3.393074
-1.267917 -0.754499 3.408401
-1.254627 -0.756139 3.415811
-1.240695 -0.757429 3.421584
-1.231526 -0.761700 3.440759
-1.224033 -0.767136 3.465134
-1.229900 -0.781205 3.528446
-0.488147 -0.369931 1.667735
-0.495597 -0.381722 1.720498
-0.292062 -0.370546 1.658507
-0.280395 -0.365610 1.635911
-0.274844 -0.368594 1.648762
-0.268221 -0.370274 1.655780
-0.259845 -0.369565 1.652113
-0.252321 -0.370059 1.653834
-0.245423 -0.371535 1.659950
-0.238114 -0.372465 1.663628
-0.230744 -0.373363 1.667165
-0.223482 -0.374506 1.671806
-0.216298 -0.375869 1.677434
-0.208730 -0.376646 1.680453
-0.201016 -0.377210 1.682529
-0.193516 -0.378240 1.686692
-0.185675 -0.378666 1.688167
-0.178106 -0.379712 1.692423
-0.170309 -0.380346 1.694849
-0.162206 -0.380331 1.694393
-0.154844 -0.382140 1.702075
-0.159953 -0.499775 2.224234
-0.149385 -0.500018 2.224914
-0.138345 -0.498599 2.218216
-0.128015 -0.499719 2.222836
-0.117332 -0.499537 2.221685
-0.105907 -0.495847 2.204956
-0.095512 -0.496703 2.208460
-0.084646 -0.495022 2.200707
-0.073692 -0.492272 2.188225
-0.062867 -0.489618 2.176195
-0.052150 -0.486922 2.164002
-0.041454 -0.483144 2.147023
-0.030899 -0.479053 2.128676
-0.020465 -0.473749 2.104966
-0.010223 -0.466931 2.074550
-0.000273 -0.461253 2.049227
0.009477 -0.457516 2.032544
0.019138 -0.455468 2.023389
0.028763 -0.454216 2.017789
0.038382 -0.453508 2.014630
0.047976 -0.452852 2.011719
0.057618 -0.452793 2.011480
0.010107 -0.068031 0.302226
0.011675 -0.068731 0.305346
0.013112 -0.068583 0.304700
0.014444 -0.067971 0.301997
0.015902 -0.068014 0.302204
0.017276 -0.067715 0.300898
0.018583 -0.067223 0.298734
0.019937 -0.066959 0.297588
0.021309 -0.066783 0.296835
0.022676 -0.066617 0.296129
0.024153 -0.066776 0.296866
0.025574 -0.066767 0.296863
0.027055 -0.066911 0.297544
0.028555 -0.067083 0.298350
0.030056 -0.067240 0.299091
0.031566 -0.067404 0.299865
0.033045 -0.067489 0.300289
0.034565 -0.067646 0.301041
0.036055 -0.067736 0.301493
0.037540 -0.067809 0.301872
0.039058 -0.067933 0.302480
0.040489 -0.067904 0.302406
0.042051 -0.068088 0.303286
0.043496 -0.068077 0.303298
0.045041 -0.068218 0.303985
0.046745 -0.068583 0.305677
0.048137 -0.068483 0.305294
0.049647 -0.068550 0.305663
0.051212 -0.068688 0.306345
0.052767 -0.068804 0.306931
0.054296 -0.068882 0.307346
0.055600 -0.068678 0.306504
0.057029 -0.068634 0.306380
0.058499 -0.068640 0.306477
0.059870 -0.068534 0.306071
0.061721 -0.068967 0.308080
0.062960 -0.068714 0.307017
0.064129 -0.068397 0.305672
0.066401 -0.069244 0.309529
0.067437 -0.068793 0.307584
0.067977 -0.067867 0.303512
0.068955 -0.067407 0.301521
0.070078 -0.067105 0.300236
0.071392 -0.066994 0.299807
0.072638 -0.066824 0.299111
0.073865 -0.066645 0.298371
0.075016 -0.066404 0.297356
0.076063 -0.066083 0.295973
0.077339 -0.065968 0.295516
0.078320 -0.065610 0.293968
0.079113 -0.065110 0.291781
0.079615 -0.064392 0.288614
0.080502 -0.064004 0.286924
0.081759 -0.063918 0.286584
0.082379 -0.063346 0.284062
0.083421 -0.063111 0.283049
0.084472 -0.062890 0.282094
0.085417 -0.062598 0.280820
0.086158 -0.062168 0.278923
0.087159 -0.061936 0.277910
0.088015 -0.061610 0.276469
0.088318 -0.060911 0.273355
0.089120 -0.060572 0.271850
0.090231 -0.060450 0.271314
0.091077 -0.060156 0.270005
0.091978 -0.059906 0.268886
0.092875 -0.059660 0.267784
0.093773 -0.059422 0.266710
0.094712 -0.059215 0.265775
0.095506 -0.058925 0.264460
0.096340 -0.058666 0.263281
0.097244 -0.058457 0.262317
0.098010 -0.058170 0.261002
0.098872 -0.057947 0.259971
0.099648 -0.057680 0.258732
0.100470 -0.057445 0.257637
0.101145 -0.057133 0.256188
0.102046 -0.056954 0.255332
0.102570 -0.056572 0.253558
0.102597 -0.055928 0.250604
0.103387 -0.055710 0.249554
0.103921 -0.055360 0.247908
0.104864 -0.055234 0.247257
0.105546 -0.054974 0.246002
0.106308 -0.054762 0.244952
0.107174 -0.054606 0.244151
0.107919 -0.054394 0.243087
0.108867 -0.054287 0.242488
0.109649 -0.054100 0.241523
0.110379 -0.053892 0.240458
0.110951 -0.053612 0.239062
0.111347 -0.053253 0.237309
0.111946 -0.052998 0.236011
0.112575 -0.052761 0.234788
0.112814 -0.052348 0.232773
0.113803 -0.052289 0.232320
0.114641 -0.052161 0.231556
0.114707 -0.051688 0.229250
0.115348 -0.051481 0.228113
0.116126 -0.051338 0.227254
0.117126 -0.051295 0.226826
0.117773 -0.051100 0.225712
0.118342 -0.050875 0.224456
-1.504194 -0.618605 2.813141
-1.487100 -0.617060 2.809110
-1.470120 -0.615536 2.805014
-1.463193 -0.618233 2.820017
-1.450599 -0.618563 2.824104
-1.439116 -0.619378 2.830280
-1.430402 -0.621412 2.841910
-1.424309 -0.624635 2.858871
-1.422566 -0.629846 2.884841
-1.424331 -0.636728 2.918381
-1.413770 -0.638180 2.926948
-1.407811 -0.641759 2.945173
-1.386199 -0.638203 2.930547
-1.362420 -0.633570 2.910843
-1.350507 -0.634416 2.916205
-1.323645 -0.628186 2.888929
-1.297647 -0.622242 2.862845
-1.458392 -0.706659 3.252557
-1.445086 -0.707636 3.258278
-1.438837 -0.712128 3.280093
-1.422824 -0.711834 3.279770
-1.409730 -0.713010 3.286134
-1.400673 -0.716277 3.302049
-1.388747 -0.718134 3.311382
-1.377246 -0.720256 3.321858
-1.366598 -0.722879 3.334562
-1.353015 -0.723993 3.340230
-1.342400 -0.726740 3.353356
-1.329761 -0.728444 3.361596
-1.316249 -0.729706 3.367725
-1.303643 -0.731508 3.376272
-1.289835 -0.732672 3.381808
-1.276186 -0.733957 3.387835
-1.264378 -0.736347 3.398899
-1.255113 -0.740299 3.417107
-1.245425 -0.744100 3.434561
-1.236833 -0.748667 3.455484
-1.230668 -0.754843 3.483777
-1.231042 -0.765252 3.531542
-0.521213 -0.380439 1.752594
-0.501572 -0.371995 1.713307
-0.496132 -0.373981 1.722044
-0.291419 -0.361834 1.654211
-0.284385 -0.362892 1.658528
-0.275888 -0.362092 1.654358
-0.268336 -0.362521 1.655809
-0.261031 -0.363319 1.658951
-0.252749 -0.362767 1.655931
-0.245366 -0.363511 1.658835
-0.238437 -0.365001 1.665148
-0.230966 -0.365735 1.668017
-0.223425 -0.366407 1.670608
-0.216127 -0.367544 1.675324
-0.208771 -0.368665 1.679980
-0.201154 -0.369398 1.682869
-0.193286 -0.369711 1.683860
-0.186098 -0.371410 1.691169
-0.178567 -0.372549 1.695937
-0.170763 -0.373200 1.698490
-0.163005 -0.374023 1.701841
-0.155079 -0.374526 1.703746
-0.147212 -0.375237 1.706609
-0.140580 -0.379366 1.725029
-0.138565 -0.488678 2.220409
-0.127909 -0.488585 2.219621
-0.116749 -0.486376 2.209237
-0.106521 -0.488001 2.216294
-0.095752 -0.487233 2.212497
-0.084005 -0.480681 2.182468
-0.073487 -0.480309 2.180518
-0.062773 -0.478308 2.171200
-0.052012 -0.475099 2.156418
-0.041251 -0.470305 2.134470
-0.030705 -0.465603 2.112963
-0.020318 -0.459871 2.086809
-0.010195 -0.454812 2.063731
-0.000292 -0.450560 2.044339
0.009462 -0.447999 2.032641
0.019157 -0.446639 2.026412
0.028811 -0.445577 2.021558
0.038543 -0.445937 2.023179
0.048168 -0.445157 2.019645
0.057853 -0.445098 2.019403
0.010287 -0.067790 0.307567
0.011648 -0.067126 0.304566
0.013121 -0.067183 0.304836
0.014539 -0.066975 0.303912
0.015882 -0.066491 0.301733
0.017306 -0.066398 0.301331
0.018625 -0.065949 0.299319
0.019999 -0.065743 0.298410
0.021384 -0.065599 0.297787
0.022736 -0.065379 0.296821
0.024253 -0.065631 0.297996
0.025746 -0.065793 0.298772
0.027211 -0.065869 0.299154
0.028761 -0.066134 0.300401
0.030246 -0.066231 0.300885
0.031779 -0.066418 0.301784
0.033297 -0.066560 0.302478
0.034754 -0.066572 0.302586
0.036316 -0.066778 0.303574
0.037815 -0.066857 0.303987
0.039160 -0.066665 0.303173
0.040755 -0.066899 0.304298
0.042291 -0.067023 0.304922
0.043826 -0.067136 0.305500
0.045359 -0.067240 0.306035
0.046924 -0.067383 0.306754
0.048536 -0.067582 0.307727
0.049978 -0.067541 0.307609
0.051462 -0.067556 0.307747
0.053013 -0.067657 0.308275
0.054542 -0.067723 0.308650
0.055977 -0.067674 0.308495
0.057601 -0.067848 0.309364
0.059273 -0.068070 0.310449
0.060821 -0.068142 0.310852
0.062497 -0.068350 0.311874
0.063964 -0.068326 0.311837
0.065380 -0.068249 0.311560
0.065846 -0.067205 0.306867
0.066678 -0.066572 0.304050
0.067633 -0.066088 0.301907
0.068858 -0.065880 0.301030
0.070212 -0.065803 0.300745
0.071385 -0.065562 0.299714
0.072574 -0.065346 0.298789
0.073862 -0.065225 0.298303
0.074766 -0.064776 0.296312
0.075794 -0.064448 0.294874
0.076854 -0.064160 0.293615
0.077609 -0.063631 0.291254
0.078503 -0.063233 0.289488
0.079627 -0.063032 0.288618
0.080464 -0.062613 0.286752
0.081443 -0.062317 0.285443
0.082457 -0.062056 0.284296
0.083296 -0.061675 0.282593
0.084255 -0.061394 0.281344
0.085335 -0.061208 0.280528
0.086149 -0.060840 0.278873
0.086955 -0.060477 0.277242
0.087696 -0.060081 0.275451
0.088381 -0.059658 0.273536
0.089081 -0.059258 0.271721
0.089955 -0.058983 0.270476
0.090970 -0.058807 0.269682
0.091744 -0.058482 0.268200
0.092660 -0.058256 0.267166
0.093565 -0.058029 0.266121
0.094430 -0.057783 0.264990
0.095254 -0.057519 0.263771
0.096086 -0.057267 0.262598
0.096919 -0.057021 0.261453
0.097719 -0.056763 0.260246
0.098583 -0.056548 0.259230
0.099453 -0.056342 0.258249
0.100253 -0.056101 0.257106
0.101068 -0.055875 0.256022
0.101930 -0.055680 0.255075
0.102722 -0.055451 0.253969
0.102938 -0.054920 0.251474
0.103216 -0.054434 0.249181
0.104070 -0.054260 0.248306
0.104715 -0.053981 0.246950
0.105551 -0.053807 0.246062
0.106387 -0.053636 0.245186
0.107347 -0.053531 0.244601
0.108196 -0.053373 0.243768
0.109096 -0.053243 0.243059
0.109937 -0.053088 0.242223
0.110664 -0.052881 0.241147
0.111380 -0.052674 0.240057
0.112041 -0.052444 0.238862
0.112420 -0.052089 0.237086
0.113219 -0.051934 0.236212
0.113778 -0.051672 0.234846
0.114291 -0.051395 0.233402
0.114904 -0.051168 0.232177
0.115290 -0.050846 0.230509
0.115817 -0.050591 0.229139
0.116505 -0.050410 0.228096
0.117363 -0.050305 0.227389
0.118028 -0.050121 0.226311
0.118754 -0.049965 0.225350
-1.504381 -0.605206 2.814731
-1.491227 -0.605295 2.818099
-1.476687 -0.604818 2.818687
-1.466857 -0.606280 2.828177
-1.454674 -0.606789 2.833093
-1.443196 -0.607604 2.839315
-1.434881 -0.609780 2.851777
-1.424726 -0.611208 2.860636
-1.426188 -0.617695 2.893080
-1.405273 -0.614524 2.880179
-1.406482 -0.621060 2.912673
-1.389976 -0.619826 2.908633
-1.387040 -0.624680 2.933062
-1.449196 -0.694189 3.268105
-1.435621 -0.695057 3.273281
-1.422224 -0.696032 3.278867
-1.413269 -0.699227 3.294823
-1.401582 -0.701126 3.304592
-1.391479 -0.703870 3.318262
-1.377413 -0.704649 3.322585
-1.365610 -0.706618 3.332438
-1.352943 -0.708181 3.340301
-1.342937 -0.711190 3.354909
-1.329514 -0.712440 3.361147
-1.318104 -0.714813 3.372608
-1.307584 -0.717732 3.386577
-1.293135 -0.718541 3.390522
-1.279518 -0.719838 3.396704
-1.265657 -0.721030 3.402325
-1.252179 -0.722474 3.409071
-1.239679 -0.724528 3.418634
-1.229198 -0.727832 3.434033
-1.222091 -0.733248 3.459342
-1.216156 -0.739524 3.488643
-0.534300 -0.375542 1.768699
-0.521755 -0.372533 1.754130
-0.510100 -0.370074 1.742136
-0.505667 -0.372859 1.754820
-0.295973 -0.359469 1.679407
-0.287446 -0.358794 1.675717
-0.277701 -0.356516 1.664550
-0.269398 -0.356011 1.661673
-0.261854 -0.356510 1.663483
-0.253848 -0.356390 1.662416
-0.245974 -0.356457 1.662224
-0.238984 -0.357851 1.668226
-0.231139 -0.358017 1.668514
-0.223574 -0.358645 1.670957
-0.216265 -0.359745 1.675609
-0.208649 -0.360401 1.678199
-0.201188 -0.361388 1.682338
-0.193797 -0.362589 1.687482
-0.186143 -0.363383 1.690738
-0.178814 -0.364911 1.697420
-0.171190 -0.365954 1.701861
-0.163488 -0.366928 1.705986
-0.156020 -0.368558 1.713173
-0.148317 -0.369784 1.718489
-0.140794 -0.371629 1.726695
-0.132664 -0.372004 1.728084
-0.125167 -0.374324 1.738521
-0.116901 -0.374509 1.739057
-0.106694 -0.478060 2.218451
-0.095229 -0.473922 2.198937
-0.084061 -0.470419 2.182403
-0.072932 -0.466172 2.162437
-0.062335 -0.464483 2.154367
-0.051760 -0.462326 2.144145
-0.041122 -0.458401 2.125752
-0.030579 -0.453298 2.101919
-0.020266 -0.448275 2.078486
-0.010203 -0.444438 2.060574
-0.000311 -0.441431 2.046532
0.009471 -0.439528 2.037631
0.019207 -0.438489 2.032759
0.028895 -0.437423 2.027784
0.038631 -0.437439 2.027843
0.048291 -0.436748 2.024647
0.058004 -0.436689 2.024405
0.010278 -0.066272 0.307232
0.011747 -0.066237 0.307081
0.013177 -0.066013 0.306055
0.014576 -0.065695 0.304598
0.015990 -0.065499 0.303707
0.017322 -0.065026 0.301538
0.018667 -0.064668 0.299900
0.020038 -0.064447 0.298905
0.021407 -0.064251 0.298023
0.022845 -0.064271 0.298151
0.024338 -0.064434 0.298943
0.025899 -0.064749 0.300442
0.027433 -0.064967 0.301496
0.028988 -0.065210 0.302667
0.030627 -0.065611 0.304573
0.032135 -0.065706 0.305065
0.033654 -0.065815 0.305622
0.035277 -0.066109 0.307038
0.036697 -0.066015 0.306660
0.038221 -0.066108 0.307147
0.039734 -0.066175 0.307520
0.041081 -0.065971 0.306634
0.042672 -0.066159 0.307571
0.044151 -0.066167 0.307671
0.045549 -0.066055 0.307219
0.047067 -0.066121 0.307591
0.048630 -0.066243 0.308229
0.050064 -0.066188 0.308044
0.051519 -0.066162 0.307994
0.053085 -0.066277 0.308600
0.054551 -0.066263 0.308611
0.056118 -0.066370 0.309184
0.057741 -0.066536 0.310029
0.059204 -0.066514 0.310005
0.060870 -0.066715 0.311015
0.062239 -0.066589 0.310507
0.064040 -0.066920 0.312126
0.064221 -0.065582 0.305958
0.065344 -0.065243 0.304453
0.066461 -0.064915 0.302993
0.067700 -0.064715 0.302134
0.068918 -0.064505 0.301225
0.070246 -0.064404 0.300827
0.071513 -0.064253 0.300190
0.072651 -0.063994 0.299047
0.073764 -0.063722 0.297847
0.074923 -0.063500 0.296876
0.075663 -0.062939 0.294314
0.076624 -0.062577 0.292686
0.077528 -0.062183 0.290903
0.078676 -0.061996 0.290083
0.079645 -0.061676 0.288641
0.080544 -0.061313 0.286997
0.081474 -0.060986 0.285516
0.082314 -0.060602 0.283770
0.083311 -0.060346 0.282613
0.084264 -0.060065 0.281343
0.085178 -0.059767 0.279986
0.085501 -0.059070 0.276753
0.086449 -0.058818 0.275606
0.087141 -0.058403 0.273690
0.088048 -0.058141 0.272490
0.088982 -0.057905 0.271408
0.089840 -0.057627 0.270121
0.090719 -0.057370 0.268931
0.091620 -0.057134 0.267834
0.092516 -0.056901 0.266748
0.093480 -0.056716 0.265882
0.094425 -0.056524 0.264979
0.095242 -0.056261 0.263743
0.096220 -0.056100 0.262973
0.096754 -0.055687 0.261021
0.097759 -0.055552 0.260365
0.098539 -0.055294 0.259132
0.099321 -0.055044 0.257926
0.100065 -0.054778 0.256646
0.100880 -0.054558 0.255572
0.101746 -0.054370 0.254641
0.102415 -0.054083 0.253241
0.102764 -0.053635 0.251084
0.103099 -0.053190 0.248936
0.103906 -0.052997 0.247956
0.104808 -0.052855 0.247212
0.105707 -0.052715 0.246471
0.106649 -0.052599 0.245839
0.107462 -0.052423 0.244914
0.108296 -0.052261 0.244049
0.109261 -0.052164 0.243485
0.110094 -0.052008 0.242631
0.110826 -0.051807 0.241563
0.111583 -0.051622 0.240562
0.112303 -0.051424 0.239492
0.112766 -0.051114 0.237890
0.113425 -0.050897 0.236718
0.114039 -0.050665 0.235466
0.114735 -0.050473 0.234394
0.115201 -0.050185 0.232864
0.115695 -0.049915 0.231409
0.116177 -0.049645 0.229946
0.116747 -0.049417 0.228669
0.117756 -0.049376 0.228251
0.118392 -0.049183 0.227114
0.119096 -0.049020 0.226110
-1.506980 -0.592753 2.820791
-1.497226 -0.594199 2.830587
-1.481627 -0.593330 2.829221
-1.471091 -0.594492 2.837401
-1.459412 -0.595211 2.843336
-1.449931 -0.596848 2.853539
-1.440992 -0.598741 2.864857
-1.433181 -0.601145 2.878508
-1.434375 -0.607408 2.910550
-1.421042 -0.607582 2.913319
-1.413033 -0.610059 2.927024
-1.412117 -0.615678 2.955716
-1.461194 -0.677169 3.259972
-1.447896 -0.678122 3.265702
-1.433598 -0.678621 3.269156
-1.428588 -0.683577 3.293991
-1.415608 -0.684787 3.300689
-1.404284 -0.686834 3.311339
-1.390531 -0.687725 3.316336
-1.379042 -0.689771 3.326815
-1.366530 -0.691346 3.334946
-1.355190 -0.693558 3.346072
-1.342629 -0.695191 3.354328
-1.331173 -0.697442 3.365492
-1.320245 -0.700027 3.378201
