ply
format ascii 1.0
element vertex 1687
property float x
property float y
property float z
end_header
0.077002 -0.103735 0.284084
0.078192 -0.103521 0.283452
0.079465 -0.103423 0.283134
0.080771 -0.103370 0.282936
0.082017 -0.103244 0.282533
0.083163 -0.102997 0.281797
0.084142 -0.102554 0.280519
0.085110 -0.102112 0.279242
0.086055 -0.101658 0.277926
0.086952 -0.101159 0.276486
0.087839 -0.100666 0.275055
0.088649 -0.100099 0.273420
0.089518 -0.099614 0.272005
0.090375 -0.099130 0.270588
0.091226 -0.098653 0.269184
0.092174 -0.098293 0.268095
0.093152 -0.097973 0.267111
0.094029 -0.097559 0.265864
0.095042 -0.097294 0.265017
0.095995 -0.096975 0.264020
0.097103 -0.096819 0.263460
0.097984 -0.096444 0.262297
0.099010 -0.096219 0.261534
0.100018 -0.095982 0.260734
0.101043 -0.095768 0.259989
0.102170 -0.095654 0.259509
0.103288 -0.095534 0.259005
0.104013 -0.095058 0.257528
0.104995 -0.094825 0.256702
0.105867 -0.094499 0.255619
0.106672 -0.094122 0.254387
0.107619 -0.093877 0.253504
0.108691 -0.093745 0.252919
0.109698 -0.093560 0.252181
0.110589 -0.093282 0.251184
0.111449 -0.092984 0.250123
0.112383 -0.092753 0.249233
0.113530 -0.092701 0.248813
0.114398 -0.092425 0.247780
0.115557 -0.092388 0.247376
0.116700 -0.092337 0.246925
0.117358 -0.091909 0.245451
0.118161 -0.091601 0.244289
0.118810 -0.091181 0.242815
0.119621 -0.090892 0.241679
0.120424 -0.090603 0.240531
0.121428 -0.090470 0.239781
0.122686 -0.090526 0.239517
0.123714 -0.090413 0.238789
0.124938 -0.090444 0.238425
0.125883 -0.090274 0.237513
0.126804 -0.090090 0.236546
0.128381 -0.090371 0.236781
-1.455769 -0.990461 2.656559
-1.446236 -0.992801 2.667953
-1.436783 -0.995240 2.679438
-1.425021 -0.996111 2.686526
-1.413619 -0.997253 2.694170
-1.407279 -1.002024 2.711461
-1.402018 -1.007660 2.730968
-1.396031 -1.012879 2.749217
-1.385394 -1.014792 2.758361
-1.374220 -1.016346 2.766384
-1.362124 -1.017244 2.772479
-1.350140 -1.018246 2.778712
-1.339786 -1.020510 2.788261
-1.330305 -1.023492 2.799648
-1.316741 -1.023364 2.802403
-1.309087 -1.027874 2.817743
-2.145297 -1.701951 4.670349
-2.124921 -1.703484 4.679097
-1.389903 -1.175990 3.243923
-1.375842 -1.177144 3.249495
-1.355206 -1.172635 3.239319
-1.361579 -1.191663 3.294079
-1.344537 -1.190403 3.292686
-1.333031 -1.194074 3.304832
-1.324537 -1.200563 3.324697
-1.311658 -1.203187 3.333775
-1.291410 -1.199033 3.323979
-0.949543 -0.951107 2.643391
-0.931452 -0.945409 2.628450
-0.936786 -0.963654 2.680030
-0.907476 -0.946274 2.632480
-0.902832 -0.954491 2.656077
-0.905533 -0.970813 2.702195
-0.879455 -0.956309 2.662462
-0.868383 -0.957939 2.667589
-0.860473 -0.963157 2.682669
-0.840391 -0.954704 2.659621
-0.833246 -0.960915 2.677379
-0.826534 -0.967826 2.697052
-0.617278 -0.824165 2.298410
-0.597840 -0.812458 2.265848
-0.578009 -0.799783 2.230561
-0.567502 -0.799780 2.230592
-0.553623 -0.794935 2.217100
-0.539109 -0.788976 2.200478
-0.531575 -0.793200 2.212238
-0.517024 -0.786912 2.194661
0.010460 -0.758551 2.107227
0.020324 -0.753912 2.094262
0.029991 -0.747395 2.076091
0.039400 -0.739257 2.053422
0.048273 -0.726269 2.017294
0.057138 -0.717483 1.992844
0.065925 -0.710334 1.972946
0.074698 -0.704827 1.957615
0.083612 -0.701722 1.948965
0.092570 -0.699566 1.942957
0.101793 -0.699621 1.943092
0.111681 -0.703852 1.954833
0.120924 -0.703678 1.954345
0.024204 -0.107790 0.299373
0.025494 -0.107243 0.297856
0.026930 -0.107330 0.298102
0.028103 -0.106416 0.295567
0.029728 -0.107220 0.297803
0.031195 -0.107405 0.298320
0.032453 -0.106887 0.296887
0.033832 -0.106793 0.296630
0.035177 -0.106603 0.296108
0.036493 -0.106344 0.295395
0.037895 -0.106344 0.295398
0.039236 -0.106181 0.294950
0.040455 -0.105708 0.293642
0.041779 -0.105531 0.293155
0.043251 -0.105728 0.293707
0.044642 -0.105722 0.293695
0.045882 -0.105368 0.292715
0.047277 -0.105382 0.292757
0.048770 -0.105605 0.293380
0.050006 -0.105275 0.292464
0.051458 -0.105407 0.292830
0.052733 -0.105177 0.292193
0.054036 -0.105014 0.291739
0.055367 -0.104912 0.291452
0.056619 -0.104668 0.290772
0.057912 -0.104510 0.290328
0.059165 -0.104288 0.289707
0.060395 -0.104038 0.289003
0.061520 -0.103622 0.287839
0.062822 -0.103515 0.287530
0.064137 -0.103433 0.287288
0.065577 -0.103552 0.287606
0.066983 -0.103614 0.287762
0.068277 -0.103503 0.287432
0.069664 -0.103535 0.287500
0.071004 -0.103497 0.287371
0.072342 -0.103457 0.287231
0.073571 -0.103267 0.286674
0.074783 -0.103058 0.286062
0.075949 -0.102796 0.285299
0.077204 -0.102661 0.284886
0.078412 -0.102469 0.284310
0.079710 -0.102399 0.284070
0.081034 -0.102364 0.283923
0.082164 -0.102090 0.283111
0.083315 -0.101849 0.282386
0.084437 -0.101582 0.281583
0.085380 -0.101110 0.280211
0.086317 -0.100646 0.278856
0.087225 -0.100163 0.277445
0.088022 -0.099568 0.275720
0.088875 -0.099054 0.274214
0.089788 -0.098621 0.272927
0.090698 -0.098196 0.271659
0.091535 -0.097705 0.270204
0.092401 -0.097258 0.268867
0.093307 -0.096866 0.267675
0.094136 -0.096405 0.266288
0.095079 -0.096071 0.265248
0.095903 -0.095627 0.263897
0.096920 -0.095385 0.263099
0.097943 -0.095155 0.262326
0.098917 -0.094883 0.261434
0.099839 -0.094570 0.260419
0.100781 -0.094282 0.259469
0.101884 -0.094150 0.258942
0.103012 -0.094044 0.258477
0.104083 -0.093890 0.257872
0.105224 -0.093800 0.257437
0.106220 -0.093586 0.256652
0.107147 -0.093315 0.255704
0.108050 -0.093032 0.254712
0.108931 -0.092735 0.253677
0.110104 -0.092690 0.253320
0.110970 -0.092391 0.252260
0.111929 -0.092175 0.251417
0.112829 -0.091915 0.250445
0.113804 -0.091721 0.249643
0.114674 -0.091448 0.248615
0.115606 -0.091229 0.247722
0.116285 -0.090817 0.246297
0.117120 -0.090534 0.245209
0.117839 -0.090168 0.243886
0.118840 -0.090023 0.243149
0.119134 -0.089349 0.240973
0.120154 -0.089229 0.240279
0.121146 -0.089091 0.239519
0.121928 -0.088801 0.238340
0.123463 -0.089061 0.238619
0.124800 -0.089173 0.238485
0.125283 -0.088680 0.236713
0.126631 -0.088802 0.236566
0.127545 -0.088620 0.235592
-1.460622 -0.980637 2.668911
-1.452373 -0.983845 2.682674
-1.442904 -0.986278 2.694157
-1.429811 -0.986259 2.698762
-1.422211 -0.990064 2.713665
-1.410372 -0.990962 2.720446
-1.406020 -0.997190 2.741714
-1.402192 -1.003911 2.764229
-1.388332 -1.003512 2.767000
-1.377365 -1.005218 2.775425
-1.364374 -1.005467 2.779682
-1.349506 -1.004325 2.779947
-1.338403 -1.005992 2.787846
-1.331551 -1.010921 2.804669
-1.324057 -1.015458 2.820303
-2.165378 -1.677764 4.664592
-2.145054 -1.679282 4.673428
-2.121094 -1.677957 4.674155
-1.372505 -1.145931 3.205316
-1.379067 -1.164317 3.259068
-1.386891 -1.184200 3.316973
-1.358273 -1.173067 3.287912
-1.342873 -1.173224 3.290370
-1.324574 -1.170825 3.285555
-1.322633 -1.182999 3.321555
-1.294870 -1.172096 3.292664
-1.268759 -1.162440 3.267159
-1.270473 -1.178356 3.313444
-0.950569 -0.939554 2.647152
-0.937206 -0.938679 2.645543
-0.923650 -0.937586 2.643263
-0.935981 -0.963100 2.715958
-0.922988 -0.962904 2.716116
-0.906583 -0.959094 2.706025
-0.895802 -0.961210 2.712602
-0.885936 -0.964385 2.722123
-0.874058 -0.965431 2.725590
-0.860712 -0.964864 2.724457
-0.848794 -0.965906 2.727825
-0.612104 -0.806447 2.279256
-0.601989 -0.807275 2.281656
-0.585160 -0.798968 2.258210
-0.567717 -0.789499 2.231460
-0.552837 -0.783304 2.213943
-0.543244 -0.784508 2.217320
-0.540582 -0.795966 2.249658
-0.520188 -0.781250 2.208003
0.020438 -0.749300 2.108674
0.030436 -0.749284 2.108560
0.039496 -0.731865 2.059481
0.049260 -0.731815 2.059288
0.057324 -0.710707 1.999848
0.066169 -0.703889 1.980624
0.075554 -0.703792 1.980323
0.083727 -0.693677 1.951838
0.091202 -0.680365 1.914363
0.101940 -0.691596 1.945955
0.111844 -0.695777 1.957712
0.022826 -0.106587 0.299911
0.024241 -0.106551 0.299813
0.025360 -0.105291 0.296270
0.026919 -0.105893 0.297969
0.028517 -0.106582 0.299912
0.030015 -0.106848 0.300666
0.031495 -0.107027 0.301176
0.032604 -0.105986 0.298252
0.033960 -0.105801 0.297739
0.035331 -0.105674 0.297388
0.036461 -0.104864 0.295117
0.037872 -0.104894 0.295208
0.039238 -0.104799 0.294947
0.040555 -0.104584 0.294351
0.041996 -0.104693 0.294663
0.043448 -0.104824 0.295038
0.044848 -0.104822 0.295038
0.046289 -0.104913 0.295300
0.047607 -0.104729 0.294790
0.049043 -0.104807 0.295013
0.050397 -0.104710 0.294745
0.051665 -0.104445 0.294002
0.053050 -0.104424 0.293947
0.054395 -0.104327 0.293675
0.055525 -0.103833 0.292284
0.056897 -0.103805 0.292204
0.058186 -0.103630 0.291710
0.059407 -0.103345 0.290905
0.060626 -0.103068 0.290122
0.061810 -0.102746 0.289209
0.063075 -0.102570 0.288705
0.064402 -0.102500 0.288497
0.065689 -0.102371 0.288122
0.067129 -0.102479 0.288412
0.068622 -0.102663 0.288915
0.069922 -0.102557 0.288598
0.071224 -0.102457 0.288296
0.072589 -0.102449 0.288250
0.073778 -0.102200 0.287522
0.074984 -0.101981 0.286878
0.076222 -0.101812 0.286371
0.077465 -0.101657 0.285899
0.078613 -0.101385 0.285094
0.079926 -0.101329 0.284897
0.081123 -0.101132 0.284298
0.082115 -0.100690 0.283006
0.083292 -0.100486 0.282379
0.084284 -0.100067 0.281145
0.085199 -0.099572 0.279693
0.086092 -0.099067 0.278210
0.087123 -0.098734 0.277205
0.087944 -0.098175 0.275563
0.088801 -0.097674 0.274078
0.089877 -0.097423 0.273292
0.090787 -0.097003 0.272026
0.091675 -0.096571 0.270722
0.092643 -0.096234 0.269680
0.093482 -0.095774 0.268288
0.094441 -0.095447 0.267265
0.095401 -0.095131 0.266265
0.096241 -0.094705 0.264952
0.097170 -0.094376 0.263906
0.098077 -0.094034 0.262818
0.099107 -0.093818 0.262074
0.099999 -0.093478 0.260978
0.100947 -0.093198 0.260044
0.101996 -0.093017 0.259380
0.103308 -0.093076 0.259378
0.104409 -0.092947 0.258842
0.105194 -0.092543 0.257534
0.106458 -0.092564 0.257400
0.107619 -0.092497 0.257012
0.108281 -0.092006 0.255441
0.109256 -0.091790 0.254624
0.110139 -0.091503 0.253599
0.110795 -0.091034 0.252065
0.112032 -0.091048 0.251856
0.112888 -0.090755 0.250790
0.113397 -0.090194 0.248972
0.114115 -0.089808 0.247630
0.114966 -0.089533 0.246585
0.115794 -0.089247 0.245498
0.116543 -0.088905 0.244248
0.117448 -0.088689 0.243331
0.118303 -0.088439 0.242309
0.118771 -0.087908 0.240507
0.119320 -0.087447 0.238885
0.120347 -0.087341 0.238221
0.121025 -0.086987 0.236866
0.122131 -0.086943 0.236344
0.123753 -0.087265 0.236794
0.123789 -0.086472 0.234207
0.124740 -0.086328 0.233361
0.125971 -0.086377 0.233021
-1.456843 -0.965010 2.665373
-1.446388 -0.966679 2.674891
-1.441331 -0.972019 2.694410
-1.429301 -0.972713 2.700892
-1.418991 -0.974603 2.710526
-1.413014 -0.979533 2.728470
-1.407740 -0.985048 2.747920
-1.399720 -0.988731 2.762130
-1.391357 -0.992240 2.775726
-1.380723 -0.994184 2.784810
-1.368515 -0.995022 2.790656
-1.356072 -0.995706 2.795931
-1.344164 -0.996802 2.802229
-1.329360 -0.995751 2.802358
-1.325151 -1.002697 2.824879
-2.163964 -1.654230 4.665125
-2.143695 -1.655759 4.673932
-2.123418 -1.657315 4.682629
-1.391539 -1.146273 3.251706
-1.391240 -1.158874 3.289726
-1.371822 -1.155656 3.282748
-1.365383 -1.163424 3.306878
-1.345271 -1.159588 3.297930
-1.330452 -1.160279 3.301751
-1.312836 -1.158519 3.298499
-1.299228 -1.160298 3.305232
-1.285534 -1.162043 3.311780
-1.271743 -1.163743 3.318118
-1.253045 -1.160941 3.311532
-1.253759 -1.176282 3.356629
-0.928117 -0.929506 2.656806
-0.916602 -0.930531 2.660443
-0.906140 -0.932669 2.667210
-0.894507 -0.933647 2.670611
-0.898020 -0.950686 2.719919
-0.886992 -0.952604 2.725925
-0.868781 -0.960866 2.750479
-0.856765 -0.961918 2.753879
-0.615141 -0.799589 2.290641
-0.583477 -0.785992 2.251730
-0.571890 -0.784642 2.247846
-0.559747 -0.782463 2.241572
-0.546234 -0.778252 2.229454
-0.531388 -0.771938 2.211296
-0.519153 -0.769243 2.203488
-0.275812 -0.583829 1.670283
-0.268768 -0.585660 1.675337
-0.260071 -0.583889 1.670084
-0.254868 -0.590098 1.687654
-0.249032 -0.595197 1.702042
-0.240415 -0.593770 1.697766
-0.233549 -0.596715 1.705991
-0.226659 -0.599813 1.714650
0.010331 -0.733805 2.092493
0.020255 -0.733806 2.092420
0.030179 -0.733790 2.092306
0.039259 -0.718327 2.048160
0.048515 -0.711570 2.028842
0.057282 -0.701073 1.998872
0.066156 -0.694661 1.980558
0.074946 -0.689083 1.964628
0.083561 -0.683298 1.948116
0.093086 -0.685366 1.953998
0.101190 -0.677542 1.931686
0.110101 -0.675968 1.927199
0.022860 -0.105343 0.300345
0.024298 -0.105397 0.300503
0.025803 -0.105719 0.301427
0.027151 -0.105398 0.300516
0.028618 -0.105547 0.300949
0.029947 -0.105196 0.299954
0.031331 -0.105065 0.299588
0.032638 -0.104692 0.298534
0.033963 -0.104411 0.297740
0.035324 -0.104256 0.297306
0.036616 -0.103916 0.296346
0.037946 -0.103706 0.295757
0.039458 -0.103992 0.296580
0.040872 -0.104007 0.296632
0.042218 -0.103854 0.296205
0.043620 -0.103843 0.296183
0.044992 -0.103766 0.295971
0.046316 -0.103583 0.295457
0.047653 -0.103441 0.295062
0.049015 -0.103359 0.294833
0.050335 -0.103195 0.294373
0.051769 -0.103268 0.294586
0.053085 -0.103106 0.294132
0.054589 -0.103311 0.294720
0.055880 -0.103110 0.294150
0.057190 -0.102955 0.293711
0.058591 -0.102966 0.293741
0.059851 -0.102734 0.293080
0.061076 -0.102455 0.292283
0.062351 -0.102269 0.291748
0.063575 -0.102010 0.291005
0.064846 -0.101835 0.290498
0.066134 -0.101695 0.290089
0.067552 -0.101755 0.290252
0.068984 -0.101833 0.290462
0.070224 -0.101631 0.289870
0.071409 -0.101359 0.289074
0.072713 -0.101262 0.288778
0.073890 -0.100994 0.287991
0.075105 -0.100788 0.287379
0.076308 -0.100574 0.286739
0.077522 -0.100380 0.286155
0.078665 -0.100102 0.285329
0.079847 -0.099885 0.284671
0.081005 -0.099643 0.283940
0.082101 -0.099335 0.283017
0.083223 -0.099068 0.282207
0.084262 -0.098712 0.281140
0.085280 -0.098342 0.280030
0.086259 -0.097940 0.278824
0.087216 -0.097525 0.277578
0.088066 -0.097004 0.276028
0.088994 -0.096584 0.274757
0.089942 -0.096198 0.273581
0.090844 -0.095773 0.272291
0.091831 -0.095449 0.271279
0.092683 -0.094995 0.269897
0.093708 -0.094728 0.269041
0.094690 -0.094426 0.268080
0.095749 -0.094209 0.267351
0.096646 -0.093838 0.266185
0.097509 -0.093446 0.264950
0.098526 -0.093208 0.264148
0.099544 -0.092978 0.263362
0.100605 -0.092793 0.262697
0.101695 -0.092639 0.262112
0.102855 -0.092552 0.261709
0.103753 -0.092234 0.260647
0.104670 -0.091940 0.259647
0.105489 -0.091567 0.258416
0.106426 -0.091306 0.257492
0.107696 -0.091331 0.257368
0.108616 -0.091064 0.256411
0.109575 -0.090833 0.255550
0.110543 -0.090616 0.254718
0.111207 -0.090157 0.253197
0.112175 -0.089952 0.252380
0.112845 -0.089514 0.250901
0.113448 -0.089033 0.249295
0.113875 -0.088426 0.247326
0.114408 -0.087913 0.245612
0.114632 -0.087175 0.243261
0.114820 -0.086426 0.240871
0.115351 -0.085947 0.239226
0.115896 -0.085487 0.237626
0.116528 -0.085100 0.236218
0.117278 -0.084807 0.235057
0.117922 -0.084443 0.233689
0.118582 -0.084096 0.232358
0.119832 -0.084172 0.232178
0.120933 -0.084142 0.231690
0.121497 -0.083742 0.230170
0.122662 -0.083760 0.229783
0.123731 -0.083713 0.229198
-1.486254 -0.971140 2.722505
-1.452520 -0.957611 2.689404
-1.437060 -0.955995 2.689497
-1.444092 -0.969451 2.731861
-1.423541 -0.964468 2.722127
-1.406605 -0.961866 2.718907
-1.399455 -0.965971 2.734485
-1.395521 -0.972396 2.756513
-1.383604 -0.973330 2.762846
-1.373857 -0.975824 2.773472
-1.360740 -0.975952 2.777234
-1.356163 -0.982269 2.798488
-1.356852 -0.992564 2.830995
-1.327666 -0.980995 2.801000
-1.329655 -0.992460 2.836644
-1.394616 -1.133226 3.260758
-1.388614 -1.140998 3.285319
-1.394070 -1.158469 3.337746
-1.362890 -1.145548 3.302511
-1.350718 -1.148490 3.312891
-1.338255 -1.151253 3.322661
-1.325976 -1.154243 3.333002
-1.313120 -1.156796 3.341996
-1.297634 -1.157068 3.344314
-1.285040 -1.159959 3.354116
-1.267326 -1.158244 3.350516
-1.255054 -1.161522 3.361281
-1.255314 -1.176633 3.406225
-1.240624 -1.177940 3.411152
-0.849793 -0.927109 2.690785
-0.850547 -0.941976 2.734281
-0.650544 -0.819752 2.380747
-0.615981 -0.789807 2.293807
-0.611994 -0.798697 2.319630
-0.593718 -0.788924 2.291227
-0.583534 -0.789742 2.293560
-0.564099 -0.777836 2.258923
-0.548014 -0.770180 2.236611
-0.539227 -0.772683 2.243783
-0.529185 -0.773453 2.245907
-0.281229 -0.587191 1.702681
-0.266452 -0.572706 1.660483
-0.260835 -0.577630 1.674559
-0.257362 -0.587758 1.703713
-0.249276 -0.587663 1.703233
-0.241780 -0.589002 1.706905
-0.234270 -0.590400 1.710750
-0.227052 -0.592658 1.717084
-0.219138 -0.593203 1.718453
-0.212695 -0.597927 1.731930
0.000380 -0.731745 2.114691
0.010292 -0.723319 2.090260
0.020267 -0.725414 2.096240
0.029797 -0.715415 2.067280
0.039199 -0.708059 2.045969
0.048298 -0.699232 2.020413
0.057192 -0.690851 1.996160
0.066086 -0.684840 1.978760
0.074750 -0.678243 1.959677
0.083842 -0.676556 1.954788
0.093218 -0.677261 1.956816
0.102331 -0.676102 1.953467
0.111579 -0.675943 1.953016
0.021815 -0.105783 0.305649
0.023198 -0.105475 0.304766
0.024737 -0.105867 0.305903
0.025917 -0.104767 0.302731
0.027603 -0.105720 0.305493
0.028784 -0.104740 0.302669
0.030049 -0.104143 0.300952
0.031557 -0.104406 0.301720
0.032689 -0.103453 0.298976
0.033972 -0.103038 0.297787
0.035534 -0.103468 0.299041
0.036617 -0.102527 0.296331
0.038033 -0.102550 0.296408
0.039521 -0.102759 0.297024
0.040992 -0.102911 0.297474
0.042424 -0.102959 0.297625
0.043832 -0.102946 0.297598
0.045275 -0.103016 0.297809
0.046562 -0.102736 0.297011
0.047707 -0.102167 0.295377
0.049288 -0.102537 0.296458
0.050463 -0.102067 0.295106
0.051815 -0.101971 0.294837
0.053263 -0.102062 0.295109
0.054746 -0.102214 0.295556
0.056060 -0.102052 0.295094
0.057497 -0.102116 0.295283
0.058790 -0.101926 0.294738
0.060161 -0.101876 0.294597
0.061433 -0.101666 0.293990
0.062556 -0.101225 0.292715
0.063795 -0.100985 0.292018
0.065082 -0.100830 0.291567
0.066262 -0.100520 0.290664
0.067685 -0.100582 0.290836
0.069088 -0.100613 0.290917
0.070399 -0.100512 0.290611
0.071670 -0.100359 0.290154
0.072843 -0.100076 0.289320
0.074141 -0.099972 0.289000
0.075345 -0.099748 0.288329
0.076458 -0.099414 0.287339
0.077667 -0.099213 0.286730
0.078792 -0.098913 0.285834
0.079860 -0.098554 0.284761
0.081084 -0.098396 0.284267
0.082278 -0.098207 0.283680
0.083431 -0.097976 0.282968
0.084489 -0.097643 0.281958
0.085455 -0.097215 0.280669
0.086478 -0.096865 0.279600
0.087459 -0.096478 0.278424
0.088335 -0.095989 0.276948
0.089263 -0.095570 0.275668
0.090342 -0.095322 0.274879
0.091104 -0.094752 0.273157
0.092227 -0.094568 0.272541
0.093240 -0.094277 0.271615
0.094117 -0.093860 0.270318
0.095045 -0.093503 0.269191
0.096122 -0.093301 0.268501
0.097025 -0.092936 0.267342
0.097932 -0.092586 0.266217
0.099074 -0.092463 0.265739
0.099905 -0.092057 0.264443
0.101036 -0.091934 0.263953
0.101782 -0.091469 0.262473
0.102806 -0.091260 0.261725
0.103892 -0.091112 0.261143
0.104424 -0.090487 0.259185
0.105384 -0.090243 0.258315
0.106555 -0.090183 0.257962
0.107443 -0.089888 0.256930
0.108321 -0.089591 0.255883
0.108997 -0.089136 0.254377
0.109279 -0.088372 0.251986
0.109140 -0.087288 0.248675
0.108032 -0.085461 0.243245
0.108499 -0.084906 0.241430
0.110189 -0.085309 0.242331
0.110464 -0.084621 0.240121
0.111193 -0.084290 0.238917
0.112265 -0.084224 0.238454
0.113072 -0.083962 0.237425
0.113873 -0.083701 0.236389
0.114627 -0.083411 0.235260
0.115159 -0.082967 0.233685
0.116048 -0.082785 0.232839
0.116823 -0.082528 0.231766
0.117485 -0.082195 0.230471
0.118492 -0.082108 0.229852
0.119211 -0.081825 0.228669
0.120341 -0.081827 0.228267
0.121349 -0.081746 0.227620
0.121850 -0.081328 0.226018
-1.462031 -0.942180 2.681289
-1.451055 -0.943494 2.689756
-1.443406 -0.947017 2.704353
-1.431169 -0.947567 2.710301
-1.423480 -0.951169 2.724819
-1.412109 -0.952355 2.732269
-1.399353 -0.952622 2.736924
-1.392949 -0.957261 2.754001
-1.385759 -0.961445 2.769647
-1.372863 -0.961714 2.773885
-1.363311 -0.964354 2.784827
-1.351360 -0.965335 2.790850
-1.341288 -0.967691 2.800725
-1.312593 -0.956526 2.771307
-1.314173 -0.967420 2.805676
-1.383138 -1.108448 3.235684
-1.388282 -1.125042 3.286255
-1.389361 -1.138682 3.328144
-1.365668 -1.132101 3.310841
-1.351209 -1.133112 3.315630
-1.340369 -1.137217 3.329384
-1.326890 -1.139156 3.336709
-1.312597 -1.140436 3.342017
-1.300662 -1.143822 3.353412
-1.290246 -1.148644 3.368942
-1.276286 -1.150393 3.375382
-1.265534 -1.155116 3.390473
-1.251285 -1.156727 3.396358
-1.234886 -1.156368 3.396383
-1.217603 -1.155162 3.393845
-1.203759 -1.157231 3.400856
-1.189077 -1.158542 3.405571
-0.852427 -0.917188 2.699497
-0.836419 -0.913584 2.689195
-0.824682 -0.914607 2.692470
-0.776955 -0.875125 2.576457
-0.743313 -0.850507 2.504157
-0.724626 -0.842486 2.480682
-0.713734 -0.843413 2.483524
-0.661929 -0.808686 2.381394
-0.651422 -0.809560 2.383992
-0.633117 -0.800604 2.357616
-0.612837 -0.788788 2.322796
-0.595167 -0.779962 2.296761
-0.579719 -0.773778 2.278482
-0.564899 -0.768214 2.262014
-0.565026 -0.783155 2.305902
-0.285570 -0.571691 1.680714
-0.276716 -0.569798 1.674940
-0.271493 -0.575488 1.691454
-0.261330 -0.570737 1.677275
-0.255595 -0.575662 1.691533
-0.249004 -0.578916 1.700877
-0.242359 -0.582259 1.710478
-0.234884 -0.583770 1.714696
-0.227333 -0.585193 1.718655
-0.220517 -0.588687 1.728697
-0.213068 -0.590692 1.734365
-0.205799 -0.593383 1.742046
-0.197359 -0.592778 1.740055
-0.190071 -0.595734 1.748519
-0.181899 -0.596064 1.749275
-0.009698 -0.722928 2.117700
0.000350 -0.722963 2.117710
0.010349 -0.719425 2.107263
0.020213 -0.714591 2.093029
0.029812 -0.706659 2.069735
0.039264 -0.700036 2.050280
0.048993 -0.699986 2.050088
0.057167 -0.681424 1.995691
0.066162 -0.676523 1.981310
0.075118 -0.672485 1.969465
0.083743 -0.666714 1.952552
0.093650 -0.671274 1.965901
0.103381 -0.673857 1.973472
0.021847 -0.104510 0.306084
0.023179 -0.103963 0.304489
0.024704 -0.104298 0.305477
0.026153 -0.104289 0.305457
0.027464 -0.103761 0.303919
0.028779 -0.103300 0.302578
0.030024 -0.102645 0.300670
0.031374 -0.102391 0.299936
0.032693 -0.102061 0.298982
0.034032 -0.101819 0.298283
0.035406 -0.101696 0.297935
0.036637 -0.101188 0.296459
0.038089 -0.101306 0.296817
0.039517 -0.101353 0.296968
0.040922 -0.101339 0.296940
0.042392 -0.101481 0.297370
0.043841 -0.101567 0.297636
0.045270 -0.101600 0.297746
0.046598 -0.101415 0.297215
0.047812 -0.100997 0.296003
0.049159 -0.100875 0.295659
0.050592 -0.100934 0.295843
0.051864 -0.100676 0.295097
0.053393 -0.100916 0.295810
0.054878 -0.101064 0.296253
0.056191 -0.100896 0.295771
0.057632 -0.100959 0.295962
0.058906 -0.100734 0.295311
0.060412 -0.100907 0.295824
0.061724 -0.100755 0.295381
0.062927 -0.100435 0.294447
0.064065 -0.100030 0.293259
0.065473 -0.100053 0.293326
0.066733 -0.099852 0.292735
0.067964 -0.099618 0.292045
0.069487 -0.099814 0.292612
0.070736 -0.099615 0.292020
0.071948 -0.099373 0.291299
0.073226 -0.099229 0.290863
0.074388 -0.098936 0.289990
0.075533 -0.098631 0.289078
0.076593 -0.098229 0.287877
0.077757 -0.097971 0.287098
0.078862 -0.097649 0.286126
0.079984 -0.097359 0.285246
0.081103 -0.097075 0.284379
0.082322 -0.096918 0.283881
0.083449 -0.096659 0.283084
0.084473 -0.096291 0.281960
0.085597 -0.096047 0.281198
0.086578 -0.095652 0.279987
0.087541 -0.095249 0.278752
0.088677 -0.095044 0.278090
0.089603 -0.094624 0.276794
0.090508 -0.094192 0.275462
0.091594 -0.093960 0.274708
0.092722 -0.093776 0.274091
0.093726 -0.093474 0.273121
0.094907 -0.093354 0.272682
0.095812 -0.092970 0.271461
0.096474 -0.092362 0.269586
0.097668 -0.092274 0.269222
0.098523 -0.091871 0.267934
0.098968 -0.091102 0.265571
0.099881 -0.090777 0.264500
0.100799 -0.090465 0.263458
0.101540 -0.090004 0.261978
0.102364 -0.089626 0.260734
0.103054 -0.089141 0.259172
0.103215 -0.088217 0.256327
0.102782 -0.086812 0.252082
0.102822 -0.085834 0.249074
0.103334 -0.085269 0.247256
0.103873 -0.084738 0.245534
0.104420 -0.084226 0.243858
0.105374 -0.084049 0.243147
0.106337 -0.083883 0.242459
0.107188 -0.083634 0.241520
0.108270 -0.083569 0.241104
0.109336 -0.083492 0.240645
0.110188 -0.083256 0.239717
0.110959 -0.082963 0.238617
0.111828 -0.082749 0.237732
0.112779 -0.082599 0.237023
0.113445 -0.082246 0.235720
0.114267 -0.082012 0.234745
0.115168 -0.081838 0.233934
0.115720 -0.081423 0.232420
0.116673 -0.081294 0.231713
0.117422 -0.081028 0.230602
0.118153 -0.080754 0.229454
0.119437 -0.080859 0.229371
0.119931 -0.080433 0.227766
0.120987 -0.080388 0.227226
0.122043 -0.080343 0.226669
-1.465149 -0.931030 2.690064
-1.451485 -0.930621 2.693513
-1.439698 -0.931420 2.700277
-1.442223 -0.941579 2.734046
-1.417220 -0.933789 2.715536
-1.409957 -0.937652 2.730731
-1.396106 -0.937167 2.733115
-1.389307 -0.941454 2.749272
-1.384165 -0.946956 2.768867
-1.368853 -0.945542 2.768106
-1.359444 -0.948218 2.779185
-1.349814 -0.950792 2.789842
-1.332820 -0.948181 2.785152
-1.313941 -0.944163 2.776180
-1.303611 -0.946271 2.785090
-1.415312 -1.106162 3.274195
-1.394733 -1.102161 3.264510
-1.390211 -1.110902 3.292466
-1.389372 -1.122820 3.329768
-1.365297 -1.116018 3.311463
-1.355784 -1.121100 3.328319
-1.341216 -1.122074 3.332890
-1.326341 -1.122813 3.336669
-1.313591 -1.125390 3.345828
-1.298227 -1.125764 3.348352
-1.287649 -1.130351 3.363325
-1.274706 -1.132951 3.372311
-1.262820 -1.136569 3.384254
-1.248599 -1.138152 3.390065
-1.235019 -1.140368 3.397690
-1.221803 -1.142986 3.406440
-1.207501 -1.144644 3.412264
-1.190022 -1.143295 3.409054
-1.167251 -1.136757 3.390301
-1.147302 -1.132825 3.379247
-1.130326 -1.131760 3.376683
-1.112846 -1.130154 3.372442
-1.098225 -1.131448 3.376799
-0.842105 -0.893445 2.667134
-0.826507 -0.890166 2.657612
-0.804976 -0.880299 2.628377
-0.777935 -0.864006 2.579912
-0.753036 -0.849613 2.537079
-0.721766 -0.827453 2.471017
-0.705451 -0.821995 2.454795
-0.681174 -0.806922 2.409830
-0.657620 -0.792211 2.365918
-0.644075 -0.789260 2.357099
-0.627996 -0.783047 2.338514
-0.615563 -0.781239 2.333063
-0.600683 -0.776204 2.317954
-0.588073 -0.773972 2.311195
-0.572940 -0.768273 2.294062
-0.565834 -0.773326 2.309019
-0.286035 -0.564615 1.683026
-0.280304 -0.569113 1.696210
-0.270441 -0.565240 1.684440
-0.261994 -0.564182 1.681061
-0.255787 -0.568032 1.692306
-0.249021 -0.570852 1.700477
-0.242061 -0.573401 1.707839
-0.234792 -0.575369 1.713468
-0.227588 -0.577644 1.720010
-0.220246 -0.579724 1.725975
-0.212595 -0.581121 1.729902
-0.204786 -0.582183 1.732835
-0.196712 -0.582547 1.733695
-0.188643 -0.582962 1.734708
-0.180148 -0.582041 1.731746
-0.171816 -0.581582 1.730167
-0.164035 -0.583036 1.734281
-0.155216 -0.580762 1.727312
-0.148717 -0.587405 1.746865
-0.009691 -0.710166 2.108971
0.000318 -0.707988 2.102410
0.010337 -0.710652 2.110237
0.020218 -0.705877 2.095984
0.029811 -0.697511 2.071082
0.039107 -0.688059 2.042963
0.048301 -0.680909 2.021690
0.057895 -0.680843 2.021461
0.066189 -0.667672 1.982331
0.075249 -0.664540 1.973019
0.084375 -0.662620 1.967311
0.093926 -0.664091 1.971678
0.103531 -0.665629 1.976255
0.020453 -0.103378 0.306941
0.021803 -0.102870 0.305440
0.023213 -0.102688 0.304906
0.024622 -0.102524 0.304428
0.025934 -0.101994 0.302863
0.027287 -0.101676 0.301929
0.028575 -0.101156 0.300394
0.029891 -0.100782 0.299295
0.031248 -0.100573 0.298687
0.032603 -0.100376 0.298115
0.033944 -0.100154 0.297469
0.035387 -0.100241 0.297740
0.036815 -0.100276 0.297859
0.038248 -0.100323 0.298014
0.039642 -0.100269 0.297866
0.041123 -0.100430 0.298361
0.042559 -0.100476 0.298511
0.043883 -0.100260 0.297887
0.045304 -0.100273 0.297939
0.046712 -0.100258 0.297912
0.047887 -0.099757 0.296436
0.049238 -0.099642 0.296110
0.050687 -0.099726 0.296373
0.052037 -0.099615 0.296057
0.053455 -0.099638 0.296137
0.054932 -0.099765 0.296528
0.056450 -0.099959 0.297117
0.057736 -0.099743 0.296483
0.059060 -0.099601 0.296072
0.060554 -0.099745 0.296509
0.061948 -0.099722 0.296447
0.063091 -0.099305 0.295212
0.064418 -0.099188 0.294868
0.065789 -0.099143 0.294738
0.067146 -0.099080 0.294551
0.068472 -0.098974 0.294235
0.069831 -0.098919 0.294067
0.071226 -0.098917 0.294056
0.072469 -0.098706 0.293421
0.073637 -0.098404 0.292513
0.074922 -0.098267 0.292093
0.076035 -0.097912 0.291025
0.077082 -0.097487 0.289742
0.078144 -0.097095 0.288557
0.079343 -0.096885 0.287908
0.080348 -0.096447 0.286581
0.081386 -0.096065 0.285414
0.082432 -0.095703 0.284305
0.083516 -0.095397 0.283359
0.084591 -0.095090 0.282406
0.085677 -0.094805 0.281513
0.086764 -0.094529 0.280646
0.087930 -0.094347 0.280053
0.088927 -0.093992 0.278942
0.089976 -0.093700 0.278014
0.090911 -0.093301 0.276764
0.092114 -0.093184 0.276345
0.093076 -0.092830 0.275220
0.094043 -0.092491 0.274131
0.094842 -0.091997 0.272582
0.096063 -0.091921 0.272265
0.097326 -0.091886 0.272065
0.098043 -0.091345 0.270358
0.099046 -0.091079 0.269461
0.099952 -0.090732 0.268321
0.101087 -0.090599 0.267807
0.101551 -0.089876 0.265542
0.100095 -0.087493 0.258369
0.099726 -0.086106 0.254138
0.100566 -0.085784 0.253043
0.101390 -0.085455 0.251926
0.102035 -0.084986 0.250386
0.102511 -0.084389 0.248462
0.102994 -0.083810 0.246588
0.103680 -0.083408 0.245227
0.104442 -0.083076 0.244064
0.105092 -0.082662 0.242656
0.106187 -0.082604 0.242281
0.107055 -0.082373 0.241392
0.107938 -0.082157 0.240539
0.109097 -0.082155 0.240301
0.109992 -0.081955 0.239477
0.110944 -0.081802 0.238778
0.111840 -0.081610 0.237956
0.112772 -0.081450 0.237215
0.113660 -0.081260 0.236377
0.114263 -0.080872 0.234955
0.114916 -0.080528 0.233647
0.115646 -0.080243 0.232502
0.116348 -0.079945 0.231306
0.117071 -0.079666 0.230156
0.117970 -0.079511 0.229351
0.118865 -0.079357 0.228532
0.119912 -0.079306 0.227997
0.120802 -0.079153 0.227153
0.121745 -0.079036 0.226399
-1.465752 -0.918251 2.694126
-1.460905 -0.923424 2.713872
-1.444187 -0.921121 2.711477
-1.428505 -0.919444 2.710729
-1.421807 -0.923573 2.726940
-1.410564 -0.924800 2.734442
-1.397954 -0.925147 2.739187
-1.388430 -0.927563 2.749917
-1.379090 -0.930152 2.761027
-1.370296 -0.933163 2.773267
-1.357476 -0.933465 2.777329
-1.347306 -0.935615 2.786760
-1.344336 -0.942859 2.811262
-1.325310 -0.938875 2.802168
-1.326041 -0.948950 2.834930
-1.416492 -1.091438 3.278623
-1.415133 -1.102477 3.313907
-1.406072 -1.107697 3.331619
-1.392505 -1.109447 3.338803
-1.377226 -1.109857 3.341857
-1.355967 -1.105404 3.330160
-1.343144 -1.107804 3.339012
-1.329041 -1.109195 3.344733
-1.318318 -1.113476 3.359086
-1.306616 -1.117024 3.371151
-1.291808 -1.117972 3.375291
-1.275542 -1.117668 3.375566
-1.262511 -1.120227 3.384414
-1.251109 -1.124318 3.397815
-1.235398 -1.124593 3.399615
-1.222175 -1.127169 3.408301
-1.208304 -1.129211 3.415306
-1.196365 -1.133139 3.427947
-1.179246 -1.132200 3.425806
-1.153325 -1.122670 3.397597
-1.150040 -1.135217 3.436139
-1.129727 -1.131074 3.424113
-1.093962 -1.111119 3.364146
-0.843128 -0.881880 2.670658
-0.831376 -0.882747 2.673512
-0.819734 -0.883759 2.676771
-0.706370 -0.811422 2.458047
-0.680846 -0.795124 2.408695
-0.661799 -0.785967 2.380947
-0.641463 -0.774937 2.347502
-0.626215 -0.769777 2.331813
-0.611764 -0.765430 2.318567
-0.600351 -0.764798 2.316551
-0.591854 -0.767924 2.325900
-0.566261 -0.748570 2.267142
-0.561514 -0.756561 2.291187
-0.280480 -0.545799 1.649902
-0.278048 -0.556527 1.682094
-0.272449 -0.561358 1.696457
-0.262375 -0.556987 1.683007
-0.255939 -0.560306 1.692795
-0.249753 -0.564403 1.704932
-0.242691 -0.566731 1.711718
-0.235183 -0.568142 1.715738
-0.227879 -0.570166 1.721606
-0.220547 -0.572270 1.727718
-0.212563 -0.572777 1.729007
-0.204293 -0.572526 1.728012
-0.196418 -0.573405 1.730432
-0.188589 -0.574505 1.733518
-0.180570 -0.575100 1.735086
-0.172879 -0.576847 1.740134
-0.165263 -0.579035 1.746512
-0.157418 -0.580608 1.751040
-0.148992 -0.580095 1.749283
-0.141483 -0.583308 1.758765
-0.134013 -0.587092 1.769972
-0.126416 -0.590790 1.780926
-0.119083 -0.596340 1.797464
-0.110602 -0.596557 1.797934
-0.009724 -0.700431 2.109103
0.000290 -0.700465 2.109114
0.010136 -0.688976 2.074438
0.019987 -0.688976 2.074367
0.029631 -0.684196 2.059915
0.038680 -0.671429 2.021425
0.048022 -0.667822 2.010526
0.057122 -0.662604 1.994787
0.066300 -0.659644 1.985853
0.075772 -0.659973 1.986832
0.085040 -0.658644 1.982828
0.094467 -0.658688 1.982966
0.019029 -0.102124 0.307452
0.020484 -0.102094 0.307369
0.021867 -0.101735 0.306294
0.023283 -0.101564 0.305787
0.024668 -0.101285 0.304956
0.025943 -0.100609 0.302932
0.027258 -0.100152 0.301569
0.028630 -0.099939 0.300938
0.029962 -0.099612 0.299965
0.031260 -0.099207 0.298762
0.032560 -0.098846 0.297686
0.033889 -0.098596 0.296950
0.035286 -0.098555 0.296842
0.036791 -0.098811 0.297627
0.038126 -0.098606 0.297028
0.039608 -0.098781 0.297572
0.041040 -0.098824 0.297718
0.042413 -0.098728 0.297445
0.043902 -0.098898 0.297977
0.045237 -0.098723 0.297467
0.046792 -0.099022 0.298385
0.047854 -0.098292 0.296201
0.049278 -0.098326 0.296320
0.050665 -0.098284 0.296212
0.051990 -0.098130 0.295763
0.053541 -0.098399 0.296588
0.055075 -0.098621 0.297273
0.056583 -0.098789 0.297795
0.058093 -0.098951 0.298294
0.059377 -0.098730 0.297640
0.060840 -0.098810 0.297894
0.062163 -0.098664 0.297463
0.063545 -0.098615 0.297324
0.064664 -0.098169 0.295988
0.066052 -0.098143 0.295915
0.067564 -0.098298 0.296385
0.068831 -0.098097 0.295780
0.070101 -0.097907 0.295207
0.071552 -0.097974 0.295407
0.072904 -0.097904 0.295192
0.074091 -0.097620 0.294330
0.075352 -0.097443 0.293785
0.076548 -0.097189 0.293008
0.077658 -0.096836 0.291930
0.078687 -0.096397 0.290587
0.079794 -0.096066 0.289571
0.080819 -0.095651 0.288294
0.081847 -0.095252 0.287067
0.082820 -0.094803 0.285683
0.083840 -0.094421 0.284499
0.084938 -0.094139 0.283610
0.086114 -0.093950 0.283000
0.087035 -0.093492 0.281576
0.088201 -0.093308 0.280972
0.089261 -0.093019 0.280049
0.090200 -0.092614 0.278772
0.091346 -0.092431 0.278157
0.092562 -0.092321 0.277761
0.093382 -0.091826 0.276198
0.094151 -0.091296 0.274526
0.095891 -0.091707 0.275682
0.096138 -0.090700 0.272566
0.095842 -0.089214 0.268009
0.095521 -0.087744 0.263496
0.095811 -0.086866 0.260758
0.096038 -0.085954 0.257916
0.096307 -0.085102 0.255248
0.097008 -0.084649 0.253771
0.097825 -0.084306 0.252621
0.098883 -0.084178 0.252105
0.099686 -0.083838 0.250951
0.100618 -0.083613 0.250134
0.101545 -0.083389 0.249312
0.102275 -0.083011 0.248024
0.103129 -0.082740 0.247051
0.103812 -0.082340 0.245684
0.104559 -0.081999 0.244486
0.105422 -0.081756 0.243571
0.106089 -0.081367 0.242216
0.107071 -0.081226 0.241590
0.107915 -0.080985 0.240658
0.108664 -0.080678 0.239521
0.109753 -0.080628 0.239136
0.110520 -0.080344 0.238050
0.111439 -0.080175 0.237295
0.112324 -0.079986 0.236469
0.112994 -0.079648 0.235196
0.113792 -0.079407 0.234195
0.114568 -0.079155 0.233153
0.115250 -0.078844 0.231926
0.116174 -0.078703 0.231187
0.116916 -0.078442 0.230085
0.117743 -0.078243 0.229151
0.118434 -0.077957 0.227952
0.119629 -0.078006 0.227715
0.120399 -0.077779 0.226659
0.121368 -0.077684 0.225971
-1.476951 -0.912006 2.717587
-1.462235 -0.911019 2.719127
-1.449922 -0.911525 2.724941
-1.434910 -0.910330 2.725489
-1.425248 -0.912539 2.736068
-1.415795 -0.914927 2.747037
-1.401507 -0.914206 2.748523
-1.388986 -0.914636 2.753315
-1.378489 -0.916421 2.762049
-1.370255 -0.919761 2.775343
-1.354731 -0.918226 2.773797
-1.349128 -0.923453 2.792554
-1.322144 -0.914004 2.766790
-1.326655 -0.926358 2.806907
-1.318875 -0.930295 2.821445
-1.420615 -1.078925 3.289795
-1.416593 -1.087796 3.318901
-1.402170 -1.088789 3.323885
-1.383813 -1.086717 3.319404
-1.368829 -1.087278 3.322863
-1.355251 -1.088982 3.329722
-1.340625 -1.089876 3.334013
-1.326603 -1.091289 3.339801
-1.316668 -1.096139 3.356028
-1.307088 -1.101408 3.373464
-1.290591 -1.100906 3.373147
-1.276369 -1.102359 3.378737
-1.268676 -1.109558 3.401871
-1.252773 -1.109671 3.403208
-1.237829 -1.110649 3.407122
-1.226748 -1.115165 3.421825
-1.211850 -1.116285 3.426042
-1.200283 -1.120548 3.439838
-1.184813 -1.121233 3.442590
-1.164090 -1.116899 3.429866
-1.154864 -1.123630 3.451063
-1.141623 -1.126592 3.460628
-1.113135 -1.114377 3.423510
-0.681740 -0.784744 2.411844
-0.656424 -0.768397 2.361567
-0.639794 -0.761831 2.341324
-0.626766 -0.759398 2.333765
-0.615735 -0.759344 2.333492
-0.601875 -0.755734 2.322272
-0.586674 -0.750278 2.305362
-0.573427 -0.747163 2.295625
-0.560758 -0.744696 2.287864
-0.287064 -0.550578 1.688162
-0.276438 -0.545347 1.671873
-0.271614 -0.551588 1.690755
-0.263672 -0.551686 1.690804
-0.256449 -0.553342 1.695625
-0.249507 -0.555733 1.702698
-0.242499 -0.558131 1.709790
-0.234925 -0.559349 1.713267
-0.227766 -0.561678 1.720145
-0.220648 -0.564284 1.727874
-0.212698 -0.564880 1.729449
-0.205352 -0.567197 1.736293
-0.197423 -0.568029 1.738594
-0.188777 -0.566784 1.734543
-0.181888 -0.570940 1.747023
-0.173862 -0.571752 1.749274
-0.165868 -0.572761 1.752129
-0.158564 -0.576384 1.762988
-0.150110 -0.576000 1.761592
-0.141857 -0.576385 1.762558
-0.134034 -0.578680 1.769364
-0.126115 -0.580841 1.775770
-0.118370 -0.584171 1.785756
-0.110739 -0.588621 1.799166
-0.102894 -0.592585 1.811098
-0.094971 -0.596786 1.823759
-0.086563 -0.598477 1.828759
-0.078192 -0.600827 1.835777
-0.070195 -0.607007 1.854503
-0.061407 -0.607142 1.854770
-0.009770 -0.691605 2.112014
0.000252 -0.668878 2.042519
0.009887 -0.664343 2.028591
0.019412 -0.660532 2.016884
0.028909 -0.658597 2.010919
0.038718 -0.662968 2.024215
0.047579 -0.652588 1.992485
0.056874 -0.650609 1.986415
0.066117 -0.648678 1.980502
0.075875 -0.651652 1.989573
0.085287 -0.651324 1.988571
0.094095 -0.646898 1.975070
0.018960 -0.100324 0.306317
0.020393 -0.100210 0.305975
0.021785 -0.099926 0.305116
0.023157 -0.099587 0.304090
0.024552 -0.099382 0.303475
0.025872 -0.098914 0.302058
0.027163 -0.098388 0.300465
0.028495 -0.098059 0.299473
0.029815 -0.097718 0.298445
0.031060 -0.097175 0.296801
0.032393 -0.096944 0.296112
0.033685 -0.096613 0.295117
0.035137 -0.096749 0.295550
0.036550 -0.096770 0.295631
0.037901 -0.096633 0.295230
0.039342 -0.096724 0.295527
0.040823 -0.096905 0.296100
0.042303 -0.097073 0.296633
0.043746 -0.097146 0.296876
0.045074 -0.096969 0.296353
0.046577 -0.097166 0.296973
0.047874 -0.096934 0.296285
0.049253 -0.096877 0.296130
0.050603 -0.096768 0.295816
0.052153 -0.097038 0.296658
0.053724 -0.097329 0.297567
0.055317 -0.097645 0.298552
0.056964 -0.098040 0.299774
0.058493 -0.098215 0.300327
0.059886 -0.098159 0.300171
0.061310 -0.098155 0.300173
0.062755 -0.098185 0.300277
0.064082 -0.098033 0.299823
0.065126 -0.097463 0.298090
0.066568 -0.097502 0.298217
0.068056 -0.097604 0.298537
0.069275 -0.097323 0.297682
0.070612 -0.097217 0.297361
0.071958 -0.097127 0.297086
0.073194 -0.096894 0.296374
0.074329 -0.096539 0.295285
0.075531 -0.096282 0.294492
0.076612 -0.095884 0.293267
0.077720 -0.095533 0.292180
0.078667 -0.095000 0.290536
0.079661 -0.094540 0.289115
0.080737 -0.094192 0.288029
0.081710 -0.093737 0.286615
0.082837 -0.093471 0.285775
0.083923 -0.093169 0.284821
0.085020 -0.092886 0.283923
0.086252 -0.092759 0.283496
0.087446 -0.092594 0.282954
0.088377 -0.092162 0.281587
0.089408 -0.091844 0.280564
0.090270 -0.091365 0.279047
0.091288 -0.091055 0.278043
0.091899 -0.090354 0.275839
0.092734 -0.089889 0.274352
0.093969 -0.089819 0.274068
0.092382 -0.087092 0.265671
0.092620 -0.086135 0.262672
0.093059 -0.085388 0.260310
0.093953 -0.085073 0.259258
0.094941 -0.084849 0.258480
0.095771 -0.084492 0.257292
0.096594 -0.084139 0.256109
0.097484 -0.083851 0.255120
0.098318 -0.083524 0.254003
0.099066 -0.083131 0.252684
0.100016 -0.082916 0.251898
0.100910 -0.082660 0.250980
0.101600 -0.082245 0.249573
0.102251 -0.081807 0.248094
0.102960 -0.081427 0.246779
0.103743 -0.081112 0.245656
0.104314 -0.080641 0.244054
0.105095 -0.080340 0.242961
0.106009 -0.080147 0.242185
0.106895 -0.079936 0.241350
0.107767 -0.079721 0.240489
0.108833 -0.079651 0.240061
0.109870 -0.079562 0.239563
0.110724 -0.079344 0.238667
0.111525 -0.079092 0.237662
0.112366 -0.078874 0.236746
0.113130 -0.078607 0.235674
0.113913 -0.078358 0.234646
0.114710 -0.078123 0.233651
0.115577 -0.077940 0.232797
0.116269 -0.077643 0.231596
0.117127 -0.077463 0.230728
0.117812 -0.077172 0.229518
0.118623 -0.076968 0.228557
0.119651 -0.076908 0.228006
0.120504 -0.076737 0.227113
0.121237 -0.076493 0.225990
-1.484060 -0.903073 2.733460
-1.465623 -0.899854 2.728120
-1.449081 -0.897752 2.725962
-1.444288 -0.902958 2.745836
-1.427779 -0.900870 2.743374
-1.412371 -0.899445 2.742755
-1.398633 -0.899067 2.745171
-1.386841 -0.899947 2.751275
-1.374114 -0.900232 2.755421
-1.361675 -0.900714 2.760033
-1.353669 -0.904167 2.773627
-1.339084 -0.903252 2.773699
-1.329854 -0.905969 2.784798
-1.324298 -0.911268 2.803737
-1.319814 -0.917422 2.825219
-1.420356 -1.063044 3.290752
-1.410576 -1.067425 3.306299
-1.403862 -1.074253 3.329339
-1.387261 -1.073584 3.329054
-1.371810 -1.073801 3.331416
-1.357499 -1.074928 3.336504
-1.343103 -1.076013 3.341373
-1.329960 -1.078140 3.349392
-1.311572 -1.076018 3.344121
-1.311509 -1.089061 3.385908
-1.297068 -1.090340 3.391055
-1.272138 -1.082725 3.368451
-1.263195 -1.088697 3.388039
-1.260524 -1.100298 3.425084
-1.238252 -1.094869 3.409049
-1.224705 -1.097114 3.416834
-1.214617 -1.102560 3.434524
-1.202086 -1.105906 3.445612
-1.186339 -1.106347 3.447583
-1.170121 -1.106354 3.448143
-1.159152 -1.111395 3.464333
-1.142817 -1.111364 3.464654
-1.121571 -1.106487 3.449810
-0.657291 -0.758214 2.364615
-0.636388 -0.746745 2.328760
-0.620948 -0.741397 2.311972
-0.610270 -0.741647 2.312621
-0.602499 -0.745504 2.324492
-0.586103 -0.738634 2.302902
-0.573722 -0.736662 2.296564
-0.569360 -0.745108 2.322688
-0.288799 -0.545827 1.697876
-0.281013 -0.546285 1.699035
-0.272068 -0.544449 1.693062
-0.264532 -0.545410 1.695782
-0.257202 -0.546867 1.700049
-0.249643 -0.547919 1.703050
-0.242289 -0.549506 1.707716
-0.234829 -0.550954 1.711951
-0.227623 -0.553125 1.718432
-0.220109 -0.554680 1.723000
-0.212810 -0.556919 1.729696
-0.205808 -0.560147 1.739461
-0.197855 -0.560947 1.741691
-0.190192 -0.562678 1.746812
-0.182287 -0.563818 1.750102
-0.173287 -0.561517 1.742720
-0.166120 -0.565227 1.753994
-0.158710 -0.568461 1.763796
-0.149641 -0.565780 1.755252
-0.142283 -0.569633 1.766983
-0.134527 -0.572280 1.774977
-0.126473 -0.573932 1.779891
-0.118839 -0.577858 1.791866
-0.111295 -0.582866 1.807198
-0.103439 -0.586941 1.819639
-0.094291 -0.583765 1.809612
-0.085943 -0.585400 1.814507
-0.077720 -0.588352 1.823493
-0.069173 -0.589282 1.826217
-0.060443 -0.588699 1.824263
-0.052395 -0.595684 1.845768
-0.043829 -0.598406 1.854072
-0.035183 -0.601133 1.862398
0.000225 -0.660309 2.045306
0.009876 -0.655832 2.031358
0.019418 -0.652069 2.019636
0.028931 -0.650159 2.013663
0.037549 -0.634069 1.963782
0.047018 -0.635895 1.969404
0.056377 -0.635868 1.969294
0.065530 -0.633853 1.963040
0.075065 -0.635573 1.968361
0.084183 -0.633762 1.962758
0.094462 -0.640185 1.982662
0.017546 -0.099128 0.307011
0.019001 -0.099101 0.306933
0.020270 -0.098178 0.304083
0.021747 -0.098320 0.304530
0.023116 -0.097987 0.303509
0.024486 -0.097695 0.302618
0.025802 -0.097230 0.301191
0.027070 -0.096646 0.299394
0.028312 -0.096028 0.297494
0.029609 -0.095648 0.296334
0.030911 -0.095319 0.295330
0.032325 -0.095349 0.295441
0.033613 -0.095020 0.294437
0.035020 -0.095038 0.294512
0.036486 -0.095209 0.295061
0.037832 -0.095066 0.294640
0.039357 -0.095367 0.295592
0.040833 -0.095534 0.296130
0.042349 -0.095778 0.296907
0.043806 -0.095878 0.297239
0.044980 -0.095372 0.295693
0.046533 -0.095674 0.296650
0.047836 -0.095461 0.296012
0.049171 -0.095322 0.295603
0.050654 -0.095469 0.296078
0.052129 -0.095592 0.296482
0.053685 -0.095855 0.297318
0.055277 -0.096166 0.298303
0.056860 -0.096447 0.299194
0.058438 -0.096707 0.300018
0.060092 -0.097074 0.301176
0.061463 -0.096979 0.300898
0.062755 -0.096767 0.300255
0.064277 -0.096912 0.300718
0.065547 -0.096676 0.300002
0.066761 -0.096372 0.299068
0.068341 -0.096596 0.299773
0.069751 -0.096576 0.299721
0.070989 -0.096323 0.298941
0.072280 -0.096152 0.298414
0.073621 -0.096050 0.298101
0.074804 -0.095752 0.297174
0.076108 -0.095616 0.296750
0.077323 -0.095376 0.296000
0.078400 -0.094976 0.294750
0.079345 -0.094433 0.293057
0.080250 -0.093862 0.291271
0.081140 -0.093293 0.289488
0.082158 -0.092888 0.288213
0.083209 -0.092533 0.287089
0.084188 -0.092110 0.285750
0.085330 -0.091877 0.284997
0.086466 -0.091644 0.284240
0.087449 -0.091259 0.283008
0.088603 -0.091062 0.282354
0.089738 -0.090850 0.281652
0.090439 -0.090212 0.279625
0.091219 -0.089669 0.277889
0.091794 -0.088944 0.275584
0.091367 -0.087283 0.270374
0.091438 -0.086137 0.266756
0.092188 -0.085652 0.265184
0.092677 -0.084942 0.262908
0.093258 -0.084333 0.260942
0.094081 -0.083956 0.259692
0.095019 -0.083691 0.258779
0.095735 -0.083239 0.257285
0.096591 -0.082919 0.256194
0.097479 -0.082634 0.255205
0.098346 -0.082339 0.254178
0.099233 -0.082067 0.253216
0.100121 -0.081802 0.252271
0.100993 -0.081531 0.251301
0.101826 -0.081234 0.250246
0.102539 -0.080851 0.248916
0.103209 -0.080442 0.247502
0.103752 -0.079945 0.245810
0.104320 -0.079478 0.244204
0.105173 -0.079236 0.243282
0.105965 -0.078954 0.242229
0.106819 -0.078724 0.241329
0.107764 -0.078565 0.240639
0.108692 -0.078397 0.239911
0.109592 -0.078212 0.239123
0.110465 -0.078013 0.238281
0.111390 -0.077853 0.237550
0.112183 -0.077606 0.236544
0.113011 -0.077387 0.235613
0.113957 -0.077253 0.234930
0.114614 -0.076928 0.233653
0.115586 -0.076818 0.233022
0.116299 -0.076540 0.231868
0.117057 -0.076296 0.230807
0.117793 -0.076043 0.229706
0.118727 -0.075921 0.228988
0.119737 -0.075850 0.228410
0.120356 -0.075534 0.227081
0.121502 -0.075552 0.226739
-1.472529 -0.882839 2.714900
-1.457035 -0.881385 2.714721
-1.446194 -0.882747 2.723038
-1.440010 -0.887004 2.740141
-1.422327 -0.884192 2.735250
-1.409490 -0.884369 2.739435
-1.400863 -0.887218 2.751754
-1.389794 -0.888560 2.759270
-1.378687 -0.889904 2.766659
-1.369968 -0.892832 2.778845
-1.358073 -0.893728 2.784588
-1.344930 -0.893814 2.787678
-1.328002 -0.891361 2.782718
-1.314254 -0.891016 2.784206
-1.445387 -1.065818 3.350254
-1.431152 -1.067018 3.355978
-1.413093 -1.065363 3.352614
-1.389756 -1.059647 3.336355
-1.374636 -1.060138 3.339532
-1.357878 -1.059363 3.338625
-1.346148 -1.062540 3.350085
-1.332507 -1.064267 3.356888
-1.312816 -1.061147 3.348313
-1.303921 -1.066783 3.367286
-1.290535 -1.068841 3.374891
-1.269510 -1.064544 3.362347
-1.267106 -1.075952 3.399338
-1.252313 -1.076999 3.403529
-1.238930 -1.079302 3.411618
-1.222395 -1.078885 3.411042
-1.207028 -1.079501 3.413665
-1.197256 -1.085207 3.432320
-1.184726 -1.088535 3.443396
-1.168087 -1.088130 3.442601
-1.156520 -1.092505 3.456872
-1.142418 -1.094577 3.463799
-1.125332 -1.093809 3.461684
-0.645819 -0.733978 2.323241
-0.628696 -0.726824 2.300483
-0.621687 -0.731317 2.314568
-0.610459 -0.730919 2.313149
-0.600621 -0.732202 2.317032
-0.584025 -0.725143 2.294497
-0.572317 -0.724002 2.290675
-0.565841 -0.729563 2.308038
-0.293085 -0.530985 1.676288
-0.288590 -0.537361 1.696142
-0.279966 -0.536193 1.692179
-0.271381 -0.535035 1.688248
-0.265147 -0.538584 1.699167
-0.257291 -0.538957 1.700064
-0.249709 -0.539945 1.702905
-0.243136 -0.543258 1.713075
-0.234914 -0.542987 1.711942
-0.227738 -0.545202 1.718649
-0.220486 -0.547392 1.725281
-0.184773 -0.563022 1.773193
-0.176470 -0.563339 1.773938
-0.167168 -0.560340 1.764246
-0.159836 -0.563982 1.775467
-0.151189 -0.563127 1.772541
-0.142827 -0.563302 1.772863
-0.134886 -0.565260 1.778800
-0.126800 -0.566835 1.783540
-0.118994 -0.569982 1.793232
-0.110306 -0.569057 1.790122
-0.102318 -0.571901 1.798875
-0.094589 -0.576838 1.814217
-0.085966 -0.576772 1.813831
-0.077607 -0.578665 1.819615
-0.069360 -0.581969 1.829843
-0.061081 -0.585923 1.842125
-0.052542 -0.588282 1.849396
-0.043816 -0.589089 1.851801
-0.035268 -0.593298 1.864907
-0.026494 -0.595261 1.870964
-0.017619 -0.595816 1.872602
-0.008725 -0.596217 1.873770
0.000182 -0.598899 1.882115
0.009210 -0.604274 1.898932
0.018363 -0.608407 1.911857
0.027555 -0.610686 1.918966
0.036800 -0.612708 1.925276
0.046262 -0.616800 1.938100
0.055803 -0.620417 1.949444
0.065024 -0.619951 1.947968
0.074643 -0.622908 1.957258
0.083802 -0.621806 1.953802
0.094596 -0.631834 1.985333
0.017567 -0.097808 0.307341
0.019003 -0.097675 0.306929
0.020365 -0.097209 0.305475
0.021799 -0.097125 0.305221
0.023105 -0.096513 0.303310
0.024416 -0.095995 0.301695
0.025784 -0.095748 0.300931
0.027023 -0.095073 0.298824
0.028185 -0.094205 0.296111
0.029546 -0.094053 0.295652
0.030904 -0.093908 0.295214
0.032231 -0.093683 0.294524
0.033566 -0.093500 0.293969
