ply
format ascii 1.0
element vertex 1748
property float x
property float y
property float z
end_header
0.012377 0.023837 0.233625
0.013530 0.023874 0.234009
0.014696 0.023926 0.234549
0.015892 0.024016 0.235474
0.017089 0.024095 0.236276
0.018249 0.024116 0.236525
0.019419 0.024146 0.236864
0.020617 0.024205 0.237487
0.021767 0.024205 0.237541
0.022956 0.024246 0.237994
0.024122 0.024259 0.238184
0.025309 0.024293 0.238567
0.026735 0.024542 0.241075
0.028025 0.024650 0.242206
0.029235 0.024682 0.242585
0.030430 0.024700 0.242834
0.031671 0.024752 0.243414
0.032856 0.024758 0.243549
0.034052 0.024772 0.243760
0.035260 0.024794 0.244053
0.036411 0.024774 0.243943
0.037624 0.024798 0.244255
0.038791 0.024790 0.244261
0.040956 0.025401 0.250375
0.042195 0.025420 0.250646
0.043413 0.025425 0.250792
0.044482 0.025345 0.250096
0.045621 0.025308 0.249825
0.046870 0.025333 0.250159
0.048200 0.025398 0.250905
0.054100 0.027146 0.268377
0.053416 0.026178 0.258905
0.054251 0.025981 0.257059
0.054687 0.025606 0.253452
0.055930 0.025617 0.253662
0.057358 0.025711 0.254689
0.058561 0.025702 0.254703
0.060474 0.025999 0.257743
0.061714 0.025999 0.257853
0.063218 0.026109 0.259046
0.064469 0.026113 0.259181
0.065974 0.026217 0.260313
0.067636 0.026378 0.262016
0.069000 0.026419 0.262528
0.070119 0.026367 0.262106
0.071501 0.026413 0.262666
0.073226 0.026583 0.264450
0.075799 0.027049 0.269186
0.077124 0.027062 0.269412
0.078335 0.027035 0.269238
0.079680 0.027055 0.269522
0.081071 0.027089 0.269952
0.082321 0.027075 0.269907
0.083610 0.027075 0.269988
0.085042 0.027120 0.270522
0.086560 0.027191 0.271311
0.087803 0.027174 0.271225
0.088945 0.027128 0.270831
0.088821 0.026702 0.266651
0.088171 0.026132 0.261023
0.088443 0.025847 0.258242
0.089544 0.025809 0.257924
0.090343 0.025686 0.256749
0.091302 0.025612 0.256055
0.092347 0.025563 0.255612
0.093167 0.025454 0.254564
0.094059 0.025367 0.253733
0.094590 0.025186 0.251956
0.095490 0.025107 0.251193
0.096562 0.025074 0.250890
0.097279 0.024951 0.249676
0.098028 0.024839 0.248570
0.097791 0.024483 0.245014
0.098199 0.024295 0.243135
0.098381 0.024056 0.240741
0.098961 0.023918 0.239358
0.099812 0.023849 0.238648
0.100612 0.023769 0.237828
0.101219 0.023646 0.236569
0.101999 0.023565 0.235731
0.102846 0.023501 0.235057
0.103633 0.023425 0.234255
0.104447 0.023357 0.233522
0.105339 0.023307 0.232968
0.106170 0.023246 0.232285
0.106996 0.023184 0.231599
0.107868 0.023133 0.231014
0.108694 0.023074 0.230334
0.109430 0.022997 0.229471
0.110027 0.022892 0.228326
0.110685 0.022802 0.227318
0.111495 0.022745 0.226630
0.112011 0.022629 0.225353
0.112657 0.022542 0.224348
0.113448 0.022485 0.223636
0.114002 0.022382 0.222464
0.114806 0.022331 0.221785
0.115724 0.022301 0.221324
-1.602430 0.330683 3.168997
-1.595969 0.332453 3.187622
-1.580670 0.332397 3.188636
-1.572823 0.333923 3.204705
-1.567935 0.336113 3.227046
-1.561412 0.337992 3.246305
-1.550390 0.338925 3.256373
-1.541507 0.340348 3.271057
-1.533015 0.341888 3.286760
-1.530179 0.344733 3.314923
-0.675459 0.153741 1.478673
-0.669578 0.153987 1.481319
-0.669268 0.155534 1.496433
-0.666561 0.156551 1.506408
-0.662652 0.157304 1.513810
-0.658466 0.158007 1.520689
-0.653701 0.158585 1.526329
-0.646701 0.158627 1.526777
-0.639190 0.158544 1.525981
-0.630487 0.158160 1.522252
-0.622442 0.157934 1.520010
-0.613168 0.157387 1.514650
-0.605302 0.157194 1.512654
-0.597620 0.157044 1.511048
-0.588958 0.156629 1.506872
-0.581526 0.156536 1.505756
-0.573328 0.156232 1.502581
-0.564953 0.155871 1.498837
-0.555982 0.155335 1.493381
-0.546120 0.154533 1.485347
-0.536902 0.153894 1.478869
-0.526918 0.153017 1.470070
-0.516818 0.152082 1.460703
-0.506514 0.151061 1.450493
-0.496562 0.150118 1.441020
-0.486903 0.149240 1.432148
-0.476714 0.148171 1.421442
-0.465137 0.146635 1.406240
-0.452964 0.144864 1.388778
-0.441415 0.143243 1.372753
-0.427918 0.140932 1.350116
-0.416577 0.139272 1.333718
-0.307204 0.107588 1.029090
-0.303690 0.108070 1.033276
-0.296759 0.107332 1.025790
-0.292950 0.107717 1.029032
-0.288175 0.107754 1.028945
-0.283186 0.107711 1.028082
-0.278500 0.107784 1.028324
-0.273457 0.107718 1.027242
-0.268356 0.107627 1.025908
-0.263007 0.107432 1.023579
-0.257564 0.107190 1.020803
-0.251376 0.106623 1.014934
-0.244450 0.105714 1.005819
-0.236809 0.104454 0.993361
-0.229797 0.103425 0.983122
-0.224714 0.103240 0.980903
-0.216999 0.101813 0.966885
-0.033062 0.026967 0.253848
-0.031140 0.026374 0.248172
-0.029878 0.026314 0.247516
-0.028652 0.026282 0.247127
-0.027508 0.026326 0.247461
-0.026311 0.026321 0.247326
-0.024267 0.025428 0.238862
-0.022949 0.025245 0.237062
-0.021763 0.025196 0.236530
-0.020655 0.025236 0.236841
-0.019423 0.025122 0.235699
-0.017785 0.024434 0.229180
-0.016631 0.024365 0.228478
-0.015473 0.024280 0.227623
-0.014262 0.024091 0.225798
-0.013053 0.023876 0.223735
-0.011898 0.023730 0.222318
-0.010796 0.023671 0.221728
-0.009686 0.023579 0.220821
-0.006340 0.023066 0.215919
-0.005277 0.022990 0.215179
-0.004311 0.023402 0.219016
0.001021 0.024096 0.225431
0.003239 0.024349 0.227792
0.004339 0.024326 0.227575
0.005453 0.024379 0.228077
0.006581 0.024461 0.228857
0.007750 0.024653 0.230661
0.008916 0.024788 0.231942
0.010060 0.024836 0.232405
0.011202 0.024871 0.232758
0.012353 0.024918 0.233223
0.013484 0.024921 0.233270
0.014685 0.025042 0.234438
0.015868 0.025116 0.235170
0.017021 0.025137 0.235399
0.018233 0.025236 0.236364
0.019433 0.025308 0.237085
0.020624 0.025362 0.237634
0.021785 0.025373 0.237789
0.022990 0.025433 0.238406
0.024172 0.025463 0.238741
0.025357 0.025492 0.239071
0.026656 0.025629 0.240414
0.028003 0.025799 0.242073
0.029214 0.025835 0.242477
0.030414 0.025858 0.242763
0.031648 0.025907 0.243295
0.032844 0.025923 0.243519
0.034038 0.025937 0.243719
0.035237 0.025953 0.243946
0.036422 0.025958 0.244077
0.037607 0.025962 0.244199
0.038785 0.025962 0.244281
0.040512 0.026318 0.247713
0.042205 0.026632 0.250761
0.043366 0.026603 0.250575
0.044447 0.026527 0.249949
0.045627 0.026513 0.249908
0.046773 0.026479 0.249690
0.054609 0.028702 0.270955
0.052503 0.026952 0.254530
0.052973 0.026573 0.251052
0.054063 0.026516 0.250609
0.055095 0.026433 0.249923
0.056284 0.026427 0.249968
0.057480 0.026425 0.250043
0.060707 0.027337 0.258778
0.062036 0.027376 0.259245
0.063409 0.027431 0.259873
0.064519 0.027373 0.259423
0.065900 0.027430 0.260063
0.067372 0.027522 0.261032
0.068735 0.027567 0.261556
0.070015 0.027577 0.261753
0.071363 0.027614 0.262199
0.072817 0.027689 0.263009
0.075780 0.028326 0.269156
0.077136 0.028351 0.269488
0.078374 0.028333 0.269404
0.079742 0.028361 0.269764
0.081000 0.028350 0.269745
0.082264 0.028341 0.269748
0.083572 0.028347 0.269892
0.084882 0.028354 0.270039
0.086253 0.028381 0.270375
0.087483 0.028361 0.270260
0.088775 0.028361 0.270339
0.089733 0.028256 0.269408
0.090652 0.028143 0.268390
0.088154 0.026986 0.257418
0.089072 0.026892 0.256578
0.090081 0.026828 0.256021
0.091043 0.026752 0.255341
0.091996 0.026675 0.254652
0.092801 0.026558 0.253576
0.093598 0.026441 0.252498
0.094457 0.026345 0.251612
0.095292 0.026244 0.250678
0.096230 0.026175 0.250032
0.097071 0.026080 0.249147
0.097003 0.025747 0.245974
0.097462 0.025560 0.244193
0.098203 0.025450 0.243145
0.098556 0.025243 0.241168
0.098986 0.025061 0.239415
0.099620 0.024934 0.238187
0.100385 0.024842 0.237287
0.101104 0.024740 0.236294
0.101832 0.024644 0.235337
0.102514 0.024538 0.234287
0.103308 0.024461 0.233509
0.104214 0.024412 0.232987
0.105007 0.024338 0.232221
0.105999 0.024311 0.231897
0.106872 0.024257 0.231313
0.107706 0.024196 0.230649
0.108566 0.024141 0.230043
0.109284 0.024057 0.229143
0.109931 0.023959 0.228104
0.110673 0.023883 0.227269
0.111355 0.023795 0.226319
0.112086 0.023720 0.225475
0.112705 0.023623 0.224415
0.113413 0.023546 0.223537
0.114192 0.023485 0.222803
0.115046 0.023440 0.222215
0.115855 0.023387 0.221539
-1.634748 0.352658 3.232538
-1.588997 0.346017 3.173353
-1.600295 0.351792 3.227900
-1.579162 0.350480 3.217319
-1.578134 0.353647 3.247755
-1.573312 0.356019 3.270784
-1.558779 0.356217 3.273752
-1.544768 0.356541 3.277759
-1.537432 0.358427 3.296031
-1.529619 0.360240 3.313532
-1.520789 0.361847 3.329056
-0.662848 0.159354 1.466370
-0.667405 0.162137 1.492216
-0.664863 0.163235 1.502528
-0.661596 0.164177 1.511364
-0.658495 0.165181 1.520733
-0.654471 0.165973 1.528110
-0.647844 0.166116 1.529471
-0.639910 0.165922 1.527701
-0.632734 0.165923 1.527688
-0.624413 0.165620 1.524844
-0.615789 0.165229 1.521154
-0.608138 0.165093 1.519780
-0.600545 0.164970 1.518491
-0.592427 0.164698 1.515801
-0.584048 0.164346 1.512348
-0.575924 0.164057 1.509457
-0.567911 0.163794 1.506765
-0.559149 0.163305 1.501977
-0.548540 0.162257 1.492027
-0.538820 0.161449 1.484255
-0.528783 0.160523 1.475384
-0.517561 0.159208 1.462920
-0.505722 0.157665 1.448347
-0.493885 0.156080 1.433384
-0.488226 0.156432 1.436178
-0.479788 0.155890 1.430755
-0.459616 0.151465 1.389697
-0.452586 0.151307 1.387774
-0.449721 0.152556 1.398750
-0.430920 0.148357 1.359756
-0.418541 0.146274 1.340177
-0.305942 0.112005 1.025012
-0.301621 0.112201 1.026388
-0.296529 0.112112 1.025153
-0.292253 0.112334 1.026749
-0.287866 0.112520 1.028011
-0.283061 0.112546 1.027805
-0.278295 0.112588 1.027744
-0.273235 0.112512 1.026590
-0.268286 0.112479 1.025832
-0.262657 0.112154 1.022411
-0.257358 0.111961 1.020189
-0.251064 0.111319 1.013876
-0.244539 0.110548 1.006389
-0.236850 0.109209 0.993743
-0.229640 0.108042 0.982661
-0.223826 0.107496 0.977244
-0.219491 0.107652 0.978210
-0.031107 0.027541 0.247986
-0.029867 0.027497 0.247507
-0.028549 0.027376 0.246324
-0.027411 0.027423 0.246665
-0.026242 0.027443 0.246761
-0.025002 0.027387 0.246178
-0.023005 0.026455 0.237729
-0.021777 0.026356 0.236766
-0.020544 0.026240 0.235655
-0.019453 0.026301 0.236138
-0.018130 0.026038 0.233712
-0.016704 0.025583 0.229568
-0.015525 0.025467 0.228469
-0.014333 0.025310 0.227011
-0.013180 0.025204 0.226009
-0.011876 0.024762 0.222004
-0.010764 0.024673 0.221159
-0.009638 0.024528 0.219822
-0.008517 0.024364 0.218319
-0.005300 0.024141 0.216227
-0.004300 0.024404 0.218558
-0.003259 0.024536 0.219724
-0.002198 0.024558 0.219898
-0.000070 0.025166 0.225319
0.001021 0.025157 0.225231
0.002122 0.025280 0.226323
0.003231 0.025380 0.227220
0.004331 0.025378 0.227197
0.005450 0.025463 0.227970
0.006562 0.025494 0.228249
0.007713 0.025645 0.229615
0.008870 0.025772 0.230770
0.010063 0.025969 0.232544
0.011167 0.025916 0.232096
0.012314 0.025964 0.232544
0.013479 0.026039 0.233247
0.014645 0.026103 0.233852
0.015825 0.026182 0.234590
0.016967 0.026190 0.234703
0.018153 0.026262 0.235384
0.019334 0.026319 0.235936
0.020595 0.026472 0.237354
0.021774 0.026508 0.237729
0.022935 0.026520 0.237890
0.024146 0.026586 0.238536
0.025368 0.026658 0.239240
0.026605 0.026739 0.240021
0.027959 0.026924 0.241750
0.029179 0.026972 0.242239
0.030367 0.026987 0.242447
0.031610 0.027049 0.243069
0.032866 0.027116 0.243743
0.034092 0.027154 0.244167
0.035231 0.027123 0.243965
0.036483 0.027179 0.244540
0.037661 0.027177 0.244610
0.038805 0.027152 0.244460
0.039984 0.027151 0.244544
0.041963 0.027679 0.249383
0.043240 0.027727 0.249903
0.044359 0.027673 0.249510
0.045495 0.027633 0.249240
0.046730 0.027654 0.249517
0.055158 0.030304 0.273736
0.053348 0.028626 0.258678
0.054201 0.028421 0.256924
0.055417 0.028411 0.256936
0.056317 0.028243 0.255515
0.057501 0.028221 0.255418
0.058782 0.028248 0.255756
0.061287 0.028849 0.261298
0.062317 0.028746 0.260464
0.063568 0.028746 0.260569
0.064895 0.028780 0.260979
0.066169 0.028790 0.261165
0.067648 0.028887 0.262145
0.068713 0.028807 0.261514
0.069987 0.028816 0.261691
0.071358 0.028863 0.262218
0.073426 0.029186 0.265246
0.075647 0.029558 0.268718
0.077097 0.029621 0.269386
0.078303 0.029590 0.269193
0.079712 0.029635 0.269693
0.081032 0.029646 0.269885
0.082238 0.029616 0.269694
0.083507 0.029609 0.269713
0.084797 0.029610 0.269798
0.086073 0.029605 0.269836
0.087182 0.029544 0.269355
0.088309 0.029491 0.268942
0.089302 0.029395 0.268135
0.090190 0.029268 0.267040
0.087955 0.028145 0.256855
0.089019 0.028094 0.256444
0.089913 0.027992 0.255558
0.090937 0.027932 0.255058
0.091913 0.027859 0.254437
0.092734 0.027742 0.253404
0.093648 0.027655 0.252643
0.094474 0.027544 0.251666
0.095283 0.027432 0.250661
0.096151 0.027339 0.249831
0.096898 0.027214 0.248708
0.097747 0.027120 0.247864
0.097522 0.026735 0.244343
0.097858 0.026510 0.242290
0.098050 0.026252 0.239928
0.098642 0.026106 0.238579
0.099449 0.026019 0.237772
0.100251 0.025933 0.236965
0.100788 0.025781 0.235548
0.101573 0.025695 0.234728
0.102380 0.025617 0.233971
0.103151 0.025531 0.233142
0.104088 0.025488 0.232692
0.105016 0.025443 0.232226
0.105821 0.025370 0.231491
0.106707 0.025318 0.230938
0.107574 0.025262 0.230347
0.108411 0.025200 0.229694
0.109145 0.025116 0.228828
0.109801 0.025015 0.227809
0.110539 0.024936 0.226969
0.111034 0.024803 0.225639
0.111660 0.024702 0.224590
0.112262 0.024597 0.223502
0.113038 0.024532 0.222767
0.114036 0.024516 0.222464
0.114682 0.024426 0.221477
0.115432 0.024359 0.220693
-1.620020 0.371584 3.267335
-1.606995 0.372136 3.273699
-1.603645 0.374960 3.299952
-1.576859 0.372307 3.277877
-1.579362 0.376584 3.316721
-1.558961 0.375432 3.307637
-1.533920 0.373127 3.288291
-1.533505 0.376827 3.321758
-1.520200 0.377403 3.327597
-1.506943 0.378004 3.333553
-0.657909 0.166765 1.470928
-0.658952 0.168804 1.489123
-0.658858 0.170592 1.505071
-0.657422 0.172068 1.518226
-0.653721 0.172977 1.526341
-0.649088 0.173656 1.532398
-0.643414 0.174070 1.536067
-0.636423 0.174132 1.536603
-0.627919 0.173777 1.533424
-0.619657 0.173482 1.530737
-0.611501 0.173209 1.528222
-0.603412 0.172950 1.525786
-0.595239 0.172660 1.523052
-0.587184 0.172397 1.520531
-0.578167 0.171842 1.515408
-0.569410 0.171352 1.510824
-0.560033 0.170660 1.504442
-0.549710 0.169658 1.495306
-0.539184 0.168567 1.485363
-0.528230 0.167312 1.473955
-0.516987 0.165931 1.461417
-0.502754 0.163540 1.439975
-0.496178 0.163608 1.440173
-0.490218 0.163884 1.442181
-0.459355 0.157947 1.389061
-0.447773 0.156192 1.373177
-0.449460 0.159082 1.398107
-0.305092 0.116540 1.022314
-0.301807 0.117141 1.027182
-0.296268 0.116873 1.024412
-0.291854 0.117047 1.025515
-0.287465 0.117238 1.026754
-0.282676 0.117268 1.026585
-0.277949 0.117327 1.026654
-0.272917 0.117256 1.025586
-0.267797 0.117145 1.024158
-0.262253 0.116840 1.021039
-0.256880 0.116601 1.018499
-0.250917 0.116081 1.013493
-0.243843 0.115016 1.003736
-0.236150 0.113611 0.991022
-0.230858 0.113327 0.988091
-0.224177 0.112335 0.978999
-0.215698 0.110381 0.961526
-0.030988 0.028626 0.247119
-0.029771 0.028598 0.246792
-0.028469 0.028483 0.245714
-0.027260 0.028456 0.245398
-0.026031 0.028404 0.244867
-0.024446 0.027940 0.240790
-0.022925 0.027508 0.236989
-0.021616 0.027297 0.235099
-0.020339 0.027105 0.233385
-0.018963 0.026753 0.230286
-0.017793 0.026664 0.229461
-0.016661 0.026625 0.229061
-0.015564 0.026640 0.229136
-0.014007 0.025809 0.221940
-0.012899 0.025737 0.221276
-0.011876 0.025839 0.222102
-0.010783 0.025791 0.221653
-0.009591 0.025469 0.218843
-0.008517 0.025424 0.218419
-0.005264 0.025020 0.214861
-0.004314 0.025551 0.219394
-0.003251 0.025540 0.219279
0.001024 0.026285 0.225626
0.002113 0.026248 0.225299
0.003220 0.026378 0.226420
0.004325 0.026435 0.226906
0.005429 0.026461 0.227131
0.006544 0.026521 0.227655
0.007697 0.026695 0.229158
0.008857 0.026848 0.230486
0.010028 0.026997 0.231782
0.011161 0.027022 0.232018
0.012306 0.027069 0.232451
0.013460 0.027126 0.232964
0.014625 0.027196 0.233594
0.015784 0.027244 0.234036
0.016941 0.027282 0.234403
0.018166 0.027419 0.235620
0.019343 0.027470 0.236103
0.020636 0.027673 0.237890
0.021799 0.027688 0.238068
0.023037 0.027793 0.239017
0.024238 0.027844 0.239510
0.025427 0.027878 0.239860
0.026662 0.027957 0.240599
0.027886 0.028017 0.241180
0.029140 0.028103 0.241980
0.030344 0.028135 0.242324
0.031584 0.028196 0.242926
0.032826 0.028255 0.243506
0.034052 0.028298 0.243945
0.035240 0.028306 0.244090
0.036410 0.028299 0.244110
0.037653 0.028348 0.244615
0.038825 0.028343 0.244648
0.039959 0.028310 0.244452
0.041460 0.028532 0.246452
0.043091 0.028828 0.249098
0.044298 0.028833 0.249229
0.045362 0.028747 0.248570
0.046635 0.028793 0.249063
0.047936 0.028855 0.249690
0.053871 0.031634 0.273842
0.055119 0.031594 0.273598
0.053719 0.030074 0.260531
0.054485 0.029808 0.258322
0.055217 0.029535 0.256058
0.056274 0.029444 0.255369
0.057717 0.029556 0.256431
0.060129 0.030147 0.261665
0.061277 0.030094 0.261305
0.061723 0.029706 0.258028
0.063398 0.029912 0.259917
0.064677 0.029927 0.260144
0.066175 0.030041 0.261232
0.067538 0.030090 0.261761
0.068976 0.030171 0.262555
0.070045 0.030090 0.261946
0.071349 0.030111 0.262223
0.073169 0.030345 0.264356
0.075555 0.030802 0.268430
0.076938 0.030842 0.268868
0.078199 0.030832 0.268872
0.079441 0.030815 0.268811
0.080711 0.030809 0.268846
0.082051 0.030829 0.269110
0.083290 0.030812 0.269040
0.084534 0.030797 0.268990
0.085736 0.030767 0.268804
0.086923 0.030733 0.268579
0.087920 0.030634 0.267779
0.088816 0.030503 0.266700
0.087756 0.029713 0.259854
0.088015 0.029386 0.257048
0.089001 0.029306 0.256407
0.089999 0.029233 0.255819
0.090847 0.029114 0.254820
0.091878 0.029056 0.254351
0.092687 0.028930 0.253286
0.093598 0.028838 0.252519
0.094457 0.028733 0.251627
0.095185 0.028592 0.250409
0.096136 0.028520 0.249797
0.096993 0.028422 0.248955
0.097991 0.028367 0.248484
0.097263 0.027820 0.243695
0.097870 0.027663 0.242320
0.098236 0.027443 0.240381
0.098649 0.027240 0.238592
0.099379 0.027128 0.237599
0.100112 0.027020 0.236629
0.100546 0.026835 0.234975
0.101196 0.026710 0.233848
0.102073 0.026648 0.233259
0.102970 0.026592 0.232719
0.103780 0.026515 0.231990
0.104620 0.026447 0.231334
0.105563 0.026406 0.230908
0.106308 0.026317 0.230055
0.107145 0.026252 0.229407
0.108016 0.026197 0.228834
0.108697 0.026098 0.227865
0.109376 0.026000 0.226903
0.109974 0.025884 0.225782
0.110609 0.025780 0.224748
0.111414 0.025716 0.224066
0.112166 0.025642 0.223280
0.112890 0.025563 0.222441
0.113825 0.025533 0.222018
0.114597 0.025466 0.221274
0.115397 0.025408 0.220588
-1.614033 0.396935 3.354849
-1.600665 0.397539 3.361177
-1.587273 0.398149 3.367450
-0.676786 0.178685 1.513069
-0.670746 0.178972 1.515722
-0.668260 0.180223 1.526505
-0.667503 0.181972 1.541472
-0.662731 0.182654 1.547355
-0.656436 0.182926 1.549733
-0.648959 0.182871 1.549302
-0.640058 0.182410 1.545388
-0.631627 0.182073 1.542496
-0.622727 0.181591 1.538347
-0.614053 0.181165 1.534634
-0.605990 0.180912 1.532351
-0.597057 0.180389 1.527758
-0.588855 0.180077 1.524923
-0.578951 0.179231 1.517534
-0.569874 0.178623 1.512137
-0.559821 0.177689 1.503961
-0.548643 0.176370 1.492502
-0.536725 0.174776 1.478694
-0.525219 0.173276 1.465667
-0.516457 0.172654 1.460044
-0.509889 0.172758 1.460541
-0.503856 0.173049 1.462599
-0.304387 0.121105 1.020108
-0.300487 0.121479 1.022851
-0.295802 0.121541 1.022968
-0.291328 0.121695 1.023842
-0.286977 0.121905 1.025191
-0.282212 0.121944 1.025085
-0.277506 0.122011 1.025209
-0.272706 0.122037 1.024989
-0.267583 0.121918 1.023540
-0.262121 0.121637 1.020730
-0.256629 0.121331 1.017713
-0.250661 0.120784 1.012674
-0.243988 0.119870 1.004553
-0.236830 0.118675 0.994096
-0.231058 0.118141 0.989175
-0.224975 0.117423 0.982712
-0.220615 0.117592 0.983680
-0.030930 0.029761 0.246740
-0.029662 0.029679 0.245976
-0.028409 0.029606 0.245285
-0.027219 0.029595 0.245110
-0.025966 0.029512 0.244345
-0.024331 0.028966 0.239742
-0.023042 0.028798 0.238282
-0.021801 0.028677 0.237207
-0.020524 0.028490 0.235598
-0.019401 0.028509 0.235687
-0.018167 0.028358 0.234381
-0.016657 0.027727 0.229102
-0.015535 0.027697 0.228802
-0.014420 0.027676 0.228577
-0.012990 0.026998 0.222930
-0.011878 0.026920 0.222237
-0.010789 0.026880 0.221868
-0.009653 0.026705 0.220380
-0.005276 0.026127 0.215491
-0.004234 0.026130 0.215494
0.001022 0.027304 0.225103
0.002117 0.027373 0.225665
0.003237 0.027612 0.227632
0.004337 0.027600 0.227530
0.005450 0.027660 0.228034
0.006549 0.027637 0.227851
0.007719 0.027880 0.229863
0.008881 0.028034 0.231149
0.010024 0.028104 0.231740
0.011147 0.028106 0.231781
0.012293 0.028162 0.232260
0.013438 0.028204 0.232638
0.014602 0.028278 0.233279
0.015783 0.028372 0.234084
0.016967 0.028458 0.234830
0.018135 0.028508 0.235284
0.019321 0.028578 0.235899
0.020559 0.028714 0.237069
0.021797 0.028834 0.238110
0.022992 0.028890 0.238616
0.024215 0.028972 0.239346
0.025388 0.028990 0.239557
0.026593 0.029041 0.240038
0.027835 0.029127 0.240806
0.029090 0.029219 0.241631
0.030306 0.029266 0.242083
0.031543 0.029329 0.242677
0.032926 0.029519 0.244317
0.034124 0.029535 0.244523
0.035223 0.029467 0.244036
0.036435 0.029494 0.244341
0.037636 0.029512 0.244566
0.038836 0.029528 0.244778
0.040093 0.029585 0.245332
0.041291 0.029596 0.245505
0.042836 0.029848 0.247683
0.044259 0.030004 0.249063
0.045409 0.029971 0.248881
0.046535 0.029925 0.248585
0.047900 0.030031 0.249558
0.052574 0.032155 0.267307
0.054307 0.032422 0.269628
0.053918 0.031439 0.261551
0.054527 0.031070 0.258576
0.055562 0.030954 0.257711
0.056105 0.030575 0.254653
0.057537 0.030687 0.255679
0.059085 0.030855 0.257173
0.062098 0.031764 0.264855
0.062257 0.031207 0.260306
0.063594 0.031251 0.260768
0.064694 0.031178 0.260258
0.066121 0.031263 0.261063
0.067360 0.031258 0.261115
0.068656 0.031278 0.261378
0.069850 0.031252 0.261259
0.071238 0.031313 0.261856
0.072618 0.031367 0.262404
0.075398 0.032015 0.267910
0.076969 0.032135 0.269010
0.078338 0.032169 0.269383
0.079554 0.032141 0.269229
0.080811 0.032128 0.269211
0.082039 0.032106 0.269104
0.083258 0.032080 0.268967
0.084510 0.032068 0.268940
0.085715 0.032038 0.268766
0.086800 0.031965 0.268225
0.087742 0.031842 0.267262
0.088756 0.031749 0.266542
0.086655 0.030559 0.256614
0.087679 0.030490 0.256085
0.088603 0.030388 0.255280
0.089756 0.030366 0.255143
0.090689 0.030271 0.254392
0.091579 0.030165 0.253536
0.092327 0.030015 0.252312
0.092967 0.029834 0.250826
0.093898 0.029750 0.250145
0.094613 0.029601 0.248912
0.095590 0.029536 0.248384
0.096481 0.029447 0.247642
0.097044 0.029261 0.246085
0.097294 0.028985 0.243774
0.097737 0.028773 0.241988
0.097817 0.028461 0.239352
0.098675 0.028380 0.238652
0.099413 0.028266 0.237674
0.099934 0.028093 0.236200
0.100645 0.027978 0.235196
0.101509 0.027906 0.234560
0.102074 0.027756 0.233249
0.102702 0.027625 0.232100
0.103557 0.027557 0.231476
0.104364 0.027479 0.230752
0.105209 0.027411 0.230115
0.105970 0.027324 0.229304
0.106833 0.027264 0.228718
0.107588 0.027178 0.227905
0.108341 0.027094 0.227094
0.109125 0.027018 0.226354
0.109587 0.026865 0.224958
0.110297 0.026776 0.224083
0.111110 0.026713 0.223422
0.111926 0.026651 0.222767
0.112616 0.026561 0.221864
0.113514 0.026521 0.221373
0.114350 0.026468 0.220758
0.115133 0.026404 0.220041
-0.683244 0.191622 1.560683
-0.676999 0.191931 1.563364
-0.670164 0.192078 1.564682
-0.659967 0.191253 1.558051
-0.655220 0.192008 1.564244
-0.645799 0.191395 1.559254
-0.636374 0.190766 1.554103
-0.628547 0.190607 1.552749
-0.617482 0.189451 1.543240
-0.608562 0.188933 1.538898
-0.599477 0.188352 1.534006
-0.590290 0.187724 1.528705
-0.581776 0.187296 1.525012
-0.571066 0.186143 1.515381
-0.560433 0.184986 1.505697
-0.549611 0.183736 1.495237
-0.542962 0.183867 1.495988
-0.529483 0.181657 1.477682
-0.522484 0.181642 1.477207
-0.516394 0.181947 1.479310
-0.304539 0.126003 1.020776
-0.300199 0.126207 1.022035
-0.295133 0.126108 1.020829
-0.290518 0.126201 1.021173
-0.286326 0.126485 1.023049
-0.281684 0.126575 1.023358
-0.277131 0.126710 1.024016
-0.272238 0.126692 1.023432
-0.267230 0.126618 1.022397
-0.261868 0.126371 1.019957
-0.256216 0.125972 1.016295
-0.250267 0.125409 1.011303
-0.243696 0.124506 1.003577
-0.237685 0.123859 0.997916
-0.231056 0.122857 0.989399
-0.224594 0.121904 0.981285
-0.030985 0.031004 0.247264
-0.029732 0.030937 0.246646
-0.028497 0.030883 0.246130
-0.027239 0.030800 0.245386
-0.025961 0.030685 0.244388
-0.024299 0.030084 0.239525
-0.022982 0.029871 0.237757
-0.021777 0.029789 0.237033
-0.020621 0.029769 0.236806
-0.019396 0.029641 0.235728
-0.017588 0.028552 0.227002
-0.016552 0.028652 0.227746
-0.015436 0.028622 0.227446
-0.014271 0.028486 0.226321
-0.013112 0.028341 0.225120
-0.011906 0.028061 0.222848
-0.010728 0.027798 0.220716
-0.009647 0.027754 0.220331
-0.005284 0.027215 0.215928
-0.004245 0.027246 0.216155
-0.003224 0.027452 0.217768
-0.001149 0.028226 0.223871
-0.000066 0.028399 0.225238
0.001023 0.028398 0.225221
0.002111 0.028376 0.225040
0.003218 0.028532 0.226276
0.004337 0.028695 0.227566
0.005449 0.028750 0.228011
0.006560 0.028783 0.228279
0.007720 0.028992 0.229940
0.008849 0.029044 0.230374
0.010003 0.029159 0.231301
0.011150 0.029231 0.231889
0.012291 0.029276 0.232269
0.013437 0.029326 0.232693
0.014578 0.029356 0.232961
0.015726 0.029396 0.233308
0.016872 0.029425 0.233578
0.018095 0.029577 0.234819
0.019287 0.029665 0.235558
0.020479 0.029741 0.236207
0.021742 0.029907 0.237570
0.022931 0.029960 0.238039
0.024103 0.029987 0.238307
0.025350 0.030100 0.239266
0.026575 0.030179 0.239944
0.027807 0.030257 0.240633
0.029073 0.030365 0.241553
0.030255 0.030381 0.241746
0.031458 0.030416 0.242088
0.032688 0.030473 0.242613
0.033979 0.030581 0.243547
0.035166 0.030591 0.243702
0.036319 0.030572 0.243626
0.037596 0.030656 0.244367
0.038782 0.030662 0.244497
0.040033 0.030718 0.245023
0.041377 0.030840 0.246080
0.042978 0.031141 0.248568
0.044323 0.031245 0.249487
0.045397 0.031158 0.248878
0.046561 0.031135 0.248784
0.047821 0.031177 0.249205
0.052533 0.033411 0.267161
0.053186 0.033019 0.264123
0.053964 0.032721 0.261834
0.054759 0.032446 0.259736
0.054923 0.031818 0.254800
0.055855 0.031653 0.253572
0.057121 0.031680 0.253882
0.058441 0.031735 0.254419
0.061223 0.032566 0.261175
0.062319 0.032484 0.260615
0.063483 0.032440 0.260358
0.064778 0.032464 0.260643
0.065997 0.032449 0.260621
0.067468 0.032556 0.261576
0.068646 0.032521 0.261386
0.069825 0.032487 0.261205
0.071176 0.032533 0.261667
0.072936 0.032761 0.263593
0.075034 0.033131 0.266656
0.076622 0.033267 0.267835
0.078281 0.033428 0.269225
0.079523 0.033410 0.269158
0.080785 0.033400 0.269160
0.082002 0.033372 0.269015
0.083259 0.033360 0.268999
0.084505 0.033345 0.268954
0.085725 0.033320 0.268826
0.086844 0.033257 0.268386
0.087819 0.033142 0.267521
0.088170 0.032797 0.264804
0.089510 0.032826 0.265090
0.087772 0.031740 0.256375
0.088897 0.031705 0.256143
0.089848 0.031610 0.255420
0.090783 0.031511 0.254668
0.091717 0.031415 0.253930
0.092374 0.031228 0.252452
0.093372 0.031160 0.251928
0.094249 0.031053 0.251087
0.094987 0.030904 0.249902
0.095790 0.030779 0.248908
0.096570 0.030650 0.247875
0.097343 0.030522 0.246845
0.097885 0.030325 0.245253
0.098327 0.030102 0.243447
0.098457 0.029790 0.240913
0.098535 0.029470 0.238307
0.099113 0.029305 0.236949
0.100107 0.029265 0.236600
0.100712 0.029113 0.235342
0.101335 0.028970 0.234147
0.102166 0.028889 0.233446
0.102863 0.028773 0.232450
0.103474 0.028634 0.231273
0.104115 0.028507 0.230183
0.105042 0.028460 0.229731
0.105695 0.028341 0.228687
0.106330 0.028219 0.227617
0.107017 0.028113 0.226669
0.107861 0.028050 0.226061
0.108555 0.027950 0.225144
0.109152 0.027827 0.224035
0.109849 0.027731 0.223141
0.110629 0.027658 0.222422
0.111409 0.027587 0.221703
0.112223 0.027525 0.221054
0.112938 0.027440 0.220211
0.113761 0.027383 0.219580
0.114637 0.027339 0.219050
-0.942066 0.236306 1.843514
-0.925610 0.234345 1.829319
-0.911000 0.232818 1.818431
-0.903415 0.233075 1.821394
-0.911595 0.237443 1.856434
-0.687539 0.202403 1.587660
-0.681175 0.202730 1.590359
-0.665212 0.200176 1.570413
-0.659093 0.200559 1.573481
-0.647060 0.199132 1.562299
-0.638194 0.198657 1.558561
-0.628955 0.198054 1.553780
-0.621667 0.198058 1.553730
-0.612528 0.197466 1.548971
-0.602695 0.196633 1.542292
-0.592718 0.195733 1.535055
-0.583074 0.194922 1.528489
-0.573299 0.194046 1.521389
-0.560620 0.192152 1.506290
-0.547362 0.190010 1.489218
-0.537116 0.188870 1.479989
-0.528928 0.188434 1.476252
-0.522852 0.188749 1.478375
-0.299243 0.130635 1.018949
-0.293936 0.130418 1.016862
-0.290299 0.130948 1.020585
-0.286404 0.131376 1.023512
-0.281252 0.131234 1.021983
-0.277082 0.131552 1.024036
-0.272512 0.131688 1.024669
-0.267386 0.131556 1.023205
-0.261221 0.130899 1.017656
-0.255067 0.130222 1.011956
-0.249307 0.129724 1.007649
-0.242013 0.128394 0.996876
-0.237914 0.128739 0.999115
-0.231192 0.127649 0.990223
-0.226810 0.127834 0.991212
-0.030893 0.032100 0.246626
-0.029669 0.032057 0.246212
-0.028422 0.031986 0.245578
-0.027110 0.031832 0.244312
-0.025731 0.031582 0.242319
-0.024272 0.031205 0.239347
-0.023000 0.031043 0.238040
-0.021713 0.030843 0.236430
-0.020476 0.030695 0.235235
-0.019228 0.030514 0.233783
-0.018001 0.030345 0.232424
-0.016608 0.029856 0.228622
-0.015461 0.029769 0.227906
-0.014086 0.029198 0.223485
-0.012942 0.029052 0.222317
-0.011820 0.028931 0.221347
-0.010764 0.028965 0.221570
-0.009620 0.028743 0.219829
-0.005337 0.028548 0.218220
-0.004249 0.028325 0.216490
-0.003254 0.028787 0.219999
-0.002199 0.028893 0.220791
-0.001141 0.029144 0.222698
0.001026 0.029513 0.225499
0.002122 0.029598 0.226138
0.003225 0.029677 0.226741
0.004334 0.029766 0.227420
0.005433 0.029761 0.227385
0.006552 0.029846 0.228045
0.007687 0.029970 0.228999
0.008855 0.030175 0.230584
0.010002 0.030272 0.231340
0.011142 0.030329 0.231791
0.012276 0.030359 0.232050
0.013424 0.030418 0.232523
0.014577 0.030477 0.233001
0.015718 0.030505 0.233249
0.016869 0.030546 0.233596
0.018030 0.030600 0.234046
0.019211 0.030678 0.234684
0.020465 0.030858 0.236107
0.021714 0.031013 0.237339
0.022919 0.031092 0.237991
0.024119 0.031156 0.238535
0.025290 0.031179 0.238763
0.026510 0.031257 0.239419
0.027730 0.031329 0.240030
0.028990 0.031439 0.240935
0.030233 0.031522 0.241635
0.031424 0.031548 0.241896
0.032585 0.031541 0.241917
0.033838 0.031621 0.242599
0.035016 0.031629 0.242731
0.036193 0.031634 0.242848
0.037397 0.031662 0.243140
0.038567 0.031661 0.243206
0.040005 0.031873 0.244915
0.041300 0.031962 0.245684
0.042958 0.032319 0.248513
0.044241 0.032383 0.249084
0.045377 0.032338 0.248828
0.046545 0.032318 0.248761
0.047798 0.032356 0.249143
0.049181 0.032478 0.250172
0.050643 0.032646 0.251553
0.053171 0.033476 0.258043
0.054296 0.033405 0.257593
0.054486 0.032776 0.252830
0.055745 0.032802 0.253129
0.056989 0.032819 0.253349
0.058134 0.032779 0.253135
0.060922 0.033648 0.259942
0.062277 0.033707 0.260489
0.063249 0.033560 0.259450
0.064419 0.033522 0.259247
0.065779 0.033582 0.259807
0.067046 0.033593 0.259984
0.068268 0.033582 0.259989
0.069731 0.033688 0.260898
0.071617 0.033990 0.263329
0.073266 0.034172 0.264825
0.074932 0.034355 0.266331
0.076775 0.034612 0.268410
0.078071 0.034617 0.268539
0.079364 0.034622 0.268655
0.080691 0.034640 0.268880
0.081926 0.034619 0.268795
0.083188 0.034610 0.268802
0.084486 0.034616 0.268922
0.085720 0.034596 0.268838
0.086875 0.034545 0.268508
0.087841 0.034422 0.267614
0.087595 0.033834 0.263101
0.087160 0.033190 0.258151
0.087862 0.032991 0.256658
0.088829 0.032896 0.255965
0.089850 0.032823 0.255441
0.090688 0.032686 0.254416
0.091668 0.032603 0.253809
0.092591 0.032503 0.253056
0.093515 0.032405 0.252321
0.094470 0.032320 0.251686
0.095369 0.032218 0.250912
0.096138 0.032076 0.249815
0.097060 0.031987 0.249134
0.097937 0.031886 0.248352
0.098292 0.031619 0.246271
0.098297 0.031248 0.243371
0.098850 0.031057 0.241872
0.099595 0.030930 0.240866
0.099702 0.030610 0.238351
0.100447 0.030491 0.237394
0.100902 0.030288 0.235775
0.101305 0.030073 0.234066
0.101663 0.029850 0.232282
0.102558 0.029788 0.231744
0.103308 0.029685 0.230886
0.103988 0.029565 0.229882
0.104710 0.029459 0.228983
0.105478 0.029368 0.228194
0.106203 0.029267 0.227321
0.106493 0.029049 0.225533
0.107350 0.028989 0.224962
0.108149 0.028914 0.224271
0.108656 0.028763 0.222985
0.109304 0.028653 0.222001
0.110030 0.028564 0.221180
0.110775 0.028483 0.220404
0.111652 0.028436 0.219889
0.112426 0.028364 0.219172
0.113367 0.028336 0.218777
0.114286 0.028302 0.218334
-0.958317 0.244749 1.838481
-0.943610 0.243200 1.828126
-0.941729 0.244959 1.842557
-0.936866 0.245968 1.851284
-0.927002 0.245670 1.850106
-0.922982 0.246930 1.860595
-0.911239 0.246129 1.855477
-0.902608 0.246161 1.856570
-0.893898 0.246172 1.857440
-0.879467 0.244592 1.846236
-0.870809 0.244602 1.846967
-0.867821 0.246221 1.859793
-0.869385 0.249177 1.882674
-0.841697 0.243725 1.841954
-0.836981 0.244880 1.851109
-0.841327 0.248738 1.880653
-0.792797 0.244676 1.850922
-0.662271 0.208978 1.581052
-0.655907 0.209319 1.583658
-0.647348 0.208958 1.580925
-0.638451 0.208478 1.577258
-0.624416 0.206290 1.560631
-0.615895 0.205894 1.557526
-0.606717 0.205265 1.552636
-0.596647 0.204316 1.545293
-0.586323 0.203256 1.537078
-0.575757 0.202084 1.527996
-0.563755 0.200371 1.514805
-0.557283 0.200606 1.516311
-0.551065 0.200940 1.518537
-0.299029 0.135369 1.018394
-0.294227 0.135374 1.018047
-0.290021 0.135660 1.019794
-0.285749 0.135923 1.021367
-0.280917 0.135924 1.020964
-0.276026 0.135896 1.020339
-0.271096 0.135848 1.019556
-0.265983 0.135705 1.018052
-0.260106 0.135159 1.013533
-0.254096 0.134523 1.008331
-0.247823 0.133720 1.001882
-0.244301 0.134400 1.006539
-0.238299 0.133715 1.000973
-0.233881 0.133909 1.001989
-0.031083 0.033492 0.248231
-0.029707 0.033286 0.246621
-0.028465 0.033220 0.246046
-0.027228 0.033154 0.245476
-0.025798 0.032836 0.243047
-0.024330 0.032437 0.240016
-0.022956 0.032131 0.237681
-0.021663 0.031911 0.235989
-0.020480 0.031839 0.235386
-0.019311 0.031781 0.234894
-0.018133 0.031699 0.234233
-0.016529 0.030814 0.227635
-0.015471 0.030892 0.228162
-0.014221 0.030570 0.225733
-0.013043 0.030362 0.224151
-0.011882 0.030160 0.222610
-0.010798 0.030132 0.222364
-0.009696 0.030044 0.221676
-0.008617 0.030013 0.221411
-0.004244 0.029348 0.216395
-0.003211 0.029464 0.217230
-0.002217 0.030231 0.222875
-0.001144 0.030337 0.223640
-0.000064 0.030571 0.225354
0.001024 0.030508 0.224875
0.002114 0.030551 0.225193
0.003214 0.030656 0.225959
0.004337 0.030873 0.227564
0.005449 0.030941 0.228069
0.006545 0.030911 0.227854
0.007667 0.030990 0.228447
0.008818 0.031155 0.229672
0.009969 0.031280 0.230615
0.011117 0.031373 0.231314
0.012248 0.031406 0.231583
0.013396 0.031474 0.232105
0.014554 0.031550 0.232699
0.015699 0.031592 0.233035
0.016859 0.031653 0.233521
0.017989 0.031656 0.233584
0.019154 0.031715 0.234057
0.020329 0.031785 0.234614
0.021684 0.032113 0.237080
0.022910 0.032226 0.237964
0.024097 0.032276 0.238387
0.025253 0.032282 0.238482
0.026460 0.032350 0.239043
0.027681 0.032428 0.239678
0.028899 0.032497 0.240246
0.030127 0.032571 0.240854
0.031384 0.032670 0.241656
0.032572 0.032692 0.241884
0.033802 0.032753 0.242409
0.034987 0.032768 0.242593
0.036197 0.032805 0.242939
0.037322 0.032765 0.242720
0.038517 0.032787 0.242956
0.039886 0.032951 0.244251
0.041454 0.033266 0.246663
0.042719 0.033326 0.247195
0.044188 0.033538 0.248853
0.045396 0.033546 0.248995
0.046431 0.033429 0.248214
0.047768 0.033530 0.249046
0.049394 0.033823 0.251318
0.050854 0.033992 0.252660
0.051838 0.033842 0.251634
0.053082 0.033865 0.251895
0.054467 0.033974 0.252798
0.055671 0.033968 0.252845
0.056999 0.034037 0.253448
0.058316 0.034096 0.253980
0.059802 0.034249 0.255215
0.061332 0.034421 0.256588
0.062753 0.034526 0.257464
0.064269 0.034679 0.258691
0.065484 0.034666 0.258687
0.067111 0.034868 0.260283
0.068400 0.034890 0.260537
0.069619 0.034876 0.260523
0.071189 0.035035 0.261798
0.072828 0.035222 0.263282
0.075208 0.035755 0.267353
0.076510 0.035766 0.267522
0.077975 0.035852 0.268246
0.079223 0.035836 0.268212
0.080505 0.035837 0.268295
0.081822 0.035853 0.268489
0.083076 0.035840 0.268471
0.084421 0.035868 0.268746
0.085677 0.035856 0.268731
0.086792 0.035787 0.268278
0.087591 0.035592 0.266875
0.087001 0.034846 0.261339
0.087326 0.034482 0.258663
0.087926 0.034235 0.256862
0.088860 0.034123 0.256071
0.089793 0.034014 0.255294
0.090677 0.033889 0.254398
0.091553 0.033766 0.253502
0.092473 0.033660 0.252743
0.093360 0.033546 0.251911
0.094203 0.033420 0.250981
0.095158 0.033335 0.250362
0.096046 0.033229 0.249579
0.097013 0.033153 0.249015
0.097831 0.033029 0.248082
0.098352 0.032808 0.246421
0.098517 0.032475 0.243910
0.098994 0.032251 0.242218
0.099872 0.032162 0.241528
0.100414 0.031968 0.240045
0.100886 0.031756 0.238421
0.101133 0.031479 0.236303
0.101130 0.031131 0.233648
0.101617 0.030939 0.232161
0.102384 0.030836 0.231333
0.102957 0.030678 0.230081
0.103750 0.030587 0.229336
0.104532 0.030496 0.228572
0.105247 0.030386 0.227670
0.105999 0.030290 0.226858
0.106631 0.030161 0.225798
0.107311 0.030049 0.224851
0.107963 0.029931 0.223853
0.108596 0.029810 0.222828
0.109135 0.029666 0.221623
0.109755 0.029546 0.220591
0.110502 0.029462 0.219820
0.111334 0.029403 0.219222
0.112162 0.029344 0.218614
0.113050 0.029301 0.218119
0.113915 0.029253 0.217576
-0.997798 0.259217 1.876821
-0.993563 0.260438 1.887173
-0.976319 0.258240 1.872663
-0.965879 0.257819 1.870935
-0.958213 0.258137 1.874492
-0.944021 0.256686 1.865122
-0.929685 0.255169 1.855182
-0.925136 0.256334 1.864671
-0.913903 0.255653 1.860654
-0.901332 0.254580 1.853717
-0.899378 0.256514 1.868611
-0.891010 0.256640 1.870269
-0.878266 0.255495 1.862602
-0.876144 0.257448 1.877462
-0.868994 0.257948 1.881673
-0.854737 0.256327 1.870353
-0.848611 0.257137 1.876706
-0.840928 0.257487 1.879654
-0.825627 0.255487 1.865391
-0.814229 0.254664 1.859673
-0.805168 0.254563 1.859169
-0.792396 0.253274 1.849937
-0.789435 0.255126 1.863611
-0.654371 0.218757 1.598081
-0.647916 0.219114 1.600659
-0.634856 0.217219 1.586753
-0.621395 0.215140 1.571476
-0.610587 0.213941 1.562590
-0.598049 0.212099 1.548983
-0.586748 0.210656 1.538264
-0.573930 0.208626 1.523228
-0.566384 0.208484 1.521961
-0.547472 0.204102 1.489716
-0.297474 0.141749 1.029470
-0.293069 0.141973 1.030702
-0.287670 0.141716 1.028430
-0.281181 0.140903 1.022125
-0.277150 0.141315 1.024703
-0.271637 0.140973 1.021804
-0.266277 0.140699 1.019402
-0.260897 0.140405 1.016841
-0.255706 0.140203 1.014953
-0.251264 0.140412 1.016033
-0.031212 0.034831 0.249361
-0.029801 0.034583 0.247495
-0.028451 0.034388 0.246018
-0.027295 0.034421 0.246173
-0.025964 0.034226 0.244705
-0.024473 0.033792 0.241524
-0.022949 0.033267 0.237702
-0.021655 0.033038 0.236003
-0.020491 0.032993 0.235615
-0.019343 0.032970 0.235384
-0.018158 0.032876 0.234659
-0.016669 0.032185 0.229667
-0.015434 0.031920 0.227724
-0.014223 0.031666 0.225864
-0.013195 0.031814 0.226872
-0.011974 0.031480 0.224445
-0.010814 0.031257 0.222813
-0.009675 0.031051 0.221306
-0.008599 0.031024 0.221083
-0.004249 0.030442 0.216827
-0.002204 0.031144 0.221788
-0.000062 0.031355 0.223265
0.001022 0.031515 0.224399
0.002113 0.031614 0.225098
0.003198 0.031586 0.224892
0.004327 0.031894 0.227088
0.005449 0.032033 0.228080
0.006553 0.032044 0.228166
0.007672 0.032111 0.228650
0.008808 0.032224 0.229468
0.009955 0.032344 0.230343
0.011094 0.032421 0.230911
0.012233 0.032482 0.231364
0.013378 0.032548 0.231856
0.014541 0.032643 0.232563
0.015683 0.032680 0.232860
0.016823 0.032709 0.233095
0.017983 0.032771 0.233573
0.019163 0.032859 0.234242
0.020333 0.032921 0.234724
0.021627 0.033167 0.236522
0.022845 0.033276 0.237352
0.024042 0.033348 0.237912
0.025218 0.033384 0.238220
0.026478 0.033524 0.239274
0.027686 0.033588 0.239790
0.028913 0.033670 0.240435
0.030136 0.033741 0.241004
0.031334 0.033778 0.241337
0.032504 0.033785 0.241454
0.033720 0.033837 0.241890
0.034936 0.033885 0.242310
0.036114 0.033896 0.242455
0.037262 0.033877 0.242397
0.038469 0.033912 0.242722
0.039701 0.033966 0.243187
0.041140 0.034189 0.244860
0.042926 0.034680 0.248461
0.044243 0.034776 0.249228
0.045406 0.034748 0.249115
0.046498 0.034669 0.248634
0.047887 0.034810 0.249731
0.049429 0.035053 0.251559
0.050854 0.035202 0.252719
0.051691 0.034947 0.250978
0.053096 0.035080 0.252019
0.054497 0.035203 0.252996
0.055886 0.035313 0.253879
0.057130 0.035330 0.254086
0.058573 0.035465 0.255152
0.059695 0.035406 0.254812
0.061328 0.035644 0.256622
0.062621 0.035681 0.256972
0.064136 0.035840 0.258208
0.065687 0.036012 0.259540
0.067069 0.036087 0.260169
0.068406 0.036136 0.260608
0.069658 0.036138 0.260713
0.071588 0.036486 0.263309
0.073374 0.036750 0.265301
0.075057 0.036954 0.266859
0.076167 0.036874 0.266364
0.077845 0.037067 0.267839
0.079211 0.037108 0.268210
0.080574 0.037145 0.268559
0.081861 0.037147 0.268649
0.083101 0.037128 0.268585
0.084305 0.037094 0.268404
0.085522 0.037066 0.268272
0.086692 0.037019 0.267996
0.087671 0.036893 0.267144
0.087058 0.036110 0.261531
0.086788 0.035490 0.257090
0.087509 0.035287 0.255664
0.088614 0.035241 0.255378
0.089589 0.035146 0.254732
0.090596 0.035066 0.254185
0.091537 0.034962 0.253469
0.092489 0.034866 0.252797
0.093477 0.034785 0.252236
0.094377 0.034674 0.251450
0.095247 0.034555 0.250600
0.096113 0.034437 0.249758
0.097036 0.034343 0.249077
0.097670 0.034149 0.247672
0.098039 0.033869 0.245634
0.098756 0.033714 0.244499
0.099509 0.033574 0.243471
0.100181 0.033411 0.242268
0.101026 0.033309 0.241497
0.101590 0.033117 0.240075
0.101926 0.032856 0.238143
0.101735 0.032433 0.235029
0.101620 0.032043 0.232152
0.102377 0.031933 0.231299
0.103064 0.031804 0.230301
0.103638 0.031643 0.229065
0.104339 0.031524 0.228125
0.105110 0.031428 0.227349
0.105825 0.031318 0.226457
0.106465 0.031188 0.225417
0.107095 0.031057 0.224367
0.107758 0.030939 0.223395
0.108200 0.030760 0.221980
0.108993 0.030683 0.221297
0.109760 0.030600 0.220561
0.110452 0.030499 0.219681
0.111244 0.030426 0.219000
0.112064 0.030363 0.218376
0.112910 0.030307 0.217801
0.113816 0.030269 0.217339
-1.004256 0.269880 1.888554
-0.993212 0.269313 1.886112
-0.980323 0.268230 1.879971
-0.974670 0.269126 1.887608
-0.960019 0.267530 1.877690
-0.949093 0.266953 1.874827
-0.934211 0.265242 1.863916
-0.921534 0.264130 1.857135
-0.911965 0.263896 1.856448
-0.903327 0.263930 1.857577
-0.895967 0.264342 1.861298
-0.888832 0.264829 1.865485
-0.878610 0.264397 1.863136
-0.873865 0.265621 1.872399
-0.870160 0.267189 1.884034
-0.861529 0.267261 1.885067
-0.852653 0.267259 1.885512
-0.846802 0.268214 1.892665
-0.835153 0.267334 1.886810
-0.822227 0.266022 1.877853
-0.813358 0.266008 1.878008
-0.803174 0.265559 1.875045
-0.789018 0.263772 1.862584
-0.776721 0.262574 1.854233
-0.769245 0.262997 1.857287
-0.647553 0.226532 1.599774
-0.640230 0.226601 1.600212
-0.626370 0.224330 1.584093
-0.611279 0.221559 1.564410
-0.599566 0.219959 1.552972
-0.585027 0.217270 1.533820
-0.572754 0.215367 1.520186
-0.568147 0.216335 1.526792
-0.561891 0.216691 1.529055
-0.031303 0.036136 0.250183
-0.030012 0.036028 0.249350
-0.028497 0.035631 0.246521
-0.027186 0.035466 0.245297
-0.025348 0.034565 0.238996
-0.024178 0.034535 0.238714
-0.022885 0.034318 0.237144
-0.021668 0.034197 0.236242
-0.020398 0.033975 0.234645
-0.019178 0.033816 0.233484
-0.017884 0.033497 0.231222
-0.016533 0.033023 0.227897
-0.015393 0.032932 0.227217
-0.014282 0.032897 0.226922
-0.013221 0.032976 0.227422
-0.011966 0.032544 0.224403
-0.010769 0.032201 0.221994
-0.009692 0.032182 0.221830
-0.008583 0.032036 0.220788
-0.007514 0.032018 0.220631
-0.005288 0.031447 0.216641
-0.004239 0.031423 0.216456
-0.003195 0.031433 0.216504
-0.002153 0.031484 0.216841
-0.001104 0.031424 0.216412
0.003211 0.032785 0.225754
0.004330 0.033003 0.227259
0.005447 0.033115 0.228034
0.006537 0.033055 0.227625
0.007682 0.033254 0.229005
0.008815 0.033354 0.229708
0.009956 0.033456 0.230424
0.011086 0.033509 0.230806
0.012215 0.033545 0.231079
0.013360 0.033617 0.231601
0.014511 0.033693 0.232148
0.015683 0.033800 0.232919
0.016822 0.033829 0.233152
0.017967 0.033865 0.233432
0.019133 0.033933 0.233938
0.020333 0.034052 0.234800
0.021608 0.034276 0.236389
0.022808 0.034364 0.237041
0.023994 0.034425 0.237512
0.025182 0.034482 0.237958
0.026366 0.034528 0.238332
0.027641 0.034686 0.239477
0.028850 0.034750 0.239980
0.030076 0.034830 0.240595
0.031302 0.034903 0.241161
0.032463 0.034902 0.241219
0.033658 0.034935 0.241516
0.034864 0.034978 0.241883
0.036030 0.034979 0.241960
0.037206 0.034989 0.242104
0.038369 0.034986 0.242156
0.039633 0.035073 0.242837
0.040989 0.035234 0.244031
0.042301 0.035349 0.244907
0.043440 0.035318 0.244770
0.044471 0.035202 0.244051
0.045613 0.035178 0.243965
0.047937 0.036044 0.250052
0.049863 0.036576 0.253830
0.051052 0.036554 0.253766
0.051725 0.036172 0.251204
0.052901 0.036152 0.251152
0.054065 0.036125 0.251047
0.055480 0.036262 0.252092
0.056957 0.036434 0.253373
0.057876 0.036248 0.252171
0.059192 0.036314 0.252719
0.061011 0.036679 0.255348
0.062641 0.036919 0.257106
0.064083 0.037041 0.258045
0.065344 0.037056 0.258232
0.066842 0.037202 0.259338
0.068151 0.037239 0.259683
0.069445 0.037267 0.259961
0.072098 0.038010 0.265229
0.073511 0.038085 0.265837
0.074875 0.038132 0.266252
0.076241 0.038179 0.266661
0.077660 0.038251 0.267239
0.078952 0.038258 0.267367
0.080343 0.038313 0.267825
0.081679 0.038339 0.268084
0.082946 0.038334 0.268115
0.084196 0.038320 0.268089
0.085446 0.038307 0.268062
0.086565 0.038236 0.267628
0.087321 0.038010 0.266102
0.086940 0.037302 0.261199
0.087572 0.037042 0.259432
0.087837 0.036637 0.256641
0.088732 0.036502 0.255736
0.089619 0.036367 0.254831
0.090561 0.036258 0.254099
0.091480 0.036142 0.253322
0.092487 0.036064 0.252802
0.093452 0.035972 0.252176
0.094448 0.035894 0.251646
0.095297 0.035762 0.250737
0.096150 0.035636 0.249857
0.097101 0.035548 0.249243
0.097833 0.035383 0.248084
0.098409 0.035166 0.246557
0.098749 0.034871 0.244477
0.099392 0.034688 0.243178
0.100232 0.034578 0.242381
0.101090 0.034477 0.241640
0.101472 0.034217 0.239783
0.101559 0.033864 0.237272
0.100815 0.033245 0.232889
0.101479 0.033099 0.231811
0.102249 0.032990 0.230990
0.102950 0.032862 0.230025
0.103658 0.032738 0.229087
0.104371 0.032619 0.228170
0.105122 0.032513 0.227348
0.105790 0.032385 0.226353
0.106428 0.032250 0.225308
0.107092 0.032125 0.224327
0.107675 0.031979 0.223189
0.108333 0.031857 0.222217
0.108853 0.031698 0.220972
0.109600 0.031607 0.220199
0.110320 0.031511 0.219374
0.111018 0.031409 0.218510
0.111840 0.031345 0.217892
0.112695 0.031291 0.217337
0.113562 0.031241 0.216800
-1.003765 0.278730 1.887196
-0.992714 0.278140 1.884754
-0.978834 0.276740 1.876724
-0.974928 0.278160 1.887734
-0.965288 0.277955 1.887642
-0.951961 0.276675 1.880161
-0.937495 0.275036 1.870157
-0.927795 0.274778 1.869458
-0.918595 0.274665 1.869669
-0.908421 0.274255 1.867794
-0.900508 0.274527 1.870489
-0.892485 0.274771 1.872929
-0.881466 0.274087 1.868987
-0.875770 0.275062 1.876289
-0.868750 0.275637 1.880806
-0.861390 0.276114 1.884604
-0.854485 0.276749 1.889422
-0.847160 0.277260 1.893339
-0.839247 0.277588 1.895950
-0.822950 0.275119 1.879411
-0.809527 0.273568 1.869084
-0.801334 0.273771 1.870685
-0.786303 0.271615 1.856129
-0.769350 0.268740 1.836606
-0.757338 0.267545 1.828519
-0.640308 0.234173 1.600429
-0.622904 0.230515 1.575361
-0.607000 0.227331 1.553503
-0.592168 0.224477 1.533866
-0.577157 0.221483 1.513252
-0.572481 0.222430 1.519539
-0.567786 0.223394 1.525909
-0.086895 0.064235 0.433244
-0.089134 0.067494 0.455036
-0.032444 0.037271 0.249911
-0.031274 0.037306 0.250055
-0.029933 0.037130 0.248796
-0.028716 0.037100 0.248513
-0.027510 0.037084 0.248323
-0.026032 0.036681 0.245549
-0.024545 0.036228 0.242441
-0.023043 0.035707 0.238888
-0.021798 0.035550 0.237770
-0.020617 0.035484 0.237266
-0.019352 0.035259 0.235702
-0.018072 0.034979 0.233770
-0.016835 0.034748 0.232168
-0.015606 0.034503 0.230481
-0.014388 0.034245 0.228708
-0.013155 0.033908 0.226416
-0.012009 0.033754 0.225340
-0.010726 0.033143 0.221222
-0.009655 0.033129 0.221094
-0.008589 0.033130 0.221065
-0.007296 0.032131 0.214366
-0.006284 0.032244 0.215092
-0.005234 0.032171 0.214583
-0.004285 0.032834 0.218982
-0.003224 0.032788 0.218655
-0.001121 0.033030 0.220237
0.003210 0.033847 0.225655
