ply
format ascii 1.0
element vertex 1741
property float x
property float y
property float z
end_header
-1.515610 0.744370 3.272210
-1.499426 0.743999 3.272159
-1.485021 0.744513 3.275893
-1.471581 0.745527 3.281723
-0.987425 0.505558 2.226269
-0.980293 0.507293 2.234706
-0.970919 0.507894 2.238085
-1.426593 0.762814 3.363330
-1.407119 0.760840 3.355448
-1.397595 0.764264 3.371281
-1.385943 0.766589 3.382191
-1.372006 0.767689 3.387620
-0.719279 0.407191 1.797092
-0.702207 0.402251 1.775510
-0.693225 0.401882 1.774061
-0.696184 0.408511 1.803468
-0.302815 0.191693 0.846332
-0.294622 0.188989 0.834351
-0.264522 0.176741 0.780083
-0.261234 0.176998 0.781132
-0.258438 0.177602 0.783697
-0.256171 0.178591 0.787954
-0.253758 0.179506 0.791871
-0.249794 0.179336 0.790989
-0.246741 0.179824 0.793004
-0.244608 0.181009 0.798077
-0.284042 0.223952 0.986579
-0.278026 0.222857 0.981524
-0.273467 0.222913 0.981532
-0.268654 0.222760 0.980612
-0.263483 0.222300 0.978335
-0.258417 0.221913 0.976378
-0.251541 0.219931 0.967392
-0.245123 0.218282 0.959876
-0.233161 0.211542 0.929975
-0.229067 0.211819 0.930929
-0.175776 0.172478 0.757358
-0.170128 0.170409 0.748047
-0.166795 0.170620 0.748749
-0.122026 0.162907 0.712483
-0.118762 0.163073 0.712996
-0.115856 0.163755 0.715763
-0.112464 0.163771 0.715623
-0.108858 0.163466 0.714082
-0.104116 0.161381 0.704770
-0.033069 0.058841 0.256678
-0.031330 0.057886 0.252446
-0.029932 0.057513 0.250754
-0.028608 0.057255 0.249566
-0.027377 0.057170 0.249135
-0.025974 0.056701 0.247033
-0.024706 0.056498 0.246091
-0.023397 0.056175 0.244627
-0.022074 0.055783 0.242868
-0.020751 0.055348 0.240922
-0.019326 0.054573 0.237502
-0.018045 0.054135 0.235547
-0.016821 0.053819 0.234129
-0.015587 0.053425 0.232375
-0.014406 0.053168 0.231218
-0.013250 0.052968 0.230309
-0.012096 0.052740 0.229281
-0.010931 0.052410 0.227817
-0.009790 0.052140 0.226613
-0.008687 0.052028 0.226094
-0.007334 0.050180 0.218042
-0.006290 0.050178 0.218010
-0.005284 0.050536 0.219541
-0.004249 0.050732 0.220375
-0.003210 0.050999 0.221517
-0.002178 0.051669 0.224411
-0.001116 0.052304 0.227157
-0.000027 0.051739 0.224693
0.001059 0.052214 0.226747
0.002144 0.052194 0.226655
0.003250 0.052511 0.228027
0.004347 0.052557 0.228225
0.005456 0.052708 0.228881
0.006575 0.052881 0.229633
0.007707 0.053101 0.230592
0.008842 0.053281 0.231380
0.009979 0.053430 0.232040
0.011105 0.053494 0.232327
0.012236 0.053571 0.232676
0.013373 0.053659 0.233072
0.014507 0.053722 0.233365
0.015620 0.053704 0.233306
0.016765 0.053791 0.233707
0.018176 0.054664 0.237524
0.019420 0.054965 0.238861
0.020603 0.055067 0.239334
0.021761 0.055095 0.239484
0.022959 0.055218 0.240051
0.024142 0.055292 0.240406
0.025365 0.055448 0.241123
0.026542 0.055495 0.241363
0.027838 0.055777 0.242628
0.029153 0.056070 0.243945
0.030454 0.056316 0.245058
0.031733 0.056505 0.245928
0.032941 0.056557 0.246200
0.034138 0.056589 0.246388
0.035400 0.056721 0.247010
0.036644 0.056818 0.247484
0.038092 0.057214 0.249260
0.039238 0.057148 0.249022
0.040679 0.057500 0.250612
0.041892 0.057521 0.250757
0.043134 0.057579 0.251066
0.044479 0.057766 0.251938
0.045678 0.057760 0.251966
0.047086 0.058011 0.253120
0.048455 0.058203 0.254016
0.049821 0.058382 0.254855
0.051038 0.058382 0.254913
0.052405 0.058550 0.255703
0.053656 0.058583 0.255905
0.055327 0.059063 0.258061
0.056611 0.059118 0.258359
0.058571 0.059861 0.261664
0.059787 0.059829 0.261582
0.060989 0.059783 0.261440
0.062295 0.059840 0.261745
0.063697 0.059985 0.262435
0.065106 0.060131 0.263130
0.066490 0.060248 0.263696
0.068009 0.060482 0.264771
0.069449 0.060637 0.265503
0.070782 0.060696 0.265808
0.072144 0.060776 0.266208
0.073368 0.060740 0.266095
0.074694 0.060787 0.266347
0.075915 0.060749 0.266222
0.077140 0.060716 0.266116
0.078410 0.060718 0.266163
0.079665 0.060709 0.266156
0.080768 0.060585 0.265648
0.081698 0.060339 0.264595
0.080481 0.058537 0.256720
0.081231 0.058199 0.255258
0.082141 0.057984 0.254334
0.083459 0.058058 0.254676
0.084493 0.057936 0.254153
0.085388 0.057723 0.253226
0.086456 0.057631 0.252828
0.087586 0.057583 0.252616
0.088581 0.057449 0.252022
0.089582 0.057322 0.251458
0.090478 0.057131 0.250609
0.091466 0.057003 0.250032
0.092359 0.056820 0.249207
0.093207 0.056614 0.248275
0.093876 0.056305 0.246893
0.094590 0.056032 0.245656
0.095550 0.055908 0.245073
0.096473 0.055766 0.244404
0.097368 0.055612 0.243676
0.098089 0.055363 0.242526
0.098509 0.054952 0.240661
0.097788 0.053921 0.236076
0.096642 0.052681 0.230577
0.097101 0.052335 0.228983
0.097707 0.052075 0.227759
0.097996 0.051653 0.225825
0.098684 0.051449 0.224832
0.099746 0.051441 0.224695
0.100314 0.051182 0.223451
0.101001 0.050989 0.222488
0.101910 0.050910 0.222018
0.102764 0.050805 0.221427
0.103579 0.050684 0.220756
0.104218 0.050480 0.219717
0.104978 0.050338 0.218939
0.105640 0.050152 0.217964
0.106377 0.050005 0.217150
0.107189 0.049895 0.216490
0.107902 0.049742 0.215632
0.108632 0.049600 0.214811
0.109572 0.049555 0.214403
0.110454 0.049485 0.213876
0.111299 0.049400 0.213274
0.112143 0.049316 0.212663
-1.075057 0.471755 2.008414
-1.065139 0.471604 2.009983
-1.048725 0.468548 1.999053
-1.033208 0.465841 1.989485
-0.971299 0.441974 1.889346
-0.942343 0.432797 1.851779
-0.935530 0.433713 1.857280
-0.918919 0.430060 1.843129
-1.632041 0.778607 3.341877
-1.584704 0.763421 3.278932
-1.568978 0.763314 3.280580
-1.553045 0.763103 3.281657
-1.529534 0.759127 3.266415
-1.512420 0.758278 3.264499
-1.493197 0.756344 3.257794
-1.477690 0.756272 3.258993
-1.464297 0.757291 3.264796
-1.001808 0.523608 2.258255
-0.983786 0.519707 2.242260
-0.976637 0.521528 2.250884
-1.439307 0.777027 3.354648
-1.425505 0.778112 3.360285
-1.417797 0.782585 3.380472
-1.397327 0.780037 3.370241
-1.378988 0.778632 3.364866
-1.365103 0.779740 3.370266
-0.722692 0.417647 1.805477
-0.721216 0.421747 1.823447
-0.697384 0.412716 1.784604
-0.695584 0.416663 1.801834
-0.302532 0.195504 0.845561
-0.297197 0.194613 0.841673
-0.293666 0.194896 0.842847
-0.267916 0.182738 0.790144
-0.262145 0.181316 0.783917
-0.259216 0.181848 0.786126
-0.256969 0.182880 0.790486
-0.253448 0.183023 0.790990
-0.250570 0.183642 0.793542
-0.247321 0.184003 0.794971
-0.243795 0.184166 0.795537
-0.293159 0.228477 0.986562
-0.286667 0.227015 0.980048
-0.283726 0.228365 0.985658
-0.279720 0.228888 0.987693
-0.275021 0.228852 0.987308
-0.270310 0.228804 0.986865
-0.265431 0.228611 0.985785
-0.258625 0.226721 0.977387
-0.252896 0.225724 0.972833
-0.244621 0.222376 0.958147
-0.236625 0.219160 0.944034
-0.227543 0.214796 0.924978
-0.177355 0.177655 0.764384
-0.172509 0.176396 0.758744
-0.166563 0.173936 0.747940
-0.163222 0.174147 0.748627
-0.125670 0.166649 0.714457
-0.121837 0.166048 0.711670
-0.118676 0.166354 0.712770
-0.115615 0.166824 0.714574
-0.112406 0.167103 0.715562
-0.108649 0.166558 0.713026
-0.104815 0.165857 0.709822
-0.033021 0.059980 0.256421
-0.031127 0.058712 0.250932
-0.029762 0.058380 0.249450
-0.028494 0.058218 0.248697
-0.027299 0.058197 0.248548
-0.025980 0.057901 0.247223
-0.024545 0.057303 0.244613
-0.023251 0.056993 0.243235
-0.022014 0.056794 0.242334
-0.020763 0.056538 0.241194
-0.019521 0.056277 0.240030
-0.018130 0.055528 0.236791
-0.016861 0.055079 0.234835
-0.015668 0.054830 0.233729
-0.014439 0.054406 0.231885
-0.013246 0.054062 0.230383
-0.012087 0.053806 0.229258
-0.010950 0.053608 0.228381
-0.009812 0.053355 0.227271
-0.008660 0.052961 0.225565
-0.007335 0.051245 0.218233
-0.006306 0.051367 0.218731
-0.005261 0.051381 0.218767
-0.004251 0.051834 0.220677
-0.003220 0.052248 0.222421
-0.002165 0.052499 0.223474
-0.001102 0.052844 0.224931
-0.000025 0.053127 0.226126
0.001055 0.052995 0.225557
0.002148 0.053316 0.226915
0.003248 0.053534 0.227837
0.004351 0.053674 0.228432
0.005459 0.053809 0.229008
0.006566 0.053892 0.229362
0.007685 0.054035 0.229976
0.008810 0.054179 0.230595
0.009946 0.054346 0.231316
0.011086 0.054506 0.232008
0.012220 0.054606 0.232445
0.013399 0.054874 0.233600
0.014521 0.054884 0.233660
0.015652 0.054924 0.233850
0.016847 0.055169 0.234919
0.018149 0.055712 0.237253
0.019329 0.055838 0.237816
0.020559 0.056086 0.238899
0.021748 0.056201 0.239420
0.022952 0.056343 0.240053
0.024133 0.056417 0.240405
0.025336 0.056532 0.240930
0.026566 0.056695 0.241659
0.027847 0.056950 0.242785
0.029132 0.057191 0.243855
0.030359 0.057304 0.244378
0.031554 0.057351 0.244622
0.032761 0.057414 0.244934
0.033985 0.057503 0.245359
0.035249 0.057650 0.246034
0.036623 0.057962 0.247416
0.037845 0.058022 0.247721
0.039286 0.058403 0.249399
0.040552 0.058510 0.249908
0.041748 0.058512 0.249968
0.043160 0.058809 0.251291
0.044364 0.058813 0.251360
0.045681 0.058963 0.252058
0.046854 0.058924 0.251946
0.048517 0.059488 0.254412
0.049774 0.059538 0.254683
0.051090 0.059655 0.255238
0.053095 0.060552 0.259135
0.054146 0.060345 0.258306
0.055176 0.060125 0.257419
0.056910 0.060663 0.259781
0.058201 0.060717 0.260070
0.059707 0.060989 0.261289
0.060905 0.060941 0.261138
0.062185 0.060975 0.261337
0.063504 0.061045 0.261691
0.065033 0.061311 0.262885
0.066367 0.061386 0.263255
0.067765 0.061516 0.263866
0.069035 0.061528 0.263965
0.070692 0.061877 0.265511
0.071962 0.061882 0.265575
0.073319 0.061960 0.265952
0.074508 0.061895 0.265719
0.075798 0.061916 0.265846
0.077265 0.062077 0.266576
0.078343 0.061927 0.265964
0.079672 0.061975 0.266205
0.080850 0.061907 0.265941
0.080435 0.060639 0.260521
0.080491 0.059761 0.256769
0.081071 0.059291 0.254771
0.082022 0.059103 0.253977
0.083311 0.059160 0.254234
0.084248 0.058968 0.253421
0.085227 0.058811 0.252751
0.086173 0.058637 0.252002
0.087216 0.058531 0.251548
0.088339 0.058482 0.251331
0.089162 0.058238 0.250270
0.089917 0.057957 0.249047
0.090920 0.057840 0.248525
0.091974 0.057759 0.248151
0.092614 0.057423 0.246679
0.093467 0.057225 0.245796
0.094584 0.057192 0.245616
0.095447 0.057009 0.244784
0.096148 0.056733 0.243551
0.096914 0.056503 0.242506
0.097681 0.056279 0.241483
0.098326 0.055990 0.240176
0.098761 0.055589 0.238384
0.098772 0.054962 0.235616
0.096895 0.053309 0.228451
0.097635 0.053118 0.227543
0.098271 0.052875 0.226406
0.098876 0.052620 0.225215
0.099440 0.052350 0.223949
0.100339 0.052259 0.223447
0.101075 0.052086 0.222586
0.101745 0.051884 0.221591
0.102538 0.051747 0.220870
0.103338 0.051617 0.220168
0.104037 0.051440 0.219260
0.104807 0.051300 0.218502
0.105530 0.051141 0.217654
0.106294 0.051004 0.216894
0.107163 0.050920 0.216347
0.107860 0.050757 0.215455
0.108600 0.050616 0.214651
0.109454 0.050531 0.214071
0.110384 0.050482 0.213636
0.111292 0.050424 0.213150
0.112107 0.050325 0.212483
-1.076590 0.482071 2.010262
-1.054365 0.476362 1.988687
-1.045252 0.476528 1.991505
-1.031316 0.474478 1.984955
-1.023027 0.475013 1.989112
-0.943095 0.441983 1.852496
-0.936000 0.442787 1.857483
-0.911050 0.435080 1.826659
-1.604310 0.780998 3.283968
-1.584840 0.779069 3.278143
-1.561289 0.775076 3.263490
-1.549477 0.776889 3.273154
-1.527507 0.773594 3.261175
-1.504936 0.769926 3.247488
-1.491089 0.770691 3.252382
-1.476266 0.770963 3.255086
-1.462866 0.771993 3.260886
-1.000845 0.533781 2.255617
-0.989886 0.533602 2.255728
-0.970548 0.528855 2.236449
-1.434969 0.790497 3.343982
-1.421190 0.791590 3.349603
-1.416685 0.797932 3.377350
-1.391020 0.792364 3.354604
-1.379316 0.794713 3.365282
-1.365411 0.795834 3.370683
-0.725628 0.427902 1.812650
-0.722489 0.431115 1.826527
-0.705174 0.425844 1.804423
-0.704195 0.430431 1.824045
-0.306507 0.199495 0.845585
-0.301515 0.198824 0.842730
-0.297981 0.199110 0.843919
-0.289449 0.196018 0.830776
-0.285953 0.196300 0.831919
-0.267649 0.186283 0.789406
-0.261596 0.184630 0.782332
-0.259392 0.185686 0.786725
-0.258054 0.187402 0.793898
-0.255405 0.188201 0.797181
-0.250492 0.187332 0.793385
-0.248302 0.188504 0.798223
-0.244889 0.188769 0.799214
-0.298074 0.233351 0.987788
-0.292836 0.232884 0.985627
-0.289623 0.234039 0.990317
-0.286098 0.234976 0.994075
-0.281131 0.234739 0.992861
-0.276254 0.234571 0.991926
-0.271194 0.234240 0.990296
-0.265568 0.233398 0.986503
-0.260894 0.233380 0.986184
-0.254124 0.231451 0.977786
-0.245743 0.227958 0.962778
-0.235018 0.222117 0.937860
-0.228987 0.220574 0.931095
-0.224876 0.220855 0.932030
-0.177130 0.181054 0.763638
-0.172284 0.179765 0.757983
-0.165912 0.176795 0.745248
-0.162184 0.176574 0.744101
-0.158851 0.176784 0.744770
-0.135084 0.169100 0.711350
-0.121865 0.156460 0.657982
-0.128748 0.169640 0.713205
-0.125495 0.169818 0.713742
-0.122230 0.169989 0.714253
-0.118620 0.169675 0.712730
-0.115426 0.169956 0.713704
-0.112173 0.170165 0.714381
-0.108472 0.169687 0.712172
-0.104950 0.169466 0.711051
-0.034700 0.059890 0.251153
-0.033334 0.059586 0.249809
-0.032195 0.059677 0.250128
-0.030923 0.059522 0.249413
-0.029670 0.059391 0.248805
-0.028322 0.059051 0.247317
-0.027143 0.059050 0.247258
-0.025708 0.058466 0.244755
-0.024509 0.058391 0.244384
-0.023124 0.057841 0.242031
-0.021888 0.057627 0.241086
-0.020575 0.057174 0.239139
-0.019319 0.056838 0.237688
-0.018060 0.056448 0.236013
-0.016868 0.056232 0.235069
-0.015611 0.055751 0.233015
-0.014387 0.055323 0.231191
-0.013204 0.054997 0.229789
-0.012089 0.054921 0.229439
-0.010957 0.054746 0.228675
-0.009810 0.054447 0.227395
-0.008641 0.053937 0.225242
-0.007352 0.052425 0.218900
-0.006265 0.052095 0.217500
-0.005266 0.052501 0.219175
-0.004232 0.052690 0.219944
-0.003200 0.053018 0.221299
-0.002149 0.053216 0.222110
-0.001094 0.053603 0.223711
-0.000023 0.053703 0.224117
0.001055 0.053989 0.225303
0.002151 0.054428 0.227129
0.003250 0.054618 0.227919
0.004335 0.054544 0.227605
0.005451 0.054801 0.228680
0.006562 0.054936 0.229245
0.007681 0.055087 0.229880
0.008808 0.055251 0.230570
0.009944 0.055433 0.231337
0.011076 0.055552 0.231844
0.012209 0.055656 0.232293
0.013355 0.055797 0.232894
0.014509 0.055945 0.233529
0.015638 0.055984 0.233710
0.016818 0.056188 0.234585
0.018036 0.056486 0.235852
0.019385 0.057133 0.238577
0.020531 0.057144 0.238650
0.021710 0.057240 0.239079
0.022897 0.057347 0.239557
0.024086 0.057449 0.240015
0.025302 0.057601 0.240685
0.026550 0.057810 0.241594
0.027818 0.058044 0.242608
0.029158 0.058403 0.244147
0.030360 0.058469 0.244464
0.031597 0.058595 0.245032
0.032817 0.058680 0.245434
0.033993 0.058685 0.245498
0.035296 0.058899 0.246440
0.036443 0.058850 0.246280
0.037808 0.059142 0.247553
0.039109 0.059322 0.248353
0.040550 0.059697 0.249973
0.041724 0.059667 0.249900
0.043017 0.059805 0.250529
0.044398 0.060054 0.251626
0.045611 0.060069 0.251742
0.046921 0.060208 0.252375
0.048207 0.060309 0.252852
0.049664 0.060614 0.254187
0.050868 0.060604 0.254197
0.052102 0.060628 0.254353
0.053390 0.060712 0.254760
0.054934 0.061077 0.256347
0.057025 0.062022 0.260368
0.058354 0.062115 0.260811
0.059505 0.062018 0.260458
0.060878 0.062152 0.261074
0.062117 0.062147 0.261104
0.063451 0.062235 0.261525
0.064943 0.062471 0.262568
0.066491 0.062751 0.263794
0.067812 0.062811 0.264091
0.069123 0.062860 0.264342
0.070540 0.063000 0.264978
0.071979 0.063155 0.265675
0.073193 0.063111 0.265530
0.074488 0.063138 0.265679
0.075778 0.063159 0.265805
0.077058 0.063171 0.265891
0.078386 0.063221 0.266134
0.079645 0.063215 0.266137
0.080728 0.063072 0.265560
0.082000 0.063077 0.265608
0.080530 0.061007 0.256909
0.081312 0.060677 0.255538
0.082049 0.060325 0.254068
0.083453 0.060466 0.254674
0.084495 0.060345 0.254169
0.085316 0.060071 0.253017
0.086411 0.059995 0.252696
0.087332 0.059802 0.251879
0.088512 0.059789 0.251815
0.089767 0.059827 0.251958
0.089503 0.058864 0.247888
0.090407 0.058685 0.247109
0.091453 0.058601 0.246729
0.092474 0.058503 0.246285
0.093439 0.058373 0.245701
0.094378 0.058230 0.245055
0.095432 0.058160 0.244716
0.096347 0.058009 0.244024
0.097126 0.057780 0.243003
0.097963 0.057590 0.242141
0.098453 0.057203 0.240443
0.098434 0.056533 0.237551
0.096435 0.054754 0.229996
0.097313 0.054630 0.229389
0.097628 0.054196 0.227476
0.097995 0.053800 0.225717
0.098420 0.053444 0.224120
0.099287 0.053333 0.223544
0.100246 0.053274 0.223177
0.101005 0.053110 0.222365
0.101730 0.052933 0.221489
0.102547 0.052806 0.220818
0.103328 0.052663 0.220072
0.103930 0.052433 0.218954
0.104752 0.052317 0.218305
0.105478 0.052156 0.217460
0.106209 0.052001 0.216630
0.106982 0.051869 0.215888
0.107782 0.051752 0.215200
0.108569 0.051632 0.214488
0.109388 0.051529 0.213839
0.110366 0.051502 0.213492
0.111299 0.051454 0.213051
0.112091 0.051343 0.212334
-1.068078 0.487826 1.993324
-1.054426 0.485919 1.987801
-1.035665 0.481602 1.972284
-1.014675 0.476160 1.952019
-1.006505 0.476690 1.956115
-0.945556 0.452000 1.856536
-0.931876 0.449654 1.848543
-0.916101 0.446244 1.836068
-1.616918 0.795177 3.274368
-1.603338 0.796138 3.280806
-1.572418 0.788424 3.251341
-1.567961 0.793958 3.276371
-1.542863 0.789046 3.258177
-1.521018 0.785717 3.246371
-1.502714 0.784167 3.241793
-1.484720 0.782750 3.237640
-1.470515 0.783321 3.241604
-1.000117 0.544062 2.253483
-0.985258 0.541731 2.244722
-0.974090 0.541402 2.244185
-1.439128 0.808646 3.353082
-1.425291 0.809754 3.358720
-1.411423 0.810870 3.364302
-1.392385 0.809007 3.357436
-1.386080 0.814585 3.381368
-0.732695 0.435596 1.808546
-0.727187 0.437399 1.816365
-0.718413 0.437258 1.816067
-0.713257 0.439341 1.824971
-0.705642 0.439943 1.827682
-0.304236 0.199393 0.828561
-0.306217 0.203293 0.844785
-0.301534 0.202814 0.842794
-0.291991 0.199010 0.826971
-0.288907 0.199565 0.829249
-0.285415 0.199850 0.830389
-0.271253 0.192568 0.800079
-0.262679 0.189103 0.785622
-0.259219 0.189275 0.786260
-0.257405 0.190670 0.791970
-0.253467 0.190510 0.791210
-0.255916 0.195218 0.810656
-0.252456 0.195492 0.811675
-0.303756 0.238831 0.991460
-0.297744 0.237757 0.986836
-0.292670 0.237409 0.985217
-0.290233 0.239225 0.992564
-0.285687 0.239333 0.992817
-0.281274 0.239558 0.993544
-0.275962 0.239012 0.991069
-0.271324 0.239041 0.990969
-0.266321 0.238745 0.989511
-0.260892 0.238049 0.986394
-0.254867 0.236774 0.980873
-0.247283 0.233977 0.969044
-0.239155 0.230551 0.954610
-0.229629 0.225619 0.933948
-0.220812 0.221204 0.915429
-0.216759 0.221482 0.916331
-0.176793 0.184327 0.762406
-0.170972 0.181967 0.752433
-0.163977 0.178231 0.736781
-0.161145 0.178955 0.739567
-0.156531 0.177689 0.734128
-0.153235 0.177896 0.734773
-0.134897 0.172249 0.710630
-0.131800 0.172604 0.711892
-0.128520 0.172732 0.712214
-0.125278 0.172920 0.712790
-0.122499 0.173775 0.716110
-0.118769 0.173293 0.713920
-0.115290 0.173158 0.713167
-0.112369 0.173878 0.715934
-0.108560 0.173228 0.713062
-0.103787 0.170947 0.703481
-0.100532 0.171098 0.703917
-0.034648 0.061000 0.250893
-0.033138 0.060422 0.248452
-0.031894 0.060304 0.247905
-0.030557 0.059997 0.246582
-0.029399 0.060028 0.246649
-0.028172 0.059918 0.246136
-0.026857 0.059601 0.244778
-0.025530 0.059228 0.243190
-0.024299 0.059052 0.242414
-0.023141 0.059046 0.242339
-0.021841 0.058657 0.240693
-0.020645 0.058521 0.240087
-0.019220 0.057683 0.236603
-0.017956 0.057252 0.234790
-0.016701 0.056797 0.232883
-0.015506 0.056490 0.231585
-0.014318 0.056170 0.230238
-0.013125 0.055770 0.228560
-0.012024 0.055731 0.228368
-0.010899 0.055554 0.227611
-0.009790 0.055437 0.227102
-0.008657 0.055133 0.225830
-0.007365 0.053580 0.219445
-0.006279 0.053269 0.218148
-0.005219 0.053098 0.217429
-0.003189 0.053940 0.220843
-0.002146 0.054270 0.222178
-0.001089 0.054542 0.223281
-0.000021 0.054911 0.224777
0.001056 0.054963 0.224982
0.003249 0.055649 0.227781
0.004342 0.055686 0.227929
0.005450 0.055863 0.228652
0.006554 0.055947 0.228997
0.007666 0.056066 0.229492
0.008792 0.056243 0.230219
0.009919 0.056383 0.230802
0.011055 0.056544 0.231472
0.012186 0.056650 0.231919
0.013344 0.056855 0.232770
0.014490 0.056980 0.233300
0.015665 0.057194 0.234195
0.016804 0.057255 0.234462
0.018042 0.057624 0.235997
0.019266 0.057909 0.237187
0.020503 0.058198 0.238399
0.021652 0.058220 0.238516
0.022868 0.058412 0.239332
0.024058 0.058521 0.239810
0.025339 0.058832 0.241115
0.026559 0.058981 0.241763
0.027749 0.059053 0.242092
0.029006 0.059255 0.242959
0.030279 0.059474 0.243895
0.031471 0.059522 0.244133
0.032744 0.059715 0.244966
0.033964 0.059801 0.245365
0.035184 0.059882 0.245738
0.036430 0.059999 0.246266
0.037685 0.060124 0.246825
0.039093 0.060478 0.248327
0.040498 0.060807 0.249726
0.041806 0.060975 0.250466
0.043011 0.060987 0.250566
0.044307 0.061125 0.251180
0.045649 0.061316 0.252020
0.046951 0.061446 0.252602
0.048210 0.061514 0.252934
0.049495 0.061611 0.253389
0.050918 0.061871 0.254507
0.052110 0.061845 0.254455
0.053516 0.062068 0.255422
0.054988 0.062355 0.256658
0.056605 0.062792 0.258507
0.058308 0.063302 0.260661
0.059584 0.063339 0.260861
0.060838 0.063350 0.260958
0.062079 0.063347 0.260994
0.063479 0.063503 0.261688
0.064948 0.063721 0.262634
0.066281 0.063801 0.263008
0.067812 0.064064 0.264137
0.069117 0.064106 0.264357
0.070511 0.064230 0.264911
0.071838 0.064289 0.265193
0.073177 0.064356 0.265508
0.074449 0.064363 0.265574
0.075775 0.064416 0.265825
0.077162 0.064517 0.266275
0.078277 0.064392 0.265789
0.079590 0.064431 0.265974
0.080829 0.064409 0.265910
0.081838 0.064209 0.265101
0.080272 0.062023 0.256096
0.081168 0.061778 0.255095
0.082053 0.061531 0.254088
0.083304 0.061562 0.254223
0.084340 0.061436 0.253705
0.085416 0.061341 0.253314
0.086319 0.061126 0.252423
0.087271 0.060953 0.251697
0.088711 0.061119 0.252373
0.090134 0.061270 0.252978
0.089333 0.059924 0.247402
0.090342 0.059812 0.246915
0.091453 0.059770 0.246709
0.092359 0.059596 0.245957
0.093370 0.059493 0.245492
0.094320 0.059355 0.244877
0.095233 0.059197 0.244173
0.096110 0.059020 0.243389
0.096925 0.058810 0.242462
0.097674 0.058566 0.241386
0.097748 0.057927 0.238679
0.097822 0.057302 0.236029
0.097207 0.056293 0.231789
0.097533 0.055845 0.229855
0.098115 0.055553 0.228555
0.098646 0.055238 0.227159
0.099119 0.054897 0.225650
0.099722 0.054636 0.224460
0.100497 0.054473 0.223668
0.101195 0.054272 0.222713
0.101908 0.054083 0.221802
0.102677 0.053928 0.221020
0.103499 0.053803 0.220356
0.104141 0.053588 0.219315
0.104892 0.053433 0.218510
0.105646 0.053282 0.217716
0.106313 0.053091 0.216747
0.106945 0.052886 0.215716
0.107823 0.052806 0.215182
0.108628 0.052691 0.214499
0.109336 0.052532 0.213627
0.110317 0.052506 0.213284
0.111145 0.052408 0.212639
0.112089 0.052366 0.212208
-1.074863 0.500554 2.004895
-1.057361 0.496829 1.992290
-1.037920 0.492117 1.975585
-1.026542 0.491177 1.973895
-1.018261 0.491716 1.978045
-0.940779 0.458537 1.846336
-0.928358 0.456742 1.840780
-0.920684 0.457271 1.844500
-1.609877 0.815062 3.292957
-1.577173 0.806318 3.260013
-1.555545 0.803119 3.249326
-1.539449 0.802741 3.249918
-1.518953 0.800038 3.240968
-1.498693 0.797407 3.232176
-1.479488 0.795289 3.225341
-1.465575 0.796001 3.229872
-1.452234 0.797042 3.235637
-0.997638 0.553357 2.247379
-0.977870 0.548214 2.227410
-0.970431 0.549947 2.235303
-1.434276 0.821726 3.341150
-1.420467 0.822841 3.346770
-1.406590 0.823941 3.352242
-1.389647 0.823251 3.350340
-1.387484 0.831403 3.384341
-0.731737 0.443559 1.805964
-0.730843 0.448220 1.825299
-0.718083 0.445629 1.815060
-0.711963 0.447146 1.821511
-0.708247 0.450228 1.834300
-0.301242 0.206592 0.841980
-0.293297 0.203822 0.830683
-0.287322 0.202364 0.824721
-0.278584 0.198893 0.810545
-0.270494 0.195796 0.797880
-0.265609 0.194964 0.794434
-0.260598 0.194014 0.790498
-0.260690 0.196892 0.802144
-0.256011 0.196197 0.799227
-0.255640 0.198833 0.809864
-0.307656 0.242911 0.989264
-0.303420 0.243247 0.990488
-0.299113 0.243536 0.991508
-0.295381 0.244310 0.994489
-0.290532 0.244170 0.993744
-0.286069 0.244355 0.994310
-0.281112 0.244117 0.993147
-0.276276 0.243979 0.992384
-0.271676 0.244048 0.992450
-0.266530 0.243620 0.990493
-0.260811 0.242645 0.986302
-0.254352 0.240932 0.979111
-0.247610 0.238885 0.970557
-0.238876 0.234801 0.953731
-0.232054 0.232476 0.944051
-0.227883 0.232768 0.944995
-0.176564 0.187702 0.761635
-0.170271 0.184778 0.749569
-0.163197 0.180864 0.733496
-0.160550 0.181794 0.737066
-0.155259 0.179706 0.728398
-0.149510 0.176979 0.717148
-0.146282 0.177181 0.717764
-0.132814 0.164694 0.666995
-0.138807 0.176318 0.713871
-0.135572 0.176509 0.714445
-0.132179 0.176499 0.714203
-0.128360 0.175905 0.711602
-0.125233 0.176252 0.712808
-0.122900 0.177770 0.718745
-0.119215 0.177360 0.716893
-0.115618 0.177061 0.715490
-0.112774 0.177933 0.718818
-0.108553 0.176620 0.713323
-0.104364 0.175276 0.707709
-0.034596 0.062105 0.250629
-0.033135 0.061605 0.248547
-0.031704 0.061124 0.246547
-0.030442 0.060947 0.245772
-0.029229 0.060854 0.245342
-0.027944 0.060601 0.244263
-0.026627 0.060253 0.242805
-0.025353 0.059974 0.241628
-0.023938 0.059321 0.238943
-0.022595 0.058787 0.236746
-0.021404 0.058618 0.236015
-0.020277 0.058611 0.235941
-0.019138 0.058568 0.235721
-0.017853 0.058047 0.233582
-0.016715 0.057966 0.233216
-0.015528 0.057688 0.232059
-0.014342 0.057376 0.230769
-0.013121 0.056856 0.228640
-0.012016 0.056796 0.228366
-0.010960 0.056973 0.229050
-0.009822 0.056719 0.227999
-0.008599 0.055851 0.224481
-0.007326 0.054360 0.218464
-0.006273 0.054277 0.218112
-0.005233 0.054308 0.218216
-0.003159 0.054507 0.218979
-0.002142 0.055289 0.222109
-0.001087 0.055665 0.223606
-0.000018 0.056116 0.225405
0.001064 0.056367 0.226408
0.002154 0.056557 0.227161
0.003239 0.056527 0.227036
0.004341 0.056734 0.227867
0.005441 0.056834 0.228269
0.006551 0.056995 0.228916
0.007653 0.057049 0.229137
0.008790 0.057315 0.230209
0.009926 0.057512 0.231011
0.011053 0.057627 0.231481
0.012184 0.057739 0.231942
0.013316 0.057838 0.232353
0.014487 0.058075 0.233322
0.015591 0.058028 0.233150
0.016830 0.058458 0.234899
0.018015 0.058658 0.235721
0.019295 0.059125 0.237622
0.020443 0.059158 0.237780
0.021628 0.059288 0.238328
0.022798 0.059367 0.238674
0.024012 0.059546 0.239426
0.025215 0.059685 0.240017
0.026605 0.060233 0.242253
0.027774 0.060257 0.242385
0.028963 0.060320 0.242673
0.030176 0.060425 0.243137
0.031463 0.060666 0.244145
0.032628 0.060664 0.244177
0.033861 0.060783 0.244698
0.035073 0.060857 0.245040
0.036341 0.061020 0.245740
0.037566 0.061104 0.246123
0.039098 0.061666 0.248431
0.040372 0.061801 0.249021
0.041541 0.061771 0.248949
0.042894 0.062008 0.249954
0.044251 0.062239 0.250931
0.045723 0.062615 0.252499
0.046901 0.062579 0.252401
0.048133 0.062615 0.252599
0.049339 0.062617 0.252655
0.050707 0.062818 0.253516
0.052292 0.063273 0.255404
0.054000 0.063853 0.257795
0.055231 0.063855 0.257855
0.056543 0.063949 0.258282
0.057967 0.064163 0.259195
0.059305 0.064273 0.259691
0.060813 0.064561 0.260902
0.062026 0.064529 0.260821
0.063319 0.064581 0.261077
0.064698 0.064717 0.261671
0.066394 0.065158 0.263498
0.067565 0.065077 0.263215
0.068990 0.065240 0.263914
0.070306 0.065295 0.264174
0.071746 0.065461 0.264885
0.073173 0.065610 0.265524
0.074434 0.065608 0.265550
0.075657 0.065572 0.265436
0.077016 0.065654 0.265798
0.078270 0.065645 0.265785
0.079509 0.065624 0.265724
0.080734 0.065592 0.265616
0.081595 0.065269 0.264328
0.080255 0.063223 0.256054
0.081127 0.062954 0.254977
0.081986 0.062683 0.253888
0.083210 0.062695 0.253938
0.084167 0.062508 0.253184
0.085118 0.062322 0.252427
0.086059 0.062134 0.251659
0.086940 0.061908 0.250733
0.087955 0.061783 0.250211
0.088792 0.061538 0.249197
0.089539 0.061237 0.247955
0.090386 0.061012 0.247016
0.091403 0.060905 0.246551
0.092466 0.060832 0.246215
0.093283 0.060600 0.245235
0.094117 0.060386 0.244318
0.095267 0.060376 0.244224
0.096032 0.060126 0.243153
0.096641 0.059785 0.241710
0.097440 0.059568 0.240764
0.097671 0.059013 0.238443
0.098162 0.058626 0.236799
0.098375 0.058084 0.234521
0.097896 0.057150 0.230658
0.098026 0.056588 0.228290
0.098772 0.056390 0.227388
0.099369 0.056113 0.226156
0.099810 0.055754 0.224592
0.100553 0.055569 0.223724
0.101257 0.055367 0.222778
0.101865 0.055118 0.221633
0.102635 0.054960 0.220850
0.103384 0.054794 0.220028
0.104134 0.054633 0.219214
0.104878 0.054470 0.218390
0.105607 0.054304 0.217541
0.106249 0.054097 0.216520
0.106908 0.053902 0.215540
0.107743 0.053798 0.214916
0.108480 0.053649 0.214098
0.109213 0.053500 0.213273
0.110105 0.053430 0.212756
0.110976 0.053352 0.212194
0.111851 0.053277 0.211631
-1.081471 0.513319 2.016080
-1.059765 0.507538 1.995735
-1.043772 0.504412 1.985686
-1.034681 0.504595 1.988545
-1.026318 0.505141 1.992736
-0.936956 0.465458 1.837982
-0.924119 0.463402 1.831560
-0.901329 0.456270 1.804956
-1.608636 0.822136 3.255000
-1.595079 0.823105 3.261420
-1.564731 0.815345 3.233093
-1.550719 0.816028 3.238095
-1.535245 0.815948 3.239947
-1.515022 0.813318 3.231541
-1.497685 0.812199 3.229016
-1.480606 0.811199 3.226843
-1.468749 0.813070 3.235981
-1.000217 0.559518 2.227948
-0.987058 0.558020 2.223003
-0.972641 0.555772 2.214992
-0.969927 0.560234 2.233663
-1.423404 0.831183 3.315158
-1.419839 0.838299 3.344669
-1.399547 0.835587 3.334885
-1.387849 0.838002 3.345476
-1.388044 0.847738 3.385217
-0.732729 0.452704 1.808176
-0.731812 0.457448 1.827505
-0.727652 0.460254 1.839055
-0.713347 0.456634 1.824885
-0.710324 0.460235 1.839535
-0.294161 0.205617 0.822183
-0.287376 0.203549 0.813918
-0.283670 0.203635 0.814253
-0.280776 0.204315 0.816947
-0.268072 0.197776 0.790768
-0.264393 0.197805 0.790838
-0.260217 0.197458 0.789394
-0.257729 0.198400 0.793093
-0.255735 0.199756 0.798433
-0.310915 0.246478 0.985072
-0.304016 0.244655 0.977664
-0.304420 0.248745 0.993871
-0.300281 0.249191 0.995507
-0.295279 0.248925 0.994287
-0.291365 0.249582 0.996741
-0.286374 0.249322 0.995530
-0.281656 0.249297 0.995242
-0.276776 0.249124 0.994359
-0.271845 0.248900 0.993261
-0.266433 0.248218 0.990332
-0.260631 0.247144 0.985831
-0.254532 0.245743 0.980023
-0.247409 0.243285 0.969995
-0.239608 0.240054 0.956886
-0.230246 0.235105 0.936932
-0.223501 0.232688 0.927069
-0.219394 0.232974 0.927978
-0.173196 0.187666 0.747314
-0.167901 0.185714 0.739349
-0.161904 0.182886 0.727903
-0.159622 0.184224 0.733034
-0.154521 0.182295 0.725165
-0.148437 0.179093 0.712234
-0.143600 0.177282 0.704840
-0.134329 0.169781 0.674836
-0.131289 0.169981 0.675447
-0.135565 0.179900 0.714667
-0.133301 0.181426 0.720533
-0.128815 0.179930 0.714399
-0.125644 0.180239 0.715431
-0.122941 0.181255 0.719268
-0.119115 0.180626 0.716581
-0.115747 0.180676 0.716589
-0.112653 0.181168 0.718351
-0.108347 0.179683 0.712276
-0.103456 0.177101 0.701860
-0.033523 0.063527 0.251573
-0.031950 0.062787 0.248580
-0.030521 0.062284 0.246530
-0.029287 0.062152 0.245952
-0.027974 0.061836 0.244645
-0.026721 0.061632 0.243783
-0.025345 0.061113 0.241678
-0.024100 0.060876 0.240691
-0.022462 0.059570 0.235478
-0.021143 0.059021 0.233260
-0.019864 0.058526 0.231261
-0.018641 0.058151 0.229737
-0.017504 0.058013 0.229150
-0.016310 0.057654 0.227691
-0.015158 0.057404 0.226669
-0.013961 0.056932 0.224768
-0.012958 0.057237 0.225939
-0.011854 0.057117 0.225435
-0.010696 0.056678 0.223672
-0.009636 0.056728 0.223840
-0.008368 0.055404 0.218592
-0.007309 0.055294 0.218133
-0.006240 0.055056 0.217174
-0.005177 0.054782 0.216074
-0.004174 0.055174 0.217600
-0.002129 0.056082 0.221153
-0.001080 0.056483 0.222719
-0.000016 0.057470 0.226601
0.001066 0.057413 0.226369
0.002152 0.057516 0.226769
0.003241 0.057598 0.227088
0.004331 0.057665 0.227347
0.005432 0.057813 0.227931
0.006544 0.058006 0.228692
0.007648 0.058086 0.229010
0.008763 0.058215 0.229527
0.009887 0.058371 0.230149
0.010994 0.058407 0.230299
0.012124 0.058546 0.230859
0.013385 0.059242 0.233617
0.014497 0.059220 0.233543
0.015647 0.059347 0.234060
0.016814 0.059517 0.234752
0.018028 0.059821 0.235970
0.019289 0.060233 0.237620
0.020424 0.060231 0.237635
0.021593 0.060324 0.238027
0.022785 0.060466 0.238616
0.023973 0.060586 0.239117
0.025163 0.060699 0.239593
0.026460 0.061049 0.241009
0.027665 0.061167 0.241508
0.028923 0.061389 0.242419
0.030124 0.061476 0.242801
0.031267 0.061442 0.242705
0.032650 0.061865 0.244413
0.033886 0.061991 0.244951
0.035146 0.062150 0.245621
0.036405 0.062298 0.246248
0.037678 0.062459 0.246929
0.038959 0.062622 0.247619
0.040291 0.062857 0.248594
0.041655 0.063126 0.249703
0.042952 0.063281 0.250361
0.044358 0.063583 0.251605
0.045610 0.063657 0.251942
0.046988 0.063896 0.252937
0.048149 0.063835 0.252745
0.049415 0.063914 0.253104
0.050983 0.064370 0.254960
0.052170 0.064335 0.254869
0.053386 0.064336 0.254920
0.055001 0.064807 0.256835
0.056434 0.065048 0.257838
0.058070 0.065508 0.259707
0.059328 0.065531 0.259846
0.060708 0.065685 0.260502
0.062022 0.065761 0.260852
0.063226 0.065722 0.260737
0.064579 0.065836 0.261233
0.066001 0.066014 0.261981
0.067664 0.066421 0.263639
0.068936 0.066438 0.263744
0.070352 0.066590 0.264385
0.071716 0.066688 0.264810
0.073090 0.066792 0.265255
0.074438 0.066869 0.265591
0.075704 0.066871 0.265626
0.076897 0.066809 0.265409
0.078182 0.066828 0.265507
0.079444 0.066827 0.265524
0.080613 0.066749 0.265231
0.081674 0.066585 0.264594
0.080606 0.064717 0.257182
0.081376 0.064358 0.255765
0.082307 0.064135 0.254883
0.083211 0.063898 0.253943
0.084323 0.063825 0.253651
0.085228 0.063599 0.252748
0.086113 0.063366 0.251810
0.087040 0.063168 0.251012
0.087932 0.062951 0.250132
0.088800 0.062724 0.249204
0.089467 0.062361 0.247736
0.090330 0.062143 0.246839
0.091280 0.061990 0.246193
0.092159 0.061792 0.245369
0.093038 0.061601 0.244561
0.093942 0.061429 0.243828
0.094737 0.061192 0.242831
0.095716 0.061077 0.242313
0.096533 0.060864 0.241397
0.097245 0.060589 0.240234
0.097549 0.060070 0.238097
0.097922 0.059605 0.236169
0.098033 0.058992 0.233650
0.098078 0.058354 0.231027
0.098316 0.057844 0.228905
0.098750 0.057459 0.227274
0.099192 0.057087 0.225688
0.099752 0.056790 0.224391
0.100473 0.056590 0.223472
0.101275 0.056440 0.222741
0.101798 0.056138 0.221408
0.102480 0.055930 0.220434
0.103207 0.055750 0.219565
0.104071 0.055647 0.218990
0.104825 0.055488 0.218186
0.105482 0.055281 0.217187
0.106140 0.055078 0.216196
0.106745 0.054852 0.215107
0.107667 0.054792 0.214656
0.108426 0.054651 0.213879
0.109224 0.054531 0.213176
0.110145 0.054475 0.212711
0.110977 0.054376 0.212069
0.111929 0.054338 0.211648
-1.078767 0.521701 2.009859
-1.064205 0.519284 2.002965
-1.037998 0.511090 1.973629
-1.020799 0.507222 1.960843
-1.012533 0.507762 1.964985
-0.928922 0.470177 1.821344
-0.923992 0.472084 1.830463
-0.900043 0.464219 1.801584
-1.606623 0.836605 3.249548
-1.593059 0.837579 3.255968
-1.562766 0.829691 3.227779
-1.537657 0.824427 3.209631
-1.532557 0.829893 3.233130
-1.511590 0.826791 3.223136
-1.495908 0.826547 3.224153
-1.480962 0.826709 3.226640
-1.464547 0.826046 3.225794
-1.451175 0.827104 3.231561
-0.980428 0.564733 2.207503
-0.964895 0.561752 2.196821
-0.966278 0.568661 2.224754
-1.422280 0.846203 3.311839
-1.418699 0.853436 3.341323
-1.403014 0.853467 3.342533
-1.383934 0.851412 3.335476
-1.386873 0.863011 3.381836
-0.735098 0.462740 1.813763
-0.731822 0.466089 1.827295
-0.726440 0.468160 1.835780
-0.716113 0.467057 1.831775
-0.711513 0.469707 1.842451
-0.290773 0.209843 0.823537
-0.287300 0.210134 0.824681
-0.280488 0.207958 0.816127
-0.271971 0.204440 0.802295
-0.264829 0.201871 0.792178
-0.259557 0.200675 0.787436
-0.257451 0.201928 0.792292
-0.310573 0.250855 0.984075
-0.309055 0.253406 0.993970
-0.304943 0.253877 0.995689
-0.299913 0.253585 0.994409
-0.295879 0.254140 0.996440
-0.291253 0.254197 0.996505
-0.286544 0.254182 0.996277
-0.281879 0.254206 0.996196
-0.276787 0.253839 0.994574
-0.271863 0.253617 0.993511
-0.266683 0.253144 0.991459
-0.261218 0.252379 0.988256
-0.254505 0.250358 0.980133
-0.246109 0.246577 0.965114
-0.239131 0.244102 0.955209
-0.232661 0.242059 0.946994
-0.224820 0.238482 0.932778
-0.172967 0.190958 0.746532
-0.168795 0.190230 0.743500
-0.161985 0.186435 0.728482
-0.156613 0.184167 0.719436
-0.153069 0.183995 0.718577
-0.147887 0.181802 0.709828
-0.141647 0.178175 0.695485
-0.135785 0.174864 0.682381
-0.131121 0.172972 0.674819
-0.136736 0.184884 0.721099
-0.133460 0.185077 0.721663
-0.128479 0.182852 0.712799
-0.125446 0.183357 0.714579
-0.122812 0.184487 0.718794
-0.119274 0.184287 0.717829
-0.115735 0.184073 0.716806
-0.112506 0.184354 0.717717
-0.108752 0.183766 0.715247
-0.103604 0.180710 0.703173
-0.033471 0.064629 0.251299
-0.031897 0.063869 0.248285
-0.030528 0.063477 0.246703
-0.029152 0.063038 0.244940
-0.028024 0.063120 0.245205
-0.026700 0.062751 0.243719
-0.025327 0.062228 0.241635
-0.024024 0.061832 0.240049
-0.022803 0.061623 0.239187
-0.021466 0.061061 0.236959
-0.020114 0.060387 0.234303
-0.018667 0.059336 0.230180
-0.017533 0.059213 0.229663
-0.016285 0.058661 0.227484
-0.015054 0.058094 0.225251
-0.013877 0.057666 0.223557
-0.012735 0.057327 0.222209
-0.011654 0.057223 0.221775
-0.010600 0.057244 0.221829
-0.009129 0.054770 0.212214
-0.008127 0.054842 0.212468
-0.007124 0.054928 0.212781
-0.006258 0.056278 0.217988
-0.005217 0.056265 0.217920
-0.004167 0.056148 0.217449
-0.003151 0.056540 0.218950
-0.002108 0.056630 0.219286
-0.001065 0.056877 0.220229
-0.000013 0.058172 0.225234
0.001065 0.058281 0.225646
0.002147 0.058398 0.226091
0.003233 0.058498 0.226476
0.004330 0.058696 0.227241
0.005427 0.058821 0.227723
0.006531 0.058960 0.228261
0.007644 0.059129 0.228918
0.008760 0.059277 0.229496
0.009871 0.059364 0.229838
0.010999 0.059522 0.230459
0.012110 0.059567 0.230643
0.013449 0.060635 0.234794
0.014596 0.060737 0.235204
0.015689 0.060617 0.234754
0.016850 0.060756 0.235312
0.018100 0.061181 0.236975
0.019245 0.061222 0.237158
0.020434 0.061389 0.237826
0.021616 0.061517 0.238348
0.022771 0.061560 0.238540
0.023971 0.061716 0.239172
0.025169 0.061852 0.239732
0.026414 0.062087 0.240673
0.027614 0.062199 0.241140
0.028855 0.062391 0.241918
0.030026 0.062424 0.242081
0.031387 0.062836 0.243714
0.032578 0.062888 0.243953
0.033778 0.062954 0.244248
0.035030 0.063107 0.244884
0.036285 0.063258 0.245509
0.037507 0.063342 0.245876
0.038796 0.063531 0.246653
0.040204 0.063899 0.248127
0.041500 0.064072 0.248840
0.042927 0.064433 0.250287
0.044330 0.064738 0.251519
0.045555 0.064773 0.251702
0.046854 0.064910 0.252279
0.048091 0.064957 0.252506
0.049220 0.064857 0.252166
0.050950 0.065537 0.254857
0.052232 0.065621 0.255229
0.053600 0.065807 0.255998
0.054842 0.065834 0.256147
0.056231 0.066032 0.256965
0.057713 0.066329 0.258164
0.059322 0.066756 0.259870
0.060634 0.066837 0.260229
0.061919 0.066886 0.260464
0.063302 0.067038 0.261095
0.064634 0.067130 0.261496
0.066045 0.067300 0.262196
0.067437 0.067443 0.262792
0.068785 0.067539 0.263201
0.069985 0.067488 0.263037
0.071576 0.067809 0.264321
0.073073 0.068033 0.265222
0.074451 0.068138 0.265662
0.075652 0.068081 0.265467
0.076905 0.068073 0.265456
0.078186 0.068089 0.265539
0.079385 0.068034 0.265343
0.080618 0.068008 0.265260
0.081525 0.067714 0.264122
0.080098 0.065518 0.255567
0.081121 0.065363 0.254967
0.082014 0.065109 0.253978
0.083084 0.065000 0.253553
0.083954 0.064741 0.252536
0.085021 0.064639 0.252128
0.085975 0.064454 0.251394
0.086786 0.064169 0.250266
0.087698 0.063966 0.249452
0.088455 0.063656 0.248217
0.089414 0.063497 0.247568
0.090214 0.063231 0.246497
0.091106 0.063036 0.245697
0.092143 0.062944 0.245296
0.092912 0.062675 0.244196
0.093757 0.062462 0.243311
0.094690 0.062313 0.242670
0.095484 0.062076 0.241682
0.096307 0.061863 0.240785
0.096890 0.061504 0.239309
0.097456 0.061142 0.237817
0.097720 0.060601 0.235625
0.097803 0.059961 0.233044
0.098122 0.059479 0.231071
0.098566 0.059083 0.229423
0.099136 0.058769 0.228094
0.099476 0.058328 0.226262
0.099876 0.057931 0.224597
0.100798 0.057842 0.224119
0.101583 0.057677 0.223337
0.101884 0.057243 0.221511
0.102619 0.057060 0.220646
0.103346 0.056876 0.219770
0.104068 0.056692 0.218889
0.104791 0.056514 0.218017
0.105559 0.056362 0.217243
0.106221 0.056157 0.216254
0.106820 0.055924 0.215147
0.107499 0.055736 0.214208
0.108341 0.055636 0.213593
0.109217 0.055554 0.213041
0.110039 0.055447 0.212380
0.110903 0.055363 0.211797
0.111812 0.055303 0.211292
-1.080608 0.532273 2.012065
-1.068715 0.531146 2.010274
-1.049847 0.526501 1.995034
-1.036418 0.524524 1.989766
-1.028009 0.525074 1.993979
-0.920188 0.474385 1.803317
-0.919721 0.478608 1.821128
-0.895387 0.470373 1.791437
-1.601730 0.849509 3.238221
-1.588184 0.850485 3.244630
-1.558964 0.843006 3.218623
-1.549493 0.846164 3.233085
-1.531122 0.844476 3.228912
-1.513931 0.843413 3.226991
-1.495565 0.841667 3.222333
-1.477578 0.840101 3.218241
-1.466539 0.842494 3.229205
-1.453128 0.843561 3.234984
-0.975736 0.572443 2.196345
-0.966066 0.572853 2.198925
-0.964923 0.578384 2.221102
-1.425912 0.864082 3.319550
-1.412125 0.865219 3.325142
-1.396409 0.865187 3.326146
-1.386058 0.868516 3.339989
-1.372167 0.869679 3.345417
-0.729474 0.467708 1.799613
-0.731827 0.474728 1.827054
-0.722140 0.474012 1.824685
-0.711766 0.472823 1.820451
-0.707768 0.475892 1.832572
-0.318889 0.258492 0.995758
-0.313982 0.258308 0.994959
-0.309835 0.258754 0.996572
-0.305507 0.259060 0.997636
-0.300690 0.258954 0.997104
-0.296096 0.259040 0.997297
-0.291539 0.259162 0.997621
-0.286624 0.258965 0.996703
-0.281698 0.258751 0.995715
-0.276663 0.258429 0.994300
-0.271691 0.258154 0.993061
-0.266123 0.257294 0.989565
-0.260581 0.256431 0.986046
-0.253063 0.253554 0.974786
-0.245986 0.251023 0.964847
-0.238842 0.248326 0.954273
-0.233115 0.247028 0.949073
-0.224473 0.242528 0.931572
-0.220342 0.242822 0.932482
-0.170096 0.191270 0.734339
-0.163767 0.187986 0.721555
-0.158932 0.186314 0.714962
-0.156235 0.187129 0.717914
-0.151122 0.185023 0.709656
-0.147241 0.184365 0.706953
-0.141066 0.180736 0.692863
-0.136364 0.178868 0.685524
-0.130734 0.175661 0.673060
-0.128370 0.176792 0.677222
-0.132974 0.187824 0.719296
-0.127935 0.185457 0.710047
-0.125097 0.186240 0.712861
-0.122721 0.187772 0.718545
-0.118999 0.187275 0.716459
-0.115680 0.187401 0.716760
-0.112625 0.187975 0.718776
-0.108692 0.187075 0.715157
-0.103464 0.183816 0.702524
-0.100215 0.183973 0.702954
-0.031965 0.065194 0.248929
-0.030863 0.065366 0.249528
-0.029226 0.064372 0.245681
-0.028006 0.064254 0.245177
-0.026617 0.063720 0.243086
-0.025313 0.063350 0.241623
-0.023932 0.062742 0.239255
-0.022634 0.062305 0.237544
-0.021272 0.061633 0.234936
-0.020004 0.061178 0.233160
-0.018930 0.061294 0.233558
-0.017688 0.060848 0.231821
-0.016356 0.060015 0.228609
-0.014997 0.058954 0.224531
-0.013937 0.058996 0.224659
-0.012858 0.058959 0.224487
-0.011675 0.058397 0.222317
-0.010579 0.058200 0.221537
-0.009136 0.055837 0.212518
-0.008125 0.055861 0.212584
-0.007134 0.056037 0.213232
-0.006152 0.056366 0.214463
-0.005205 0.057210 0.217657
-0.004178 0.057370 0.218248
-0.003141 0.057453 0.218546
-0.002105 0.057658 0.219315
-0.001065 0.058048 0.220782
-0.000011 0.058794 0.223613
0.001064 0.059187 0.225095
0.002143 0.059287 0.225469
0.003230 0.059482 0.226208
0.004319 0.059599 0.226651
0.005420 0.059800 0.227414
0.006544 0.060144 0.228722
0.007646 0.060217 0.229002
0.008756 0.060326 0.229420
0.009888 0.060551 0.230282
0.011043 0.060848 0.231422
0.012204 0.061129 0.232499
0.013350 0.061291 0.233128
0.014481 0.061361 0.233407
0.015651 0.061579 0.234254
0.016802 0.061695 0.234710
0.017977 0.061880 0.235433
0.019255 0.062378 0.237351
0.020403 0.062422 0.237538
0.021555 0.062470 0.237748
0.022714 0.062534 0.238017
0.023910 0.062690 0.238635
0.025087 0.062783 0.239020
0.026380 0.063147 0.240435
0.027643 0.063411 0.241472
0.028895 0.063628 0.242331
0.030080 0.063688 0.242594
0.031307 0.063828 0.243160
0.032520 0.063931 0.243592
0.033752 0.064062 0.244127
0.034973 0.064165 0.244556
0.036189 0.064252 0.244928
0.037597 0.064664 0.246537
0.038907 0.064888 0.247435
0.040178 0.065035 0.248035
0.041509 0.065267 0.248963
0.042927 0.065620 0.250353
0.044222 0.065770 0.250969
0.045513 0.065906 0.251533
0.046792 0.066019 0.252007
0.048006 0.066036 0.252117
0.049358 0.066238 0.252933
0.050758 0.066494 0.253951
0.052147 0.066722 0.254870
0.053509 0.066908 0.255622
0.055052 0.067306 0.257186
0.056363 0.067408 0.257619
0.057805 0.067660 0.258626
0.059088 0.067719 0.258891
0.060437 0.067849 0.259430
0.062005 0.068215 0.260872
0.063221 0.068188 0.260806
0.064550 0.068280 0.261197
0.066021 0.068517 0.262139
0.067405 0.068655 0.262704
0.068763 0.068763 0.263149
0.070141 0.068887 0.263656
0.071534 0.069021 0.264196
0.072887 0.069112 0.264573
0.074200 0.069162 0.264792
0.075592 0.069284 0.265280
0.076726 0.069168 0.264858
0.077919 0.069108 0.264648
0.079222 0.069147 0.264809
0.080392 0.069070 0.264526
0.081316 0.068787 0.263452
0.082015 0.068326 0.261691
0.080984 0.066457 0.254538
0.081943 0.066254 0.253758
0.083048 0.066172 0.253441
0.084080 0.066036 0.252910
0.085003 0.065818 0.252065
0.085894 0.065583 0.251146
0.086526 0.065158 0.249501
0.087532 0.065023 0.248959
0.088378 0.064774 0.247979
0.089060 0.064413 0.246564
0.089885 0.064164 0.245571
0.090767 0.063961 0.244751
0.091676 0.063782 0.244020
0.092594 0.063614 0.243324
0.093486 0.063431 0.242568
0.094338 0.063227 0.241725
0.095212 0.063042 0.240948
0.096098 0.062869 0.240213
0.096982 0.062700 0.239485
0.097242 0.062134 0.237239
0.097268 0.061435 0.234479
0.097775 0.061051 0.232916
0.098389 0.060742 0.231634
0.098901 0.060379 0.230136
0.099282 0.059943 0.228359
0.099454 0.059393 0.226139
0.099619 0.058849 0.223942
0.100054 0.058476 0.222385
0.101082 0.058453 0.222153
0.101744 0.058221 0.221119
0.102454 0.058021 0.220201
0.103184 0.057836 0.219330
0.103939 0.057668 0.218519
0.104756 0.057538 0.217842
0.105516 0.057380 0.217049
0.106184 0.057175 0.216070
0.106690 0.056888 0.214771
0.107449 0.056739 0.213989
0.108384 0.056686 0.213556
0.109110 0.056525 0.212705
0.109847 0.056373 0.211878
0.110718 0.056292 0.211308
0.111542 0.056188 0.210639
-1.078615 0.540957 2.007085
-1.063450 0.538144 1.999153
-1.043962 0.533074 1.982689
-1.020832 0.526034 1.958738
-1.012532 0.526577 1.962896
-0.917775 0.481748 1.797651
-0.918033 0.486420 1.816876
-0.895470 0.478973 1.790743
-1.590672 0.858991 3.214386
-1.577196 0.859965 3.220760
-1.557400 0.857480 3.214036
-1.538890 0.855661 3.209665
-1.530053 0.859238 3.225412
-1.511193 0.857202 3.219968
-1.492141 0.855015 3.213827
-1.477765 0.855491 3.217572
-1.456835 0.852143 3.206819
-1.443492 0.853210 3.212564
-0.975357 0.582630 2.194868
-0.959895 0.579548 2.184291
-0.948767 0.579045 2.183360
-1.433757 0.884641 3.337019
-1.419875 0.885793 3.342644
-1.394636 0.879807 3.321232
-1.376334 0.878112 3.315915
-1.362522 0.879275 3.321306
-0.739009 0.482440 1.822833
-0.734991 0.485454 1.834676
-0.723223 0.483359 1.827171
-0.714637 0.483366 1.827569
-0.709376 0.485650 1.836534
-0.322057 0.261963 0.991224
-0.318534 0.262904 0.994716
-0.313816 0.262870 0.994511
-0.309689 0.263339 0.996191
-0.305411 0.263691 0.997422
-0.300747 0.263717 0.997404
-0.296168 0.263819 0.997662
-0.291411 0.263763 0.997313
-0.286396 0.263469 0.996055
-0.281595 0.263364 0.995503
-0.276467 0.262945 0.993757
-0.271271 0.262446 0.991700
-0.265835 0.261695 0.988679
-0.260087 0.260603 0.984369
-0.253439 0.258554 0.976436
-0.246216 0.255831 0.965960
-0.240003 0.254076 0.959130
-0.229046 0.247134 0.932726
-0.224918 0.247434 0.933651
-0.166421 0.190546 0.718668
-0.163940 0.191612 0.722520
-0.160072 0.191067 0.720296
-0.154238 0.188102 0.708948
-0.149256 0.186067 0.701110
-0.145119 0.185018 0.696984
-0.140493 0.183280 0.690270
-0.136130 0.181813 0.684574
-0.131065 0.179313 0.674995
-0.127486 0.178774 0.672797
-0.133316 0.191738 0.721404
-0.127661 0.188433 0.708793
-0.124922 0.189369 0.712136
-0.122442 0.190760 0.717189
-0.118728 0.190255 0.715113
-0.115439 0.190419 0.715557
-0.112434 0.191078 0.717858
-0.108708 0.190514 0.715563
-0.103718 0.187627 0.704553
-0.097955 0.183103 0.687404
-0.094770 0.183254 0.687810
-0.028340 0.066206 0.248215
-0.027178 0.066251 0.248333
-0.025644 0.065349 0.244903
-0.024350 0.065005 0.243566
-0.022965 0.064372 0.241147
-0.021626 0.063804 0.238976
-0.019889 0.061936 0.231938
-0.018715 0.061708 0.231041
-0.017550 0.061481 0.230153
-0.016492 0.061623 0.230647
-0.015253 0.061058 0.228499
-0.014036 0.060507 0.226401
-0.012796 0.059753 0.223551
-0.011739 0.059797 0.223687
-0.010604 0.059408 0.222203
-0.009220 0.057391 0.214633
-0.008177 0.057253 0.214092
