ply
format ascii 1.0
element vertex 1745
property float x
property float y
property float z
end_header
-0.165253 0.198056 0.686759
-0.160756 0.196517 0.681302
-0.156039 0.194640 0.674671
-0.153279 0.195177 0.676407
-0.148072 0.192555 0.667193
-0.144240 0.191647 0.663917
-0.140011 0.190159 0.658633
-0.136812 0.190034 0.658065
-0.132291 0.188025 0.650975
-0.128525 0.187018 0.647356
-0.136988 0.204191 0.706655
-0.133782 0.204395 0.707210
-0.130813 0.204981 0.709089
-0.127690 0.205349 0.710214
-0.124366 0.205405 0.710255
-0.121294 0.205894 0.711796
-0.117736 0.205561 0.710495
-0.113851 0.204620 0.707095
-0.108847 0.201553 0.696349
-0.103380 0.197409 0.681892
-0.097385 0.191957 0.662921
-0.093680 0.190806 0.658811
-0.090258 0.190174 0.656495
-0.086426 0.188601 0.650935
-0.082641 0.187016 0.645340
-0.030583 0.074743 0.257819
-0.029282 0.074546 0.257091
-0.028018 0.074429 0.256641
-0.026454 0.073467 0.253279
-0.025012 0.072769 0.250826
-0.023808 0.072729 0.250646
-0.022474 0.072266 0.249011
-0.021198 0.071951 0.247886
-0.019822 0.071236 0.245385
-0.018607 0.071048 0.244699
-0.017311 0.070508 0.242804
-0.016020 0.069910 0.240713
-0.014882 0.069938 0.240778
-0.013001 0.066191 0.227848
-0.012418 0.068975 0.237402
-0.011237 0.068657 0.236281
-0.009952 0.067560 0.232482
-0.008668 0.066203 0.227791
-0.007363 0.064275 0.221137
-0.006305 0.064216 0.220914
-0.005269 0.064407 0.221553
-0.004230 0.064644 0.222351
-0.003185 0.064917 0.223277
-0.002126 0.065042 0.223690
-0.001061 0.065086 0.223831
0.000005 0.065188 0.224172
0.001076 0.065415 0.224942
0.002176 0.066275 0.227893
0.003265 0.066351 0.228149
0.004363 0.066513 0.228703
0.005515 0.067285 0.231354
0.006614 0.067252 0.231240
0.007721 0.067297 0.231396
0.008858 0.067555 0.232284
0.009991 0.067732 0.232898
0.011165 0.068126 0.234257
0.012307 0.068267 0.234752
0.013477 0.068531 0.235666
0.014609 0.068574 0.235823
0.015851 0.069090 0.237609
0.017033 0.069291 0.238315
0.018181 0.069337 0.238486
0.019348 0.069446 0.238878
0.020521 0.069564 0.239300
0.021697 0.069680 0.239720
0.022877 0.069794 0.240130
0.024109 0.070050 0.241031
0.025305 0.070182 0.241507
0.026684 0.070789 0.243621
0.027774 0.070609 0.243026
0.029130 0.071094 0.244720
0.030344 0.071208 0.245137
0.031603 0.071413 0.245870
0.032947 0.071789 0.247195
0.034151 0.071846 0.247419
0.035351 0.071890 0.247602
0.036587 0.072003 0.248019
0.037859 0.072177 0.248650
0.039169 0.072410 0.249484
0.040519 0.072701 0.250520
0.041936 0.073091 0.251895
0.043358 0.073470 0.253233
0.044544 0.073438 0.253156
0.045860 0.073617 0.253805
0.047120 0.073699 0.254120
0.048529 0.074002 0.255199
0.050053 0.074464 0.256825
0.051209 0.074368 0.256523
0.052431 0.074370 0.256564
0.053758 0.074518 0.257103
0.054934 0.074454 0.256914
0.056540 0.074964 0.258701
0.058257 0.075595 0.260907
0.059627 0.075760 0.261505
0.060857 0.075742 0.261472
0.062182 0.075842 0.261840
0.063550 0.075989 0.262372
0.064965 0.076185 0.263073
0.066472 0.076480 0.264113
0.067750 0.076506 0.264220
0.069032 0.076534 0.264333
0.070378 0.076631 0.264685
0.071727 0.076727 0.265031
0.073041 0.076785 0.265242
0.074186 0.076665 0.264834
0.075453 0.076672 0.264865
0.076438 0.076398 0.263922
0.077282 0.075994 0.262526
0.076359 0.073893 0.255263
0.077344 0.073675 0.254507
0.078317 0.073452 0.253727
0.079489 0.073420 0.253605
0.080275 0.073038 0.252268
0.081222 0.072811 0.251465
0.081920 0.072370 0.249919
0.082319 0.071682 0.247517
0.082959 0.071220 0.245892
0.083837 0.070973 0.245002
0.084674 0.070698 0.244013
0.085530 0.070445 0.243099
0.086470 0.070268 0.242439
0.087341 0.070040 0.241602
0.088263 0.069858 0.240916
0.089167 0.069667 0.240196
0.090079 0.069487 0.239508
0.091005 0.069321 0.238865
0.091794 0.069058 0.237879
0.092655 0.068853 0.237091
0.093427 0.068589 0.236093
0.094243 0.068362 0.235218
0.094969 0.068076 0.234134
0.095914 0.067952 0.233599
0.096737 0.067746 0.232776
0.097427 0.067452 0.231646
0.097975 0.067067 0.230198
0.097705 0.066137 0.226874
0.098157 0.065711 0.225273
0.098579 0.065274 0.223630
0.099094 0.064907 0.222221
0.099690 0.064601 0.221014
0.100187 0.064238 0.219604
0.100799 0.063955 0.218461
0.100910 0.063363 0.216259
0.101183 0.062884 0.214432
0.101632 0.062523 0.213003
0.102387 0.062355 0.212224
0.102970 0.062088 0.211097
0.103424 0.061748 0.209715
0.104090 0.061540 0.208775
0.104875 0.061406 0.208073
0.105671 0.061280 0.207392
0.106448 0.061146 0.206669
0.107262 0.061035 0.206016
0.108082 0.060930 0.205371
0.108978 0.060869 0.204861
-1.055999 0.586405 1.956538
-1.041637 0.583627 1.950017
-1.033180 0.584139 1.954358
-0.940270 0.536475 1.797203
-0.927064 0.533826 1.790533
-0.926118 0.538253 1.807507
-0.918374 0.538777 1.811298
-1.646970 0.975400 3.282681
-1.617470 0.967120 3.258142
-1.591606 0.960875 3.240257
-1.580386 0.963436 3.251909
-1.555372 0.957556 3.234918
-1.531519 0.952281 3.219800
-1.510228 0.948510 3.209610
-1.490854 0.945878 3.203132
-1.477342 0.946950 3.209069
-0.988272 0.640051 2.170514
-0.981942 0.642634 2.180678
-0.979665 0.647953 2.200067
-0.959627 0.641513 2.179453
-1.455256 0.983398 3.342776
-1.431684 0.978083 3.326407
-1.437071 0.992654 3.377579
-1.448383 1.011691 3.443901
-0.735564 0.519618 1.769579
-0.742088 0.530243 1.806471
-0.732996 0.529828 1.805715
-0.716089 0.523688 1.785393
-0.708784 0.524507 1.788747
-0.694770 0.520322 1.774988
-0.333027 0.291503 0.996216
-0.326874 0.290201 0.991800
-0.321450 0.289516 0.989478
-0.317502 0.290161 0.991689
-0.313105 0.290409 0.992525
-0.308557 0.290522 0.992891
-0.303883 0.290518 0.992841
-0.299614 0.290908 0.994126
-0.295078 0.291047 0.994543
-0.290405 0.291052 0.994491
-0.285571 0.290895 0.993871
-0.280153 0.290128 0.991159
-0.274327 0.288905 0.986883
-0.268376 0.287507 0.981997
-0.261921 0.285510 0.975059
-0.257637 0.285851 0.976099
-0.248130 0.280303 0.957025
-0.243908 0.280632 0.958013
-0.165813 0.201992 0.689231
-0.159552 0.198249 0.676345
-0.156101 0.197916 0.675093
-0.153021 0.198050 0.675430
-0.147039 0.194354 0.662703
-0.142758 0.192794 0.657264
-0.138955 0.191825 0.653836
-0.135597 0.191442 0.652403
-0.131680 0.190233 0.648156
-0.127694 0.188864 0.643364
-0.133579 0.207440 0.706361
-0.130299 0.207533 0.706534
-0.127300 0.208088 0.708280
-0.124157 0.208432 0.709308
-0.120694 0.208245 0.708526
-0.117107 0.207825 0.706954
-0.113598 0.207525 0.705791
-0.109437 0.205980 0.700392
-0.104462 0.202756 0.689293
-0.097831 0.196010 0.666224
-0.093449 0.193469 0.657458
-0.089579 0.191850 0.651830
-0.085969 0.190692 0.647768
-0.082197 0.189077 0.642158
-0.079210 0.189211 0.642494
-0.029322 0.075878 0.257560
-0.027920 0.075390 0.255859
-0.026584 0.075047 0.254649
-0.025033 0.074032 0.251164
-0.023845 0.074045 0.251165
-0.022570 0.073775 0.250209
-0.021217 0.073204 0.248237
-0.019912 0.072741 0.246629
-0.018548 0.071994 0.244061
-0.017239 0.071377 0.241935
-0.016005 0.070999 0.240622
-0.014779 0.070606 0.239256
-0.013593 0.070357 0.238383
-0.012395 0.069988 0.237107
-0.011216 0.069665 0.235987
-0.009985 0.068917 0.233428
-0.008712 0.067650 0.229113
-0.007466 0.066266 0.224405
-0.006287 0.065115 0.220489
-0.005241 0.065152 0.220598
-0.004223 0.065635 0.222216
-0.003177 0.065875 0.223014
-0.002118 0.065949 0.223251
-0.001056 0.066002 0.223421
0.000008 0.066155 0.223928
0.001075 0.066246 0.224228
0.002150 0.066480 0.225013
0.003274 0.067570 0.228695
0.004377 0.067778 0.229395
0.005500 0.068161 0.230688
0.006600 0.068175 0.230736
0.007719 0.068355 0.231345
0.008841 0.068510 0.231872
0.009971 0.068689 0.232480
0.011160 0.069194 0.234196
0.012315 0.069418 0.234959
0.013451 0.069504 0.235260
0.014599 0.069633 0.235703
0.015794 0.069953 0.236800
0.016949 0.070064 0.237187
0.018113 0.070198 0.237654
0.019268 0.070283 0.237955
0.020436 0.070403 0.238378
0.021648 0.070651 0.239235
0.022874 0.070919 0.240162
0.024072 0.071081 0.240729
0.025263 0.071204 0.241168
0.026570 0.071633 0.242641
0.027895 0.072071 0.244149
0.029102 0.072181 0.244547
0.030366 0.072418 0.245373
0.031586 0.072535 0.245798
0.032829 0.072697 0.246372
0.034064 0.072831 0.246853
0.035215 0.072780 0.246709
0.036439 0.072879 0.247072
0.037749 0.073139 0.247982
0.039071 0.073405 0.248913
0.040503 0.073857 0.250477
0.042029 0.074448 0.252512
0.043273 0.074521 0.252789
0.044499 0.074559 0.252950
0.045736 0.074615 0.253169
0.046977 0.074673 0.253397
0.048255 0.074786 0.253809
0.049946 0.075516 0.256319
0.051209 0.075581 0.256567
0.052476 0.075648 0.256825
0.053722 0.075683 0.256971
0.055212 0.076052 0.258252
0.056665 0.076355 0.259309
0.057892 0.076348 0.259312
0.059181 0.076420 0.259581
0.060706 0.076788 0.260854
0.062133 0.077019 0.261663
0.063567 0.077250 0.262469
0.064868 0.077313 0.262704
0.066190 0.077398 0.263012
0.067470 0.077432 0.263144
0.068882 0.077615 0.263779
0.070184 0.077667 0.263968
0.071620 0.077864 0.264647
0.072947 0.077939 0.264908
0.074162 0.077892 0.264754
0.075706 0.078186 0.265759
0.076403 0.077611 0.263801
0.076754 0.076708 0.260730
0.076912 0.075644 0.257108
0.077154 0.074694 0.253870
0.078281 0.074618 0.253600
0.079358 0.074497 0.253171
0.080197 0.074158 0.252003
0.081335 0.074103 0.251793
0.082575 0.074141 0.251894
0.082793 0.073273 0.248915
0.082820 0.072262 0.245449
0.083678 0.071995 0.244502
0.084667 0.071846 0.243955
0.085578 0.071636 0.243195
0.086515 0.071453 0.242523
0.087449 0.071272 0.241853
0.088337 0.071059 0.241070
0.089291 0.070904 0.240478
0.090219 0.070732 0.239826
0.091094 0.070524 0.239042
0.091766 0.070165 0.237745
0.092552 0.069901 0.236763
0.093474 0.069745 0.236142
0.094246 0.069481 0.235151
0.095065 0.069259 0.234293
0.095938 0.069080 0.233578
0.096778 0.068882 0.232791
0.097639 0.068703 0.232062
0.098317 0.068401 0.230910
0.098711 0.067910 0.229116
0.099100 0.067426 0.227339
0.099285 0.066816 0.225131
0.099698 0.066370 0.223471
0.100077 0.065912 0.221763
0.100657 0.065594 0.220521
0.100699 0.064936 0.218129
0.100735 0.064287 0.215764
0.101096 0.063857 0.214126
0.101650 0.063556 0.212913
0.102255 0.063293 0.211819
0.102937 0.063082 0.210893
0.103479 0.062790 0.209687
0.104175 0.062597 0.208798
0.104875 0.062409 0.207923
0.105673 0.062283 0.207240
0.106371 0.062101 0.206361
0.106911 0.061830 0.205177
0.107774 0.061750 0.204614
0.108645 0.061675 0.204058
-1.065380 0.601166 1.972310
-1.040336 0.592310 1.946051
-1.031870 0.592817 1.950399
-0.928528 0.538329 1.773461
-0.923311 0.540249 1.782025
-0.923709 0.545521 1.801579
-1.647879 1.001210 3.317377
-1.610148 0.987764 3.276088
-1.580623 0.979138 3.250566
-1.546243 0.967305 3.214190
-1.523625 0.962668 3.201539
-1.498226 0.956164 3.182514
-1.470968 0.948329 3.158893
-1.002080 0.659472 2.199874
-0.984672 0.654825 2.185823
-0.968135 0.650665 2.173301
-0.967852 0.657457 2.197292
-1.454067 0.998459 3.338826
-1.439734 0.999463 3.343949
-1.450964 1.018433 3.409109
-1.442255 1.023677 3.428261
-0.745937 0.535454 1.794004
-0.738784 0.536406 1.797927
-0.732668 0.538142 1.804434
-0.718921 0.534248 1.792012
-0.698809 0.525475 1.763168
-0.694107 0.528219 1.772914
-0.332927 0.296122 0.995876
-0.326999 0.295000 0.992148
-0.321329 0.294081 0.989089
-0.317545 0.294887 0.991817
-0.312708 0.294725 0.991275
-0.308093 0.294770 0.991417
-0.303479 0.294818 0.991555
-0.298850 0.294853 0.991638
-0.294263 0.294931 0.991853
-0.289335 0.294665 0.990897
-0.284621 0.294611 0.990648
-0.278956 0.293555 0.987018
-0.274146 0.293379 0.986337
-0.268252 0.292017 0.981660
-0.263525 0.291900 0.981157
-0.254835 0.287310 0.965618
-0.244286 0.280420 0.942343
-0.231778 0.270985 0.910517
-0.227751 0.271298 0.911439
-0.165582 0.204971 0.688406
-0.158838 0.200552 0.673457
-0.156475 0.201597 0.676857
-0.151987 0.199892 0.671018
-0.146266 0.196458 0.659376
-0.141566 0.194277 0.651941
-0.137516 0.192909 0.647236
-0.133361 0.191330 0.641818
-0.130274 0.191245 0.641415
-0.126032 0.189421 0.635175
-0.123155 0.189608 0.635683
-0.130003 0.210411 0.705153
-0.126842 0.210695 0.705966
-0.123755 0.211119 0.707250
-0.120215 0.210775 0.705957
-0.116764 0.210572 0.705138
-0.113325 0.210378 0.704354
-0.108293 0.207127 0.693331
-0.105100 0.207298 0.693771
-0.096757 0.196999 0.659173
-0.093078 0.195822 0.655110
-0.089327 0.194410 0.650262
-0.085527 0.192786 0.644711
-0.081631 0.190818 0.638013
-0.077252 0.187527 0.626894
-0.074332 0.187655 0.627208
-0.029390 0.077288 0.258280
-0.027803 0.076293 0.254911
-0.026415 0.075779 0.253151
-0.025105 0.075451 0.252013
-0.023892 0.075395 0.251783
-0.022633 0.075182 0.251035
-0.021349 0.074856 0.249909
-0.020062 0.074485 0.248633
-0.018742 0.073934 0.246760
-0.017291 0.072756 0.242793
-0.016007 0.072168 0.240800
-0.014758 0.071658 0.239069
-0.013592 0.071499 0.238509
-0.012438 0.071377 0.238076
-0.011221 0.070842 0.236263
-0.010034 0.070390 0.234733
-0.008845 0.069813 0.232787
-0.007700 0.069472 0.231629
-0.006283 0.066148 0.220526
-0.005232 0.066122 0.220422
-0.004198 0.066337 0.221126
-0.003164 0.066716 0.222373
-0.002111 0.066886 0.222928
-0.001050 0.066832 0.222735
0.000010 0.067061 0.223490
0.001082 0.067551 0.225114
0.002177 0.068308 0.227629
0.003265 0.068397 0.227920
0.004353 0.068451 0.228095
0.005444 0.068512 0.228296
0.006584 0.069073 0.230162
0.007650 0.068810 0.229287
0.008823 0.069446 0.231407
0.009961 0.069705 0.232273
0.011149 0.070223 0.234003
0.012280 0.070317 0.234325
0.013432 0.070509 0.234972
0.014594 0.070715 0.235664
0.015730 0.070778 0.235884
0.016891 0.070938 0.236430
0.018050 0.071070 0.236884
0.019209 0.071185 0.237279
0.020413 0.071446 0.238164
0.021633 0.071729 0.239126
0.022860 0.072009 0.240077
0.024096 0.072288 0.241026
0.025323 0.072516 0.241805
0.026577 0.072796 0.242759
0.027788 0.072943 0.243271
0.029053 0.073212 0.244190
0.030266 0.073336 0.244627
0.031533 0.073574 0.245446
0.032829 0.073861 0.246430
0.034029 0.073922 0.246658
0.035294 0.074112 0.247319
0.036563 0.074300 0.247972
0.037951 0.074710 0.249368
0.039117 0.074670 0.249262
0.040501 0.075036 0.250513
0.041872 0.075360 0.251622
0.043263 0.075698 0.252781
0.044517 0.075786 0.253103
0.045771 0.075870 0.253410
0.047129 0.076116 0.254262
0.048323 0.076092 0.254211
0.049933 0.076708 0.256295
0.051216 0.076805 0.256648
0.052531 0.076943 0.257135
0.053814 0.077029 0.257449
0.055190 0.077243 0.258190
0.056527 0.077392 0.258711
0.057916 0.077606 0.259452
0.059312 0.077819 0.260186
0.060571 0.077847 0.260302
0.061921 0.077989 0.260798
0.063250 0.078099 0.261184
0.064847 0.078530 0.262641
0.066080 0.078511 0.262594
0.067407 0.078603 0.262914
0.068684 0.078635 0.263032
0.070071 0.078789 0.263557
0.071401 0.078874 0.263850
0.072757 0.078984 0.264223
0.074014 0.078985 0.264226
0.075219 0.078931 0.264049
0.076042 0.078485 0.262553
0.076987 0.078177 0.261515
0.076285 0.076233 0.255003
0.076985 0.075729 0.253304
0.078075 0.075618 0.252918
0.079103 0.075451 0.252341
0.079993 0.075159 0.251343
0.080874 0.074868 0.250342
0.081602 0.074445 0.248900
0.082443 0.074136 0.247834
0.083104 0.073676 0.246257
0.083781 0.073243 0.244769
0.084662 0.072997 0.243904
0.085545 0.072760 0.243059
0.086415 0.072518 0.242198
0.087299 0.072294 0.241391
0.088202 0.072091 0.240649
0.089198 0.071969 0.240172
0.090209 0.071861 0.239739
0.091070 0.071639 0.238916
0.091778 0.071302 0.237708
0.092498 0.070983 0.236555
0.093458 0.070854 0.236027
0.094249 0.070601 0.235083
0.095063 0.070371 0.234207
0.095876 0.070146 0.233343
0.096769 0.069983 0.232681
0.097636 0.069806 0.231962
0.098340 0.069517 0.230869
0.098783 0.069053 0.229184
0.099159 0.068551 0.227372
0.099475 0.068020 0.225454
0.099753 0.067475 0.223484
0.100298 0.067120 0.222139
0.100946 0.066840 0.221037
0.101411 0.066446 0.219548
0.101746 0.065977 0.217803
0.101522 0.065157 0.214898
0.101732 0.064631 0.212953
0.102533 0.064486 0.212259
0.103177 0.064246 0.211243
0.103651 0.063906 0.209888
0.104153 0.063590 0.208604
0.104770 0.063349 0.207559
0.105468 0.063162 0.206677
0.106096 0.062936 0.205662
0.106806 0.062763 0.204805
0.107294 0.062464 0.203527
0.108079 0.062341 0.202814
-1.057176 0.606017 1.955470
-1.043359 0.603471 1.950115
-1.034848 0.603976 1.954489
-0.937941 0.552427 1.790079
-0.921311 0.547645 1.776863
-0.919537 0.551687 1.792175
-0.911815 0.552203 1.795958
-1.646862 1.016492 3.313233
-1.611416 1.004249 3.276672
-1.594629 1.003510 3.277447
-1.564918 0.994544 3.251178
-1.529754 0.981899 3.212677
-1.517170 0.983640 3.221077
-1.503504 0.984708 3.227152
-1.001323 0.669446 2.197204
-0.983945 0.664739 2.183248
-0.982840 0.671045 2.205385
-0.972542 0.671141 2.207053
-1.454594 1.014693 3.338759
-1.440497 1.015884 3.344503
-1.452445 1.035673 3.411406
-1.460697 1.053241 3.470955
-0.747700 0.545249 1.797683
-0.733826 0.541274 1.785336
-0.725558 0.541389 1.786426
-0.712227 0.537685 1.774863
-0.689797 0.526942 1.740000
-0.336911 0.304429 1.007738
-0.327079 0.299763 0.992351
-0.320657 0.298131 0.986993
-0.317150 0.299202 0.990568
-0.312500 0.299212 0.990615
-0.307541 0.298921 0.989652
-0.302988 0.299021 0.989974
-0.298316 0.299006 0.989900
-0.293556 0.298901 0.989517
-0.288425 0.298409 0.987842
-0.282548 0.297116 0.983504
-0.276881 0.296006 0.979760
-0.271466 0.295131 0.976789
-0.265127 0.293206 0.970330
-0.258814 0.291241 0.963732
-0.251330 0.287866 0.952464
-0.245154 0.285893 0.945829
-0.235662 0.279909 0.925918
-0.226956 0.274651 0.908407
-0.222928 0.274961 0.909310
-0.163903 0.206120 0.681552
-0.157536 0.202073 0.668070
-0.155441 0.203452 0.672527
-0.150893 0.201611 0.666337
-0.145495 0.198531 0.656050
-0.140846 0.196364 0.648780
-0.136803 0.194963 0.644041
-0.133067 0.193947 0.640571
-0.129691 0.193420 0.638717
-0.125630 0.191822 0.633325
-0.122705 0.191923 0.633543
-0.132497 0.212418 0.701070
-0.129309 0.212620 0.701604
-0.126464 0.213412 0.704089
-0.123040 0.213243 0.703397
-0.119471 0.212808 0.701828
-0.115635 0.211858 0.698565
-0.112266 0.211733 0.698021
-0.106963 0.207843 0.685067
-0.100571 0.201528 0.664130
-0.095716 0.197984 0.652329
-0.091500 0.195572 0.644263
-0.087925 0.194410 0.640318
-0.084737 0.194052 0.639021
-0.080934 0.192207 0.632834
-0.077991 0.192341 0.633163
-0.030346 0.077834 0.256174
-0.029151 0.077884 0.256298
-0.027592 0.076923 0.253090
-0.026299 0.076652 0.252158
-0.024937 0.076144 0.250449
-0.023736 0.076101 0.250266
-0.022514 0.075982 0.249838
-0.021243 0.075678 0.248802
-0.019958 0.075283 0.247467
-0.018653 0.074760 0.245715
-0.017314 0.074024 0.243262
-0.016007 0.073327 0.240940
-0.014729 0.072667 0.238742
-0.013542 0.072381 0.237777
-0.012379 0.072187 0.237112
-0.011216 0.071950 0.236308
-0.010039 0.071567 0.235027
-0.008869 0.071135 0.233588
-0.007688 0.070488 0.231442
-0.006392 0.068392 0.224540
-0.005218 0.067016 0.220007
-0.004191 0.067335 0.221038
-0.003148 0.067495 0.221550
-0.002100 0.067669 0.222108
-0.001048 0.067954 0.223031
0.000013 0.068321 0.224226
0.001083 0.068518 0.224865
0.002164 0.068884 0.226059
0.003256 0.069224 0.227168
0.004340 0.069286 0.227367
0.005437 0.069472 0.227975
0.006562 0.069910 0.229408
0.007702 0.070347 0.230845
0.008827 0.070554 0.231525
0.009924 0.070520 0.231415
0.011088 0.070925 0.232749
0.012222 0.071078 0.233253
0.013387 0.071368 0.234213
0.014614 0.071921 0.236036
0.015743 0.071948 0.236133
0.016885 0.072026 0.236400
0.018059 0.072219 0.237045
0.019235 0.072402 0.237658
0.020419 0.072588 0.238284
0.021602 0.072752 0.238838
0.022755 0.072806 0.239032
0.024036 0.073240 0.240476
0.025268 0.073495 0.241331
0.026522 0.073789 0.242315
0.027731 0.073938 0.242824
0.029010 0.074254 0.243885
0.030323 0.074630 0.245143
0.031523 0.074711 0.245429
0.032725 0.074788 0.245706
0.033944 0.074898 0.246092
0.035199 0.075077 0.246707
0.036292 0.074912 0.246188
0.037474 0.074934 0.246286
0.039075 0.075767 0.249048
0.040454 0.076131 0.250273
0.041704 0.076242 0.250664
0.043143 0.076680 0.252130
0.044452 0.076870 0.252782
0.045681 0.076916 0.252958
0.047012 0.077126 0.253677
0.048256 0.077186 0.253899
0.049637 0.077457 0.254818
0.051025 0.077727 0.255729
0.052300 0.077814 0.256042
0.053665 0.078029 0.256774
0.054847 0.077975 0.256618
0.056770 0.078953 0.259857
0.058220 0.079245 0.260842
0.059375 0.079131 0.260487
0.060571 0.079078 0.260329
0.061938 0.079243 0.260890
0.063436 0.079567 0.261974
0.064643 0.079519 0.261832
0.065886 0.079518 0.261839
0.067268 0.079681 0.262388
0.068494 0.079656 0.262313
0.069764 0.079683 0.262410
0.071164 0.079854 0.262977
0.072721 0.080193 0.264093
0.073807 0.080010 0.263489
0.075432 0.080407 0.264793
0.076189 0.079880 0.263052
0.076394 0.078801 0.259492
0.075845 0.076992 0.253520
0.076821 0.076762 0.252749
0.078134 0.076872 0.253091
0.079109 0.076649 0.252337
0.079914 0.076272 0.251069
0.080634 0.075826 0.249572
0.081669 0.075684 0.249072
0.082363 0.075235 0.247558
0.082865 0.074626 0.245514
0.083919 0.074524 0.245132
0.084702 0.074187 0.243974
0.085412 0.073796 0.242636
0.086386 0.073641 0.242067
0.087304 0.073442 0.241351
0.088110 0.073156 0.240342
0.089003 0.072948 0.239586
0.089739 0.072618 0.238427
0.090753 0.072519 0.238017
0.091285 0.072041 0.236361
0.092161 0.071843 0.235618
0.093125 0.071719 0.235109
0.094036 0.071556 0.234469
0.094965 0.071411 0.233881
0.095753 0.071164 0.232955
0.096716 0.071052 0.232461
0.097601 0.070885 0.231782
0.098401 0.070661 0.230910
0.099159 0.070412 0.229951
0.099525 0.069893 0.228103
0.100135 0.069556 0.226840
0.100666 0.069170 0.225415
0.101078 0.068712 0.223746
0.101501 0.068272 0.222128
0.101760 0.067730 0.220176
0.102063 0.067230 0.218350
0.102073 0.066548 0.215930
0.102133 0.065912 0.213653
0.102504 0.065488 0.212055
0.102939 0.065112 0.210608
0.103555 0.064858 0.209543
0.104130 0.064582 0.208402
0.104654 0.064281 0.207167
0.105289 0.064053 0.206161
0.105736 0.063715 0.204792
0.106147 0.063363 0.203367
0.107009 0.063284 0.202806
0.107885 0.063214 0.202262
-1.060344 0.617342 1.959613
-1.040919 0.611478 1.943911
-1.032407 0.611977 1.948288
-0.932553 0.557846 1.778394
-0.924045 0.557863 1.780782
-0.921250 0.561361 1.794198
-0.901207 0.554317 1.773809
-1.597794 1.011337 3.246915
-1.562245 0.998510 3.208932
-1.520797 0.981624 3.157661
-1.528702 0.996574 3.208656
-1.474759 0.971100 3.129337
-1.001049 0.679732 2.195548
-0.984748 0.675689 2.184027
-0.984307 0.682559 2.207704
-0.971473 0.680891 2.203700
-1.467295 1.050971 3.405416
-1.452891 1.052198 3.411207
-1.459427 1.068789 3.466734
-0.748560 0.554416 1.799159
-0.735252 0.550809 1.788246
-0.722570 0.547594 1.778544
-0.712023 0.545940 1.773860
-0.704512 0.546602 1.776653
-0.333972 0.306496 0.998878
-0.326326 0.303753 0.990012
-0.320885 0.303013 0.987656
-0.316388 0.303155 0.988161
-0.311745 0.303161 0.988208
-0.307085 0.303149 0.988185
-0.302539 0.303251 0.988518
-0.298000 0.303365 0.988876
-0.293143 0.303153 0.988162
-0.288787 0.303460 0.989129
-0.283526 0.302812 0.986970
-0.280289 0.304340 0.991893
-0.272161 0.300520 0.979375
-0.265256 0.297940 0.970893
-0.260990 0.298288 0.971942
-0.250142 0.290991 0.948077
-0.243088 0.287923 0.937982
-0.238943 0.288251 0.938946
-0.226642 0.278566 0.907292
-0.163672 0.209054 0.680713
-0.157548 0.205254 0.668249
-0.155931 0.207291 0.674782
-0.150232 0.203872 0.663555
-0.144591 0.200390 0.652121
-0.139919 0.198127 0.644657
-0.135833 0.196615 0.639632
-0.131839 0.195168 0.634818
-0.128536 0.194701 0.633194
-0.124790 0.193525 0.629261
-0.121630 0.193223 0.628170
-0.119804 0.195079 0.634091
-0.127851 0.213519 0.693905
-0.125936 0.215853 0.701367
-0.122618 0.215844 0.701209
-0.118606 0.214580 0.696976
-0.115690 0.215283 0.699134
-0.112481 0.215466 0.699601
-0.106789 0.210761 0.684202
-0.100407 0.204356 0.663290
-0.095558 0.200761 0.651503
-0.090187 0.195792 0.635264
-0.086549 0.194374 0.630551
-0.083401 0.193992 0.629201
-0.079891 0.192709 0.624935
-0.076985 0.192842 0.625259
-0.029553 0.076990 0.249585
-0.028729 0.077962 0.252695
-0.027532 0.077964 0.252661
-0.026243 0.077692 0.251739
-0.024942 0.077358 0.250618
-0.023659 0.077048 0.249576
-0.022449 0.076956 0.249240
-0.021092 0.076323 0.247157
-0.019776 0.075775 0.245346
-0.018456 0.075140 0.243257
-0.017283 0.075056 0.242955
-0.016006 0.074479 0.241057
-0.014739 0.073867 0.239046
-0.013552 0.073583 0.238101
-0.012396 0.073429 0.237579
-0.011238 0.073234 0.236923
-0.010076 0.072974 0.236057
-0.008856 0.072169 0.233431
-0.007693 0.071665 0.231782
-0.006572 0.071443 0.231045
-0.005299 0.069165 0.223660
-0.004210 0.068732 0.222247
-0.003137 0.068377 0.221085
-0.002091 0.068521 0.221535
-0.001040 0.068682 0.222045
0.000016 0.069369 0.224257
0.001086 0.069579 0.224929
0.002167 0.069946 0.226107
0.003248 0.070088 0.226559
0.004337 0.070266 0.227131
0.005436 0.070511 0.227917
0.006554 0.070882 0.229116
0.007711 0.071496 0.231101
0.008799 0.071410 0.230823
0.009914 0.071530 0.231212
0.011069 0.071888 0.232374
0.012232 0.072226 0.233469
0.013444 0.072775 0.235252
0.014589 0.072905 0.235678
0.015706 0.072884 0.235619
0.016863 0.073039 0.236130
0.018034 0.073235 0.236775
0.019186 0.073332 0.237102
0.020374 0.073546 0.237807
0.021567 0.073757 0.238501
0.022817 0.074132 0.239729
0.024020 0.074326 0.240373
0.025229 0.074520 0.241019
0.026489 0.074839 0.242068
0.027739 0.075105 0.242950
0.028970 0.075301 0.243603
0.030243 0.075588 0.244553
0.031497 0.075805 0.245274
0.032695 0.075879 0.245536
0.033958 0.076093 0.246251
0.035276 0.076409 0.247299
0.036750 0.077034 0.249344
0.037965 0.077094 0.249564
0.039169 0.077128 0.249696
0.040401 0.077214 0.249999
0.041679 0.077379 0.250559
0.042986 0.077587 0.251257
0.044338 0.077864 0.252178
0.045679 0.078107 0.252989
0.046905 0.078146 0.253141
0.048186 0.078272 0.253572
0.049557 0.078535 0.254447
0.050912 0.078760 0.255200
0.052174 0.078835 0.255463
0.053514 0.079020 0.256086
0.054813 0.079138 0.256487
0.056348 0.079585 0.257956
0.057530 0.079524 0.257778
0.058994 0.079847 0.258842
0.060364 0.080033 0.259460
0.061836 0.080342 0.260480
0.063226 0.080537 0.261122
0.064576 0.080673 0.261578
0.065699 0.080525 0.261107
0.067118 0.080740 0.261810
0.068368 0.080746 0.261838
0.070008 0.081206 0.263331
0.071356 0.081316 0.263689
0.072423 0.081107 0.263010
0.073803 0.081251 0.263472
0.075048 0.081241 0.263436
0.075798 0.080707 0.261692
0.075103 0.078676 0.255094
0.075991 0.078341 0.253993
0.076977 0.078115 0.253242
0.077965 0.077899 0.252522
0.079054 0.077788 0.252136
0.080002 0.077545 0.251319
0.080763 0.077129 0.249938
0.081466 0.076671 0.248418
0.082631 0.076655 0.248326
0.083222 0.076114 0.246528
0.083806 0.075582 0.244757
0.084591 0.075243 0.243607
0.085442 0.074972 0.242672
0.086318 0.074728 0.241821
0.087350 0.074625 0.241421
0.088236 0.074401 0.240625
0.089144 0.074201 0.239903
0.090002 0.073965 0.239057
0.091050 0.073889 0.238724
0.092154 0.073860 0.238538
0.092352 0.073114 0.236030
0.093341 0.073005 0.235573
0.094165 0.072770 0.234707
0.095039 0.072580 0.233975
0.095758 0.072276 0.232873
0.096550 0.072034 0.231964
0.097447 0.071875 0.231315
0.098337 0.071715 0.230654
0.098949 0.071358 0.229355
0.099522 0.070980 0.227983
0.100300 0.070755 0.227095
0.100799 0.070341 0.225591
0.101277 0.069920 0.224062
0.101637 0.069428 0.222297
0.101944 0.068910 0.220442
0.102083 0.068290 0.218256
0.102373 0.067783 0.216425
0.102430 0.067134 0.214130
0.102627 0.066588 0.212162
0.102973 0.066148 0.210525
0.103557 0.065869 0.209390
0.104084 0.065560 0.208149
0.104649 0.065279 0.206992
0.104995 0.064869 0.205413
0.105481 0.064552 0.204122
0.105900 0.064200 0.202711
0.106792 0.064139 0.202205
0.107602 0.064030 0.201538
-1.063274 0.628584 1.963245
-1.039871 0.620273 1.940251
-1.031346 0.620766 1.944639
-0.938956 0.570329 1.789142
-0.918409 0.563001 1.768523
-0.910923 0.563619 1.772735
-0.901223 0.562866 1.772538
-1.597364 1.026639 3.243905
-1.583440 1.027647 3.250406
-1.519780 0.996078 3.153622
-1.485254 0.983164 3.115628
-1.470662 0.983319 3.118878
-1.018413 0.702175 2.232514
-0.999292 0.696231 2.215219
-1.002769 0.706073 2.248077
-0.993229 0.706863 2.252060
-0.744806 0.560133 1.789512
-0.728365 0.554056 1.770911
-0.724258 0.557329 1.782141
-0.716701 0.557993 1.784986
-0.335239 0.312400 1.002588
-0.325950 0.308079 0.988805
-0.320077 0.306908 0.985115
-0.316192 0.307637 0.987511
-0.311470 0.307561 0.987308
-0.306673 0.307408 0.986843
-0.302167 0.307547 0.987304
-0.297621 0.307649 0.987632
-0.292839 0.307507 0.987162
-0.288284 0.307602 0.987445
-0.282448 0.306311 0.983268
-0.276985 0.305389 0.980263
-0.270068 0.302805 0.971915
-0.264178 0.301305 0.967033
-0.259926 0.301652 0.968076
-0.249805 0.295079 0.946902
-0.242932 0.292174 0.937493
-0.228948 0.280451 0.899787
-0.224569 0.280275 0.899125
-0.220579 0.280585 0.900016
-0.163031 0.211446 0.678158
-0.156741 0.207352 0.664943
-0.154961 0.209178 0.670710
-0.149600 0.206146 0.660896
-0.143945 0.202572 0.649343
-0.139309 0.200308 0.641991
-0.135023 0.198457 0.635962
-0.130801 0.196619 0.629974
-0.127029 0.195388 0.625928
-0.124127 0.195468 0.626084
-0.120694 0.194696 0.623507
-0.117615 0.194471 0.622681
-0.114710 0.194529 0.622763
-0.125738 0.218842 0.700476
-0.108800 0.194478 0.622386
-0.105668 0.194126 0.621151
-0.103003 0.194635 0.622671
-0.100135 0.194780 0.623027
-0.097030 0.194459 0.621893
-0.094104 0.194488 0.621878
-0.091385 0.194962 0.623286
-0.088382 0.194840 0.622787
-0.085560 0.195122 0.623584
-0.082583 0.195060 0.623279
-0.079165 0.193914 0.619516
-0.076285 0.194046 0.619836
-0.029883 0.079054 0.252480
-0.028290 0.077959 0.248941
-0.027141 0.078046 0.249180
-0.026033 0.078263 0.249835
-0.024748 0.077946 0.248786
-0.023520 0.077784 0.248233
-0.022265 0.077510 0.247323
-0.021074 0.077443 0.247074
-0.019851 0.077243 0.246402
-0.018506 0.076514 0.244045
-0.017102 0.075425 0.240542
-0.015822 0.074768 0.238418
-0.014666 0.074643 0.237990
-0.013513 0.074514 0.237555
-0.012363 0.074377 0.237092
-0.011203 0.074148 0.236338
-0.010050 0.073920 0.235588
-0.008857 0.073309 0.233620
-0.007703 0.072888 0.232258
-0.006550 0.072334 0.230477
-0.005403 0.071647 0.228271
-0.004209 0.069830 0.222466
-0.003140 0.069548 0.221552
-0.002091 0.069698 0.222019
-0.001040 0.069948 0.222803
0.000019 0.069957 0.222823
0.001078 0.069984 0.222901
0.002163 0.070802 0.225496
0.003255 0.071236 0.226874
0.004340 0.071346 0.227220
0.005422 0.071367 0.227281
0.006530 0.071666 0.228231
0.007667 0.072157 0.229796
0.008801 0.072500 0.230889
0.009925 0.072686 0.231483
0.011051 0.072852 0.232013
0.012268 0.073533 0.234186
0.013411 0.073698 0.234716
0.014546 0.073790 0.235016
0.015699 0.073955 0.235551
0.016841 0.074053 0.235872
0.018022 0.074296 0.236655
0.019162 0.074351 0.236843
0.020396 0.074745 0.238110
0.021604 0.075010 0.238967
0.022827 0.075293 0.239883
0.024036 0.075508 0.240582
0.025265 0.075763 0.241410
0.026524 0.076081 0.242441
0.027704 0.076156 0.242697
0.028925 0.076331 0.243275
0.030128 0.076450 0.243674
0.031344 0.076588 0.244134
0.032597 0.076806 0.244850
0.033939 0.077210 0.246157
0.035111 0.077214 0.246193
0.036477 0.077631 0.247542
0.037786 0.077903 0.248434
0.038921 0.077811 0.248161
0.040320 0.078237 0.249543
0.041590 0.078395 0.250069
0.042938 0.078687 0.251023
0.044231 0.078865 0.251613
0.045465 0.078931 0.251847
0.046895 0.079324 0.253123
0.048162 0.079430 0.253482
0.049505 0.079653 0.254214
0.050775 0.079749 0.254543
0.052079 0.079895 0.255029
0.053380 0.080029 0.255474
0.054798 0.080327 0.256444
0.056124 0.080482 0.256957
0.057611 0.080855 0.258164
0.059029 0.081118 0.259017
0.060373 0.081270 0.259517
0.061729 0.081432 0.260048
0.063128 0.081643 0.260733
0.064442 0.081738 0.261044
0.065713 0.081776 0.261173
0.067024 0.081862 0.261451
0.068354 0.081967 0.261788
0.069832 0.082243 0.262671
0.071066 0.082226 0.262614
0.072230 0.082131 0.262306
0.073582 0.082248 0.262674
0.074780 0.082192 0.262484
0.075692 0.081829 0.261312
0.076064 0.080904 0.258343
0.075756 0.079295 0.253188
0.076847 0.079179 0.252795
0.078054 0.079183 0.252784
0.079003 0.078929 0.251945
0.079825 0.078559 0.250730
0.079699 0.077279 0.246611
0.081135 0.077531 0.247373
0.081966 0.077204 0.246287
0.082876 0.076959 0.245460
0.083987 0.076907 0.245240
0.084797 0.076582 0.244149
0.085602 0.076263 0.243071
0.086402 0.075948 0.242001
0.087405 0.075816 0.241512
0.088005 0.075344 0.239930
0.088648 0.074920 0.238501
0.089290 0.074505 0.237096
0.090312 0.074414 0.236714
0.091142 0.074168 0.235838
0.092024 0.073971 0.235109
0.093055 0.073897 0.234764
0.093976 0.073738 0.234146
0.094924 0.073603 0.233596
0.095895 0.073490 0.233109
0.096827 0.073349 0.232528
0.097658 0.073136 0.231711
0.098484 0.072923 0.230888
0.099311 0.072717 0.230079
0.100047 0.072448 0.229066
0.100363 0.071885 0.227115
0.100735 0.071374 0.225322
0.101137 0.070894 0.223623
0.101686 0.070526 0.222268
0.101908 0.069942 0.220226
0.102149 0.069383 0.218255
0.102400 0.068841 0.216335
0.102875 0.068459 0.214909
0.102972 0.067837 0.212720
0.102932 0.067136 0.210282
0.103509 0.066849 0.209130
0.104175 0.066623 0.208161
0.104443 0.066150 0.206411
0.104880 0.065792 0.205011
0.105446 0.065520 0.203870
0.106106 0.065311 0.202916
0.106709 0.065072 0.201854
0.107492 0.064945 0.201130
-1.069911 0.642105 1.973644
-1.049908 0.635761 1.957199
-1.041278 0.636253 1.961645
-0.936442 0.577432 1.782839
-0.910862 0.566846 1.752555
-0.914945 0.574696 1.779155
-0.902774 0.572389 1.774235
-1.009221 0.706394 2.211205
-1.001336 0.708240 2.218635
-0.991459 0.708701 2.221651
-0.982983 0.710185 2.227799
-0.739092 0.564270 1.775133
-0.729370 0.563239 1.772736
-0.707855 0.552971 1.741203
-0.685609 0.541885 1.707015
-0.331846 0.313932 0.992346
-0.325716 0.312531 0.988015
-0.320156 0.311643 0.985291
-0.315797 0.311916 0.986223
-0.311453 0.312212 0.987214
-0.306486 0.311884 0.986216
-0.301980 0.312022 0.986678
-0.297410 0.312098 0.986930
-0.292540 0.311856 0.986166
-0.287650 0.311585 0.985297
-0.281786 0.310233 0.981000
-0.275443 0.308300 0.974853
-0.268933 0.306111 0.967889
-0.260914 0.302100 0.955155
-0.253502 0.298665 0.944233
-0.245336 0.294202 0.930056
-0.238017 0.290611 0.918629
-0.227519 0.282934 0.894282
-0.224256 0.284136 0.897991
-0.163954 0.215873 0.682106
-0.157630 0.211696 0.668828
-0.155526 0.213131 0.673276
-0.149740 0.209475 0.661643
-0.143729 0.205341 0.648499
-0.139205 0.203200 0.641648
-0.134592 0.200830 0.634073
-0.130455 0.199081 0.628456
-0.126523 0.197569 0.623590
-0.122645 0.196071 0.618768
-0.119225 0.195251 0.616083
-0.116077 0.194847 0.614708
-0.112854 0.194293 0.612862
-0.110206 0.194726 0.614129
-0.107534 0.195138 0.615328
-0.104840 0.195535 0.616478
-0.102226 0.196107 0.618176
-0.099661 0.196808 0.620284
-0.096754 0.196857 0.620336
-0.093773 0.196755 0.619912
-0.090565 0.196154 0.617914
-0.087579 0.196010 0.617358
-0.084660 0.196013 0.617266
-0.081472 0.195369 0.615139
-0.077969 0.193896 0.610403
-0.075132 0.194026 0.610717
-0.029831 0.080121 0.252150
-0.028626 0.080090 0.252012
-0.027261 0.079587 0.250393
-0.025905 0.079069 0.248727
-0.024661 0.078856 0.248020
-0.023100 0.077560 0.243910
-0.021679 0.076625 0.240936
-0.020866 0.077852 0.244761
-0.019563 0.077286 0.242950
-0.018243 0.076579 0.240697
-0.016997 0.076112 0.239199
-0.015800 0.075810 0.238221
-0.014632 0.075613 0.237577
-0.013412 0.075095 0.235924
-0.012201 0.074531 0.234126
-0.011053 0.074286 0.233334
-0.009934 0.074196 0.233030
-0.008818 0.074119 0.232766
-0.007662 0.073622 0.231186
-0.006544 0.073402 0.230477
-0.005388 0.072572 0.227857
-0.004250 0.071623 0.224861
-0.003131 0.070461 0.221200
-0.002080 0.070467 0.221206
-0.001033 0.070696 0.221915
0.000022 0.070949 0.222697
0.001084 0.071224 0.223552
0.002159 0.071659 0.224909
0.003241 0.071950 0.225817
0.004321 0.072067 0.226180
0.005408 0.072224 0.226669
0.006509 0.072483 0.227478
0.007704 0.073571 0.230892
0.008817 0.073704 0.231308
0.009909 0.073649 0.231138
0.011040 0.073862 0.231808
0.012191 0.074159 0.232745
0.013390 0.074675 0.234369
0.014556 0.074942 0.235212
0.015675 0.074946 0.235233
0.016842 0.075164 0.235925
0.018009 0.075352 0.236524
0.019085 0.075164 0.235943
0.020428 0.075985 0.238532
0.021636 0.076244 0.239359
0.022790 0.076298 0.239540
0.024038 0.076647 0.240651
0.025244 0.076835 0.241257
0.026461 0.077040 0.241915
0.027662 0.077183 0.242382
0.028889 0.077381 0.243021
0.030133 0.077611 0.243761
0.031370 0.077804 0.244386
0.032577 0.077913 0.244745
0.033916 0.078319 0.246041
0.035420 0.079065 0.248403
0.036622 0.079112 0.248573
0.037842 0.079193 0.248846
0.039104 0.079353 0.249372
0.040306 0.079387 0.249499
0.041563 0.079524 0.249948
0.042850 0.079707 0.250547
0.044137 0.079881 0.251114
0.045504 0.080188 0.252097
0.046843 0.080430 0.252880
0.048107 0.080535 0.253228
0.049361 0.080618 0.253507
0.050664 0.080775 0.254021
0.051913 0.080840 0.254241
0.053374 0.081225 0.255469
0.054832 0.081588 0.256628
0.056282 0.081925 0.257702
0.057671 0.082158 0.258450
0.059059 0.082383 0.259168
0.060330 0.082437 0.259348
0.061660 0.082568 0.259770
0.063215 0.082988 0.261101
0.064442 0.082972 0.261054
0.065623 0.082896 0.260820
0.066933 0.082984 0.261099
0.068217 0.083036 0.261264
0.069503 0.083090 0.261430
0.070899 0.083270 0.261993
0.072136 0.083260 0.261954
0.073389 0.083269 0.261972
0.074618 0.083251 0.261902
0.075814 0.083198 0.261718
0.074710 0.080663 0.253724
0.075640 0.080368 0.252777
0.076692 0.080211 0.252258
0.077808 0.080125 0.251957
0.078847 0.079963 0.251417
0.079821 0.079741 0.250682
0.080485 0.079220 0.249007
0.080815 0.078391 0.246357
0.081833 0.078242 0.245842
0.082914 0.078158 0.245526
0.083678 0.077780 0.244285
0.084475 0.077444 0.243168
0.085272 0.077116 0.242077
0.086174 0.076891 0.241299
0.087049 0.076648 0.240463
0.087813 0.076315 0.239340
0.088602 0.076012 0.238305
0.089367 0.075695 0.237223
0.090395 0.075607 0.236852
0.091284 0.075406 0.236122
0.092128 0.075173 0.235287
0.093137 0.075079 0.234881
0.094033 0.074896 0.234191
0.094915 0.074708 0.233476
0.095723 0.074465 0.232587
0.096739 0.074389 0.232209
0.097599 0.074195 0.231459
0.098392 0.073956 0.230558
0.099260 0.073777 0.229840
0.099662 0.073260 0.228061
0.100361 0.072969 0.226982
0.100932 0.072593 0.225630
0.101214 0.072020 0.223656
0.101790 0.071665 0.222357
0.102227 0.071220 0.220770
0.102568 0.070719 0.219001
0.102851 0.070188 0.217135
0.103385 0.069838 0.215817
0.103577 0.069266 0.213809
0.103484 0.068516 0.211245
0.103708 0.067989 0.209361
0.104175 0.067629 0.207987
0.104320 0.067070 0.205988
0.104672 0.066653 0.204419
0.105297 0.066416 0.203394
0.106000 0.066232 0.202519
0.106572 0.065970 0.201393
0.107235 0.065769 0.200443
-1.072678 0.653388 1.976820
-1.052832 0.647061 1.960803
-1.044156 0.647548 1.965276
-0.935325 0.585363 1.779148
-0.907614 0.573267 1.744823
-0.911704 0.581220 1.771400
-0.902336 0.580662 1.771970
-0.894630 0.581174 1.775707
-1.011986 0.718917 2.216053
-1.004161 0.720854 2.223726
-0.998314 0.724268 2.235886
-0.980898 0.719272 2.221999
-0.736033 0.570335 1.767106
-0.726420 0.569346 1.764917
-0.720042 0.570900 1.770563
-0.689001 0.552706 1.714889
-0.329621 0.316490 0.985584
-0.325219 0.316720 0.986412
-0.320157 0.316304 0.985214
-0.315616 0.316399 0.985592
-0.311032 0.316453 0.985827
-0.306318 0.316375 0.985636
-0.301635 0.316327 0.985525
-0.297185 0.316526 0.986170
-0.292362 0.316328 0.985566
-0.287258 0.315815 0.983968
-0.281645 0.314716 0.980532
-0.275681 0.313183 0.975734
-0.268746 0.310475 0.967268
-0.261986 0.307880 0.959142
-0.252600 0.302054 0.940943
-0.244571 0.297672 0.927234
-0.238595 0.295676 0.920950
-0.229189 0.289277 0.900947
-0.162267 0.216849 0.675184
-0.156210 0.212929 0.662905
-0.154221 0.214506 0.667741
-0.148943 0.211478 0.658236
-0.143604 0.208234 0.648058
-0.139109 0.206100 0.641332
-0.134486 0.203677 0.633709
-0.130208 0.201679 0.627405
-0.126509 0.200505 0.623665
-0.122696 0.199090 0.619173
-0.119157 0.198063 0.615887
-0.116060 0.197737 0.614782
-0.112975 0.197415 0.613686
-0.110054 0.197372 0.613459
-0.107279 0.197595 0.614055
-0.104676 0.198156 0.615701
-0.102234 0.199061 0.618417
-0.099523 0.199482 0.619624
-0.096804 0.199913 0.620866
-0.093788 0.199739 0.620225
-0.090744 0.199490 0.619354
-0.087761 0.199364 0.618865
-0.084537 0.198663 0.616593
-0.081692 0.198836 0.617031
-0.078169 0.197310 0.612202
-0.074217 0.194543 0.603527
-0.028576 0.081151 0.251678
-0.027362 0.081083 0.251430
-0.026278 0.081412 0.252414
-0.024959 0.081011 0.251134
-0.023403 0.079762 0.247230
-0.021596 0.077478 0.240119
-0.020360 0.077109 0.238942
-0.019132 0.076722 0.237712
-0.018006 0.076724 0.237691
-0.016884 0.076746 0.237731
-0.015722 0.076578 0.237183
-0.014560 0.076382 0.236549
-0.013374 0.076015 0.235390
-0.012162 0.075422 0.233529
-0.011043 0.075348 0.233278
-0.009967 0.075577 0.233963
-0.008721 0.074418 0.230358
-0.007589 0.074037 0.229160
-0.006482 0.073822 0.228474
-0.005358 0.073276 0.226769
-0.004228 0.072360 0.223919
-0.003125 0.071451 0.221093
-0.002074 0.071416 0.220973
-0.001026 0.071491 0.221195
0.000025 0.071612 0.221558
0.001080 0.071806 0.222152
0.002160 0.072656 0.224772
0.003243 0.072985 0.225784
0.004320 0.073066 0.226029
0.005412 0.073312 0.226786
0.006519 0.073645 0.227813
0.007679 0.074400 0.230149
0.008772 0.074390 0.230116
0.009920 0.074802 0.231391
0.011017 0.074788 0.231350
0.012208 0.075355 0.233107
0.013329 0.075427 0.233336
0.014499 0.075745 0.234322
0.015660 0.075976 0.235046
0.016857 0.076336 0.236166
0.017995 0.076403 0.236382
0.019221 0.076815 0.237665
0.020403 0.077010 0.238279
0.021617 0.077304 0.239201
0.022793 0.077437 0.239622
0.024009 0.077687 0.240409
0.025162 0.077720 0.240525
0.026437 0.078109 0.241744
0.027600 0.078149 0.241882
0.028821 0.078341 0.242493
0.030046 0.078533 0.243104
0.031306 0.078795 0.243932
0.032595 0.079111 0.244928
0.033862 0.079353 0.245695
0.035117 0.079549 0.246320
0.036434 0.079871 0.247334
0.037826 0.080332 0.248781
0.039097 0.080515 0.249368
0.040354 0.080658 0.249830
0.041520 0.080618 0.249724
0.042779 0.080755 0.250168
0.044103 0.081004 0.250956
0.045301 0.081015 0.251009
0.046790 0.081531 0.252626
0.048061 0.081652 0.253017
0.049293 0.081700 0.253184
0.050608 0.081882 0.253763
0.051832 0.081913 0.253873
0.053082 0.081980 0.254096
0.054434 0.082199 0.254787
0.055769 0.082383 0.255371
0.057652 0.083351 0.258383
0.058787 0.083220 0.257987
0.060190 0.083467 0.258758
0.061541 0.083632 0.259278
0.063037 0.083984 0.260375
0.064413 0.084165 0.260939
0.065535 0.084015 0.260475
0.066813 0.084066 0.260632
0.068152 0.084190 0.261012
0.069573 0.084409 0.261686
0.070842 0.084440 0.261773
0.072025 0.084367 0.261538
0.073289 0.084392 0.261600
0.074563 0.084427 0.261692
0.075574 0.084166 0.260866
0.074621 0.081763 0.253397
0.075409 0.081314 0.251978
0.076573 0.081277 0.251836
0.077704 0.081208 0.251589
0.078614 0.080912 0.250637
0.079602 0.080704 0.249956
0.080448 0.080361 0.248849
0.081134 0.079869 0.247281
0.082048 0.079614 0.246438
0.083066 0.079465 0.245923
0.083833 0.079083 0.244682
0.084650 0.078758 0.243613
0.085463 0.078438 0.242556
0.086105 0.077972 0.241042
0.086931 0.077682 0.240069
0.087714 0.077362 0.238997
0.088490 0.077044 0.237925
0.089340 0.076798 0.237073
0.090263 0.076619 0.236424
0.091200 0.076457 0.235818
0.092119 0.076284 0.235173
0.093119 0.076181 0.234740
0.093948 0.075942 0.233881
0.094779 0.075711 0.233039
0.095652 0.075517 0.232308
0.096563 0.075358 0.231674
0.097345 0.075103 0.230742
0.098009 0.074763 0.229540
0.098331 0.074173 0.227565
0.098974 0.073836 0.226359
0.099850 0.073678 0.225694
0.100477 0.073341 0.224477
0.101201 0.073082 0.223486
0.101813 0.072747 0.222260
0.102132 0.072213 0.220415
0.102511 0.071731 0.218724
0.102812 0.071205 0.216892
0.103431 0.070909 0.215751
0.103338 0.070134 0.213149
0.103291 0.069405 0.210680
0.103734 0.069017 0.209238
0.103926 0.068472 0.207309
0.104198 0.067988 0.205562
0.104500 0.067533 0.203892
0.105215 0.067351 0.203038
0.105982 0.067206 0.202281
0.106494 0.066903 0.201039
0.107127 0.066680 0.200026
-1.078513 0.666618 1.985566
-1.060435 0.661333 1.973035
-1.051673 0.661816 1.977558
-0.933547 0.592856 1.774147
-0.916307 0.587282 1.759985
-0.920203 0.595279 1.786393
-0.903320 0.589857 1.772444
-0.890493 0.587006 1.766092
-1.013498 0.730595 2.218098
-1.000888 0.729087 2.215264
-0.991417 0.729857 2.219269
-0.978313 0.727942 2.215024
-0.721956 0.567666 1.732604
-0.712669 0.566795 1.730837
-0.709279 0.570650 1.743454
-0.701845 0.571303 1.746246
-0.331234 0.322724 0.990282
-0.325265 0.321432 0.986443
-0.320565 0.321374 0.986376
-0.315833 0.321282 0.986187
-0.310691 0.320764 0.984678
-0.305994 0.320698 0.984540
-0.301290 0.320622 0.984358
-0.296823 0.320800 0.984940
-0.291979 0.320570 0.984262
-0.286862 0.320028 0.982609
-0.281495 0.319185 0.980022
-0.275841 0.317983 0.976323
-0.268828 0.315148 0.967597
-0.260957 0.311192 0.955421
-0.252216 0.306041 0.939569
-0.241309 0.298033 0.914937
-0.234520 0.294911 0.905300
-0.227026 0.290772 0.892532
-0.162284 0.220072 0.675348
-0.156386 0.216313 0.663748
-0.155149 0.218980 0.671863
-0.148565 0.214054 0.656678
-0.143642 0.211362 0.648345
-0.138960 0.208917 0.640767
-0.134202 0.206246 0.632496
-0.130237 0.204700 0.627676
-0.126498 0.203446 0.623747
-0.122732 0.202088 0.619499
-0.119692 0.201889 0.618802
-0.116649 0.201675 0.618060
-0.113586 0.201414 0.617169
-0.110634 0.201341 0.616856
-0.108067 0.201986 0.618740
-0.105074 0.201847 0.618223
-0.102488 0.202504 0.620142
-0.099837 0.203069 0.621776
-0.096879 0.203024 0.621544
-0.093799 0.202714 0.620502
-0.090626 0.202176 0.618760
-0.087506 0.201723 0.617283
-0.084308 0.201056 0.615148
-0.081591 0.201529 0.616504
-0.078214 0.200345 0.612789
-0.074019 0.196897 0.602155
-0.027359 0.082277 0.251513
-0.026263 0.082573 0.252382
-0.024901 0.082022 0.250666
-0.023452 0.081114 0.247859
-0.022191 0.080797 0.246856
-0.020983 0.080648 0.246372
-0.019693 0.080146 0.244808
-0.018343 0.079324 0.242266
-0.016462 0.075942 0.231911
-0.015352 0.075889 0.231724
-0.014244 0.075837 0.231541
-0.013152 0.075869 0.231613
-0.012052 0.075861 0.231568
-0.010939 0.075754 0.231219
-0.009809 0.075496 0.230411
-0.008659 0.075004 0.228890
-0.007596 0.075224 0.229543
-0.006482 0.074937 0.228652
-0.005359 0.074412 0.227033
-0.004217 0.073283 0.223574
-0.003118 0.072399 0.220864
-0.002069 0.072390 0.220826
-0.001023 0.072523 0.221219
0.000028 0.072700 0.221750
0.001082 0.072815 0.222091
0.002154 0.073401 0.223870
0.003221 0.073489 0.224134
0.004320 0.074093 0.225970
0.005418 0.074426 0.226982
0.006533 0.074854 0.228284
0.007635 0.075026 0.228805
0.008779 0.075517 0.230303
0.009886 0.075621 0.230621
0.011027 0.075929 0.231561
0.012172 0.076216 0.232439
0.013327 0.076505 0.233325
0.014477 0.076727 0.234005
0.015591 0.076737 0.234040
0.016826 0.077301 0.235768
0.017976 0.077432 0.236173
0.019138 0.077594 0.236678
0.020416 0.078180 0.238473
0.021599 0.078363 0.239042
0.022790 0.078552 0.239631
0.023980 0.078721 0.240157
0.025166 0.078861 0.240598
0.026342 0.078962 0.240918
0.027553 0.079153 0.241514
0.028744 0.079272 0.241894
0.029977 0.079495 0.242587
0.031293 0.079910 0.243871
0.032490 0.080005 0.244176
0.033880 0.080552 0.245861
0.035083 0.080633 0.246124
0.036324 0.080792 0.246627
0.037616 0.081053 0.247441
0.038931 0.081343 0.248343
0.040164 0.081453 0.248695
0.041389 0.081538 0.248972
0.042573 0.081540 0.248996
0.043952 0.081906 0.250128
0.045403 0.082384 0.251604
0.046910 0.082934 0.253301
0.048058 0.082840 0.253028
0.049386 0.083052 0.253688
0.050645 0.083141 0.253974
0.051866 0.083164 0.254057
0.053208 0.083377 0.254720
0.054646 0.083725 0.255795
0.056111 0.084101 0.256952
0.057312 0.084073 0.256874
0.058827 0.084495 0.258173
0.060096 0.084556 0.258365
0.061397 0.084658 0.258678
0.062853 0.084965 0.259620
0.064238 0.085165 0.260231
0.065451 0.085135 0.260137
0.066689 0.085138 0.260142
0.068037 0.085278 0.260564
0.069283 0.085288 0.260587
0.070622 0.085410 0.260948
0.071778 0.085309 0.260625
0.073017 0.085310 0.260611
0.074344 0.085411 0.260902
0.075307 0.085098 0.259921
0.075096 0.083489 0.254982
0.075808 0.082941 0.253280
0.076631 0.082530 0.251994
0.077877 0.082580 0.252110
0.078607 0.082090 0.250576
0.079299 0.081574 0.248960
0.080158 0.081244 0.247904
0.080768 0.080674 0.246116
0.081723 0.080460 0.245409
0.082653 0.080228 0.244643
0.083483 0.079906 0.243600
0.084413 0.079688 0.242868
0.085339 0.079471 0.242135
0.086059 0.079072 0.240842
0.086804 0.078705 0.239643
0.087628 0.078418 0.238684
0.088412 0.078104 0.237635
0.089318 0.077903 0.236928
0.090206 0.077693 0.236185
0.091059 0.077458 0.235362
0.091942 0.077253 0.234625
0.092869 0.077090 0.234009
0.093771 0.076910 0.233335
0.094603 0.076677 0.232496
0.095465 0.076474 0.231742
