ply
format ascii 1.0
element vertex 1689
property float x
property float y
property float z
end_header
-0.375121 -0.314907 1.789798
-0.368623 -0.316632 1.798923
-0.359512 -0.316144 1.795467
-0.351403 -0.316534 1.797003
-0.196948 -0.315831 1.781989
-0.188551 -0.316074 1.782853
-0.180421 -0.316809 1.786505
-0.171032 -0.315297 1.777508
-0.162923 -0.316109 1.781626
-0.154768 -0.316920 1.785754
-0.146780 -0.318187 1.792465
-0.138167 -0.318176 1.791988
-0.130277 -0.319940 1.801530
-0.122114 -0.321235 1.808444
-0.113652 -0.321885 1.811743
-0.105895 -0.324808 1.827851
-0.097606 -0.326479 1.836932
-0.089985 -0.330941 1.861727
-0.081483 -0.332793 1.871853
-0.072500 -0.332903 1.872203
-0.010483 -0.054966 0.309079
-0.009061 -0.055365 0.311288
-0.007589 -0.055559 0.312344
-0.006046 -0.055206 0.310330
-0.004547 -0.055145 0.309962
-0.003050 -0.055074 0.309536
-0.001565 -0.055284 0.310697
-0.000068 -0.055033 0.309274
0.001421 -0.055002 0.309084
0.002914 -0.055071 0.309467
0.004408 -0.055110 0.309682
0.005910 -0.055202 0.310200
0.007405 -0.055204 0.310211
0.008991 -0.055767 0.313384
0.010510 -0.055817 0.313673
0.009285 -0.043113 0.242289
0.010359 -0.042724 0.240119
0.011578 -0.042955 0.241435
0.012739 -0.042948 0.241412
0.013944 -0.043076 0.242152
0.015106 -0.043061 0.242093
0.017503 -0.046318 0.260433
0.018713 -0.046209 0.259852
0.019829 -0.045893 0.258113
0.020895 -0.045507 0.255979
0.021956 -0.045154 0.254034
0.023032 -0.044866 0.252453
0.024239 -0.044851 0.252412
0.025498 -0.044929 0.252895
0.026802 -0.045073 0.253756
0.028080 -0.045164 0.254320
0.029319 -0.045187 0.254503
0.030764 -0.045514 0.256395
0.032360 -0.046030 0.259363
0.033610 -0.046034 0.259442
0.034871 -0.046051 0.259603
0.036137 -0.046073 0.259792
0.037610 -0.046350 0.261416
0.038987 -0.046495 0.262301
0.040380 -0.046647 0.263230
0.041777 -0.046796 0.264139
0.043160 -0.046921 0.264917
0.044628 -0.047127 0.266158
0.046132 -0.047360 0.267545
0.050772 -0.050712 0.286565
0.053193 -0.051729 0.292397
0.054690 -0.051820 0.292993
0.055484 -0.051255 0.289884
0.056800 -0.051188 0.289595
0.058029 -0.051049 0.288891
0.059027 -0.050717 0.287100
0.060145 -0.050501 0.285961
0.060965 -0.050050 0.283490
0.062226 -0.049973 0.283141
0.063430 -0.049854 0.282549
0.064148 -0.049366 0.279869
0.064850 -0.048886 0.277227
0.065711 -0.048543 0.275363
0.066715 -0.048316 0.274158
0.067733 -0.048109 0.273059
0.068959 -0.048054 0.272824
0.069980 -0.047861 0.271804
0.071018 -0.047685 0.270883
0.072113 -0.047555 0.270216
0.072808 -0.047170 0.268096
0.073993 -0.047109 0.267822
0.075057 -0.046975 0.267127
0.076082 -0.046822 0.266319
0.077140 -0.046693 0.265651
0.078224 -0.046585 0.265092
0.079348 -0.046502 0.264682
0.080413 -0.046389 0.264092
0.081393 -0.046231 0.263245
0.082565 -0.046185 0.263033
0.083635 -0.046084 0.262505
0.084532 -0.045893 0.261456
0.085774 -0.045890 0.261484
0.086725 -0.045735 0.260636
0.087701 -0.045598 0.259885
0.088737 -0.045494 0.259325
0.089714 -0.045364 0.258608
0.090619 -0.045202 0.257704
0.091393 -0.044979 0.256449
0.092322 -0.044837 0.255655
0.093343 -0.044743 0.255127
0.094246 -0.044596 0.254292
0.095150 -0.044453 0.253474
0.095844 -0.044216 0.252120
0.096610 -0.044018 0.250980
0.097310 -0.043796 0.249695
0.098265 -0.043692 0.249081
0.099045 -0.043513 0.248037
0.099852 -0.043351 0.247081
0.100790 -0.043248 0.246457
0.101497 -0.043051 0.245285
0.102257 -0.042879 0.244259
0.102736 -0.042595 0.242583
0.103397 -0.042392 0.241364
0.103918 -0.042137 0.239841
0.103961 -0.041695 0.237254
0.103021 -0.040873 0.232495
0.102368 -0.040181 0.228474
0.103170 -0.040069 0.227743
0.102743 -0.039486 0.224333
0.102996 -0.039175 0.222458
0.102880 -0.038731 0.219823
0.103316 -0.038501 0.218400
0.103673 -0.038247 0.216832
0.103473 -0.037795 0.214135
0.103667 -0.037493 0.212286
0.104089 -0.037280 0.210929
0.104433 -0.037043 0.209430
0.104929 -0.036864 0.208250
0.105687 -0.036779 0.207597
0.106353 -0.036664 0.206764
0.107147 -0.036595 0.206183
0.107990 -0.036544 0.205691
-1.561017 -0.502183 2.930281
-1.535495 -0.498401 2.910871
-1.525447 -0.499621 2.920511
-1.512826 -0.500012 2.925188
-1.519726 -0.506923 2.967904
-1.534502 -0.531454 3.119801
-1.521893 -0.532184 3.125847
-1.534110 -0.541694 3.183382
-1.534481 -0.547169 3.217132
-1.525865 -0.549517 3.232404
-1.520678 -0.553160 3.255199
-1.512928 -0.555935 3.272800
-1.502633 -0.557824 3.285081
-1.491442 -0.559416 3.295522
-1.480665 -0.561199 3.306994
-1.470150 -0.563121 3.319194
-1.459200 -0.564916 3.330555
-1.447127 -0.566311 3.339473
-1.436547 -0.568327 3.351968
-1.422813 -0.569127 3.357205
-1.410254 -0.570422 3.365272
-1.400890 -0.573052 3.381146
-1.389227 -0.574793 3.391689
-1.381858 -0.578371 3.413000
-1.373211 -0.581493 3.431544
-1.367492 -0.585944 3.457856
-1.360754 -0.590061 3.482125
-1.354725 -0.594589 3.508749
-0.571161 -0.331306 1.947508
-0.571128 -0.336704 1.978614
-0.569941 -0.341592 2.006681
-0.551626 -0.336205 1.974379
-0.441383 -0.311110 1.821779
-0.422673 -0.303867 1.778697
-0.412655 -0.302706 1.771228
-0.406622 -0.304480 1.780930
-0.397969 -0.304328 1.779356
-0.388858 -0.303811 1.775651
-0.385151 -0.307587 1.797029
-0.376579 -0.307561 1.796184
-0.369019 -0.308380 1.800275
-0.107659 -0.321234 1.857257
-0.098767 -0.321373 1.857728
-0.089751 -0.321094 1.855806
-0.081194 -0.322579 1.864092
-0.072245 -0.322686 1.864442
-0.010555 -0.053834 0.311004
-0.009007 -0.053533 0.309226
-0.007582 -0.053987 0.311816
-0.006057 -0.053785 0.310622
-0.004535 -0.053482 0.308843
-0.003053 -0.053587 0.309424
-0.001566 -0.053749 0.310340
-0.000071 -0.053526 0.309041
0.001423 -0.053682 0.309926
0.002926 -0.053858 0.310939
0.004430 -0.053921 0.311294
0.005931 -0.053917 0.311270
0.007412 -0.053776 0.310462
0.006871 -0.041475 0.239448
0.008019 -0.041441 0.239264
0.009164 -0.041406 0.239071
0.010349 -0.041535 0.239829
0.011551 -0.041699 0.240796
0.012702 -0.041669 0.240642
0.013889 -0.041751 0.241133
0.015394 -0.042700 0.246641
0.017447 -0.044924 0.259519
0.018550 -0.044569 0.257501
0.019461 -0.043827 0.253248
0.020724 -0.043916 0.253799
0.021948 -0.043919 0.253856
0.023057 -0.043702 0.252644
0.024320 -0.043786 0.253171
0.025551 -0.043805 0.253328
0.026822 -0.043889 0.253867
0.028073 -0.043934 0.254178
0.029440 -0.044150 0.255478
0.031209 -0.044925 0.260023
0.032460 -0.044925 0.260083
0.033716 -0.044931 0.260176
0.035009 -0.044985 0.260551
0.036379 -0.045129 0.261451
0.037758 -0.045275 0.262365
0.039093 -0.045361 0.262933
0.040459 -0.045475 0.263665
0.041843 -0.045603 0.264477
0.043238 -0.045735 0.265317
0.044756 -0.045985 0.266844
0.046303 -0.046251 0.268463
0.047719 -0.046374 0.269257
0.053248 -0.050383 0.292621
0.051580 -0.047551 0.276253
0.054931 -0.049372 0.286920
0.056826 -0.049827 0.289652
0.058188 -0.049805 0.289606
0.056107 -0.046904 0.272825
0.057154 -0.046692 0.271674
0.058481 -0.046712 0.271875
0.059988 -0.046873 0.272890
0.062998 -0.048175 0.280559
0.063822 -0.047787 0.278384
0.064622 -0.047397 0.276192
0.065743 -0.047253 0.275435
0.066809 -0.047075 0.274485
0.067845 -0.046885 0.273452
0.068927 -0.046732 0.272643
0.070057 -0.046617 0.272049
0.071075 -0.046433 0.271051
0.071813 -0.046076 0.269042
0.072781 -0.045877 0.267950
0.073910 -0.045784 0.267479
0.075058 -0.045706 0.267091
0.076142 -0.045591 0.266490
0.077212 -0.045473 0.265864
0.078286 -0.045361 0.265269
0.079408 -0.045279 0.264851
0.080445 -0.045152 0.264166
0.081527 -0.045055 0.263651
0.082640 -0.044977 0.263245
0.083644 -0.044843 0.262508
0.084767 -0.044775 0.262160
0.085826 -0.044676 0.261622
0.086900 -0.044588 0.261146
0.087940 -0.044485 0.260575
0.088978 -0.044384 0.260014
0.089974 -0.044265 0.259346
0.090823 -0.044078 0.258271
0.091640 -0.043881 0.257136
0.092543 -0.043729 0.256261
0.093497 -0.043605 0.255544
0.094112 -0.043328 0.253929
0.094759 -0.043072 0.252433
0.095708 -0.042959 0.251765
0.096374 -0.042723 0.250373
0.097363 -0.042634 0.249838
0.098303 -0.042527 0.249188
0.099070 -0.042347 0.248112
0.099877 -0.042189 0.247156
0.100771 -0.042071 0.246429
0.101639 -0.041945 0.245646
0.102448 -0.041797 0.244737
0.103029 -0.041561 0.243301
0.103541 -0.041303 0.241727
0.103752 -0.040931 0.239486
0.104010 -0.040586 0.237396
0.103268 -0.039863 0.233086
0.103349 -0.039469 0.230698
0.103565 -0.039134 0.228651
0.104008 -0.038892 0.227136
0.102739 -0.038020 0.221942
0.102678 -0.037609 0.219434
0.103240 -0.037432 0.218285
0.103471 -0.037140 0.216457
0.103388 -0.036742 0.214007
0.103678 -0.036483 0.212361
0.103935 -0.036218 0.210669
0.104341 -0.036009 0.209300
0.104874 -0.035848 0.208200
0.105577 -0.035747 0.207443
0.106296 -0.035653 0.206719
0.107058 -0.035576 0.206077
0.107980 -0.035552 0.205740
-1.592830 -0.498158 2.990881
-1.560396 -0.492390 2.958911
-1.562430 -0.497493 2.992122
-1.532414 -0.492391 2.963823
-1.520381 -0.493028 2.969908
-1.519610 -0.497363 2.998165
-1.507473 -0.498026 3.004176
-1.529182 -0.509989 3.078284
-1.516748 -0.510686 3.084314
-1.524395 -0.518223 3.131568
-1.530766 -0.525470 3.177000
-1.528749 -0.529953 3.205639
-1.529465 -0.535483 3.240527
-1.519829 -0.537464 3.253846
-1.511004 -0.539775 3.269070
-1.504295 -0.542898 3.289117
-1.490007 -0.543322 3.292720
-1.479923 -0.545305 3.305675
-1.469426 -0.547177 3.317864
-1.459090 -0.549150 3.330580
-1.446645 -0.550364 3.338604
-1.434618 -0.551766 3.347680
-1.424369 -0.553891 3.361059
-1.412626 -0.555476 3.371084
-1.402391 -0.557698 3.384889
-1.395888 -0.561472 3.408041
-1.387164 -0.564430 3.426165
-1.381065 -0.568539 3.451198
-1.381530 -0.575481 3.493352
-1.367285 -0.576388 3.498803
-0.578583 -0.326265 1.972457
-0.570144 -0.326764 1.974831
-0.570452 -0.332376 2.008083
-0.552643 -0.327444 1.977616
-0.544113 -0.327936 1.979898
-0.441816 -0.302741 1.823084
-0.424338 -0.296566 1.785217
-0.417522 -0.297744 1.791619
-0.410904 -0.299116 1.799173
-0.404477 -0.300688 1.807926
-0.397639 -0.302017 1.815205
-0.390778 -0.303386 1.822722
-0.389620 -0.309347 1.857807
-0.389735 -0.316618 1.900733
-0.010649 -0.052788 0.313556
-0.009099 -0.052560 0.312163
-0.007572 -0.052406 0.311213
-0.006091 -0.052563 0.312117
-0.004555 -0.052197 0.309915
-0.003049 -0.051987 0.308645
-0.001561 -0.052001 0.308713
-0.000073 -0.051764 0.307291
0.001406 -0.051648 0.306591
0.002928 -0.052424 0.311184
0.004433 -0.052484 0.311539
0.004606 -0.040726 0.241747
0.005771 -0.040722 0.241723
0.006877 -0.040370 0.239637
0.008037 -0.040387 0.239749
0.008931 -0.039238 0.232939
0.010394 -0.040562 0.240812
0.011552 -0.040550 0.240761
0.012860 -0.041019 0.243561
0.014120 -0.041269 0.245070
0.015426 -0.041601 0.247071
0.016720 -0.041860 0.248636
0.018008 -0.042067 0.249900
0.019292 -0.042241 0.250965
0.020548 -0.042337 0.251573
0.021792 -0.042397 0.251969
0.023059 -0.042494 0.252588
0.024303 -0.042542 0.252917
0.025569 -0.042619 0.253426
0.026832 -0.042687 0.253878
0.028337 -0.043117 0.256487
0.029639 -0.043213 0.257114
0.031157 -0.043605 0.259507
0.032505 -0.043737 0.260353
0.033838 -0.043841 0.261036
0.035052 -0.043788 0.260785
0.036400 -0.043901 0.261520
0.037700 -0.043950 0.261883
0.039167 -0.044184 0.263350
0.040558 -0.044321 0.264234
0.042007 -0.044510 0.265434
0.043587 -0.044823 0.267377
0.044930 -0.044881 0.267803
0.046346 -0.045007 0.268632
0.047741 -0.045106 0.269305
0.049143 -0.045207 0.269987
0.050631 -0.045380 0.271099
0.052176 -0.045592 0.272452
0.053575 -0.045671 0.273006
0.054805 -0.045605 0.272699
0.056117 -0.045609 0.272807
0.057412 -0.045599 0.272830
0.058678 -0.045567 0.272722
0.060004 -0.045582 0.272899
0.061841 -0.045976 0.275343
0.063748 -0.046405 0.277998
0.064787 -0.046197 0.276836
0.065710 -0.045916 0.275240
0.067004 -0.045901 0.275229
0.068089 -0.045745 0.274381
0.069105 -0.045551 0.273295
0.070128 -0.045368 0.272276
0.071066 -0.045137 0.270971
0.071938 -0.044873 0.269464
0.072947 -0.044703 0.268517
0.074040 -0.044589 0.267905
0.075169 -0.044500 0.267442
0.076210 -0.044363 0.266687
0.077250 -0.044230 0.265954
0.078327 -0.044122 0.265369
0.079407 -0.044020 0.264814
0.080486 -0.043920 0.264270
0.081602 -0.043842 0.263862
0.082670 -0.043742 0.263314
0.083697 -0.043623 0.262648
0.084846 -0.043571 0.262380
0.085957 -0.043500 0.262000
0.086993 -0.043395 0.261404
0.088042 -0.043299 0.260861
0.089157 -0.043237 0.260523
0.090198 -0.043142 0.259979
0.090932 -0.042904 0.258573
0.091692 -0.042685 0.257273
0.092586 -0.042533 0.256374
0.093524 -0.042405 0.255616
0.094358 -0.042233 0.254590
0.094917 -0.041945 0.252854
0.095894 -0.041846 0.252258
0.096817 -0.041726 0.251529
0.097636 -0.041565 0.250546
0.098516 -0.041434 0.249736
0.099312 -0.041270 0.248729
0.100138 -0.041123 0.247816
0.101020 -0.041002 0.247052
0.101836 -0.040858 0.246141
0.102512 -0.040661 0.244908
0.103184 -0.040467 0.243689
0.103476 -0.040129 0.241601
0.103975 -0.039879 0.240029
0.104329 -0.039579 0.238153
0.104268 -0.039130 0.235374
0.102634 -0.038106 0.229135
0.102910 -0.037806 0.227240
0.103366 -0.037577 0.225769
0.103494 -0.037235 0.223613
0.102730 -0.036582 0.219586
0.103068 -0.036331 0.217963
0.103774 -0.036214 0.217137
0.103106 -0.035623 0.213470
0.103609 -0.035446 0.212269
0.103902 -0.035200 0.210653
0.104236 -0.034973 0.209145
0.104914 -0.034865 0.208336
0.105439 -0.034708 0.207229
0.106045 -0.034580 0.206291
0.106879 -0.034529 0.205797
0.107612 -0.034446 0.205107
-1.560965 -0.474218 2.931877
-1.557118 -0.477291 2.953494
-1.563058 -0.483447 2.994096
-1.550900 -0.484067 3.000312
-1.538254 -0.484545 3.005523
-1.535516 -0.488183 3.030220
-1.523267 -0.488838 3.036291
-1.518244 -0.491847 3.056875
-1.514375 -0.495291 3.080067
-1.558044 -0.514500 3.201261
-1.545151 -0.515225 3.207388
-1.536728 -0.517469 3.222873
-1.526387 -0.519107 3.234476
-1.521358 -0.522603 3.257560
-1.512533 -0.524853 3.272787
-1.501904 -0.526517 3.284267
-1.490408 -0.527910 3.293955
-1.479977 -0.529713 3.306113
-1.470053 -0.531739 3.319567
-1.458849 -0.533340 3.330286
-1.446572 -0.534580 3.338659
-1.435948 -0.536466 3.350978
-1.423098 -0.537552 3.358224
-1.411690 -0.539215 3.368986
-1.403105 -0.542006 3.386717
-1.393775 -0.544570 3.402958
-1.386664 -0.548072 3.424977
-1.379637 -0.551690 3.447647
-1.382796 -0.559515 3.496539
-0.569119 -0.316834 1.970913
-0.561768 -0.317941 1.977130
-0.543107 -0.312577 1.943099
-0.533424 -0.312284 1.940594
-0.439154 -0.292295 1.811627
-0.433151 -0.294053 1.821810
-0.422480 -0.292648 1.812398
-0.415148 -0.293547 1.817248
-0.408027 -0.294636 1.823266
-0.401420 -0.296152 1.831921
-0.395308 -0.298109 1.843296
-0.389851 -0.300660 1.858332
-0.390136 -0.307862 1.902089
-0.385990 -0.311826 1.925815
-0.382849 -0.316815 1.955855
-0.375505 -0.318488 1.965413
-0.010669 -0.051363 0.313953
-0.009045 -0.050743 0.310121
-0.007532 -0.050619 0.309330
-0.006095 -0.051072 0.312068
-0.004551 -0.050638 0.309389
-0.003046 -0.050412 0.307987
-0.001570 -0.050730 0.309906
-0.000075 -0.050286 0.307179
0.001407 -0.050287 0.307176
0.002292 -0.039890 0.243657
0.003451 -0.039700 0.242498
0.004606 -0.039574 0.241728
0.005741 -0.039357 0.240404
0.006892 -0.039307 0.240102
0.007994 -0.039030 0.238417
0.009127 -0.038958 0.237990
0.010320 -0.039127 0.239041
0.011625 -0.039645 0.242223
0.012932 -0.040072 0.244850
0.014252 -0.040466 0.247281
0.015494 -0.040594 0.248091
0.016781 -0.040814 0.249462
0.018037 -0.040933 0.250226
0.019287 -0.041026 0.250827
0.020545 -0.041121 0.251446
0.021804 -0.041210 0.252033
0.023077 -0.041314 0.252709
0.024332 -0.041375 0.253133
0.025613 -0.041473 0.253781
0.026994 -0.041718 0.255332
0.028475 -0.042089 0.257652
0.029690 -0.042052 0.257482
0.031088 -0.042266 0.258851
0.032495 -0.042475 0.260194
0.033831 -0.042580 0.260902
0.035096 -0.042591 0.261032
0.036470 -0.042729 0.261947
0.037889 -0.042908 0.263117
0.039266 -0.043030 0.263933
0.040593 -0.043091 0.264379
0.041968 -0.043198 0.265113
0.043349 -0.043304 0.265841
0.045001 -0.043667 0.268148
0.046513 -0.043879 0.269528
0.047886 -0.043950 0.270045
0.049207 -0.043971 0.270260
0.050565 -0.044024 0.270668
0.051902 -0.044056 0.270951
0.053274 -0.044116 0.271405
0.054584 -0.044123 0.271531
0.056121 -0.044308 0.272756
0.057416 -0.044298 0.272783
0.058710 -0.044289 0.272809
0.060126 -0.044369 0.273390
0.061966 -0.044752 0.275839
0.063567 -0.044950 0.277143
0.064700 -0.044815 0.276403
0.065767 -0.044642 0.275419
0.066913 -0.044528 0.274802
0.067950 -0.044347 0.273766
0.069117 -0.044256 0.273290
0.070128 -0.044070 0.272223
0.071022 -0.043819 0.270754
0.072098 -0.043687 0.270015
0.073133 -0.043535 0.269155
0.074134 -0.043369 0.268203
0.075203 -0.043247 0.267522
0.076268 -0.043128 0.266853
0.077258 -0.042970 0.265946
0.078287 -0.042839 0.265201
0.079450 -0.042784 0.264923
0.080547 -0.042696 0.264439
0.081595 -0.042585 0.263811
0.082697 -0.042505 0.263371
0.083830 -0.042443 0.263039
0.084833 -0.042318 0.262317
0.085974 -0.042265 0.262029
0.087038 -0.042176 0.261521
0.088034 -0.042056 0.260820
0.089094 -0.041971 0.260324
0.089960 -0.041797 0.259278
0.090943 -0.041682 0.258592
0.091939 -0.041575 0.257955
0.092817 -0.041420 0.257007
0.093666 -0.041255 0.255999
0.094507 -0.041090 0.254989
0.095351 -0.040932 0.254010
0.096259 -0.040804 0.253219
0.097020 -0.040618 0.252059
0.097812 -0.040450 0.251005
0.098814 -0.040370 0.250499
0.099590 -0.040203 0.249437
0.100234 -0.039986 0.248065
0.101088 -0.039857 0.247233
0.101891 -0.039711 0.246291
0.102532 -0.039506 0.244976
0.102955 -0.039222 0.243167
0.103687 -0.039061 0.242116
0.104235 -0.038835 0.240654
0.104685 -0.038578 0.238992
0.102304 -0.037295 0.230969
0.102450 -0.036950 0.228755
0.103045 -0.036773 0.227570
0.103788 -0.036651 0.226726
0.104160 -0.036403 0.225089
0.103766 -0.035894 0.221838
0.103609 -0.035477 0.219148
0.102535 -0.034758 0.214587
0.103130 -0.034613 0.213565
0.103649 -0.034445 0.212397
0.104144 -0.034273 0.211195
0.104598 -0.034091 0.209922
0.105106 -0.033930 0.208770
0.105792 -0.033828 0.207979
0.106471 -0.033726 0.207178
0.107073 -0.033603 0.206231
0.107763 -0.033508 0.205458
-1.578149 -0.465312 2.964957
-1.571179 -0.467410 2.980934
-1.560880 -0.468548 2.990661
-1.562338 -0.473268 3.023151
-1.538242 -0.470264 3.006171
-1.532030 -0.472723 3.023982
-1.533108 -0.477499 3.056522
-1.520784 -0.478152 3.062570
-1.535459 -0.487388 3.123510
-1.522887 -0.488071 3.129552
-1.537775 -0.497655 3.192584
-1.537676 -0.502530 3.225339
-1.531056 -0.505350 3.244817
-1.523535 -0.507928 3.262640
-1.515519 -0.510391 3.279638
-1.504008 -0.511716 3.289225
-1.491642 -0.512776 3.297008
-1.480912 -0.514427 3.308497
-1.469600 -0.515909 3.318812
-1.460557 -0.518228 3.334422
-1.448509 -0.519520 3.343338
-1.437258 -0.521130 3.354215
-1.424881 -0.522363 3.362583
-1.413876 -0.524133 3.374323
-1.404185 -0.526436 3.389416
-1.393320 -0.528347 3.401909
-1.385967 -0.531650 3.423288
-1.376937 -0.534381 3.440905
-1.376278 -0.540464 3.480034
-0.570874 -0.308440 1.976623
-0.562401 -0.308914 1.978976
-0.551500 -0.308048 1.972732
-0.536978 -0.305095 1.953119
-0.532127 -0.307630 1.968627
-0.493358 -0.295564 1.889995
-0.494395 -0.301657 1.928221
-0.454865 -0.293824 1.875959
-0.435557 -0.286965 1.831445
-0.425921 -0.286330 1.826664
-0.417733 -0.286663 1.828056
-0.411839 -0.288617 1.839781
-0.406189 -0.290832 1.853149
-0.401499 -0.293847 1.871607
-0.397820 -0.297756 1.895742
-0.395508 -0.302895 1.927681
-0.390155 -0.305892 1.945975
-0.384822 -0.309053 1.965295
-0.375892 -0.309411 1.966789
-0.370264 -0.312575 1.986113
-0.010772 -0.050320 0.316785
-0.009192 -0.050035 0.314953
-0.007596 -0.049528 0.311722
-0.006120 -0.049756 0.313124
-0.004573 -0.049355 0.310577
-0.003062 -0.049147 0.309243
-0.001542 -0.048294 0.303855
-0.000077 -0.048861 0.307409
0.001129 -0.039214 0.246705
0.002293 -0.038759 0.243840
0.003479 -0.038871 0.244539
0.004652 -0.038807 0.244135
0.005840 -0.038871 0.244541
0.006962 -0.038548 0.242519
0.008216 -0.038942 0.245001
0.009389 -0.038902 0.244762
0.010596 -0.038994 0.245360
0.011711 -0.038767 0.243949
0.013067 -0.039302 0.247337
0.014314 -0.039450 0.248289
0.015558 -0.039566 0.249051
0.016807 -0.039676 0.249771
0.018057 -0.039775 0.250426
0.019310 -0.039867 0.251045
0.020584 -0.039990 0.251854
0.021843 -0.040071 0.252405
0.023112 -0.040160 0.253010
0.024395 -0.040263 0.253709
0.025699 -0.040390 0.254557
0.027005 -0.040508 0.255355
0.028421 -0.040773 0.257078
0.029730 -0.040870 0.257748
0.031137 -0.041087 0.259177
0.032503 -0.041236 0.260177
0.033831 -0.041327 0.260817
0.035157 -0.041409 0.261404
0.036434 -0.041431 0.261608
0.037859 -0.041613 0.262828
0.039235 -0.041731 0.263644
0.040635 -0.041866 0.264575
0.042079 -0.042038 0.265736
0.043856 -0.042522 0.268875
0.045066 -0.042444 0.268463
0.046611 -0.042677 0.270016
0.047985 -0.042745 0.270530
0.049299 -0.042757 0.270693
0.050663 -0.042812 0.271124
0.052049 -0.042881 0.271650
0.053475 -0.042979 0.272356
0.054880 -0.043056 0.272931
0.056192 -0.043058 0.273032
0.057453 -0.043022 0.272893
0.058816 -0.043062 0.273235
0.060163 -0.043089 0.273495
0.062243 -0.043629 0.277007
0.063727 -0.043737 0.277783
0.064846 -0.043595 0.276969
0.065880 -0.043402 0.275834
0.066957 -0.043245 0.274925
0.068040 -0.043098 0.274076
0.069116 -0.042952 0.273231
0.070120 -0.042768 0.272143
0.071107 -0.042580 0.271029
0.072164 -0.042440 0.270218
0.073261 -0.042328 0.269582
0.074331 -0.042204 0.268870
0.075408 -0.042089 0.268211
0.076407 -0.041934 0.267300
0.077445 -0.041806 0.266553
0.078605 -0.041747 0.266241
0.079662 -0.041635 0.265598
0.080725 -0.041530 0.264990
0.081770 -0.041420 0.264346
0.082861 -0.041336 0.263866
0.083907 -0.041231 0.263255
0.084946 -0.041127 0.262640
0.086063 -0.041063 0.262281
0.087108 -0.040967 0.261711
0.088187 -0.040889 0.261254
0.089279 -0.040820 0.260848
0.090343 -0.040739 0.260369
0.091219 -0.040577 0.259364
0.092100 -0.040422 0.258397
0.093173 -0.040354 0.257985
0.093943 -0.040158 0.256748
0.094671 -0.039950 0.255427
0.095405 -0.039749 0.254151
0.096306 -0.039622 0.253344
0.097245 -0.039514 0.252648
0.098064 -0.039360 0.251655
0.098755 -0.039159 0.250358
0.099646 -0.039041 0.249586
0.100405 -0.038874 0.248499
0.101163 -0.038712 0.247430
0.101882 -0.038538 0.246285
0.102625 -0.038377 0.245214
0.103159 -0.038143 0.243669
0.103665 -0.037903 0.242087
0.104107 -0.037646 0.240381
0.104281 -0.037298 0.238097
0.103958 -0.036782 0.234730
0.103259 -0.036145 0.230590
0.103682 -0.035911 0.229009
0.103452 -0.035457 0.226025
0.103254 -0.035024 0.223167
0.103608 -0.034785 0.221538
0.103322 -0.034337 0.218580
0.103553 -0.034070 0.216758
0.103260 -0.033636 0.213877
0.103705 -0.033449 0.212557
0.104132 -0.033260 0.211217
0.104550 -0.033072 0.209874
0.105153 -0.032945 0.208914
0.105764 -0.032824 0.207977
0.106550 -0.032758 0.207389
0.107200 -0.032652 0.206535
0.108018 -0.032599 0.206004
-1.573869 -0.449963 2.957684
-1.587652 -0.457972 3.012933
-1.575430 -0.458559 3.019253
-1.562953 -0.459081 3.025020
-1.537863 -0.455875 3.006073
-1.538216 -0.460222 3.036808
-1.518297 -0.462876 3.058115
-1.546270 -0.475918 3.146041
-1.533624 -0.476589 3.152123
-1.535702 -0.481895 3.188759
-1.530676 -0.485054 3.211107
-1.528724 -0.489260 3.240300
-1.524111 -0.492692 3.264269
-1.512528 -0.493917 3.273531
-1.501520 -0.495358 3.284121
-1.491165 -0.497047 3.296263
-1.479565 -0.498353 3.305767
-1.467046 -0.499374 3.313293
-1.456688 -0.501160 3.325810
-1.445783 -0.502796 3.337239
-1.433814 -0.504094 3.346340
-1.422950 -0.505814 3.358158
-1.416146 -0.509032 3.379847
-1.409364 -0.512332 3.401995
-1.401787 -0.515416 3.422634
-1.397639 -0.519846 3.452141
-1.395144 -0.525004 3.486398
-1.380986 -0.525843 3.491904
-0.581413 -0.304591 2.012744
-0.572789 -0.305061 2.015144
-0.561664 -0.304194 2.008691
-0.544970 -0.300229 1.981783
-0.532584 -0.298540 1.969902
-0.524050 -0.298989 1.972121
-0.505765 -0.293791 1.937090
-0.494833 -0.292750 1.929482
-0.486405 -0.293180 1.931558
-0.469433 -0.288379 1.899176
-0.455280 -0.285156 1.877196
-0.442504 -0.282683 1.860173
-0.432677 -0.282033 1.855144
-0.424324 -0.282337 1.856391
-0.417697 -0.283827 1.865426
-0.412073 -0.286078 1.879456
-0.405266 -0.287590 1.888617
-0.401195 -0.291156 1.911254
-0.396530 -0.294447 1.932068
-0.390598 -0.296932 1.947581
-0.384678 -0.299547 1.963934
-0.378341 -0.301961 1.978961
-0.370640 -0.303381 1.987468
-0.366310 -0.307709 2.015017
-0.357796 -0.308661 2.020446
-0.348554 -0.309020 2.022006
-0.010786 -0.048848 0.317015
-0.009184 -0.048459 0.314455
-0.007669 -0.048471 0.314494
-0.006129 -0.048300 0.313352
-0.004580 -0.047911 0.310803
-0.003067 -0.047709 0.309468
-0.001331 -0.040345 0.261688
-0.000067 -0.040410 0.262096
0.001128 -0.038066 0.246884
0.002337 -0.038335 0.248618
0.003537 -0.038333 0.248603
0.004736 -0.038319 0.248514
0.005926 -0.038254 0.248094
0.007128 -0.038277 0.248248
0.008305 -0.038178 0.247617
0.009409 -0.037808 0.245231
0.010581 -0.037765 0.244964
0.011855 -0.038058 0.246883
0.013056 -0.038082 0.247064
0.014302 -0.038225 0.248014
0.015547 -0.038341 0.248797
0.016797 -0.038453 0.249555
0.018054 -0.038565 0.250313
0.019332 -0.038705 0.251257
0.020628 -0.038862 0.252316
0.021979 -0.039099 0.253896
0.023241 -0.039160 0.254340
0.024506 -0.039221 0.254786
0.025793 -0.039309 0.255404
0.027075 -0.039382 0.255935
0.028503 -0.039652 0.257744
0.029793 -0.039715 0.258214
0.031135 -0.039839 0.259077
0.032640 -0.040154 0.261193
0.033900 -0.040157 0.261275
0.035214 -0.040220 0.261753
0.036554 -0.040306 0.262386
0.037871 -0.040364 0.262830
0.039341 -0.040575 0.264284
0.040704 -0.040666 0.264949
0.042142 -0.040824 0.266056
0.043549 -0.040944 0.266916
0.045107 -0.041194 0.268627
0.046508 -0.041291 0.269346
0.047867 -0.041347 0.269791
0.049280 -0.041445 0.270520
0.050654 -0.041506 0.271003
0.052054 -0.041585 0.271603
0.053498 -0.041693 0.272402
0.054987 -0.041832 0.273396
0.056345 -0.041866 0.273708
0.057615 -0.041835 0.273595
0.058947 -0.041849 0.273781
0.060315 -0.041888 0.274120
0.062200 -0.042276 0.276751
0.063809 -0.042464 0.278078
0.064805 -0.042245 0.276733
0.065779 -0.042021 0.275353
0.067069 -0.042004 0.275330
0.068345 -0.041978 0.275250
0.069356 -0.041794 0.274126
0.070374 -0.041620 0.273075
0.071301 -0.041401 0.271717
0.072329 -0.041247 0.270789
0.073375 -0.041107 0.269954
0.074355 -0.040937 0.268913
0.075412 -0.040814 0.268185
0.076512 -0.040718 0.267626
0.077543 -0.040589 0.266853
0.078690 -0.040524 0.266494
0.079832 -0.040458 0.266131
0.080943 -0.040379 0.265675
0.081865 -0.040210 0.264622
0.082937 -0.040118 0.264080
0.083983 -0.040017 0.263469
0.085033 -0.039920 0.262887
0.086121 -0.039844 0.262435
0.087122 -0.039730 0.261731
0.088193 -0.039652 0.261256
0.089082 -0.039494 0.260256
0.090170 -0.039428 0.259857
0.091171 -0.039326 0.259215
0.092079 -0.039187 0.258328
0.093001 -0.039057 0.257498
0.093971 -0.038952 0.256819
0.094790 -0.038786 0.255743
0.095569 -0.038609 0.254585
0.096422 -0.038466 0.253648
0.097283 -0.038330 0.252746
0.098070 -0.038168 0.251675
0.098926 -0.038036 0.250795
0.099662 -0.037862 0.249633
0.100433 -0.037706 0.248578
0.101281 -0.037581 0.247730
0.102012 -0.037417 0.246613
0.102571 -0.037193 0.245101
0.103147 -0.036981 0.243658
0.103834 -0.036813 0.242501
0.104084 -0.036496 0.240351
0.104203 -0.036140 0.237942
0.103071 -0.035362 0.232753
0.103278 -0.035055 0.230659
0.103591 -0.034791 0.228837
0.103861 -0.034518 0.226952
0.104116 -0.034245 0.225063
0.103223 -0.033604 0.220751
0.103245 -0.033271 0.218456
0.103508 -0.033022 0.216702
0.103507 -0.032694 0.214428
0.103741 -0.032446 0.212674
0.104193 -0.032270 0.211386
0.104605 -0.032086 0.210031
0.105250 -0.031976 0.209157
0.105792 -0.031836 0.208084
0.106538 -0.031761 0.207419
0.107201 -0.031662 0.206592
0.107813 -0.031550 0.205672
-1.560495 -0.432172 2.933279
-1.548362 -0.432656 2.939069
-1.577408 -0.444760 3.023724
-1.516400 -0.431462 2.935549
-1.524526 -0.437772 2.980609
-1.538835 -0.445992 3.038617
-1.553725 -0.454537 3.098785
-1.541264 -0.455167 3.104910
-1.550354 -0.462235 3.154862
-1.534807 -0.462023 3.155037
-1.551570 -0.471629 3.222168
-1.542234 -0.473414 3.235785
-1.529384 -0.474145 3.242101
-1.523181 -0.476973 3.262650
-1.513920 -0.478892 3.276889
-1.502585 -0.480187 3.286768
-1.490661 -0.481320 3.295437
-1.479843 -0.482838 3.306649
-1.469499 -0.484545 3.319064
-1.457055 -0.485589 3.326853
-1.445745 -0.487038 3.337328
-1.434377 -0.488500 3.347802
-1.422097 -0.489680 3.356268
-1.412212 -0.491722 3.370552
-1.407620 -0.495673 3.397852
-1.394806 -0.496788 3.405628
-1.384391 -0.498793 3.419430
-1.395975 -0.508865 3.488458
-0.568487 -0.288488 1.967639
-0.560156 -0.288986 1.970330
-0.557181 -0.292311 1.992269
-0.543641 -0.290113 1.976550
-0.535105 -0.290555 1.978813
-0.519888 -0.287321 1.956037
-0.506725 -0.285125 1.940332
-0.498395 -0.285619 1.942926
-0.482530 -0.281732 1.915722
-0.469847 -0.279589 1.900387
-0.463550 -0.281237 1.910818
-0.450172 -0.278570 1.891927
-0.439613 -0.277575 1.884391
-0.432480 -0.278746 1.891563
-0.424073 -0.279129 1.893384
-0.416605 -0.280161 1.899593
-0.411475 -0.282845 1.916999
-0.403841 -0.283892 1.923295
-0.397927 -0.286224 1.938296
-0.392147 -0.288766 1.954703
-0.384356 -0.289916 1.961678
-0.377689 -0.291992 1.974918
-0.369766 -0.293179 1.982139
-0.363300 -0.295614 1.997794
-0.355039 -0.296681 2.004202
-0.347601 -0.298515 2.015789
-0.338554 -0.299032 2.018488
-0.330506 -0.300488 2.027525
-0.321162 -0.300819 2.028977
-0.009227 -0.047151 0.315733
-0.007705 -0.047163 0.315772
-0.005287 -0.040340 0.270065
-0.003913 -0.039630 0.265288
-0.002606 -0.039244 0.262681
-0.001317 -0.038646 0.258666
-0.000069 -0.039189 0.262282
0.001080 -0.035359 0.236640
0.002359 -0.037519 0.251091
0.003577 -0.037574 0.251455
0.004809 -0.037710 0.252368
0.006001 -0.037538 0.251222
0.006932 -0.036069 0.241393
0.008118 -0.036154 0.241975
0.009311 -0.036248 0.242613
0.010529 -0.036407 0.243694
0.011803 -0.036708 0.245725
0.013007 -0.036756 0.246072
0.014252 -0.036902 0.247073
0.015510 -0.037057 0.248139
0.016846 -0.037362 0.250213
0.018063 -0.037379 0.250362
0.019275 -0.037385 0.250437
0.020579 -0.037558 0.251638
0.021857 -0.037666 0.252402
0.023213 -0.037892 0.253962
0.024539 -0.038046 0.255046
0.025803 -0.038096 0.255433
0.027086 -0.038167 0.255963
0.028419 -0.038299 0.256902
0.029795 -0.038476 0.258151
0.031207 -0.038683 0.259602
0.032627 -0.038883 0.261008
0.033903 -0.038904 0.261217
0.035311 -0.039069 0.262393
0.036575 -0.039069 0.262465
0.037995 -0.039229 0.263612
0.039376 -0.039341 0.264437
0.040928 -0.039611 0.266330
0.042187 -0.039590 0.266266
0.043588 -0.039698 0.267079
0.045031 -0.039838 0.268100
0.046437 -0.039939 0.268863
0.047868 -0.040054 0.269726
0.049290 -0.040157 0.270502
0.050715 -0.040256 0.271256
0.052147 -0.040356 0.272019
0.053547 -0.040427 0.272586
0.054980 -0.040518 0.273292
0.056384 -0.040584 0.273831
0.057724 -0.040603 0.274048
0.059053 -0.040613 0.274207
0.060462 -0.040676 0.274726
0.062090 -0.040881 0.276203
0.063685 -0.041056 0.277479
0.064986 -0.041038 0.277450
0.066004 -0.040846 0.276241
0.067112 -0.040715 0.275448
0.068524 -0.040771 0.275918
0.069697 -0.040685 0.275423
0.070534 -0.040410 0.273649
0.071554 -0.040248 0.272634
0.072463 -0.040030 0.271243
0.073509 -0.039894 0.270405
0.074620 -0.039798 0.269832
0.075747 -0.039713 0.269336
0.076690 -0.039536 0.268211
0.077803 -0.039451 0.267710
0.078943 -0.039382 0.267314
0.079978 -0.039264 0.266583
0.080920 -0.039105 0.265569
0.081901 -0.038969 0.264708
0.082992 -0.038889 0.264226
0.083978 -0.038762 0.263425
0.085157 -0.038728 0.263246
0.086243 -0.038652 0.262784
0.087309 -0.038570 0.262273
0.088338 -0.038474 0.261665
0.089389 -0.038390 0.261136
0.090378 -0.038282 0.260440
0.091149 -0.038086 0.259140
0.092074 -0.037959 0.258302
0.093218 -0.037924 0.258089
0.093898 -0.037703 0.256611
0.094768 -0.037564 0.255679
0.095517 -0.037381 0.254445
0.096322 -0.037224 0.253383
0.097258 -0.037121 0.252682
0.098011 -0.036951 0.251525
0.098909 -0.036840 0.250759
0.099783 -0.036722 0.249943
0.100501 -0.036551 0.248754
0.101253 -0.036395 0.247672
0.101909 -0.036209 0.246375
0.102508 -0.036008 0.244966
0.102894 -0.035736 0.243079
0.103725 -0.035624 0.242264
0.104009 -0.035328 0.240199
0.102896 -0.034570 0.234979
0.102556 -0.034084 0.231613
0.103053 -0.033885 0.230184
0.103485 -0.033668 0.228631
0.103830 -0.033427 0.226912
0.102939 -0.032798 0.222549
0.103445 -0.032623 0.221259
0.103059 -0.032172 0.218096
0.103499 -0.031986 0.216720
0.103214 -0.031581 0.213860
0.103662 -0.031407 0.212553
0.104351 -0.031308 0.211748
0.104897 -0.031169 0.210662
0.105356 -0.031007 0.209414
0.106001 -0.030902 0.208545
0.106893 -0.030870 0.208162
0.107586 -0.030782 0.207389
0.108265 -0.030691 0.206591
-1.573748 -0.421757 2.958892
-1.562094 -0.422386 2.965805
-1.529667 -0.417360 2.932842
-1.540497 -0.424153 2.982809
-1.528473 -0.424720 2.988907
-1.539439 -0.431747 3.040368
-1.513178 -0.432429 3.048832
-1.551003 -0.447482 3.156670
-1.548786 -0.451162 3.184234
-1.540188 -0.453037 3.198965
-1.541856 -0.458000 3.235403
-1.534258 -0.460282 3.252814
-1.526297 -0.462500 3.269680
-1.515154 -0.463790 3.279886
-1.503667 -0.465000 3.289433
-1.492780 -0.466424 3.300393
-1.479755 -0.467203 3.306696
-1.469194 -0.468785 3.318592
-1.458257 -0.470280 3.329786
-1.449872 -0.472640 3.347017
-1.439819 -0.474502 3.360640
-1.429888 -0.476446 3.374763
-1.425876 -0.480429 3.403246
-1.427252 -0.486339 3.445299
-1.428135 -0.492215 3.487035
-1.406702 -0.490446 3.474540
-0.584895 -0.287216 2.024071
-0.570231 -0.284670 2.005396
-0.561008 -0.284800 2.005568
-0.545978 -0.281937 1.984652
-0.534738 -0.280965 1.977050
-0.519639 -0.277895 1.954684
-0.507597 -0.276378 1.943246
-0.498814 -0.276613 1.944121
-0.483506 -0.273170 1.919152
-0.478262 -0.275391 1.933966
-0.463951 -0.272376 1.912004
-0.454461 -0.272127 1.909470
-0.445728 -0.272332 1.910110
-0.437957 -0.273145 1.915016
-0.430132 -0.273958 1.919915
-0.423334 -0.275476 1.929739
-0.422213 -0.280837 1.966472
-0.409164 -0.278328 1.948081
-0.401851 -0.279695 1.956830
-0.395079 -0.281513 1.968729
-0.388238 -0.283369 1.980884
-0.380299 -0.284497 1.987946
-0.371406 -0.284951 1.990295
-0.363516 -0.286219 1.998334
-0.354508 -0.286652 2.000547
-0.346457 -0.287904 2.008477
-0.338406 -0.289229 2.016914
-0.330049 -0.290362 2.024021
-0.320620 -0.290593 2.024840
-0.312735 -0.292281 2.035823
-0.303549 -0.292823 2.038830
-0.009239 -0.045676 0.315949
-0.006522 -0.038622 0.267119
-0.005257 -0.038802 0.268342
-0.003924 -0.038445 0.265845
-0.002641 -0.038450 0.265860
-0.001193 -0.033826 0.233872
-0.000063 -0.033869 0.234156
0.001069 -0.033908 0.234418
0.002232 -0.034365 0.237575
0.003585 -0.036451 0.251994
0.004807 -0.036487 0.252243
0.005752 -0.034827 0.240766
0.006961 -0.035054 0.242346
0.008144 -0.035107 0.242720
0.009372 -0.035311 0.244142
0.010560 -0.035340 0.244359
0.011795 -0.035501 0.245493
0.013028 -0.035630 0.246403
0.014279 -0.035781 0.247476
0.015511 -0.035863 0.248074
0.016737 -0.035923 0.248520
0.017982 -0.036012 0.249169
0.019286 -0.036200 0.250504
0.020590 -0.036366 0.251697
0.021872 -0.036477 0.252509
0.023178 -0.036614 0.253502
0.024481 -0.036732 0.254368
0.025840 -0.036919 0.255716
0.027098 -0.036951 0.255995
0.028390 -0.037025 0.256565
0.029785 -0.037222 0.257988
0.031239 -0.037473 0.259792
0.032667 -0.037675 0.261257
0.033859 -0.037599 0.260799
0.035343 -0.037842 0.262550
0.036746 -0.037984 0.263611
0.038042 -0.038010 0.263866
0.039446 -0.038139 0.264836
0.040825 -0.038235 0.265584
0.042421 -0.038523 0.267664
0.043703 -0.038518 0.267708
0.045096 -0.038607 0.268415
0.046444 -0.038655 0.268828
0.047888 -0.038777 0.269765
0.049285 -0.038856 0.270400
0.050619 -0.038882 0.270674
0.052056 -0.038984 0.271474
0.053578 -0.039144 0.272677
0.055024 -0.039241 0.273446
0.056458 -0.039326 0.274128
0.057874 -0.039394 0.274698
0.059148 -0.039365 0.274588
0.060525 -0.039404 0.274954
0.061975 -0.039487 0.275631
0.063470 -0.039596 0.276482
0.064382 -0.039344 0.274813
0.065750 -0.039374 0.275121
0.067663 -0.039724 0.277656
0.068910 -0.039677 0.277417
0.069556 -0.039292 0.274817
0.070562 -0.039120 0.273706
0.071493 -0.038915 0.272354
0.072552 -0.038784 0.271529
0.073700 -0.038706 0.271063
0.074756 -0.038583 0.270281
0.075797 -0.038455 0.269470
0.076905 -0.038366 0.268924
0.078090 -0.038318 0.268660
0.079177 -0.038223 0.268073
0.080146 -0.038076 0.267111
0.081164 -0.037956 0.266336
0.082078 -0.037792 0.265252
0.083174 -0.037715 0.264776
0.084237 -0.037626 0.264213
0.085304 -0.037541 0.263674
0.086357 -0.037453 0.263107
0.087337 -0.037336 0.262337
0.088387 -0.037252 0.261791
0.089445 -0.037173 0.261282
0.090434 -0.037068 0.260585
0.091291 -0.036913 0.259529
0.092173 -0.036772 0.258569
0.093153 -0.036673 0.257900
0.093982 -0.036518 0.256834
0.094684 -0.036318 0.255446
0.095458 -0.036151 0.254284
0.096312 -0.036018 0.253355
0.097133 -0.035876 0.252359
0.097935 -0.035730 0.251331
0.098831 -0.035622 0.250565
0.099589 -0.035467 0.249462
0.100326 -0.035309 0.248330
0.101113 -0.035171 0.247339
0.101819 -0.035009 0.246170
0.102309 -0.034777 0.244505
0.102669 -0.034507 0.242562
0.102495 -0.034065 0.239408
0.103307 -0.033957 0.238596
0.102412 -0.033296 0.233896
0.102876 -0.033086 0.232358
0.103210 -0.032840 0.230559
0.103985 -0.032738 0.229761
0.103639 -0.032289 0.226524
0.102888 -0.031723 0.222469
0.101662 -0.031025 0.217476
0.102823 -0.031062 0.217631
0.103113 -0.030837 0.215948
0.103777 -0.030728 0.215064
0.104008 -0.030494 0.213300
0.104233 -0.030263 0.211550
0.104585 -0.030073 0.210080
0.105142 -0.029944 0.209034
0.105876 -0.029868 0.208346
0.106884 -0.029870 0.208193
0.107535 -0.029774 0.207341
0.108261 -0.029699 0.206637
-1.551792 -0.401984 2.918272
-1.556163 -0.406730 2.955183
-1.559424 -0.411270 2.990510
-1.552602 -0.413209 3.006835
-1.537312 -0.412910 3.006750
-1.527625 -0.414125 3.017566
-1.559826 -0.426826 3.112011
-1.547343 -0.427424 3.118156
-1.547948 -0.431685 3.150916
-1.541551 -0.434056 3.169797
-1.544486 -0.439128 3.208304
-1.540027 -0.442177 3.231952
-1.530129 -0.443711 3.244420
-1.520561 -0.445372 3.257725
-1.511361 -0.447176 3.271983
-1.500484 -0.448517 3.282750
-1.489976 -0.449997 3.294446
-1.476449 -0.450588 3.299534
-1.467063 -0.452468 3.313979
-1.455067 -0.453576 3.322676
-1.445998 -0.455631 3.338221
-1.436277 -0.457523 3.352495
-1.430198 -0.460631 3.375593
-1.422881 -0.463405 3.396171
-1.440291 -0.474387 3.476821
-1.423439 -0.474207 3.475589
-1.429001 -0.481577 3.529612
-0.585340 -0.277828 2.025252
-0.571113 -0.275582 2.008133
-0.562495 -0.276012 2.010505
-0.548815 -0.273930 1.994575
-0.537323 -0.272887 1.986208
-0.523571 -0.270640 1.969067
-0.511790 -0.269347 1.958881
-0.501657 -0.268892 1.954772
-0.489792 -0.267473 1.943660
-0.478661 -0.266408 1.935126
-0.470166 -0.266798 1.937154
-0.461173 -0.266916 1.937197
-0.452461 -0.267205 1.938478
-0.444831 -0.268158 1.944570
-0.436560 -0.268758 1.948094
-0.431366 -0.271319 1.965822
-0.422588 -0.271690 1.967676
-0.413784 -0.272061 1.969526
-0.405958 -0.273107 1.976260
-0.397827 -0.273994 1.981836
-0.391836 -0.276434 1.998642
-0.382387 -0.276495 1.998250
-0.372906 -0.276536 1.997712
-0.366085 -0.278605 2.011822
-0.357829 -0.279663 2.018635
-0.346421 -0.278248 2.007608
-0.339208 -0.280220 2.021019
-0.329879 -0.280507 2.022287
-0.320322 -0.280614 2.022259
-0.312828 -0.282590 2.035713
-0.303850 -0.283311 2.040128
-0.295103 -0.284302 2.046497
-0.287487 -0.286490 2.061484
-0.282127 -0.291162 2.094345
-0.274478 -0.293730 2.112065
-0.264585 -0.294002 2.113289
-0.010533 -0.037834 0.270718
-0.009229 -0.037846 0.270764
-0.007922 -0.037851 0.270764
-0.006565 -0.037566 0.268693
-0.005149 -0.036728 0.262673
-0.003930 -0.037200 0.266022
-0.002343 -0.032954 0.235641
-0.001199 -0.032819 0.234661
-0.000065 -0.032730 0.234014
0.001066 -0.032726 0.233978
0.002208 -0.032882 0.235084
0.003416 -0.033586 0.240119
0.004587 -0.033661 0.240650
0.005774 -0.033803 0.241669
0.006973 -0.033951 0.242739
0.008167 -0.034037 0.243358
0.009367 -0.034121 0.243975
0.010560 -0.034162 0.244286
0.011781 -0.034281 0.245154
0.013038 -0.034470 0.246532
0.014313 -0.034670 0.247986
0.015530 -0.034712 0.248311
0.016752 -0.034756 0.248663
0.017990 -0.034827 0.249201
0.019241 -0.034912 0.249852
0.020600 -0.035171 0.251744
0.021967 -0.035414 0.253527
0.023253 -0.035508 0.254248
0.024607 -0.035689 0.255598
0.025898 -0.035769 0.256220
0.027172 -0.035817 0.256622
0.028490 -0.035917 0.257394
0.029821 -0.036024 0.258221
0.031361 -0.036364 0.260724
0.032700 -0.036455 0.261442
0.034053 -0.036554 0.262221
0.035306 -0.036542 0.262206
0.036602 -0.036573 0.262503
0.037984 -0.036686 0.263388
0.039425 -0.036847 0.264622
0.041149 -0.037253 0.267617
0.042448 -0.037262 0.267762
0.043744 -0.037268 0.267887
0.045080 -0.037306 0.268250
0.046412 -0.037339 0.268575
0.047822 -0.037431 0.269323
0.049396 -0.037644 0.270942
0.050958 -0.037836 0.272419
0.052307 -0.037865 0.272719
0.053575 -0.037835 0.272592
0.055021 -0.037929 0.273363
0.056479 -0.038027 0.274166
0.057945 -0.038126 0.274972
0.059307 -0.038153 0.275260
0.060639 -0.038160 0.275408
0.062027 -0.038201 0.275801
0.063443 -0.038258 0.276305
0.064878 -0.038324 0.276875
0.065679 -0.038019 0.274769
0.067015 -0.038030 0.274944
0.069053 -0.038432 0.277943
0.069897 -0.038167 0.276114
0.070666 -0.037871 0.274064
0.071834 -0.037795 0.273607
0.072889 -0.037664 0.272746
0.073932 -0.037532 0.271874
0.074777 -0.037305 0.270315
0.075753 -0.037150 0.269275
0.076758 -0.037015 0.268371
0.077805 -0.036903 0.267643
0.078850 -0.036795 0.266931
0.079914 -0.036698 0.266304
0.080869 -0.036556 0.265338
0.082070 -0.036527 0.265196
0.083222 -0.036477 0.264901
0.084183 -0.036347 0.264015
0.085283 -0.036279 0.263584
0.086371 -0.036209 0.263126
0.087333 -0.036088 0.262304
0.088319 -0.035981 0.261571
0.089358 -0.035898 0.261013
0.090301 -0.035778 0.260186
0.091190 -0.035642 0.259229
0.092166 -0.035542 0.258539
0.093015 -0.035397 0.257509
0.093836 -0.035245 0.256427
0.094799 -0.035149 0.255752
0.095584 -0.034991 0.254615
0.096419 -0.034855 0.253635
0.097100 -0.034667 0.252272
0.097852 -0.034508 0.251121
0.098807 -0.034425 0.250506
0.099528 -0.034262 0.249316
0.100232 -0.034098 0.248104
0.100895 -0.033924 0.246815
0.101671 -0.033791 0.245822
0.102041 -0.033528 0.243875
0.102574 -0.033324 0.242351
0.103075 -0.033114 0.240779
0.103310 -0.032824 0.238621
0.103218 -0.032438 0.235756
0.102437 -0.031846 0.231388
0.103197 -0.031740 0.230553
0.103326 -0.031445 0.228332
0.103395 -0.031137 0.226018
0.102088 -0.030426 0.220768
0.101825 -0.030038 0.217854
0.102591 -0.029957 0.217171
0.103469 -0.029911 0.216727
0.103372 -0.029587 0.214260
0.103842 -0.029429 0.212998
0.104060 -0.029204 0.211238
0.104619 -0.029078 0.210189
0.105151 -0.028947 0.209095
0.105943 -0.028890 0.208522
0.106775 -0.028844 0.208028
0.107464 -0.028761 0.207254
0.108194 -0.028690 0.206560
-1.588625 -0.397309 2.988189
-1.568487 -0.395788 2.979200
-1.565074 -0.398499 3.001935
-1.553152 -0.399074 3.008459
-1.551061 -0.402210 3.034177
-1.531817 -0.400914 3.026351
-1.515534 -0.400377 3.024120
-1.524586 -0.406587 3.072754
-1.551001 -0.417591 3.157572
-1.544454 -0.419848 3.176181
-1.539760 -0.422658 3.198878
-1.546022 -0.428561 3.244901
-1.537399 -0.430414 3.260176
-1.523702 -0.430871 3.264771
-1.515731 -0.432973 3.281732
-1.503506 -0.433891 3.289625
-1.492084 -0.435062 3.299345
-1.479423 -0.435894 3.306392
-1.468002 -0.437112 3.316286
-1.456868 -0.438444 3.326951
-1.445715 -0.439799 3.337704
-1.438139 -0.442285 3.356952
-1.432640 -0.445471 3.381443
-1.425890 -0.448337 3.403414
-1.427226 -0.453838 3.445319
-1.442549 -0.463965 3.522262
-1.429770 -0.465184 3.531499
-0.608282 -0.269911 2.039129
-0.599606 -0.270341 2.041640
-0.581052 -0.266259 2.010071
-0.565515 -0.263446 1.988092
-0.560637 -0.265589 2.003495
-0.550969 -0.265498 2.002023
-0.539707 -0.264621 1.994627
-0.527803 -0.263394 1.984578
-0.515733 -0.262038 1.973559
-0.504893 -0.261268 1.966954
-0.496309 -0.261660 1.969086
-0.464748 -0.259684 1.951747
-0.456133 -0.260059 1.953728
-0.450756 -0.262333 1.969974
-0.442010 -0.262703 1.971905
-0.437028 -0.265374 1.991099
-0.427445 -0.265309 1.989752
-0.418537 -0.265669 1.991597
-0.410298 -0.266481 1.996825
-0.401308 -0.266832 1.998604
-0.392186 -0.267111 1.999840
-0.384203 -0.268200 2.007140
-0.377973 -0.270599 2.024241
-0.366421 -0.269214 2.013039
-0.358159 -0.270238 2.019860
-0.348919 -0.270560 2.021434
-0.339010 -0.270368 2.019177
-0.329783 -0.270725 2.021028
-0.321169 -0.271622 2.026921
-0.311495 -0.271651 2.026341
-0.303060 -0.272798 2.034110
-0.294285 -0.273705 2.040102
-0.285249 -0.274424 2.044699
-0.279566 -0.278535 2.074574
-0.270851 -0.279819 2.083388
-0.264214 -0.283429 2.109529
-0.256142 -0.285729 2.125917
-0.248282 -0.288466 2.145569
-0.239038 -0.289762 2.154512
-0.013352 -0.037092 0.274897
-0.011747 -0.036235 0.268502
-0.010471 -0.036305 0.268976
-0.009216 -0.036480 0.270234
-0.007810 -0.036018 0.266777
-0.006498 -0.035890 0.265800
-0.004652 -0.032027 0.237161
-0.003444 -0.031458 0.232929
-0.002317 -0.031447 0.232826
-0.001198 -0.031616 0.234063
-0.000067 -0.031747 0.235020
0.001069 -0.031734 0.234920
0.002207 -0.031761 0.235109
0.003388 -0.032174 0.238167
0.004571 -0.032398 0.239823
0.005791 -0.032735 0.242321
0.006980 -0.032816 0.242928
0.008187 -0.032943 0.243877
0.009396 -0.033048 0.244670
0.010579 -0.033047 0.244680
0.011838 -0.033260 0.246276
0.013035 -0.033275 0.246412
0.014308 -0.033465 0.247844
0.015545 -0.033548 0.248486
0.016752 -0.033558 0.248598
0.017994 -0.033633 0.249187
0.019236 -0.033698 0.249708
0.020665 -0.034065 0.252466
0.021920 -0.034119 0.252915
0.023264 -0.034298 0.254287
0.024617 -0.034472 0.255630
0.025901 -0.034538 0.256174
0.027192 -0.034606 0.256731
0.028466 -0.034648 0.257103
0.029893 -0.034865 0.258771
0.031248 -0.034983 0.259712
0.032674 -0.035169 0.261160
0.034005 -0.035242 0.261774
0.035332 -0.035306 0.262324
0.036750 -0.035454 0.263496
0.038125 -0.035551 0.264296
0.039486 -0.035629 0.264953
0.041037 -0.035869 0.266816
0.042358 -0.035900 0.267128
0.043686 -0.035934 0.267464
0.045057 -0.036000 0.268041
0.046415 -0.036052 0.268521
0.047811 -0.036131 0.269195
0.049456 -0.036389 0.271206
0.051016 -0.036571 0.272661
0.052434 -0.036646 0.273313
0.053764 -0.036658 0.273491
0.055104 -0.036675 0.273713
0.056526 -0.036745 0.274332
0.057877 -0.036766 0.274588
0.059355 -0.036865 0.275422
0.060776 -0.036926 0.275971
0.062227 -0.037001 0.276635
0.063602 -0.037029 0.276941
0.064953 -0.037043 0.277140
0.066254 -0.037028 0.277121
0.067496 -0.036981 0.276864
0.068689 -0.036909 0.276427
0.069813 -0.036804 0.275730
0.071023 -0.036747 0.275397
0.072093 -0.036621 0.274546
0.073173 -0.036505 0.273762
0.074033 -0.036285 0.272202
0.074901 -0.036077 0.270722
0.075927 -0.035950 0.269854
0.076983 -0.035841 0.269120
0.078102 -0.035765 0.268628
0.078865 -0.035531 0.266947
0.079985 -0.035462 0.266507
0.081158 -0.035419 0.266256
0.082149 -0.035299 0.265421
0.083317 -0.035258 0.265177
0.084312 -0.035145 0.264396
0.085372 -0.035063 0.263837
0.086473 -0.034999 0.263416
0.087451 -0.034889 0.262636
0.088411 -0.034774 0.261825
0.089392 -0.034671 0.261094
0.090408 -0.034584 0.260480
0.091323 -0.034461 0.259593
0.092186 -0.034322 0.258581
0.093035 -0.034182 0.257553
0.093771 -0.034004 0.256242
0.094591 -0.033861 0.255185
0.095443 -0.033733 0.254235
0.096138 -0.033553 0.252892
0.096979 -0.033428 0.251955
0.097770 -0.033289 0.250910
0.098548 -0.033149 0.249852
0.099295 -0.033002 0.248735
0.100076 -0.032869 0.247724
0.100717 -0.032695 0.246388
0.101466 -0.032558 0.245336
0.101985 -0.032352 0.243753
0.102580 -0.032175 0.242379
0.102675 -0.031846 0.239859
0.103596 -0.031778 0.239298
0.103299 -0.031342 0.235959
0.102718 -0.030830 0.232043
0.102832 -0.030536 0.229758
0.103542 -0.030422 0.228831
0.102886 -0.029914 0.224930
0.101384 -0.029173 0.219272
0.101994 -0.029049 0.218245
0.102285 -0.028837 0.216552
0.102971 -0.028740 0.215716
0.103325 -0.028552 0.214197
0.103669 -0.028366 0.212677
0.104039 -0.028190 0.211232
0.104758 -0.028112 0.210507
0.105233 -0.027970 0.209299
0.105839 -0.027865 0.208360
0.106577 -0.027797 0.207687
0.107337 -0.027735 0.207056
0.108099 -0.027675 0.206428
-1.589132 -0.383214 2.989760
-1.569276 -0.381818 2.981285
-1.547156 -0.379841 2.968121
-1.561020 -0.386743 3.024237
-1.537969 -0.391764 3.069347
-1.525684 -0.392319 3.075402
-1.549801 -0.402335 3.155545
-1.555029 -0.407595 3.198324
-1.543397 -0.408495 3.206805
-1.544516 -0.412821 3.242087
-1.537997 -0.415172 3.261767
-1.529210 -0.416952 3.276870
-1.517230 -0.417890 3.285251
-1.505640 -0.418955 3.294541
-1.494139 -0.420069 3.304112
-1.480323 -0.420548 3.308603
