ply
format ascii 1.0
element vertex 1745
property float x
property float y
property float z
end_header
0.104597 0.059691 0.222234
0.105488 0.059590 0.221674
0.105955 0.059252 0.220227
0.106614 0.059029 0.219195
0.107263 0.058804 0.218151
0.107760 0.058500 0.216806
0.108694 0.058438 0.216344
0.109334 0.058220 0.215299
0.109700 0.057861 0.213723
0.110205 0.057582 0.212432
0.110898 0.057406 0.211510
0.111599 0.057237 0.210602
-0.982997 0.525203 1.924360
-0.965974 0.520966 1.910761
-0.959585 0.522439 1.918001
-0.944789 0.519318 1.908287
-0.935957 0.519448 1.910421
-0.925312 0.518564 1.908743
-0.915315 0.518031 1.908270
-0.907805 0.518908 1.912917
-0.898367 0.518690 1.913455
-0.889681 0.518906 1.915522
-0.962372 0.567080 2.094662
-0.953636 0.567774 2.098466
-0.946948 0.569717 2.106815
-0.937013 0.569726 2.107948
-0.924754 0.568307 2.103729
-0.806241 0.500851 1.854873
-0.792373 0.497637 1.843756
-0.779837 0.495196 1.835443
-0.773366 0.496596 1.841311
-0.761436 0.494482 1.834100
-0.828640 0.607006 2.256142
-0.825111 0.612259 2.275873
-0.816018 0.613467 2.280527
-0.801831 0.610828 2.270838
-0.612120 0.499571 1.857260
-0.591485 0.489717 1.820551
-0.583703 0.490372 1.822885
-0.282470 0.288091 1.069286
-0.268087 0.278387 1.033077
-0.260609 0.275628 1.022641
-0.254571 0.274318 1.017576
-0.249703 0.274241 1.017084
-0.245128 0.274489 1.017789
-0.239931 0.274038 1.015896
-0.235246 0.274165 1.016145
-0.230351 0.274047 1.015481
-0.225429 0.273893 1.014679
-0.221082 0.274445 1.016490
-0.215762 0.273787 1.013817
-0.209786 0.272249 1.007882
-0.205245 0.272544 1.008736
-0.183775 0.249839 0.924479
-0.176186 0.245358 0.907680
-0.167786 0.239497 0.885783
-0.163054 0.238705 0.882640
-0.157946 0.237307 0.877258
-0.150650 0.232457 0.859123
-0.146723 0.232681 0.859742
-0.110993 0.181044 0.668785
-0.105924 0.177853 0.656840
-0.103830 0.179616 0.663196
-0.100001 0.178393 0.658526
-0.096042 0.176853 0.652690
-0.092089 0.175223 0.646522
-0.088709 0.174608 0.644107
-0.085627 0.174555 0.643771
-0.082436 0.174270 0.642576
-0.079358 0.174212 0.642222
-0.076694 0.175092 0.645331
-0.073821 0.175551 0.646889
-0.070968 0.176097 0.648770
-0.068131 0.176737 0.650998
-0.065154 0.177059 0.652055
-0.062278 0.177698 0.654288
-0.059239 0.177917 0.654975
-0.056273 0.178392 0.656607
-0.053345 0.179052 0.658924
-0.050323 0.179457 0.660305
-0.047373 0.180191 0.662903
-0.044319 0.180609 0.664341
-0.041261 0.181070 0.665941
-0.038177 0.181488 0.667385
-0.034987 0.181432 0.667092
-0.031788 0.181318 0.666591
-0.028621 0.181378 0.666735
-0.025352 0.180728 0.664272
-0.021841 0.177921 0.653891
-0.006980 0.099436 0.365352
-0.005144 0.097666 0.358823
-0.003417 0.097220 0.357162
-0.001726 0.097970 0.359897
-0.000009 0.097454 0.357985
0.001727 0.099052 0.363841
0.005280 0.100595 0.369490
0.006966 0.099493 0.365437
0.005910 0.067514 0.247976
0.007093 0.067506 0.247947
0.008082 0.065917 0.242114
0.009092 0.064880 0.238308
0.010194 0.064653 0.237480
0.011245 0.064186 0.235773
0.012345 0.064050 0.235282
0.013423 0.063837 0.234510
0.014531 0.063787 0.234339
0.015615 0.063648 0.233842
0.016719 0.063600 0.233684
0.017755 0.063316 0.232657
0.018748 0.062921 0.231224
0.019492 0.061781 0.227055
0.020115 0.060399 0.221996
0.021254 0.060627 0.222855
0.022745 0.061789 0.227149
0.023903 0.061981 0.227880
0.025047 0.062121 0.228420
0.026176 0.062215 0.228794
0.027377 0.062464 0.229740
0.028504 0.062531 0.230017
0.029707 0.062754 0.230869
0.030969 0.063082 0.232105
0.032213 0.063353 0.233134
0.033367 0.063433 0.233463
0.034584 0.063623 0.234198
0.035783 0.063770 0.234773
0.037073 0.064065 0.235896
0.038455 0.064497 0.237524
0.039623 0.064555 0.237775
0.040722 0.064501 0.237613
0.042092 0.064867 0.238999
0.043397 0.065116 0.239956
0.044718 0.065377 0.240955
0.045978 0.065537 0.241582
0.047172 0.065597 0.241842
0.048361 0.065647 0.242067
0.049646 0.065823 0.242753
0.050945 0.066007 0.243470
0.052576 0.066605 0.245714
0.053759 0.066622 0.245811
0.054979 0.066683 0.246072
0.056270 0.066825 0.246632
0.057595 0.067001 0.247317
0.058803 0.067036 0.247481
0.060002 0.067060 0.247602
0.061298 0.067189 0.248109
0.062556 0.067272 0.248446
0.064058 0.067610 0.249721
0.065441 0.067813 0.250497
0.066690 0.067871 0.250736
0.068091 0.068079 0.251529
0.069418 0.068208 0.252025
0.070707 0.068294 0.252365
0.071899 0.068287 0.252354
0.073263 0.068440 0.252933
0.074495 0.068467 0.253043
0.078106 0.070643 0.261097
0.079228 0.070537 0.260711
0.080354 0.070437 0.260343
0.081402 0.070273 0.259736
0.082512 0.070166 0.259338
0.083665 0.070098 0.259081
0.084406 0.069692 0.257570
0.085338 0.069453 0.256671
0.086462 0.069375 0.256363
0.087199 0.068993 0.254930
0.087527 0.068301 0.252347
0.088237 0.067924 0.250921
0.089221 0.067763 0.250292
0.089911 0.067387 0.248864
0.090358 0.066840 0.246800
0.090547 0.066119 0.244089
0.091548 0.066003 0.243604
0.091910 0.065433 0.241444
0.092296 0.064895 0.239393
0.092942 0.064550 0.238054
0.093723 0.064306 0.237080
0.094526 0.064084 0.236179
0.095343 0.063875 0.235323
0.096167 0.063676 0.234499
0.096915 0.063432 0.233500
0.097695 0.063214 0.232594
0.098603 0.063083 0.232000
0.099298 0.062819 0.230913
0.100133 0.062649 0.230163
0.100810 0.062386 0.229061
0.101418 0.062085 0.227818
0.102199 0.061895 0.226976
0.102344 0.061329 0.224745
0.103180 0.061184 0.224052
0.103639 0.060820 0.222551
0.104337 0.060603 0.221577
0.105198 0.060484 0.220955
0.105492 0.060044 0.219155
0.106020 0.059745 0.217859
0.106465 0.059406 0.216408
0.107285 0.059280 0.215727
0.108154 0.059183 0.215141
0.108786 0.058960 0.214087
0.109442 0.058754 0.213085
0.109703 0.058341 0.211323
0.110374 0.058153 0.210365
0.111152 0.058023 0.209607
-0.965411 0.529803 1.908614
-0.949951 0.526273 1.897758
-0.941587 0.526644 1.900872
-0.928962 0.524617 1.895235
-0.923038 0.526371 1.903177
-0.913624 0.526151 1.903906
-0.905980 0.526956 1.908267
-0.897335 0.527189 1.910488
-0.889139 0.527695 1.913622
-0.883762 0.529900 1.922857
-0.948460 0.574606 2.086348
-0.948846 0.580880 2.110337
-0.935737 0.578938 2.104414
-0.924194 0.577934 2.101828
-0.808143 0.510846 1.858725
-0.791408 0.505756 1.841019
-0.783222 0.506077 1.842950
-0.774105 0.505797 1.842638
-0.761579 0.503258 1.834043
-0.831721 0.619960 2.264353
-0.819838 0.619027 2.261181
-0.816599 0.624684 2.282035
-0.802633 0.622176 2.273022
-0.282107 0.292776 1.068109
-0.265867 0.280933 1.024724
-0.259612 0.279398 1.018939
-0.254505 0.279065 1.017531
-0.249830 0.279201 1.017829
-0.244868 0.279016 1.016948
-0.239894 0.278810 1.015989
-0.235041 0.278740 1.015519
-0.230267 0.278762 1.015382
-0.225268 0.278507 1.014232
-0.220786 0.278895 1.015418
-0.215368 0.278091 1.012264
-0.210816 0.278395 1.013139
-0.188036 0.254082 0.924447
-0.183512 0.253867 0.923454
-0.176637 0.250311 0.910306
-0.167373 0.243109 0.883907
-0.162583 0.242201 0.880398
-0.156158 0.238747 0.867641
-0.152200 0.238979 0.868280
-0.111044 0.184313 0.669350
-0.106310 0.181642 0.659496
-0.103917 0.182930 0.664020
-0.099777 0.181126 0.657324
-0.095877 0.179657 0.651843
-0.092277 0.178670 0.648120
-0.088935 0.178135 0.646035
-0.085906 0.178207 0.646157
-0.082856 0.178243 0.646148
-0.079824 0.178321 0.646293
-0.076950 0.178772 0.647795
-0.074117 0.179361 0.649796
-0.071374 0.180227 0.652806
-0.068513 0.180864 0.654986
-0.065598 0.181410 0.656838
-0.062631 0.181858 0.658341
-0.059581 0.182104 0.659113
-0.056676 0.182844 0.661677
-0.053616 0.183142 0.662646
-0.050582 0.183568 0.664082
-0.047660 0.184491 0.667315
-0.044636 0.185121 0.669498
-0.041566 0.185642 0.671285
-0.038435 0.185957 0.672336
-0.035215 0.185858 0.671892
-0.032023 0.185900 0.671961
-0.028779 0.185622 0.670881
-0.025388 0.184212 0.665714
-0.021949 0.181994 0.657632
-0.018819 0.182034 0.657718
-0.006964 0.101013 0.364919
-0.005253 0.101559 0.366865
-0.003468 0.100519 0.363085
-0.001749 0.101224 0.365611
-0.000005 0.101866 0.367912
0.001728 0.100623 0.363410
0.003497 0.101662 0.367152
0.005275 0.102190 0.369052
0.006959 0.101071 0.365004
0.008925 0.103688 0.374453
0.010653 0.103119 0.372396
0.010254 0.066155 0.238917
0.011391 0.066140 0.238870
0.012239 0.064599 0.233314
0.013340 0.064541 0.233115
0.014513 0.064811 0.234103
0.015573 0.064577 0.233269
0.016677 0.064543 0.233162
0.017792 0.064551 0.233207
0.018800 0.064195 0.231939
0.019488 0.062845 0.227082
0.020441 0.062446 0.225659
0.021547 0.062533 0.225993
0.022664 0.062639 0.226401
0.023753 0.062663 0.226513
0.024932 0.062911 0.227433
0.026128 0.063181 0.228434
0.027420 0.063651 0.230161
0.028595 0.063824 0.230816
0.029742 0.063924 0.231208
0.030942 0.064127 0.231971
0.032095 0.064221 0.232344
0.033292 0.064393 0.233000
0.034496 0.064568 0.233663
0.035774 0.064866 0.234775
0.037016 0.065082 0.235594
0.038418 0.065559 0.237356
0.039641 0.065713 0.237946
0.040838 0.065814 0.238348
0.042008 0.065869 0.238583
0.043289 0.066089 0.239417
0.044635 0.066394 0.240560
0.045855 0.066503 0.240992
0.047034 0.066547 0.241188
0.048282 0.066685 0.241724
0.049548 0.066840 0.242321
0.050814 0.066988 0.242893
0.052141 0.067209 0.243729
0.053564 0.067540 0.244964
0.054987 0.067858 0.246151
0.056282 0.068007 0.246725
0.057405 0.067946 0.246537
0.058659 0.068040 0.246908
0.059934 0.068155 0.247354
0.061200 0.068254 0.247745
0.062690 0.068595 0.249010
0.063964 0.068692 0.249385
0.065239 0.068784 0.249746
0.066619 0.068984 0.250494
0.067887 0.069062 0.250796
0.069015 0.068997 0.250580
0.070270 0.069059 0.250820
0.071429 0.069026 0.250716
0.073095 0.069477 0.252364
0.076838 0.071854 0.261008
0.078071 0.071847 0.260989
0.079235 0.071777 0.260736
0.080203 0.071534 0.259855
0.081347 0.071454 0.259559
0.082639 0.071503 0.259731
0.083162 0.070896 0.257516
0.083881 0.070470 0.255955
0.084673 0.070117 0.254656
0.085784 0.070035 0.254337
0.086671 0.069775 0.253365
0.087328 0.069338 0.251751
0.087919 0.068862 0.249988
0.089100 0.068855 0.249923
0.089815 0.068492 0.248565
0.089993 0.067735 0.245769
0.088746 0.065938 0.239196
0.089781 0.065861 0.238861
0.091133 0.066015 0.239359
0.091900 0.065747 0.238319
0.092699 0.065508 0.237379
0.093529 0.065296 0.236535
0.094292 0.065043 0.235535
0.095302 0.064965 0.235161
0.095910 0.064617 0.233806
0.096734 0.064421 0.232997
0.097553 0.064226 0.232184
0.098123 0.063874 0.230794
0.099024 0.063742 0.230197
0.099673 0.063453 0.229024
0.100368 0.063199 0.227972
0.101067 0.062953 0.226940
0.101885 0.062785 0.226185
0.102134 0.062274 0.224186
0.102942 0.062111 0.223434
0.103413 0.061750 0.221961
0.104061 0.061501 0.220885
0.105035 0.061447 0.220500
0.105498 0.061099 0.219051
0.105852 0.060694 0.217393
0.106100 0.060238 0.215542
0.106902 0.060102 0.214828
0.107872 0.060062 0.214448
0.108313 0.059731 0.213019
0.108948 0.059512 0.211980
0.109314 0.059151 0.210428
0.109823 0.058875 0.209164
0.110483 0.058683 0.208191
-1.494015 0.789460 2.774393
-1.490880 0.794883 2.797165
-1.467210 0.789357 2.781246
-1.455295 0.790113 2.787285
-0.957778 0.534683 1.892460
-0.949136 0.534893 1.895105
-0.938560 0.534008 1.893777
-0.930816 0.534733 1.898071
-0.922493 0.535137 1.901144
-0.913535 0.535177 1.902848
-0.905251 0.535617 1.905896
-0.895716 0.535318 1.906239
-0.887817 0.536001 1.910007
-0.882814 0.538465 1.920058
-0.947616 0.584000 2.083730
-0.938220 0.584285 2.085976
-0.933003 0.587206 2.097572
-0.916304 0.582886 2.083229
-0.808093 0.519628 1.858057
-0.790470 0.513872 1.838320
-0.782562 0.514375 1.840908
-0.772483 0.513446 1.838319
-0.760044 0.510909 1.829918
-0.830730 0.629906 2.261452
-0.819718 0.629617 2.260677
-0.814726 0.634007 2.276658
-0.802108 0.632498 2.271420
-0.281742 0.297445 1.066915
-0.270787 0.291072 1.043880
-0.259763 0.284388 1.019730
-0.253821 0.283121 1.015006
-0.249848 0.284044 1.018126
-0.244811 0.283769 1.016947
-0.239867 0.283594 1.016119
-0.234958 0.283454 1.015411
-0.230072 0.283336 1.014782
-0.225647 0.283794 1.016209
-0.220396 0.283212 1.013908
-0.215335 0.282851 1.012399
-0.210781 0.283157 1.013271
-0.187763 0.258097 0.923390
-0.180719 0.254324 0.909688
-0.173625 0.250296 0.895080
-0.163746 0.241951 0.865043
-0.160496 0.243226 0.869402
-0.153676 0.239013 0.854153
-0.111691 0.188593 0.673510
-0.107224 0.186371 0.665426
-0.104700 0.187496 0.669294
-0.100014 0.184697 0.659154
-0.096322 0.183613 0.655143
-0.092629 0.182456 0.650874
-0.089041 0.181433 0.647085
-0.086158 0.181825 0.648345
-0.082876 0.181373 0.646598
-0.079955 0.181708 0.647659
-0.077248 0.182574 0.650614
-0.074261 0.182824 0.651377
-0.071511 0.183703 0.654384
-0.068703 0.184507 0.657124
-0.065741 0.184958 0.658610
-0.062831 0.185604 0.660790
-0.059876 0.186181 0.662731
-0.056885 0.186703 0.664477
-0.053962 0.187522 0.667284
-0.050984 0.188245 0.669749
-0.047994 0.189012 0.672378
-0.044979 0.189789 0.675046
-0.041876 0.190285 0.676714
-0.038675 0.190379 0.676959
-0.035381 0.189991 0.675495
-0.032078 0.189477 0.673590
-0.028805 0.189044 0.671975
-0.025410 0.187600 0.666771
-0.022046 0.186012 0.661065
-0.018622 0.183301 0.651371
-0.015522 0.183336 0.651442
-0.007041 0.103950 0.369335
-0.005305 0.104423 0.370988
-0.003498 0.103264 0.366851
-0.001754 0.103555 0.367862
-0.000001 0.104778 0.372191
0.001759 0.103960 0.369269
0.003548 0.104801 0.372246
0.005302 0.104398 0.370806
0.007070 0.104396 0.370794
0.008915 0.105300 0.374003
0.010640 0.104722 0.371948
0.012447 0.105009 0.372968
0.014492 0.065820 0.233823
0.015454 0.065175 0.231543
0.016546 0.065125 0.231379
0.017572 0.064841 0.230386
0.018167 0.063093 0.224192
0.019265 0.063186 0.224542
0.020407 0.063406 0.225343
0.021486 0.063422 0.225417
0.022592 0.063508 0.225747
0.023675 0.063526 0.225831
0.024841 0.063756 0.226675
0.026157 0.064334 0.228753
0.027490 0.064907 0.230817
0.028609 0.064950 0.230998
0.029640 0.064796 0.230478
0.030866 0.065064 0.231461
0.031998 0.065123 0.231703
0.033157 0.065232 0.232118
0.034286 0.065274 0.232302
0.035531 0.065529 0.233241
0.036821 0.065850 0.234413
0.038458 0.066753 0.237663
0.039588 0.066749 0.237683
0.040723 0.066755 0.237736
0.041862 0.066766 0.237810
0.043092 0.066917 0.238382
0.044240 0.066937 0.238487
0.045794 0.067553 0.240720
0.046951 0.067569 0.240809
0.048229 0.067755 0.241508
0.049477 0.067890 0.242021
0.050692 0.067974 0.242355
0.051980 0.068151 0.243017
0.053185 0.068213 0.243272
0.054367 0.068244 0.243414
0.055600 0.068336 0.243772
0.057263 0.068942 0.245965
0.058504 0.069026 0.246293
0.059797 0.069166 0.246819
0.061072 0.069282 0.247258
0.062493 0.069554 0.248254
0.063894 0.069795 0.249137
0.065173 0.069895 0.249518
0.066486 0.070029 0.250015
0.067751 0.070107 0.250311
0.068855 0.070020 0.250014
0.070118 0.070093 0.250291
0.071208 0.069995 0.249951
0.072706 0.070294 0.251028
0.076556 0.072821 0.260059
0.077858 0.072882 0.260278
0.079014 0.072807 0.260010
0.079978 0.072559 0.259123
0.081141 0.072497 0.258896
0.082205 0.072349 0.258357
0.083078 0.072041 0.257242
0.083806 0.071617 0.255711
0.084405 0.071096 0.253832
0.085518 0.071017 0.253526
0.086189 0.070579 0.251932
0.086816 0.070117 0.250249
0.087737 0.069901 0.249443
0.088748 0.069762 0.248903
0.089746 0.069616 0.248338
0.090708 0.069446 0.247679
0.090111 0.068103 0.242835
0.090534 0.067555 0.240820
0.091105 0.067129 0.239236
0.092058 0.066992 0.238677
0.092764 0.066681 0.237492
0.093522 0.066414 0.236459
0.094223 0.066113 0.235301
0.094961 0.065845 0.234255
0.095576 0.065499 0.232925
0.096311 0.065242 0.231905
0.097381 0.065215 0.231699
0.098078 0.064942 0.230609
0.098728 0.064645 0.229428
0.099697 0.064559 0.228992
0.100039 0.064075 0.227134
0.100795 0.063863 0.226236
0.101490 0.063617 0.225212
0.102135 0.063345 0.224088
0.102818 0.063103 0.223061
0.103054 0.062593 0.221082
0.103903 0.062463 0.220436
0.104772 0.062347 0.219831
0.105145 0.061941 0.218197
0.105732 0.061668 0.217023
0.106155 0.061306 0.215526
0.106779 0.061065 0.214448
0.107602 0.060942 0.213774
0.108133 0.060657 0.212524
0.108740 0.060420 0.211430
0.109012 0.060003 0.209697
0.109513 0.059718 0.208417
0.110190 0.059534 0.207478
-1.478832 0.794693 2.744191
-1.467707 0.795802 2.751747
-1.449724 0.793180 2.746233
-1.442894 0.796668 2.761723
-1.428305 0.795898 2.762314
-1.417009 0.796967 2.769141
-0.959526 0.544744 1.894805
-0.951472 0.545305 1.898701
-0.937646 0.542537 1.890909
-0.928940 0.542707 1.893261
-0.922651 0.544307 1.900522
-0.912546 0.543665 1.899879
-0.903807 0.543833 1.901982
-0.894731 0.543799 1.903307
-0.886865 0.544508 1.907159
-0.882350 0.547310 1.918278
-0.955728 0.598990 2.100763
-0.948075 0.600437 2.107117
-0.936601 0.599470 2.104929
-0.926510 0.599376 2.105737
-0.917688 0.600111 2.109388
-0.789727 0.522098 1.836048
-0.781097 0.522121 1.836946
-0.771252 0.521323 1.834905
-0.757433 0.517791 1.823178
-0.824258 0.635602 2.243607
-0.817763 0.638773 2.255090
-0.810588 0.641488 2.264926
-0.797677 0.639676 2.258735
-0.788086 0.640514 2.261862
-0.280923 0.301615 1.063990
-0.268388 0.293391 1.034819
-0.260957 0.290546 1.024615
-0.254215 0.288375 1.016786
-0.249464 0.288423 1.016775
-0.244682 0.288436 1.016636
-0.239451 0.287909 1.014591
-0.234655 0.287896 1.014350
-0.229726 0.287716 1.013515
-0.224905 0.287666 1.013138
-0.220334 0.287941 1.013897
-0.214871 0.287036 1.010502
-0.210324 0.287343 1.011371
-0.187489 0.262098 0.922318
-0.181120 0.259219 0.911994
-0.175452 0.257227 0.904787
-0.165833 0.249198 0.876355
-0.159795 0.246278 0.865898
-0.156411 0.247401 0.869657
-0.111362 0.191235 0.671782
-0.107594 0.190195 0.667984
-0.104291 0.189939 0.666938
-0.100128 0.188054 0.660178
-0.096352 0.186796 0.655622
-0.092847 0.185997 0.652679
-0.089537 0.185549 0.650973
-0.086395 0.185429 0.650416
-0.083485 0.185816 0.651643
-0.080602 0.186296 0.653198
-0.077802 0.187014 0.655585
-0.075067 0.187955 0.658759
-0.072098 0.188366 0.660074
-0.069244 0.189130 0.662630
-0.066496 0.190270 0.666506
-0.063328 0.190265 0.666370
-0.060369 0.190917 0.668541
-0.057407 0.191634 0.670940
-0.054290 0.191884 0.671711
-0.051273 0.192545 0.673921
-0.048214 0.193126 0.675856
-0.045213 0.194038 0.678950
-0.042063 0.194405 0.680144
-0.038814 0.194334 0.679809
-0.035482 0.193805 0.677872
-0.032171 0.193287 0.675984
-0.028809 0.192325 0.672546
-0.025377 0.190587 0.666398
-0.022127 0.189927 0.664027
-0.018857 0.188836 0.660155
-0.015716 0.188872 0.660226
-0.007171 0.107731 0.376562
-0.005237 0.104923 0.366721
-0.003477 0.104509 0.365252
-0.001762 0.106033 0.370558
0.000003 0.105319 0.368045
0.001755 0.105196 0.367604
0.003526 0.105761 0.369567
0.005310 0.106221 0.371165
0.007079 0.106231 0.371193
0.008882 0.106629 0.372580
0.010673 0.106788 0.373134
0.012431 0.106610 0.372514
0.014389 0.107979 0.377304
0.016889 0.072421 0.253108
0.017763 0.071088 0.248464
0.018762 0.070394 0.246054
0.018236 0.064392 0.225091
0.019192 0.064002 0.223744
0.020191 0.063791 0.223024
0.021240 0.063747 0.222889
0.022476 0.064243 0.224646
0.023638 0.064493 0.225540
0.024764 0.064625 0.226025
0.025933 0.064856 0.226856
0.028508 0.068442 0.239425
0.029067 0.067099 0.234754
0.029966 0.066612 0.233076
0.031019 0.066488 0.232673
0.032136 0.066506 0.232765
0.033213 0.066442 0.232568
0.034229 0.066264 0.231974
0.035378 0.066347 0.232297
0.036529 0.066429 0.232615
0.038480 0.067917 0.237858
0.039617 0.067925 0.237916
0.040769 0.067956 0.238058
0.041924 0.067992 0.238214
0.043080 0.068027 0.238369
0.044474 0.068425 0.239799
0.045839 0.068761 0.241009
0.047026 0.068820 0.241247
0.048163 0.068803 0.241219
0.049400 0.068928 0.241692
0.050632 0.069039 0.242111
0.051824 0.069093 0.242330
0.053219 0.069409 0.243468
0.054374 0.069405 0.243483
0.055485 0.069346 0.243304
0.056811 0.069552 0.244055
0.058160 0.069779 0.244877
0.059731 0.070256 0.246577
0.061045 0.070419 0.247173
0.062614 0.070865 0.248760
0.063991 0.071080 0.249538
0.065198 0.071103 0.249636
0.066435 0.071156 0.249841
0.067652 0.071187 0.249962
0.068874 0.071222 0.250097
0.070104 0.071263 0.250253
0.071168 0.071137 0.249819
0.072623 0.071399 0.250746
0.076726 0.074215 0.260638
0.077847 0.074102 0.260242
0.078885 0.073915 0.259583
0.079987 0.073793 0.259147
0.081065 0.073652 0.258643
0.082019 0.073405 0.257761
0.083017 0.073204 0.257038
0.084017 0.073010 0.256339
0.084368 0.072266 0.253700
0.085250 0.071991 0.252709
0.085783 0.071433 0.250717
0.086646 0.071162 0.249729
0.087098 0.070564 0.247592
0.087609 0.070030 0.245673
0.088281 0.069637 0.244245
0.089140 0.069399 0.243357
0.089860 0.069061 0.242113
0.090812 0.068907 0.241509
0.091429 0.068506 0.240034
0.092169 0.068206 0.238908
0.092860 0.067878 0.237679
0.093559 0.067563 0.236491
0.094069 0.067121 0.234853
0.094869 0.066893 0.233959
0.095611 0.066630 0.232937
0.096475 0.066458 0.232226
0.097106 0.066131 0.230967
0.098129 0.066074 0.230647
0.098771 0.065766 0.229440
0.099379 0.065441 0.228172
0.100100 0.065198 0.227180
0.100762 0.064921 0.226066
0.101486 0.064690 0.225102
0.102055 0.064365 0.223807
0.102711 0.064102 0.222719
0.103183 0.063731 0.221246
0.103521 0.063285 0.219510
0.104467 0.063217 0.219072
0.105053 0.062933 0.217882
0.105268 0.062435 0.215941
0.105620 0.062028 0.214307
0.106320 0.061831 0.213390
0.107116 0.061692 0.212666
0.107710 0.061441 0.211545
0.108306 0.061196 0.210434
0.108914 0.060962 0.209351
0.108985 0.060435 0.207252
0.109712 0.060277 0.206413
-1.480416 0.808815 2.745048
-1.474437 0.812787 2.762344
-1.458698 0.811403 2.761284
-1.448151 0.812908 2.769902
-1.439740 0.815653 2.782606
-1.416206 0.809802 2.765826
-1.404391 0.810604 2.771610
-0.949232 0.553097 1.893125
-0.939760 0.552831 1.894107
-0.928467 0.551480 1.891275
-0.920673 0.552200 1.895463
-0.911779 0.552269 1.897335
-0.902132 0.551880 1.897549
-0.893224 0.551939 1.899232
-0.885224 0.552567 1.902794
-0.878905 0.554268 1.909988
-0.945713 0.602600 2.077915
-0.937891 0.603896 2.083686
-0.938934 0.610987 2.109401
-0.930077 0.611720 2.113110
-0.791019 0.531676 1.838476
-0.783089 0.532184 1.841087
-0.770788 0.529701 1.833287
-0.761749 0.529428 1.833084
-0.754050 0.530092 1.836073
-0.839884 0.650133 2.256616
-0.827138 0.648465 2.251191
-0.813156 0.645771 2.242159
-0.808532 0.650537 2.258987
-0.797984 0.650599 2.259442
-0.783877 0.647724 2.249651
-0.281181 0.306932 1.065137
-0.270423 0.300550 1.042839
-0.258909 0.293078 1.016757
-0.253926 0.292856 1.015823
-0.248836 0.292500 1.014420
-0.243914 0.292331 1.013661
-0.239236 0.292455 1.013909
-0.234105 0.292017 1.012208
-0.229533 0.292275 1.012912
-0.224767 0.292291 1.012774
-0.219950 0.292241 1.012401
-0.214983 0.291983 1.011309
-0.208345 0.289395 1.002141
-0.203826 0.289697 1.002983
-0.181346 0.263878 0.913405
-0.176911 0.263700 0.912598
-0.172771 0.263962 0.913315
-0.160685 0.251789 0.871012
-0.156718 0.252031 0.871665
-0.111947 0.195454 0.675560
-0.108820 0.195578 0.675849
-0.105380 0.195133 0.674168
-0.100388 0.191695 0.662154
-0.096962 0.191123 0.660042
-0.093490 0.190419 0.657476
-0.089862 0.189338 0.653609
-0.087069 0.190003 0.655774
-0.084290 0.190748 0.658219
-0.081296 0.191048 0.659124
-0.078628 0.192164 0.662849
-0.075705 0.192729 0.664672
-0.072691 0.193099 0.665829
-0.069959 0.194288 0.669806
-0.066949 0.194780 0.671388
-0.063970 0.195415 0.673462
-0.060842 0.195640 0.674127
-0.057892 0.196496 0.676967
-0.054844 0.197101 0.678946
-0.051747 0.197592 0.680536
-0.048639 0.198104 0.682201
-0.045527 0.198675 0.684075
-0.042444 0.199471 0.686724
-0.038977 0.198445 0.683106
-0.035655 0.198035 0.681613
-0.032350 0.197653 0.680220
-0.028967 0.196649 0.676693
-0.025547 0.195118 0.671356
-0.022074 0.192694 0.662955
-0.018775 0.191226 0.657847
-0.015647 0.191262 0.657918
-0.007155 0.109343 0.376098
-0.005282 0.107675 0.370337
-0.003472 0.106226 0.365330
-0.001746 0.107118 0.368380
0.000008 0.107167 0.368531
0.001754 0.106646 0.366727
0.003508 0.106851 0.367420
0.005264 0.106971 0.367823
0.007049 0.107473 0.369542
0.008854 0.108013 0.371394
0.010731 0.109112 0.375171
0.012597 0.109790 0.377504
0.014370 0.109595 0.376838
0.016275 0.110338 0.379399
0.018130 0.110627 0.380401
0.019927 0.110541 0.380117
0.021750 0.110599 0.380332
0.016865 0.073506 0.252796
0.017774 0.072305 0.248680
0.018821 0.071778 0.246882
0.019928 0.071529 0.246042
0.021220 0.071935 0.247458
0.021865 0.070220 0.241575
0.021096 0.064361 0.221438
0.022401 0.065086 0.223953
0.023536 0.065277 0.224631
0.024728 0.065599 0.225760
0.026039 0.066199 0.227846
0.028548 0.069673 0.239827
0.029741 0.069792 0.240265
0.030717 0.069412 0.238981
0.031420 0.068462 0.235739
0.032410 0.068184 0.234810
0.033439 0.068002 0.234211
0.034415 0.067728 0.233293
0.035539 0.067754 0.233411
0.036619 0.067695 0.233239
0.037797 0.067816 0.233685
0.039159 0.068252 0.235219
0.040521 0.068663 0.236664
0.041690 0.068733 0.236936
0.043039 0.069088 0.238189
0.043972 0.068775 0.237141
0.045618 0.069564 0.239893
0.046810 0.069640 0.240184
0.048029 0.069750 0.240596
0.049227 0.069825 0.240885
0.050409 0.069875 0.241086
0.051591 0.069923 0.241279
0.052902 0.070141 0.242057
0.054120 0.070227 0.242383
0.055303 0.070265 0.242538
0.056674 0.070536 0.243500
0.058278 0.071080 0.245402
0.059761 0.071458 0.246730
0.061192 0.071761 0.247794
0.062729 0.072173 0.249239
0.064165 0.072456 0.250235
0.065149 0.072229 0.249466
0.066307 0.072199 0.249376
0.067618 0.072333 0.249851
0.068796 0.072322 0.249823
0.069782 0.072114 0.249113
0.071003 0.072151 0.249247
0.072523 0.072485 0.250404
0.075105 0.073854 0.255131
0.077493 0.074991 0.259057
0.078507 0.074782 0.258331
0.079510 0.074571 0.257593
0.080713 0.074550 0.257508
0.081382 0.074045 0.255746
0.082530 0.073983 0.255513
0.083078 0.073394 0.253453
0.083951 0.073103 0.252422
0.084738 0.072747 0.251163
0.085645 0.072503 0.250283
0.086440 0.072172 0.249101
0.087065 0.071709 0.247461
0.087439 0.071055 0.245157
0.088201 0.070729 0.243980
0.088754 0.070247 0.242258
0.089534 0.069954 0.241185
0.090275 0.069638 0.240030
0.091154 0.069435 0.239258
0.091911 0.069146 0.238182
0.092724 0.068905 0.237269
0.093441 0.068599 0.236127
0.094081 0.068245 0.234813
0.095031 0.068121 0.234286
0.095864 0.067917 0.233478
0.096621 0.067664 0.232497
0.097497 0.067500 0.231813
0.098237 0.067246 0.230814
0.098538 0.066701 0.228809
0.099093 0.066337 0.227421
0.099566 0.065928 0.225871
0.100286 0.065688 0.224895
0.101044 0.065479 0.224017
0.101755 0.065243 0.223040
0.102398 0.064970 0.221928
0.103173 0.064784 0.221107
0.103749 0.064479 0.219870
0.104199 0.064102 0.218384
0.104917 0.063897 0.217470
0.105282 0.063481 0.215835
0.105616 0.063056 0.214160
0.106100 0.062728 0.212807
0.106758 0.062508 0.211809
0.107379 0.062270 0.210743
0.107999 0.062037 0.209681
0.108897 0.061966 0.209156
0.109560 0.061763 0.208179
0.110275 0.061594 0.207299
-1.492741 0.828931 2.765727
-1.480468 0.829503 2.771539
-1.463533 0.827451 2.768411
-1.453067 0.829052 2.777345
-1.437641 0.827829 2.776661
-1.420879 0.825805 2.773134
-0.960633 0.563568 1.894643
-0.945184 0.559775 1.883906
-0.938531 0.561167 1.890524
-0.926175 0.559145 1.885544
-0.917002 0.559023 1.886885
-0.909991 0.560231 1.892632
-0.901081 0.560282 1.894395
-0.891321 0.559800 1.894277
-0.883319 0.560425 1.897830
-0.877446 0.562427 1.905979
-0.944757 0.611869 2.074944
-0.941714 0.616307 2.091341
-0.926651 0.612889 2.081011
-0.917917 0.613629 2.084723
-0.909148 0.614362 2.088346
-0.791434 0.540683 1.838834
-0.780889 0.539398 1.835341
-0.771493 0.538886 1.834423
-0.757966 0.535444 1.823472
-0.746237 0.533208 1.816572
-0.839038 0.660137 2.254025
-0.825715 0.657973 2.247034
-0.817249 0.659673 2.253193
-0.807659 0.660499 2.256325
-0.796416 0.659978 2.254812
-0.787424 0.661334 2.259671
-0.580997 0.538881 1.841726
-0.574947 0.541341 1.850090
-0.565289 0.540427 1.846903
-0.277643 0.308047 1.051892
-0.268061 0.302819 1.033901
-0.259994 0.299141 1.021196
-0.253786 0.297502 1.015450
-0.247948 0.296243 1.010996
-0.243892 0.297107 1.013777
-0.238913 0.296857 1.012757
-0.234210 0.296948 1.012890
-0.229553 0.297102 1.013238
-0.225172 0.297629 1.014850
-0.220423 0.297681 1.014839
-0.215034 0.296852 1.011820
-0.210668 0.297431 1.013597
-0.206096 0.297738 1.014446
-0.181061 0.267795 0.912245
-0.178996 0.271194 0.923639
-0.166694 0.258865 0.881472
-0.160610 0.255810 0.870891
-0.158260 0.258696 0.880538
-0.110854 0.196729 0.669210
-0.109170 0.199435 0.678277
-0.104591 0.196858 0.669374
-0.100747 0.195546 0.664780
-0.096939 0.194222 0.660147
-0.093676 0.193938 0.659052
-0.090459 0.193734 0.658231
-0.087513 0.194117 0.659404
-0.084615 0.194639 0.661049
-0.081561 0.194826 0.661561
-0.078889 0.195981 0.665360
-0.075880 0.196358 0.666518
-0.072883 0.196801 0.667904
-0.070089 0.197858 0.671375
-0.067049 0.198290 0.672728
-0.064183 0.199305 0.676058
-0.061165 0.199928 0.678063
-0.058148 0.200627 0.680327
-0.055172 0.201555 0.683373
-0.052114 0.202285 0.685748
-0.048946 0.202654 0.686900
-0.045813 0.203236 0.688781
-0.042599 0.203519 0.689652
-0.039168 0.202727 0.686882
-0.035793 0.202103 0.684688
-0.032390 0.201188 0.681511
-0.028872 0.199271 0.674950
-0.025550 0.198401 0.671935
-0.022103 0.196178 0.664346
-0.018783 0.194524 0.658687
-0.015440 0.191922 0.649827
-0.012350 0.191953 0.649884
-0.005204 0.107909 0.365317
-0.003451 0.107455 0.363757
-0.001752 0.109512 0.370703
0.000012 0.108053 0.365748
0.001751 0.107898 0.365209
0.003507 0.108446 0.367053
0.005274 0.108830 0.368344
0.007020 0.108716 0.367950
0.008803 0.109094 0.369225
0.010627 0.109772 0.371517
0.012499 0.110677 0.374583
0.014340 0.111123 0.376093
0.016279 0.112140 0.379540
0.018083 0.112115 0.379464
0.019900 0.112170 0.379662
0.021719 0.112224 0.379858
0.022624 0.107911 0.365275
0.024356 0.107877 0.365174
0.026056 0.107712 0.364635
0.027784 0.107679 0.364545
0.029130 0.106253 0.359740
0.021189 0.072994 0.247151
0.021833 0.071254 0.241276
0.022971 0.071220 0.241180
0.022382 0.066090 0.223827
0.023436 0.066056 0.223729
0.024572 0.066244 0.224390
0.026665 0.068892 0.233379
0.028381 0.070392 0.238485
0.029027 0.069225 0.234555
0.029920 0.068712 0.232840
0.030941 0.068516 0.232203
0.032119 0.068671 0.232753
0.033188 0.068590 0.232506
0.034114 0.068230 0.231311
0.035411 0.068610 0.232626
0.036429 0.068441 0.232082
0.037633 0.068623 0.232725
0.039054 0.069178 0.234638
0.040466 0.069687 0.236391
0.041860 0.070138 0.237948
0.043161 0.070413 0.238913
0.044306 0.070427 0.238989
0.045471 0.070471 0.239167
0.046828 0.070802 0.240319
0.047914 0.070719 0.240063
0.049025 0.070674 0.239938
0.050294 0.070855 0.240578
0.051542 0.070997 0.241087
0.052782 0.071122 0.241539
0.053997 0.071211 0.241865
0.055150 0.071215 0.241900
0.056483 0.071446 0.242708
0.058841 0.072939 0.247801
0.060350 0.073341 0.249187
0.061507 0.073308 0.249093
0.067573 0.079017 0.268511
0.065280 0.074920 0.254605
0.065807 0.074149 0.252001
0.066704 0.073817 0.250882
0.067804 0.073716 0.250550
0.068939 0.073656 0.250351
0.070492 0.074036 0.251651
0.071801 0.074153 0.252051
0.073491 0.074653 0.253748
0.076249 0.076203 0.259014
0.077351 0.076076 0.258575
0.078257 0.075762 0.257501
0.079289 0.075578 0.256864
0.080248 0.075332 0.256011
0.081222 0.075106 0.255223
0.082078 0.074780 0.254093
0.083032 0.074551 0.253288
0.083861 0.074218 0.252125
0.084675 0.073881 0.250946
0.085468 0.073535 0.249733
0.086226 0.073170 0.248449
0.087214 0.073006 0.247845
0.087852 0.072558 0.246272
0.088646 0.072248 0.245165
0.089906 0.072322 0.245353
0.089575 0.071129 0.241242
0.090616 0.071043 0.240879
0.091135 0.070556 0.239150
0.091904 0.070271 0.238102
0.092623 0.069954 0.236943
0.093307 0.069620 0.235719
0.094109 0.069381 0.234811
0.094969 0.069189 0.234056
0.095655 0.068877 0.232890
0.096328 0.068562 0.231708
0.097178 0.068379 0.230966
0.097925 0.068128 0.229989
0.098371 0.067676 0.228325
0.099018 0.067370 0.227150
0.099290 0.066819 0.225141
0.099971 0.066552 0.224084
0.100668 0.066301 0.223072
0.101416 0.066089 0.222183
0.102213 0.065912 0.221409
0.102870 0.065649 0.220335
0.103216 0.065196 0.218616
0.103749 0.064869 0.217311
0.104473 0.064666 0.216415
0.105323 0.064545 0.215782
0.105707 0.064143 0.214202
0.106398 0.063933 0.213255
0.107148 0.063762 0.212430
0.107792 0.063532 0.211397
0.108453 0.063316 0.210399
0.109300 0.063212 0.209762
0.109863 0.062947 0.208581
0.110364 0.062651 0.207287
-1.503021 0.848116 2.782504
-1.484936 0.845440 2.777718
-1.465005 0.841657 2.769094
-1.464221 0.848905 2.796616
-1.444398 0.845148 2.787743
-1.420439 0.838879 2.770389
-1.408537 0.839679 2.776217
-0.952742 0.573361 1.897770
-0.941059 0.571764 1.894464
-0.928447 0.569566 1.889064
-0.917778 0.568530 1.887419
-0.909768 0.569136 1.891143
-0.901307 0.569471 1.893885
-0.890642 0.568405 1.891891
-0.882240 0.568778 1.894605
-0.875778 0.570422 1.901485
-0.948513 0.624220 2.082279
-0.943839 0.627671 2.095181
-0.941856 0.633004 2.114309
-0.920455 0.625261 2.089688
-0.911648 0.625998 2.093325
-0.789626 0.548158 1.833998
-0.779996 0.547480 1.832638
-0.771547 0.547625 1.833979
-0.762779 0.547544 1.834510
-0.745693 0.541422 1.814742
-0.838188 0.670118 2.251395
-0.823247 0.666600 2.240004
-0.813488 0.667241 2.242542
-0.806178 0.669935 2.251938
-0.794378 0.668920 2.248823
-0.784820 0.669792 2.252011
-0.600103 0.557285 1.874360
-0.587402 0.553623 1.862050
-0.578232 0.553229 1.860703
-0.569880 0.553617 1.861967
-0.267702 0.307300 1.032672
-0.256533 0.299928 1.007765
-0.252170 0.300385 1.009161
-0.247822 0.300879 1.010671
-0.243282 0.301154 1.011442
-0.238730 0.301425 1.012192
-0.234115 0.301626 1.012701
-0.229490 0.301823 1.013193
-0.224788 0.301925 1.013360
-0.220644 0.302797 1.016106
-0.215276 0.301992 1.013222
-0.206835 0.296742 0.995423
-0.202344 0.297045 0.996256
-0.183494 0.275783 0.924770
-0.176850 0.272276 0.912837
-0.168052 0.265196 0.888928
-0.163067 0.263924 0.884491
-0.158015 0.262475 0.879463
-0.110395 0.199085 0.666673
-0.108236 0.200931 0.672725
-0.104837 0.200515 0.671201
-0.100639 0.198500 0.664325
-0.097164 0.197827 0.661945
-0.093937 0.197629 0.661156
-0.090859 0.197744 0.661417
-0.088077 0.198534 0.663935
-0.085013 0.198723 0.664444
-0.082047 0.199167 0.665805
-0.079251 0.200073 0.668716
-0.076324 0.200710 0.670726
-0.073397 0.201406 0.672934
-0.070305 0.201689 0.673766
-0.067563 0.203052 0.678210
-0.064482 0.203483 0.679539
-0.061501 0.204292 0.682133
-0.058612 0.205515 0.686113
-0.055614 0.206477 0.689224
-0.052536 0.207242 0.691680
-0.049260 0.207279 0.691710
-0.046061 0.207667 0.692912
-0.042707 0.207361 0.691805
-0.039235 0.206386 0.688470
-0.035812 0.205521 0.685507
-0.032450 0.204864 0.683239
-0.029017 0.203561 0.678825
-0.025524 0.201460 0.671755
-0.022046 0.198901 0.663162
-0.018649 0.196334 0.654548
-0.015472 0.195526 0.651802
-0.012374 0.195557 0.651859
-0.005242 0.110541 0.368447
-0.003479 0.110224 0.367370
-0.001718 0.109365 0.364487
0.000017 0.109447 0.364745
0.001754 0.109515 0.364957
0.003462 0.108624 0.361978
0.005209 0.109139 0.363684
0.006946 0.109229 0.363976
0.008719 0.109729 0.365639
0.010542 0.110598 0.368531
0.012399 0.111524 0.371618
0.014276 0.112374 0.374453
0.016173 0.113169 0.377105
0.017988 0.113293 0.377527
0.019846 0.113643 0.378702
0.021610 0.113437 0.378028
0.023244 0.112632 0.375359
0.024251 0.109120 0.363669
0.026017 0.109266 0.364175
0.027743 0.109234 0.364085
0.029086 0.107787 0.359286
0.030433 0.106514 0.355064
0.032529 0.107857 0.359565
0.024961 0.071480 0.238350
0.026082 0.071441 0.238242
0.027202 0.071405 0.238143
0.028201 0.071064 0.237028
0.029027 0.070334 0.234613
0.029992 0.069978 0.233450
0.031071 0.069906 0.233233
0.032169 0.069882 0.233176
0.033186 0.069686 0.232548
0.034279 0.069658 0.232481
0.034756 0.068420 0.228375
0.036351 0.069390 0.231638
0.037517 0.069508 0.232056
0.038965 0.070128 0.234153
0.040093 0.070153 0.234262
0.041706 0.071002 0.237125
0.043528 0.072152 0.240992
0.044914 0.072539 0.242315
0.045925 0.072316 0.241595
0.047063 0.072299 0.241564
0.048336 0.072486 0.242217
0.049483 0.072478 0.242215
0.050512 0.072303 0.241654
0.051764 0.072447 0.242161
0.052924 0.072459 0.242221
0.053971 0.072319 0.241778
0.055140 0.072345 0.241885
0.056316 0.072378 0.242015
0.058679 0.073905 0.247141
0.065616 0.081020 0.270953
0.066519 0.080554 0.269412
0.067487 0.080183 0.268186
0.068803 0.080231 0.268362
0.069765 0.079872 0.267172
0.071132 0.079981 0.267546
0.072004 0.079539 0.266075
0.070523 0.076559 0.256109
0.071837 0.076662 0.256457
0.073302 0.076919 0.257317
0.074629 0.077027 0.257675
0.076022 0.077197 0.258236
0.077099 0.077046 0.257723
0.078101 0.076827 0.256977
0.079165 0.076673 0.256449
0.080055 0.076359 0.255377
0.080985 0.076091 0.254460
0.081787 0.075713 0.253168
0.082474 0.075240 0.251559
0.083372 0.074971 0.250625
0.084316 0.074750 0.249849
0.085307 0.074576 0.249226
0.086147 0.074277 0.248180
0.086926 0.073934 0.246983
0.087796 0.073677 0.246068
0.088543 0.073324 0.244829
0.089257 0.072954 0.243528
0.089876 0.072516 0.241996
0.090703 0.072255 0.241050
0.091508 0.071983 0.240065
0.092204 0.071633 0.238812
0.093015 0.071380 0.237878
0.093588 0.070953 0.236357
0.094357 0.070682 0.235352
0.094996 0.070321 0.234042
0.095884 0.070151 0.233361
0.096686 0.069923 0.232480
0.097315 0.069576 0.231200
0.098066 0.069324 0.230226
0.098811 0.069072 0.229247
0.099179 0.068565 0.227418
0.099775 0.068225 0.226134
0.100214 0.067787 0.224518
0.100903 0.067524 0.223478
0.101451 0.067174 0.222141
0.102183 0.066952 0.221219
0.102967 0.066768 0.220416
0.103399 0.066362 0.218871
0.103889 0.066001 0.217467
0.104871 0.065956 0.217098
0.105454 0.065664 0.215905
0.105908 0.065298 0.214459
0.106396 0.064960 0.213098
0.107219 0.064830 0.212411
0.107848 0.064588 0.211342
0.108522 0.064375 0.210363
0.109485 0.064337 0.209941
0.110250 0.064185 0.209135
0.110815 0.063919 0.207949
-1.496614 0.857920 2.768303
-1.479100 0.855500 2.764546
-1.454469 0.848882 2.747015
-1.455114 0.857031 2.777113
-1.433926 0.852353 2.765504
-1.420708 0.852370 2.768956
-0.956020 0.584476 1.903051
-0.939346 0.579792 1.889821
-0.924756 0.576317 1.880410
-0.916067 0.576487 1.882796
-0.908732 0.577522 1.887925
-0.899610 0.577431 1.889296
-0.890491 0.577340 1.890586
-0.881852 0.577562 1.892826
-0.874371 0.578555 1.897520
-0.949085 0.634522 2.082579
-0.941049 0.635760 2.088069
-0.929640 0.634722 2.086009
-0.919946 0.634846 2.087695
-0.911129 0.635584 2.091334
-0.790248 0.557308 1.834773
-0.780330 0.556418 1.832788
-0.770088 0.555275 1.829907
-0.762494 0.556038 1.833253
-0.748873 0.552372 1.821943
-0.822081 0.676235 2.236486
-0.810784 0.675593 2.234778
-0.804287 0.678987 2.246374
-0.793300 0.678630 2.245524
-0.782333 0.678282 2.244657
-0.614116 0.570976 1.890272
-0.599398 0.565479 1.872130
-0.592882 0.567671 1.879414
-0.578625 0.562406 1.861989
-0.571329 0.563849 1.866744
-0.563238 0.564541 1.868992
-0.261563 0.305029 1.009136
-0.256171 0.304269 1.006500
-0.252156 0.305146 1.009271
-0.246863 0.304482 1.006937
-0.242748 0.305273 1.009410
-0.238331 0.305708 1.010698
-0.233769 0.305973 1.011417
-0.228995 0.305965 1.011231
-0.225074 0.307121 1.014885
-0.220212 0.307014 1.014363
-0.215130 0.306589 1.012787
-0.210567 0.306904 1.013650
-0.185608 0.283402 0.935690
-0.179423 0.280636 0.926390
-0.169738 0.272121 0.898116
-0.165499 0.272127 0.897966
-0.161407 0.272380 0.898634
-0.110745 0.202898 0.669022
-0.107997 0.203682 0.671480
-0.104274 0.202619 0.667848
-0.100937 0.202261 0.666544
-0.097364 0.201393 0.663561
-0.094560 0.202113 0.665811
-0.091712 0.202783 0.667894
-0.088758 0.203261 0.669348
-0.085796 0.203755 0.670853
-0.082703 0.203962 0.671418
-0.080042 0.205294 0.675686
-0.076980 0.205667 0.676798
-0.073772 0.205667 0.676685
-0.070906 0.206663 0.679848
-0.067957 0.207503 0.682504
-0.064968 0.208297 0.685007
-0.062056 0.209436 0.688648
-0.058947 0.209997 0.690391
-0.055980 0.211163 0.694127
-0.052939 0.212178 0.697367
-0.049459 0.211453 0.694891
-0.046199 0.211629 0.695381
-0.042920 0.211746 0.695679
-0.039370 0.210427 0.691265
-0.035894 0.209306 0.687505
-0.032563 0.208891 0.686071
-0.029186 0.208055 0.683256
-0.025795 0.206901 0.679401
-0.022035 0.202026 0.663336
-0.018526 0.198224 0.650798
-0.015398 0.197780 0.649292
-0.012313 0.197811 0.649348
-0.005163 0.110700 0.363368
-0.003375 0.108766 0.357000
-0.001674 0.108546 0.356260
0.000021 0.109507 0.359397
0.001713 0.108387 0.355705
0.003402 0.108276 0.355330
0.005130 0.109083 0.357971
0.006831 0.109043 0.357833
0.008577 0.109598 0.359648
0.010400 0.110789 0.363554
0.012359 0.112884 0.370428
0.014218 0.113653 0.372955
0.015991 0.113641 0.372917
0.017853 0.114194 0.374739
0.019674 0.114417 0.375479
0.021294 0.113525 0.372562
0.022795 0.112184 0.368175
0.024342 0.111245 0.365108
0.025929 0.110602 0.363012
0.027529 0.110091 0.361355
0.029151 0.109722 0.360163
0.030812 0.109534 0.359566
0.032480 0.109387 0.359107
0.034386 0.110018 0.361202
0.036062 0.109886 0.360798
0.038293 0.111383 0.365739
0.039917 0.111059 0.364705
0.041526 0.110720 0.363624
0.036111 0.092430 0.303582
0.037487 0.092261 0.303056
0.030282 0.071768 0.235763
0.031383 0.071722 0.235633
0.032329 0.071335 0.234386
0.033412 0.071266 0.234180
0.033492 0.069131 0.227191
0.034446 0.068878 0.226382
0.036436 0.070648 0.232224
0.037503 0.070578 0.232019
0.038776 0.070889 0.233065
0.039879 0.070879 0.233056
0.042020 0.072664 0.238950
0.043865 0.073858 0.242903
0.044862 0.073598 0.242072
0.045604 0.072945 0.239949
0.046887 0.073167 0.240702
0.047881 0.072937 0.239972
0.048836 0.072661 0.239084
0.050192 0.072980 0.240156
0.051176 0.072756 0.239441
0.052283 0.072713 0.239321
0.054104 0.073643 0.242400
0.055320 0.073728 0.242700
0.056401 0.073632 0.242403
0.058728 0.075136 0.247371
0.065588 0.082266 0.270861
0.066642 0.081979 0.269931
0.067647 0.081643 0.268837
0.068938 0.081659 0.268901
0.069964 0.081366 0.267944
0.071043 0.081144 0.267219
0.071914 0.080696 0.265750
0.072720 0.080192 0.264089
0.073894 0.080103 0.263798
0.074668 0.079591 0.262109
0.075321 0.078970 0.260055
0.076229 0.078631 0.258930
0.076963 0.078127 0.257258
0.078002 0.077943 0.256635
0.079077 0.077799 0.256145
0.079857 0.077374 0.254724
0.080740 0.077060 0.253664
0.081730 0.076857 0.252964
0.082692 0.076632 0.252193
0.083510 0.076283 0.251005
0.084304 0.075922 0.249776
0.085148 0.075615 0.248720
0.086071 0.075386 0.247917
0.086809 0.075003 0.246604
0.087865 0.074902 0.246212
0.088864 0.074754 0.245663
0.088955 0.073857 0.242647
0.089615 0.073449 0.241235
0.090329 0.073096 0.239994
0.091072 0.072773 0.238852
0.091734 0.072396 0.237525
0.092771 0.072319 0.237178
0.093423 0.071948 0.235862
0.094125 0.071624 0.234691
0.095226 0.071608 0.234525
0.095826 0.071218 0.233131
0.096518 0.070906 0.231985
0.097344 0.070698 0.231172
0.097992 0.070368 0.229952
0.098604 0.070018 0.228664
0.099295 0.069731 0.227575
0.099945 0.069423 0.226408
0.100637 0.069150 0.225350
0.101299 0.068862 0.224235
0.101944 0.068569 0.223097
0.102528 0.068241 0.221837
0.103302 0.068046 0.221001
0.103997 0.067802 0.220000
0.104611 0.067511 0.218837
0.105125 0.067162 0.217477
0.105643 0.066823 0.216140
0.106090 0.066446 0.214673
0.106491 0.066046 0.213127
0.107246 0.065873 0.212300
0.107861 0.065617 0.211197
0.108355 0.065293 0.209864
0.109366 0.065285 0.209533
0.110099 0.065111 0.208661
0.110558 0.064780 0.207274
-1.507172 0.877489 2.785393
-1.484258 0.871913 2.771842
-1.472782 0.873017 2.779334
-1.473631 0.881515 2.810239
-1.452705 0.877024 2.799593
-1.440571 0.877808 2.805611
-0.955449 0.593264 1.900617
-0.941211 0.590031 1.892328
-0.932076 0.589965 1.894094
-0.915914 0.585407 1.881335
-0.906135 0.584880 1.881426
-0.899294 0.586258 1.887566
-0.889930 0.586002 1.888370
-0.880491 0.585691 1.888919
-0.872962 0.586658 1.893515
-0.947510 0.643378 2.078124
-0.940690 0.645459 2.086313
-0.931357 0.645842 2.088944
-0.920397 0.645093 2.087838
-0.911561 0.645833 2.091483
-0.789058 0.565174 1.831309
-0.780957 0.565576 1.833590
-0.771622 0.565085 1.832916
-0.760899 0.563555 1.828815
-0.745378 0.558396 1.812874
-0.835753 0.689411 2.244065
-0.822131 0.686858 2.236246
-0.811584 0.686841 2.236641
-0.804898 0.690135 2.247770
-0.793157 0.689125 2.244841
-0.782905 0.689399 2.246051
-0.613400 0.579236 1.887991
-0.599327 0.574261 1.871855
-0.588088 0.571894 1.864192
-0.578095 0.570686 1.860281
-0.570691 0.572036 1.864683
-0.561327 0.571432 1.862694
-0.261208 0.309385 1.007901
-0.255793 0.308578 1.005160
-0.251337 0.308919 1.006152
-0.247029 0.309459 1.007782
-0.242461 0.309687 1.008394
-0.238135 0.310241 1.010058
-0.233824 0.310838 1.011855
-0.228983 0.310741 1.011388
-0.224723 0.311446 1.013526
-0.220344 0.312011 1.015205
-0.214280 0.310164 1.009032
-0.205986 0.304932 0.991847
-0.201509 0.305238 0.992673
-0.189170 0.293366 0.953903
-0.182628 0.290126 0.943203
-0.175411 0.285625 0.928405
-0.167684 0.280042 0.910096
-0.110184 0.205037 0.665859
-0.108062 0.207002 0.672120
-0.104937 0.207106 0.672337
-0.100936 0.205434 0.666786
-0.097762 0.205392 0.666531
-0.094628 0.205432 0.666544
-0.092150 0.206951 0.671353
-0.089101 0.207251 0.672207
-0.086047 0.207559 0.673090
-0.083179 0.208360 0.675572
-0.080180 0.208882 0.677151
-0.077284 0.209727 0.679779
-0.074278 0.210335 0.681639
-0.071314 0.211124 0.684086
-0.068324 0.211905 0.686513
-0.065503 0.213317 0.690981
-0.062451 0.214087 0.693375
-0.059312 0.214629 0.695028
-0.056627 0.216970 0.702514
-0.053043 0.215950 0.699115
-0.049717 0.215911 0.698899
-0.046405 0.215932 0.698882
-0.042837 0.214676 0.694732
-0.039427 0.214072 0.692698
-0.035915 0.212751 0.688350
-0.032564 0.212216 0.686547
-0.029135 0.210996 0.682535
-0.025670 0.209177 0.676586
-0.022006 0.204986 0.662972
-0.018572 0.201906 0.652960
-0.015393 0.200908 0.649684
-0.005171 0.112719 0.364455
-0.003372 0.110507 0.357284
-0.001669 0.110219 0.356335
0.000026 0.110732 0.357976
0.001719 0.110186 0.356196
0.003393 0.109538 0.354092
0.005107 0.110188 0.356181
0.006822 0.110529 0.357278
0.008534 0.110695 0.357809
0.010330 0.111710 0.361086
0.012241 0.113503 0.366882
0.014114 0.114543 0.370242
0.015926 0.114909 0.371431
0.017690 0.114887 0.371363
0.019438 0.114780 0.371027
0.021181 0.114659 0.370644
0.022707 0.113469 0.366811
0.024303 0.112777 0.364586
0.025925 0.112292 0.363034
0.027652 0.112289 0.363039
0.029275 0.111893 0.361777
0.031003 0.111915 0.361869
0.032925 0.112601 0.364110
0.034786 0.113021 0.365489
0.036396 0.112620 0.364220
0.038235 0.112936 0.365268
0.039857 0.112609 0.364236
0.041463 0.112266 0.363157
0.036056 0.093721 0.303192
0.037430 0.093551 0.302667
0.041615 0.093250 0.301775
0.033647 0.072882 0.235883
0.034745 0.072831 0.235740
0.035350 0.071784 0.232374
0.036428 0.071731 0.232224
0.037398 0.071474 0.231415
0.038488 0.071455 0.231376
0.039655 0.071575 0.231787
0.041820 0.073443 0.237859
0.052274 0.089385 0.289518
0.053666 0.089410 0.289626
0.054894 0.089169 0.288875
0.047777 0.075714 0.245308
0.048899 0.075646 0.245108
0.049447 0.074713 0.242108
0.049122 0.072535 0.235069
0.050436 0.072819 0.236009
0.052222 0.073756 0.239064
0.053118 0.073424 0.238006
0.054440 0.073684 0.238863
0.055814 0.074000 0.239903
0.058332 0.075791 0.245722
0.065633 0.083602 0.271062
0.066416 0.082972 0.269031
0.067183 0.082345 0.267009
0.068024 0.081830 0.265344
0.069311 0.081860 0.265450
0.070517 0.081796 0.265244
0.071600 0.081593 0.264589
0.072587 0.081291 0.263607
0.073711 0.081149 0.263142
0.074822 0.080998 0.262645
0.075620 0.080518 0.261079
0.076421 0.080057 0.259572
0.077217 0.079604 0.258090
0.078252 0.079409 0.257439
0.078808 0.078741 0.255250
0.079753 0.078476 0.254366
0.080709 0.078230 0.253539
0.081525 0.077857 0.252297
0.082447 0.077595 0.251412
0.083438 0.077404 0.250751
0.083926 0.076759 0.248617
0.084834 0.076509 0.247760
0.085639 0.076175 0.246625
0.086452 0.075857 0.245538
0.087163 0.075460 0.244191
0.087962 0.075148 0.243112
0.088803 0.074879 0.242172
0.089575 0.074560 0.241062
0.090377 0.074273 0.240055
0.091099 0.073929 0.238853
0.091918 0.073671 0.237926
0.092551 0.073271 0.236537
0.093285 0.072960 0.235430
0.093882 0.072551 0.234000
0.094842 0.072429 0.233488
0.095706 0.072237 0.232747
0.096246 0.071808 0.231234
0.097083 0.071607 0.230453
0.097975 0.071451 0.229807
0.098645 0.071138 0.228650
0.099390 0.070886 0.227680
0.100056 0.070583 0.226543
0.100731 0.070293 0.225439
0.101299 0.069935 0.224110
0.101909 0.069614 0.222892
0.102566 0.069330 0.221786
0.103244 0.069067 0.220737
0.103897 0.068792 0.219646
0.104523 0.068505 0.218505
0.104963 0.068103 0.216990
0.105532 0.067792 0.215757
0.106147 0.067516 0.214626
0.106863 0.067310 0.213705
0.107552 0.067090 0.212734
0.107878 0.066650 0.211053
0.108650 0.066491 0.210255
0.109495 0.066380 0.209592
0.110162 0.066163 0.208587
