ply
format ascii 1.0
element vertex 1744
property float x
property float y
property float z
end_header
-0.784138 0.517915 1.957356
-0.774378 0.517548 1.956411
-0.769140 0.520231 1.966949
-0.761356 0.521236 1.971107
-0.833138 0.577411 2.183879
-0.822194 0.576938 2.182389
-0.803964 0.571276 2.161224
-0.777339 0.559429 2.116608
-0.700998 0.511031 1.933642
-0.677182 0.500155 1.892602
-0.668640 0.500422 1.893687
-0.659073 0.499918 1.891827
-0.652229 0.501495 1.897807
-0.644181 0.502177 1.900373
-0.696820 0.611022 2.310944
-0.687240 0.612176 2.315015
-0.677526 0.613245 2.318741
-0.666784 0.613404 2.319004
-0.657213 0.614664 2.323402
-0.656435 0.624330 2.359548
-0.646151 0.625133 2.362173
-0.507303 0.508310 1.920025
-0.497760 0.507806 1.917744
-0.489813 0.508942 1.921646
-0.480694 0.508880 1.921012
-0.471716 0.508969 1.920936
-0.462318 0.508599 1.919116
-0.454986 0.510534 1.925984
-0.468945 0.657602 2.474816
-0.457702 0.658278 2.476740
-0.453861 0.669915 2.519897
-0.180939 0.274285 1.031468
-0.175369 0.273218 1.027204
-0.168936 0.270710 1.017520
-0.164366 0.271127 1.018838
-0.158877 0.270007 1.014382
-0.152079 0.266522 1.001050
-0.145064 0.262423 0.985417
-0.139319 0.260424 0.977680
-0.131828 0.254912 0.956762
-0.126713 0.253764 0.952234
-0.120548 0.250351 0.939217
-0.114952 0.247904 0.929829
-0.109793 0.246242 0.923397
-0.104250 0.243545 0.913087
-0.098866 0.241002 0.903363
-0.093762 0.238941 0.895456
-0.088683 0.236748 0.887065
-0.083622 0.234391 0.878065
-0.079157 0.233543 0.874723
-0.074235 0.231181 0.865720
-0.069187 0.228125 0.854126
-0.057107 0.200053 0.748899
-0.053084 0.198346 0.742386
-0.049253 0.197165 0.737852
-0.045882 0.197788 0.740076
-0.042372 0.197862 0.740249
-0.038872 0.198007 0.740691
-0.035399 0.198329 0.741805
-0.031861 0.198320 0.741682
-0.028448 0.199185 0.744837
-0.024965 0.199738 0.746829
-0.021350 0.199236 0.744879
-0.017800 0.199275 0.744962
-0.013756 0.192424 0.719291
-0.010171 0.189566 0.708560
-0.006798 0.189802 0.709395
-0.003334 0.185446 0.693079
-0.000026 0.182750 0.682969
0.003193 0.180416 0.674222
0.006345 0.178541 0.667197
0.009530 0.178536 0.667161
0.008665 0.097291 0.363555
0.010528 0.098483 0.368012
0.012381 0.099249 0.370878
0.014104 0.098914 0.369632
0.016203 0.100996 0.377421
0.018217 0.102179 0.381853
0.020340 0.103708 0.387585
0.022348 0.104442 0.390348
0.024406 0.105279 0.393497
0.026629 0.106656 0.398669
0.029055 0.108608 0.405996
0.031550 0.110557 0.413313
0.033350 0.109984 0.411205
0.035312 0.109980 0.411228
0.037419 0.110405 0.412855
0.039107 0.109610 0.409926
0.040808 0.108926 0.407411
0.042223 0.107578 0.402415
0.043946 0.107093 0.400652
0.045927 0.107254 0.401301
0.047576 0.106657 0.399121
0.049599 0.106912 0.400127
0.052572 0.109121 0.408452
0.055046 0.110172 0.412445
0.057067 0.110274 0.412890
0.057896 0.108143 0.404969
0.056876 0.102808 0.385051
0.058080 0.101700 0.380961
0.059475 0.100983 0.378336
0.050938 0.083942 0.314542
0.051319 0.082152 0.307884
0.052717 0.082043 0.307528
0.054106 0.081926 0.307141
0.055361 0.081619 0.306040
0.056806 0.081599 0.306017
0.057967 0.081183 0.304506
0.059205 0.080892 0.303465
0.060596 0.080819 0.303244
0.061769 0.080465 0.301964
0.062933 0.080116 0.300703
0.064278 0.080008 0.300345
0.065463 0.079709 0.299272
0.066625 0.079396 0.298142
0.067613 0.078892 0.296297
0.068646 0.078460 0.294719
0.069664 0.078030 0.293146
0.070703 0.077639 0.291716
0.071857 0.077386 0.290805
0.072890 0.077015 0.289450
0.073871 0.076604 0.287940
0.074937 0.076295 0.286811
0.075764 0.075758 0.284824
0.076754 0.075399 0.283502
0.077634 0.074946 0.281829
0.078536 0.074530 0.280287
0.079360 0.074055 0.278523
0.080013 0.073438 0.276221
0.080988 0.073132 0.275085
0.082024 0.072890 0.274188
0.082829 0.072453 0.272554
0.083708 0.072094 0.271208
0.084582 0.071741 0.269883
0.085560 0.071485 0.268920
0.086223 0.070978 0.267008
0.087050 0.070618 0.265648
0.087842 0.070241 0.264215
0.088767 0.069979 0.263213
0.089448 0.069534 0.261522
0.090219 0.069171 0.260130
0.090735 0.068625 0.258049
0.091446 0.068238 0.256563
0.092226 0.067913 0.255302
0.093045 0.067624 0.254174
0.093829 0.067317 0.252975
0.094521 0.066954 0.251556
0.095309 0.066666 0.250417
0.095917 0.066261 0.248833
0.096447 0.065813 0.247082
0.097027 0.065409 0.245491
0.097812 0.065151 0.244444
0.098694 0.064963 0.243655
0.099350 0.064633 0.242324
0.100023 0.064320 0.241055
0.100673 0.064001 0.239753
0.101600 0.063863 0.239125
0.102290 0.063580 0.237949
0.102850 0.063224 0.236490
0.103750 0.063082 0.235827
0.104367 0.062772 0.234532
0.104882 0.062409 0.233027
0.105687 0.062224 0.232181
0.106372 0.061973 0.231082
0.107001 0.061694 0.229873
0.107835 0.061539 0.229113
0.108561 0.061325 0.228130
0.109154 0.061042 0.226878
0.109921 0.060860 0.225995
0.110699 0.060687 0.225138
0.111339 0.060444 0.224008
0.112028 0.060230 0.222981
0.112803 0.060067 0.222130
0.113518 0.059875 0.221162
0.114398 0.059773 0.220515
0.115241 0.059654 0.219792
0.116005 0.059496 0.218917
-1.521475 0.776698 2.829302
-1.505267 0.775329 2.827929
-1.505604 0.782536 2.857699
-1.484249 0.778498 2.846262
-1.467692 0.776925 2.843667
-1.458046 0.779016 2.854340
-1.444119 0.778838 2.856565
-1.433875 0.780662 2.866003
-1.421019 0.781086 2.870178
-1.403468 0.778912 2.864676
-1.394044 0.781252 2.875650
-1.382217 0.782278 2.881676
-1.366723 0.781229 2.879945
-1.359062 0.784682 2.894701
-1.351362 0.788183 2.909544
-1.339757 0.789455 2.916064
-1.328976 0.791244 2.924399
-1.317524 0.792668 2.931289
-1.304372 0.793088 2.934375
-0.864758 0.531437 1.967245
-0.861669 0.535284 1.982394
-0.850513 0.534150 1.979040
-0.833867 0.529505 1.962611
-0.816182 0.524089 1.943251
-0.807317 0.524278 1.944616
-0.799785 0.525347 1.949197
-0.792120 0.526352 1.953490
-0.783167 0.526516 1.954614
-0.775346 0.527454 1.958565
-0.767785 0.528594 1.963220
-0.761915 0.530940 1.972315
-0.827126 0.583487 2.167886
-0.815774 0.582662 2.165145
-0.804233 0.581680 2.161774
-0.780815 0.571972 2.125929
-0.771859 0.572744 2.128990
-0.675793 0.508049 1.888640
-0.669918 0.510338 1.897253
-0.661890 0.511028 1.899884
-0.651002 0.509497 1.894229
-0.640954 0.508591 1.890867
-0.696805 0.621931 2.311134
-0.685161 0.621233 2.308274
-0.674029 0.620986 2.307063
-0.665139 0.622829 2.313595
-0.654539 0.623107 2.314291
-0.644553 0.623988 2.317204
-0.631584 0.621963 2.309307
-0.621491 0.622750 2.311831
-0.504824 0.514870 1.911006
-0.495934 0.514989 1.911093
-0.486178 0.514198 1.907788
-0.480433 0.517698 1.920393
-0.469996 0.516182 1.914374
-0.460354 0.515495 1.911426
-0.454374 0.518964 1.923874
-0.463304 0.678260 2.507946
-0.453187 0.680893 2.517074
-0.180000 0.277745 1.026499
-0.174896 0.277359 1.024825
-0.169809 0.276980 1.023178
-0.164453 0.276126 1.019781
-0.158444 0.274092 1.012029
-0.152151 0.271425 1.001948
-0.143821 0.264834 0.977389
-0.138195 0.262952 0.970219
-0.133020 0.261825 0.965844
-0.126806 0.258501 0.953367
-0.121306 0.256442 0.945567
-0.115780 0.254167 0.936975
-0.110295 0.251805 0.928068
-0.104988 0.249668 0.920002
-0.099078 0.245850 0.905749
-0.093826 0.243393 0.896519
-0.088704 0.241055 0.887736
-0.083511 0.238283 0.877364
-0.079108 0.237592 0.874658
-0.074469 0.236078 0.868931
-0.068687 0.230548 0.848432
-0.057055 0.203466 0.748648
-0.053132 0.202097 0.743494
-0.049396 0.201301 0.740450
-0.046013 0.201925 0.742640
-0.042462 0.201859 0.742294
-0.039032 0.202412 0.744234
-0.035380 0.201808 0.741918
-0.031847 0.201822 0.741885
-0.028402 0.202471 0.744189
-0.024824 0.202220 0.743194
-0.021234 0.201768 0.741461
-0.017503 0.199541 0.733217
-0.013721 0.195472 0.718208
-0.010081 0.191394 0.703175
-0.006689 0.190322 0.699194
-0.003307 0.187680 0.689451
-0.000018 0.184788 0.678796
0.003165 0.181564 0.666926
0.006354 0.181768 0.667657
0.009316 0.177492 0.651934
0.012426 0.177481 0.651885
0.008752 0.099973 0.367197
0.010608 0.100956 0.370809
0.012550 0.102363 0.375979
0.014132 0.100844 0.370407
0.016502 0.104661 0.384434
0.018732 0.106921 0.392748
0.020637 0.107074 0.393325
0.022457 0.106800 0.392339
0.024753 0.108658 0.399187
0.026741 0.108995 0.400449
0.028805 0.109575 0.402607
0.031368 0.111863 0.411043
0.033616 0.112824 0.414607
0.035379 0.112139 0.412127
0.037527 0.112682 0.414158
0.039432 0.112480 0.413457
0.041147 0.111777 0.410916
0.042819 0.111028 0.408209
0.044533 0.110448 0.406125
0.046582 0.110714 0.407151
0.048032 0.109591 0.403069
0.050306 0.110359 0.405949
0.052780 0.111496 0.410185
0.055376 0.112799 0.415035
0.057207 0.112506 0.414018
0.058140 0.110527 0.406792
0.060034 0.110442 0.406540
0.057551 0.102563 0.377595
0.059391 0.102632 0.377906
0.050866 0.085313 0.314184
0.051428 0.083789 0.308618
0.052678 0.083439 0.307378
0.053967 0.083168 0.306427
0.055475 0.083240 0.306743
0.056787 0.083021 0.305985
0.058113 0.082834 0.305343
0.059380 0.082573 0.304430
0.060627 0.082298 0.303463
0.061902 0.082072 0.302678
0.063126 0.081790 0.301686
0.064375 0.081554 0.300859
0.065601 0.081297 0.299959
0.066652 0.080840 0.298317
0.067846 0.080572 0.297369
0.068915 0.080169 0.295922
0.069969 0.079766 0.294474
0.071019 0.079373 0.293064
0.072136 0.079068 0.291975
0.073185 0.078703 0.290661
0.074238 0.078355 0.289407
0.075275 0.078002 0.288137
0.076165 0.077513 0.286358
0.076977 0.076964 0.284354
0.078135 0.076773 0.283673
0.079127 0.076428 0.282419
0.080045 0.076023 0.280942
0.080283 0.074997 0.277166
0.080952 0.074401 0.274974
0.081886 0.074063 0.273735
0.082870 0.073779 0.272695
0.083663 0.073337 0.271065
0.084566 0.073004 0.269832
0.085295 0.072533 0.268086
0.086239 0.072255 0.267052
0.087142 0.071951 0.265919
0.087985 0.071607 0.264632
0.088920 0.071348 0.263653
0.089644 0.070927 0.262078
0.090047 0.070268 0.259614
0.090751 0.069859 0.258070
0.091247 0.069302 0.255975
0.092170 0.069080 0.255115
0.092946 0.068755 0.253869
0.093811 0.068503 0.252888
0.094654 0.068242 0.251869
0.095337 0.067873 0.250447
0.095685 0.067278 0.248186
0.096541 0.067050 0.247273
0.097082 0.066612 0.245579
0.097750 0.066269 0.244233
0.098458 0.065962 0.243012
0.099188 0.065676 0.241865
0.099994 0.065447 0.240919
0.100776 0.065208 0.239929
0.101407 0.064877 0.238597
0.102191 0.064649 0.237640
0.102795 0.064315 0.236283
0.103548 0.064080 0.235282
0.104279 0.063836 0.234244
0.104849 0.063501 0.232863
0.105613 0.063288 0.231923
0.106345 0.063061 0.230924
0.107126 0.062867 0.230038
0.107915 0.062681 0.229175
0.108541 0.062406 0.227976
0.109049 0.062069 0.226544
0.109964 0.061968 0.225964
0.110710 0.061774 0.225037
0.111328 0.061514 0.223857
0.111980 0.061277 0.222752
0.112739 0.061103 0.221867
0.113440 0.060900 0.220868
0.114224 0.060746 0.220033
0.114940 0.060558 0.219067
0.115871 0.060486 0.218507
-1.530643 0.795096 2.844416
-1.511906 0.792420 2.838541
-1.493880 0.790073 2.833657
-1.484513 0.792305 2.845038
-1.470862 0.792272 2.848144
-1.457269 0.792269 2.851213
-1.441075 0.790840 2.849001
-1.432118 0.793393 2.861004
-1.420806 0.794679 2.868316
-1.406502 0.794300 2.869496
-1.395384 0.795731 2.877090
-1.384669 0.797423 2.885518
-1.372783 0.798468 2.891496
-1.362189 0.800294 2.900194
-1.352759 0.802848 2.911433
-1.342982 0.805247 2.922011
-1.330921 0.806312 2.927656
-1.318733 0.807323 2.933005
-1.307547 0.808976 2.940593
-1.295272 0.809983 2.945743
-0.859294 0.543180 1.976371
-0.849401 0.542817 1.975926
-0.838510 0.541801 1.973043
-0.830271 0.542496 1.976333
-0.807039 0.533298 1.943520
-0.799207 0.534184 1.947389
-0.791145 0.534934 1.950715
-0.782727 0.535459 1.953174
-0.774753 0.536303 1.956751
-0.766533 0.536997 1.959733
-0.758811 0.538061 1.964020
-0.823207 0.590919 2.157360
-0.813513 0.591249 2.158918
-0.799577 0.588465 2.149060
-0.789626 0.588582 2.149750
-0.780558 0.589369 2.152843
-0.674965 0.516336 1.886229
-0.666164 0.516389 1.886548
-0.657153 0.516279 1.886236
-0.650117 0.517739 1.891630
-0.640784 0.517384 1.890364
-0.697518 0.633501 2.313717
-0.684929 0.631930 2.307735
-0.675866 0.633614 2.313620
-0.665273 0.633896 2.314358
-0.652470 0.632047 2.307296
-0.647996 0.638341 2.329934
-0.637829 0.639147 2.332517
-0.504344 0.523417 1.909538
-0.495958 0.524062 1.911556
-0.486299 0.523362 1.908650
-0.480181 0.526518 1.919798
-0.470575 0.525898 1.917160
-0.461255 0.525580 1.915619
-0.453757 0.527367 1.921733
-0.470929 0.701547 2.550120
-0.459513 0.702541 2.553134
-0.178915 0.280927 1.020691
-0.174957 0.282337 1.025573
-0.167246 0.277599 1.008129
-0.163517 0.279386 1.014384
-0.158035 0.278196 1.009828
-0.153383 0.278438 1.010478
-0.144553 0.270867 0.982780
-0.138198 0.267586 0.970656
-0.131378 0.263146 0.954341
-0.126981 0.263417 0.955117
-0.121297 0.260939 0.945927
-0.115778 0.258640 0.937396
-0.110548 0.256829 0.930639
-0.105015 0.254132 0.920681
-0.098924 0.249796 0.904791
-0.093355 0.246443 0.892474
-0.088549 0.244880 0.886649
-0.083558 0.242625 0.878322
-0.078848 0.240990 0.872248
-0.074334 0.239811 0.867830
-0.070243 0.239935 0.868136
-0.056843 0.206293 0.746292
-0.053047 0.205343 0.742739
-0.049020 0.203303 0.735253
-0.045704 0.204124 0.738117
-0.042396 0.205117 0.741609
-0.038771 0.204624 0.739733
-0.035401 0.205511 0.742850
-0.031865 0.205527 0.742821
-0.028367 0.205827 0.743826
-0.024838 0.205947 0.744187
-0.021257 0.205609 0.742899
-0.017632 0.204630 0.739297
-0.013852 0.200920 0.725839
-0.010092 0.195127 0.704864
-0.006685 0.193765 0.699898
-0.003286 0.190210 0.687023
-0.000010 0.188225 0.679821
0.003176 0.184932 0.667902
0.006341 0.184345 0.665761
0.009408 0.182236 0.658130
0.012546 0.182225 0.658080
0.008832 0.102602 0.370531
0.010653 0.103127 0.372424
0.012561 0.104210 0.376340
0.014311 0.103881 0.375158
0.016429 0.105997 0.382806
0.018634 0.108194 0.390753
0.020608 0.108773 0.392860
0.022530 0.109005 0.393713
0.024745 0.110509 0.399167
0.026841 0.111302 0.402056
0.028907 0.111872 0.404138
0.031553 0.114478 0.413582
0.033825 0.115497 0.417297
0.035796 0.115435 0.417106
0.037745 0.115309 0.416690
0.039427 0.114423 0.413525
0.041323 0.114209 0.412794
0.042906 0.113191 0.409157
0.044794 0.113032 0.408628
0.046855 0.113303 0.409656
0.048670 0.112979 0.408534
0.050944 0.113707 0.411217
0.053493 0.114972 0.415845
0.055273 0.114552 0.414381
0.057399 0.114853 0.415523
0.060081 0.116209 0.420488
0.051133 0.084761 0.306923
0.052570 0.084721 0.306822
0.053939 0.084575 0.306341
0.055311 0.084443 0.305910
0.056697 0.084337 0.305570
0.057968 0.084069 0.304647
0.059146 0.083684 0.303296
0.060454 0.083496 0.302662
0.061649 0.083164 0.301502
0.062864 0.082874 0.300494
0.064188 0.082737 0.300040
0.065426 0.082497 0.299214
0.066680 0.082288 0.298494
0.067880 0.082021 0.297569
0.069141 0.081837 0.296939
0.070358 0.081611 0.296156
0.071243 0.081015 0.294028
0.072307 0.080641 0.292705
0.073364 0.080274 0.291407
0.074368 0.079864 0.289945
0.075355 0.079451 0.288475
0.076189 0.078893 0.286475
0.077097 0.078432 0.284822
0.078035 0.078014 0.283329
0.078890 0.077531 0.281590
0.079858 0.077172 0.280302
0.080768 0.076769 0.278853
0.081385 0.076107 0.276456
0.082082 0.075538 0.274396
0.083024 0.075209 0.273206
0.084057 0.074971 0.272340
0.084840 0.074522 0.270704
0.085942 0.074360 0.270111
0.086132 0.073427 0.266712
0.087139 0.073207 0.265896
0.088096 0.072952 0.264951
0.088957 0.072625 0.263742
0.089710 0.072221 0.262249
0.090282 0.071684 0.260268
0.090865 0.071169 0.258364
0.091538 0.070739 0.256762
0.092388 0.070454 0.255683
0.093139 0.070103 0.254360
0.093935 0.069794 0.253183
0.094805 0.069546 0.252227
0.095298 0.069032 0.250297
0.095870 0.068587 0.248615
0.096473 0.068175 0.247045
0.097287 0.067920 0.246040
0.097931 0.067554 0.244625
0.098542 0.067173 0.243155
0.099438 0.066994 0.242408
0.100162 0.066704 0.241252
0.100947 0.066461 0.240260
0.101561 0.066112 0.238880
0.102188 0.065779 0.237553
0.102681 0.065368 0.235935
0.103540 0.065196 0.235176
0.104117 0.064852 0.233789
0.104759 0.064556 0.232565
0.105646 0.064416 0.231897
0.106416 0.064207 0.230975
0.107111 0.063958 0.229898
0.107847 0.063738 0.228919
0.108596 0.063530 0.227977
0.109116 0.063194 0.226562
0.109853 0.062989 0.225612
0.110704 0.062852 0.224895
0.111385 0.062622 0.223838
0.112166 0.062453 0.222985
0.112864 0.062241 0.221969
0.113512 0.062005 0.220861
0.114468 0.061941 0.220350
0.115207 0.061761 0.219417
0.115912 0.061566 0.218421
-1.518773 0.802542 2.820368
-1.505437 0.802644 2.824477
-1.494501 0.804040 2.832980
-1.481381 0.804275 2.837246
-1.467898 0.804317 2.840678
-1.459206 0.807010 2.853334
-1.446868 0.807718 2.858845
-1.435503 0.808990 2.866216
-1.426333 0.811534 2.877979
-1.412664 0.811544 2.880630
-1.400092 0.812191 2.885417
-1.386467 0.812235 2.887941
-1.376562 0.814480 2.898181
-1.363976 0.815170 2.902778
-1.348094 0.813883 2.900227
-1.339476 0.817002 2.913266
-1.331082 0.820324 2.926940
-1.318473 0.821090 2.931406
-1.308474 0.823517 2.941704
-1.296171 0.824530 2.946862
-0.856666 0.550862 1.969741
-0.849852 0.552476 1.976420
-0.836480 0.549815 1.967746
-0.817714 0.543509 1.945956
-0.806448 0.542103 1.941643
-0.798279 0.542769 1.944702
-0.791086 0.544124 1.950175
-0.782179 0.544316 1.951437
-0.773744 0.544847 1.953864
-0.765807 0.545746 1.957564
-0.758010 0.546767 1.961662
-0.824702 0.602207 2.160993
-0.813893 0.601732 2.159673
-0.799319 0.598427 2.148147
-0.788315 0.597745 2.145989
-0.779252 0.598536 2.149077
-0.674128 0.524595 1.883771
-0.664968 0.524358 1.883068
-0.656313 0.524517 1.883755
-0.648935 0.525716 1.888143
-0.638335 0.524302 1.883118
-0.695539 0.642608 2.307348
-0.683734 0.641717 2.303933
-0.672779 0.641608 2.303303
-0.663529 0.643150 2.308571
-0.652705 0.643191 2.308432
-0.645393 0.646754 2.320908
-0.495457 0.532572 1.909979
-0.485870 0.531929 1.907342
-0.476289 0.531269 1.904631
-0.469917 0.534232 1.914899
-0.460698 0.534011 1.913739
-0.452148 0.534573 1.915376
-0.479702 0.726967 2.598523
-0.467869 0.727680 2.600481
-0.181224 0.289471 1.034237
-0.176098 0.289091 1.032645
-0.169496 0.286199 1.022084
-0.165068 0.286913 1.024404
-0.158431 0.283717 1.012767
-0.150955 0.278771 0.994889
-0.142850 0.272307 0.971608
-0.137831 0.271493 0.968493
-0.131850 0.268662 0.958189
-0.125389 0.264616 0.943560
-0.120292 0.263256 0.938514
-0.114576 0.260386 0.928091
-0.109349 0.258443 0.920981
-0.104127 0.256350 0.913342
-0.098354 0.252660 0.900021
-0.093249 0.250430 0.891907
-0.088454 0.248858 0.886148
-0.083521 0.246723 0.878386
-0.078669 0.244616 0.870734
-0.074425 0.244272 0.869363
-0.056743 0.209508 0.745403
-0.053145 0.209300 0.744549
-0.049431 0.208573 0.741854
-0.045982 0.208942 0.743065
-0.042428 0.208851 0.742645
-0.038959 0.209206 0.743813
-0.035417 0.209199 0.743699
-0.031883 0.209245 0.743781
-0.028433 0.209918 0.746095
-0.024801 0.209254 0.743665
-0.021236 0.209031 0.742802
-0.017640 0.208350 0.740321
-0.014013 0.206877 0.735033
-0.010101 0.198814 0.706338
-0.006670 0.196916 0.699553
-0.003287 0.194004 0.689169
-0.000002 0.191347 0.679701
0.003209 0.189621 0.673542
0.006373 0.188248 0.668645
0.009403 0.185124 0.657534
0.012537 0.185113 0.657485
0.008811 0.104074 0.369646
0.010685 0.105168 0.373533
0.012483 0.105313 0.374049
0.014290 0.105481 0.374649
0.016263 0.106705 0.379005
0.018547 0.109520 0.389016
0.020378 0.109386 0.388552
0.022461 0.110518 0.392592
0.024646 0.111937 0.397651
0.026918 0.113524 0.403309
0.029069 0.114419 0.406514
0.031587 0.116556 0.414134
0.033974 0.117988 0.419253
0.035950 0.117911 0.419012
0.037969 0.117974 0.419274
0.039880 0.117715 0.418390
0.041563 0.116837 0.415310
0.043046 0.115504 0.410611
0.045092 0.115731 0.411463
0.047055 0.115732 0.411512
0.048869 0.115385 0.410324
0.051420 0.116735 0.415174
0.053430 0.116803 0.415467
0.056116 0.118290 0.420810
0.057988 0.118019 0.419900
0.058855 0.115788 0.412015
0.062521 0.119029 0.423607
0.051516 0.086861 0.309298
0.052735 0.086445 0.307859
0.054137 0.086343 0.307540
0.055484 0.086159 0.306932
0.056755 0.085871 0.305950
0.058221 0.085886 0.306046
0.059309 0.085354 0.304193
0.060468 0.084949 0.302793
0.061759 0.084742 0.302098
0.062938 0.084395 0.300903
0.064084 0.084020 0.299606
0.065278 0.083723 0.298586
0.066612 0.083615 0.298238
0.067770 0.083294 0.297130
0.068963 0.083028 0.296218
0.070193 0.082817 0.295501
0.071346 0.082525 0.294492
0.072394 0.082125 0.293096
0.073184 0.081453 0.290726
0.074067 0.080907 0.288802
0.075170 0.080617 0.287792
0.076170 0.080229 0.286430
0.076956 0.079633 0.284322
0.077920 0.079238 0.282929
0.079043 0.079016 0.282152
0.079839 0.078479 0.280247
0.080647 0.077972 0.278445
0.081356 0.077386 0.276361
0.082218 0.076963 0.274854
0.083227 0.076688 0.273871
0.084079 0.076279 0.272409
0.084788 0.075756 0.270532
0.085358 0.075124 0.268267
0.086469 0.074981 0.267742
0.087373 0.074665 0.266597
0.088186 0.074281 0.265203
0.089081 0.073977 0.264090
0.089895 0.073613 0.262764
0.090540 0.073124 0.260981
0.090921 0.072437 0.258493
0.091424 0.071865 0.256408
0.092197 0.071517 0.255119
0.092847 0.071084 0.253521
0.093614 0.070750 0.252273
0.094689 0.070655 0.251869
0.095450 0.070331 0.250646
0.096150 0.069970 0.249285
0.096912 0.069663 0.248112
0.097484 0.069227 0.246476
0.098016 0.068775 0.244774
0.098451 0.068265 0.242863
0.099248 0.068016 0.241875
0.100190 0.067870 0.241247
0.100832 0.067526 0.239909
0.101430 0.067162 0.238492
0.102076 0.066836 0.237207
0.102788 0.066561 0.236092
0.103581 0.066343 0.235176
0.104252 0.066053 0.233996
0.104987 0.065809 0.232973
0.105730 0.065575 0.231977
0.106436 0.065323 0.230909
0.107144 0.065077 0.229856
0.107793 0.064801 0.228689
0.108292 0.064442 0.227218
0.108985 0.064203 0.226166
0.109709 0.063988 0.225185
0.110399 0.063757 0.224142
0.111262 0.063629 0.223452
0.111977 0.063420 0.222466
0.112707 0.063223 0.221512
0.113512 0.063072 0.220709
0.114464 0.063004 0.220184
0.115212 0.062826 0.219263
0.115988 0.062666 0.218396
-1.509022 0.810916 2.800212
-1.498937 0.812735 2.810298
-1.489874 0.815147 2.822289
-1.479168 0.816696 2.831153
-1.467317 0.817637 2.837763
-1.458395 0.820243 2.850019
-1.448499 0.822345 2.860396
-1.438119 0.824211 2.869826
-1.427173 0.825786 2.878119
-1.415755 0.827116 2.885435
-1.403595 0.828034 2.891195
-1.390485 0.828406 2.894926
-1.376500 0.828258 2.896722
-1.363117 0.828474 2.899675
-1.348820 0.828135 2.900570
-1.339684 0.830989 2.912549
-1.325933 0.831011 2.914501
-1.319538 0.835693 2.932703
-1.309871 0.838380 2.943821
-1.297535 0.839399 2.948989
-0.858557 0.561443 1.973471
-0.850289 0.562136 1.976850
-0.835639 0.558579 1.965215
-0.819492 0.553931 1.949673
-0.805945 0.550954 1.939950
-0.797077 0.551145 1.941321
-0.790095 0.552661 1.947309
-0.781621 0.553155 1.949652
-0.772693 0.553337 1.950845
-0.764994 0.554414 1.955149
-0.757550 0.555705 1.960163
-0.823904 0.611830 2.158593
-0.804848 0.605140 2.135396
-0.796253 0.606245 2.139660
-0.785816 0.605959 2.138969
-0.776770 0.606752 2.142046
-0.673930 0.533339 1.883079
-0.665240 0.533472 1.883723
-0.656546 0.533606 1.884335
-0.649165 0.534825 1.888748
-0.640651 0.535132 1.889909
-0.700227 0.657918 2.323079
-0.680582 0.649599 2.293515
-0.671272 0.651036 2.298375
-0.664850 0.655367 2.313426
-0.650081 0.651478 2.299434
-0.641512 0.653776 2.307260
-0.496171 0.542394 1.913074
-0.486228 0.541359 1.909111
-0.479738 0.544202 1.918810
-0.470194 0.543623 1.916433
-0.460604 0.542968 1.913775
-0.453351 0.545097 1.920919
-0.182223 0.296014 1.040312
-0.174035 0.290562 1.020927
-0.169045 0.290289 1.019743
-0.164766 0.291258 1.022926
-0.157799 0.287391 1.009125
-0.151058 0.283705 0.995969
-0.144698 0.280523 0.984590
-0.137863 0.276176 0.969128
-0.132310 0.274187 0.961947
-0.126797 0.272142 0.954577
-0.120810 0.268891 0.942981
-0.115441 0.266819 0.935529
-0.110165 0.264805 0.928286
-0.105014 0.262939 0.921566
-0.099546 0.260079 0.911371
-0.093742 0.256045 0.897069
-0.088709 0.253831 0.889155
-0.083915 0.252117 0.882996
-0.078337 0.247742 0.867526
-0.074295 0.248008 0.868316
-0.053484 0.214238 0.749736
-0.049581 0.212785 0.744549
-0.046144 0.213266 0.746129
-0.042653 0.213560 0.747062
-0.039105 0.213591 0.747080
-0.035521 0.213415 0.746378
-0.031888 0.212877 0.744415
-0.028409 0.213357 0.746015
-0.024821 0.213043 0.744846
-0.021169 0.211987 0.741089
-0.017554 0.210951 0.737409
-0.013920 0.209116 0.730938
-0.010220 0.204751 0.715634
-0.006698 0.201329 0.703631
-0.003292 0.198085 0.692255
0.000006 0.196564 0.686908
0.003216 0.192794 0.673708
0.006391 0.191716 0.669921
0.009462 0.189283 0.661404
0.012613 0.189272 0.661355
0.008958 0.107552 0.375804
0.010754 0.107594 0.375950
0.012541 0.107548 0.375793
0.014465 0.108551 0.379301
0.016411 0.109471 0.382521
0.018701 0.112269 0.392308
0.020598 0.112414 0.392828
0.022566 0.112891 0.394511
0.024985 0.115376 0.403213
0.027107 0.116234 0.406235
0.029366 0.117525 0.410767
0.031455 0.118017 0.412515
0.034263 0.120986 0.422922
0.036287 0.121013 0.423049
0.038037 0.120171 0.420139
0.039956 0.119920 0.419298
0.041511 0.118651 0.414899
0.043263 0.118038 0.412793
0.045200 0.117959 0.412559
0.047065 0.117706 0.411718
0.049056 0.117775 0.412003
0.051882 0.119766 0.419016
0.054408 0.120943 0.423182
0.056525 0.121160 0.423994
0.058466 0.120996 0.423471
0.060521 0.121071 0.423789
0.062430 0.120860 0.423102
0.051908 0.088998 0.311727
0.052920 0.088211 0.309012
0.054240 0.087966 0.308196
0.055678 0.087919 0.308073
0.056962 0.087638 0.307131
0.058201 0.087304 0.306003
0.059507 0.087084 0.305272
0.060507 0.086437 0.303044
0.061674 0.086054 0.301739
0.062987 0.085886 0.301190
0.064178 0.085564 0.300100
0.065381 0.085271 0.299109
0.066570 0.084972 0.298097
0.067764 0.084693 0.297151
0.069030 0.084512 0.296551
0.070135 0.084145 0.295293
0.071334 0.083904 0.294477
0.072463 0.083591 0.293408
0.073332 0.082995 0.291342
0.074212 0.082434 0.289394
0.075256 0.082071 0.288144
0.076359 0.081785 0.287160
0.077262 0.081299 0.285471
0.078134 0.080797 0.283721
0.079120 0.080428 0.282439
0.080137 0.080102 0.281303
0.081024 0.079659 0.279753
0.081534 0.078866 0.276972
0.082385 0.078422 0.275412
0.083425 0.078169 0.274520
0.084284 0.077757 0.273066
0.085150 0.077364 0.271678
0.086028 0.076993 0.270360
0.086828 0.076565 0.268839
0.087465 0.076006 0.266857
0.088443 0.075757 0.265956
0.089142 0.075277 0.264244
0.089838 0.074809 0.262568
0.090413 0.074256 0.260586
0.091019 0.073741 0.258738
0.091728 0.073322 0.257222
0.092258 0.072774 0.255246
0.092849 0.072287 0.253483
0.093440 0.071813 0.251759
0.094291 0.071547 0.250762
0.095066 0.071231 0.249583
0.095758 0.070862 0.248213
0.096522 0.070554 0.247051
0.097175 0.070174 0.245632
0.097617 0.069652 0.243711
0.098464 0.069428 0.242825
0.099299 0.069200 0.241922
0.100049 0.068920 0.240828
0.100897 0.068712 0.239982
0.101582 0.068399 0.238762
0.102227 0.068067 0.237468
0.102678 0.067614 0.235747
0.103514 0.067421 0.234927
0.104272 0.067182 0.233940
0.104913 0.066874 0.232702
0.105775 0.066712 0.231965
0.106362 0.066381 0.230636
0.107012 0.066096 0.229456
0.107690 0.065834 0.228350
0.108352 0.065567 0.227218
0.108904 0.065240 0.225868
0.109676 0.065050 0.224984
0.110416 0.064845 0.224039
0.111144 0.064636 0.223072
0.111966 0.064486 0.222296
0.112697 0.064286 0.221339
0.113477 0.064118 0.220481
0.114557 0.064121 0.220199
0.115377 0.063979 0.219407
0.116102 0.063788 0.218435
-1.514556 0.827467 2.808352
-1.504287 0.829242 2.818268
-1.495853 0.832071 2.831619
-1.481289 0.831511 2.833287
-1.471710 0.833765 2.844395
-1.461578 0.835746 2.854436
-1.450946 0.837475 2.863487
-1.439412 0.838713 2.870727
-1.425154 0.838373 2.872430
-1.412502 0.838981 2.877248
-1.401950 0.840860 2.886308
-1.385879 0.839435 2.883898
-1.372050 0.839352 2.885978
-1.362496 0.841911 2.897027
-1.350640 0.843085 2.903209
-1.340533 0.845386 2.913172
-1.335775 0.851145 2.934957
-1.323579 0.852235 2.940559
-1.323515 0.861244 2.973400
-1.295065 0.851777 2.942355
-1.282714 0.852808 2.947462
-0.849441 0.570943 1.974260
-0.835752 0.567974 1.964900
-0.816752 0.561288 1.942612
-0.805108 0.559564 1.937425
-0.796126 0.559671 1.938526
-0.789132 0.561195 1.944484
-0.780508 0.561582 1.946455
-0.772174 0.562191 1.949144
-0.764182 0.563065 1.952711
-0.756548 0.564229 1.957234
-0.822112 0.620685 2.153563
-0.813023 0.621485 2.156780
-0.796699 0.616705 2.140584
-0.786241 0.616402 2.139883
-0.777180 0.617200 2.142961
-0.672884 0.541395 1.879994
-0.664017 0.541376 1.880124
-0.654899 0.541148 1.879497
-0.647814 0.542617 1.884732
-0.638487 0.542224 1.883464
-0.699381 0.668090 2.320429
-0.683468 0.663242 2.303425
-0.671324 0.661953 2.298762
-0.659923 0.661368 2.296516
-0.653228 0.665559 2.310830
-0.644835 0.668131 2.319502
-0.497956 0.553433 1.920284
-0.486601 0.550819 1.910920
-0.481015 0.554761 1.924289
-0.470935 0.553571 1.919841
-0.460767 0.552230 1.914861
-0.453195 0.554009 1.920689
-0.183708 0.295437 1.021785
-0.177717 0.293521 1.014947
-0.174771 0.296668 1.025612
-0.167051 0.291663 1.008094
-0.163020 0.292991 1.012471
-0.157513 0.291667 1.007687
-0.150463 0.287315 0.992443
-0.142683 0.281244 0.971274
-0.137267 0.279584 0.965341
-0.132797 0.279803 0.965903
-0.126589 0.276244 0.953426
-0.119515 0.270462 0.933288
-0.114403 0.268849 0.927541
-0.108765 0.265819 0.916913
-0.104239 0.265370 0.915195
-0.099358 0.263939 0.910091
-0.094234 0.261703 0.902222
-0.089026 0.259009 0.892779
-0.083249 0.254311 0.876435
-0.079131 0.254452 0.876776
-0.053805 0.219146 0.754662
-0.049728 0.217008 0.747198
-0.046011 0.216234 0.744435
-0.042661 0.217199 0.747663
-0.039035 0.216810 0.746233
-0.035426 0.216445 0.744894
-0.031900 0.216561 0.745212
-0.028358 0.216588 0.745230
-0.024857 0.216987 0.746534
-0.021156 0.215477 0.741274
-0.017473 0.213584 0.734703
-0.014094 0.215398 0.740889
-0.010228 0.208489 0.717076
-0.006700 0.205021 0.705105
-0.003286 0.201566 0.693187
0.000015 0.198742 0.683446
0.003230 0.196360 0.675227
0.006421 0.195591 0.672563
0.009516 0.193377 0.664933
0.012683 0.193366 0.664884
0.009111 0.111147 0.382170
0.010886 0.110686 0.380585
0.012609 0.109896 0.377869
0.014555 0.111004 0.381683
0.016437 0.111438 0.383183
0.019009 0.115991 0.398848
0.020905 0.115963 0.398761
0.022767 0.115767 0.398104
0.025066 0.117654 0.404609
0.027556 0.120104 0.413054
0.029374 0.119491 0.410970
0.032343 0.123347 0.424258
0.034575 0.124102 0.426883
0.036545 0.123887 0.426172
0.038702 0.124290 0.427592
0.040754 0.124336 0.427783
0.042068 0.122232 0.420582
0.042940 0.119093 0.409818
0.044858 0.119001 0.409540
0.046938 0.119329 0.410711
0.048688 0.118825 0.409018
0.050875 0.119386 0.410996
0.052993 0.119747 0.412285
0.056387 0.122866 0.423069
0.058435 0.122934 0.423355
0.060083 0.122186 0.420830
0.062395 0.122792 0.422965
0.051412 0.089609 0.308819
0.052767 0.089414 0.308189
0.054099 0.089191 0.307460
0.055520 0.089123 0.307263
0.056889 0.088978 0.306803
0.058265 0.088849 0.306397
0.059461 0.088461 0.305097
0.060645 0.088072 0.303794
0.061843 0.087720 0.302619
0.063048 0.087396 0.301535
0.064156 0.086953 0.300044
0.065365 0.086664 0.299080
0.066603 0.086425 0.298288
0.067798 0.086141 0.297341
0.068881 0.085729 0.295946
0.070141 0.085550 0.295357
0.071403 0.085379 0.294795
0.072446 0.084959 0.293369
0.073335 0.084376 0.291380
0.073883 0.083430 0.288134
0.075046 0.083201 0.287362
0.076275 0.083051 0.286862
0.077268 0.082656 0.285509
0.078351 0.082367 0.284523
0.079322 0.081972 0.283167
0.080218 0.081514 0.281592
0.080951 0.080909 0.279504
0.081823 0.080460 0.277953
0.082762 0.080090 0.276671
0.083708 0.079737 0.275445
0.084674 0.079414 0.274322
0.085584 0.079050 0.273050
0.086301 0.078520 0.271202
0.087373 0.078325 0.270508
0.087710 0.077485 0.267583
0.088609 0.077160 0.266430
0.089638 0.076954 0.265688
0.090438 0.076561 0.264292
0.091134 0.076091 0.262629
0.091526 0.075383 0.260140
0.092213 0.074934 0.258540
0.092638 0.074288 0.256254
0.093149 0.073725 0.254254
0.093904 0.073368 0.252956
0.094940 0.073236 0.252432
0.095705 0.072902 0.251202
0.096297 0.072445 0.249548
0.096970 0.072060 0.248134
0.097595 0.071649 0.246624
0.098441 0.071407 0.245694
0.098975 0.070948 0.244010
0.099769 0.070683 0.242988
0.100532 0.070404 0.241909
0.101173 0.070045 0.240552
0.101708 0.069622 0.238968
0.102067 0.069090 0.237003
0.102773 0.068801 0.235866
0.103411 0.068473 0.234592
0.104036 0.068144 0.233304
0.104779 0.067899 0.232296
0.105563 0.067684 0.231387
0.106260 0.067420 0.230297
0.106929 0.067142 0.229157
0.107390 0.066742 0.227588
0.108104 0.066505 0.226567
0.108786 0.066253 0.225489
0.109507 0.066029 0.224498
0.110251 0.065824 0.223559
0.111007 0.065629 0.222648
0.111916 0.065528 0.222043
0.112824 0.065428 0.221430
0.113588 0.065247 0.220532
0.114770 0.065308 0.220438
0.115679 0.065213 0.219805
0.116291 0.064954 0.218608
-1.519287 0.843672 2.814909
-1.507321 0.844549 2.821810
-1.500149 0.848153 2.837673
-1.487860 0.848904 2.843847
-1.473875 0.848693 2.846642
-1.464779 0.851320 2.858814
-1.452110 0.851901 2.863978
-1.437360 0.851260 2.864892
-1.431598 0.855983 2.883731
-1.411323 0.852036 2.873230
-1.395077 0.850468 2.870604
-1.385877 0.853207 2.882396
-1.371327 0.852675 2.883019
-1.359176 0.853640 2.888587
-1.349018 0.855889 2.898393
-1.339679 0.858710 2.910038
-1.330711 0.861831 2.922604
-1.337157 0.875105 2.969532
-1.316183 0.870527 2.955797
-1.302800 0.870925 2.958850
-1.290355 0.871965 2.963992
-0.850091 0.580757 1.975121
-0.838182 0.578973 1.969997
-0.818657 0.571829 1.946567
-0.804720 0.568472 1.935951
-0.795544 0.568439 1.936600
-0.788257 0.569772 1.941850
-0.779998 0.570425 1.944734
-0.771777 0.571122 1.947722
-0.763437 0.571747 1.950416
-0.756082 0.573135 1.955667
-0.751176 0.576436 1.967407
-0.807169 0.627136 2.140918
-0.797074 0.627121 2.141292
-0.779751 0.621346 2.121949
-0.770753 0.622142 2.125001
-0.672402 0.549887 1.878462
-0.664008 0.550254 1.879939
-0.655401 0.550451 1.880803
-0.647668 0.551399 1.884199
-0.638592 0.551214 1.883690
-0.680136 0.670844 2.292354
-0.669781 0.671275 2.293664
-0.662131 0.674476 2.304415
-0.651913 0.675125 2.306421
-0.642150 0.676275 2.310114
-0.497794 0.562339 1.919969
-0.485730 0.558864 1.907831
-0.475900 0.557877 1.904175
-0.471619 0.563481 1.923005
-0.460432 0.560893 1.913861
-0.452107 0.561758 1.916492
-0.188071 0.299547 1.019793
-0.183426 0.299832 1.020555
-0.181012 0.303880 1.034122
-0.172445 0.297536 1.012326
-0.166885 0.296166 1.007459
-0.163000 0.297775 1.012729
-0.155297 0.292296 0.993894
-0.150997 0.293081 0.996362
-0.144336 0.289186 0.982923
-0.139793 0.289416 0.983512
-0.132001 0.282703 0.960511
-0.125867 0.279193 0.948400
-0.120185 0.276459 0.938934
-0.114862 0.274374 0.931678
-0.109332 0.271608 0.922116
-0.104067 0.269298 0.914109
-0.099161 0.267758 0.908719
-0.093995 0.265345 0.900372
-0.088863 0.262802 0.891593
-0.083280 0.258603 0.877203
-0.078478 0.256518 0.869991
-0.074030 0.255421 0.866135
-0.069951 0.255549 0.866437
-0.053989 0.223534 0.757675
-0.050117 0.222329 0.753490
-0.046532 0.222309 0.753323
-0.042819 0.221624 0.750909
-0.039262 0.221693 0.751057
-0.035628 0.221299 0.749639
-0.031965 0.220622 0.747265
-0.028393 0.220483 0.746721
-0.024795 0.220070 0.745256
-0.021114 0.218665 0.740432
-0.017524 0.217829 0.737544
-0.013965 0.217065 0.734906
-0.010258 0.212703 0.720090
-0.006655 0.207227 0.701510
-0.003268 0.204234 0.691342
0.000023 0.202644 0.685926
0.003246 0.200051 0.677124
0.006472 0.200111 0.677305
0.009511 0.196270 0.664290
0.012687 0.196476 0.664973
0.009123 0.113058 0.382642
0.010841 0.111986 0.379010
0.012622 0.111765 0.378265
0.014504 0.112389 0.380378
0.016352 0.112642 0.381242
0.019205 0.119073 0.403017
0.021120 0.119044 0.402930
0.022988 0.118781 0.402053
0.025327 0.120803 0.408913
0.027549 0.122019 0.413046
0.029853 0.123411 0.417779
0.032368 0.125443 0.424685
0.034478 0.125760 0.425785
0.036530 0.125844 0.426098
0.038717 0.126358 0.427868
0.040543 0.125702 0.425680
0.041900 0.123722 0.419010
0.043231 0.121848 0.412696
0.045051 0.121457 0.411411
0.046953 0.121309 0.410950
0.048769 0.120959 0.409802
0.050864 0.121302 0.411007
0.053456 0.122761 0.415995
0.055961 0.123922 0.419974
0.058249 0.124538 0.422108
0.059896 0.123790 0.419619
0.060635 0.121273 0.411136
0.059523 0.108539 0.368095
0.051488 0.091203 0.309340
0.052802 0.090932 0.308457
0.054149 0.090730 0.307810
0.055618 0.090736 0.307869
0.056855 0.090375 0.306678
0.057981 0.089859 0.304965
0.059508 0.089974 0.305392
0.060577 0.089407 0.303503
0.061723 0.088979 0.302084
0.063124 0.088929 0.301947
0.064228 0.088471 0.300425
0.065381 0.088100 0.299197
0.066491 0.087688 0.297828
0.067826 0.087583 0.297499
0.068929 0.087189 0.296189
0.070053 0.086837 0.295018
0.071237 0.086572 0.294141
0.072478 0.086384 0.293524
0.073518 0.085968 0.292133
0.074262 0.085227 0.289634
0.075106 0.084628 0.287613
0.076254 0.084384 0.286798
0.077377 0.084124 0.285924
0.078345 0.083706 0.284510
0.079317 0.083306 0.283157
0.080291 0.082921 0.281851
0.081042 0.082323 0.279819
0.081961 0.081911 0.278416
0.082871 0.081504 0.277026
0.083696 0.081028 0.275398
0.084670 0.080708 0.274297
0.085721 0.080469 0.273470
0.086481 0.079969 0.271750
0.087426 0.079652 0.270648
0.087976 0.078990 0.268369
0.088648 0.078455 0.266518
0.089370 0.077977 0.264861
0.090235 0.077637 0.263664
0.091026 0.077243 0.262279
0.091777 0.076826 0.260814
0.092565 0.076450 0.259484
0.093218 0.075974 0.257809
0.093812 0.075464 0.256012
0.094250 0.074842 0.253834
0.095076 0.074540 0.252735
0.095896 0.074241 0.251642
0.096649 0.073898 0.250395
0.097447 0.073598 0.249284
0.098236 0.073298 0.248171
0.099007 0.072992 0.247031
0.099663 0.072609 0.245625
0.100042 0.072035 0.243570
0.100596 0.071600 0.241974
0.101481 0.071407 0.241193
0.102053 0.071000 0.239683
0.102392 0.070442 0.237659
0.102910 0.070018 0.236079
0.103709 0.069793 0.235162
0.104474 0.069550 0.234177
0.105195 0.069283 0.233105
0.105979 0.069062 0.232181
0.106449 0.068643 0.230583
0.106987 0.068277 0.229154
0.107625 0.067981 0.227953
0.108295 0.067711 0.226831
0.108865 0.067385 0.225513
0.109625 0.067181 0.224596
0.110328 0.066946 0.223565
0.110965 0.066677 0.222408
0.111933 0.066610 0.221917
0.112926 0.066558 0.221465
0.113766 0.066418 0.220706
0.114842 0.066417 0.220399
0.115910 0.066411 0.220060
0.116698 0.066247 0.219184
-1.508560 0.851242 2.792759
-1.514540 0.862296 2.833097
-1.506909 0.865731 2.848299
-1.484250 0.860517 2.834872
-1.482050 0.867179 2.860413
-1.470232 0.868285 2.867504
-1.454747 0.867227 2.867297
-1.446163 0.870302 2.880618
-1.431652 0.869836 2.882087
-1.415683 0.868467 2.880420
-1.408419 0.872464 2.896427
-1.390357 0.869785 2.890150
-1.379197 0.871415 2.898058
-1.358388 0.866919 2.885470
-1.357322 0.875062 2.914840
-1.350649 0.879720 2.932522
-1.325368 0.872230 2.909592
-1.326692 0.882275 2.945055
-1.315149 0.883887 2.952290
-0.860299 0.590738 1.975417
-0.847228 0.588145 1.967785
-0.836709 0.587287 1.965889
-0.817217 0.580040 1.942536
-0.805007 0.577857 1.936070
-0.795039 0.577251 1.934832
-0.787251 0.578233 1.938862
-0.779763 0.579461 1.943671
-0.771285 0.579974 1.946032
-0.762952 0.580610 1.948758
-0.755927 0.582270 1.954877
-0.751610 0.586083 1.968182
-0.808199 0.638076 2.143287
-0.797603 0.637670 2.142381
-0.784432 0.635171 2.134391
-0.775369 0.635976 2.137461
-0.671650 0.558142 1.876154
-0.663111 0.558385 1.877217
-0.654718 0.558758 1.878687
-0.647609 0.560253 1.883896
-0.639057 0.560524 1.884956
-0.687468 0.689030 2.317204
-0.672584 0.684974 2.303428
-0.661002 0.684205 2.300678
-0.653323 0.687516 2.311626
-0.646325 0.691669 2.325381
-0.643602 0.700620 2.355239
-0.502937 0.577330 1.940101
-0.485371 0.567476 1.906734
-0.478869 0.570429 1.916389
-0.472862 0.574098 1.928433
-0.459787 0.569161 1.911557
-0.452178 0.570929 1.917192
-0.191215 0.301749 1.011451
-0.186616 0.302038 1.012224
-0.181432 0.301371 1.009793
-0.180033 0.307127 1.028876
-0.176045 0.308663 1.033820
-0.168136 0.303214 1.015370
-0.163066 0.302717 1.013506
-0.157864 0.301938 1.010700
-0.151234 0.298293 0.998307
-0.144814 0.294843 0.986567
-0.138899 0.292224 0.977617
-0.131610 0.286435 0.958068
-0.127168 0.286648 0.958604
-0.121374 0.283720 0.948636
-0.115372 0.280061 0.936230
-0.110318 0.278502 0.930852
-0.104906 0.275874 0.921906
-0.099947 0.274261 0.916358
-0.094297 0.270519 0.903703
-0.088789 0.266845 0.891284
-0.083564 0.263701 0.880639
-0.077939 0.258895 0.864456
-0.072375 0.253772 0.847222
-0.068559 0.254535 0.849644
-0.064555 0.254655 0.849922
-0.054379 0.228817 0.763584
-0.050139 0.226050 0.754252
-0.046429 0.225437 0.752111
-0.042871 0.225516 0.752283
-0.039362 0.225894 0.753460
-0.035803 0.226029 0.753827
-0.032131 0.225406 0.751674
-0.028515 0.225069 0.750475
-0.024868 0.224359 0.748040
-0.021253 0.223748 0.745943
-0.017620 0.222666 0.742276
-0.014008 0.221383 0.737948
-0.010398 0.219282 0.730897
-0.006738 0.213484 0.711530
-0.003300 0.210113 0.700257
0.000032 0.209430 0.697949
0.003311 0.206748 0.688985
0.006562 0.205885 0.686087
0.009683 0.202851 0.675960
0.012674 0.199305 0.664131
0.009083 0.114314 0.380917
0.010768 0.112968 0.376428
0.012604 0.113366 0.377755
0.014457 0.113793 0.379180
0.016273 0.113873 0.379452
0.019494 0.122781 0.409144
0.021437 0.122752 0.409056
0.023202 0.121791 0.405869
0.025381 0.122986 0.409865
0.027704 0.124657 0.415451
0.029995 0.125973 0.419857
0.032228 0.126894 0.422950
0.034614 0.128271 0.427563
0.036722 0.128525 0.428439
0.038641 0.128125 0.427132
0.040536 0.127688 0.425708
0.041976 0.125928 0.419872
0.043469 0.124478 0.415071
0.045197 0.123800 0.412848
0.046993 0.123355 0.411399
0.048808 0.122994 0.410234
0.051227 0.124124 0.414043
0.053597 0.125056 0.417192
0.055920 0.125814 0.419764
0.057766 0.125484 0.418708
0.060282 0.126584 0.422422
0.061831 0.125647 0.419340
0.059436 0.110119 0.367640
0.051642 0.092943 0.310333
0.053009 0.092752 0.309728
0.054355 0.092534 0.309038
0.055753 0.092415 0.308673
0.057143 0.092289 0.308287
0.058462 0.092058 0.307549
0.059523 0.091440 0.305520
0.060497 0.090723 0.303155
0.061850 0.090593 0.302751
0.063034 0.090228 0.301562
0.064217 0.089876 0.300416
0.065467 0.089632 0.299629
0.066572 0.089204 0.298225
0.067735 0.088869 0.297133
0.068809 0.088435 0.295706
0.070007 0.088174 0.294854
0.071074 0.087760 0.293493
0.072335 0.087598 0.292968
0.073363 0.087165 0.291537
0.074199 0.086523 0.289406
0.075267 0.086171 0.288243
0.076390 0.085893 0.287322
0.077485 0.085594 0.286329
0.078548 0.085271 0.285254
0.079575 0.084919 0.284079
0.080486 0.084459 0.282539
0.081169 0.083776 0.280253
0.082024 0.083292 0.278626
0.082873 0.082817 0.277026
0.083883 0.082514 0.276001
0.084790 0.082121 0.274670
0.085643 0.081689 0.273202
0.086508 0.081280 0.271812
0.087428 0.080935 0.270629
0.088254 0.080513 0.269189
0.088824 0.079874 0.267015
0.089491 0.079338 0.265185
0.090371 0.079004 0.264022
0.091241 0.078670 0.262857
0.091849 0.078122 0.260971
0.092534 0.077653 0.259346
0.093060 0.077065 0.257319
0.093811 0.076676 0.255953
0.094507 0.076252 0.254466
0.095245 0.075873 0.253121
0.095964 0.075488 0.251754
0.096725 0.075146 0.250523
0.097421 0.074761 0.249146
0.098336 0.074552 0.248348
0.098992 0.074154 0.246912
0.099658 0.073773 0.245530
0.100237 0.073336 0.243955
0.100817 0.072911 0.242415
0.101468 0.072546 0.241067
0.102201 0.072246 0.239932
0.102943 0.071960 0.238835
0.103306 0.071418 0.236880
0.103660 0.070882 0.234940
0.104170 0.070462 0.233380
0.105077 0.070318 0.232723
0.105706 0.069992 0.231459
0.106355 0.069686 0.230252
0.107065 0.069426 0.229189
0.107647 0.069089 0.227864
0.108474 0.068914 0.227066
0.109077 0.068602 0.225805
0.109872 0.068415 0.224949
0.110522 0.068143 0.223803
0.111250 0.067924 0.222820
0.112117 0.067792 0.222114
0.112820 0.067565 0.221085
0.113686 0.067439 0.220375
0.114729 0.067419 0.219998
0.115737 0.067378 0.219542
0.116636 0.067277 0.218872
-1.515275 0.868618 2.802821
-1.507057 0.871670 2.816800
-1.500688 0.875857 2.834309
-1.494603 0.880289 2.852479
-1.480347 0.879947 2.855033
-1.471411 0.882790 2.867777
-1.459055 0.883616 2.873830
-1.436109 0.886409 2.889232
-1.423751 0.887295 2.895071
-1.396451 0.878796 2.870131
-1.380363 0.877255 2.867757
-1.367817 0.877957 2.872588
-1.359163 0.881198 2.885615
-1.339336 0.877187 2.874778
-1.333597 0.882416 2.894111
-1.324368 0.885421 2.906061
-1.325668 0.895603 2.941491
-0.859594 0.599634 1.973042
-0.845026 0.595939 1.961957
-0.840663 0.599439 1.974495
-0.823446 0.593749 1.956699
-0.804151 0.586415 1.933407
-0.794378 0.585936 1.932652
-0.786102 0.586564 1.935493
-0.778937 0.588046 1.941103
-0.770488 0.588583 1.943543
-0.762268 0.589309 1.946564
-0.755865 0.591475 1.954298
-0.750726 0.594696 1.965475
-0.806006 0.646458 2.137079
-0.797737 0.647914 2.142380
-0.780771 0.642255 2.124104
-0.766371 0.638586 2.112363
-0.670939 0.566413 1.873934
-0.662004 0.566312 1.873875
-0.653528 0.566608 1.875091
-0.646493 0.568178 1.880493
-0.637269 0.567841 1.879555
-0.688688 0.701228 2.321426
-0.677767 0.701228 2.321318
-0.669995 0.704541 2.332149
-0.657059 0.702443 2.325042
-0.648676 0.705225 2.334068
-0.642759 0.710830 2.352408
-0.632431 0.711668 2.354953
-0.502258 0.585722 1.937760
-0.485836 0.577055 1.908856
-0.477320 0.577628 1.910505
-0.472915 0.583296 1.928989
-0.459357 0.577675 1.910129
-0.450614 0.578005 1.910936
-0.188995 0.302994 1.000009
-0.183699 0.302052 0.996713
-0.178513 0.301246 0.993868
-0.177273 0.307236 1.013439
-0.170229 0.303221 1.000006
-0.166153 0.304414 1.003751
-0.161598 0.304773 1.004747
-0.154096 0.299429 0.986942
-0.149505 0.299583 0.987267
-0.142968 0.295723 0.974364
-0.136236 0.291190 0.959251
-0.130346 0.288207 0.949250
-0.125032 0.286330 0.942898
-0.121170 0.287762 0.947444
-0.114844 0.283229 0.932353
-0.109853 0.281755 0.927341
-0.104254 0.278537 0.916595
-0.099183 0.276510 0.909772
-0.094323 0.274917 0.904380
-0.089426 0.273057 0.898119
-0.083970 0.269218 0.885353
-0.077735 0.262351 0.862640
-0.073074 0.260325 0.855851
-0.067499 0.254614 0.836957
-0.063495 0.254486 0.836420
-0.059551 0.254598 0.836676
-0.050474 0.231215 0.759737
-0.046341 0.228623 0.751130
-0.043246 0.231144 0.759323
-0.039507 0.230372 0.756701
-0.035846 0.229948 0.755229
-0.032343 0.230559 0.757160
-0.028660 0.229876 0.754846
-0.024996 0.229180 0.752494
-0.021320 0.228116 0.748936
-0.017695 0.227278 0.746130
-0.014041 0.225570 0.740471
-0.010377 0.222493 0.730323
-0.006695 0.215785 0.708263
-0.003289 0.213301 0.700076
0.000041 0.212318 0.696815
0.003313 0.209605 0.687887
0.006568 0.209078 0.686135
0.009690 0.206053 0.676188
0.012651 0.201949 0.662709
0.009110 0.116409 0.381997
0.010815 0.115212 0.378068
0.012657 0.115604 0.379353
0.014531 0.116152 0.381155
0.016322 0.115988 0.380621
0.019258 0.123180 0.404228
0.021176 0.123151 0.404141
0.023174 0.123545 0.405447
0.025208 0.124057 0.407142
0.027592 0.126099 0.413857
0.029873 0.127426 0.418231
0.032097 0.128361 0.421323
0.034370 0.129368 0.424651
0.036382 0.129336 0.424569
0.038328 0.129083 0.423767
0.040299 0.128936 0.423313
0.042085 0.128239 0.421057
0.043507 0.126547 0.415531
0.044590 0.124060 0.407399
0.046483 0.123936 0.407026
0.047705 0.122108 0.401057
0.049185 0.121054 0.397632
0.052280 0.123903 0.407029
0.055142 0.126020 0.414023
0.058040 0.128066 0.420787
0.059477 0.126862 0.416873
0.061306 0.126545 0.415872
0.063238 0.126452 0.415611
0.061345 0.118948 0.390988
0.060155 0.113209 0.372161
0.061876 0.113119 0.371906
0.052918 0.094054 0.309258
0.054324 0.093941 0.308920
0.055602 0.093620 0.307895
0.057098 0.093672 0.308097
0.058514 0.093595 0.307876
0.059598 0.093001 0.305954
0.060557 0.092246 0.303499
0.061766 0.091899 0.302385
0.063224 0.091928 0.302511
0.064283 0.091390 0.300767
0.065478 0.091063 0.299716
0.066659 0.090732 0.298650
0.067834 0.090405 0.297599
0.068838 0.089870 0.295857
0.069871 0.089393 0.294308
0.071058 0.089126 0.293448
0.072200 0.088816 0.292443
0.073260 0.088418 0.291144
0.074233 0.087931 0.289553
0.075267 0.087533 0.288254
0.076470 0.087342 0.287631
0.077561 0.087033 0.286618
0.078561 0.086633 0.285303
0.079669 0.086364 0.284415
0.080659 0.085978 0.283140
0.081505 0.085454 0.281407
0.082301 0.084894 0.279555
0.083118 0.084375 0.277831
0.083953 0.083888 0.276213
0.085071 0.083697 0.275561
0.085962 0.083289 0.274196
0.086787 0.082832 0.272663
0.087585 0.082363 0.271086
0.088568 0.082078 0.270114
0.089120 0.081408 0.267868
0.089889 0.080952 0.266324
0.090814 0.080647 0.265273
0.091733 0.080345 0.264225
0.092576 0.079986 0.262987
0.093213 0.079460 0.261196
0.093613 0.078750 0.258793
0.093791 0.077873 0.255839
0.094486 0.077441 0.254346
0.095207 0.077043 0.252955
0.095866 0.076604 0.251427
0.096751 0.076355 0.250514
0.097540 0.076037 0.249372
0.098327 0.075725 0.248243
0.098975 0.075315 0.246786
