ply
format ascii 1.0
element vertex 1688
property float x
property float y
property float z
end_header
0.067076 -0.100954 0.266130
0.067958 -0.100387 0.264594
0.068475 -0.099312 0.261718
0.069245 -0.098635 0.259887
0.070290 -0.098367 0.259130
0.070972 -0.097609 0.257082
0.071732 -0.096982 0.255373
0.072698 -0.096650 0.254440
0.073723 -0.096405 0.253735
0.074693 -0.096098 0.252859
0.075631 -0.095760 0.251901
0.076680 -0.095570 0.251326
0.077634 -0.095270 0.250460
0.078738 -0.095160 0.250088
0.079768 -0.094966 0.249492
0.080784 -0.094760 0.248859
0.081801 -0.094561 0.248241
0.082801 -0.094350 0.247585
0.083790 -0.094131 0.246905
0.084694 -0.093824 0.245989
0.085796 -0.093742 0.245656
0.086779 -0.093534 0.244989
0.087767 -0.093336 0.244342
0.088902 -0.093298 0.244109
0.090064 -0.093290 0.243946
0.091079 -0.093130 0.243382
0.092177 -0.093059 0.243041
0.093267 -0.092980 0.242675
0.094190 -0.092740 0.241881
0.095248 -0.092638 0.241437
0.096285 -0.092516 0.240937
0.097067 -0.092156 0.239810
0.098023 -0.091968 0.239120
0.098946 -0.091752 0.238354
0.099927 -0.091595 0.237731
0.100898 -0.091433 0.237085
0.101882 -0.091286 0.236469
0.102832 -0.091112 0.235776
0.103658 -0.090834 0.234803
0.104513 -0.090585 0.233899
0.105313 -0.090295 0.232878
0.105927 -0.089854 0.231458
0.106681 -0.089539 0.230353
0.107413 -0.089213 0.229209
0.107786 -0.088598 0.227316
0.108145 -0.087984 0.225415
0.108139 -0.087089 0.222787
0.108178 -0.086247 0.220288
0.108184 -0.085396 0.217758
0.107592 -0.084094 0.214074
0.107298 -0.083048 0.211037
0.107317 -0.082262 0.208653
0.107217 -0.081401 0.206071
0.107211 -0.080626 0.203700
0.108144 -0.080566 0.203121
0.108186 -0.079848 0.200871
0.108510 -0.079351 0.199164
-1.458457 -1.031623 2.650249
-1.445914 -1.031923 2.656477
-1.435554 -1.033803 2.666571
-1.421869 -1.033303 2.670331
-1.413754 -1.036880 2.684449
-1.405038 -1.040080 2.697434
-1.400150 -1.046203 2.717856
-1.400318 -1.056257 2.748383
-1.387925 -1.056940 2.754400
-1.368024 -1.051864 2.745228
-1.380241 -1.071628 2.800776
-1.399772 -1.131014 2.971134
-1.386643 -1.131923 2.976939
-1.403787 -1.157822 3.048405
-1.399953 -1.166782 3.075234
-1.397987 -1.177507 3.106634
-1.398088 -1.190224 3.143217
-1.389306 -1.195572 3.160260
-1.377129 -1.198086 3.169704
-1.371697 -1.206590 3.194898
-1.358931 -1.208762 3.203234
-1.352502 -1.216686 3.226716
-1.347770 -1.226337 3.254703
-1.341540 -1.234834 3.279553
-1.326783 -1.235591 3.283758
-1.317108 -1.241157 3.300650
-1.305708 -1.245212 3.313442
-1.290870 -1.246048 3.317577
-1.280025 -1.250809 3.332077
-1.266516 -1.253053 3.339791
-1.257673 -1.260031 3.360045
-1.240828 -1.259069 3.359046
-1.233801 -1.268174 3.384834
-0.298195 -0.589880 1.581984
-0.292672 -0.593809 1.592437
-0.283752 -0.590870 1.584466
-0.276398 -0.591122 1.585043
-0.269217 -0.591771 1.586681
-0.262707 -0.593973 1.592479
-0.255712 -0.595177 1.595595
-0.249037 -0.597222 1.600961
-0.241846 -0.598120 1.603246
-0.235086 -0.600177 1.608636
-0.228062 -0.601678 1.612531
-0.220269 -0.601183 1.611076
-0.213329 -0.603066 1.615988
-0.206233 -0.604631 1.620049
-0.198880 -0.605535 1.622336
-0.191383 -0.606056 1.623596
-0.184268 -0.607881 1.628349
-0.177413 -0.610767 1.635941
-0.170013 -0.611948 1.638970
-0.162611 -0.613242 1.642298
-0.155538 -0.615967 1.649458
-0.147857 -0.616446 1.650606
-0.140649 -0.619062 1.657477
-0.133273 -0.621205 1.663082
-0.125237 -0.620347 1.660655
-0.117573 -0.621347 1.663205
-0.110330 -0.624875 1.672521
-0.102870 -0.627625 1.679758
-0.094557 -0.625196 1.673137
-0.087521 -0.631543 1.690006
-0.080291 -0.637628 1.706171
-0.072235 -0.637782 1.706474
-0.005497 -0.110069 0.294420
-0.004102 -0.110052 0.294357
-0.002673 -0.108606 0.290478
-0.001311 -0.109715 0.293430
0.000079 -0.109446 0.292697
0.001459 -0.108986 0.291456
0.002850 -0.109374 0.292482
0.004226 -0.109126 0.291809
0.005615 -0.109260 0.292156
0.007000 -0.109260 0.292147
0.008406 -0.109554 0.292926
0.009808 -0.109700 0.293309
0.011152 -0.109252 0.292106
0.012522 -0.109124 0.291756
0.013901 -0.109100 0.291686
0.015195 -0.108468 0.289994
0.016464 -0.107771 0.288125
0.017771 -0.107419 0.287180
0.019200 -0.107800 0.288195
0.020530 -0.107605 0.287672
0.021924 -0.107753 0.288067
0.023144 -0.107079 0.286262
0.024389 -0.106589 0.284950
0.025429 -0.105300 0.281504
0.027690 -0.108944 0.291246
0.028851 -0.108120 0.289041
0.025098 -0.089790 0.240038
0.026175 -0.089579 0.239476
0.026985 -0.088509 0.236615
0.028214 -0.088847 0.237518
0.029381 -0.088970 0.237845
0.030396 -0.088638 0.236958
0.031687 -0.089108 0.238214
0.039747 -0.107924 0.288514
0.041092 -0.107863 0.288348
0.042316 -0.107496 0.287367
0.042767 -0.105251 0.281362
0.045093 -0.107616 0.287681
0.046653 -0.108068 0.288885
0.042508 -0.095655 0.255699
0.042451 -0.092877 0.248268
0.043640 -0.092899 0.248322
0.045038 -0.093354 0.249530
0.046154 -0.093216 0.249155
0.047746 -0.094022 0.251299
0.049420 -0.094946 0.253760
0.055111 -0.103360 0.276233
0.056615 -0.103714 0.277166
0.057505 -0.102951 0.275112
0.058421 -0.102267 0.273266
0.059665 -0.102175 0.273000
0.060662 -0.101673 0.271636
0.061645 -0.101168 0.270264
0.062591 -0.100624 0.268787
0.063592 -0.100189 0.267598
0.064639 -0.099843 0.266643
0.065722 -0.099563 0.265863
0.066603 -0.098994 0.264309
0.067451 -0.098399 0.262682
0.068281 -0.097799 0.261040
0.069435 -0.097675 0.260667
0.070154 -0.096954 0.258698
0.070889 -0.096281 0.256854
0.071950 -0.096066 0.256227
0.072883 -0.095689 0.255167
0.073771 -0.095267 0.253982
0.074753 -0.094977 0.253148
0.075713 -0.094669 0.252259
0.076644 -0.094336 0.251301
0.077707 -0.094172 0.250791
0.078712 -0.093944 0.250105
0.079783 -0.093800 0.249640
0.080817 -0.093617 0.249067
0.081880 -0.093474 0.248594
0.082910 -0.093296 0.248024
0.083847 -0.093022 0.247192
0.084880 -0.092858 0.246652
0.085961 -0.092752 0.246256
0.087075 -0.092683 0.245955
0.088102 -0.092525 0.245413
0.089186 -0.092430 0.245030
0.090305 -0.092374 0.244745
0.091358 -0.092251 0.244278
0.092379 -0.092100 0.243729
0.093339 -0.091893 0.243025
0.094347 -0.091738 0.242451
0.095390 -0.091619 0.241968
0.096398 -0.091471 0.241397
0.097335 -0.091259 0.240653
0.098258 -0.091038 0.239879
0.099192 -0.090834 0.239138
0.100172 -0.090676 0.238513
0.101077 -0.090454 0.237710
0.102076 -0.090320 0.237131
0.102978 -0.090104 0.236326
0.103771 -0.089798 0.235279
0.104619 -0.089547 0.234365
0.105456 -0.089291 0.233429
0.106138 -0.088910 0.232158
0.106885 -0.088592 0.231040
0.107612 -0.088264 0.229888
0.108213 -0.087840 0.228476
0.108543 -0.087207 0.226511
0.108673 -0.086428 0.224157
0.108950 -0.085780 0.222138
0.108568 -0.084631 0.218813
0.107875 -0.083264 0.214923
0.107001 -0.081786 0.210742
0.106783 -0.080833 0.207911
0.107051 -0.080262 0.206054
0.106945 -0.079424 0.203503
0.107616 -0.079173 0.202446
0.107979 -0.078703 0.200813
0.107866 -0.077897 0.198314
-1.468175 -1.025296 2.671802
-1.445834 -1.018750 2.660082
-1.436931 -1.021641 2.672779
-1.426842 -1.023737 2.683220
-1.418176 -1.026902 2.696299
-1.404394 -1.026390 2.699546
-1.404406 -1.036045 2.729398
-1.405024 -1.046337 2.760833
-1.379855 -1.037439 2.741476
-1.387040 -1.052931 2.786429
-1.386318 -1.062666 2.816086
-1.373791 -1.063457 2.821920
-1.375035 -1.075031 2.856260
-1.403792 -1.108567 2.948953
-1.390774 -1.109461 2.954780
-1.389427 -1.119780 2.985601
-1.394312 -1.135391 3.030466
-1.413177 -1.162834 3.106899
-1.407216 -1.170216 3.129692
-1.401462 -1.177931 3.153285
-1.395673 -1.185785 3.177161
-1.382027 -1.187064 3.183317
-1.371628 -1.191193 3.197010
-1.361479 -1.195635 3.211442
-1.349366 -1.198435 3.221367
-1.339309 -1.203148 3.236338
-1.330440 -1.209050 3.254423
-1.315969 -1.209942 3.258928
-1.305345 -1.214434 3.273041
-1.294017 -1.218374 3.285579
-1.282082 -1.221832 3.296735
-1.268260 -1.223556 3.303128
-1.258461 -1.229254 3.320170
-1.256059 -1.242414 3.357303
-1.229132 -1.231343 3.328877
-1.225518 -1.243644 3.363553
-1.218822 -1.253101 3.390483
-1.204054 -1.254400 3.395276
-1.193298 -1.259972 3.411564
-0.302984 -0.591710 1.607214
-0.290112 -0.581106 1.578313
-0.286563 -0.589112 1.599951
-0.278618 -0.588269 1.597551
-0.272348 -0.591013 1.604886
-0.265913 -0.593548 1.611648
-0.258943 -0.595003 1.615470
-0.250761 -0.593679 1.611745
-0.243170 -0.593715 1.611711
-0.236918 -0.597128 1.620838
-0.228329 -0.594685 1.614067
-0.220690 -0.594632 1.613784
-0.213306 -0.595290 1.615426
-0.205856 -0.595806 1.616681
-0.198460 -0.596522 1.618480
-0.190837 -0.596592 1.618523
-0.183808 -0.598602 1.623830
-0.176644 -0.600325 1.628360
-0.169513 -0.602330 1.633652
-0.162199 -0.603844 1.637613
-0.154875 -0.605471 1.641881
-0.147965 -0.608971 1.651230
-0.140709 -0.611365 1.657581
-0.133080 -0.612325 1.660045
-0.125427 -0.613292 1.662528
-0.118205 -0.616637 1.671462
-0.110360 -0.616980 1.672258
-0.102890 -0.619635 1.679325
-0.095278 -0.621810 1.685095
-0.087570 -0.623704 1.690104
-0.080165 -0.628351 1.702576
-0.071871 -0.626296 1.696892
-0.064877 -0.636480 1.724372
-0.056939 -0.639005 1.731105
-0.049595 -0.650185 1.761286
-0.005489 -0.108427 0.293686
-0.004099 -0.108440 0.293704
-0.002766 -0.110780 0.300027
-0.001306 -0.107595 0.291389
0.000075 -0.108436 0.293653
0.001477 -0.109249 0.295844
0.002854 -0.108319 0.293314
0.004268 -0.108934 0.294970
0.005673 -0.109080 0.295356
0.007102 -0.109528 0.296560
0.008458 -0.108894 0.294834
0.009852 -0.108854 0.294720
0.011252 -0.108877 0.294775
0.012504 -0.107630 0.291395
0.013814 -0.107078 0.289894
0.015135 -0.106697 0.288859
0.016358 -0.105752 0.286297
0.017645 -0.105331 0.285158
0.019159 -0.106229 0.287585
0.020358 -0.105379 0.285282
0.021644 -0.105054 0.284402
0.022880 -0.104540 0.283009
0.024290 -0.104832 0.283801
0.025627 -0.104794 0.283698
0.023349 -0.090717 0.245590
0.024504 -0.090680 0.245491
0.025136 -0.088800 0.240402
0.025925 -0.087613 0.237188
0.027122 -0.087844 0.237816
0.028349 -0.088150 0.238646
0.029529 -0.088294 0.239038
0.030720 -0.088458 0.239483
0.031905 -0.088596 0.239856
0.033633 -0.090177 0.244137
0.041154 -0.106668 0.288783
0.042379 -0.106305 0.287801
0.042831 -0.104083 0.281786
0.045160 -0.106421 0.288114
0.040450 -0.092521 0.250481
0.041611 -0.092460 0.250313
0.042487 -0.091785 0.248485
0.043659 -0.091771 0.248443
0.044752 -0.091593 0.247957
0.046111 -0.091957 0.248936
0.047760 -0.092866 0.251389
0.049945 -0.094747 0.256474
0.055308 -0.102424 0.277244
0.056191 -0.101641 0.275115
0.056771 -0.100356 0.271623
0.058183 -0.100567 0.272180
0.059416 -0.100467 0.271894
0.060430 -0.100008 0.270632
0.061438 -0.099558 0.269395
0.062821 -0.099723 0.269818
0.063968 -0.099512 0.269225
0.064694 -0.098668 0.266913
0.065619 -0.098155 0.265497
0.066706 -0.097897 0.264768
0.067407 -0.097095 0.262565
0.067822 -0.095916 0.259341
0.068772 -0.095522 0.258237
0.070010 -0.095536 0.258230
0.070923 -0.095113 0.257043
0.071845 -0.094716 0.255922
0.072877 -0.094474 0.255217
0.073812 -0.094117 0.254197
0.074822 -0.093866 0.253461
0.075632 -0.093375 0.252073
0.076652 -0.093155 0.251413
0.077711 -0.092989 0.250893
0.078712 -0.092758 0.250197
0.079840 -0.092682 0.249915
0.080857 -0.092482 0.249292
0.081979 -0.092406 0.248999
0.082992 -0.092211 0.248380
0.083933 -0.091942 0.247558
0.085069 -0.091891 0.247317
0.086198 -0.091834 0.247056
0.087176 -0.091620 0.246368
0.088280 -0.091542 0.246040
0.089351 -0.091433 0.245620
0.090391 -0.091294 0.245117
0.091469 -0.091197 0.244719
0.092480 -0.091037 0.244143
0.093522 -0.090910 0.243653
0.094515 -0.090740 0.243039
0.095480 -0.090547 0.242358
0.096573 -0.090479 0.242003
0.097495 -0.090255 0.241223
0.098374 -0.089996 0.240343
0.099376 -0.089854 0.239769
0.100272 -0.089621 0.238941
0.101173 -0.089397 0.238131
0.102114 -0.089213 0.237420
0.102990 -0.088977 0.236561
0.103803 -0.088692 0.235565
0.104457 -0.088279 0.234219
0.105312 -0.088043 0.233334
0.106189 -0.087830 0.232501
0.106771 -0.087381 0.231032
0.107536 -0.087088 0.229968
0.108221 -0.086738 0.228743
0.108712 -0.086241 0.227121
0.108972 -0.085571 0.225036
0.108910 -0.084666 0.222323
0.108715 -0.083676 0.219383
0.108380 -0.082598 0.216208
0.107302 -0.080981 0.211616
0.107063 -0.080022 0.208741
0.106987 -0.079201 0.206222
0.107106 -0.078539 0.204106
0.107697 -0.078232 0.202903
0.107966 -0.077700 0.201102
0.108136 -0.077106 0.199131
-1.468656 -1.012430 2.676440
-1.447865 -1.007049 2.667449
-1.439214 -1.010093 2.680558
-1.433016 -1.014932 2.698273
-1.415945 -1.012090 2.695389
-1.416706 -1.022061 2.726475
-1.399962 -1.019474 2.723917
-1.392306 -1.023520 2.738917
-1.389299 -1.031095 2.763240
-1.376976 -1.031837 2.769125
-1.373716 -1.039452 2.793330
-1.389035 -1.061417 2.856049
-1.370563 -1.057742 2.849690
-1.365714 -1.064615 2.871614
-1.401900 -1.103941 2.981081
-1.388809 -1.104876 2.986857
-1.421394 -1.142545 3.091913
-1.407865 -1.143551 3.097725
-1.411216 -1.158436 3.141042
-1.411779 -1.171329 3.178900
-1.399582 -1.173800 3.188386
-1.389623 -1.178225 3.203073
-1.377616 -1.180993 3.213152
-1.361962 -1.180663 3.214694
-1.352435 -1.185698 3.230739
-1.337038 -1.185645 3.232822
-1.331442 -1.194383 3.258788
-1.318339 -1.196516 3.266646
-1.307133 -1.200442 3.279311
-1.293720 -1.202412 3.286545
-1.281399 -1.205459 3.296638
-1.266702 -1.206320 3.300664
-1.256497 -1.211533 3.316523
-1.242103 -1.212791 3.321472
-1.233943 -1.220246 3.343323
-1.214636 -1.216729 3.335038
-1.196533 -1.214343 3.329766
-1.207804 -1.242103 3.407106
-1.194622 -1.245127 3.416548
-0.316908 -0.596006 1.639965
-0.304831 -0.587631 1.616813
-0.296432 -0.586097 1.612478
-0.288037 -0.584493 1.607945
-0.281629 -0.586942 1.614555
-0.275092 -0.589254 1.620782
-0.267175 -0.588658 1.619005
-0.260149 -0.590047 1.622686
-0.252735 -0.590614 1.624101
-0.245103 -0.590695 1.624177
-0.237016 -0.589647 1.621144
-0.229706 -0.590528 1.623417
-0.221834 -0.589979 1.621754
-0.214087 -0.589733 1.620923
-0.206251 -0.589217 1.619350
-0.198985 -0.590352 1.622314
-0.191839 -0.591950 1.626548
-0.184631 -0.593485 1.630611
-0.177864 -0.596633 1.639103
-0.171107 -0.600103 1.648482
-0.163786 -0.601834 1.653081
-0.156391 -0.603453 1.657375
-0.149241 -0.606240 1.664877
-0.141416 -0.606442 1.665284
-0.134114 -0.609047 1.672290
-0.126205 -0.609051 1.672154
-0.118383 -0.609507 1.673266
-0.110924 -0.612029 1.680051
-0.103160 -0.613131 1.682940
-0.095219 -0.613285 1.683233
-0.087693 -0.616383 1.691607
-0.079988 -0.618719 1.697896
-0.072140 -0.620351 1.702254
-0.064579 -0.625176 1.715378
-0.056435 -0.624934 1.714605
-0.049140 -0.635606 1.743777
-0.040888 -0.635708 1.743953
-0.005486 -0.106881 0.293193
-0.004131 -0.107777 0.295634
-0.002740 -0.108143 0.296624
-0.001331 -0.107860 0.295834
0.000070 -0.107505 0.294849
0.001465 -0.107300 0.294274
0.002877 -0.107944 0.296030
0.004269 -0.107675 0.295282
0.005667 -0.107653 0.295213
0.007042 -0.107272 0.294160
0.008395 -0.106750 0.292721
0.009818 -0.107134 0.293766
0.011137 -0.106429 0.291828
0.012390 -0.105317 0.288773
0.013718 -0.104999 0.287900
0.014904 -0.103754 0.284481
0.016382 -0.104574 0.286728
0.017671 -0.104158 0.285587
0.019187 -0.105045 0.288017
0.020389 -0.104204 0.285711
0.021677 -0.103883 0.284829
0.024327 -0.103662 0.284228
0.022371 -0.090322 0.247650
0.023172 -0.088886 0.243716
0.024125 -0.088144 0.241685
0.025141 -0.087690 0.240441
0.026224 -0.087496 0.239911
0.027170 -0.086883 0.238233
0.028461 -0.087376 0.239588
0.029683 -0.087629 0.240284
0.030936 -0.087950 0.241167
0.032096 -0.087992 0.241285
0.033684 -0.089164 0.244501
0.034966 -0.089475 0.245356
0.036329 -0.089967 0.246709
0.037381 -0.089682 0.245929
0.038645 -0.089908 0.246548
0.039946 -0.090205 0.247364
0.041217 -0.090417 0.247946
0.042373 -0.090373 0.247824
0.043655 -0.090593 0.248427
0.044810 -0.090544 0.248290
0.046007 -0.090579 0.248383
0.047854 -0.091862 0.251896
0.049567 -0.092831 0.254548
0.054423 -0.099500 0.272826
0.055939 -0.099893 0.273897
0.057046 -0.099555 0.272960
0.057981 -0.098940 0.271261
0.059047 -0.098569 0.270231
0.060279 -0.098484 0.269984
0.061218 -0.097935 0.268461
0.062356 -0.097720 0.267852
0.062908 -0.096613 0.264798
0.064106 -0.096524 0.264529
0.065725 -0.097057 0.265966
0.066346 -0.096126 0.263387
0.067040 -0.095332 0.261180
0.067747 -0.094586 0.259104
0.068841 -0.094397 0.258549
0.069946 -0.094229 0.258052
0.070876 -0.093836 0.256932
0.071860 -0.093525 0.256035
0.072982 -0.093402 0.255651
0.073990 -0.093139 0.254880
0.075029 -0.092923 0.254235
0.075724 -0.092294 0.252457
0.076854 -0.092207 0.252155
0.077971 -0.092108 0.251818
0.078890 -0.091780 0.250852
0.079919 -0.091588 0.250253
0.080950 -0.091405 0.249672
0.082006 -0.091255 0.249179
0.083078 -0.091127 0.248740
0.084174 -0.091027 0.248374
0.085207 -0.090863 0.247829
0.086327 -0.090795 0.247541
0.087467 -0.090750 0.247308
0.088508 -0.090605 0.246797
0.089459 -0.090372 0.246043
0.090606 -0.090341 0.245831
0.091685 -0.090244 0.245435
0.092623 -0.090012 0.244663
0.093592 -0.089815 0.243983
0.094628 -0.089687 0.243483
0.095667 -0.089565 0.242990
0.096662 -0.089405 0.242389
0.097633 -0.089227 0.241731
0.098616 -0.089063 0.241106
0.099573 -0.088881 0.240421
0.100529 -0.088701 0.239736
0.101475 -0.088517 0.239032
0.102245 -0.088185 0.237919
0.103064 -0.087903 0.236932
0.103783 -0.087542 0.235726
0.104478 -0.087168 0.234478
0.105389 -0.086981 0.233722
0.106214 -0.086727 0.232779
0.106906 -0.086372 0.231552
0.107636 -0.086055 0.230419
0.108339 -0.085722 0.229234
0.108912 -0.085294 0.227785
0.109169 -0.084630 0.225698
0.108926 -0.083595 0.222614
0.108977 -0.082805 0.220175
0.108582 -0.081694 0.216879
0.108012 -0.080475 0.213289
0.107282 -0.079160 0.209443
0.106919 -0.078139 0.206372
0.106748 -0.077276 0.203711
0.107406 -0.077023 0.202650
0.107618 -0.076459 0.200755
0.107811 -0.075891 0.198842
-1.467141 -0.998199 2.677312
-1.453228 -0.997601 2.680851
-1.443852 -1.000136 2.692621
-1.435645 -1.003537 2.706555
-1.430331 -1.009043 2.726021
-1.415575 -1.007931 2.727446
-1.405311 -1.010027 2.737381
-1.407001 -1.020837 2.770819
-1.397157 -1.023408 2.781781
-1.384796 -1.024168 2.787675
-1.376885 -1.028267 2.802522
-1.379719 -1.040553 2.839588
-1.371724 -1.044837 2.854727
-1.358915 -1.045504 2.859860
-1.415152 -1.099848 3.011849
-1.401967 -1.100802 3.017661
-1.398861 -1.109773 3.045345
-1.423054 -1.140818 3.133578
-1.417639 -1.148536 3.157707
-1.410696 -1.155170 3.178765
-1.405557 -1.163442 3.204240
-1.391727 -1.164623 3.210090
-1.381212 -1.168637 3.223640
-1.363920 -1.166944 3.221339
-1.349105 -1.167357 3.224738
-1.338864 -1.171783 3.239126
-1.327110 -1.174974 3.250008
-1.316039 -1.178853 3.262705
-1.300888 -1.179127 3.265335
-1.288738 -1.182162 3.275520
-1.276591 -1.185274 3.285836
-1.260446 -1.184707 3.285865
-1.246489 -1.186209 3.291550
-1.228101 -1.183481 3.285408
-1.213451 -1.184331 3.289118
-1.196128 -1.182561 3.285474
-1.205260 -1.207245 3.355271
-1.184503 -1.202251 3.342530
-1.174989 -1.208689 3.361502
-0.317409 -0.589143 1.642347
-0.306155 -0.582464 1.623603
-0.300939 -0.587225 1.636744
-0.296644 -0.594083 1.655719
-0.286197 -0.588659 1.640460
-0.280275 -0.592499 1.651015
-0.273396 -0.594478 1.656375
-0.265806 -0.594983 1.657625
-0.256314 -0.591134 1.646744
-0.248975 -0.592165 1.649453
-0.239818 -0.588800 1.639917
-0.232190 -0.589093 1.640568
-0.222729 -0.584594 1.627873
-0.216074 -0.587401 1.635524
-0.209792 -0.591471 1.646687
-0.200669 -0.587537 1.635567
-0.194559 -0.592463 1.649114
-0.186840 -0.592698 1.649599
-0.180344 -0.597002 1.661412
-0.173735 -0.601308 1.673228
-0.165579 -0.600419 1.670589
-0.158337 -0.602921 1.677386
-0.151399 -0.606908 1.688316
-0.143006 -0.605180 1.683349
-0.135199 -0.605878 1.685136
-0.127729 -0.608269 1.691635
-0.119393 -0.606587 1.686808
-0.111350 -0.606252 1.685731
-0.103735 -0.608384 1.691518
-0.095657 -0.607932 1.690125
-0.087929 -0.609827 1.695259
-0.080290 -0.612779 1.703338
-0.072298 -0.613406 1.704956
-0.064638 -0.617364 1.715838
-0.056705 -0.619476 1.721595
-0.048794 -0.622582 1.730117
-0.040604 -0.622683 1.730293
-0.005491 -0.105506 0.293161
-0.004153 -0.106819 0.296794
-0.002749 -0.106923 0.297066
-0.001336 -0.106499 0.295875
0.000067 -0.107003 0.297262
0.001485 -0.107707 0.299205
0.002916 -0.108185 0.300524
0.004303 -0.107245 0.297903
0.005692 -0.106798 0.296653
0.007174 -0.107932 0.299794
0.008490 -0.106614 0.296126
0.009829 -0.105901 0.294140
0.011241 -0.106065 0.294589
0.012366 -0.103784 0.288251
0.013755 -0.103951 0.288711
0.015122 -0.103930 0.288650
0.013176 -0.083037 0.230621
0.014266 -0.083016 0.230563
0.015265 -0.082504 0.229140
0.016684 -0.084181 0.233798
0.018855 -0.089201 0.247742
0.020135 -0.089667 0.249038
0.021309 -0.089635 0.248951
0.022003 -0.087695 0.243565
0.022965 -0.086961 0.241531
0.024012 -0.086605 0.240544
0.025120 -0.086489 0.240227
0.026315 -0.086672 0.240737
0.027450 -0.086649 0.240678
0.028630 -0.086763 0.240998
0.029865 -0.087028 0.241740
0.031111 -0.087307 0.242520
0.032510 -0.087979 0.244390
0.033812 -0.088351 0.245426
0.035103 -0.088668 0.246312
0.036326 -0.088801 0.246685
0.037552 -0.088932 0.247053
0.038772 -0.089040 0.247357
0.039983 -0.089124 0.247590
0.041214 -0.089245 0.247928
0.042492 -0.089457 0.248519
0.043702 -0.089519 0.248693
0.044925 -0.089605 0.248931
0.046210 -0.089804 0.249483
0.047811 -0.090595 0.251679
0.049445 -0.091405 0.253928
0.051134 -0.092279 0.256350
0.053239 -0.093843 0.260689
0.055053 -0.094835 0.263439
0.057353 -0.096602 0.268339
0.059475 -0.097999 0.272210
0.060305 -0.097252 0.270123
0.060673 -0.095808 0.266098
0.060084 -0.092942 0.258122
0.061208 -0.092786 0.257672
0.062816 -0.093358 0.259239
0.064196 -0.093573 0.259816
0.065837 -0.094155 0.261405
0.066966 -0.093996 0.260937
0.067922 -0.093603 0.259818
0.069115 -0.093546 0.259628
0.070254 -0.093419 0.259239
0.071088 -0.092898 0.257756
0.072010 -0.092507 0.256628
0.073081 -0.092318 0.256060
0.074024 -0.091975 0.255060
0.074868 -0.091523 0.253754
0.075876 -0.091282 0.253034
0.076885 -0.091050 0.252330
0.077957 -0.090899 0.251850
0.078954 -0.090665 0.251136
0.079973 -0.090464 0.250507
0.081030 -0.090311 0.250008
0.082127 -0.090206 0.249639
0.083235 -0.090116 0.249305
0.084304 -0.089986 0.248858
0.085340 -0.089826 0.248322
0.086417 -0.089713 0.247908
0.087508 -0.089617 0.247538
0.088548 -0.089471 0.247026
0.089641 -0.089383 0.246667
0.090676 -0.089240 0.246149
0.091709 -0.089098 0.245629
0.092712 -0.088932 0.245035
0.093723 -0.088777 0.244467
0.094686 -0.088580 0.243778
0.095656 -0.088394 0.243112
0.096625 -0.088214 0.242452
0.097647 -0.088084 0.241926
0.098604 -0.087899 0.241242
0.099515 -0.087678 0.240450
0.100510 -0.087536 0.239867
0.101477 -0.087372 0.239218
0.102257 -0.087053 0.238134
0.103173 -0.086855 0.237374
0.103939 -0.086537 0.236277
0.104623 -0.086158 0.235006
0.105346 -0.085819 0.233836
0.106207 -0.085599 0.232980
0.106969 -0.085303 0.231909
0.107566 -0.084885 0.230495
0.108332 -0.084606 0.229453
0.109027 -0.084278 0.228266
0.109428 -0.083732 0.226478
0.109298 -0.082794 0.223625
0.108851 -0.081637 0.220174
0.108891 -0.080865 0.217755
0.108392 -0.079711 0.214303
0.107474 -0.078274 0.210086
0.106739 -0.076996 0.206295
0.106709 -0.076247 0.203913
0.107182 -0.075867 0.202512
0.107515 -0.075397 0.200856
0.107363 -0.074597 0.198314
-1.471389 -0.987866 2.688584
-1.457213 -0.987124 2.691613
-1.449967 -0.991106 2.707345
-1.433504 -0.988806 2.705732
-1.420562 -0.988916 2.710518
-1.416809 -0.995485 2.732862
-1.399890 -0.992842 2.729761
-1.391391 -0.996178 2.742936
-1.381297 -0.998427 2.752980
-1.365114 -0.996277 2.750738
-1.352813 -0.996947 2.756130
-1.354044 -1.007702 2.789295
-1.350699 -1.015234 2.813457
-1.343850 -1.020258 2.830575
-1.352396 -1.037193 2.880668
-1.402951 -1.087026 3.022195
-1.422477 -1.113604 3.099150
-1.408995 -1.114629 3.104935
-1.413343 -1.129932 3.150408
-1.413182 -1.141921 3.186582
-1.404756 -1.147420 3.204564
-1.393270 -1.150514 3.215729
-1.384488 -1.155935 3.233300
-1.365949 -1.153242 3.228069
-1.349013 -1.151858 3.226382
-1.338072 -1.155620 3.239012
-1.326109 -1.158579 3.249297
-1.313491 -1.161028 3.258065
-1.297071 -1.160136 3.257362
-1.287751 -1.165652 3.274561
-1.274243 -1.167465 3.281281
-1.266777 -1.174928 3.303804
-1.249880 -1.173721 3.301872
-1.234924 -1.174332 3.304968
-1.233039 -1.187548 3.343474
-1.218570 -1.188830 3.348319
-1.210822 -1.196792 3.371909
-1.205753 -1.207648 3.403599
-1.194283 -1.212302 3.417749
-0.304695 -0.586677 1.656898
-0.297124 -0.587158 1.658102
-0.289337 -0.587229 1.658143
-0.281736 -0.587692 1.659287
-0.273848 -0.587566 1.658765
-0.265872 -0.587240 1.657675
-0.257552 -0.586111 1.654316
-0.247991 -0.581999 1.642535
-0.238129 -0.576896 1.627962
-0.232588 -0.582269 1.642946
-0.223654 -0.579228 1.634188
-0.214813 -0.576217 1.625517
-0.207578 -0.577454 1.628830
-0.201033 -0.580780 1.638034
-0.193407 -0.581125 1.638830
-0.187347 -0.586403 1.653537
-0.181386 -0.592464 1.670451
-0.174278 -0.595161 1.677878
-0.166430 -0.595467 1.678567
-0.158726 -0.596349 1.680881
-0.151289 -0.598380 1.686437
-0.143782 -0.600346 1.691811
-0.136052 -0.601559 1.695063
-0.128322 -0.602927 1.698759
-0.120382 -0.603427 1.700012
-0.112627 -0.604997 1.704281
-0.104793 -0.606350 1.707946
-0.096877 -0.607418 1.710810
-0.089174 -0.610137 1.718328
-0.081215 -0.611483 1.721984
-0.073360 -0.614003 1.728951
-0.065672 -0.618727 1.742128
-0.057223 -0.616626 1.736096
-0.049592 -0.624101 1.757026
-0.041273 -0.624203 1.757205
-0.005544 -0.105030 0.295654
-0.004114 -0.104301 0.293587
-0.002746 -0.105239 0.296212
-0.001347 -0.105604 0.297226
0.000062 -0.105182 0.296026
0.001472 -0.105656 0.297346
0.002899 -0.106290 0.299120
0.004261 -0.104885 0.295157
0.005648 -0.104668 0.294536
0.007026 -0.104375 0.293705
0.008328 -0.103249 0.290532
0.009758 -0.103806 0.292092
0.010943 -0.101934 0.286822
0.012383 -0.102595 0.288676
0.013775 -0.102759 0.289137
0.011980 -0.081278 0.228692
0.013062 -0.081259 0.228640
0.014134 -0.081186 0.228435
0.015277 -0.081499 0.229316
0.016393 -0.081639 0.229710
0.018815 -0.087857 0.247208
0.019759 -0.086850 0.244378
0.021178 -0.087926 0.247409
0.022182 -0.087259 0.245535
0.022865 -0.085455 0.240462
0.023982 -0.085369 0.240226
0.025168 -0.085528 0.240677
0.026271 -0.085397 0.240315
0.027455 -0.085534 0.240706
0.028645 -0.085675 0.241107
0.029908 -0.086018 0.242080
0.031123 -0.086200 0.242596
0.032454 -0.086680 0.243952
0.033803 -0.087172 0.245345
0.035089 -0.087476 0.246205
0.036376 -0.087761 0.247014
0.037618 -0.087923 0.247475
0.038841 -0.088033 0.247789
0.040073 -0.088156 0.248139
0.041315 -0.088292 0.248527
0.042593 -0.088496 0.249105
0.043829 -0.088604 0.249413
0.045074 -0.088724 0.249751
0.046464 -0.089116 0.250856
0.047883 -0.089542 0.252057
0.049247 -0.089848 0.252917
0.050554 -0.090037 0.253447
0.051930 -0.090336 0.254288
0.053509 -0.090968 0.256062
0.055218 -0.091789 0.258367
0.056547 -0.091954 0.258823
0.057580 -0.091642 0.257936
0.058895 -0.091782 0.258321
0.060035 -0.091649 0.257935
0.061211 -0.091576 0.257713
0.062490 -0.091656 0.257923
0.063864 -0.091869 0.258503
0.065426 -0.092340 0.259808
0.066797 -0.092528 0.260313
0.067823 -0.092241 0.259478
0.069034 -0.092211 0.259365
0.070141 -0.092046 0.258868
0.071102 -0.091698 0.257854
0.072153 -0.091475 0.257190
0.073171 -0.091219 0.256431
0.074102 -0.090864 0.255388
0.075162 -0.090678 0.254816
0.076094 -0.090344 0.253828
0.077049 -0.090047 0.252937
0.078084 -0.089852 0.252331
0.079089 -0.089628 0.251641
0.080058 -0.089372 0.250855
0.081068 -0.089168 0.250210
0.082225 -0.089129 0.250025
0.083248 -0.088948 0.249437
0.084306 -0.088808 0.248960
0.085413 -0.088724 0.248634
0.086455 -0.088575 0.248121
0.087641 -0.088576 0.248023
0.088788 -0.088537 0.247808
0.089815 -0.088382 0.247261
0.090930 -0.088315 0.246958
0.091966 -0.088176 0.246444
0.092973 -0.088011 0.245853
0.093929 -0.087804 0.245137
0.094923 -0.087636 0.244525
0.095936 -0.087490 0.243969
0.096849 -0.087257 0.243161
0.097845 -0.087103 0.242568
0.098878 -0.086986 0.242070
0.099713 -0.086699 0.241092
0.100629 -0.086488 0.240318
0.101507 -0.086250 0.239461
0.102373 -0.086007 0.238581
0.103177 -0.085719 0.237568
0.103999 -0.085450 0.236603
0.104862 -0.085222 0.235739
0.105484 -0.084803 0.234342
0.106242 -0.084503 0.233262
0.107043 -0.084242 0.232282
0.107593 -0.083791 0.230770
0.108192 -0.083387 0.229380
0.108805 -0.083003 0.228031
0.109047 -0.082345 0.225926
0.108791 -0.081329 0.222828
0.109011 -0.080684 0.220743
0.109072 -0.079936 0.218368
0.109019 -0.079119 0.215797
0.107308 -0.077127 0.210019
0.106564 -0.075861 0.206219
0.106815 -0.075321 0.204384
0.107385 -0.075013 0.203170
0.107535 -0.074420 0.201173
0.107984 -0.074043 0.199749
-1.466924 -0.971688 2.683817
-1.460997 -0.976442 2.701908
-1.448215 -0.976661 2.707278
-1.436397 -0.977542 2.714301
-1.420022 -0.975311 2.712495
-1.405504 -0.974327 2.713969
-1.405252 -0.983308 2.743065
-1.382868 -0.976827 2.728875
-1.369962 -0.976983 2.733045
-1.360093 -0.979330 2.743201
-1.344335 -0.977441 2.741349
-1.338981 -0.983157 2.760693
-1.339836 -0.993592 2.793205
-1.336522 -1.001116 2.817455
-1.345852 -1.018361 2.869008
-1.363647 -1.042433 2.939784
-1.425964 -1.101394 3.109051
-1.412476 -1.102429 3.114836
-1.410900 -1.112883 3.147135
-1.411408 -1.125224 3.184703
-1.406458 -1.133435 3.210508
-1.395992 -1.137334 3.224008
-1.385653 -1.141424 3.237953
-1.370558 -1.141646 3.240821
-1.353473 -1.140198 3.238838
-1.339849 -1.141667 3.245037
-1.324437 -1.141630 3.246856
-1.311010 -1.143324 3.253503
-1.294939 -1.142727 3.253535
-1.276012 -1.139565 3.246170
-1.258790 -1.137868 3.242882
-1.244069 -1.138420 3.245913
-1.251149 -1.159185 3.306523
-1.212598 -1.137665 3.246431
-1.223166 -1.162268 3.317882
-1.219868 -1.174164 3.353019
-1.212132 -1.182045 3.376637
-1.207076 -1.192787 3.408366
-1.190462 -1.192243 3.407787
-0.138531 -0.604237 1.725218
-0.130420 -0.604487 1.725762
-0.120524 -0.595952 1.701232
-0.112733 -0.597349 1.705064
-0.104997 -0.599274 1.710404
-0.096645 -0.597718 1.705815
-0.089119 -0.601451 1.716325
-0.081451 -0.604888 1.725992
-0.073215 -0.604403 1.724475
-0.066005 -0.613329 1.749813
-0.058302 -0.619590 1.767554
-0.050101 -0.621773 1.773663
-0.041701 -0.621876 1.773845
-0.005556 -0.103773 0.295986
-0.004137 -0.103381 0.294851
-0.002754 -0.103969 0.296514
-0.001348 -0.103912 0.296336
0.000058 -0.104309 0.297455
0.001469 -0.104354 0.297572
0.002867 -0.103861 0.296155
0.004262 -0.103628 0.295482
0.005627 -0.102960 0.293568
0.007017 -0.102922 0.293453
0.008294 -0.101511 0.289423
0.009712 -0.101982 0.290763
0.011090 -0.101968 0.290718
0.009973 -0.081555 0.232518
0.011075 -0.081540 0.232473
0.011975 -0.080183 0.228604
0.013098 -0.080417 0.229270
0.014228 -0.080654 0.229948
0.015331 -0.080715 0.230122
0.016441 -0.080803 0.230374
0.017613 -0.081162 0.231402
0.019997 -0.086741 0.247311
0.020597 -0.084388 0.240608
0.021573 -0.083745 0.238779
0.022796 -0.084076 0.239728
0.023932 -0.084067 0.239707
0.025075 -0.084084 0.239762
0.026292 -0.084336 0.240488
0.027454 -0.084400 0.240677
0.028676 -0.084634 0.241349
0.029936 -0.084958 0.242281
0.031393 -0.085798 0.244685
0.032591 -0.085893 0.244963
0.033802 -0.086015 0.245319
0.035159 -0.086489 0.246679
0.036444 -0.086759 0.247457
0.037715 -0.086982 0.248100
0.038949 -0.087107 0.248462
0.040198 -0.087258 0.248898
0.041482 -0.087474 0.249521
0.042723 -0.087590 0.249860
0.043963 -0.087697 0.250168
0.045209 -0.087811 0.250497
0.046467 -0.087940 0.250869
0.047914 -0.088413 0.252222
0.049304 -0.088759 0.253211
0.050628 -0.088973 0.253822
0.051890 -0.089070 0.254100
0.053246 -0.089321 0.254812
0.054554 -0.089480 0.255265
0.055911 -0.089714 0.255926
0.057296 -0.089980 0.256679
0.058555 -0.090040 0.256845
0.059865 -0.090176 0.257222
0.061191 -0.090330 0.257649
0.062475 -0.090417 0.257883
0.063945 -0.090763 0.258856
0.065483 -0.091192 0.260062
0.066912 -0.091457 0.260796
0.067892 -0.091108 0.259778
0.068965 -0.090896 0.259146
0.070072 -0.090734 0.258656
0.071201 -0.090606 0.258260
0.072038 -0.090115 0.256827
0.073046 -0.089853 0.256043
0.074129 -0.089690 0.255538
0.075104 -0.089403 0.254676
0.076134 -0.089190 0.254021
0.077113 -0.088924 0.253212
0.078206 -0.088796 0.252792
0.079246 -0.088612 0.252211
0.080248 -0.088393 0.251525
0.081346 -0.088284 0.251147
0.082349 -0.088076 0.250484
0.083429 -0.087956 0.250065
0.084490 -0.087819 0.249594
0.085572 -0.087707 0.249191
0.086744 -0.087689 0.249049
0.087819 -0.087574 0.248627
0.088976 -0.087544 0.248439
0.090038 -0.087423 0.247987
0.091064 -0.087270 0.247438
0.092132 -0.087159 0.247006
0.093197 -0.087050 0.246571
0.094153 -0.086843 0.245851
0.095043 -0.086580 0.244968
0.096018 -0.086400 0.244314
0.096969 -0.086203 0.243605
0.098029 -0.086106 0.243171
0.098909 -0.085856 0.242298
0.099820 -0.085638 0.241507
0.100750 -0.085440 0.240769
0.101580 -0.085165 0.239801
0.102348 -0.084842 0.238696
0.103192 -0.084591 0.237780
0.103904 -0.084237 0.236569
0.104638 -0.083908 0.235422
0.105367 -0.083582 0.234276
0.106177 -0.083327 0.233318
0.106905 -0.083014 0.232188
0.107536 -0.082632 0.230857
0.108089 -0.082200 0.229377
0.108717 -0.081832 0.228068
0.109234 -0.081389 0.226539
0.109064 -0.080448 0.223618
0.109060 -0.079646 0.221079
0.109137 -0.078920 0.218740
0.108555 -0.077735 0.215126
0.108003 -0.076594 0.211629
0.106609 -0.074883 0.206557
0.106606 -0.074173 0.204241
0.107302 -0.073958 0.203279
0.107486 -0.073397 0.201354
0.107577 -0.072783 0.199274
-1.472313 -0.962030 2.696966
-1.464580 -0.965562 2.711735
-1.456636 -0.969018 2.726134
-1.437257 -0.964862 2.718930
-1.424547 -0.965149 2.724050
-1.413290 -0.966437 2.731827
-1.395336 -0.963128 2.726436
-1.376795 -0.959348 2.719524
-1.365122 -0.960329 2.725942
-1.350959 -0.959560 2.727247
-1.342019 -0.962524 2.739024
-1.339868 -0.970466 2.764863
-1.331712 -0.974174 2.778542
-1.329461 -0.982321 2.804785
-1.346254 -1.004849 2.872056
-1.383610 -1.043349 2.985021
-1.401751 -1.068008 3.058437
-1.409106 -1.084882 3.109539
-1.412918 -1.099359 3.153726
-1.414203 -1.112160 3.193048
-1.405629 -1.117403 3.210592
-1.397468 -1.123094 3.229329
-1.387737 -1.127636 3.244673
-1.373598 -1.128659 3.249791
-1.358222 -1.128680 3.251918
-1.343007 -1.128836 3.254332
-1.328526 -1.129621 3.258461
-1.317952 -1.133787 3.272252
-1.306716 -1.137477 3.284589
-1.289422 -1.135920 3.281683
-1.273511 -1.135559 3.282144
-1.264831 -1.141717 3.301368
-1.250618 -1.142974 3.306344
-1.236277 -1.144145 3.310993
-1.224450 -1.147702 3.322475
-1.212795 -1.151518 3.334635
-1.210584 -1.164518 3.373335
-1.197618 -1.167384 3.382618
-1.191787 -1.177375 3.412489
-0.005583 -0.102791 0.297117
-0.004159 -0.102428 0.296052
-0.002727 -0.101371 0.292982
-0.001356 -0.102827 0.297177
0.000053 -0.102412 0.295963
0.001457 -0.102397 0.295907
0.002863 -0.102466 0.296097
0.004243 -0.101868 0.294360
0.005646 -0.101989 0.294702
0.006896 -0.099839 0.288484
0.008304 -0.100311 0.289841
0.009725 -0.100777 0.291182
0.008857 -0.080360 0.232187
0.009957 -0.080347 0.232147
0.010868 -0.078957 0.228132
0.011993 -0.079235 0.228934
0.013124 -0.079502 0.229708
0.014296 -0.079963 0.231039
0.015501 -0.080521 0.232654
0.016667 -0.080820 0.233520
0.017887 -0.081326 0.234988
0.019105 -0.081763 0.236254
0.020241 -0.081822 0.236429
0.021442 -0.082123 0.237304
0.022674 -0.082506 0.238418
0.023882 -0.082770 0.239189
0.025071 -0.082945 0.239700
0.026287 -0.083191 0.240421
0.027516 -0.083457 0.241195
0.028724 -0.083639 0.241731
0.029942 -0.083835 0.242307
0.031249 -0.084257 0.243536
0.032691 -0.085002 0.245696
0.033919 -0.085155 0.246149
0.035177 -0.085372 0.246784
0.036475 -0.085667 0.247647
0.037763 -0.085923 0.248397
0.039004 -0.086058 0.248795
0.040211 -0.086114 0.248965
0.041479 -0.086293 0.249490
0.042792 -0.086551 0.250245
0.043993 -0.086577 0.250327
0.045189 -0.086590 0.250373
0.046519 -0.086854 0.251140
0.048029 -0.087431 0.252815
0.049497 -0.087907 0.254196
0.050860 -0.088178 0.254981
0.052159 -0.088326 0.255414
0.053427 -0.088417 0.255678
0.054725 -0.088554 0.256072
0.056048 -0.088722 0.256556
0.057353 -0.088856 0.256940
0.058647 -0.088969 0.257261
0.060022 -0.089196 0.257911
0.061321 -0.089303 0.258213
0.062615 -0.089399 0.258480
0.064057 -0.089698 0.259333
0.065781 -0.090373 0.261269
0.067214 -0.090632 0.261998
0.068189 -0.090275 0.260947
0.069359 -0.090183 0.260659
0.070480 -0.090033 0.260199
0.071375 -0.089602 0.258927
0.072454 -0.089415 0.258356
0.073301 -0.088952 0.256983
0.074209 -0.088576 0.255860
0.075157 -0.088260 0.254907
0.076208 -0.088074 0.254324
0.077236 -0.087865 0.253675
0.078297 -0.087702 0.253151
0.079411 -0.087600 0.252802
0.080350 -0.087312 0.251913
0.081451 -0.087206 0.251543
0.082554 -0.087105 0.251184
0.083447 -0.086788 0.250197
0.084661 -0.086810 0.250182
0.085765 -0.086719 0.249839
0.086784 -0.086546 0.249254
0.087994 -0.086566 0.249219
0.089062 -0.086447 0.248779
0.090133 -0.086335 0.248352
0.091239 -0.086258 0.248022
0.092224 -0.086070 0.247367
0.093280 -0.085953 0.246907
0.094188 -0.085703 0.246062
0.095148 -0.085507 0.245365
0.096103 -0.085310 0.244661
0.096915 -0.084994 0.243605
0.097881 -0.084818 0.242947
0.098920 -0.084708 0.242470
0.099706 -0.084387 0.241382
0.100503 -0.084082 0.240334
0.101351 -0.083827 0.239420
0.102192 -0.083571 0.238497
0.102857 -0.083179 0.237177
0.103670 -0.082913 0.236210
0.104549 -0.082706 0.235402
0.105149 -0.082285 0.233976
0.105943 -0.082023 0.232995
0.106694 -0.081732 0.231925
0.107231 -0.081287 0.230404
0.107779 -0.080858 0.228926
0.108285 -0.080407 0.227373
0.108731 -0.079921 0.225714
0.109056 -0.079357 0.223824
0.108893 -0.078452 0.220969
0.108743 -0.077574 0.218183
0.108168 -0.076413 0.214594
0.107895 -0.075486 0.211658
0.107194 -0.074279 0.207937
0.107124 -0.073529 0.205484
0.107684 -0.073220 0.204258
0.107834 -0.072641 0.202268
0.108079 -0.072137 0.200474
-1.479177 -0.953229 2.712734
-1.467468 -0.954166 2.720180
-1.456610 -0.955680 2.729093
-1.441776 -0.954591 2.730390
-1.426461 -0.953161 2.730525
-1.414248 -0.953798 2.736408
-1.395644 -0.950098 2.729670
-1.379148 -0.947778 2.726716
-1.364307 -0.946562 2.726773
-1.349020 -0.945012 2.725710
-1.346894 -0.952742 2.751294
-1.340797 -0.957789 2.769035
-1.340473 -0.967103 2.799023
-1.332804 -0.971254 2.813979
-1.346133 -0.990947 2.873908
-1.354307 -1.007213 2.923873
-1.394503 -1.047880 3.044702
-1.403757 -1.065907 3.099779
-1.415258 -1.086042 3.160958
-1.409753 -1.093420 3.184950
-1.408474 -1.104272 3.218987
-1.398431 -1.108417 3.233388
-1.388552 -1.112787 3.248349
-1.379040 -1.117553 3.264378
-1.364229 -1.118085 3.267943
-1.347892 -1.117365 3.267745
-1.335887 -1.120262 3.278030
-1.324559 -1.123804 3.290114
-1.309004 -1.123802 3.291734
-1.296514 -1.126463 3.301068
-1.282077 -1.127478 3.305495
-1.267924 -1.128772 3.310657
-1.247593 -1.124530 3.299498
-1.244119 -1.135569 3.333100
-1.237167 -1.143676 3.358038
-1.234487 -1.155995 3.395286
-1.219857 -1.157300 3.400126
-1.205192 -1.158610 3.404906
-0.353436 -0.578912 1.703488
-0.346691 -0.581067 1.709656
-0.335431 -0.575578 1.693326
-0.323006 -0.567775 1.670188
-0.320047 -0.576638 1.696069
-0.313100 -0.578584 1.701597
-0.005568 -0.101035 0.296011
-0.004187 -0.101587 0.297612
-0.002722 -0.099645 0.291909
-0.001355 -0.100996 0.295851
0.000049 -0.101092 0.296118
0.001446 -0.100502 0.294378
0.002865 -0.101302 0.296713
0.004229 -0.100238 0.293586
0.005612 -0.100064 0.293070
0.007003 -0.100057 0.293042
0.006716 -0.080053 0.234452
0.007799 -0.079748 0.233555
0.008812 -0.078890 0.231039
0.009856 -0.078464 0.229791
0.010900 -0.078133 0.228820
0.011914 -0.077657 0.227429
0.012992 -0.077643 0.227389
0.014318 -0.079004 0.231377
0.015661 -0.080255 0.235043
0.016762 -0.080182 0.234833
0.017941 -0.080468 0.235675
0.019109 -0.080674 0.236283
0.020263 -0.080800 0.236659
0.021429 -0.080962 0.237142
0.022645 -0.081283 0.238089
0.023892 -0.081680 0.239259
0.025097 -0.081904 0.239923
0.026298 -0.082096 0.240495
0.027518 -0.082331 0.241192
0.028754 -0.082588 0.241956
0.029999 -0.082855 0.242749
0.031305 -0.083262 0.243952
0.032721 -0.083922 0.245896
0.033970 -0.084122 0.246491
0.035236 -0.084350 0.247172
0.036539 -0.084649 0.248058
0.037795 -0.084824 0.248581
0.039072 -0.085035 0.249210
0.040313 -0.085156 0.249578
0.041616 -0.085397 0.250292
0.042873 -0.085533 0.250702
0.044102 -0.085608 0.250930
0.045338 -0.085692 0.251186
0.046635 -0.085883 0.251755
0.048088 -0.086345 0.253117
0.049549 -0.086800 0.254456
0.050916 -0.087071 0.255256
0.052246 -0.087266 0.255833
0.053578 -0.087458 0.256399
0.054870 -0.087576 0.256746
0.056230 -0.087796 0.257394
0.057551 -0.087947 0.257834
0.058954 -0.088213 0.258612
0.060280 -0.088356 0.259027
0.061511 -0.088356 0.259022
0.062812 -0.088456 0.259308
0.064135 -0.088582 0.259667
0.065784 -0.089143 0.261301
0.067196 -0.089371 0.261953
0.068266 -0.089143 0.261267
0.069407 -0.089013 0.260868
0.070577 -0.088925 0.260588
0.071723 -0.088810 0.260226
0.072669 -0.088456 0.259161
0.073663 -0.088171 0.258294
0.074547 -0.087765 0.257071
0.075561 -0.087523 0.256325
0.076622 -0.087342 0.255756
0.077620 -0.087096 0.254991
0.078660 -0.086904 0.254380
0.079719 -0.086738 0.253844
0.080703 -0.086498 0.253084
0.081646 -0.086220 0.252212
0.082672 -0.086038 0.251614
0.083762 -0.085926 0.251218
0.084738 -0.085702 0.250491
0.085773 -0.085542 0.249946
0.086800 -0.085379 0.249387
0.087867 -0.085260 0.248950
0.089092 -0.085295 0.248960
0.090224 -0.085241 0.248703
0.091302 -0.085138 0.248298
0.092366 -0.085024 0.247855
0.093382 -0.084871 0.247289
0.094418 -0.084738 0.246780
0.095283 -0.084457 0.245834
0.096152 -0.084187 0.244910
0.097179 -0.084060 0.244398
0.098039 -0.083793 0.243473
0.098976 -0.083597 0.242745
0.099743 -0.083263 0.241614
0.100563 -0.082982 0.240625
0.101433 -0.082747 0.239765
0.102116 -0.082367 0.238476
0.102914 -0.082087 0.237470
0.103716 -0.081816 0.236484
0.104386 -0.081448 0.235208
0.105137 -0.081151 0.234127
0.105900 -0.080869 0.233084
0.106500 -0.080469 0.231693
0.107104 -0.080080 0.230325
0.107472 -0.079525 0.228471
0.107913 -0.079036 0.226797
0.108332 -0.078540 0.225096
0.108436 -0.077827 0.222767
0.108601 -0.077172 0.220596
0.108041 -0.076020 0.216996
0.107937 -0.075207 0.214364
0.107486 -0.074172 0.211089
0.107187 -0.073259 0.208158
0.107170 -0.072555 0.205814
0.107699 -0.072229 0.204535
0.107866 -0.071670 0.202582
0.108055 -0.071135 0.200690
-1.478648 -0.939608 2.714849
-1.462600 -0.937748 2.714140
-1.449814 -0.937964 2.719249
-1.436520 -0.937856 2.723236
-1.426665 -0.940012 2.733634
-1.410075 -0.937731 2.730960
-1.397805 -0.938308 2.736442
-1.381234 -0.935982 2.733295
-1.368119 -0.935979 2.736770
-1.356992 -0.937349 2.744122
-1.346946 -0.939501 2.753634
-1.338792 -0.943029 2.767062
-1.344063 -0.956180 2.808646
-1.335451 -0.959620 2.821628
-1.347535 -0.978155 2.878932
-1.401083 -1.027479 3.026919
-1.388040 -1.028487 3.032580
-1.396906 -1.045922 3.086601
-1.403421 -1.061949 3.136430
-1.403385 -1.073310 3.172422
-1.397113 -1.080099 3.194823
-1.399594 -1.093878 3.237833
-1.382367 -1.092389 3.235566
-1.371875 -1.096250 3.249041
-1.361786 -1.100526 3.263656
-1.347571 -1.101529 3.268470
-1.335351 -1.104204 3.278158
-1.322640 -1.106533 3.286728
-1.312157 -1.110805 3.300987
-1.298406 -1.112381 3.307150
-1.282936 -1.112505 3.308914
-1.269194 -1.114150 3.315120
-1.253779 -1.114352 3.316949
-1.245282 -1.120784 3.337253
-1.234980 -1.125738 3.353088
-0.352252 -0.568912 1.697491
-0.340756 -0.563141 1.680088
-0.330832 -0.559754 1.669791
-0.326616 -0.566098 1.688515
-0.318241 -0.565369 1.686136
-0.313599 -0.571406 1.703929
-0.005605 -0.100216 0.297658
-0.004193 -0.100238 0.297706
-0.002744 -0.098927 0.293797
-0.001362 -0.099840 0.296495
0.000045 -0.099582 0.295713
0.001449 -0.099625 0.295831
0.002801 -0.097795 0.290386
0.004223 -0.098818 0.293416
0.005618 -0.098844 0.293483
0.005615 -0.079150 0.235003
0.006724 -0.079077 0.234783
0.007733 -0.078004 0.231596
0.008842 -0.078090 0.231849
0.009910 -0.077825 0.231060
0.010999 -0.077768 0.230893
0.012026 -0.077317 0.229556
0.013252 -0.078116 0.231927
0.014469 -0.078748 0.233807
0.015634 -0.079020 0.234619
0.016754 -0.079045 0.234698
0.017974 -0.079510 0.236084
0.019184 -0.079878 0.237183
0.020328 -0.079949 0.237400
0.021524 -0.080203 0.238164
0.022730 -0.080464 0.238947
0.023951 -0.080756 0.239822
0.025180 -0.081044 0.240687
0.026380 -0.081220 0.241220
0.027581 -0.081381 0.241710
0.028806 -0.081598 0.242365
0.030092 -0.081964 0.243464
0.031430 -0.082441 0.244894
0.032791 -0.082941 0.246392
0.034037 -0.083126 0.246953
0.035257 -0.083236 0.247292
0.036556 -0.083520 0.248149
0.037815 -0.083698 0.248691
0.039063 -0.083841 0.249128
0.040322 -0.083999 0.249609
0.041600 -0.084185 0.250177
0.042946 -0.084496 0.251112
0.044199 -0.084611 0.251465
0.045386 -0.084596 0.251432
0.046708 -0.084829 0.252134
0.048010 -0.085013 0.252692
0.049430 -0.085393 0.253831
0.050901 -0.085841 0.255170
0.052310 -0.086165 0.256139
0.053641 -0.086349 0.256694
0.054965 -0.086514 0.257189
0.056383 -0.086816 0.258090
0.057720 -0.086983 0.258588
0.059132 -0.087254 0.259394
0.060426 -0.087345 0.259662
0.061664 -0.087350 0.259676
0.063075 -0.087596 0.260402
0.064338 -0.087631 0.260499
0.065688 -0.087782 0.260938
0.067165 -0.088093 0.261852
0.068502 -0.088212 0.262193
0.069532 -0.087939 0.261364
0.070622 -0.087749 0.260782
0.071902 -0.087798 0.260905
0.072996 -0.087623 0.260359
0.073770 -0.087075 0.258704
0.074714 -0.086743 0.257686
0.075714 -0.086485 0.256888
0.076867 -0.086407 0.256618
0.077718 -0.085998 0.255363
0.078761 -0.085811 0.254762
0.079874 -0.085703 0.254395
0.080762 -0.085362 0.253329
0.081866 -0.085255 0.252957
0.082945 -0.085125 0.252511
0.083986 -0.084962 0.251960
0.085060 -0.084835 0.251514
0.086063 -0.084642 0.250869
0.087115 -0.084502 0.250374
0.088170 -0.084369 0.249895
0.089224 -0.084237 0.249417
0.090293 -0.084124 0.248986
0.091236 -0.083897 0.248215
0.092208 -0.083703 0.247533
0.093237 -0.083564 0.247011
0.094183 -0.083356 0.246277
0.095098 -0.083125 0.245471
0.096126 -0.082998 0.244964
0.096973 -0.082718 0.244002
0.097869 -0.082488 0.243177
0.098847 -0.082331 0.242562
0.099661 -0.082042 0.241553
0.100437 -0.081729 0.240466
0.101230 -0.081437 0.239433
0.101979 -0.081116 0.238307
0.102641 -0.080734 0.236996
0.103427 -0.080457 0.235986
0.104276 -0.080234 0.235125
0.105025 -0.079940 0.234049
0.105805 -0.079675 0.233049
0.106375 -0.079260 0.231602
0.106894 -0.078816 0.230061
0.107465 -0.078418 0.228648
0.107846 -0.077892 0.226852
0.108079 -0.077270 0.224771
0.108418 -0.076735 0.222936
0.108491 -0.076025 0.220584
0.108848 -0.075526 0.218835
0.107604 -0.073936 0.213923
0.107818 -0.073370 0.211965
0.106952 -0.072085 0.207930
0.107218 -0.071581 0.206140
0.108108 -0.071499 0.205553
0.107909 -0.070705 0.202910
0.108169 -0.070223 0.201154
-1.472904 -0.922732 2.707272
-1.455037 -0.919715 2.702971
-1.449235 -0.924341 2.720955
-1.431816 -0.921575 2.717012
-1.419160 -0.921853 2.721863
-1.407094 -0.922525 2.727714
-1.395632 -0.923611 2.734638
-1.368857 -0.914487 2.711151
-1.367158 -0.922103 2.737136
-1.361533 -0.927195 2.755532
-1.333213 -0.916781 2.727688
-1.345736 -0.934525 2.783514
-1.327268 -0.930888 2.775568
-1.333856 -0.944929 2.820237
-1.350970 -0.966790 2.888225
-1.401645 -1.013365 3.030111
-1.388622 -1.014378 3.035763
-1.395760 -1.030295 3.085940
-1.411311 -1.052827 3.155903
-1.403701 -1.058381 3.174920
-1.397299 -1.064976 3.196974
-1.393562 -1.073770 3.225549
-1.379890 -1.075021 3.231376
-1.372321 -1.081108 3.251649
-1.363982 -1.086721 3.270412
-1.348168 -1.086440 3.271347
-1.337144 -1.090059 3.283931
-1.324384 -1.092332 3.292376
-1.315724 -1.098081 3.311220
-1.302557 -1.100163 3.318926
-1.287814 -1.100950 3.322640
-1.275304 -1.103689 3.332167
-1.261087 -1.105002 3.337314
-1.248049 -1.107395 3.345646
-1.236330 -1.111036 3.357677
-1.240628 -1.129353 3.414005
-0.368205 -0.560775 1.697331
-0.355716 -0.566370 1.713875
-0.347963 -0.566905 1.715289
-0.338729 -0.564997 1.709303
-0.336730 -0.575358 1.740428
-0.332836 -0.597863 1.808031
-0.005491 -0.096722 0.291293
-0.004181 -0.098434 0.296430
-0.002720 -0.096533 0.290691
-0.001353 -0.097470 0.293496
0.000040 -0.097535 0.293680
0.001415 -0.096170 0.289559
0.002840 -0.097882 0.294703
0.004239 -0.097880 0.294687
0.004503 -0.078174 0.235354
0.005621 -0.078168 0.235331
0.006722 -0.077973 0.234741
0.007793 -0.077537 0.233426
0.008927 -0.077753 0.234072
0.010038 -0.077744 0.234045
0.011168 -0.077874 0.234438
0.012320 -0.078115 0.235164
0.013372 -0.077736 0.234025
0.014530 -0.077979 0.234762
0.015709 -0.078297 0.235723
0.016833 -0.078315 0.235784
0.017986 -0.078457 0.236219
0.019183 -0.078763 0.237147
0.020346 -0.078902 0.237574
