ply
format ascii 1.0
element vertex 1744
property float x
property float y
property float z
end_header
0.039367 0.057954 0.242677
0.040493 0.057907 0.242528
0.041774 0.058077 0.243291
0.043183 0.058410 0.244737
0.044495 0.058599 0.245581
0.045759 0.058717 0.246127
0.047004 0.058805 0.246546
0.048307 0.058957 0.247240
0.049605 0.059098 0.247881
0.050890 0.059217 0.248433
0.052262 0.059429 0.249377
0.053576 0.059568 0.250011
0.055355 0.060205 0.252740
0.056566 0.060212 0.252822
0.057883 0.060328 0.253360
0.059177 0.060416 0.253779
0.060460 0.060489 0.254139
0.061632 0.060451 0.254026
0.063111 0.060709 0.255159
0.064502 0.060874 0.255903
0.066137 0.061260 0.257570
0.067327 0.061226 0.257473
0.068628 0.061292 0.257796
0.069935 0.061363 0.258133
0.071166 0.061364 0.258179
0.072456 0.061416 0.258433
0.073704 0.061430 0.258530
0.075024 0.061503 0.258872
0.076352 0.061581 0.259229
0.077655 0.061636 0.259488
0.079056 0.061765 0.260060
0.080272 0.061748 0.260012
0.081471 0.061720 0.259911
0.082358 0.061458 0.258826
0.081701 0.060070 0.252992
0.082037 0.059441 0.250353
0.082872 0.059186 0.249287
0.083726 0.058952 0.248303
0.084727 0.058826 0.247773
0.085724 0.058701 0.247240
0.086537 0.058455 0.246195
0.087332 0.058204 0.245124
0.088409 0.058145 0.244857
0.089270 0.057947 0.244002
0.090199 0.057797 0.243345
0.091028 0.057589 0.242435
0.091768 0.057329 0.241305
0.092894 0.057314 0.241202
0.093622 0.057057 0.240074
0.094360 0.056812 0.238991
0.095136 0.056595 0.238022
0.096020 0.056448 0.237337
0.096916 0.056310 0.236691
0.097413 0.055946 0.235086
0.098251 0.055785 0.234326
0.098842 0.055488 0.232992
0.098904 0.054904 0.230448
0.098379 0.054011 0.226600
0.098141 0.053293 0.223484
0.098251 0.052777 0.221212
0.098931 0.052575 0.220249
0.099671 0.052409 0.219429
0.100360 0.052220 0.218506
0.100962 0.051989 0.217404
0.101640 0.051803 0.216477
0.102305 0.051613 0.215529
0.103103 0.051494 0.214869
0.103788 0.051321 0.213976
0.104387 0.051109 0.212913
0.105008 0.050912 0.211904
0.105866 0.050833 0.211376
0.106678 0.050733 0.210753
0.107560 0.050668 0.210264
0.108554 0.050656 0.209987
0.109372 0.050563 0.209362
0.110228 0.050489 0.208805
-1.043449 0.476577 1.947359
-1.045468 0.481791 1.970913
-1.056413 0.491250 2.011796
-1.032943 0.484733 1.987163
-1.037185 0.491220 2.015741
-1.028766 0.491777 2.019915
-0.929237 0.448381 1.843308
-0.904999 0.440836 1.813817
-0.896082 0.440680 1.814627
-0.892024 0.442935 1.825290
-0.875267 0.438867 1.809819
-1.541158 0.780386 3.220365
-1.527634 0.781258 3.226016
-1.507423 0.778694 3.217355
-1.495578 0.780443 3.226398
-1.481975 0.781302 3.231653
-1.460768 0.778129 3.220117
-1.452092 0.781635 3.236114
-1.434788 0.780522 3.232892
-1.421458 0.781570 3.238523
-0.949621 0.527802 2.187811
-0.942253 0.529452 2.195394
-0.935605 0.531548 2.204769
-1.397243 0.802723 3.330501
-1.383483 0.803835 3.335972
-1.369398 0.804782 3.340673
-1.372626 0.816043 3.388120
-1.382715 0.831696 3.453740
-0.725259 0.441425 1.833374
-0.716612 0.441408 1.833556
-0.706869 0.440708 1.830859
-0.703515 0.444024 1.844807
-0.693848 0.443388 1.842303
-0.314599 0.239983 0.996543
-0.309397 0.239586 0.994749
-0.304909 0.239738 0.995224
-0.300752 0.240159 0.996806
-0.296216 0.240286 0.997156
-0.291742 0.240469 0.997726
-0.287200 0.240600 0.998074
-0.282684 0.240759 0.998527
-0.277694 0.240513 0.997290
-0.273005 0.240522 0.997108
-0.267989 0.240240 0.995709
-0.262969 0.239944 0.994245
-0.257900 0.239592 0.992544
-0.252312 0.238736 0.988752
-0.245164 0.236343 0.978593
-0.234682 0.230584 0.954498
-0.228193 0.228599 0.946031
-0.221886 0.226721 0.938005
-0.217723 0.227002 0.938912
-0.168152 0.178966 0.740025
-0.163809 0.178049 0.736027
-0.158934 0.176500 0.729420
-0.156601 0.177769 0.734458
-0.152061 0.176534 0.729145
-0.147143 0.174792 0.721745
-0.140856 0.171303 0.707134
-0.136196 0.169670 0.700194
-0.128196 0.163691 0.675327
-0.125493 0.164345 0.677827
-0.128816 0.173130 0.713858
-0.125859 0.173721 0.716091
-0.121021 0.171679 0.707470
-0.118910 0.173498 0.714766
-0.115840 0.173984 0.716567
-0.112169 0.173568 0.714659
-0.108831 0.173660 0.714842
-0.104075 0.171422 0.705437
-0.099800 0.169854 0.698796
-0.096561 0.170000 0.699215
-0.031543 0.059640 0.245177
-0.030266 0.059425 0.244232
-0.028893 0.058995 0.242403
-0.027537 0.058567 0.240587
-0.026200 0.058143 0.238792
-0.024815 0.057570 0.236383
-0.023459 0.057010 0.234034
-0.022137 0.056485 0.231828
-0.020882 0.056082 0.230126
-0.019781 0.056074 0.230048
-0.018456 0.055390 0.227199
-0.017291 0.055133 0.226103
-0.016176 0.055011 0.225561
-0.015062 0.054873 0.224957
-0.013922 0.054615 0.223861
-0.012535 0.053262 0.218285
-0.011475 0.053185 0.217935
-0.010391 0.052968 0.217016
-0.009081 0.051418 0.210641
-0.007994 0.050905 0.208514
-0.006996 0.050901 0.208471
-0.006014 0.051026 0.208965
-0.005016 0.051034 0.208977
-0.002087 0.052772 0.216045
-0.001058 0.053002 0.216976
-0.000020 0.053447 0.218787
0.001022 0.053190 0.217726
0.003151 0.053978 0.220942
0.004224 0.054177 0.221754
0.005311 0.054444 0.222844
0.006393 0.054569 0.223358
0.007466 0.054603 0.223504
0.008583 0.054901 0.224729
0.009663 0.054927 0.224842
0.010783 0.055153 0.225777
0.011888 0.055266 0.226251
0.013027 0.055506 0.227247
0.014146 0.055626 0.227755
0.015265 0.055734 0.228213
0.016363 0.055751 0.228305
0.017535 0.056007 0.229376
0.018704 0.056221 0.230274
0.019948 0.056625 0.231952
0.021084 0.056695 0.232268
0.022254 0.056844 0.232907
0.023424 0.056978 0.233487
0.024686 0.057315 0.234901
0.025856 0.057419 0.235359
0.027051 0.057566 0.235996
0.028274 0.057760 0.236829
0.029472 0.057888 0.237394
0.030680 0.058026 0.237999
0.031908 0.058190 0.238713
0.033104 0.058286 0.239148
0.034308 0.058390 0.239619
0.035555 0.058558 0.240351
0.036750 0.058632 0.240702
0.037961 0.058727 0.241136
0.039234 0.058909 0.241932
0.040499 0.059069 0.242635
0.041687 0.059109 0.242850
0.043088 0.059443 0.244271
0.044416 0.059660 0.245212
0.045801 0.059940 0.246415
0.047042 0.060024 0.246810
0.048214 0.060017 0.246829
0.049451 0.060089 0.247176
0.050766 0.060250 0.247891
0.052172 0.060510 0.249010
0.053886 0.061106 0.251517
0.055075 0.061095 0.251521
0.056535 0.061378 0.252738
0.057872 0.061519 0.253367
0.059164 0.061606 0.253774
0.060434 0.061668 0.254079
0.061843 0.061867 0.254944
0.063268 0.062074 0.255843
0.064512 0.062097 0.255985
0.065959 0.062313 0.256919
0.067334 0.062453 0.257541
0.068663 0.062547 0.257966
0.069906 0.062560 0.258060
0.071183 0.062602 0.258272
0.072457 0.062641 0.258466
0.073969 0.062881 0.259490
0.075209 0.062884 0.259535
0.076414 0.062859 0.259461
0.077654 0.062864 0.259506
0.078983 0.062939 0.259838
0.080301 0.063003 0.260123
0.081366 0.062869 0.259586
0.081653 0.062147 0.256621
0.081596 0.061189 0.252674
0.082107 0.060677 0.250570
0.082885 0.060376 0.249328
0.083675 0.060091 0.248151
0.084636 0.059935 0.247502
0.085761 0.059898 0.247342
0.086619 0.059678 0.246422
0.087418 0.059424 0.245355
0.088247 0.059196 0.244394
0.089096 0.058987 0.243509
0.089925 0.058771 0.242587
0.090776 0.058574 0.241740
0.091615 0.058375 0.240878
0.092515 0.058219 0.240188
0.093487 0.058111 0.239695
0.094372 0.057953 0.238988
0.095185 0.057754 0.238108
0.096160 0.057658 0.237643
0.097066 0.057522 0.237013
0.097665 0.057210 0.235649
0.098261 0.056904 0.234302
0.098871 0.056611 0.233008
0.099288 0.056217 0.231288
0.099717 0.055837 0.229624
0.098696 0.054663 0.224687
0.099066 0.054277 0.222984
0.099666 0.054022 0.221819
0.099689 0.053464 0.219401
0.100290 0.053224 0.218281
0.100835 0.052960 0.217055
0.101584 0.052807 0.216278
0.102145 0.052561 0.215112
0.102949 0.052443 0.214462
0.103628 0.052264 0.213558
0.104363 0.052117 0.212771
0.105077 0.051962 0.211948
0.105849 0.051839 0.211243
0.106662 0.051737 0.210617
0.107682 0.051737 0.210396
0.108437 0.051611 0.209650
0.109290 0.051534 0.209090
0.110512 0.051630 0.209224
-1.039974 0.484306 1.939817
-1.056154 0.496262 1.990016
-1.042510 0.494293 1.984321
-1.027397 0.491586 1.975538
-1.036767 0.500653 2.013995
-1.028337 0.501213 2.018174
-0.923221 0.454215 1.830594
-0.900040 0.447018 1.803142
-0.899258 0.450916 1.820348
-0.885688 0.448414 1.811649
-0.867984 0.443750 1.794121
-1.542011 0.796131 3.221055
-1.525838 0.795643 3.221182
-1.511086 0.795895 3.224182
-1.500966 0.798616 3.237079
-1.483765 0.797588 3.234665
-1.473612 0.800366 3.247583
-1.458988 0.800749 3.250685
-1.440861 0.799198 3.245826
-1.427455 0.800260 3.251482
-0.945215 0.535657 2.177221
-0.946982 0.542545 2.205997
-0.927425 0.537234 2.185111
-1.413205 0.827816 3.368007
-1.399270 0.828952 3.373542
-1.377894 0.825656 3.360948
-1.375883 0.834022 3.395749
-1.381535 0.847284 3.450422
-0.724011 0.449308 1.830044
-0.720813 0.452704 1.844155
-0.708426 0.450342 1.834765
-0.701245 0.451272 1.838750
-0.693138 0.451622 1.840333
-0.315573 0.245448 0.999732
-0.310227 0.244941 0.997532
-0.305548 0.244953 0.997435
-0.300837 0.244940 0.997223
-0.296234 0.245015 0.997360
-0.291835 0.245265 0.998199
-0.287073 0.245212 0.997798
-0.282448 0.245278 0.997869
-0.277453 0.245019 0.996610
-0.272649 0.244922 0.996005
-0.267584 0.244584 0.994411
-0.262665 0.244370 0.993313
-0.257481 0.243897 0.991159
-0.251676 0.242807 0.986493
-0.244538 0.240366 0.976336
-0.234447 0.234874 0.953786
-0.227739 0.232621 0.944399
-0.221644 0.230918 0.937240
-0.167932 0.182240 0.739275
-0.161778 0.179293 0.727122
-0.156344 0.177032 0.717757
-0.153770 0.177982 0.721412
-0.149040 0.176424 0.714896
-0.144912 0.175522 0.711044
-0.139678 0.173205 0.701462
-0.135716 0.172392 0.697975
-0.129359 0.168421 0.681707
-0.124702 0.166516 0.673807
-0.128297 0.175819 0.711253
-0.125699 0.176909 0.715462
-0.120571 0.174400 0.705121
-0.118754 0.176674 0.714120
-0.115676 0.177151 0.715852
-0.112431 0.177392 0.716633
-0.109005 0.177356 0.716294
-0.104885 0.176151 0.711242
-0.100570 0.174528 0.704503
-0.094203 0.169109 0.682452
-0.091034 0.169249 0.682847
-0.028532 0.064564 0.260176
-0.025083 0.059337 0.239060
-0.023719 0.058779 0.236761
-0.022227 0.057831 0.232894
-0.021036 0.057608 0.231949
-0.019851 0.057379 0.230981
-0.018568 0.056824 0.228704
-0.017138 0.055721 0.224222
-0.016015 0.055537 0.223445
-0.014976 0.055637 0.223810
-0.013861 0.055450 0.223021
-0.012628 0.054719 0.220049
-0.011549 0.054584 0.219474
-0.010489 0.054524 0.219204
-0.009121 0.052668 0.211714
-0.007992 0.051907 0.208630
-0.007008 0.052002 0.208988
-0.006050 0.052351 0.210370
-0.005064 0.052555 0.211171
-0.004058 0.052597 0.211324
-0.003071 0.053000 0.212925
-0.002077 0.053601 0.215327
-0.001053 0.053888 0.216467
-0.000018 0.054408 0.218547
0.001033 0.054695 0.219689
0.002092 0.054932 0.220635
0.003154 0.055042 0.221074
0.004219 0.055139 0.221460
0.005295 0.055316 0.222169
0.006384 0.055542 0.223080
0.007464 0.055634 0.223453
0.008554 0.055774 0.224021
0.009633 0.055815 0.224194
0.010764 0.056119 0.225422
0.011913 0.056455 0.226784
0.013036 0.056618 0.227452
0.014153 0.056736 0.227941
0.015214 0.056626 0.227518
0.016378 0.056889 0.228592
0.017488 0.056940 0.228820
0.018789 0.057574 0.231390
0.019924 0.057655 0.231740
0.021087 0.057805 0.232369
0.022241 0.057917 0.232845
0.023424 0.058089 0.233568
0.024628 0.058296 0.234429
0.025848 0.058521 0.235367
0.027016 0.058613 0.235773
0.028216 0.058763 0.236412
0.029393 0.058858 0.236830
0.030579 0.058963 0.237292
0.031748 0.059028 0.237592
0.033017 0.059268 0.238600
0.034222 0.059381 0.239094
0.035517 0.059637 0.240169
0.036696 0.059689 0.240422
0.037929 0.059822 0.241004
0.039153 0.059935 0.241502
0.040291 0.059912 0.241456
0.041652 0.060213 0.242718
0.042926 0.060376 0.243420
0.044535 0.060988 0.245938
0.045628 0.060881 0.245552
0.046996 0.061136 0.246633
0.048201 0.061173 0.246827
0.049467 0.061282 0.247318
0.050763 0.061423 0.247938
0.052256 0.061791 0.249469
0.053800 0.062200 0.251170
0.055257 0.062495 0.252409
0.056440 0.062472 0.252367
0.057775 0.062615 0.252991
0.059042 0.062681 0.253305
0.060326 0.062761 0.253675
0.061478 0.062704 0.253486
0.063110 0.063128 0.255245
0.064573 0.063371 0.256273
0.065870 0.063445 0.256612
0.067214 0.063560 0.257118
0.068538 0.063653 0.257532
0.069833 0.063716 0.257823
0.071248 0.063884 0.258540
0.072591 0.063984 0.258975
0.073829 0.063988 0.259022
0.075204 0.064109 0.259543
0.076407 0.064082 0.259459
0.077581 0.064032 0.259279
0.078846 0.064057 0.259402
0.080134 0.064100 0.259594
0.081327 0.064067 0.259473
0.081924 0.063573 0.257482
0.081439 0.062265 0.252194
0.082094 0.061854 0.250534
0.082765 0.061467 0.248966
0.083791 0.061350 0.248491
0.084386 0.060927 0.246768
0.085705 0.061029 0.247173
0.086596 0.060829 0.246345
0.087403 0.060575 0.245300
0.088250 0.060356 0.244387
0.089513 0.060422 0.244628
0.090289 0.060163 0.243547
0.090958 0.059840 0.242201
0.091601 0.059508 0.240814
0.092385 0.059274 0.239822
0.093586 0.059311 0.239916
0.094427 0.059121 0.239089
0.095183 0.058883 0.238064
0.096157 0.058784 0.237593
0.097132 0.058687 0.237128
0.097898 0.058468 0.236161
0.098266 0.058020 0.234262
0.098907 0.057740 0.233040
0.098807 0.057039 0.230109
0.099746 0.056946 0.229630
0.099691 0.056294 0.226889
0.099111 0.055363 0.223018
0.098729 0.054561 0.219665
0.099158 0.054220 0.218160
0.100034 0.054127 0.217650
0.100815 0.053985 0.216934
0.101509 0.053801 0.216037
0.102142 0.053587 0.215020
0.103039 0.053515 0.214561
0.103685 0.053316 0.213583
0.104354 0.053132 0.212657
0.105163 0.053022 0.212021
0.106058 0.052957 0.211555
0.106772 0.052804 0.210727
0.107530 0.052675 0.209987
0.108496 0.052649 0.209647
0.109319 0.052555 0.209024
0.110157 0.052470 0.208426
-1.043320 0.495211 1.944959
-1.051522 0.503590 1.980210
-1.054650 0.509669 2.006380
-1.033758 0.504145 1.986773
-1.038586 0.511179 2.016556
-1.030125 0.511743 2.020748
-0.917174 0.459920 1.817797
-0.898789 0.454984 1.799869
-0.894776 0.457299 1.810539
-0.883819 0.456075 1.807124
-0.865917 0.451209 1.789183
-1.534892 0.807700 3.205048
-1.529354 0.812817 3.227515
-1.511392 0.811369 3.223798
-1.495062 0.810776 3.223361
-1.485342 0.813794 3.237164
-1.467832 0.812562 3.233959
-1.455081 0.813967 3.241141
-1.439280 0.813677 3.241474
-0.958380 0.547623 2.182514
-0.939341 0.542568 2.163226
-0.935623 0.546349 2.179101
-0.928941 0.548464 2.188277
-1.398203 0.834784 3.331684
-1.384398 0.835919 3.337160
-1.371835 0.837839 3.345687
-1.385713 0.856139 3.419563
-1.371513 0.857319 3.424988
-0.725281 0.458754 1.833062
-0.718831 0.460144 1.838914
-0.704270 0.456313 1.823858
-0.702181 0.460567 1.841082
-0.691469 0.459201 1.835802
-0.325866 0.254537 1.017392
-0.315229 0.249898 0.998738
-0.309531 0.249094 0.995402
-0.305054 0.249263 0.995939
-0.300675 0.249518 0.996814
-0.296053 0.249577 0.996892
-0.291667 0.249840 0.997774
-0.286829 0.249719 0.997113
-0.282161 0.249744 0.997025
-0.277358 0.249649 0.996450
-0.272404 0.249412 0.995303
-0.267305 0.249031 0.993573
-0.262336 0.248761 0.992280
-0.257062 0.248187 0.989766
-0.251108 0.246922 0.984497
-0.244282 0.244736 0.975550
-0.236175 0.241159 0.961057
-0.228257 0.237639 0.946795
-0.221645 0.235364 0.937497
-0.217481 0.235651 0.938400
-0.164958 0.182459 0.726393
-0.159817 0.180529 0.718522
-0.154844 0.178709 0.711089
-0.152557 0.179979 0.715950
-0.147763 0.178280 0.709002
-0.143278 0.176885 0.703264
-0.138832 0.175472 0.697456
-0.133834 0.173276 0.688542
-0.128866 0.171011 0.679354
-0.124195 0.169033 0.671313
-0.128148 0.178998 0.710698
-0.124906 0.179180 0.711229
-0.121339 0.178892 0.709894
-0.118489 0.179676 0.712815
-0.115316 0.180003 0.713919
-0.111993 0.180107 0.714142
-0.108826 0.180477 0.715425
-0.105352 0.180346 0.714719
-0.100663 0.178057 0.705469
-0.095183 0.174163 0.689869
-0.089861 0.170291 0.674364
-0.086337 0.169667 0.671729
-0.083208 0.169799 0.672091
-0.028487 0.065705 0.259895
-0.026633 0.064219 0.253961
-0.025296 0.063896 0.252628
-0.023954 0.063528 0.251121
-0.022639 0.063198 0.249768
-0.019852 0.058492 0.231125
-0.018661 0.058214 0.229984
-0.017261 0.057207 0.225965
-0.016118 0.056975 0.225011
-0.014961 0.056657 0.223717
-0.013730 0.055991 0.221053
-0.012580 0.055570 0.219360
-0.011526 0.055534 0.219186
-0.010393 0.055074 0.217343
-0.009095 0.053544 0.211275
-0.008043 0.053253 0.210104
-0.007040 0.053259 0.210105
-0.006046 0.053345 0.210423
-0.005052 0.053464 0.210874
-0.004045 0.053469 0.210875
-0.003042 0.053543 0.211151
-0.002064 0.054366 0.214386
-0.001052 0.055011 0.216915
-0.000015 0.055665 0.219485
0.001034 0.055706 0.219637
0.002082 0.055656 0.219436
0.003144 0.055881 0.220317
0.004202 0.055942 0.220556
0.006378 0.056531 0.222878
0.008569 0.056927 0.224448
0.009632 0.056869 0.224227
0.010737 0.057043 0.224921
0.011843 0.057189 0.225508
0.013034 0.057689 0.227493
0.014103 0.057611 0.227200
0.015289 0.057987 0.228696
0.016380 0.057979 0.228684
0.017641 0.058535 0.230898
0.018764 0.058594 0.231151
0.019884 0.058639 0.231354
0.021029 0.058746 0.231803
0.022203 0.058922 0.232521
0.023379 0.059085 0.233195
0.024507 0.059116 0.233346
0.025706 0.059311 0.234149
0.026862 0.059392 0.234499
0.028155 0.059758 0.235978
0.029322 0.059838 0.236332
0.030491 0.059918 0.236682
0.031815 0.060283 0.238165
0.033096 0.060546 0.239244
0.034331 0.060708 0.239924
0.035500 0.060749 0.240124
0.036657 0.060767 0.240240
0.037850 0.060840 0.240572
0.039011 0.060860 0.240695
0.040306 0.061081 0.241612
0.041513 0.061161 0.241976
0.043572 0.062457 0.247147
0.044399 0.061966 0.245253
0.045708 0.062155 0.246047
0.046944 0.062238 0.246421
0.048176 0.062312 0.246761
0.049458 0.062445 0.247334
0.050717 0.062543 0.247768
0.051973 0.062633 0.248175
0.053337 0.062847 0.249066
0.054861 0.063235 0.250654
0.056516 0.063755 0.252759
0.057743 0.063779 0.252900
0.059016 0.063854 0.253242
0.060348 0.063987 0.253814
0.061566 0.063997 0.253893
0.062977 0.064203 0.254753
0.064328 0.064341 0.255341
0.065716 0.064509 0.256049
0.067127 0.064695 0.256823
0.068516 0.064852 0.257483
0.069913 0.065012 0.258151
0.071174 0.065041 0.258301
0.072524 0.065150 0.258762
0.073820 0.065207 0.259017
0.075037 0.065193 0.258988
0.076316 0.065233 0.259172
0.077524 0.065212 0.259106
0.078769 0.065222 0.259165
0.080120 0.065318 0.259560
0.081354 0.065317 0.259570
0.082337 0.065118 0.258786
0.082315 0.064141 0.254909
0.081907 0.062896 0.249963
0.082830 0.062695 0.249160
0.083774 0.062514 0.248436
0.084492 0.062173 0.247070
0.085484 0.062039 0.246525
0.086430 0.061877 0.245860
0.087212 0.061602 0.244748
0.087979 0.061324 0.243617
0.088964 0.061203 0.243107
0.089842 0.061013 0.242315
0.090557 0.060719 0.241104
0.091073 0.060299 0.239395
0.092137 0.060249 0.239144
0.093203 0.060201 0.238897
0.094024 0.059997 0.238029
0.094851 0.059803 0.237191
0.095835 0.059711 0.236752
0.096734 0.059568 0.236108
0.097430 0.059305 0.234982
0.098119 0.059044 0.233856
0.098716 0.058734 0.232531
0.098921 0.058200 0.230314
0.099236 0.057742 0.228391
0.099162 0.057070 0.225619
0.099689 0.056754 0.224248
0.099049 0.055788 0.220306
0.099599 0.055506 0.219054
0.100258 0.055289 0.218059
0.100907 0.055072 0.217051
0.101488 0.054821 0.215908
0.102231 0.054663 0.215119
0.102941 0.054490 0.214264
0.103678 0.054335 0.213472
0.104532 0.054244 0.212921
0.105192 0.054054 0.211977
0.105943 0.053914 0.211218
0.106667 0.053764 0.210409
0.107494 0.053668 0.209801
0.108320 0.053573 0.209187
0.109214 0.053513 0.208700
0.110200 0.053498 0.208379
-1.052486 0.508991 1.960895
-1.068598 0.521427 2.011232
-1.061638 0.522730 2.018578
-1.043842 0.518671 2.005105
-1.045230 0.524159 2.028438
-1.036699 0.524729 2.032664
-0.917443 0.468738 1.817490
-0.896245 0.462260 1.793982
-0.894910 0.466000 1.810041
-0.881319 0.463369 1.801281
-0.865790 0.459658 1.788226
-1.548296 0.830131 3.231839
-1.529119 0.828031 3.225878
-1.518519 0.830581 3.237911
-1.503429 0.830702 3.240363
-1.487600 0.830414 3.241101
-1.473059 0.830847 3.244542
-1.458053 0.831024 3.246878
-1.443000 0.831178 3.249019
-0.965721 0.562233 2.198700
-0.948505 0.558201 2.183833
-0.935927 0.556842 2.179346
-0.933577 0.561605 2.198763
-1.421037 0.864430 3.385470
-1.406987 0.865594 3.391036
-1.399977 0.871165 3.413789
-1.385791 0.872348 3.419270
-1.371572 0.873538 3.424695
-0.719049 0.463398 1.817104
-0.711244 0.463881 1.819319
-0.695711 0.459275 1.801531
-0.698362 0.466708 1.830928
-0.678828 0.459316 1.802127
-0.323496 0.257456 1.010072
-0.315068 0.254486 0.998318
-0.309684 0.253922 0.995993
-0.305174 0.254069 0.996442
-0.300721 0.254268 0.997089
-0.296000 0.254244 0.996848
-0.291464 0.254381 0.997226
-0.286743 0.254359 0.996971
-0.281983 0.254300 0.996563
-0.277011 0.254044 0.995379
-0.272320 0.254043 0.995181
-0.267018 0.253462 0.992706
-0.262008 0.253142 0.991243
-0.256522 0.252342 0.987899
-0.251446 0.251924 0.986045
-0.244686 0.249771 0.977396
-0.236748 0.246311 0.963629
-0.225961 0.239692 0.937510
-0.220081 0.238119 0.931132
-0.164738 0.185658 0.725632
-0.158158 0.182031 0.711274
-0.153160 0.180106 0.703574
-0.150570 0.180991 0.706848
-0.146247 0.179785 0.701955
-0.141446 0.177923 0.694500
-0.136646 0.175973 0.686709
-0.132988 0.175435 0.684427
-0.128118 0.173232 0.675654
-0.124097 0.172092 0.671030
-0.127615 0.181624 0.708010
-0.124386 0.181807 0.708537
-0.121329 0.182260 0.710118
-0.118345 0.182851 0.712233
-0.115063 0.183005 0.712648
-0.111933 0.183416 0.714064
-0.108591 0.183494 0.714189
-0.105236 0.183555 0.714247
-0.101263 0.182507 0.709989
-0.093294 0.173938 0.676488
-0.090113 0.174000 0.676566
-0.086368 0.172940 0.672288
-0.082754 0.172071 0.668750
-0.079634 0.172199 0.669096
-0.028441 0.066843 0.259610
-0.026683 0.065557 0.254564
-0.025145 0.064718 0.251252
-0.023853 0.064459 0.250196
-0.022507 0.064019 0.248441
-0.021290 0.063920 0.248010
-0.019999 0.063573 0.246616
-0.018667 0.063041 0.244510
-0.017213 0.062003 0.240443
-0.015276 0.058951 0.228571
-0.014696 0.061071 0.236758
-0.012655 0.056963 0.220798
-0.011528 0.056602 0.219368
-0.010401 0.056170 0.217667
-0.009161 0.054963 0.212963
-0.008045 0.054289 0.210325
-0.007022 0.054142 0.209737
-0.006080 0.054672 0.211769
-0.005063 0.054614 0.211526
-0.004044 0.054482 0.210995
-0.003055 0.054817 0.212279
-0.002048 0.055024 0.213066
-0.001035 0.055253 0.213940
-0.000013 0.056088 0.217165
0.001035 0.056640 0.219293
0.002086 0.056736 0.219656
0.003144 0.056889 0.220247
0.004200 0.056940 0.220442
0.005272 0.057133 0.221185
0.006357 0.057392 0.222191
0.008541 0.057795 0.223758
0.009627 0.057893 0.224146
0.010730 0.058063 0.224811
0.011839 0.058234 0.225483
0.013056 0.058864 0.227937
0.014169 0.058962 0.228327
0.015308 0.059143 0.229046
0.016378 0.059055 0.228721
0.017593 0.059468 0.230340
0.018775 0.059727 0.231366
0.019904 0.059795 0.231652
0.021038 0.059872 0.231975
0.022192 0.059995 0.232476
0.023368 0.060164 0.233159
0.024522 0.060262 0.233566
0.025718 0.060449 0.234323
0.026861 0.060503 0.234565
0.028097 0.060752 0.235564
0.029277 0.060867 0.236044
0.030558 0.061175 0.237273
0.031755 0.061299 0.237789
0.032949 0.061407 0.238249
0.034191 0.061596 0.239018
0.035416 0.061743 0.239630
0.036585 0.061785 0.239835
0.037762 0.061839 0.240084
0.038948 0.061902 0.240372
0.040199 0.062063 0.241038
0.041580 0.062410 0.242431
0.043211 0.063103 0.245167
0.044350 0.063060 0.245043
0.045634 0.063220 0.245711
0.046778 0.063183 0.245610
0.047975 0.063218 0.245791
0.049399 0.063541 0.247094
0.050668 0.063657 0.247587
0.051987 0.063827 0.248295
0.053326 0.064014 0.249068
0.054790 0.064340 0.250379
0.056226 0.064619 0.251510
0.057668 0.064894 0.252624
0.059004 0.065041 0.253237
0.060277 0.065113 0.253557
0.061635 0.065273 0.254221
0.062974 0.065406 0.254780
0.064307 0.065528 0.255294
0.065613 0.065620 0.255686
0.067001 0.065787 0.256374
0.068314 0.065877 0.256756
0.069680 0.066013 0.257320
0.071198 0.066286 0.258414
0.072600 0.066444 0.259058
0.073811 0.066425 0.259006
0.075094 0.066470 0.259206
0.076422 0.066552 0.259548
0.077537 0.066450 0.259165
0.078735 0.066420 0.259064
0.080036 0.066477 0.259300
0.081263 0.066472 0.259287
0.082389 0.066385 0.258954
0.081376 0.064602 0.252002
0.081973 0.064132 0.250165
0.082561 0.063667 0.248348
0.083773 0.063690 0.248426
0.084512 0.063358 0.247118
0.085249 0.063033 0.245834
0.086217 0.062885 0.245239
0.087133 0.062704 0.244507
0.087995 0.062489 0.243640
0.088774 0.062222 0.242564
0.089646 0.062025 0.241759
0.090679 0.061944 0.241399
0.091462 0.061696 0.240384
0.092277 0.061476 0.239471
0.093414 0.061473 0.239399
0.094232 0.061262 0.238514
0.095000 0.061024 0.237518
0.095905 0.060879 0.236875
0.096903 0.060795 0.236467
0.097651 0.060558 0.235459
0.098246 0.060233 0.234101
0.098658 0.059804 0.232334
0.098981 0.059331 0.230390
0.099536 0.059007 0.229015
0.099627 0.058417 0.226607
0.098602 0.057192 0.221732
0.099254 0.056956 0.220684
0.099827 0.056680 0.219477
0.100153 0.056271 0.217747
0.100802 0.056050 0.216738
0.101584 0.055906 0.216023
0.102250 0.055702 0.215065
0.103007 0.055552 0.214306
0.103761 0.055402 0.213543
0.104555 0.055277 0.212864
0.105262 0.055108 0.212009
0.105930 0.054923 0.211081
0.106619 0.054751 0.210197
0.107333 0.054596 0.209367
0.108127 0.054484 0.208690
0.109063 0.054444 0.208281
0.109954 0.054384 0.207780
-1.071713 0.527892 1.995501
-1.063205 0.528408 1.999910
-1.064898 0.534049 2.023633
-1.050767 0.531785 2.017313
-1.042481 0.532466 2.022050
-1.033957 0.533036 2.026272
-0.914862 0.476079 1.811506
-0.894877 0.470105 1.790416
-0.897423 0.475966 1.814322
-0.881209 0.471894 1.800293
-0.863708 0.467048 1.783203
-1.535161 0.838337 3.203180
-1.524172 0.840643 3.214255
-1.517094 0.845175 3.233734
-1.495360 0.841551 3.221890
-1.480831 0.841950 3.225326
-1.466307 0.842361 3.228695
-1.453323 0.843674 3.235417
-1.438634 0.844015 3.238312
-0.958979 0.568651 2.182793
-0.944316 0.566032 2.173668
-0.934138 0.566074 2.174692
-0.930358 0.570037 2.190720
-1.424304 0.882470 3.392591
-1.410203 0.883645 3.398171
-1.390309 0.881177 3.389648
-1.390165 0.891314 3.429535
-0.721898 0.473853 1.824074
-0.711578 0.472698 1.819970
-0.695775 0.467828 1.801518
-0.697497 0.474767 1.828504
-0.689843 0.475418 1.831236
-0.333716 0.266596 1.027056
-0.324713 0.263213 1.013945
-0.315246 0.259348 0.998965
-0.309531 0.258501 0.995597
-0.305032 0.258657 0.996086
-0.300686 0.258951 0.997090
-0.295905 0.258874 0.996657
-0.291316 0.258964 0.996858
-0.286581 0.258926 0.996556
-0.281692 0.258746 0.995695
-0.276809 0.258564 0.994822
-0.271871 0.258326 0.993721
-0.266673 0.257826 0.991611
-0.261541 0.257375 0.989676
-0.256433 0.256931 0.987767
-0.251023 0.256163 0.984604
-0.244027 0.253717 0.974990
-0.236152 0.250246 0.961436
-0.225273 0.243393 0.934893
-0.219105 0.241458 0.927246
-0.154660 0.181306 0.695745
-0.149362 0.178897 0.686331
-0.147508 0.180599 0.692687
-0.143016 0.179075 0.686668
-0.138198 0.177062 0.678777
-0.134143 0.175954 0.674356
-0.131168 0.176245 0.675297
-0.127063 0.174993 0.670329
-0.123071 0.173837 0.665729
-0.127427 0.184722 0.707232
-0.124201 0.184906 0.707757
-0.121081 0.185263 0.708942
-0.118041 0.185766 0.710688
-0.115126 0.186504 0.713329
-0.111931 0.186816 0.714345
-0.108328 0.186449 0.712764
-0.104847 0.186273 0.711915
-0.100398 0.184308 0.704235
-0.095308 0.180993 0.691404
-0.090005 0.177020 0.676068
-0.085469 0.174319 0.665598
-0.082314 0.174337 0.665513
-0.078310 0.172485 0.658297
-0.075234 0.172608 0.658624
-0.026639 0.066668 0.254280
-0.025167 0.065982 0.251611
-0.023880 0.065734 0.250618
-0.022551 0.065341 0.249069
-0.021248 0.064982 0.247657
-0.020027 0.064847 0.247099
-0.018743 0.064477 0.245648
-0.017480 0.064139 0.244319
-0.016103 0.063303 0.241097
-0.014671 0.062103 0.236491
-0.013511 0.061957 0.235900
-0.012456 0.062305 0.237195
-0.010937 0.060172 0.229043
-0.009290 0.056782 0.216114
-0.008247 0.056695 0.215758
-0.006970 0.054753 0.208347
-0.006017 0.055132 0.209768
-0.005143 0.056519 0.215027
-0.004169 0.057247 0.217779
-0.003075 0.056250 0.213969
-0.002056 0.056304 0.214165
-0.001039 0.056642 0.215437
-0.000011 0.056988 0.216741
0.001033 0.057479 0.218600
0.002084 0.057659 0.219280
0.003141 0.057837 0.219952
0.004201 0.057972 0.220462
0.005279 0.058248 0.221512
0.006363 0.058484 0.222407
0.007446 0.058646 0.223030
0.008535 0.058804 0.223633
0.009627 0.058951 0.224199
0.010721 0.059079 0.224694
0.011831 0.059262 0.225398
0.012950 0.059455 0.226145
0.014058 0.059572 0.226603
0.015188 0.059757 0.227320
0.016422 0.060300 0.229403
0.017595 0.060564 0.230427
0.018780 0.060838 0.231489
0.019856 0.060746 0.231163
0.020986 0.060822 0.231473
0.022150 0.060981 0.232105
0.023330 0.061170 0.232851
0.024500 0.061314 0.233426
0.025659 0.061420 0.233859
0.026845 0.061580 0.234500
0.028060 0.061790 0.235329
0.029360 0.062163 0.236783
0.030519 0.062222 0.237044
0.031700 0.062318 0.237446
0.033051 0.062733 0.239060
0.034202 0.062750 0.239164
0.035417 0.062881 0.239702
0.036601 0.062952 0.240011
0.037754 0.062964 0.240097
0.038987 0.063107 0.240682
0.040213 0.063229 0.241190
0.041818 0.063925 0.243885
0.043048 0.064025 0.244308
0.044296 0.064145 0.244809
0.045466 0.064149 0.244867
0.046671 0.064201 0.245110
0.048022 0.064446 0.246087
0.049335 0.064630 0.246834
0.050628 0.064779 0.247448
0.051956 0.064965 0.248200
0.053451 0.065348 0.249705
0.054931 0.065695 0.251073
0.056323 0.065925 0.251992
0.057552 0.065958 0.252162
0.058797 0.066008 0.252391
0.060207 0.066237 0.253308
0.061237 0.066047 0.252619
0.063051 0.066695 0.255132
0.064279 0.066709 0.255223
0.065614 0.066831 0.255724
0.066931 0.066931 0.256138
0.068287 0.067066 0.256684
0.069654 0.067206 0.257252
0.071010 0.067332 0.257758
0.072451 0.067532 0.258550
0.073812 0.067652 0.259034
0.075001 0.067613 0.258902
0.076269 0.067645 0.259043
0.077496 0.067641 0.259042
0.078665 0.067586 0.258845
0.079866 0.067561 0.258756
0.081092 0.067556 0.258745
0.082199 0.067455 0.258359
0.081110 0.065580 0.251178
0.081800 0.065178 0.249633
0.082728 0.064973 0.248841
0.083813 0.064897 0.248535
0.084505 0.064522 0.247086
0.085283 0.064222 0.245917
0.086314 0.064118 0.245495
0.087248 0.063946 0.244808
0.087850 0.063539 0.243216
0.088666 0.063294 0.242241
0.089582 0.063126 0.241556
0.090351 0.062860 0.240492
0.091242 0.062684 0.239769
0.092110 0.062498 0.238999
0.093081 0.062385 0.238505
0.093931 0.062194 0.237706
0.094694 0.061951 0.236705
0.095594 0.061802 0.236057
0.096512 0.061668 0.235458
0.097138 0.061353 0.234164
0.097738 0.061028 0.232829
0.098390 0.060744 0.231638
0.098470 0.060115 0.229132
0.098986 0.059764 0.227678
0.099429 0.059377 0.226082
0.099758 0.058931 0.224254
0.099234 0.057996 0.220561
0.099174 0.057349 0.217960
0.099813 0.057116 0.216922
0.100711 0.057033 0.216453
0.101409 0.056841 0.215557
0.102022 0.056605 0.214489
0.102876 0.056506 0.213932
0.103634 0.056356 0.213177
0.104436 0.056234 0.212514
0.105131 0.056056 0.211633
0.105856 0.055898 0.210817
0.106605 0.055755 0.210049
0.107380 0.055629 0.209334
0.108079 0.055466 0.208468
0.109041 0.055439 0.208107
0.109870 0.055346 0.207483
-1.061427 0.532336 1.975101
-1.072668 0.542809 2.016483
-1.062648 0.542615 2.018177
-1.052137 0.542165 2.018806
-1.053066 0.547657 2.041474
-1.044438 0.548235 2.045747
-0.908572 0.481407 1.798151
-0.892273 0.477264 1.784351
-0.895201 0.483424 1.808996
-0.876713 0.478027 1.790318
-1.550506 0.853684 3.199808
-1.537128 0.854681 3.205990
-1.521349 0.854350 3.207063
-1.508681 0.855777 3.214616
-1.496689 0.857621 3.223622
-1.478328 0.855816 3.218797
-1.462306 0.855343 3.218861
-1.449292 0.856638 3.225472
-1.434053 0.856632 3.227080
-0.963187 0.581536 2.191784
-0.955821 0.583350 2.199594
-0.937241 0.578286 2.181394
-0.933563 0.582406 2.197777
-1.410397 0.889750 3.358766
-1.396414 0.890923 3.364293
-1.372825 0.885924 3.346421
-1.388953 0.906738 3.425982
-0.721529 0.482227 1.822892
-0.713913 0.482876 1.825716
-0.694888 0.475732 1.799025
-0.696842 0.482950 1.826609
-0.333350 0.271149 1.025982
-0.323531 0.267027 1.010320
-0.314684 0.263597 0.997261
-0.309415 0.263106 0.995310
-0.305341 0.263631 0.997193
-0.300703 0.263678 0.997256
-0.295901 0.263581 0.996763
-0.291214 0.263584 0.996639
-0.286561 0.263620 0.996629
-0.281637 0.263404 0.995653
-0.276976 0.263429 0.995586
-0.271990 0.263142 0.994329
-0.266654 0.262501 0.991726
-0.261744 0.262263 0.990639
-0.256179 0.261349 0.986993
-0.251021 0.260824 0.984810
-0.244374 0.258704 0.976600
-0.237451 0.256203 0.966954
-0.233171 0.256514 0.967912
-0.154871 0.181012 0.682551
-0.151824 0.181222 0.683180
-0.149636 0.182489 0.687793
-0.145767 0.181718 0.684721
-0.140904 0.179644 0.676741
-0.136594 0.178194 0.671114
-0.132788 0.177350 0.667769
-0.128867 0.176306 0.663675
-0.124593 0.174717 0.657528
-0.121499 0.174743 0.657462
-0.126832 0.187209 0.704188
-0.123620 0.187394 0.704710
-0.120901 0.188359 0.708162
-0.117891 0.188913 0.710071
-0.115037 0.189756 0.713065
-0.111545 0.189567 0.712181
-0.107885 0.189071 0.710145
-0.104358 0.188785 0.708902
-0.100183 0.187268 0.703040
-0.095671 0.184997 0.694349
-0.090704 0.181650 0.681630
-0.085632 0.177838 0.667177
-0.081737 0.176272 0.661157
-0.078404 0.175842 0.659400
-0.074800 0.174745 0.655146
-0.071231 0.173637 0.650856
-0.068182 0.173751 0.651152
-0.025329 0.067619 0.253360
-0.023912 0.067024 0.251083
-0.022582 0.066626 0.249544
-0.021219 0.066078 0.247448
-0.020005 0.065961 0.246968
-0.018767 0.065745 0.246114
-0.017497 0.065378 0.244704
-0.016125 0.064551 0.241571
-0.014829 0.063926 0.239194
-0.013578 0.063406 0.237217
-0.012434 0.063336 0.236923
-0.011170 0.062583 0.234077
-0.009946 0.061910 0.231532
-0.008695 0.060883 0.227666
-0.007754 0.062034 0.231945
-0.006575 0.061355 0.229388
-0.005426 0.060742 0.227075
-0.004191 0.058623 0.219135
-0.003090 0.057592 0.215266
-0.002052 0.057293 0.214136
-0.001037 0.057681 0.215576
-0.000008 0.058273 0.217778
0.001034 0.058412 0.218289
0.002083 0.058605 0.219004
0.003130 0.058647 0.219154
0.004210 0.059116 0.220904
0.005273 0.059209 0.221252
0.006362 0.059511 0.222380
0.007441 0.059648 0.222893
0.008541 0.059901 0.223844
0.009631 0.060030 0.224331
0.010729 0.060180 0.224899
0.011808 0.060206 0.225006
0.012991 0.060711 0.226903
0.014166 0.061107 0.228396
0.015378 0.061591 0.230222
0.016480 0.061600 0.230273
0.017612 0.061717 0.230726
0.018731 0.061773 0.230953
0.019859 0.061851 0.231268
0.020984 0.061913 0.231523
0.022137 0.062047 0.232046
0.023270 0.062114 0.232322
0.024443 0.062277 0.232957
0.025584 0.062347 0.233249
0.026742 0.062451 0.233668
0.027923 0.062599 0.234252
0.029180 0.062897 0.235400
0.030324 0.062940 0.235594
0.031463 0.062971 0.235743
0.032820 0.063420 0.237458
0.034223 0.063924 0.239381
0.035448 0.064075 0.239985
0.036658 0.064190 0.240453
0.037832 0.064236 0.240661
0.038962 0.064207 0.240594
0.040209 0.064366 0.241229
0.041388 0.064412 0.241441
0.043026 0.065150 0.244246
0.044256 0.065246 0.244649
0.045651 0.065575 0.245924
0.046637 0.065315 0.244990
0.047926 0.065481 0.245652
0.049258 0.065697 0.246501
0.050578 0.065887 0.247256
0.051856 0.066015 0.247777
0.053409 0.066479 0.249559
0.054731 0.066642 0.250210
0.056227 0.067004 0.251611
0.057503 0.067096 0.251992
0.058721 0.067116 0.252107
0.060075 0.067289 0.252793
0.061345 0.067363 0.253106
0.062827 0.067662 0.254263
0.064239 0.067875 0.255096
0.065471 0.067894 0.255199
0.066763 0.067973 0.255528
0.068221 0.068215 0.256465
0.069660 0.068430 0.257302
0.070997 0.068539 0.257736
0.072576 0.068874 0.259016
0.073697 0.068770 0.258646
0.074903 0.068748 0.258579
0.076235 0.068841 0.258942
0.077422 0.068801 0.258805
0.078556 0.068716 0.258493
0.079803 0.068730 0.258555
0.081022 0.068722 0.258525
0.081968 0.068484 0.257632
0.081448 0.067047 0.252222
0.081565 0.066169 0.248909
0.082265 0.065781 0.247439
0.083550 0.065866 0.247744
0.084440 0.065641 0.246879
0.085248 0.065360 0.245800
0.086100 0.065119 0.244868
0.086878 0.064830 0.243748
0.087772 0.064633 0.242971
0.088451 0.064285 0.241625
0.089324 0.064086 0.240830
0.090154 0.063860 0.239932
0.090929 0.063603 0.238910
0.091781 0.063404 0.238104
0.092616 0.063198 0.237266
0.093460 0.063004 0.236466
0.094326 0.062829 0.235733
0.095154 0.062633 0.234914
0.096027 0.062471 0.234217
0.096730 0.062203 0.233120
0.097612 0.062055 0.232464
0.098042 0.061626 0.230750
0.098762 0.061387 0.229741
0.098593 0.060607 0.226702
0.099228 0.060332 0.225548
0.099130 0.059622 0.222763
0.098765 0.058769 0.219437
0.099166 0.058385 0.217856
0.099747 0.058113 0.216690
0.100570 0.057986 0.216057
0.101286 0.057801 0.215198
0.101861 0.057541 0.214052
0.102615 0.057385 0.213286
0.103309 0.057199 0.212400
0.104178 0.057113 0.211877
0.104879 0.056937 0.211011
0.105642 0.056797 0.210270
0.106415 0.056666 0.209551
0.107212 0.056550 0.208877
0.107949 0.056404 0.208084
0.108887 0.056365 0.207674
0.109758 0.056292 0.207127
-1.062013 0.542147 1.974896
-1.072240 0.552287 2.014407
-1.068735 0.555474 2.028504
-1.050489 0.550988 2.014464
-1.047710 0.554607 2.029948
-1.039108 0.555183 2.034207
-0.910265 0.490921 1.800565
-0.899862 0.489923 1.798628
-0.894055 0.491432 1.805815
-0.880545 0.488695 1.797317
-1.575850 0.883140 3.250680
-1.562230 0.884158 3.256972
-1.528786 0.873866 3.221442
-1.525249 0.880633 3.248666
-1.507113 0.879024 3.244883
-1.487491 0.876507 3.237616
-1.471914 0.876346 3.238932
-1.453816 0.874666 3.234517
-1.440336 0.875758 3.240247
-0.966533 0.593983 2.198773
-0.959310 0.595941 2.207031
-0.945129 0.593572 2.199199
-0.935962 0.594335 2.202903
-1.427340 0.926925 3.438090
-1.391953 0.914318 3.392396
-1.387733 0.922129 3.422366
-0.715789 0.486938 1.808120
-0.695659 0.478938 1.778795
-0.681326 0.474782 1.763700
-0.678285 0.478489 1.777777
-0.332214 0.275055 1.022532
-0.322290 0.270758 1.006501
-0.314780 0.268391 0.997634
-0.309358 0.267759 0.995205
-0.304969 0.268016 0.996070
-0.300470 0.268183 0.996585
-0.295704 0.268114 0.996212
-0.291012 0.268110 0.996073
-0.286379 0.268162 0.996131
-0.281662 0.268136 0.995887
-0.276959 0.268123 0.995683
-0.272298 0.268150 0.995622
-0.267053 0.267594 0.993388
-0.261795 0.267005 0.991023
-0.256223 0.266068 0.987360
-0.251880 0.266396 0.988389
-0.244184 0.263124 0.976055
-0.236587 0.259836 0.963658
-0.153769 0.182938 0.677877
-0.149594 0.181754 0.673336
-0.146031 0.181278 0.671418
-0.142603 0.180954 0.670059
-0.138571 0.179829 0.665738
-0.134039 0.177990 0.658772
-0.130499 0.177411 0.656475
-0.127147 0.177066 0.655040
-0.123035 0.175619 0.649529
-0.119326 0.174689 0.645934
-0.126318 0.189788 0.701593
-0.123118 0.189974 0.702111
-0.120527 0.191138 0.706244
-0.117474 0.191615 0.707836
-0.114566 0.192364 0.710433
-0.111067 0.192134 0.709417
-0.107264 0.191350 0.706355
-0.103342 0.190296 0.702301
-0.099660 0.189628 0.699676
-0.095084 0.187156 0.690396
-0.090596 0.184686 0.681133
-0.086134 0.182088 0.671402
-0.082250 0.180560 0.665627
-0.078653 0.179565 0.661817
-0.075163 0.178743 0.658650
-0.071288 0.176894 0.651703
-0.025287 0.068718 0.253068
-0.023868 0.068103 0.250756
-0.022559 0.067754 0.249426
-0.021210 0.067239 0.247485
-0.020041 0.067268 0.247552
-0.018819 0.067111 0.246931
-0.017549 0.066751 0.245571
-0.016396 0.066816 0.245770
-0.015123 0.066365 0.244076
-0.013939 0.066263 0.243667
-0.012442 0.064523 0.237239
-0.011161 0.063660 0.234036
-0.009951 0.063061 0.231809
-0.008865 0.063194 0.232271
-0.007738 0.063038 0.231675
-0.006561 0.062349 0.229120
-0.005436 0.061973 0.227719
-0.004321 0.061560 0.226184
-0.003107 0.058991 0.216732
-0.002056 0.058494 0.214893
-0.001024 0.058085 0.213379
-0.000006 0.058781 0.215923
0.001034 0.059295 0.217805
0.002083 0.059591 0.218886
0.003144 0.059898 0.220007
0.004204 0.060047 0.220550
0.005274 0.060241 0.221263
0.006366 0.060584 0.222523
0.007461 0.060856 0.223525
0.008543 0.060959 0.223908
0.009631 0.061086 0.224379
0.010717 0.061171 0.224699
0.011822 0.061338 0.225321
0.012933 0.061508 0.225953
0.014085 0.061831 0.227152
0.015228 0.062070 0.228046
0.016382 0.062319 0.228977
0.017536 0.062535 0.229786
0.018655 0.062611 0.230084
0.019779 0.062692 0.230401
0.020915 0.062801 0.230823
0.022044 0.062879 0.231133
0.023290 0.063269 0.232592
0.024430 0.063348 0.232905
0.025589 0.063466 0.233366
0.026748 0.063573 0.233791
0.028007 0.063900 0.235023
0.029171 0.063994 0.235397
0.030357 0.064127 0.235919
0.031582 0.064331 0.236702
0.032805 0.064517 0.237418
0.033998 0.064632 0.237876
0.035264 0.064874 0.238803
0.036485 0.065022 0.239382
0.037690 0.065131 0.239822
0.038934 0.065301 0.240483
0.040102 0.065335 0.240648
0.041388 0.065556 0.241499
0.042893 0.066103 0.243552
0.044158 0.066258 0.244164
0.045408 0.066386 0.244675
0.046712 0.066583 0.245439
0.047890 0.066595 0.245523
0.049185 0.066766 0.246190
0.050627 0.067124 0.247549
0.051960 0.067323 0.248321
0.053322 0.067550 0.249199
0.054727 0.067822 0.250240
0.055996 0.067916 0.250624
0.057306 0.068055 0.251171
0.058714 0.068303 0.252121
0.060052 0.068460 0.252737
0.061421 0.068645 0.253454
0.062792 0.068827 0.254155
0.063975 0.068799 0.254083
0.065452 0.069082 0.255156
0.066860 0.069283 0.255926
0.068168 0.069375 0.256293
0.069451 0.069439 0.256554
0.070799 0.069565 0.257039
0.072215 0.069751 0.257748
0.073646 0.069946 0.258486
0.074817 0.069892 0.258298
0.076029 0.069876 0.258252
0.077296 0.069912 0.258393
0.078483 0.069874 0.258258
0.079608 0.069783 0.257928
0.080799 0.069752 0.257812
0.081795 0.069556 0.257084
0.080850 0.067740 0.250364
0.081485 0.067281 0.248657
0.082405 0.067066 0.247850
0.083694 0.067154 0.248158
0.084543 0.066892 0.247165
0.085459 0.066688 0.246387
0.086260 0.066401 0.245298
0.087130 0.066175 0.244426
0.089121 0.066794 0.246675
0.088570 0.065518 0.241917
0.089113 0.065072 0.240224
0.089786 0.064732 0.238914
0.090838 0.064670 0.238629
0.091453 0.064302 0.237208
0.092385 0.064164 0.236628
0.093229 0.063968 0.235832
0.094080 0.063781 0.235065
0.094745 0.063475 0.233848
0.095526 0.063252 0.232936
0.096356 0.063066 0.232154
0.097089 0.062822 0.231150
0.097822 0.062583 0.230161
0.098281 0.062176 0.228547
0.098673 0.061736 0.226807
0.099161 0.061365 0.225314
0.098705 0.060424 0.221724
0.098683 0.059766 0.219169
0.099124 0.059399 0.217674
0.099588 0.059054 0.216251
0.100358 0.058895 0.215505
0.101157 0.058756 0.214826
0.101663 0.058452 0.213531
0.102379 0.058273 0.212688
0.103245 0.058182 0.212157
0.104007 0.058034 0.211412
0.104792 0.057903 0.210714
0.105683 0.057831 0.210227
0.106300 0.057613 0.209194
0.107058 0.057474 0.208442
0.107692 0.057272 0.207450
0.108644 0.057241 0.207066
0.109496 0.057158 0.206485
-1.085999 0.564125 2.018128
-1.077322 0.564646 2.022628
-1.067947 0.564809 2.025730
-1.054676 0.562895 2.021265
-1.050199 0.565684 2.033582
-0.928145 0.504602 1.815959
-0.906749 0.497610 1.792641
-0.898211 0.497609 1.794395
-0.895269 0.500738 1.807365
-0.878425 0.496077 1.792131
-0.870888 0.496632 1.795652
-1.561194 0.899083 3.253381
-1.521208 0.884798 3.204124
-1.512866 0.888818 3.220997
-1.506091 0.893849 3.241435
-1.478184 0.886313 3.216179
-1.469724 0.890404 3.232985
-1.462165 0.895132 3.252015
-1.448587 0.896237 3.257783
-0.962630 0.601970 2.189241
-0.960239 0.606990 2.208545
-0.944169 0.603379 2.196381
-0.936318 0.604999 2.203189
-1.440439 0.941176 3.428742
-1.426117 0.942390 3.434391
-1.392464 0.930711 3.392948
-0.715136 0.495035 1.806179
-0.697976 0.488969 1.784456
-0.688726 0.488364 1.782618
-0.681242 0.489012 1.785314
-0.330600 0.278525 1.017601
-0.321243 0.274617 1.003279
-0.314266 0.272658 0.996065
-0.309461 0.272552 0.995609
-0.304746 0.272523 0.995422
-0.300145 0.272598 0.995601
-0.295348 0.272494 0.995118
-0.290657 0.272486 0.994974
-0.285989 0.272501 0.994901
-0.280908 0.272116 0.993361
-0.276251 0.272135 0.993287
-0.270993 0.271553 0.991011
-0.265534 0.270746 0.987908
-0.260655 0.270512 0.986888
-0.254730 0.269164 0.981797
-0.248965 0.267940 0.977151
-0.244655 0.268264 0.978150
-0.237834 0.265795 0.968957
-0.153783 0.186170 0.678117
-0.148172 0.183191 0.667122
-0.146027 0.184460 0.671593
-0.141176 0.182291 0.663548
-0.136854 0.180724 0.657692
-0.132238 0.178686 0.650127
-0.128582 0.177879 0.647041
-0.125141 0.177337 0.644921
-0.121747 0.176837 0.642953
-0.118605 0.176687 0.642256
-0.125207 0.191427 0.695673
-0.122033 0.191613 0.696186
-0.120696 0.194773 0.707501
-0.117168 0.194478 0.706264
-0.114679 0.195941 0.711416
-0.111090 0.195556 0.709854
-0.106618 0.193544 0.702391
-0.102500 0.192068 0.696873
-0.098888 0.191472 0.694556
-0.094969 0.190220 0.689862
-0.090530 0.187801 0.680941
-0.085770 0.184513 0.668876
-0.081260 0.181530 0.657923
-0.076908 0.178675 0.647442
-0.073736 0.178440 0.646459
-0.071170 0.179713 0.650944
-0.025019 0.069190 0.250520
-0.023843 0.069232 0.250624
-0.022440 0.068585 0.248238
-0.021189 0.068358 0.247376
-0.019954 0.068157 0.246606
-0.018776 0.068140 0.246505
-0.017515 0.067798 0.245231
-0.016294 0.067578 0.244397
-0.015069 0.067301 0.243364
-0.013742 0.066486 0.240382
-0.012452 0.065718 0.237576
-0.011231 0.065200 0.235673
-0.009946 0.064154 0.231866
-0.008831 0.064077 0.231566
-0.007704 0.063881 0.230833
-0.006554 0.063399 0.229071
-0.005443 0.063167 0.228214
-0.004313 0.062554 0.225981
-0.003180 0.061478 0.222079
-0.002047 0.059348 0.214371
-0.001026 0.059376 0.214460
-0.000003 0.059634 0.215382
0.001029 0.059895 0.216316
0.002077 0.060397 0.218125
0.003131 0.060645 0.219016
0.004183 0.060761 0.219429
0.005253 0.061031 0.220402
0.006346 0.061432 0.221853
0.008518 0.061829 0.223290
0.009616 0.062038 0.224051
0.010713 0.062202 0.224649
0.011788 0.062219 0.224717
0.012875 0.062293 0.224997
0.013964 0.062363 0.225260
0.015326 0.063552 0.229567
0.016447 0.063650 0.229936
0.017535 0.063619 0.229841
0.018660 0.063715 0.230206
0.019792 0.063825 0.230622
0.020902 0.063854 0.230749
0.022041 0.063965 0.231171
0.023236 0.064219 0.232113
0.024420 0.064423 0.232874
0.025560 0.064497 0.233167
0.026708 0.064585 0.233511
0.027905 0.064777 0.234235
0.029224 0.065228 0.235893
0.030434 0.065412 0.236590
0.031596 0.065482 0.236874
0.032783 0.065596 0.237320
0.034017 0.065796 0.238076
0.035185 0.065858 0.238335
0.036423 0.066043 0.239037
0.037612 0.066130 0.239387
0.038881 0.066350 0.240218
0.040166 0.066582 0.241095
0.041577 0.067005 0.242662
0.042857 0.067199 0.243403
0.044135 0.067380 0.244096
0.045432 0.067580 0.244857
0.046596 0.067577 0.244882
0.047916 0.067795 0.245711
0.049237 0.068004 0.246504
0.050596 0.068254 0.247447
0.051934 0.068465 0.248248
0.053195 0.068567 0.248655
0.054558 0.068794 0.249511
0.055997 0.069104 0.250671
0.057347 0.069294 0.251395
0.058622 0.069387 0.251764
0.059949 0.069537 0.252342
0.061249 0.069649 0.252779
0.062626 0.069845 0.253518
0.064301 0.070357 0.255407
0.065523 0.070365 0.255461
0.066827 0.070459 0.255826
0.068193 0.070613 0.256411
0.069514 0.070717 0.256808
0.070752 0.070734 0.256887
0.072039 0.070797 0.257134
0.073310 0.070844 0.257318
0.074628 0.070934 0.257657
0.075903 0.070980 0.257832
0.077183 0.071030 0.258019
0.078368 0.070992 0.257885
0.079525 0.070929 0.257657
0.080690 0.070876 0.257461
0.081669 0.070663 0.256682
0.081408 0.069400 0.252083
0.081353 0.068346 0.248240
0.082305 0.068156 0.247534
0.083614 0.068263 0.247902
0.084422 0.067963 0.246789
0.085310 0.067736 0.245935
0.085873 0.067260 0.244171
0.086603 0.066925 0.242919
0.087461 0.066697 0.242050
0.088134 0.066336 0.240692
0.088836 0.066005 0.239440
0.089696 0.065799 0.238635
0.090361 0.065456 0.237330
0.091247 0.065280 0.236626
0.092144 0.065116 0.235959
0.092880 0.064843 0.234893
0.093607 0.064571 0.233825
0.094611 0.064494 0.233456
0.095365 0.064250 0.232478
0.096149 0.064032 0.231588
0.097247 0.064025 0.231455
0.097661 0.063573 0.229708
0.098226 0.063228 0.228341
0.098598 0.062769 0.226554
0.099378 0.062575 0.225722
0.099479 0.061964 0.223375
0.099215 0.061140 0.220258
0.098930 0.060320 0.217154
0.099531 0.060052 0.216029
0.100337 0.059913 0.215360
0.100772 0.059557 0.213903
0.101639 0.059460 0.213371
0.102422 0.059317 0.212663
0.102938 0.059023 0.211408
0.103612 0.058826 0.210488
0.104481 0.058741 0.209965
0.105417 0.058695 0.209567
0.106071 0.058495 0.208610
0.106850 0.058366 0.207899
0.107692 0.058274 0.207305
0.108471 0.058150 0.206589
0.109363 0.058088 0.206080
-1.077017 0.574226 2.020681
-1.070722 0.576047 2.029664
-1.045173 0.567448 2.001789
-1.049622 0.575128 2.031229
-0.921913 0.509861 1.802710
-0.906193 0.505885 1.790534
-0.889837 0.501475 1.776705
-0.893874 0.508584 1.803612
-0.879202 0.505082 1.792823
-0.864978 0.501772 1.782613
-1.544811 0.904998 3.217764
-1.531285 0.906027 3.223933
-1.522161 0.909708 3.239424
-1.502753 0.907256 3.232952
-1.476813 0.900770 3.211965
-1.465897 0.903408 3.223387
-1.445923 0.900461 3.214770
