ply
format ascii 1.0
element vertex 1745
property float x
property float y
property float z
end_header
-0.068071 0.111392 0.643541
-0.065257 0.111859 0.646058
-0.062357 0.112218 0.647953
-0.059521 0.112736 0.650771
-0.056525 0.112991 0.652074
-0.053432 0.113072 0.652386
-0.050396 0.113291 0.653496
-0.047309 0.113416 0.654071
-0.044029 0.113064 0.651900
-0.040804 0.112812 0.650317
-0.037435 0.112087 0.646008
-0.034252 0.111839 0.644463
-0.031094 0.111627 0.643135
-0.027848 0.111022 0.639550
-0.024629 0.110388 0.635804
-0.022024 0.112720 0.649148
-0.001373 0.047283 0.272150
-0.000061 0.046297 0.266457
0.001220 0.046172 0.265731
0.002501 0.046193 0.265843
0.003725 0.045495 0.261822
0.004928 0.044955 0.258714
0.006273 0.045669 0.262828
0.007468 0.045235 0.260338
0.008010 0.041539 0.239075
0.009753 0.044216 0.254493
0.009844 0.039643 0.228185
0.010911 0.039524 0.227517
0.011985 0.039450 0.227111
0.013146 0.039651 0.228285
0.014595 0.040622 0.233901
0.015822 0.040882 0.235425
0.016850 0.040624 0.233969
0.017995 0.040664 0.234233
0.019154 0.040730 0.234649
0.020311 0.040782 0.234987
0.021486 0.040866 0.235508
0.022785 0.041163 0.237265
0.024118 0.041490 0.239196
0.025286 0.041517 0.239394
0.026485 0.041591 0.239871
0.027731 0.041728 0.240717
0.028976 0.041853 0.241489
0.030206 0.041947 0.242086
0.031401 0.041988 0.242381
0.032610 0.042044 0.242766
0.033905 0.042203 0.243746
0.035221 0.042375 0.244805
0.036440 0.042425 0.245158
0.037734 0.042555 0.245976
0.039060 0.042713 0.246958
0.040524 0.043008 0.248732
0.041786 0.043077 0.249206
0.042959 0.043054 0.249146
0.044244 0.043140 0.249718
0.045515 0.043209 0.250192
0.046828 0.043313 0.250872
0.047999 0.043284 0.250779
0.049430 0.043485 0.252024
0.050740 0.043573 0.252609
0.052051 0.043657 0.253173
0.053371 0.043744 0.253760
0.054729 0.043859 0.254504
0.056031 0.043923 0.254958
0.057366 0.044011 0.255549
0.058770 0.044147 0.256416
0.060072 0.044202 0.256816
0.061445 0.044306 0.257498
0.062833 0.044417 0.258223
0.064236 0.044533 0.258976
0.065518 0.044563 0.259228
0.066853 0.044627 0.259677
0.068303 0.044764 0.260552
0.069729 0.044881 0.261305
0.070944 0.044860 0.261255
0.072338 0.044951 0.261858
0.073693 0.045015 0.262301
0.075075 0.045093 0.262824
0.076457 0.045169 0.263333
0.077784 0.045210 0.263637
0.079002 0.045187 0.263564
0.080375 0.045252 0.264006
0.081687 0.045282 0.264236
0.082879 0.045244 0.264074
0.084053 0.045199 0.263858
0.085227 0.045154 0.263649
0.086377 0.045098 0.263368
0.087764 0.045167 0.263809
0.089560 0.045440 0.265444
0.090416 0.045236 0.264285
0.091732 0.045263 0.264480
0.092443 0.044996 0.262947
0.092864 0.044597 0.260635
0.092056 0.043625 0.254976
0.092683 0.043350 0.253383
0.093333 0.043093 0.251888
0.094284 0.042980 0.251231
0.095095 0.042806 0.250215
0.095662 0.042528 0.248587
0.096163 0.042228 0.246822
0.096845 0.042013 0.245552
0.097746 0.041898 0.244858
0.098655 0.041789 0.244192
0.099615 0.041703 0.243662
0.100549 0.041609 0.243073
0.101684 0.041599 0.242971
0.102537 0.041475 0.242197
0.103467 0.041384 0.241613
0.104222 0.041227 0.240632
0.104976 0.041072 0.239659
0.105759 0.040932 0.238768
0.105896 0.040547 0.236441
0.106494 0.040346 0.235177
0.107390 0.040260 0.234578
0.108043 0.040085 0.233459
0.108627 0.039889 0.232205
0.109213 0.039698 0.230972
0.109875 0.039537 0.229911
0.110458 0.039352 0.228698
0.111029 0.039166 0.227475
0.111634 0.038996 0.226332
0.112154 0.038799 0.225029
0.112843 0.038664 0.224077
0.113457 0.038506 0.222983
0.114115 0.038366 0.221980
0.114421 0.038111 0.220307
0.115455 0.038101 0.220041
-1.683995 0.558043 3.160981
-1.670754 0.558633 3.167173
-1.659037 0.559748 3.176201
-1.644408 0.559892 3.179578
-1.633252 0.561232 3.189612
-1.616504 0.560658 3.188633
-1.601862 0.560811 3.191652
-1.594198 0.563433 3.208602
-1.581201 0.564203 3.214892
-0.953646 0.343577 1.958823
-0.940827 0.342275 1.952412
-0.931224 0.342130 1.952520
-0.922566 0.342332 1.954543
-0.914104 0.342612 1.956946
-0.905436 0.342820 1.958874
-0.897297 0.343234 1.961920
-0.887672 0.343083 1.961674
-0.883281 0.344973 1.973043
-0.883444 0.348701 1.994871
-0.915102 0.365073 2.089010
-0.921799 0.371736 2.127558
-0.918603 0.374510 2.143809
-0.908465 0.374485 2.143981
-0.801114 0.333937 1.912071
-0.788367 0.332352 1.903177
-0.772931 0.329584 1.887464
-0.769881 0.332094 1.901935
-0.760090 0.331721 1.899856
-0.739900 0.326747 1.871383
-1.284980 0.574286 3.289067
-1.271523 0.575190 3.294135
-1.253767 0.574148 3.287992
-1.262672 0.585441 3.352425
-0.815120 0.403085 2.306761
-0.801075 0.401484 2.297203
-0.795595 0.404191 2.312259
-0.785272 0.404478 2.313438
-0.606800 0.335836 1.918538
-0.587857 0.330273 1.886241
-0.582724 0.332418 1.897952
-0.253026 0.183888 1.044914
-0.247432 0.183413 1.041820
-0.242108 0.183123 1.039778
-0.238001 0.183760 1.042997
-0.232782 0.183548 1.041394
-0.227767 0.183490 1.040665
-0.222748 0.183428 1.039909
-0.217654 0.183299 1.038780
-0.212298 0.182940 1.036341
-0.206762 0.182403 1.032904
-0.201260 0.181872 1.029502
-0.194731 0.180364 1.020571
-0.185825 0.176519 0.998439
-0.166044 0.166238 0.939579
-0.160612 0.165258 0.933691
-0.107779 0.120959 0.682656
-0.102483 0.118601 0.669113
-0.101390 0.121114 0.683052
-0.096194 0.118729 0.669371
-0.091862 0.117284 0.661001
-0.088206 0.116629 0.657091
-0.084371 0.115682 0.651541
-0.081162 0.115552 0.650602
-0.077997 0.115478 0.649983
-0.074938 0.115560 0.650248
-0.072040 0.115910 0.652024
-0.069185 0.116363 0.654385
-0.066299 0.116806 0.656691
-0.063393 0.117254 0.659034
-0.060457 0.117693 0.661327
-0.057320 0.117767 0.661579
-0.054133 0.117743 0.661282
-0.051026 0.117899 0.662008
-0.047770 0.117709 0.660791
-0.044575 0.117655 0.660351
-0.041319 0.117419 0.658894
-0.037960 0.116824 0.655430
-0.034817 0.116852 0.655472
-0.031512 0.116283 0.652171
-0.028269 0.115845 0.649612
-0.025307 0.116595 0.653724
-0.021992 0.115701 0.648624
-0.019155 0.117442 0.658304
-0.001352 0.047914 0.268457
-0.000059 0.047709 0.267300
0.001223 0.047493 0.266076
0.002494 0.047287 0.264918
0.003759 0.047151 0.264151
0.005029 0.047126 0.264010
0.006267 0.046877 0.262615
0.007461 0.046431 0.260127
0.008620 0.045932 0.257339
0.009742 0.045385 0.254288
0.010921 0.045194 0.253228
0.010949 0.040756 0.228380
0.012095 0.040912 0.229271
0.013176 0.040838 0.228875
0.015445 0.044175 0.247608
0.016650 0.044207 0.247815
0.017662 0.043758 0.245324
0.018047 0.041909 0.234993
0.019172 0.041895 0.234946
0.020330 0.041948 0.235283
0.021501 0.042024 0.235750
0.022767 0.042268 0.237155
0.024070 0.042553 0.238802
0.025260 0.042621 0.239230
0.026433 0.042656 0.239475
0.027661 0.042774 0.240189
0.028912 0.042916 0.241036
0.030094 0.042948 0.241273
0.031319 0.043037 0.241827
0.032559 0.043140 0.242465
0.033809 0.043247 0.243130
0.035133 0.043440 0.244276
0.036379 0.043526 0.244825
0.037593 0.043570 0.245137
0.038859 0.043670 0.245767
0.040287 0.043940 0.247355
0.041710 0.044189 0.248828
0.042966 0.044253 0.249260
0.044230 0.044321 0.249715
0.045526 0.044417 0.250328
0.046794 0.044481 0.250764
0.048112 0.044587 0.251439
0.049360 0.044626 0.251734
0.050694 0.044739 0.252446
0.051986 0.044810 0.252925
0.053279 0.044878 0.253388
0.054605 0.044971 0.253989
0.056020 0.045131 0.254974
0.057263 0.045149 0.255152
0.058528 0.045183 0.255419
0.060111 0.045456 0.257040
0.061495 0.045570 0.257765
0.062944 0.045728 0.258733
0.064138 0.045697 0.258638
0.065461 0.045758 0.259056
0.066789 0.045819 0.259480
0.068153 0.045903 0.260030
0.069580 0.046026 0.260796
0.071008 0.046144 0.261536
0.072457 0.046272 0.262334
0.073681 0.046254 0.262299
0.074922 0.046248 0.262330
0.076311 0.046331 0.262866
0.077569 0.046333 0.262942
0.078906 0.046382 0.263279
0.080255 0.046437 0.263645
0.081464 0.046409 0.263545
0.082697 0.046396 0.263523
0.083955 0.046397 0.263579
0.085123 0.046349 0.263350
0.086273 0.046293 0.263076
0.087585 0.046324 0.263292
0.089357 0.046593 0.264859
0.091096 0.046839 0.266289
0.092448 0.046881 0.266560
0.093223 0.046633 0.265177
0.092340 0.045574 0.259173
0.091577 0.044601 0.253656
0.091611 0.044036 0.250457
0.092433 0.043861 0.249463
0.093626 0.043863 0.249478
0.094478 0.043707 0.248590
0.095297 0.043540 0.247633
0.096115 0.043377 0.246693
0.097052 0.043270 0.246069
0.097832 0.043097 0.245062
0.098644 0.042942 0.244153
0.099629 0.042865 0.243680
0.100549 0.042762 0.243055
0.101332 0.042604 0.242109
0.102153 0.042465 0.241267
0.103093 0.042378 0.240716
0.103868 0.042226 0.239788
0.104507 0.042022 0.238559
0.105329 0.041895 0.237764
0.106007 0.041715 0.236656
0.106313 0.041394 0.234740
0.107298 0.041340 0.234339
0.107865 0.041129 0.233032
0.108291 0.040868 0.231444
0.108878 0.040673 0.230218
0.109495 0.040493 0.229069
0.110134 0.040324 0.227976
0.110596 0.040095 0.226534
0.111204 0.039922 0.225404
0.111834 0.039761 0.224330
0.112488 0.039611 0.223311
0.113196 0.039483 0.222406
0.113956 0.039374 0.221605
0.114771 0.039287 0.220913
0.115086 0.039032 0.219265
-1.678855 0.571367 3.150346
-1.666735 0.572341 3.158609
-1.647080 0.570723 3.152409
-1.634376 0.571506 3.159320
-1.625062 0.573500 3.172795
-1.618046 0.576350 3.190889
-1.593398 0.572914 3.174046
-1.593421 0.578369 3.206330
-0.954929 0.353330 1.961070
-0.939035 0.350849 1.948330
-0.932672 0.351916 1.955213
-0.917740 0.349738 1.944001
-0.911575 0.350891 1.951236
-0.905530 0.352115 1.958801
-0.896870 0.352336 1.960731
-0.886114 0.351730 1.957996
-0.878849 0.352512 1.962928
-0.883724 0.358232 1.995308
-0.915517 0.375103 2.089775
-0.925206 0.383186 2.135255
-0.921670 0.385909 2.150820
-0.909448 0.385015 2.146176
-0.900736 0.385604 2.149741
-0.785962 0.340286 1.897297
-0.773637 0.338793 1.889132
-0.769208 0.340764 1.900235
-0.757082 0.339331 1.892318
-0.749355 0.339860 1.895296
-1.252849 0.589222 3.285674
-0.820151 0.416526 2.321186
-0.808124 0.415955 2.317624
-0.801863 0.418377 2.330705
-0.787850 0.416765 2.321279
-0.596836 0.339242 1.887315
-0.590729 0.340850 1.895756
-0.582205 0.341091 1.896572
-0.253411 0.189143 1.046794
-0.248180 0.188936 1.045264
-0.242846 0.188642 1.043247
-0.237905 0.188648 1.042884
-0.232683 0.188426 1.041266
-0.227562 0.188278 1.040054
-0.222492 0.188167 1.039046
-0.217509 0.188126 1.038427
-0.212024 0.187640 1.035348
-0.206466 0.187064 1.031779
-0.200752 0.186315 1.027260
-0.193374 0.183946 1.013817
-0.188773 0.184165 1.014644
-0.170675 0.170883 0.941116
-0.165851 0.170533 0.938843
-0.157625 0.166568 0.916677
-0.153423 0.166752 0.917356
-0.103256 0.122726 0.674441
-0.099674 0.122283 0.671770
-0.096542 0.122380 0.672080
-0.091880 0.120478 0.661410
-0.087949 0.119433 0.655462
-0.084668 0.119228 0.654125
-0.081363 0.118971 0.652509
-0.078304 0.119068 0.652842
-0.075328 0.119303 0.653936
-0.072395 0.119632 0.655548
-0.069447 0.119964 0.657180
-0.066814 0.120898 0.662116
-0.063703 0.121017 0.662591
-0.060678 0.121321 0.664083
-0.057721 0.121802 0.666553
-0.054501 0.121754 0.666127
-0.051242 0.121604 0.665155
-0.048104 0.121744 0.665779
-0.044906 0.121741 0.665621
-0.041690 0.121683 0.665173
-0.038405 0.121399 0.663494
-0.035191 0.121310 0.662890
-0.032088 0.121624 0.664500
-0.028691 0.120771 0.659735
-0.025308 0.119769 0.654170
-0.022523 0.121720 0.664736
-0.019125 0.120457 0.657760
-0.016085 0.121387 0.662764
-0.001345 0.049042 0.267684
-0.000056 0.048716 0.265890
0.001221 0.048600 0.265248
0.002493 0.048500 0.264693
0.003762 0.048431 0.264314
0.005021 0.048308 0.263642
0.006229 0.047832 0.261046
0.007375 0.047122 0.257178
0.008552 0.046790 0.255375
0.009716 0.046472 0.253648
0.010880 0.046228 0.252333
0.012005 0.045885 0.250478
0.013159 0.045704 0.249508
0.014371 0.045739 0.249720
0.015603 0.045825 0.250216
0.016732 0.045619 0.249121
0.017878 0.045484 0.248413
0.018688 0.044563 0.243412
0.019328 0.043370 0.236933
0.020294 0.043001 0.234953
0.021431 0.043012 0.235053
0.022646 0.043173 0.235971
0.024048 0.043657 0.238658
0.025224 0.043705 0.238968
0.026430 0.043800 0.239534
0.027635 0.043883 0.240037
0.028805 0.043907 0.240222
0.030015 0.043989 0.240722
0.031230 0.044070 0.241222
0.032466 0.044174 0.241851
0.033729 0.044306 0.242630
0.035021 0.044468 0.243577
0.036232 0.044517 0.243912
0.037495 0.044626 0.244573
0.038788 0.044764 0.245392
0.040425 0.045278 0.248278
0.041737 0.045409 0.249067
0.042985 0.045465 0.249445
0.044194 0.045477 0.249582
0.045468 0.045555 0.250082
0.046800 0.045684 0.250864
0.048053 0.045733 0.251206
0.049382 0.045849 0.251918
0.050678 0.045930 0.252435
0.051885 0.045927 0.252497
0.053218 0.046034 0.253161
0.054403 0.046011 0.253111
0.055723 0.046101 0.253683
0.057092 0.046227 0.254450
0.058956 0.046739 0.257347
0.060233 0.046775 0.257622
0.061417 0.046739 0.257497
0.062747 0.046813 0.257977
0.064093 0.046896 0.258509
0.065355 0.046915 0.258689
0.066701 0.046992 0.259190
0.068081 0.047091 0.259803
0.069477 0.047196 0.260453
0.070891 0.047310 0.261153
0.072162 0.047326 0.261307
0.073489 0.047378 0.261660
0.074795 0.047414 0.261924
0.076072 0.047431 0.262080
0.077460 0.047516 0.262611
0.078857 0.047603 0.263149
0.080097 0.047594 0.263158
0.081340 0.047588 0.263175
0.082623 0.047604 0.263316
0.083915 0.047625 0.263480
0.085085 0.047577 0.263258
0.086195 0.047497 0.262857
0.087536 0.047546 0.263162
0.088627 0.047458 0.262713
0.089948 0.047495 0.262949
0.091072 0.047428 0.262604
0.092071 0.047299 0.261911
0.092311 0.046788 0.259100
0.092601 0.046316 0.256500
0.092742 0.045783 0.253555
0.093006 0.045322 0.251010
0.093527 0.044998 0.249214
0.094251 0.044778 0.247991
0.095012 0.044581 0.246888
0.095746 0.044375 0.245738
0.096740 0.044294 0.245269
0.097560 0.044136 0.244369
0.098569 0.044066 0.243952
0.099502 0.043965 0.243353
0.100483 0.043886 0.242876
0.101410 0.043786 0.242275
0.102233 0.043644 0.241435
0.103131 0.043537 0.240780
0.103313 0.043133 0.238478
0.104239 0.043045 0.237917
0.105096 0.042930 0.237206
0.105789 0.042752 0.236134
0.106306 0.042507 0.234686
0.107094 0.042375 0.233854
0.107979 0.042283 0.233236
0.108337 0.041988 0.231496
0.108631 0.041675 0.229647
0.109001 0.041398 0.227985
0.109142 0.041039 0.225870
0.110101 0.040992 0.225464
0.110742 0.040829 0.224409
0.111274 0.040629 0.223145
0.111904 0.040468 0.222088
0.112522 0.040306 0.221016
0.113402 0.040240 0.220459
0.114214 0.040151 0.219767
0.114750 0.039968 0.218550
-1.658996 0.579458 3.112064
-1.645177 0.579797 3.116781
-1.644252 0.584727 3.146057
-1.612686 0.578753 3.116506
-1.602427 0.580385 3.127754
-1.588615 0.580749 3.132042
-1.567120 0.578285 3.120935
-1.561456 0.581672 3.141280
-0.954434 0.362435 1.959649
-0.939509 0.360259 1.948934
-0.928927 0.359721 1.947007
-0.920199 0.359898 1.948876
-0.912470 0.360473 1.952839
-0.905227 0.361254 1.957853
-0.895794 0.361168 1.958109
-0.885866 0.360879 1.957201
-0.882739 0.363384 1.971388
-0.884869 0.368129 1.997682
-0.922790 0.388026 2.106177
-0.919999 0.391049 2.123057
-0.919401 0.395082 2.145365
-0.910650 0.395662 2.148873
-0.901917 0.396263 2.152443
-0.785162 0.348880 1.895284
-0.769953 0.346047 1.880073
-0.761481 0.346212 1.881102
-0.756446 0.347963 1.890702
-0.737456 0.343259 1.865191
-1.174005 0.559762 3.041590
-1.161517 0.560633 3.046221
-1.152799 0.563369 3.060919
-1.120541 0.554525 3.012651
-1.117974 0.560336 3.043947
-1.105390 0.561212 3.048378
-0.823581 0.429267 2.331074
-0.808134 0.426899 2.317856
-0.797159 0.426860 2.317251
-0.792319 0.430152 2.334691
-0.596306 0.347855 1.885914
-0.582266 0.344802 1.868886
-0.581675 0.349743 1.895158
-0.252525 0.193440 1.043424
-0.247166 0.193115 1.041292
-0.242220 0.193106 1.040863
-0.237662 0.193413 1.042133
-0.232440 0.193181 1.040497
-0.227325 0.193030 1.039298
-0.222275 0.192929 1.038369
-0.217229 0.192827 1.037432
-0.212429 0.192944 1.037674
-0.207240 0.192705 1.036005
-0.201692 0.192113 1.032433
-0.197018 0.192344 1.033293
-0.177850 0.178074 0.956284
-0.170475 0.175174 0.940364
-0.162327 0.171302 0.919243
-0.156613 0.169854 0.911143
-0.150285 0.167639 0.898944
-0.103130 0.125803 0.673894
-0.101758 0.128125 0.686103
-0.096503 0.125551 0.672095
-0.092575 0.124586 0.666706
-0.088482 0.123322 0.659732
-0.085004 0.122853 0.657016
-0.081998 0.123056 0.657899
-0.078786 0.122955 0.657160
-0.075940 0.123440 0.659558
-0.072883 0.123611 0.660282
-0.069905 0.123937 0.661837
-0.067113 0.124639 0.665405
-0.064080 0.124942 0.666848
-0.061063 0.125308 0.668634
-0.057986 0.125586 0.669952
-0.054849 0.125761 0.670724
-0.051622 0.125738 0.670452
-0.048352 0.125600 0.669574
-0.045169 0.125684 0.669883
-0.041926 0.125602 0.669313
-0.038681 0.125502 0.668661
-0.035495 0.125591 0.669017
-0.032231 0.125395 0.667861
-0.029031 0.125435 0.667971
-0.025770 0.125188 0.666565
-0.022574 0.125228 0.666691
-0.019442 0.125700 0.669122
-0.016058 0.124414 0.662203
-0.001341 0.050265 0.267457
-0.000054 0.050122 0.266681
0.001218 0.049693 0.264390
0.002482 0.049532 0.263525
0.003717 0.049089 0.261164
0.004941 0.048767 0.259453
0.006138 0.048354 0.257258
0.007339 0.048109 0.255960
0.008545 0.047968 0.255215
0.009748 0.047844 0.254567
0.010883 0.047449 0.252478
0.012006 0.047087 0.250572
0.013127 0.046783 0.248972
0.014289 0.046665 0.248365
0.015484 0.046665 0.248391
0.016630 0.046526 0.247675
0.017773 0.046398 0.247024
0.018829 0.046073 0.245327
0.019633 0.045206 0.240746
0.020611 0.044816 0.238701
0.021540 0.044365 0.236337
0.022676 0.044362 0.236362
0.023963 0.044642 0.237895
0.025160 0.044737 0.238445
0.026365 0.044837 0.239025
0.027554 0.044902 0.239421
0.028749 0.044970 0.239835
0.029908 0.044980 0.239941
0.031097 0.045032 0.240274
0.032365 0.045191 0.241177
0.033622 0.045324 0.241944
0.034929 0.045513 0.243014
0.036152 0.045583 0.243450
0.037410 0.045693 0.244098
0.038690 0.045821 0.244846
0.040501 0.046553 0.248823
0.041693 0.046551 0.248881
0.042935 0.046603 0.249227
0.044163 0.046637 0.249482
0.045400 0.046680 0.249778
0.046713 0.046796 0.250472
0.047972 0.046853 0.250850
0.049252 0.046928 0.251324
0.050530 0.046996 0.251764
0.051812 0.047066 0.252210
0.053124 0.047159 0.252781
0.054356 0.047178 0.252960
0.055600 0.047207 0.253187
0.056942 0.047315 0.253843
0.058029 0.047212 0.253362
0.059984 0.047804 0.256616
0.061297 0.047872 0.257053
0.062591 0.047922 0.257394
0.063904 0.047984 0.257800
0.065352 0.048144 0.258731
0.066589 0.048144 0.258804
0.068063 0.048313 0.259781
0.069321 0.048326 0.259917
0.070595 0.048349 0.260107
0.071935 0.048415 0.260530
0.073382 0.048550 0.261320
0.074627 0.048549 0.261378
0.075892 0.048561 0.261500
0.077293 0.048658 0.262081
0.078745 0.048783 0.262810
0.080132 0.048865 0.263305
0.081459 0.048908 0.263590
0.082733 0.048919 0.263694
0.084132 0.049002 0.264185
0.085182 0.048882 0.263583
0.086408 0.048865 0.263530
0.087836 0.048961 0.264085
0.089338 0.049095 0.264840
0.090247 0.048904 0.263838
0.090964 0.048616 0.262305
0.091399 0.048186 0.260009
0.092276 0.047998 0.259009
0.092389 0.047423 0.255917
0.092440 0.046831 0.252731
0.092969 0.046494 0.250912
0.093600 0.046215 0.249407
0.094241 0.045949 0.247961
0.095083 0.045785 0.247066
0.095828 0.045580 0.245940
0.096642 0.045411 0.245008
0.097507 0.045271 0.244224
0.098447 0.045168 0.243635
0.099309 0.045032 0.242862
0.100285 0.044950 0.242377
0.101241 0.044861 0.241849
0.101938 0.044661 0.240712
0.102773 0.044525 0.239914
0.103392 0.044299 0.238631
0.103895 0.044029 0.237099
0.104740 0.043908 0.236366
0.105438 0.043729 0.235311
0.106064 0.043524 0.234112
0.106566 0.043273 0.232657
0.107432 0.043173 0.232010
0.108135 0.043011 0.231016
0.108439 0.042694 0.229190
0.108172 0.042162 0.226198
0.108747 0.041964 0.224999
0.109760 0.041938 0.224708
0.110281 0.041727 0.223415
0.110905 0.041558 0.222342
0.111483 0.041375 0.221187
0.112200 0.041246 0.220313
0.113095 0.041185 0.219789
0.113557 0.040969 0.218430
0.114271 0.040846 0.217560
-1.635563 0.585913 3.067062
-1.629975 0.589161 3.086977
-1.614997 0.589043 3.089120
-1.596952 0.587794 3.085183
-1.589017 0.590277 3.100703
-1.569370 0.588416 3.093265
-1.550445 0.586794 3.086936
-1.560669 0.596277 3.138932
-0.943001 0.370864 1.955775
-0.931369 0.369909 1.951747
-0.917952 0.368219 1.943765
-0.912204 0.369602 1.951937
-0.904325 0.370142 1.955593
-0.895337 0.370234 1.956824
-0.885471 0.369962 1.956063
-0.878837 0.371048 1.962430
-0.873563 0.372738 1.971937
-0.932485 0.402150 2.128088
-0.928263 0.404673 2.141932
-0.920590 0.405731 2.147968
-0.907531 0.404411 2.141363
-0.897484 0.404420 2.141736
-0.781783 0.356280 1.887034
-0.771723 0.355731 1.884321
-0.763502 0.356027 1.886040
-0.756920 0.357102 1.891848
-0.743255 0.354823 1.879839
-1.176798 0.568550 3.012201
-1.164438 0.569427 3.016835
-1.157991 0.573254 3.037033
-1.131793 0.567277 3.005232
-1.116055 0.566458 3.000703
-1.115564 0.573456 3.037530
-1.082859 0.563861 2.986416
-1.070479 0.564737 2.990711
-0.816659 0.436568 2.311658
-0.803991 0.435594 2.306166
-0.794428 0.436299 2.309529
-0.786600 0.437991 2.318077
-0.574604 0.348985 1.844580
-0.252356 0.198265 1.043016
-0.246738 0.197722 1.039788
-0.241588 0.197540 1.038455
-0.237341 0.198103 1.041041
-0.232210 0.197937 1.039789
-0.227203 0.197873 1.039073
-0.222096 0.197716 1.037869
-0.217111 0.197664 1.037214
-0.212387 0.197852 1.037820
-0.207095 0.197507 1.035636
-0.201642 0.196989 1.032541
-0.196967 0.197224 1.033399
-0.175003 0.179717 0.941326
-0.170104 0.179275 0.938672
-0.159652 0.172799 0.904442
-0.154802 0.172195 0.900960
-0.150271 0.171923 0.899221
-0.103197 0.129114 0.674619
-0.102119 0.131878 0.688832
-0.097289 0.129821 0.677865
-0.092976 0.128336 0.669894
-0.089240 0.127570 0.665682
-0.085745 0.127104 0.663043
-0.082607 0.127153 0.663096
-0.079466 0.127200 0.663144
-0.076644 0.127783 0.665990
-0.073513 0.127880 0.666306
-0.070647 0.128467 0.669184
-0.067743 0.129040 0.671988
-0.064660 0.129310 0.673218
-0.061546 0.129544 0.674268
-0.058402 0.129738 0.675117
-0.055233 0.129897 0.675784
-0.052041 0.130016 0.676255
-0.048831 0.130106 0.676577
-0.045676 0.130365 0.677789
-0.042473 0.130515 0.678435
-0.039279 0.130721 0.679384
-0.036079 0.130946 0.680437
-0.032883 0.131231 0.681809
-0.029639 0.131366 0.682404
-0.026282 0.130971 0.680259
-0.023106 0.131496 0.682895
-0.019806 0.131374 0.682185
-0.016317 0.129698 0.673407
-0.000074 0.072537 0.376487
0.001746 0.072925 0.378482
0.002481 0.050732 0.263297
0.003736 0.050577 0.262487
0.004990 0.050489 0.262030
0.006185 0.049959 0.259282
0.007319 0.049194 0.255316
0.008485 0.048837 0.253472
0.009653 0.048576 0.252128
0.010833 0.048431 0.251387
0.012012 0.048307 0.250759
0.013159 0.048090 0.249653
0.014256 0.047742 0.247868
0.015329 0.047372 0.245971
0.016418 0.047102 0.244592
0.017508 0.046872 0.243429
0.018540 0.046523 0.241647
0.019619 0.046326 0.240655
0.020618 0.045973 0.238859
0.021621 0.045667 0.237305
0.022681 0.045504 0.236496
0.023756 0.045385 0.235921
0.025088 0.045747 0.237842
0.026176 0.045651 0.237392
0.027462 0.045894 0.238701
0.028630 0.045928 0.238928
0.029826 0.046001 0.239359
0.030992 0.046025 0.239538
0.032319 0.046279 0.240911
0.033607 0.046461 0.241918
0.034888 0.046621 0.242807
0.036143 0.046736 0.243467
0.037412 0.046862 0.244188
0.038646 0.046938 0.244645
0.039913 0.047049 0.245286
0.041303 0.047294 0.246629
0.042833 0.047680 0.248708
0.044040 0.047696 0.248864
0.045362 0.047832 0.249643
0.046649 0.047926 0.250201
0.047913 0.047991 0.250613
0.049180 0.048056 0.251022
0.050465 0.048136 0.251512
0.051779 0.048238 0.252118
0.053042 0.048289 0.252456
0.054305 0.048338 0.252784
0.055562 0.048380 0.253076
0.056932 0.048516 0.253857
0.058380 0.048712 0.254955
0.059984 0.049026 0.256674
0.061224 0.049037 0.256802
0.062580 0.049139 0.257405
0.064009 0.049292 0.258278
0.065270 0.049312 0.258455
0.066740 0.049487 0.259441
0.068070 0.049554 0.259857
0.069353 0.049585 0.260085
0.070742 0.049688 0.260694
0.071980 0.049684 0.260737
0.073412 0.049812 0.261470
0.074595 0.049769 0.261304
0.075864 0.049784 0.261441
0.077284 0.049896 0.262084
0.078826 0.050083 0.263117
0.080650 0.050439 0.265040
0.082594 0.050858 0.267290
0.083884 0.050868 0.267390
0.084525 0.050489 0.265444
0.085265 0.050181 0.263860
0.086717 0.050294 0.264492
0.087832 0.050211 0.264089
0.088804 0.050050 0.263272
0.089901 0.049963 0.262838
0.090909 0.049829 0.262159
0.091861 0.049669 0.261331
0.091768 0.048955 0.257590
0.092127 0.048498 0.255195
0.092290 0.047951 0.252323
0.092794 0.047594 0.250440
0.093276 0.047234 0.248541
0.094094 0.047050 0.247567
0.095001 0.046916 0.246845
0.095791 0.046728 0.245836
0.096653 0.046578 0.245024
0.097647 0.046496 0.244560
0.098509 0.046353 0.243772
0.099460 0.046254 0.243212
0.100402 0.046154 0.242638
0.101313 0.046042 0.241996
0.102172 0.045909 0.241238
0.102793 0.045673 0.239931
0.103167 0.045334 0.238079
0.103842 0.045133 0.236945
0.104629 0.044984 0.236080
0.105395 0.044830 0.235176
0.105683 0.044477 0.233228
0.106238 0.044244 0.231897
0.107171 0.044171 0.231399
0.107631 0.043906 0.229890
0.108233 0.043704 0.228703
0.109041 0.043588 0.227959
0.109382 0.043290 0.226254
0.109982 0.043099 0.225102
0.110600 0.042918 0.223998
0.111193 0.042732 0.222853
0.111825 0.042564 0.221795
0.112423 0.042386 0.220679
0.113139 0.042256 0.219801
0.113782 0.042101 0.218784
0.114287 0.041898 0.217510
-1.596207 0.602201 3.082789
-1.524305 0.580388 2.973550
-1.481774 0.569456 2.919790
-1.549667 0.601155 3.084562
-0.942780 0.380042 1.954896
-0.929219 0.378277 1.946847
-0.919363 0.378000 1.946382
-0.913285 0.379287 1.953903
-0.903798 0.379170 1.954130
-0.894821 0.379266 1.955393
-0.885398 0.379174 1.955622
-0.877323 0.379664 1.958792
-0.871373 0.381094 1.966755
-0.935658 0.413601 2.135096
-0.929699 0.415426 2.145034
-0.923578 0.417218 2.154751
-0.910602 0.415919 2.148445
-0.903076 0.417108 2.154937
-0.778845 0.363809 1.879836
-0.770513 0.364047 1.881280
-0.763709 0.365021 1.886484
-0.754884 0.365041 1.886714
-0.741203 0.362685 1.874624
-1.166991 0.577899 2.987085
-1.154722 0.578785 2.991678
-1.144150 0.580555 3.000777
-1.129734 0.580393 2.999840
-1.113524 0.579295 2.994002
-1.105429 0.582445 3.010067
-1.084911 0.579045 2.992235
-1.060138 0.573256 2.962008
-0.827917 0.453645 2.343694
-0.810187 0.449919 2.324129
-0.793898 0.446903 2.308198
-0.792138 0.452095 2.334628
-0.782352 0.452789 2.337791
-0.568736 0.354053 1.826022
-0.252317 0.203190 1.043147
-0.246771 0.202691 1.040224
-0.241520 0.202420 1.038467
-0.237297 0.203018 1.041165
-0.232205 0.202881 1.040094
-0.227134 0.202757 1.039087
-0.222129 0.202689 1.038363
-0.217047 0.202545 1.037254
-0.212407 0.202817 1.038273
-0.206953 0.202307 1.035291
-0.200831 0.201103 1.028759
-0.196173 0.201341 1.029611
-0.177464 0.186801 0.954915
-0.170524 0.184212 0.941346
-0.166231 0.184419 0.942073
-0.155572 0.177380 0.905803
-0.149938 0.175832 0.897586
-0.103346 0.132535 0.675879
-0.100828 0.133469 0.680419
-0.096950 0.132606 0.675799
-0.092879 0.131409 0.669487
-0.089337 0.130903 0.666699
-0.086065 0.130770 0.665819
-0.082952 0.130879 0.666174
-0.079958 0.131190 0.667561
-0.077259 0.132034 0.671662
-0.074189 0.132287 0.672764
-0.071143 0.132610 0.674224
-0.068244 0.133250 0.677299
-0.065206 0.133668 0.679250
-0.061973 0.133710 0.679298
-0.058895 0.134112 0.681175
-0.055742 0.134378 0.682370
-0.052526 0.134517 0.682931
-0.049300 0.134650 0.683460
-0.046139 0.134988 0.685037
-0.042837 0.134938 0.684654
-0.039562 0.134971 0.684700
-0.036454 0.135630 0.687926
-0.033163 0.135674 0.688039
-0.029757 0.135204 0.685554
-0.026511 0.135440 0.686653
-0.023207 0.135397 0.686348
-0.019767 0.134422 0.681326
-0.016445 0.134028 0.679257
-0.013185 0.134053 0.679323
-0.003729 0.075094 0.380487
-0.001889 0.074672 0.378325
-0.000070 0.074247 0.376154
0.001747 0.074644 0.378147
0.003608 0.075533 0.382640
0.005453 0.075607 0.383011
0.007297 0.075631 0.383133
0.008480 0.050015 0.253378
0.009697 0.050004 0.253336
0.010833 0.049631 0.251457
0.011929 0.049164 0.249106
0.013001 0.048690 0.246725
0.014103 0.048401 0.245277
0.015243 0.048276 0.244668
0.016331 0.048017 0.243383
0.017371 0.047659 0.241594
0.018529 0.047652 0.241588
0.019605 0.047445 0.240572
0.020513 0.046878 0.237729
0.021420 0.046367 0.235176
0.022411 0.046081 0.233761
0.023515 0.046043 0.233608
0.024737 0.046229 0.234594
0.026153 0.046745 0.237258
0.027409 0.046945 0.238320
0.028635 0.047079 0.239047
0.029801 0.047107 0.239242
0.030956 0.047116 0.239341
0.032267 0.047355 0.240608
0.033534 0.047513 0.241466
0.034798 0.047658 0.242258
0.036050 0.047777 0.242924
0.037329 0.047923 0.243725
0.038593 0.048041 0.244386
0.039854 0.048149 0.245000
0.041321 0.048492 0.246810
0.042636 0.048643 0.247643
0.043975 0.048812 0.248568
0.045234 0.048886 0.249011
0.046609 0.049078 0.250057
0.047878 0.049151 0.250499
0.049097 0.049170 0.250668
0.050343 0.049216 0.250969
0.051650 0.049317 0.251558
0.053029 0.049481 0.252463
0.054336 0.049572 0.252996
0.055631 0.049648 0.253455
0.056886 0.049685 0.253717
0.058280 0.049840 0.254579
0.059783 0.050080 0.255871
0.061267 0.050295 0.257041
0.062437 0.050248 0.256870
0.063783 0.050342 0.257419
0.065135 0.050437 0.257974
0.066349 0.050424 0.257973
0.068020 0.050752 0.259717
0.069260 0.050752 0.259782
0.070579 0.050810 0.260139
0.071831 0.050818 0.260240
0.073088 0.050829 0.260357
0.074389 0.050869 0.260621
0.075663 0.050890 0.260785
0.077326 0.051168 0.262264
0.079109 0.051515 0.264093
0.081949 0.052529 0.269339
0.083386 0.052626 0.269883
0.084395 0.052454 0.269046
0.085066 0.052080 0.267169
0.088052 0.053113 0.272509
0.086921 0.051669 0.265135
0.087870 0.051486 0.264223
0.088834 0.051316 0.263377
0.089812 0.051158 0.262591
0.090705 0.050957 0.261579
0.091589 0.050757 0.260565
0.092297 0.050465 0.259080
0.092652 0.049991 0.256653
0.092689 0.049360 0.253415
0.092800 0.048784 0.250454
0.093439 0.048496 0.248971
0.094394 0.048378 0.248351
0.094939 0.048055 0.246676
0.095687 0.047841 0.245555
0.096723 0.047775 0.245188
0.097577 0.047621 0.244367
0.098437 0.047474 0.243573
0.099326 0.047344 0.242865
0.100196 0.047208 0.242116
0.101157 0.047118 0.241597
0.102004 0.046977 0.240811
0.102655 0.046749 0.239578
0.103055 0.046414 0.237786
0.103738 0.046212 0.236669
0.104449 0.046027 0.235633
0.105220 0.045872 0.234745
0.105940 0.045698 0.233751
0.106134 0.045303 0.231622
0.106856 0.045139 0.230668
0.107992 0.045152 0.230609
0.108196 0.044779 0.228570
0.108791 0.044573 0.227380
0.109143 0.044273 0.225700
0.109826 0.044111 0.224720
0.110543 0.043966 0.223815
0.111016 0.043728 0.222429
0.111616 0.043544 0.221309
0.112187 0.043353 0.220142
0.112831 0.043192 0.219124
0.113255 0.042951 0.217689
0.114038 0.042850 0.216952
-1.516324 0.586011 2.927564
-1.504299 0.586735 2.933617
-1.485986 0.584997 2.927229
-1.472118 0.584994 2.929382
-1.460142 0.585750 2.935219
-0.944322 0.389943 1.957650
-0.930563 0.388059 1.949248
-0.917135 0.386277 1.941276
-0.910934 0.387533 1.948507
-0.904150 0.388565 1.954546
-0.894419 0.388338 1.954196
-0.884441 0.387999 1.953212
-0.877728 0.389100 1.959422
-0.872108 0.390714 1.968161
-0.929265 0.420789 2.120259
-0.927952 0.424754 2.140778
-0.924189 0.427672 2.155972
-0.907477 0.424596 2.140892
-0.887199 0.419764 2.116898
-0.781438 0.373919 1.885978
-0.771119 0.373216 1.882663
-0.762685 0.373419 1.883879
-0.756607 0.374793 1.890962
-0.744480 0.373169 1.882874
-1.171295 0.594171 2.998073
-1.158968 0.595076 3.002680
-1.148466 0.596951 3.012126
-1.134976 0.597302 3.013820
-1.119025 0.596349 3.008885
-1.110690 0.599484 3.024513
-1.092204 0.597149 3.012498
-1.068496 0.591861 2.985537
-0.825298 0.463234 2.336441
-0.807812 0.459537 2.317497
-0.793561 0.457604 2.307423
-0.790635 0.462239 2.330425
-0.777721 0.461083 2.324199
-0.567495 0.361894 1.822315
-0.252528 0.208319 1.044313
-0.246793 0.207653 1.040617
-0.241785 0.207585 1.039918
-0.237583 0.208219 1.042734
-0.232286 0.207902 1.040781
-0.227295 0.207850 1.040155
-0.222227 0.207724 1.039160
-0.217154 0.207588 1.038115
-0.212479 0.207835 1.038983
-0.207163 0.207452 1.036705
-0.201602 0.206799 1.033077
-0.196924 0.207043 1.033931
-0.174205 0.187844 0.937731
-0.169626 0.187712 0.936746
-0.165354 0.187922 0.937468
-0.152806 0.178478 0.890051
-0.148608 0.178525 0.889987
-0.104526 0.137320 0.683885
-0.102132 0.138496 0.689519
-0.097894 0.137165 0.682676
-0.093892 0.136086 0.677094
-0.090413 0.135715 0.675040
-0.086738 0.135011 0.671338
-0.083740 0.135349 0.672818
-0.080702 0.135645 0.674099
-0.077665 0.135968 0.675514
-0.074781 0.136600 0.678465
-0.071772 0.137051 0.680522
-0.068645 0.137308 0.681624
-0.065585 0.137731 0.683554
-0.062481 0.138103 0.685231
-0.059299 0.138333 0.686213
-0.056135 0.138637 0.687564
-0.053002 0.139058 0.689503
-0.049749 0.139200 0.690065
-0.046480 0.139316 0.690504
-0.043249 0.139571 0.691640
-0.039897 0.139446 0.690897
-0.036648 0.139695 0.692013
-0.033363 0.139841 0.692629
-0.029940 0.139376 0.690223
-0.026561 0.139029 0.688410
-0.023234 0.138892 0.687647
-0.019863 0.138407 0.685166
-0.016463 0.137484 0.680526
-0.013080 0.136293 0.674569
-0.009842 0.136315 0.674620
-0.003744 0.077319 0.382623
-0.001898 0.076998 0.381012
-0.000068 0.077316 0.382565
0.001771 0.077357 0.382755
0.003606 0.077266 0.382294
0.005449 0.077342 0.382665
0.007290 0.077367 0.382786
0.009129 0.077359 0.382748
0.014735 0.077818 0.385052
0.010844 0.050879 0.251769
0.012051 0.050866 0.251717
0.013177 0.050545 0.250148
0.014134 0.049682 0.245896
0.015187 0.049265 0.243856
0.016152 0.048640 0.240788
0.017196 0.048322 0.239240
0.018372 0.048391 0.239612
0.019464 0.048245 0.238917
0.020525 0.048041 0.237944
0.021522 0.047718 0.236376
0.022634 0.047668 0.236168
0.023733 0.047598 0.235859
0.024815 0.047500 0.235415
0.026047 0.047686 0.236381
0.027266 0.047834 0.237159
0.028543 0.048066 0.238356
0.029738 0.048149 0.238817
0.030899 0.048173 0.238986
0.032146 0.048324 0.239786
0.033522 0.048650 0.241461
0.034816 0.048841 0.242465
0.036066 0.048960 0.243111
0.037299 0.049048 0.243609
0.038452 0.049029 0.243571
0.039765 0.049209 0.244528
0.041055 0.049351 0.245295
0.042495 0.049660 0.246896
0.043731 0.049721 0.247265
0.045165 0.049998 0.248705
0.046543 0.050199 0.249774
0.047826 0.050292 0.250301
0.049042 0.050310 0.250461
0.050339 0.050409 0.251019
0.051616 0.050483 0.251460
0.052923 0.050583 0.252024
0.054282 0.050726 0.252807
0.055599 0.050826 0.253372
0.056885 0.050892 0.253772
0.058094 0.050889 0.253823
0.059549 0.051097 0.254928
0.060913 0.051220 0.255610
0.062297 0.051355 0.256351
0.063553 0.051380 0.256543
0.065075 0.051616 0.257787
0.066302 0.051614 0.257839
0.067636 0.051693 0.258298
0.069099 0.051866 0.259226
0.070320 0.051855 0.259229
0.071455 0.051781 0.258918
0.072818 0.051872 0.259433
0.074248 0.052008 0.260166
0.076288 0.052559 0.262976
0.079202 0.053684 0.268660
0.081023 0.054045 0.270516
0.082493 0.054164 0.271159
0.083342 0.053878 0.269770
0.084448 0.053763 0.269239
0.086148 0.054026 0.270592
0.086029 0.053155 0.266268
0.086906 0.052917 0.265108
0.087802 0.052698 0.264035
0.089094 0.052718 0.264161
0.089778 0.052383 0.262504
0.090589 0.052130 0.261254
0.091414 0.051892 0.260074
0.091964 0.051506 0.258149
0.091972 0.050832 0.254772
0.092205 0.050297 0.252090
0.093080 0.050122 0.251207
0.093833 0.049886 0.250015
0.094469 0.049594 0.248539
0.095090 0.049302 0.247056
0.095853 0.049090 0.245970
0.096670 0.048910 0.245037
0.097595 0.048789 0.244394
0.098420 0.048621 0.243510
0.099228 0.048449 0.242602
0.100101 0.048311 0.241861
0.101051 0.048214 0.241315
0.101760 0.048005 0.240205
0.102308 0.047725 0.238735
0.102952 0.047496 0.237513
0.103591 0.047270 0.236295
0.104245 0.047055 0.235133
0.104827 0.046813 0.233822
0.105529 0.046628 0.232797
0.105925 0.046314 0.231117
0.106471 0.046071 0.229786
0.107358 0.045979 0.229199
0.108052 0.045807 0.228207
0.108431 0.045507 0.226567
0.108775 0.045198 0.224876
0.109429 0.045022 0.223841
0.110212 0.044902 0.223078
0.110784 0.044699 0.221892
0.111226 0.044448 0.220460
0.111524 0.044145 0.218763
0.112488 0.044109 0.218376
0.112936 0.043873 0.216991
0.113641 0.043740 0.216108
-1.515901 0.583759 2.839519
-1.505448 0.584945 2.848113
-1.478359 0.579630 2.824894
-1.471794 0.582339 2.840633
-1.453781 0.580527 2.834187
-1.437638 0.579435 2.831120
-1.423243 0.579033 2.831299
-1.409031 0.578700 2.831686
-1.387173 0.575189 2.816401
-1.375667 0.575946 2.821885
-0.944556 0.399323 1.957672
-0.930401 0.397226 1.948471
-0.917445 0.395604 1.941523
-0.910621 0.396620 1.947452
-0.902213 0.396960 1.949997
-0.892515 0.396734 1.949698
-0.882939 0.396558 1.949581
-0.875252 0.397236 1.953604
-0.868157 0.398200 1.958977
-0.941667 0.436553 2.148288
-0.932912 0.437187 2.151976
-0.927067 0.439214 2.162464
-0.907819 0.434865 2.141505
-0.901969 0.436909 2.151968
-0.782370 0.383275 1.888099
-0.771575 0.382324 1.883669
-0.763777 0.382853 1.886485
-0.757670 0.384253 1.893551
-0.746740 0.383210 1.888540
-1.171860 0.608606 2.999473
-1.159515 0.609526 3.004081
-1.145484 0.609572 3.004322
-1.133303 0.610616 3.009423
-1.112780 0.607135 2.992169
-1.105357 0.610804 3.010097
-1.087581 0.608774 2.999884
-1.075112 0.609700 3.004188
-0.821236 0.471926 2.325094
-0.804395 0.468485 2.307868
-0.794126 0.468830 2.309261
-0.789219 0.472394 2.326473
-0.776093 0.471069 2.319577
-0.252255 0.213048 1.043475
-0.246489 0.212335 1.039638
-0.241493 0.212270 1.038967
-0.237213 0.212846 1.041432
-0.232049 0.212636 1.040047
-0.227034 0.212555 1.039295
-0.221920 0.212377 1.038069
-0.216995 0.212376 1.037706
-0.212300 0.212605 1.038467
-0.206847 0.212069 1.035489
-0.200207 0.210260 1.026302
-0.195560 0.210506 1.027148
-0.173613 0.191666 0.934898
-0.168961 0.191430 0.933432
-0.164704 0.191642 0.934149
-0.152770 0.182686 0.890194
-0.147983 0.182010 0.886604
-0.105023 0.141260 0.687431
-0.102412 0.142184 0.691707
-0.098753 0.141667 0.688974
-0.094640 0.140439 0.682795
-0.091319 0.140342 0.682118
-0.087679 0.139729 0.678936
-0.084414 0.139691 0.678555
-0.081476 0.140212 0.680893
-0.078383 0.140499 0.682097
-0.075429 0.141070 0.684684
-0.072456 0.141657 0.687351
-0.069390 0.142109 0.689371
-0.066303 0.142562 0.691398
-0.063222 0.143076 0.693723
-0.060051 0.143433 0.695292
-0.056911 0.143909 0.697449
-0.053580 0.143931 0.697405
-0.050351 0.144251 0.698812
-0.047061 0.144429 0.699541
-0.043678 0.144327 0.698917
-0.040298 0.144221 0.698278
-0.036924 0.144117 0.697661
-0.033498 0.143771 0.695880
-0.030111 0.143536 0.694640
-0.026653 0.142858 0.691268
-0.023204 0.142046 0.687252
-0.019768 0.141061 0.682408
-0.016488 0.141020 0.682140
-0.012961 0.138326 0.669048
-0.009637 0.136728 0.661263
-0.006463 0.136745 0.661298
-0.001903 0.079166 0.382826
-0.000064 0.078090 0.377603
0.001769 0.078965 0.381821
0.003605 0.079001 0.381983
0.005409 0.078556 0.379825
0.007259 0.078829 0.381141
0.009105 0.078959 0.381775
0.010950 0.079037 0.382160
0.012860 0.079498 0.384398
0.014718 0.079557 0.384697
0.016562 0.079539 0.384626
0.018494 0.079901 0.386401
0.016340 0.050369 0.243666
0.017503 0.050348 0.243590
0.018499 0.049879 0.241352
0.019588 0.049702 0.240526
0.020157 0.048296 0.233753
0.021272 0.048281 0.233713
0.022457 0.048414 0.234396
0.023538 0.048324 0.233997
0.024657 0.048315 0.233995
0.025884 0.048510 0.234981
0.027146 0.048751 0.236191
0.028547 0.049213 0.238474
0.029852 0.049479 0.239811
0.031043 0.049544 0.240176
0.032242 0.049616 0.240577
0.033559 0.049859 0.241811
0.034821 0.050006 0.242578
0.036029 0.050069 0.242939
0.037244 0.050136 0.243323
0.038479 0.050227 0.243820
0.039656 0.050237 0.243932
0.040969 0.050415 0.244856
0.042176 0.050457 0.245118
0.043608 0.050758 0.246644
0.044901 0.050884 0.247322
0.046496 0.051338 0.249594
0.047650 0.051295 0.249447
0.048853 0.051304 0.249561
0.050152 0.051413 0.250155
0.051464 0.051529 0.250786
0.052883 0.051744 0.251898
0.054125 0.051780 0.252142
0.055411 0.051856 0.252578
0.056795 0.052018 0.253431
0.058036 0.052045 0.253631
0.059446 0.052219 0.254545
0.060788 0.052328 0.255143
0.062106 0.052412 0.255617
0.063515 0.052569 0.256445
0.064917 0.052713 0.257213
0.066427 0.052939 0.258375
0.067740 0.053001 0.258742
0.069026 0.053042 0.258998
0.070295 0.053066 0.259178
0.071489 0.053036 0.259083
0.072773 0.053071 0.259313
0.074148 0.053171 0.259853
0.077415 0.054602 0.266898
0.079464 0.055141 0.269585
0.080855 0.055214 0.269987
0.081855 0.055021 0.269091
0.082908 0.054870 0.268392
0.084249 0.054910 0.268630
0.085099 0.054635 0.267317
0.085686 0.054201 0.265227
0.086600 0.053983 0.264192
0.087678 0.053873 0.263676
0.088527 0.053627 0.262494
0.089367 0.053381 0.261312
0.090240 0.053163 0.260257
0.091137 0.052964 0.259292
0.091960 0.052728 0.258142
0.092560 0.052372 0.256399
0.092262 0.051523 0.252243
0.091526 0.050456 0.247008
0.093026 0.050631 0.247856
0.094437 0.050755 0.248445
0.094819 0.050330 0.246341
0.095644 0.050147 0.245419
0.096595 0.050033 0.244831
0.097430 0.049863 0.243961
0.098290 0.049710 0.243167
0.099135 0.049553 0.242348
0.099953 0.049386 0.241476
0.100798 0.049235 0.240679
0.101482 0.049011 0.239516
0.102260 0.048836 0.238588
0.102882 0.048591 0.237311
0.103272 0.048244 0.235528
0.103906 0.048017 0.234324
0.104701 0.047867 0.233495
0.105142 0.047561 0.231895
0.105685 0.047307 0.230542
0.106498 0.047178 0.229790
0.107235 0.047018 0.228879
0.107807 0.046789 0.227629
0.108494 0.046615 0.226635
0.108913 0.046330 0.225094
0.109521 0.046130 0.223960
0.110290 0.046001 0.223163
0.110801 0.045768 0.221851
0.111267 0.045521 0.220464
0.111395 0.045142 0.218429
0.112012 0.044966 0.217369
0.112459 0.044726 0.215988
0.113294 0.044642 0.215357
-1.506482 0.593620 2.820746
-1.491683 0.593073 2.820990
-1.477565 0.592788 2.822342
-1.465723 0.593420 2.827922
-1.451048 0.592907 2.827911
-1.439410 0.593637 2.833703
-1.422261 0.592086 2.828481
-1.408994 0.592138 2.830788
-1.398180 0.593232 2.837964
-1.386565 0.594005 2.843495
-0.949127 0.410585 1.966658
-0.931613 0.406991 1.950553
-0.914480 0.403493 1.934819
-0.907418 0.404413 1.940197
-0.901286 0.405772 1.947613
-0.891202 0.405360 1.946474
-0.881962 0.405328 1.947093
-0.874658 0.406195 1.951969
-0.867679 0.407233 1.957613
-0.939406 0.445630 2.142843
-0.930661 0.446271 2.146522
-0.925760 0.448791 2.159178
-0.911121 0.446594 2.149084
-0.897902 0.445051 2.142079
-0.782534 0.392268 1.888351
-0.770717 0.390777 1.881451
-0.763040 0.391376 1.884565
-0.757751 0.393228 1.893672
-0.745657 0.391550 1.885740
-1.174280 0.624041 3.005603
-1.161896 0.624977 3.010217
-1.152268 0.627438 3.022115
-1.129369 0.622643 2.999009
-1.114452 0.622184 2.996726
-1.103997 0.624236 3.006488
-1.071955 0.613977 2.956904
-1.059653 0.614904 2.961143
-0.822191 0.483459 2.327940
-0.806966 0.480909 2.315408
-0.794802 0.480138 2.311412
-0.788489 0.482929 2.324529
-0.777198 0.482708 2.323112
-0.251930 0.217722 1.042424
-0.246394 0.217190 1.039537
-0.241204 0.216948 1.038034
-0.236986 0.217588 1.040753
-0.231916 0.217457 1.039776
-0.226760 0.217237 1.038376
-0.221758 0.217159 1.037654
-0.216828 0.217149 1.037257
-0.211988 0.217232 1.037300
-0.206714 0.216864 1.035192
-0.200141 0.215081 1.026335
-0.195493 0.215330 1.027178
-0.172951 0.195378 0.931687
-0.168970 0.195896 0.933844
-0.164711 0.196111 0.934560
-0.152995 0.187213 0.891864
-0.148043 0.186321 0.887325
-0.105440 0.145122 0.690457
-0.101337 0.143967 0.684749
-0.098096 0.144000 0.684693
-0.094806 0.143961 0.684303
-0.091347 0.143654 0.682639
-0.087883 0.143317 0.680841
-0.084886 0.143744 0.682675
-0.081709 0.143889 0.683169
-0.078804 0.144544 0.686093
-0.076022 0.145493 0.690414
-0.072961 0.145969 0.692493
-0.070009 0.146720 0.695884
-0.066886 0.147169 0.697842
-0.063745 0.147623 0.699833
-0.060529 0.147945 0.701198
-0.057352 0.148407 0.703234
-0.053969 0.148361 0.702869
-0.050668 0.148549 0.703620
-0.047449 0.149022 0.705726
-0.044104 0.149138 0.706148
-0.040645 0.148863 0.704723
-0.037260 0.148830 0.704451
-0.033739 0.148196 0.701342
-0.030275 0.147698 0.698887
-0.026790 0.146961 0.695309
-0.023336 0.146214 0.691686
-0.019857 0.145030 0.686011
-0.016480 0.144279 0.682387
-0.012806 0.139908 0.661652
-0.009627 0.139851 0.661329
-0.001921 0.081913 0.387304
-0.000062 0.081918 0.387307
0.001781 0.081198 0.383888
0.003616 0.081020 0.383036
0.005459 0.081067 0.383254
0.007247 0.080491 0.380529
0.009093 0.080662 0.381339
0.010924 0.080659 0.381331
0.012814 0.081028 0.383085
0.014699 0.081280 0.384291
0.016533 0.081225 0.384047
0.018471 0.081642 0.386038
0.020527 0.082451 0.389890
0.025593 0.080715 0.381782
0.019262 0.056688 0.268165
0.020587 0.056793 0.268689
0.019663 0.051044 0.241520
0.021000 0.051479 0.243611
0.021138 0.049084 0.232312
0.022354 0.049308 0.233406
0.023440 0.049236 0.233104
0.024550 0.049219 0.233064
0.025701 0.049282 0.233402
0.027109 0.049812 0.235953
0.028148 0.049647 0.235219
0.030376 0.051513 0.244106
0.031567 0.051546 0.244311
0.032676 0.051448 0.243895
0.033797 0.051375 0.243606
0.034838 0.051189 0.242775
0.035989 0.051171 0.242745
0.037113 0.051117 0.242545
0.038303 0.051155 0.242779
0.039601 0.051330 0.243669
0.040749 0.051306 0.243616
0.042178 0.051629 0.245207
0.043368 0.051648 0.245359
0.044923 0.052089 0.247517
0.046059 0.052035 0.247323
0.047493 0.052311 0.248697
0.048784 0.052420 0.249281
0.050035 0.052481 0.249637
0.051226 0.052479 0.249691
0.052568 0.052628 0.250462
0.053900 0.052760 0.251157
0.055439 0.053085 0.252766
0.056768 0.053199 0.253374
0.058029 0.053245 0.253658
0.059266 0.053268 0.253831
0.060623 0.053396 0.254504
0.062070 0.053597 0.255524
0.063467 0.053747 0.256303
0.064897 0.053919 0.257183
0.066288 0.054053 0.257882
0.067580 0.054102 0.258178
0.068985 0.054239 0.258888
0.070180 0.054208 0.258797
0.071360 0.054168 0.258658
0.072646 0.054207 0.258898
0.073893 0.054217 0.258996
0.075967 0.054823 0.261940
0.079218 0.056245 0.268782
0.080765 0.056432 0.269718
0.081921 0.056343 0.269338
0.082932 0.056159 0.268496
0.083985 0.056009 0.267815
0.085062 0.055878 0.267224
0.086146 0.055756 0.266670
0.086399 0.055107 0.263596
0.087247 0.054851 0.262394
0.088361 0.054767 0.262011
0.089126 0.054473 0.260617
0.089894 0.054188 0.259264
0.090834 0.054012 0.258433
0.091516 0.053690 0.256896
0.092173 0.053363 0.255327
0.092683 0.052959 0.253391
0.092983 0.052448 0.250934
0.093580 0.052115 0.249325
0.094335 0.051877 0.248166
0.095100 0.051650 0.247057
0.095781 0.051384 0.245753
0.096689 0.051244 0.245049
0.097421 0.051016 0.243916
0.098207 0.050820 0.242936
0.098972 0.050619 0.241923
0.099652 0.050379 0.240718
0.100499 0.050229 0.239934
0.101331 0.050074 0.239123
0.101920 0.049803 0.237756
0.102550 0.049559 0.236505
0.103234 0.049345 0.235398
0.103837 0.049098 0.234121
0.104208 0.048748 0.232348
0.105192 0.048688 0.231955
0.105529 0.048334 0.230147
0.106258 0.048164 0.229213
0.107206 0.048096 0.228758
0.107857 0.047898 0.227672
0.108444 0.047675 0.226463
0.108721 0.047322 0.224628
0.109505 0.047194 0.223855
0.110408 0.047119 0.223326
0.110666 0.046773 0.221503
0.110922 0.046433 0.219700
0.111275 0.046140 0.218110
0.112010 0.046009 0.217276
0.112375 0.045729 0.215736
0.113198 0.045640 0.215081
-1.501045 0.604918 2.809397
-1.489966 0.605850 2.816618
-1.474799 0.605123 2.815981
-1.462092 0.605401 2.819885
-1.446280 0.604387 2.817633
-1.434978 0.605256 2.824032
-1.420475 0.604780 2.824030
-1.407981 0.605157 2.827894
-1.395676 0.605625 2.832065
-1.384066 0.606406 2.837590
-0.939632 0.415713 1.946476
-0.930060 0.415544 1.946821
-0.916368 0.413513 1.938362
-0.908201 0.413959 1.941447
-0.900228 0.414504 1.944927
-0.891800 0.414849 1.947405
-0.881884 0.414502 1.946571
-0.873969 0.415098 1.950107
-0.866888 0.416106 1.955525
-0.943397 0.457691 2.151640
-0.934604 0.458345 2.155335
-0.927432 0.459817 2.162823
-0.917195 0.459786 2.163180
-0.892869 0.452611 2.129869
-0.787965 0.403965 1.901298
-0.772688 0.400678 1.886129
-0.763051 0.400274 1.884477
-0.758812 0.402725 1.896229
-0.747575 0.401477 1.890520
-1.176297 0.639316 3.010684
-1.163878 0.640268 3.015304
-1.146413 0.638433 3.006741
-1.136516 0.640821 3.018003
-1.121809 0.640522 3.016556
-1.100538 0.636419 2.997144
-1.085177 0.635673 2.993484
-1.072711 0.636626 2.997772
-0.822014 0.494338 2.327569
-0.806140 0.491333 2.313192
-0.795362 0.491394 2.313217
-0.789339 0.494435 2.327237
-0.775371 0.492516 2.317874
-0.571858 0.409296 1.923185
-0.556204 0.404503 1.900200
-0.548033 0.405085 1.902449
-0.253650 0.224191 1.049834
-0.246100 0.221862 1.038597
-0.240959 0.221654 1.037287
-0.236980 0.222529 1.041046
-0.231566 0.222065 1.038535
-0.226590 0.222009 1.037933
-0.221425 0.221762 1.036437
-0.216400 0.221648 1.035560
-0.211828 0.222004 1.036880
-0.206737 0.221820 1.035675
-0.197647 0.217231 1.013913
