ply
format ascii 1.0
element vertex 1743
property float x
property float y
property float z
end_header
-0.948199 0.610533 2.106587
-0.937056 0.609765 2.105183
-0.928480 0.610670 2.109483
-0.919625 0.611410 2.113145
-0.793014 0.533016 1.843112
-0.782023 0.531460 1.838580
-0.772777 0.531068 1.838018
-0.767516 0.533436 1.846962
-0.757781 0.532715 1.845157
-0.856491 0.662989 2.301237
-0.834887 0.654540 2.272281
-0.820038 0.651237 2.261137
-0.815126 0.655842 2.277411
-0.806813 0.657798 2.284442
-0.796643 0.658272 2.286288
-0.778820 0.652349 2.265876
-0.640317 0.551428 1.915506
-0.622857 0.544045 1.889901
-0.610218 0.540721 1.878366
-0.599565 0.539085 1.872669
-0.597479 0.545219 1.893936
-0.586575 0.543369 1.887446
-0.578702 0.544315 1.890641
-0.597363 0.688946 2.389732
-0.584683 0.687278 2.383552
-0.247357 0.296458 1.027971
-0.240264 0.293711 1.018264
-0.236000 0.294381 1.020402
-0.232128 0.295579 1.024362
-0.227870 0.296326 1.026753
-0.222885 0.296140 1.025910
-0.216850 0.294519 1.020091
-0.210581 0.292500 1.012894
-0.203389 0.289075 1.000831
-0.196301 0.285641 0.988735
-0.187994 0.280220 0.969769
-0.179620 0.274427 0.949522
-0.174137 0.272867 0.943928
-0.168461 0.270915 0.936978
-0.162195 0.267884 0.926299
-0.156418 0.265515 0.917913
-0.150431 0.262645 0.907799
-0.144662 0.259996 0.898454
-0.139251 0.257852 0.890858
-0.134265 0.256384 0.885602
-0.128854 0.253987 0.877140
-0.124800 0.254191 0.877666
-0.104324 0.219811 0.758805
-0.099791 0.217765 0.751593
-0.096388 0.218127 0.752695
-0.091898 0.215962 0.745080
-0.088528 0.216360 0.746309
-0.085368 0.217329 0.749514
-0.081407 0.216252 0.745664
-0.077651 0.215648 0.743446
-0.074293 0.216146 0.745033
-0.070811 0.216314 0.745485
-0.067059 0.215633 0.743016
-0.063088 0.214134 0.737732
-0.059216 0.212811 0.733064
-0.055308 0.211188 0.727363
-0.051128 0.208244 0.717121
-0.046658 0.203610 0.701065
-0.042873 0.201489 0.693671
-0.038879 0.197947 0.681391
-0.035137 0.195160 0.671717
-0.031952 0.195222 0.671854
-0.028765 0.195280 0.671982
-0.012608 0.110063 0.378667
-0.010840 0.110410 0.379827
-0.009037 0.110472 0.380009
-0.007283 0.111304 0.382845
-0.005573 0.113597 0.390704
-0.003757 0.114960 0.395370
-0.001865 0.114395 0.393404
0.000008 0.115949 0.398733
0.001923 0.116915 0.402038
0.004100 0.124889 0.429443
0.006146 0.124885 0.429420
0.008274 0.126147 0.433754
0.010461 0.127614 0.438793
0.012435 0.126427 0.434710
0.014495 0.126330 0.434376
0.016325 0.124505 0.428108
0.018357 0.124450 0.427925
0.020374 0.124320 0.427485
0.022287 0.123627 0.425116
0.024335 0.123742 0.425526
0.026465 0.124224 0.427204
0.028692 0.125056 0.430087
0.030893 0.125674 0.432236
0.033002 0.125861 0.432903
0.035089 0.125947 0.433227
0.037216 0.126161 0.433994
0.033415 0.092677 0.318915
0.034908 0.092605 0.318701
0.036320 0.092335 0.317801
0.037843 0.092357 0.317912
0.039293 0.092206 0.317426
0.040680 0.091924 0.316490
0.042051 0.091627 0.315502
0.043432 0.091372 0.314662
0.044778 0.091061 0.313629
0.046020 0.090567 0.311965
0.047315 0.090204 0.310753
0.048558 0.089766 0.309283
0.049988 0.089691 0.309064
0.051187 0.089216 0.307465
0.052398 0.088788 0.306031
0.053672 0.088487 0.305033
0.054868 0.088077 0.303659
0.056141 0.087808 0.302770
0.057226 0.087265 0.300936
0.058406 0.086891 0.299683
0.059517 0.086434 0.298143
0.060552 0.085889 0.296301
0.061628 0.085428 0.294745
0.062809 0.085127 0.293743
0.063957 0.084797 0.292636
0.065074 0.084441 0.291441
0.066138 0.084032 0.290058
0.067263 0.083715 0.288994
0.068241 0.083232 0.287356
0.069343 0.082916 0.286290
0.070133 0.082246 0.284002
0.071077 0.081778 0.282408
0.071808 0.081088 0.280045
0.072582 0.080470 0.277929
0.073463 0.079990 0.276287
0.074473 0.079666 0.275181
0.075446 0.079313 0.273972
0.076454 0.079009 0.272932
0.077378 0.078629 0.271624
0.078178 0.078138 0.269931
0.078831 0.077518 0.267789
0.079755 0.077180 0.266618
0.081005 0.077163 0.266554
0.081737 0.076660 0.264808
0.082384 0.076094 0.262840
0.082563 0.075119 0.259456
0.083937 0.075244 0.259868
0.084974 0.075068 0.259237
0.085442 0.074401 0.256905
0.086396 0.074170 0.256077
0.087309 0.073912 0.255148
0.088127 0.073581 0.253964
0.088928 0.073244 0.252757
0.089582 0.072797 0.251166
0.090354 0.072456 0.249936
0.090811 0.071875 0.247871
0.091496 0.071487 0.246471
0.092141 0.071077 0.244990
0.092584 0.070524 0.243010
0.093445 0.070300 0.242158
0.094292 0.070070 0.241280
0.095100 0.069817 0.240319
0.095929 0.069585 0.239424
0.096783 0.069377 0.238607
0.097637 0.069173 0.237797
0.098479 0.068966 0.236968
0.099235 0.068703 0.235944
0.100000 0.068453 0.234956
0.100738 0.068190 0.233918
0.101400 0.067881 0.232716
0.102154 0.067641 0.231741
0.102848 0.067367 0.230642
0.103552 0.067104 0.229576
0.104254 0.066845 0.228517
0.104961 0.066596 0.227482
0.105654 0.066342 0.226424
0.106253 0.066035 0.225178
0.106818 0.065713 0.223872
0.107614 0.065539 0.223060
0.108108 0.065185 0.221629
0.108730 0.064916 0.220475
0.109570 0.064780 0.219765
0.110177 0.064510 0.218593
0.110745 0.064223 0.217350
0.111505 0.064051 0.216488
0.112378 0.063946 0.215842
0.113108 0.063764 0.214921
0.113772 0.063547 0.213873
-1.501753 0.833936 2.782423
-1.531765 0.858245 2.867571
-1.507338 0.852218 2.851273
-1.473604 0.840770 2.816599
-0.975186 0.572106 1.923347
-0.960498 0.568844 1.914430
-0.943529 0.564156 1.900592
-0.928460 0.560524 1.890198
-0.919573 0.560591 1.892175
-0.912593 0.561832 1.898042
-0.904886 0.562648 1.902395
-0.895564 0.562465 1.903295
-0.886944 0.562725 1.905617
-0.881237 0.564857 1.914214
-0.955973 0.619133 2.099577
-0.947130 0.619852 2.103369
-0.937299 0.619932 2.104925
-0.928443 0.620666 2.108630
-0.792415 0.541354 1.841115
-0.781164 0.539587 1.835986
-0.769861 0.537746 1.830542
-0.766864 0.541729 1.844879
-0.756131 0.540278 1.840657
-0.855628 0.673190 2.298594
-0.839747 0.669154 2.285218
-0.823121 0.664413 2.269382
-0.814121 0.665784 2.274379
-0.807964 0.669548 2.287506
-0.796312 0.668798 2.285176
-0.784251 0.667680 2.281545
-0.780298 0.673530 2.301688
-0.632616 0.561639 1.919478
-0.611785 0.551008 1.883180
-0.601838 0.550012 1.879785
-0.598332 0.554960 1.896678
-0.587617 0.553271 1.890862
-0.577858 0.552444 1.887969
-0.583880 0.697609 2.380746
-0.246535 0.300326 1.024763
-0.239482 0.297564 1.015169
-0.234193 0.296926 1.012817
-0.229910 0.297565 1.014817
-0.225110 0.297547 1.014570
-0.220604 0.297926 1.015671
-0.214463 0.296064 1.009135
-0.208077 0.293773 1.001130
-0.199923 0.288821 0.984062
-0.194575 0.287783 0.980332
-0.187528 0.284121 0.967665
-0.178155 0.276663 0.942077
-0.173943 0.277045 0.943185
-0.167918 0.274483 0.934273
-0.162313 0.272488 0.927295
-0.156520 0.270059 0.918840
-0.150744 0.267520 0.910015
-0.144977 0.264849 0.900748
-0.139717 0.262972 0.894182
-0.135092 0.262210 0.891411
-0.129702 0.259866 0.883266
-0.123956 0.256627 0.872085
-0.119918 0.256826 0.872591
-0.100292 0.222463 0.755694
-0.096384 0.221711 0.752993
-0.092270 0.220408 0.748430
-0.088251 0.219237 0.744314
-0.085171 0.220401 0.748129
-0.081496 0.220058 0.746832
-0.077669 0.219257 0.743985
-0.074176 0.219367 0.744232
-0.070765 0.219742 0.745383
-0.067018 0.219058 0.742944
-0.063076 0.217628 0.737978
-0.059360 0.216856 0.735248
-0.055229 0.214376 0.726736
-0.051490 0.213188 0.722608
-0.047223 0.209488 0.709970
-0.043251 0.206634 0.700206
-0.039417 0.204016 0.691250
-0.035954 0.203014 0.687775
-0.032426 0.201411 0.682267
-0.028318 0.195453 0.662018
-0.012638 0.112174 0.379870
-0.010834 0.112198 0.379919
-0.008962 0.111395 0.377172
-0.007232 0.112403 0.380556
-0.005573 0.115557 0.391210
-0.003807 0.118549 0.401313
-0.001897 0.118558 0.401324
0.000013 0.118829 0.402222
0.002013 0.124017 0.419767
0.004109 0.127052 0.430028
0.006157 0.127048 0.430004
0.008191 0.126840 0.429291
0.010474 0.129796 0.439290
0.012447 0.128566 0.435126
0.014372 0.127267 0.430731
0.016391 0.127012 0.429869
0.018437 0.127006 0.429856
0.020324 0.126012 0.426500
0.022416 0.126351 0.427659
0.024427 0.126217 0.427222
0.026463 0.126223 0.427259
0.028658 0.126931 0.429673
0.030731 0.127038 0.430059
0.032812 0.127164 0.430511
0.034890 0.127264 0.430877
0.036793 0.126751 0.429166
0.038820 0.126694 0.429005
0.033404 0.094151 0.318889
0.034888 0.094059 0.318605
0.036369 0.093963 0.318310
0.037850 0.093877 0.318051
0.039199 0.093482 0.316745
0.040654 0.093361 0.316369
0.041945 0.092885 0.314789
0.043319 0.092617 0.313916
0.044626 0.092231 0.312641
0.045909 0.091819 0.311283
0.047373 0.091786 0.311206
0.048640 0.091383 0.309875
0.049907 0.091004 0.308628
0.051232 0.090751 0.307806
0.052424 0.090281 0.306250
0.053557 0.089736 0.304440
0.054863 0.089504 0.303688
0.056054 0.089101 0.302358
0.057232 0.088699 0.301027
0.058458 0.088387 0.300004
0.059597 0.087961 0.298593
0.060746 0.087571 0.297303
0.061864 0.087154 0.295921
0.062921 0.086672 0.294314
0.064093 0.086365 0.293304
0.065001 0.085723 0.291154
0.066202 0.085486 0.290377
0.067406 0.085262 0.289642
0.068261 0.084616 0.287472
0.069476 0.084431 0.286868
0.070200 0.083668 0.284297
0.071103 0.083144 0.282537
0.071943 0.082566 0.280591
0.072599 0.081803 0.278011
0.073539 0.081381 0.276589
0.074552 0.081052 0.275484
0.075620 0.080794 0.274613
0.076626 0.080479 0.273549
0.077488 0.080027 0.272015
0.078194 0.079430 0.269985
0.079095 0.079048 0.268683
0.079715 0.078401 0.266477
0.080450 0.077886 0.264718
0.081314 0.077509 0.263424
0.082250 0.077211 0.262397
0.083191 0.076927 0.261412
0.084035 0.076563 0.260152
0.084956 0.076279 0.259159
0.085759 0.075898 0.257831
0.086631 0.075588 0.256743
0.087587 0.075359 0.255926
0.088318 0.074944 0.254475
0.089100 0.074585 0.253205
0.089720 0.074100 0.251507
0.090370 0.073653 0.249932
0.091040 0.073234 0.248448
0.091709 0.072824 0.246990
0.092255 0.072328 0.245236
0.092812 0.071854 0.243550
0.093541 0.071522 0.242343
0.094477 0.071355 0.241688
0.095306 0.071111 0.240769
0.096160 0.070892 0.239927
0.096993 0.070664 0.239045
0.097800 0.070421 0.238111
0.098665 0.070225 0.237329
0.099457 0.069983 0.236384
0.100145 0.069673 0.235203
0.100831 0.069368 0.234035
0.101506 0.069063 0.232858
0.102187 0.068769 0.231710
0.102931 0.068523 0.230719
0.103677 0.068283 0.229741
0.104392 0.068028 0.228704
0.105011 0.067716 0.227469
0.105698 0.067455 0.226394
0.106263 0.067121 0.225068
0.107005 0.066904 0.224129
0.107761 0.066701 0.223226
0.108282 0.066358 0.221843
0.108922 0.066093 0.220716
0.109671 0.065899 0.219816
0.110388 0.065690 0.218852
0.110957 0.065398 0.217604
0.111682 0.065201 0.216664
0.112550 0.065091 0.216000
0.113134 0.064821 0.214791
0.113923 0.064672 0.213972
-1.533240 0.865168 2.838448
-1.531017 0.871676 2.863918
-1.526777 0.877145 2.885853
-1.498002 0.868490 2.861138
-1.485639 0.869279 2.867338
-0.976966 0.582404 1.925593
-0.960487 0.578022 1.913199
-0.941697 0.572151 1.895748
-0.928202 0.569416 1.888565
-0.918697 0.569099 1.889308
-0.911934 0.570491 1.895646
-0.903972 0.571154 1.899484
-0.895639 0.571594 1.902505
-0.886635 0.571611 1.904042
-0.880794 0.573689 1.912375
-0.954698 0.628290 2.095857
-0.945852 0.629009 2.099649
-0.936632 0.629492 2.102582
-0.795065 0.551934 1.846632
-0.783125 0.549676 1.839990
-0.774533 0.549744 1.841075
-0.769377 0.552281 1.850380
-0.759992 0.551805 1.849541
-0.840456 0.680535 2.286830
-0.824836 0.676549 2.273825
-0.816571 0.678572 2.280968
-0.810708 0.682672 2.295054
-0.799394 0.682230 2.293830
-0.787954 0.681668 2.292160
-0.779429 0.683647 2.298998
-0.769589 0.684512 2.302053
-0.630701 0.568982 1.913610
-0.613725 0.561684 1.889122
-0.602781 0.559771 1.882722
-0.598985 0.564540 1.898767
-0.590193 0.564673 1.899194
-0.582345 0.565727 1.902694
-0.251553 0.305408 1.025886
-0.246622 0.305288 1.025326
-0.237391 0.299735 1.006516
-0.231044 0.297670 0.999420
-0.227244 0.298870 1.003278
-0.222767 0.299210 1.004247
-0.217638 0.298672 1.002265
-0.212100 0.297536 0.998273
-0.205116 0.294275 0.987150
-0.200662 0.294576 0.987975
-0.191443 0.287730 0.964832
-0.185503 0.285598 0.957499
-0.177974 0.280853 0.941410
-0.172428 0.279075 0.935267
-0.166946 0.277310 0.929170
-0.161840 0.276090 0.924904
-0.155865 0.273281 0.915312
-0.150078 0.270650 0.906323
-0.144781 0.268773 0.899861
-0.138808 0.265491 0.888698
-0.133504 0.263323 0.881270
-0.128392 0.261408 0.874691
-0.122725 0.258195 0.863776
-0.118726 0.258393 0.864275
-0.100573 0.226701 0.758130
-0.096338 0.225196 0.752955
-0.091650 0.222476 0.743727
-0.088522 0.223478 0.746943
-0.085315 0.224354 0.749739
-0.081487 0.223605 0.747108
-0.077934 0.223574 0.746878
-0.074261 0.223184 0.745450
-0.070704 0.223118 0.745112
-0.067097 0.222881 0.744203
-0.063168 0.221489 0.739444
-0.059266 0.220032 0.734473
-0.055356 0.218364 0.728801
-0.051366 0.216141 0.721283
-0.047132 0.212493 0.709017
-0.043153 0.209527 0.699030
-0.039381 0.207159 0.691047
-0.035841 0.205688 0.686062
-0.032380 0.204421 0.681763
-0.029148 0.204481 0.681891
-0.012815 0.115612 0.385465
-0.010968 0.115471 0.384962
-0.009140 0.115500 0.385030
-0.007339 0.115990 0.386634
-0.005688 0.119948 0.399802
-0.003786 0.119961 0.399821
-0.001892 0.120448 0.401425
0.000019 0.120855 0.402764
0.002014 0.125802 0.419235
0.003998 0.125425 0.417965
0.006149 0.128831 0.429305
0.008248 0.129696 0.432178
0.010270 0.129251 0.430689
0.012377 0.129849 0.432678
0.014389 0.129417 0.431241
0.016293 0.128248 0.427348
0.018221 0.127501 0.424862
0.020234 0.127442 0.424674
0.022140 0.126775 0.422465
0.024109 0.126551 0.421731
0.026323 0.127551 0.425077
0.028370 0.127653 0.425436
0.030554 0.128318 0.427671
0.032648 0.128545 0.428452
0.034787 0.128914 0.429706
0.036768 0.128686 0.428976
0.038491 0.127627 0.425474
0.040498 0.127567 0.425306
0.038092 0.114277 0.381025
0.033514 0.095970 0.320013
0.034942 0.095709 0.319169
0.036422 0.095607 0.318859
0.037900 0.095507 0.318553
0.039322 0.095277 0.317817
0.040660 0.094870 0.316491
0.041979 0.094449 0.315118
0.043401 0.094280 0.314589
0.044758 0.093985 0.313637
0.046014 0.093504 0.312066
0.047251 0.093017 0.310474
0.048513 0.092606 0.309138
0.049921 0.092489 0.308782
0.051078 0.091928 0.306943
0.052344 0.091588 0.305842
0.053612 0.091269 0.304812
0.054869 0.090950 0.303782
0.056109 0.090620 0.302711
0.057299 0.090226 0.301429
0.058588 0.090004 0.300719
0.059734 0.089578 0.299331
0.060901 0.089203 0.298107
0.062019 0.088775 0.296707
0.063207 0.088463 0.295693
0.064369 0.088129 0.294607
0.065409 0.087646 0.293018
0.066496 0.087244 0.291699
0.067447 0.086684 0.289852
0.068522 0.086303 0.288598
0.069463 0.085771 0.286842
0.070451 0.085316 0.285336
0.071251 0.084656 0.283146
0.072177 0.084166 0.281521
0.072989 0.083564 0.279520
0.073603 0.082760 0.276841
0.074575 0.082380 0.275577
0.075505 0.081967 0.274203
0.076310 0.081435 0.272423
0.077192 0.081002 0.270975
0.078116 0.080626 0.269714
0.078952 0.080173 0.268191
0.079815 0.079761 0.266803
0.080654 0.079338 0.265377
0.081434 0.078871 0.263798
0.082151 0.078358 0.262064
0.083009 0.077993 0.260820
0.083957 0.077722 0.259885
0.084880 0.077435 0.258896
0.085692 0.077058 0.257600
0.086603 0.076778 0.256626
0.087507 0.076500 0.255653
0.088360 0.076186 0.254556
0.089059 0.075749 0.253044
0.089752 0.075318 0.251549
0.090361 0.074829 0.249856
0.091095 0.074456 0.248543
0.091749 0.074027 0.247040
0.092412 0.073617 0.245594
0.093174 0.073294 0.244435
0.093937 0.072980 0.243301
0.094574 0.072577 0.241864
0.095470 0.072379 0.241108
0.096326 0.072157 0.240262
0.097134 0.071904 0.239310
0.097925 0.071645 0.238329
0.098750 0.071416 0.237444
0.099585 0.071199 0.236593
0.100292 0.070897 0.235450
0.100998 0.070601 0.234321
0.101477 0.070154 0.232686
0.102227 0.069902 0.231693
0.102986 0.069662 0.230727
0.103842 0.069491 0.229987
0.104420 0.069141 0.228644
0.105114 0.068873 0.227566
0.106040 0.068761 0.226996
0.106425 0.068304 0.225277
0.107058 0.068014 0.224102
0.107827 0.067816 0.223219
0.108290 0.067430 0.221710
0.108878 0.067129 0.220473
0.109648 0.066945 0.219610
0.110386 0.066745 0.218686
0.111023 0.066489 0.217563
0.111681 0.066249 0.216487
0.112640 0.066191 0.215992
0.113252 0.065932 0.214828
0.113952 0.065728 0.213835
-1.513322 0.867498 2.799208
-1.538558 0.889890 2.875677
-1.526007 0.890634 2.882127
-1.489401 0.877225 2.842551
-1.474850 0.876679 2.844431
-0.976398 0.591315 1.923164
-0.959467 0.586583 1.909913
-0.943934 0.582624 1.899050
-0.928996 0.578959 1.889032
-0.918833 0.578228 1.888482
-0.910618 0.578720 1.891844
-0.903362 0.579838 1.897174
-0.894141 0.579706 1.898335
-0.885765 0.580124 1.901224
-0.878666 0.581397 1.906841
-0.954928 0.638428 2.095399
-0.946064 0.639148 2.099197
-0.932093 0.636397 2.091515
-0.923257 0.637130 2.095207
-0.795140 0.560758 1.846133
-0.784395 0.559317 1.842335
-0.776128 0.559630 1.844260
-0.769366 0.561049 1.849774
-0.759273 0.560044 1.847247
-1.006128 0.787310 2.601356
-0.995109 0.788288 2.605295
-0.984064 0.789270 2.609191
-0.844696 0.694838 2.298011
-0.824788 0.687262 2.273378
-0.816528 0.689321 2.280564
-0.808736 0.691835 2.289216
-0.792801 0.687357 2.274691
-0.784303 0.689294 2.281350
-0.771244 0.687220 2.274698
-0.761496 0.688081 2.277720
-0.629977 0.577364 1.911336
-0.614324 0.571169 1.890912
-0.602483 0.568389 1.881764
-0.596356 0.570997 1.890426
-0.590584 0.574030 1.900471
-0.581415 0.573803 1.899699
-0.255380 0.309049 1.022178
-0.247550 0.305329 1.009739
-0.242144 0.304513 1.006897
-0.235917 0.302613 1.000465
-0.227709 0.298041 0.985199
-0.224443 0.299882 0.991127
-0.220172 0.300431 0.992779
-0.213630 0.297838 0.984046
-0.210819 0.300446 0.992494
-0.204819 0.298525 0.985975
-0.195640 0.291775 0.963508
-0.191142 0.291851 0.963587
-0.185558 0.290231 0.958063
-0.176610 0.283138 0.934476
-0.171537 0.282054 0.930724
-0.166174 0.280423 0.925169
-0.160458 0.278093 0.917309
-0.154904 0.275923 0.909979
-0.149228 0.273404 0.901502
-0.143670 0.270961 0.893277
-0.138309 0.268752 0.885828
-0.133100 0.266711 0.878937
-0.128258 0.265297 0.874113
-0.121985 0.260730 0.858909
-0.101218 0.231794 0.763307
-0.097673 0.231960 0.763718
-0.092407 0.227894 0.750197
-0.088925 0.228077 0.750672
-0.085233 0.227718 0.749361
-0.081925 0.228396 0.751468
-0.078660 0.229263 0.754197
-0.074528 0.227566 0.748493
-0.070929 0.227409 0.747862
-0.067377 0.227391 0.747688
-0.063621 0.226647 0.745130
-0.059532 0.224559 0.738163
-0.055593 0.222814 0.732325
-0.051562 0.220444 0.724439
-0.047452 0.217373 0.714255
-0.043256 0.213404 0.701128
-0.039497 0.211108 0.693502
-0.035860 0.209110 0.686861
-0.032204 0.206586 0.678500
-0.028988 0.206645 0.678626
-0.012788 0.117247 0.384972
-0.011104 0.118805 0.390055
-0.009167 0.117739 0.386526
-0.007272 0.116832 0.383521
-0.005579 0.119622 0.392655
-0.003876 0.124923 0.410031
-0.001926 0.124933 0.410042
0.000024 0.125433 0.411665
0.001999 0.126481 0.415087
0.004049 0.128893 0.422989
0.006139 0.130539 0.428380
0.008191 0.130758 0.429090
0.010249 0.130962 0.429753
0.012389 0.131982 0.433099
0.014332 0.130906 0.429568
0.016325 0.130491 0.428207
0.018243 0.129642 0.425425
0.020135 0.128790 0.422639
0.022076 0.128383 0.421313
0.024033 0.128124 0.420475
0.026034 0.128126 0.420493
0.028063 0.128252 0.420924
0.030250 0.129034 0.423511
0.032261 0.129014 0.423465
0.034377 0.129395 0.424738
0.036525 0.129844 0.426237
0.037679 0.126897 0.416592
0.036526 0.116865 0.383683
0.038035 0.115899 0.380540
0.039826 0.115840 0.380375
0.034936 0.097198 0.319188
0.036388 0.097022 0.318635
0.037896 0.096999 0.318589
0.039360 0.096871 0.318198
0.040720 0.096507 0.317032
0.041989 0.095960 0.315266
0.043414 0.095794 0.314752
0.044790 0.095536 0.313934
0.046064 0.095082 0.312473
0.047395 0.094772 0.311487
0.048688 0.094407 0.310319
0.050018 0.094131 0.309444
0.051192 0.093586 0.307687
0.052448 0.093219 0.306512
0.053603 0.092695 0.304820
0.054847 0.092349 0.303715
0.056061 0.091971 0.302502
0.057281 0.091622 0.301385
0.058507 0.091300 0.300355
0.059680 0.090911 0.299107
0.060869 0.090564 0.297992
0.061976 0.090114 0.296540
0.063126 0.089745 0.295353
0.064256 0.089364 0.294123
0.065480 0.089127 0.293368
0.066582 0.088738 0.292110
0.067486 0.088105 0.290047
0.068282 0.087360 0.287614
0.069316 0.086942 0.286256
0.070189 0.086342 0.284295
0.071195 0.085925 0.282938
0.072122 0.085431 0.281320
0.073116 0.085031 0.280015
0.074038 0.084565 0.278485
0.075064 0.084231 0.277390
0.076290 0.084128 0.277054
0.077251 0.083743 0.275783
0.078176 0.083332 0.274426
0.078164 0.081950 0.269870
0.078769 0.081251 0.267559
0.079671 0.080875 0.266308
0.080918 0.080856 0.266229
0.081665 0.080346 0.264529
0.082326 0.079766 0.262598
0.083388 0.079588 0.261983
0.084154 0.079136 0.260466
0.085139 0.078900 0.259655
0.085881 0.078449 0.258133
0.086770 0.078143 0.257083
0.087589 0.077783 0.255853
0.088307 0.077344 0.254359
0.088923 0.076829 0.252608
0.089620 0.076397 0.251129
0.090311 0.075972 0.249665
0.091129 0.075662 0.248578
0.091783 0.075226 0.247070
0.092570 0.074909 0.245948
0.093210 0.074482 0.244461
0.093866 0.074078 0.243043
0.094643 0.073778 0.241964
0.095459 0.073516 0.241001
0.096247 0.073239 0.239983
0.097061 0.072987 0.239044
0.097929 0.072781 0.238249
0.098783 0.072570 0.237428
0.099670 0.072387 0.236695
0.100420 0.072111 0.235649
0.101129 0.071811 0.234518
0.101833 0.071514 0.233391
0.102646 0.071299 0.232526
0.103316 0.070991 0.231347
0.104050 0.070733 0.230325
0.104656 0.070394 0.229033
0.105214 0.070029 0.227650
0.105946 0.069787 0.226657
0.106440 0.069395 0.225168
0.107048 0.069084 0.223935
0.107676 0.068792 0.222754
0.108269 0.068484 0.221513
0.108872 0.068188 0.220301
0.109620 0.067987 0.219390
0.110316 0.067759 0.218376
0.110991 0.067521 0.217325
0.111607 0.067253 0.216164
0.112629 0.067232 0.215785
0.113377 0.067049 0.214873
0.114139 0.066878 0.213987
-1.525066 0.887907 2.818463
-1.518130 0.891811 2.835098
-1.516749 0.899080 2.862305
-1.494561 0.894035 2.850151
-1.481542 0.894433 2.855166
-0.957141 0.594315 1.903983
-0.943747 0.591621 1.897426
-0.928895 0.587952 1.887629
-0.919050 0.587412 1.887777
-0.911313 0.588222 1.892176
-0.904024 0.589341 1.897493
-0.894362 0.588920 1.897774
-0.885133 0.588779 1.898878
-0.878500 0.590380 1.905528
-0.949505 0.644733 2.082501
-0.940676 0.645449 2.086282
-0.931965 0.646264 2.090307
-0.912744 0.639729 2.070480
-0.903982 0.640463 2.074094
-0.800574 0.573422 1.858036
-0.787274 0.570151 1.848421
-0.777841 0.569640 1.847690
-0.774200 0.573406 1.860784
-0.763716 0.572134 1.857476
-0.973651 0.773816 2.516807
-0.958696 0.771325 2.509426
-0.964258 0.785485 2.556169
-0.843820 0.704978 2.295243
-0.823966 0.697320 2.270764
-0.814946 0.698751 2.275831
-0.811666 0.705206 2.297225
-0.790271 0.695886 2.267185
-0.779797 0.696058 2.268027
-0.769197 0.696122 2.268477
-0.747765 0.686247 2.236497
-0.738156 0.687096 2.239426
-0.616228 0.581906 1.896694
-0.605442 0.580120 1.890954
-0.601665 0.585097 1.907230
-0.590895 0.583321 1.901469
-0.582238 0.583609 1.902411
-0.578599 0.589015 1.920011
-0.259543 0.313101 1.019894
-0.255027 0.313455 1.020924
-0.245561 0.307620 1.001793
-0.240876 0.307664 1.001804
-0.234130 0.305024 0.993072
-0.225925 0.300338 0.977675
-0.221931 0.301171 0.980239
-0.215825 0.299113 0.973392
-0.210722 0.298386 0.970874
-0.206031 0.298224 0.970188
-0.200943 0.297465 0.967560
-0.193385 0.292932 0.952652
-0.186775 0.289653 0.941829
-0.182893 0.290548 0.944574
-0.178604 0.290825 0.945309
-0.169282 0.282711 0.918770
-0.165283 0.283294 0.920500
-0.160097 0.281818 0.915540
-0.154048 0.278702 0.905252
-0.148871 0.277028 0.899652
-0.143126 0.274170 0.890209
-0.137702 0.271771 0.882261
-0.132805 0.270296 0.877314
-0.125977 0.264670 0.858898
-0.120451 0.261493 0.848437
-0.116523 0.261690 0.848925
-0.097739 0.235764 0.764555
-0.094184 0.235926 0.764951
-0.090426 0.235573 0.763678
-0.086205 0.233937 0.758250
-0.084503 0.239291 0.775477
-0.079985 0.236794 0.767263
-0.074918 0.232357 0.752770
-0.071166 0.231759 0.750718
-0.067579 0.231666 0.750307
-0.063625 0.230234 0.745564
-0.059665 0.228612 0.740208
-0.055726 0.226870 0.734470
-0.051594 0.224063 0.725288
-0.047595 0.221472 0.716810
-0.043490 0.217953 0.705336
-0.039498 0.214458 0.693947
-0.035721 0.211598 0.684619
-0.032431 0.211345 0.683729
-0.028635 0.207376 0.670822
-0.025455 0.207429 0.670933
-0.012831 0.119523 0.386564
-0.011035 0.119963 0.387957
-0.009363 0.122209 0.395191
-0.007337 0.119787 0.387333
-0.005563 0.121257 0.392061
-0.003902 0.127887 0.413474
-0.001936 0.127897 0.413485
0.000030 0.129458 0.418515
0.002050 0.131385 0.424728
0.004074 0.131518 0.425141
0.006134 0.132356 0.427840
0.008219 0.133156 0.430416
0.010250 0.132951 0.429749
0.012286 0.132862 0.429458
0.014300 0.132595 0.428594
0.016259 0.131951 0.426513
0.018148 0.130941 0.423250
0.020056 0.130252 0.421032
0.021914 0.129398 0.418278
0.023826 0.128974 0.416918
0.025792 0.128887 0.416652
0.027690 0.128496 0.415401
0.029702 0.128651 0.415919
0.031719 0.128807 0.416445
0.033826 0.129288 0.418021
0.036020 0.130027 0.420434
0.037759 0.129132 0.417565
0.039727 0.129073 0.417401
0.039147 0.121135 0.391757
0.034866 0.098507 0.318624
0.036309 0.098310 0.318010
0.037830 0.098332 0.318110
0.039287 0.098191 0.317678
0.040616 0.097753 0.316291
0.042000 0.097475 0.315418
0.043366 0.097172 0.314468
0.044744 0.096917 0.313673
0.046063 0.096555 0.312531
0.047346 0.096143 0.311225
0.048688 0.095871 0.310375
0.049857 0.095285 0.308509
0.051152 0.094966 0.307506
0.052359 0.094506 0.306046
0.053585 0.094104 0.304773
0.054908 0.093888 0.304105
0.056087 0.093443 0.302692
0.057328 0.093122 0.301679
0.058544 0.092777 0.300589
0.059682 0.092327 0.299160
0.060908 0.092031 0.298225
0.061808 0.091266 0.295772
0.063053 0.091034 0.295045
0.064251 0.090746 0.294132
0.065422 0.090432 0.293137
0.066451 0.089939 0.291560
0.067389 0.089346 0.289655
0.068305 0.088749 0.287734
0.069443 0.088457 0.286801
0.070510 0.088086 0.285612
0.071318 0.087413 0.283442
0.072268 0.086935 0.281899
0.073237 0.086498 0.280488
0.073979 0.085811 0.278266
0.075030 0.085503 0.277267
0.076055 0.085175 0.276201
0.077059 0.084835 0.275095
0.077883 0.084311 0.273390
0.078428 0.083508 0.270774
0.079280 0.083051 0.269280
0.080235 0.082716 0.268179
0.081207 0.082408 0.267160
0.081779 0.081710 0.264875
0.082654 0.081331 0.263620
0.083508 0.080943 0.262332
0.084394 0.080597 0.261177
0.085289 0.080269 0.260076
0.086034 0.079812 0.258552
0.086878 0.079458 0.257360
0.087607 0.079010 0.255858
0.088475 0.078698 0.254793
0.089102 0.078183 0.253067
0.089595 0.077566 0.251004
0.090265 0.077115 0.249477
0.091103 0.076818 0.248444
0.091750 0.076370 0.246916
0.092546 0.076055 0.245814
0.093250 0.075675 0.244494
0.093996 0.075336 0.243304
0.094716 0.074985 0.242071
0.095508 0.074699 0.241041
0.096318 0.074434 0.240073
0.097169 0.074206 0.239219
0.098020 0.073984 0.238374
0.098836 0.073740 0.237456
0.099856 0.073653 0.237035
0.100709 0.073445 0.236220
0.101265 0.073027 0.234722
0.101912 0.072685 0.233458
0.102747 0.072481 0.232634
0.103563 0.072269 0.231776
0.104233 0.071961 0.230601
0.104847 0.071620 0.229316
0.105468 0.071292 0.228061
0.105925 0.070861 0.226471
0.106500 0.070516 0.225149
0.107081 0.070182 0.223853
0.107586 0.069805 0.222413
0.108241 0.069533 0.221295
0.108927 0.069285 0.220247
0.109659 0.069071 0.219296
0.110418 0.068878 0.218403
0.110978 0.068565 0.217118
0.111605 0.068299 0.215972
0.112752 0.068354 0.215827
0.113274 0.068032 0.214480
0.114106 0.067901 0.213720
-1.529395 0.904144 2.823899
-1.534578 0.915361 2.863305
-1.531411 0.921754 2.887530
-1.493779 0.907332 2.846333
-1.491406 0.914258 2.871908
-1.478919 0.915057 2.878104
-0.956834 0.603276 1.902023
-0.944295 0.601083 1.897232
-0.929786 0.597582 1.888198
-0.919486 0.596743 1.887473
-0.911874 0.597651 1.892186
-0.903460 0.598046 1.895196
-0.895691 0.598881 1.899521
-0.886279 0.598623 1.900304
-0.878637 0.599568 1.904830
-0.944729 0.651371 2.070987
-0.935929 0.652084 2.074755
-0.933067 0.656995 2.091816
-0.917540 0.652997 2.080442
-0.908717 0.653735 2.084079
-0.802094 0.583361 1.860815
-0.786909 0.578666 1.846857
-0.780201 0.580170 1.852618
-0.773398 0.581636 1.858210
-0.762461 0.579992 1.853811
-0.975189 0.777510 2.489024
-0.964619 0.778449 2.492847
-0.957348 0.782107 2.505321
-0.943728 0.780605 2.501210
-0.828869 0.712278 2.283893
-0.818716 0.712799 2.286008
-0.813741 0.717903 2.302779
-0.794172 0.710096 2.278094
-0.783225 0.709890 2.277746
-0.772950 0.710298 2.279328
-0.752219 0.700972 2.249635
-0.742542 0.701829 2.252580
-0.612906 0.587688 1.886367
-0.605569 0.589184 1.891273
-0.598917 0.591401 1.898469
-0.589682 0.591096 1.897539
-0.584568 0.594976 1.910022
-0.577881 0.597352 1.917650
-0.255991 0.313579 1.006072
-0.250473 0.312604 1.002837
-0.246022 0.312950 1.003830
-0.239515 0.310644 0.996310
-0.233101 0.308368 0.988886
-0.226299 0.305476 0.979479
-0.220636 0.304033 0.974716
-0.216138 0.304169 0.975012
-0.209893 0.301798 0.967269
-0.204291 0.300268 0.962217
-0.198870 0.298940 0.957812
-0.191277 0.294211 0.942509
-0.184977 0.291293 0.933009
-0.180493 0.291160 0.932431
-0.174238 0.288095 0.922459
-0.168702 0.286093 0.915893
-0.163916 0.285289 0.913162
-0.159090 0.284370 0.910066
-0.154018 0.282950 0.905365
-0.147947 0.279561 0.894366
-0.142505 0.277198 0.886651
-0.136535 0.273631 0.875089
-0.131737 0.272265 0.870570
-0.126710 0.270323 0.864212
-0.121305 0.267420 0.854782
-0.116003 0.264549 0.845462
-0.112083 0.264740 0.845931
-0.100855 0.256547 0.819478
-0.095136 0.251680 0.803803
-0.089997 0.248009 0.791951
-0.085599 0.246147 0.785884
-0.081481 0.244960 0.781974
-0.076270 0.240216 0.766713
-0.071311 0.235832 0.752611
-0.067365 0.234515 0.748302
-0.063922 0.234900 0.749425
-0.059889 0.233034 0.743373
-0.056009 0.231567 0.738596
-0.051818 0.228534 0.728831
-0.047768 0.225735 0.719816
-0.043475 0.221272 0.705504
-0.039564 0.218165 0.695518
-0.036013 0.216663 0.690656
-0.032390 0.214384 0.683323
-0.028579 0.210213 0.669963
-0.025404 0.210266 0.670074
-0.012991 0.122926 0.391705
-0.011087 0.122435 0.390111
-0.009285 0.123117 0.392254
-0.007393 0.122641 0.390711
-0.005569 0.123359 0.392973
-0.003878 0.129250 0.411719
-0.001922 0.129260 0.411729
0.000035 0.129969 0.413967
0.002026 0.131480 0.418765
0.004058 0.132829 0.423048
0.006155 0.134729 0.429088
0.008192 0.134670 0.428890
0.010225 0.134597 0.428650
0.012316 0.135179 0.430500
0.014316 0.134736 0.429088
0.016276 0.134070 0.426967
0.018155 0.132964 0.423449
0.020024 0.132006 0.420402
0.021877 0.131131 0.417625
0.023673 0.130088 0.414313
0.025587 0.129803 0.413414
0.027504 0.129570 0.412686
0.029302 0.128846 0.410397
0.031261 0.128873 0.410501
0.033105 0.128455 0.409187
0.035481 0.130029 0.414224
0.037702 0.130900 0.417020
0.037787 0.124638 0.397096
0.039088 0.122794 0.391246
0.040928 0.122733 0.391077
0.034922 0.100170 0.319204
0.036263 0.099683 0.317677
0.037770 0.099674 0.317670
0.039312 0.099753 0.317948
0.040646 0.099318 0.316589
0.041977 0.098909 0.315310
0.043342 0.098602 0.314359
0.044756 0.098426 0.313825
0.046051 0.098005 0.312512
0.047325 0.097568 0.311145
0.048521 0.097002 0.309369
0.049847 0.096721 0.308501
0.051090 0.096300 0.307185
0.052314 0.095869 0.305836
0.053576 0.095527 0.304772
0.054853 0.095228 0.303845
0.056047 0.094806 0.302525
0.057322 0.094536 0.301691
0.058508 0.094138 0.300444
0.059652 0.093692 0.299046
0.060943 0.093493 0.298433
0.061909 0.092815 0.296291
0.063120 0.092526 0.295389
0.064321 0.092235 0.294482
0.065437 0.091839 0.293234
0.066627 0.091558 0.292356
0.067806 0.091276 0.291471
0.068746 0.090689 0.289609
0.069655 0.090085 0.287692
0.070765 0.089758 0.286658
0.071460 0.088928 0.284014
0.072209 0.088194 0.281676
0.073370 0.087981 0.280999
0.074344 0.087556 0.279640
0.075282 0.087104 0.278194
0.076191 0.086634 0.276688
0.077081 0.086158 0.275162
0.077714 0.085417 0.272784
0.078253 0.084598 0.270156
0.079250 0.084291 0.269161
0.080363 0.084117 0.268584
0.081166 0.083628 0.267001
0.081959 0.083145 0.265431
0.082716 0.082639 0.263786
0.083580 0.082254 0.262524
0.084539 0.081973 0.261589
0.085530 0.081730 0.260772
0.086036 0.081037 0.258517
0.086782 0.080587 0.257030
0.087663 0.080273 0.255973
0.088358 0.079799 0.254405
0.089342 0.079595 0.253692
0.089924 0.079044 0.251866
0.090297 0.078325 0.249502
0.091012 0.077918 0.248129
0.091752 0.077543 0.246851
0.092498 0.077182 0.245614
0.093278 0.076858 0.244489
0.093864 0.076383 0.242881
0.094677 0.076104 0.241886
0.095498 0.075837 0.240927
0.096283 0.075548 0.239892
0.097137 0.075319 0.239043
0.098054 0.075144 0.238357
0.098861 0.074890 0.237413
0.099797 0.074738 0.236786
0.100615 0.074501 0.235885
0.101424 0.074264 0.234974
0.102168 0.073984 0.233922
0.102954 0.073741 0.232979
0.103719 0.073488 0.231995
0.104453 0.073219 0.230954
0.105147 0.072927 0.229833
0.105631 0.072497 0.228271
0.106231 0.072155 0.226976
0.106730 0.071752 0.225483
0.107118 0.071283 0.223774
0.107701 0.070952 0.222489
0.108232 0.070593 0.221111
0.108894 0.070326 0.220009
0.109552 0.070062 0.218906
0.110322 0.069873 0.218029
0.111046 0.069660 0.217063
0.111682 0.069395 0.215927
0.112435 0.069207 0.215020
0.113363 0.069130 0.214440
0.113965 0.068857 0.213242
-1.513987 0.908616 2.792822
-1.521185 0.921139 2.835737
-1.525163 0.931922 2.873226
-1.489837 0.918668 2.836417
-1.481879 0.922201 2.851229
-1.477500 0.928049 2.873072
-1.465007 0.928863 2.879199
-0.957636 0.612943 1.902219
-0.944884 0.610583 1.897067
-0.930711 0.607251 1.888782
-0.919460 0.605780 1.886176
-0.911212 0.606278 1.889611
-0.903413 0.607088 1.893938
-0.894689 0.607286 1.896278
-0.885597 0.607237 1.897764
-0.877475 0.607860 1.901275
-0.938068 0.656592 2.055309
-0.929314 0.657299 2.059057
-0.931780 0.666042 2.087924
-0.910187 0.657592 2.062817
-0.901420 0.658325 2.066431
-0.800449 0.590997 1.856213
-0.788223 0.588427 1.849195
-0.777115 0.586643 1.844580
-0.771311 0.588868 1.852517
-0.762782 0.589041 1.853946
-0.966965 0.773347 2.437112
-0.956604 0.774265 2.440907
-0.947600 0.776319 2.448222
-0.936585 0.776755 2.450381
-0.927711 0.779001 2.458192
-0.917232 0.779939 2.461824
-0.832657 0.726391 2.293908
-0.819431 0.724248 2.287619
-0.812897 0.728042 2.300040
-0.794839 0.721479 2.279692
-0.778770 0.716565 2.264511
-0.771792 0.719998 2.275663
-0.754596 0.713860 2.256528
-0.744878 0.714723 2.259482
-0.611083 0.594834 1.880630
-0.602717 0.595310 1.882266
-0.595358 0.596810 1.887109
-0.585903 0.596223 1.885329
-0.578921 0.598174 1.891547
-0.574484 0.602855 1.906376
-0.252077 0.307778 0.972893
-0.247772 0.308121 0.973890
-0.245686 0.311288 0.983803
-0.238702 0.308251 0.974104
-0.233247 0.307110 0.970390
-0.228605 0.307014 0.969972
-0.225972 0.309668 0.978238
-0.216184 0.302424 0.955229
-0.212309 0.303320 0.957931
-0.206144 0.300912 0.950193
-0.200905 0.299779 0.946480
-0.197052 0.300710 0.949278
-0.190844 0.298007 0.940605
-0.184650 0.295198 0.931593
-0.180980 0.296386 0.935197
-0.175003 0.293760 0.926764
-0.170785 0.294030 0.927465
-0.164270 0.290253 0.915404
-0.158852 0.288265 0.908984
-0.153696 0.286655 0.903757
-0.148301 0.284496 0.896800
-0.142843 0.282084 0.889051
-0.137471 0.279701 0.881394
-0.132240 0.277467 0.874206
-0.127473 0.276093 0.869733
-0.122376 0.273889 0.862650
-0.117049 0.271000 0.853410
-0.111752 0.267978 0.843758
-0.105988 0.263573 0.829753
-0.100682 0.260010 0.818407
-0.094971 0.255076 0.802751
-0.090667 0.253666 0.798190
-0.085932 0.250876 0.789293
-0.081303 0.248155 0.780615
-0.076435 0.244411 0.768728
-0.071664 0.240620 0.756696
-0.067430 0.238329 0.749388
-0.063744 0.237826 0.747707
-0.060203 0.237839 0.747649
-0.055853 0.234461 0.736935
-0.051763 0.231793 0.728461
-0.047285 0.226879 0.712934
-0.043307 0.223797 0.703171
-0.039615 0.221804 0.696832
-0.035613 0.217556 0.683416
-0.032429 0.217949 0.684583
-0.029188 0.218010 0.684710
-0.012853 0.123510 0.387845
-0.011148 0.125037 0.392609
-0.009298 0.125229 0.393184
-0.007393 0.124581 0.391124
-0.005597 0.125973 0.395468
-0.003754 0.127164 0.399185
-0.001899 0.130032 0.408168
0.000040 0.131444 0.412581
0.002008 0.131962 0.414191
0.004037 0.133983 0.420521
0.006097 0.135341 0.424771
0.008155 0.136008 0.426856
0.010195 0.136154 0.427308
0.012257 0.136500 0.428389
0.014264 0.136218 0.427500
0.016282 0.136101 0.427132
0.018217 0.135393 0.424914
0.020049 0.134138 0.420980
0.021905 0.133251 0.418202
0.023608 0.131664 0.413229
0.025265 0.130080 0.408269
0.027146 0.129794 0.407383
0.028765 0.128374 0.402939
0.030535 0.127763 0.401040
0.032265 0.127069 0.398876
0.033973 0.126366 0.396690
0.036002 0.126872 0.398299
0.037476 0.125466 0.393907
0.038992 0.124331 0.390365
0.040828 0.124270 0.390197
0.034805 0.101333 0.318200
0.036209 0.101028 0.317263
0.037678 0.100924 0.316957
0.039179 0.100909 0.316935
0.040614 0.100732 0.316404
0.041971 0.100381 0.315324
0.043331 0.100060 0.314342
0.044727 0.099840 0.313674
0.046079 0.099541 0.312761
0.047311 0.099008 0.311111
0.048579 0.098580 0.309794
0.049888 0.098259 0.308809
0.051098 0.097765 0.307283
0.052396 0.097464 0.306363
0.053650 0.097099 0.305239
0.054899 0.096743 0.304144
0.056132 0.096379 0.303023
0.057330 0.095974 0.301775
0.058485 0.095519 0.300367
0.059701 0.095182 0.299326
0.060769 0.094631 0.297615
0.062004 0.094359 0.296779
0.063172 0.093998 0.295662
0.064366 0.093692 0.294717
0.065558 0.093395 0.293797
0.066706 0.093049 0.292724
0.067865 0.092733 0.291742
0.068956 0.092337 0.290507
0.069807 0.091643 0.288329
0.070723 0.091058 0.286496
0.071566 0.090404 0.284443
0.072332 0.089677 0.282159
0.073369 0.089308 0.280997
0.074462 0.089018 0.280083
0.075482 0.088653 0.278929
0.076378 0.088157 0.277361
0.077442 0.087869 0.276441
0.078358 0.087424 0.275031
0.078819 0.086495 0.272091
0.079468 0.085799 0.269881
0.080301 0.085321 0.268354
0.081543 0.085285 0.268215
0.082364 0.084816 0.266710
0.083138 0.084314 0.265098
0.083626 0.083542 0.262631
0.084625 0.083295 0.261815
0.085471 0.082906 0.260547
0.085996 0.082222 0.258348
0.086921 0.081934 0.257389
0.087649 0.081471 0.255877
0.088284 0.080935 0.254132
0.089091 0.080569 0.252916
0.089939 0.080250 0.251842
0.090593 0.079768 0.250253
0.091073 0.079148 0.248226
0.091791 0.078747 0.246882
0.092543 0.078385 0.245654
0.093247 0.077993 0.244327
0.093955 0.077612 0.243032
0.094750 0.077313 0.241985
0.095607 0.077070 0.241109
0.096475 0.076842 0.240275
0.097280 0.076570 0.239295
0.098129 0.076337 0.238433
0.099024 0.076146 0.237694
0.099908 0.075951 0.236935
0.100760 0.075736 0.236108
0.101561 0.075488 0.235170
0.102320 0.075214 0.234145
0.103113 0.074970 0.233207
0.103776 0.074639 0.231988
0.104316 0.074226 0.230510
0.105074 0.073977 0.229530
0.105674 0.073622 0.228214
0.106160 0.073195 0.226670
0.106702 0.072816 0.225264
0.107284 0.072471 0.223956
0.107943 0.072185 0.222821
0.108549 0.071870 0.221585
0.109058 0.071496 0.220161
0.109604 0.071154 0.218826
0.110408 0.070984 0.218010
0.110932 0.070639 0.216645
0.111546 0.070357 0.215463
0.112287 0.070160 0.214530
0.112971 0.069931 0.213486
0.113845 0.069823 0.212798
-1.535161 0.935095 2.829122
-1.531859 0.941468 2.852948
-1.516045 0.940197 2.853451
-1.503499 0.940949 2.859913
-1.494967 0.944252 2.873969
-1.478216 0.942377 2.872108
-1.465688 0.943185 2.878257
-0.965339 0.627108 1.916055
-0.944912 0.619728 1.895725
-0.930839 0.616412 1.887698
-0.920920 0.615811 1.887875
-0.912590 0.616270 1.891216
-0.904179 0.616684 1.894335
-0.896604 0.617683 1.899171
-0.886848 0.617184 1.899323
-0.878209 0.617461 1.901783
-0.956816 0.686867 2.118881
-0.947777 0.687604 2.122700
-0.921080 0.675409 2.086496
-0.912192 0.676150 2.090158
-0.805563 0.603664 1.867246
-0.786321 0.595781 1.843950
-0.778672 0.596605 1.847528
-0.775112 0.600616 1.860928
-0.766313 0.600613 1.861842
-0.945377 0.767383 2.381952
-0.939423 0.771725 2.396355
-0.946666 0.787147 2.445124
-0.923706 0.777526 2.416048
-0.918335 0.782656 2.432746
-0.898824 0.775713 2.411861
-0.888518 0.776637 2.415380
-0.842071 0.745586 2.319380
-0.819920 0.735515 2.288564
-0.810825 0.737044 2.293789
-0.793386 0.730927 2.275172
-0.776911 0.725543 2.258791
-0.771632 0.730612 2.274908
-0.754350 0.724298 2.255544
-0.744624 0.725163 2.258496
-0.602400 0.595151 1.853757
-0.595404 0.596881 1.859301
-0.589280 0.599551 1.867744
-0.581641 0.600738 1.871540
-0.573505 0.601440 1.873800
-0.567084 0.603990 1.881794
-0.252787 0.307673 0.958385
-0.248552 0.308015 0.959383
-0.247798 0.312764 0.974099
-0.243477 0.313106 0.975078
-0.239144 0.313444 0.976041
-0.233684 0.312290 0.972348
-0.225900 0.307923 0.958648
-0.220232 0.306321 0.953552
-0.213873 0.303670 0.945187
-0.208737 0.302681 0.941992
-0.201897 0.299125 0.930805
-0.196738 0.297958 0.927047
-0.192595 0.298310 0.928014
-0.186856 0.296149 0.921161
-0.182163 0.295583 0.919268
-0.177818 0.295570 0.919090
-0.172636 0.294128 0.914470
-0.167778 0.293179 0.911380
-0.163106 0.292515 0.909174
-0.158885 0.292647 0.909442
-0.153826 0.291198 0.904799
-0.148217 0.288596 0.896572
-0.142460 0.285546 0.886955
-0.136868 0.282651 0.877823
-0.132082 0.281290 0.873458
-0.126914 0.279005 0.866225
-0.121975 0.277087 0.860133
-0.117185 0.275388 0.854723
-0.112294 0.273320 0.848174
-0.107081 0.270288 0.838636
-0.101521 0.266114 0.825558
-0.096551 0.263215 0.816442
-0.089744 0.254856 0.790397
-0.085587 0.253624 0.786460
-0.081902 0.253743 0.786715
-0.077266 0.250788 0.777447
-0.072163 0.245944 0.762325
-0.068120 0.244395 0.757421
-0.063851 0.241815 0.749328
-0.060262 0.241664 0.748766
-0.056397 0.240316 0.744497
-0.052010 0.236414 0.732323
-0.047975 0.233670 0.723741
-0.043216 0.226710 0.702105
-0.039410 0.224002 0.693645
-0.035599 0.220769 0.683566
-0.032227 0.219886 0.680766
-0.012875 0.125612 0.388794
-0.011020 0.125499 0.388413
-0.009267 0.126740 0.392227
-0.007402 0.126681 0.392019
-0.005557 0.127057 0.393157
-0.003774 0.129940 0.402059
-0.001883 0.131226 0.406015
0.000046 0.133036 0.411598
0.002013 0.133866 0.414151
0.004029 0.135495 0.419175
0.006125 0.137870 0.426510
0.008192 0.138554 0.428616
0.010205 0.138237 0.427628
0.012263 0.138536 0.428550
0.014283 0.138381 0.428067
0.016310 0.138320 0.427877
0.018292 0.137938 0.426696
0.020211 0.137198 0.424412
0.022021 0.135920 0.420463
0.023798 0.134669 0.416599
0.025422 0.132810 0.410857
0.026974 0.130868 0.404861
0.028492 0.129029 0.399184
0.030143 0.127981 0.395957
0.031814 0.127138 0.393364
0.033492 0.126415 0.391145
0.035049 0.125336 0.387824
0.037056 0.125894 0.389569
0.038782 0.125487 0.388333
0.040608 0.125426 0.388166
0.034752 0.102675 0.317775
0.036192 0.102476 0.317180
0.037630 0.102287 0.316613
0.039135 0.102287 0.316636
0.040584 0.102148 0.316227
0.041949 0.101814 0.315215
0.043343 0.101570 0.314482
0.044742 0.101354 0.313839
0.046113 0.101091 0.313046
0.047461 0.100793 0.312149
0.048656 0.100200 0.310334
0.049911 0.099761 0.308997
0.051075 0.099171 0.307193
0.052395 0.098908 0.306403
0.053645 0.098529 0.305252
0.054918 0.098212 0.304291
0.056146 0.097834 0.303142
0.057347 0.097427 0.301901
0.058527 0.097005 0.300613
0.059579 0.096397 0.298746
0.060807 0.096095 0.297829
0.061905 0.095606 0.296329
0.063097 0.095280 0.295335
0.064326 0.095024 0.294556
0.065478 0.094666 0.293456
0.066668 0.094377 0.292574
0.067820 0.094048 0.291562
0.068730 0.093401 0.289565
0.069724 0.092894 0.287997
0.070671 0.092343 0.286294
0.071390 0.091521 0.283745
0.072420 0.091121 0.282505
0.073444 0.090728 0.281282
0.074471 0.090352 0.280111
0.075466 0.089951 0.278858
0.076286 0.089359 0.277011
0.077046 0.088718 0.275010
0.077925 0.088233 0.273491
0.078252 0.087149 0.270110
0.079384 0.086983 0.269572
0.080333 0.086623 0.268432
0.081355 0.086353 0.267564
0.082459 0.086176 0.266982
0.083406 0.085843 0.265914
0.084134 0.085299 0.264185
0.084791 0.084699 0.262284
0.085292 0.083963 0.259954
0.086145 0.083590 0.258746
0.086854 0.083088 0.257136
0.087575 0.082612 0.255602
0.088434 0.082279 0.254504
0.089221 0.081887 0.253221
0.090025 0.081521 0.252014
0.090746 0.081092 0.250605
0.091281 0.080508 0.248717
0.091879 0.079995 0.247038
0.092359 0.079393 0.245084
0.093306 0.079202 0.244393
0.093948 0.078761 0.242924
0.094772 0.078481 0.241947
0.095663 0.078262 0.241152
0.096402 0.077926 0.239990
0.097376 0.077785 0.239423
0.098191 0.077522 0.238474
0.098977 0.077242 0.237467
0.099936 0.077102 0.236882
0.100719 0.076831 0.235887
0.101454 0.076529 0.234792
0.102202 0.076245 0.233742
0.102874 0.075910 0.232530
0.103556 0.075588 0.231354
0.104314 0.075330 0.230361
0.104966 0.075000 0.229142
0.105664 0.074710 0.228038
0.106064 0.074217 0.226306
0.106631 0.073851 0.224950
0.107334 0.073584 0.223892
0.107874 0.073212 0.222503
0.108486 0.072897 0.221277
0.108999 0.072520 0.219857
0.109611 0.072217 0.218650
0.110456 0.072072 0.217908
0.111048 0.071765 0.216670
0.111387 0.071302 0.214949
0.111887 0.070950 0.213551
0.112779 0.070851 0.212903
0.113454 0.070618 0.211840
-1.560095 0.964279 2.872170
-1.528427 0.953194 2.843778
-1.518735 0.955738 2.855818
-1.488189 0.945085 2.828210
-1.490891 0.955546 2.863609
-1.474796 0.954044 2.863024
-1.463555 0.955683 2.871706
-0.947447 0.624550 1.879048
-0.949977 0.632226 1.904426
-0.932285 0.626463 1.889233
-0.918607 0.623310 1.881789
-0.911579 0.624654 1.887822
-0.903969 0.625621 1.892638
-0.893708 0.624755 1.891826
-0.884933 0.624922 1.894055
-0.877107 0.625769 1.898271
-0.998180 0.727114 2.209270
-0.941710 0.693264 2.108000
-0.932703 0.694005 2.111757
-0.793745 0.603569 1.838999
-0.784903 0.603466 1.839805
-0.776688 0.603850 1.842037
-0.769479 0.605033 1.846654
-0.780534 0.620770 1.895659
-0.934170 0.769456 2.352933
-0.910820 0.759250 2.322658
-0.919208 0.775575 2.373495
-0.909071 0.776480 2.377100
-0.894887 0.773907 2.370004
-0.891205 0.780468 2.390823
-0.858311 0.761286 2.332722
-0.836430 0.751502 2.303345
-0.817556 0.744199 2.281507
-0.805625 0.743106 2.278656
-0.795359 0.743540 2.280443
-0.785529 0.744400 2.283495
-0.774445 0.744079 2.282881
-0.760173 0.740644 2.272671
-0.750361 0.741518 2.275645
-0.607384 0.608917 1.868913
-0.596595 0.606888 1.862867
-0.591397 0.610572 1.874324
-0.581107 0.609031 1.869718
-0.573942 0.610769 1.875150
-0.569155 0.615130 1.888613
-0.246551 0.304507 0.934811
-0.237587 0.298768 0.917138
-0.235885 0.302117 0.927358
-0.234602 0.306141 0.939639
-0.230573 0.306666 0.941172
-0.225401 0.305663 0.938008
-0.220356 0.304796 0.935256
-0.214107 0.302194 0.927175
-0.209330 0.301604 0.925264
-0.205381 0.302209 0.927013
-0.200554 0.301519 0.924787
-0.195804 0.300918 0.922830
-0.192388 0.302386 0.927211
-0.187650 0.301797 0.925284
-0.182771 0.300947 0.922550
-0.177935 0.300129 0.919916
-0.173083 0.299243 0.917068
-0.168307 0.298447 0.914497
-0.163036 0.296707 0.909033
-0.158268 0.295815 0.906166
-0.153543 0.294955 0.903395
-0.148413 0.293247 0.898031
-0.142879 0.290617 0.889841
-0.136365 0.285774 0.874880
-0.131205 0.283554 0.867952
-0.127094 0.283531 0.867749
-0.122157 0.281604 0.861720
-0.117217 0.279538 0.855268
-0.112759 0.278513 0.852007
-0.107989 0.276616 0.846077
-0.102130 0.271674 0.830840
-0.098263 0.271848 0.831250
-0.090001 0.259373 0.792992
-0.086239 0.259343 0.792788
-0.082033 0.257918 0.788324
-0.077652 0.255778 0.781677
-0.072966 0.252370 0.771160
-0.067783 0.246794 0.754024
-0.064163 0.246608 0.753361
-0.060589 0.246586 0.753201
-0.056116 0.242672 0.741159
-0.052039 0.240065 0.733111
-0.048068 0.237612 0.725541
-0.043940 0.233942 0.714258
-0.039834 0.229790 0.701509
-0.036082 0.227107 0.693250
-0.032716 0.226566 0.691534
-0.029445 0.226628 0.691661
-0.013013 0.128880 0.393272
-0.011064 0.127920 0.390315
-0.009255 0.128505 0.392073
-0.007439 0.129282 0.394419
-0.005564 0.129222 0.394212
-0.003738 0.130803 0.399012
-0.001898 0.134589 0.410541
0.000051 0.135048 0.411923
0.002026 0.136295 0.415711
0.004053 0.138123 0.421273
0.006112 0.139461 0.425341
0.008201 0.140652 0.428962
0.010208 0.140236 0.427687
0.012236 0.140201 0.427573
0.014301 0.140534 0.428586
0.016375 0.140859 0.429573
0.018370 0.140516 0.428530
0.020336 0.140034 0.427062
0.022282 0.139516 0.425486
0.024028 0.137935 0.420669
0.026019 0.137897 0.420563
0.026716 0.131494 0.401045
0.028463 0.130763 0.398825
0.030104 0.129671 0.395510
0.031808 0.128961 0.393358
0.033612 0.128712 0.392612
0.035178 0.127625 0.389314
0.036997 0.127521 0.389016
0.038924 0.127778 0.389817
0.040526 0.126997 0.387455
0.042346 0.126933 0.387281
0.036233 0.104086 0.317591
0.037627 0.103770 0.316647
0.039074 0.103617 0.316199
0.040567 0.103595 0.316151
0.041946 0.103290 0.315242
0.043320 0.102997 0.314368
0.044687 0.102705 0.313499
0.046103 0.102543 0.313024
0.047467 0.102279 0.312239
0.048728 0.101814 0.310843
0.049759 0.100911 0.308105
