ply
format ascii 1.0
element vertex 1744
property float x
property float y
property float z
end_header
0.056218 0.017977 0.266076
0.057716 0.018045 0.267194
0.059147 0.018089 0.267962
0.060544 0.018121 0.268548
0.061985 0.018165 0.269309
0.063534 0.018238 0.270505
0.064887 0.018252 0.270839
0.066351 0.018297 0.271617
0.067724 0.018315 0.272004
0.069134 0.018343 0.272527
0.070494 0.018356 0.272841
0.071882 0.018376 0.273251
0.073245 0.018389 0.273555
0.074660 0.018415 0.274045
0.076033 0.018429 0.274365
0.077372 0.018435 0.274558
0.078653 0.018426 0.274544
0.079932 0.018418 0.274525
0.081110 0.018387 0.274166
0.082281 0.018356 0.273797
0.083291 0.018289 0.272908
0.083754 0.018107 0.270285
0.084160 0.017918 0.267559
0.083895 0.017594 0.262808
0.084737 0.017509 0.261612
0.085871 0.017485 0.261337
0.086891 0.017439 0.260729
0.087728 0.017358 0.259595
0.088604 0.017287 0.258603
0.088801 0.017087 0.255681
0.089531 0.016994 0.254350
0.090359 0.016922 0.253326
0.091164 0.016847 0.252262
0.091972 0.016775 0.251230
0.092916 0.016729 0.250588
0.093614 0.016640 0.249304
0.094389 0.016567 0.248250
0.095332 0.016525 0.247653
0.096205 0.016472 0.246889
0.096951 0.016399 0.245816
0.097792 0.016344 0.245003
0.098819 0.016320 0.244663
0.099729 0.016278 0.244039
0.100558 0.016224 0.243229
0.101343 0.016164 0.242327
0.101980 0.016082 0.241086
0.102696 0.016014 0.240054
0.103456 0.015955 0.239138
0.104025 0.015867 0.237800
0.104670 0.015793 0.236654
0.105373 0.015729 0.235656
0.105886 0.015638 0.234250
0.106428 0.015554 0.232931
0.106866 0.015456 0.231405
0.107085 0.015329 0.229432
0.107634 0.015251 0.228192
0.107790 0.015119 0.226143
0.107709 0.014958 0.223634
0.108139 0.014869 0.222218
0.108689 0.014799 0.221063
0.109121 0.014714 0.219681
0.109574 0.014634 0.218361
0.109617 0.014500 0.216245
0.110008 0.014415 0.214838
0.110605 0.014358 0.213847
0.111041 0.014282 0.212552
-1.047856 0.140985 1.975147
-1.038024 0.140920 1.975578
-1.029377 0.141016 1.978184
-1.021638 0.141239 1.982492
-1.012294 0.141243 1.983636
-1.005812 0.141649 1.990365
-0.997029 0.141736 1.992532
-0.990988 0.142219 2.000183
-0.985972 0.142859 2.009985
-0.979187 0.143252 2.016256
-0.976597 0.144273 2.031294
-0.975525 0.145541 2.049748
-0.964275 0.145300 2.046897
-0.954388 0.145262 2.046833
-0.929814 0.142965 2.014871
-0.903104 0.140289 1.977490
-0.884515 0.138831 1.957225
-0.873657 0.138570 1.953757
-0.857807 0.137502 1.938871
-0.845235 0.136943 1.931100
-1.475465 0.241647 3.407709
-1.461913 0.242056 3.413516
-1.442541 0.241500 3.405625
-1.421663 0.240677 3.393886
-1.406721 0.240851 3.396134
-1.386822 0.240171 3.386263
-1.367010 0.239490 3.376308
-1.362528 0.241510 3.404365
-0.237116 0.057598 0.806038
-0.233708 0.057699 0.807094
-0.231721 0.058160 0.813176
-0.229791 0.058652 0.819671
-0.227411 0.059044 0.824757
-0.224598 0.059335 0.828429
-0.221203 0.059479 0.830051
-0.217967 0.059673 0.832353
-0.216008 0.060230 0.839711
-0.213519 0.060657 0.845253
-0.254216 0.073605 1.025172
-0.249791 0.073739 1.026534
-0.242690 0.073073 1.016759
-0.237637 0.073009 1.015360
-0.232072 0.072782 1.011695
-0.227648 0.072910 1.012977
-0.220346 0.072103 1.001259
-0.210590 0.070439 0.977661
-0.204118 0.069822 0.968623
-0.199772 0.069922 0.969521
-0.155433 0.057051 0.790275
-0.151857 0.057128 0.790964
-0.114310 0.053725 0.741071
-0.110245 0.053481 0.737381
-0.106722 0.053493 0.737227
-0.102962 0.053383 0.735398
-0.099430 0.053387 0.735153
-0.095828 0.053353 0.734387
-0.092381 0.053406 0.734825
-0.031790 0.019110 0.262843
-0.030165 0.018887 0.259669
-0.028817 0.018825 0.258722
-0.027643 0.018875 0.259326
-0.025750 0.018417 0.252939
-0.024468 0.018371 0.252230
-0.023244 0.018367 0.252093
-0.021907 0.018269 0.250661
-0.020601 0.018186 0.249447
-0.019062 0.017874 0.245103
-0.017852 0.017849 0.244700
-0.016649 0.017829 0.244357
-0.015424 0.017781 0.243634
-0.014013 0.017492 0.239630
-0.012692 0.017275 0.236596
-0.011440 0.017115 0.234365
-0.009987 0.016589 0.227109
-0.008786 0.016401 0.224506
-0.007733 0.016478 0.225518
-0.006643 0.016486 0.225592
-0.005543 0.016468 0.225320
-0.004467 0.016530 0.226147
-0.003398 0.016669 0.228019
-0.002319 0.016870 0.230750
-0.001211 0.017039 0.233044
-0.000080 0.017106 0.233951
0.001061 0.017204 0.235280
0.002204 0.017206 0.235312
0.003349 0.017223 0.235533
0.004505 0.017270 0.236185
0.005684 0.017371 0.237564
0.006871 0.017454 0.238710
0.008052 0.017502 0.239388
0.009233 0.017539 0.239899
0.010426 0.017585 0.240560
0.011617 0.017621 0.241073
0.012845 0.017700 0.242174
0.014080 0.017775 0.243239
0.015278 0.017795 0.243542
0.016467 0.017803 0.243695
0.017792 0.017947 0.245701
0.019058 0.018016 0.246698
0.020290 0.018047 0.247169
0.021478 0.018038 0.247098
0.022824 0.018155 0.248755
0.024128 0.018229 0.249830
0.025476 0.018328 0.251238
0.026754 0.018369 0.251865
0.027985 0.018375 0.252020
0.029224 0.018386 0.252246
0.030485 0.018410 0.252645
0.031789 0.018457 0.253363
0.033135 0.018523 0.254353
0.034507 0.018599 0.255478
0.035778 0.018617 0.255806
0.037113 0.018665 0.256562
0.038489 0.018731 0.257556
0.039815 0.018769 0.258171
0.041103 0.018787 0.258513
0.042418 0.018816 0.259008
0.043802 0.018873 0.259892
0.045216 0.018940 0.260910
0.046711 0.019036 0.262331
0.048055 0.019067 0.262859
0.049375 0.019087 0.263243
0.050682 0.019101 0.263541
0.052063 0.019141 0.264208
0.053429 0.019174 0.264771
0.054835 0.019220 0.265513
0.056206 0.019251 0.266056
0.057758 0.019342 0.267424
0.059136 0.019372 0.267947
0.060463 0.019384 0.268226
0.061920 0.019436 0.269065
0.063428 0.019502 0.270087
0.064863 0.019543 0.270771
0.066298 0.019583 0.271434
0.067664 0.019600 0.271795
0.069106 0.019639 0.272447
0.070441 0.019647 0.272663
0.071882 0.019683 0.273278
0.073218 0.019690 0.273484
0.074734 0.019744 0.274346
0.076093 0.019755 0.274609
0.077472 0.019771 0.274942
0.078736 0.019758 0.274860
0.079980 0.019740 0.274714
0.081237 0.019726 0.274619
0.082436 0.019698 0.274334
0.083316 0.019596 0.273015
0.083526 0.019342 0.269570
0.083497 0.019042 0.265468
0.084064 0.018884 0.263356
0.085037 0.018821 0.262556
0.086017 0.018760 0.261799
0.086844 0.018669 0.260604
0.087602 0.018566 0.259237
0.088181 0.018428 0.257382
0.088869 0.018317 0.255890
0.089643 0.018226 0.254680
0.090241 0.018102 0.253004
0.091101 0.018033 0.252095
0.092013 0.017976 0.251351
0.092985 0.017932 0.250782
0.093956 0.017889 0.250221
0.094904 0.017843 0.249611
0.095867 0.017801 0.249050
0.096755 0.017745 0.248306
0.097614 0.017686 0.247501
0.098280 0.017594 0.246228
0.098817 0.017481 0.244659
0.099784 0.017446 0.244175
0.100609 0.017387 0.243352
0.101411 0.017326 0.242488
0.102167 0.017258 0.241527
0.103003 0.017205 0.240769
0.103778 0.017143 0.239878
0.104389 0.017056 0.238627
0.104963 0.016964 0.237312
0.105468 0.016864 0.235861
0.106120 0.016788 0.234760
0.106628 0.016692 0.233360
0.107257 0.016617 0.232242
0.107615 0.016501 0.230558
0.108053 0.016400 0.229069
0.108413 0.016289 0.227436
0.108720 0.016173 0.225719
0.108409 0.015967 0.222757
0.109185 0.015925 0.222055
0.109628 0.015835 0.220686
0.109691 0.015692 0.218576
0.109894 0.015572 0.216772
0.110289 0.015481 0.215369
0.110438 0.015357 0.213503
0.111104 0.015307 0.212652
-1.044027 0.149808 1.967738
-1.041883 0.150847 1.982740
-1.032282 0.150815 1.983594
-1.021094 0.150548 1.981274
-1.015041 0.151040 1.988865
-1.005458 0.151012 1.989521
-0.998998 0.151456 1.996334
-0.991083 0.151686 2.000251
-0.983951 0.152042 2.005749
-0.981213 0.153090 2.020321
-0.978448 0.154154 2.035047
-0.978816 0.155738 2.056574
-0.969710 0.155830 2.058353
-0.959259 0.155707 2.057210
-0.944376 0.154854 2.046364
-0.903948 0.149752 1.979288
-0.888274 0.148687 1.965503
-0.876197 0.148208 1.959405
-0.857011 0.146503 1.937050
-0.845309 0.146055 1.931253
-1.458356 0.254716 3.368180
-1.442454 0.254704 3.368079
-1.431257 0.255533 3.379001
-1.414459 0.255368 3.376714
-1.398485 0.255350 3.376292
-1.385407 0.255867 3.382861
-1.378667 0.257580 3.405170
-1.362096 0.257475 3.403368
-1.369467 0.261947 3.461993
-0.827778 0.164192 2.168864
-0.818995 0.164478 2.172174
-0.238164 0.061695 0.809691
-0.234596 0.061765 0.810255
-0.231975 0.062091 0.814164
-0.229029 0.062340 0.817050
-0.226953 0.062838 0.823198
-0.223699 0.063022 0.825217
-0.219978 0.063079 0.825567
-0.217250 0.063427 0.829728
-0.213994 0.063631 0.832000
-0.258567 0.078333 1.023732
-0.254096 0.078456 1.024841
-0.249672 0.078599 1.026202
-0.245192 0.078729 1.027396
-0.239661 0.078521 1.024171
-0.234873 0.078552 1.024070
-0.229785 0.078482 1.022652
-0.222558 0.077663 1.011479
-0.212233 0.075702 0.985454
-0.204436 0.074575 0.970302
-0.197198 0.073604 0.957200
-0.192892 0.073707 0.958069
-0.153690 0.060157 0.781557
-0.148584 0.059609 0.774060
-0.143062 0.058862 0.763995
-0.138242 0.058372 0.757277
-0.134786 0.058447 0.757894
-0.117025 0.056881 0.736224
-0.113620 0.056947 0.736752
-0.110922 0.057383 0.742074
-0.106910 0.057146 0.738687
-0.103290 0.057109 0.737909
-0.099657 0.057063 0.737004
-0.095517 0.056711 0.732168
-0.092091 0.056774 0.732688
-0.031771 0.020368 0.262751
-0.030226 0.020182 0.260260
-0.028723 0.020009 0.257938
-0.027303 0.019882 0.256204
-0.025907 0.019760 0.254550
-0.024610 0.019706 0.253761
-0.023331 0.019661 0.253110
-0.022058 0.019616 0.252452
-0.020548 0.019344 0.248871
-0.019647 0.019646 0.252688
-0.017799 0.018978 0.244037
-0.016595 0.018953 0.243645
-0.015207 0.018695 0.240278
-0.013895 0.018498 0.237684
-0.012690 0.018420 0.236629
-0.011534 0.018403 0.236372
-0.010359 0.018351 0.235649
-0.008784 0.017488 0.224539
-0.007711 0.017523 0.224952
-0.006612 0.017501 0.224639
-0.005541 0.017559 0.225353
-0.004460 0.017605 0.225912
-0.003447 0.018035 0.231409
-0.002316 0.017977 0.230638
-0.001199 0.017998 0.230896
-0.000080 0.018227 0.233825
0.001057 0.018255 0.234177
0.002200 0.018312 0.234902
0.003348 0.018353 0.235430
0.004509 0.018428 0.236386
0.005690 0.018540 0.237835
0.006873 0.018617 0.238832
0.008060 0.018680 0.239646
0.009227 0.018689 0.239782
0.010408 0.018719 0.240187
0.011599 0.018760 0.240727
0.012812 0.018826 0.241607
0.014024 0.018879 0.242321
0.015361 0.019079 0.244919
0.016559 0.019090 0.245097
0.017784 0.019128 0.245631
0.019029 0.019182 0.246370
0.020286 0.019241 0.247172
0.021500 0.019255 0.247395
0.022718 0.019270 0.247644
0.024087 0.019405 0.249443
0.025412 0.019494 0.250646
0.026728 0.019568 0.251662
0.027969 0.019584 0.251931
0.029183 0.019579 0.251941
0.030451 0.019610 0.252407
0.031739 0.019650 0.253006
0.033062 0.019709 0.253839
0.034412 0.019779 0.254819
0.035784 0.019856 0.255895
0.037077 0.019885 0.256361
0.038448 0.019953 0.257327
0.039774 0.019994 0.257950
0.041066 0.020016 0.258325
0.042425 0.020069 0.259099
0.043791 0.020121 0.259871
0.045153 0.020169 0.260589
0.046587 0.020245 0.261679
0.047867 0.020253 0.261874
0.049255 0.020304 0.262643
0.050707 0.020379 0.263713
0.052043 0.020404 0.264146
0.053544 0.020491 0.265384
0.054853 0.020502 0.265640
0.056350 0.020582 0.266780
0.057724 0.020614 0.267305
0.059092 0.020642 0.267786
0.060461 0.020670 0.268256
0.061829 0.020696 0.268703
0.063295 0.020753 0.269558
0.064669 0.020778 0.269996
0.066267 0.020873 0.271342
0.067742 0.020926 0.272141
0.069160 0.020960 0.272695
0.070547 0.020983 0.273107
0.071816 0.020971 0.273060
0.073133 0.020973 0.273196
0.074633 0.021026 0.274002
0.076021 0.021047 0.274378
0.077336 0.021047 0.274488
0.078596 0.021032 0.274397
0.079837 0.021013 0.274249
0.081084 0.020996 0.274129
0.082298 0.020971 0.273898
0.083230 0.020876 0.272755
0.083412 0.020599 0.269225
0.083623 0.020337 0.265890
0.084136 0.020155 0.263600
0.085199 0.020109 0.263077
0.086202 0.020049 0.262382
0.087080 0.019963 0.261328
0.087808 0.019846 0.259862
0.088414 0.019704 0.258076
0.089033 0.019569 0.256376
0.089743 0.019458 0.254977
0.090418 0.019342 0.253512
0.091071 0.019224 0.252025
0.091711 0.019107 0.250535
0.092565 0.019037 0.249657
0.093349 0.018954 0.248612
0.094273 0.018901 0.247957
0.095234 0.018857 0.247410
0.096191 0.018814 0.246863
0.097195 0.018780 0.246441
0.097995 0.018708 0.245516
0.098822 0.018643 0.244674
0.099751 0.018599 0.244094
0.100600 0.018541 0.243330
0.101349 0.018466 0.242338
0.102217 0.018414 0.241643
0.103150 0.018374 0.241108
0.103945 0.018311 0.240261
0.104592 0.018224 0.239086
0.105017 0.018100 0.237426
0.105483 0.017987 0.235887
0.106266 0.017928 0.235074
0.106769 0.017825 0.233658
0.107212 0.017713 0.232134
0.107597 0.017595 0.230508
0.108004 0.017482 0.228953
0.108374 0.017365 0.227342
0.108592 0.017227 0.225439
0.108802 0.017090 0.223548
0.109309 0.017002 0.222290
0.109539 0.016873 0.220490
0.109935 0.016772 0.219043
0.109940 0.016614 0.216843
0.110589 0.016555 0.215933
0.110835 0.016437 0.214248
0.111375 0.016365 0.213149
-1.046934 0.159590 1.973007
-1.042162 0.160293 1.983072
-1.035352 0.160692 1.989305
-1.022898 0.160214 1.984599
-1.014030 0.160295 1.986721
-1.006103 0.160527 1.990642
-0.997036 0.160580 1.992269
-0.990872 0.161106 1.999690
-0.983428 0.161432 2.004560
-0.979159 0.162290 2.015977
-0.979084 0.163868 2.036264
-0.977831 0.165277 2.054408
-0.971414 0.165833 2.061883
-0.963434 0.166130 2.066087
-0.946740 0.164916 2.051420
-0.911553 0.160422 1.995884
-0.886296 0.157600 1.961080
-0.875711 0.157356 1.958279
-0.856925 0.155617 1.936827
-0.841156 0.154394 1.921746
-1.462856 0.271422 3.378555
-1.448013 0.271617 3.381055
-1.425957 0.270449 3.366498
-1.423178 0.272952 3.397557
-1.413135 0.274102 3.411702
-1.399318 0.274538 3.416887
-1.386270 0.275137 3.424020
-1.373231 0.275752 3.431278
-1.369000 0.278171 3.460912
-0.843947 0.177828 2.211318
-0.810789 0.172974 2.150508
-0.272582 0.070469 0.872195
-0.264493 0.069428 0.858961
-0.258989 0.069044 0.853852
-0.255379 0.069161 0.854929
-0.238063 0.065509 0.809442
-0.234337 0.065540 0.809457
-0.231603 0.065853 0.812961
-0.229304 0.066302 0.818139
-0.227001 0.066766 0.823483
-0.222879 0.066702 0.822305
-0.220500 0.067166 0.827641
-0.216746 0.067221 0.827924
-0.263848 0.083341 1.025981
-0.258418 0.083164 1.023297
-0.253674 0.083204 1.023299
-0.250509 0.083774 1.029806
-0.245490 0.083734 1.028816
-0.240131 0.083574 1.026349
-0.236004 0.083846 1.029178
-0.230310 0.083561 1.025170
-0.222342 0.082420 1.010676
-0.215237 0.081555 0.999584
-0.207490 0.080403 0.984979
-0.199171 0.078970 0.966957
-0.153606 0.063868 0.781279
-0.150032 0.063939 0.781764
-0.144138 0.062998 0.769894
-0.136651 0.061294 0.748714
-0.133141 0.061329 0.748800
-0.126547 0.059907 0.731094
-0.122136 0.059467 0.725393
-0.117630 0.058954 0.718801
-0.115388 0.059578 0.726087
-0.115260 0.061366 0.747554
-0.111221 0.061121 0.744246
-0.107113 0.060820 0.740268
-0.102760 0.060355 0.734296
-0.100088 0.060879 0.740366
-0.095917 0.060496 0.735416
-0.092034 0.060273 0.732416
-0.089229 0.060766 0.738125
-0.084316 0.059804 0.726178
-0.024814 0.021106 0.255930
-0.023596 0.021122 0.256044
-0.022176 0.020949 0.253870
-0.020739 0.020740 0.251253
-0.019197 0.020392 0.246969
-0.017888 0.020262 0.245335
-0.016677 0.020233 0.244914
-0.015504 0.020248 0.245046
-0.014253 0.020157 0.243886
-0.013866 0.021380 0.258623
-0.011474 0.019448 0.235209
-0.010309 0.019400 0.234586
-0.009128 0.019305 0.233396
-0.007685 0.018553 0.224265
-0.006599 0.018556 0.224276
-0.005523 0.018595 0.224711
-0.004608 0.019323 0.233487
-0.003466 0.019270 0.232828
-0.002318 0.019113 0.230910
-0.001200 0.019155 0.231402
-0.000078 0.019245 0.232475
0.001059 0.019417 0.234537
0.002197 0.019419 0.234562
0.003346 0.019481 0.235306
0.004502 0.019543 0.236056
0.005684 0.019668 0.237572
0.006872 0.019770 0.238819
0.008055 0.019830 0.239548
0.009225 0.019845 0.239746
0.010406 0.019879 0.240175
0.011607 0.019940 0.240938
0.012827 0.020019 0.241919
0.014066 0.020113 0.243090
0.015327 0.020221 0.244421
0.016528 0.020239 0.244678
0.017763 0.020294 0.245388
0.019010 0.020355 0.246166
0.020238 0.020389 0.246633
0.021466 0.020420 0.247053
0.022726 0.020476 0.247786
0.024039 0.020572 0.249001
0.025340 0.020649 0.249991
0.026656 0.020730 0.251042
0.027933 0.020775 0.251649
0.029156 0.020778 0.251756
0.030397 0.020793 0.252007
0.031662 0.020823 0.252445
0.032974 0.020879 0.253210
0.034464 0.021041 0.255250
0.035767 0.021081 0.255821
0.037053 0.021109 0.256244
0.038389 0.021163 0.256984
0.039821 0.021264 0.258302
0.041068 0.021263 0.258388
0.042344 0.021277 0.258648
0.043751 0.021354 0.259682
0.045106 0.021402 0.260364
0.046544 0.021485 0.261481
0.047939 0.021545 0.262313
0.049366 0.021616 0.263281
0.050750 0.021665 0.263977
0.052162 0.021723 0.264793
0.053515 0.021754 0.265281
0.054930 0.021809 0.266055
0.056255 0.021826 0.266372
0.057566 0.021837 0.266613
0.058945 0.021872 0.267156
0.060281 0.021891 0.267493
0.061867 0.021997 0.268907
0.063301 0.022047 0.269619
0.064727 0.022091 0.270277
0.066113 0.022120 0.270746
0.067544 0.022163 0.271383
0.069013 0.022217 0.272147
0.070409 0.022245 0.272608
0.071794 0.022269 0.273009
0.073045 0.022251 0.272900
0.074483 0.022290 0.273483
0.075902 0.022322 0.273979
0.077311 0.022350 0.274427
0.078495 0.022313 0.274074
0.079724 0.022289 0.273889
0.080976 0.022273 0.273789
0.082055 0.022211 0.273116
0.082901 0.022088 0.271700
0.083363 0.021868 0.269091
0.083534 0.021580 0.265629
0.084259 0.021441 0.264008
0.085253 0.021374 0.263261
0.086171 0.021290 0.262305
0.086921 0.021168 0.260869
0.087497 0.021007 0.258958
0.087623 0.020744 0.255782
0.088665 0.020702 0.255330
0.089737 0.020668 0.254973
0.090456 0.020555 0.253632
0.091255 0.020463 0.252544
0.092090 0.020381 0.251580
0.092975 0.020312 0.250772
0.093829 0.020238 0.249897
0.094549 0.020137 0.248690
0.095489 0.020086 0.248080
0.096386 0.020026 0.247367
0.097219 0.019955 0.246506
0.098115 0.019898 0.245818
0.098967 0.019834 0.245034
0.099854 0.019778 0.244346
0.100708 0.019717 0.243591
0.101488 0.019643 0.242667
0.102235 0.019564 0.241682
0.103163 0.019521 0.241133
0.103994 0.019461 0.240369
0.104509 0.019344 0.238889
0.104853 0.019198 0.237049
0.105449 0.019101 0.235803
0.106243 0.019041 0.235015
0.106722 0.018927 0.233546
0.107264 0.018826 0.232235
0.107725 0.018713 0.230768
0.107861 0.018546 0.228634
0.108536 0.018475 0.227667
0.109043 0.018376 0.226360
0.109173 0.018217 0.224294
0.109870 0.018154 0.223414
0.109730 0.017956 0.220854
0.109536 0.017752 0.218228
0.109775 0.017622 0.216497
0.110575 0.017584 0.215883
0.110930 0.017476 0.214409
0.111433 0.017393 0.213234
-1.054825 0.170228 1.987655
-1.046877 0.170466 1.991832
-1.031298 0.169455 1.981315
-1.024294 0.169847 1.987118
-1.014318 0.169748 1.987106
-1.003334 0.169478 1.984999
-0.994047 0.169492 1.986140
-0.986656 0.169833 1.991036
-0.981900 0.170638 2.001310
-0.976916 0.171418 2.011235
-0.975324 0.172815 2.028329
-0.976655 0.174763 2.051833
-0.972295 0.175721 2.063659
-0.962256 0.175661 2.063475
-0.946507 0.174547 2.050840
-0.938376 0.174830 2.054549
-0.885436 0.166683 1.959124
-0.875187 0.166487 1.957067
-0.855415 0.164455 1.933383
-0.838385 0.162912 1.915392
-1.476197 0.289963 3.409343
-1.462771 0.290480 3.415506
-1.449812 0.291102 3.422826
-1.438159 0.292003 3.433346
-1.421773 0.291953 3.432598
-1.415045 0.293907 3.455346
-1.389852 0.292027 3.432937
-1.373514 0.291985 3.432071
-1.368506 0.294380 3.459766
-0.856823 0.191129 2.245154
-0.848143 0.191555 2.249692
-0.279349 0.076453 0.893944
-0.265390 0.073749 0.861970
-0.263131 0.074262 0.867607
-0.259462 0.074386 0.868701
-0.238384 0.069444 0.810634
-0.234759 0.069507 0.811019
-0.231755 0.069760 0.813602
-0.229390 0.070216 0.818555
-0.226665 0.070576 0.822378
-0.223763 0.070893 0.825686
-0.223236 0.071986 0.838034
-0.268160 0.088042 1.024469
-0.263712 0.088182 1.025611
-0.260191 0.088643 1.030482
-0.255806 0.088822 1.032067
-0.250584 0.088712 1.030287
-0.245825 0.088765 1.030397
-0.240613 0.088652 1.028591
-0.235780 0.088678 1.028384
-0.230716 0.088615 1.027163
-0.224595 0.088136 1.021109
-0.215959 0.086627 1.003131
-0.209902 0.086106 0.996624
-0.201658 0.084644 0.979225
-0.150872 0.068066 0.786303
-0.145212 0.067188 0.775797
-0.137251 0.065172 0.752167
-0.130359 0.063568 0.733315
-0.125611 0.062951 0.725852
-0.122106 0.062938 0.725379
-0.117481 0.062331 0.718058
-0.113953 0.062286 0.717223
-0.115188 0.064923 0.747265
-0.111493 0.064863 0.746244
-0.107331 0.064517 0.741954
-0.102995 0.064040 0.736160
-0.099716 0.064208 0.737799
-0.096554 0.064468 0.740492
-0.092737 0.064294 0.738204
-0.089171 0.064286 0.737834
-0.084260 0.063269 0.725891
-0.024710 0.023417 0.268217
-0.023304 0.023306 0.266864
-0.022024 0.023317 0.266907
-0.020581 0.023144 0.264855
-0.019132 0.022943 0.262481
-0.017736 0.022779 0.260544
-0.016445 0.022737 0.259995
-0.015124 0.022644 0.258872
-0.013855 0.022618 0.258518
-0.012610 0.022628 0.258581
-0.011017 0.021948 0.250774
-0.009763 0.021862 0.249738
-0.008670 0.022160 0.253104
-0.007318 0.021787 0.248814
-0.006041 0.021531 0.245860
-0.004832 0.021457 0.244986
-0.003479 0.020481 0.233822
-0.002324 0.020292 0.231645
-0.001199 0.020261 0.231268
-0.000077 0.020386 0.232683
0.001054 0.020436 0.233251
0.002200 0.020578 0.234865
0.003332 0.020531 0.234323
0.004476 0.020563 0.234693
0.005662 0.020737 0.236680
0.006862 0.020894 0.238489
0.008065 0.021016 0.239885
0.009240 0.021041 0.240189
0.010413 0.021055 0.240374
0.011601 0.021097 0.240868
0.012827 0.021191 0.241969
0.014049 0.021265 0.242841
0.015302 0.021369 0.244072
0.016502 0.021390 0.244340
0.017735 0.021449 0.245054
0.018994 0.021529 0.246012
0.020283 0.021631 0.247230
0.021470 0.021620 0.247153
0.022708 0.021658 0.247637
0.024049 0.021785 0.249155
0.025324 0.021844 0.249886
0.026684 0.021967 0.251358
0.027931 0.021990 0.251683
0.029168 0.022004 0.251916
0.030412 0.022021 0.252183
0.031690 0.022061 0.252716
0.032986 0.022110 0.253351
0.034369 0.022212 0.254598
0.035708 0.022279 0.255454
0.037060 0.022350 0.256346
0.038461 0.022444 0.257516
0.039810 0.022503 0.258282
0.041095 0.022523 0.258604
0.042377 0.022541 0.258901
0.043694 0.022575 0.259392
0.045082 0.022644 0.260274
0.046655 0.022799 0.262154
0.048059 0.022865 0.263017
0.049367 0.022883 0.263334
0.050658 0.022893 0.263548
0.052058 0.022950 0.264309
0.053669 0.023096 0.266093
0.054932 0.023088 0.266107
0.056228 0.023094 0.266287
0.057578 0.023121 0.266712
0.058931 0.023148 0.267135
0.060258 0.023165 0.267432
0.061777 0.023252 0.268555
0.063295 0.023336 0.269633
0.064659 0.023361 0.270031
0.065994 0.023374 0.270296
0.067409 0.023415 0.270878
0.068819 0.023453 0.271421
0.070394 0.023544 0.272586
0.071649 0.023527 0.272491
0.073009 0.023544 0.272799
0.074472 0.023593 0.273475
0.075907 0.023632 0.274030
0.077272 0.023648 0.274318
0.078500 0.023622 0.274120
0.079729 0.023597 0.273934
0.081006 0.023588 0.273919
0.082208 0.023556 0.273653
0.083089 0.023435 0.272342
0.082325 0.022862 0.265763
0.083095 0.022725 0.264256
0.084007 0.022630 0.263239
0.084977 0.022554 0.262431
0.086056 0.022508 0.261975
0.086896 0.022402 0.260813
0.087578 0.022259 0.259214
0.087806 0.022006 0.256332
0.088490 0.021872 0.254842
0.089645 0.021857 0.254725
0.090521 0.021775 0.253824
0.091265 0.021665 0.252583
0.092137 0.021586 0.251717
0.093075 0.021526 0.251049
0.093896 0.021440 0.250084
0.094830 0.021381 0.249435
0.095737 0.021318 0.248727
0.096591 0.021245 0.247897
0.097542 0.021195 0.247329
0.098283 0.021101 0.246242
0.099062 0.021017 0.245270
0.100064 0.020981 0.244862
0.100777 0.020887 0.243756
0.101580 0.020813 0.242885
0.102418 0.020748 0.242112
0.103233 0.020680 0.241294
0.104083 0.020620 0.240569
0.104671 0.020510 0.239253
0.105165 0.020384 0.237746
0.105750 0.020279 0.236468
0.106351 0.020178 0.235242
0.106918 0.020074 0.233963
0.107485 0.019971 0.232699
0.108096 0.019879 0.231549
0.108482 0.019747 0.229937
0.108723 0.019592 0.228043
0.109435 0.019524 0.227156
0.109672 0.019374 0.225301
0.109889 0.019222 0.223432
0.109785 0.019019 0.220944
0.109654 0.018814 0.218441
0.109639 0.018633 0.216205
0.110527 0.018607 0.215765
0.110962 0.018507 0.214446
0.111275 0.018388 0.212906
-1.054582 0.179622 1.986957
-1.027620 0.176605 1.954970
-1.031049 0.178804 1.980623
-1.012261 0.177155 1.963575
-1.005744 0.177642 1.970121
-0.996544 0.177661 1.971389
-0.990610 0.178267 1.979107
-0.987958 0.179482 1.993510
-0.980105 0.179765 1.997507
-0.976288 0.180802 2.009809
-0.976140 0.182545 2.029902
-0.973410 0.183835 2.044901
-0.980724 0.187066 2.081445
-0.966044 0.186125 2.071507
-0.949267 0.184757 2.056742
-0.920555 0.181014 2.015464
-0.879041 0.174649 1.944921
-0.874396 0.175553 1.955252
-0.855414 0.173567 1.933345
-0.836243 0.171499 1.910473
-1.484329 0.307716 3.428096
-1.470667 0.308230 3.433933
-1.447065 0.306649 3.416346
-1.435932 0.307704 3.428050
-1.417594 0.307222 3.422546
-1.400342 0.306968 3.419498
-1.386321 0.307423 3.424288
-1.366909 0.306680 3.415653
-1.356428 0.307947 3.429336
-0.894816 0.208096 2.316676
-0.860611 0.202609 2.255179
-0.847802 0.202085 2.248899
-1.269066 0.306323 3.408166
-1.255187 0.306852 3.413254
-1.253316 0.310368 3.451504
-0.663956 0.171076 1.900889
-0.656125 0.171371 1.903579
-0.640753 0.169677 1.884157
-0.635439 0.170636 1.894175
-0.279216 0.080650 0.893617
-0.269709 0.079100 0.876099
-0.261393 0.077857 0.861981
-0.257747 0.077988 0.863067
-0.239524 0.073641 0.814616
-0.235526 0.073597 0.813777
-0.232479 0.073853 0.816253
-0.229928 0.074279 0.820593
-0.226884 0.074557 0.823294
-0.222728 0.074473 0.821991
-0.223117 0.075933 0.837718
-0.270240 0.093639 1.032578
-0.265060 0.093542 1.031022
-0.260986 0.093839 1.033803
-0.255700 0.093703 1.031816
-0.250797 0.093705 1.031342
-0.245888 0.093705 1.030844
-0.240986 0.093707 1.030373
-0.235731 0.093569 1.028363
-0.230756 0.093540 1.027541
-0.225351 0.093331 1.024747
-0.218281 0.092407 1.014118
-0.209669 0.090774 0.995717
-0.200531 0.088833 0.973957
-0.149697 0.071276 0.780349
-0.145221 0.070914 0.776021
-0.138286 0.069300 0.758008
-0.133313 0.068610 0.750107
-0.127347 0.067355 0.736054
-0.121640 0.066170 0.722780
-0.116833 0.065420 0.714270
-0.113878 0.065693 0.716931
-0.110915 0.068100 0.742562
-0.107560 0.068236 0.743727
-0.103288 0.067779 0.738447
-0.100165 0.068070 0.741322
-0.096703 0.068144 0.741835
-0.093055 0.068088 0.740931
-0.089515 0.068109 0.740885
-0.085646 0.067872 0.738039
-0.082162 0.067933 0.738430
-0.073915 0.063882 0.694160
-0.070625 0.063935 0.694498
-0.024715 0.024720 0.268352
-0.023436 0.024738 0.268465
-0.022044 0.024631 0.267225
-0.020627 0.024481 0.265530
-0.019223 0.024329 0.263807
-0.017880 0.024237 0.262742
-0.016568 0.024177 0.262030
-0.015202 0.024021 0.260281
-0.013842 0.023849 0.258361
-0.012539 0.023748 0.257225
-0.011242 0.023640 0.256006
-0.009926 0.023458 0.253992
-0.008663 0.023370 0.252995
-0.007312 0.022977 0.248707
-0.006085 0.022894 0.247782
-0.004823 0.022606 0.244630
-0.003630 0.022560 0.244108
-0.002343 0.021599 0.233698
-0.001201 0.021438 0.231936
-0.000076 0.021364 0.231126
0.001048 0.021438 0.231914
0.002181 0.021519 0.232788
0.003338 0.021703 0.234778
0.004479 0.021713 0.234885
0.005662 0.021881 0.236708
0.006841 0.021982 0.237813
0.008085 0.022230 0.240500
0.009278 0.022295 0.241226
0.010466 0.022333 0.241648
0.011668 0.022391 0.242307
0.012832 0.022371 0.242109
0.014036 0.022419 0.242660
0.015311 0.022564 0.244269
0.016551 0.022640 0.245129
0.017802 0.022720 0.246028
0.019052 0.022788 0.246815
0.020286 0.022831 0.247319
0.021534 0.022883 0.247936
0.022717 0.022865 0.247795
0.023963 0.022908 0.248315
0.025304 0.023033 0.249735
0.026649 0.023152 0.251082
0.027951 0.023223 0.251922
0.029164 0.023218 0.251928
0.030422 0.023247 0.252320
0.031707 0.023294 0.252903
0.033025 0.023361 0.253705
0.034322 0.023409 0.254304
0.035624 0.023457 0.254904
0.036968 0.023527 0.255757
0.038304 0.023589 0.256515
0.039670 0.023665 0.257425
0.040999 0.023714 0.258056
0.042379 0.023790 0.258967
0.043768 0.023865 0.259885
0.045056 0.023883 0.260173
0.046535 0.023998 0.261529
0.047764 0.023982 0.261453
0.049049 0.023994 0.261681
0.050640 0.024151 0.263500
0.052157 0.024266 0.264861
0.053596 0.024341 0.265776
0.054812 0.024312 0.265574
0.056170 0.024347 0.266058
0.057558 0.024392 0.266662
0.058916 0.024424 0.267115
0.060273 0.024453 0.267542
0.061692 0.024506 0.268229
0.063127 0.024563 0.268962
0.064612 0.024636 0.269877
0.066010 0.024674 0.270402
0.067381 0.024701 0.270805
0.068846 0.024760 0.271563
0.070207 0.024781 0.271899
0.071653 0.024830 0.272545
0.073013 0.024849 0.272850
0.074437 0.024888 0.273382
0.075816 0.024910 0.273735
0.077117 0.024907 0.273800
0.078338 0.024878 0.273586
0.079604 0.024865 0.273535
0.080839 0.024842 0.273380
0.081860 0.024755 0.272520
0.082486 0.024553 0.270391
0.082455 0.024166 0.266208
0.083067 0.023975 0.264190
0.084161 0.023927 0.263743
0.085207 0.023867 0.263161
0.085948 0.023724 0.261664
0.086755 0.023604 0.260409
0.087656 0.023512 0.259462
0.088370 0.023373 0.257997
0.089043 0.023228 0.256448
0.089950 0.023146 0.255603
0.090691 0.023025 0.254315
0.091495 0.022922 0.253231
0.092250 0.022810 0.252038
0.093068 0.022716 0.251042
0.093866 0.022620 0.250012
0.094645 0.022521 0.248955
0.095611 0.022469 0.248407
0.096488 0.022398 0.247639
0.097339 0.022322 0.246818
0.098323 0.022278 0.246346
0.099103 0.022190 0.245373
0.099910 0.022109 0.244483
0.100865 0.022063 0.243967
0.101584 0.021967 0.242892
0.102341 0.021881 0.241926
0.103134 0.021804 0.241056
0.103917 0.021728 0.240179
0.104740 0.021660 0.239402
0.105424 0.021567 0.238323
0.105915 0.021435 0.236826
0.106366 0.021299 0.235265
0.107028 0.021207 0.234191
0.107458 0.021072 0.232628
0.108052 0.020971 0.231442
0.108304 0.020807 0.229543
0.108696 0.020672 0.227970
0.108942 0.020513 0.226115
0.109265 0.020371 0.224446
0.109510 0.020218 0.222642
0.109684 0.020054 0.220719
0.109614 0.019849 0.218338
0.109753 0.019686 0.216407
0.110564 0.019645 0.215811
0.111117 0.019559 0.214719
0.111546 0.019454 0.213395
-1.039129 0.186286 1.957589
-1.032036 0.186679 1.963131
-1.020784 0.186321 1.960679
-1.013244 0.186639 1.965269
-1.007198 0.187241 1.972769
-0.995997 0.186888 1.970118
-0.988676 0.187262 1.975067
-0.983908 0.188132 1.985171
-0.979856 0.189157 1.996846
-0.972677 0.189592 2.002231
-0.971470 0.191211 2.020060
-0.969761 0.192762 2.037114
-0.975376 0.195815 2.069983
-0.966825 0.196056 2.073082
-0.949330 0.194471 2.056790
-0.941165 0.194783 2.060510
-0.878222 0.183648 1.943047
-0.868008 0.183420 1.940917
-0.857467 0.183118 1.937944
-0.832955 0.179794 1.902933
-1.490674 0.325255 3.442714
-1.476945 0.325796 3.448575
-1.451652 0.323771 3.427177
-1.431346 0.322824 3.417121
-1.419430 0.323770 3.427017
-1.402179 0.323506 3.424035
-1.381729 0.322490 3.413015
-1.364270 0.322156 3.409147
-1.355887 0.323983 3.428072
-0.894449 0.218930 2.315819
-0.874145 0.216598 2.290748
-0.856913 0.214979 2.273182
-1.288959 0.327456 3.461780
-1.274855 0.328019 3.466946
-1.267016 0.330230 3.489457
-0.660128 0.179018 1.890081
-0.656757 0.180540 1.905570
-0.636445 0.177382 1.871654
-0.635139 0.179508 1.893456
-0.279076 0.084840 0.893273
-0.270976 0.083643 0.880322
-0.259072 0.081216 0.854434
-0.255457 0.081352 0.855509
-0.239723 0.077570 0.815402
-0.236343 0.077728 0.816714
-0.232807 0.077839 0.817522
-0.230252 0.078287 0.821868
-0.227716 0.078758 0.826437
-0.227557 0.080081 0.839943
-0.274963 0.098489 1.032544
-0.270087 0.098498 1.032165
-0.265497 0.098614 1.032896
-0.261126 0.098817 1.034539
-0.256371 0.098879 1.034708
-0.251248 0.098800 1.033385
-0.246393 0.098825 1.033156
-0.241139 0.098687 1.031224
-0.235788 0.098504 1.028813
-0.230662 0.098409 1.027326
-0.224735 0.097960 1.022155
-0.218078 0.097166 1.013387
-0.211659 0.096445 1.005386
-0.203809 0.095023 0.990089
-0.199353 0.095154 0.990983
-0.148340 0.074337 0.773456
-0.143607 0.073806 0.767572
-0.137157 0.072342 0.751999
-0.133302 0.072204 0.750224
-0.128153 0.071339 0.740895
-0.122325 0.070035 0.727033
-0.118242 0.069684 0.723066
-0.113042 0.068633 0.711852
-0.115047 0.072027 0.746732
-0.111585 0.072108 0.747250
-0.106978 0.071429 0.739906
-0.103145 0.071238 0.737626
-0.100014 0.071535 0.740405
-0.096867 0.071843 0.743303
-0.093120 0.071712 0.741667
-0.089680 0.071816 0.742466
-0.085840 0.071597 0.739926
-0.082348 0.071660 0.740317
-0.074011 0.067323 0.695273
-0.069691 0.066401 0.685528
-0.066437 0.066454 0.685846
-0.023419 0.026017 0.268346
-0.022007 0.025880 0.266861
-0.020729 0.025894 0.266931
-0.019305 0.025716 0.265028
-0.017969 0.025637 0.264146
-0.016641 0.025559 0.263275
-0.015310 0.025463 0.262231
-0.013934 0.025268 0.260168
-0.012601 0.025119 0.258589
-0.011279 0.024963 0.256936
-0.009935 0.024715 0.254340
-0.008657 0.024583 0.252939
-0.007383 0.024418 0.251206
-0.006112 0.024204 0.248971
-0.004902 0.024187 0.248768
-0.003629 0.023744 0.244189
-0.002415 0.023447 0.241111
-0.001217 0.022890 0.235375
-0.000076 0.022797 0.234408
0.001054 0.022656 0.232942
0.002197 0.022804 0.234458
0.003336 0.022816 0.234585
0.004480 0.022850 0.234935
0.005648 0.022968 0.236151
0.006826 0.023081 0.237317
0.008034 0.023246 0.239027
0.009243 0.023373 0.240348
0.010428 0.023417 0.240827
0.011590 0.023404 0.240716
0.012850 0.023576 0.242508
0.014051 0.023619 0.242975
0.015279 0.023697 0.243810
0.016520 0.023781 0.244717
0.017738 0.023824 0.245197
0.018987 0.023901 0.246027
0.020305 0.024050 0.247606
0.021449 0.023988 0.247019
0.022705 0.024050 0.247710
0.024060 0.024207 0.249381
0.025305 0.024242 0.249810
0.026615 0.024334 0.250813
0.027888 0.024385 0.251407
0.029174 0.024443 0.252072
0.030440 0.024481 0.252529
0.031738 0.024539 0.253209
0.033048 0.024603 0.253944
0.034365 0.024667 0.254680
0.035628 0.024689 0.254985
0.036933 0.024738 0.255572
0.038232 0.024779 0.256087
0.039578 0.024847 0.256879
0.040946 0.024925 0.257774
0.042310 0.024996 0.258597
0.043666 0.025057 0.259328
0.045059 0.025137 0.260243
0.046479 0.025226 0.261269
0.047953 0.025340 0.262540
0.049267 0.025364 0.262896
0.050552 0.025373 0.263093
0.052105 0.025513 0.264646
0.053384 0.025516 0.264774
0.054759 0.025563 0.265367
0.056090 0.025587 0.265727
0.057449 0.025623 0.266204
0.058773 0.025642 0.266512
0.060067 0.025648 0.266675
0.061573 0.025741 0.267757
0.063277 0.025912 0.269642
0.064513 0.025889 0.269504
0.065838 0.025901 0.269737
0.067264 0.025951 0.270372
0.068689 0.026000 0.270983
0.070199 0.026078 0.271903
0.071692 0.026147 0.272729
0.073075 0.026174 0.273117
0.074393 0.026177 0.273256
0.075745 0.026192 0.273513
0.077092 0.026205 0.273744
0.078337 0.026183 0.273615
0.079523 0.026142 0.273289
0.080813 0.026137 0.273325
0.081940 0.026079 0.272815
0.082550 0.025862 0.270629
0.082122 0.025331 0.265159
0.083094 0.025241 0.264302
0.083898 0.025104 0.262944
0.084966 0.025048 0.262439
0.086041 0.024996 0.261970
0.086646 0.024811 0.260099
0.087479 0.024696 0.258956
0.088118 0.024530 0.257278
0.088844 0.024392 0.255890
0.089622 0.024272 0.254687
0.090569 0.024200 0.253985
0.091431 0.024108 0.253064
0.092282 0.024015 0.252135
0.093188 0.023939 0.251373
0.093998 0.023840 0.250373
0.094809 0.023744 0.249394
0.095669 0.023663 0.248563
0.096554 0.023589 0.247812
0.097380 0.023503 0.246924
0.098192 0.023416 0.246018
0.099071 0.023347 0.245293
0.099739 0.023230 0.244065
0.100584 0.023156 0.243286
0.101481 0.023096 0.242642
0.102103 0.022976 0.241358
0.103050 0.022930 0.240855
0.103759 0.022833 0.239807
0.104606 0.022768 0.239088
0.105396 0.022692 0.238249
0.106033 0.022586 0.237079
0.106420 0.022428 0.235373
0.107004 0.022315 0.234125
0.107565 0.022200 0.232845
0.108027 0.022067 0.231372
0.108402 0.021919 0.229733
0.108508 0.021720 0.227556
0.109188 0.021638 0.226605
0.109637 0.021513 0.225189
0.110009 0.021376 0.223633
0.109939 0.021156 0.221209
0.109394 0.020849 0.217876
0.109472 0.020666 0.215826
0.110163 0.020601 0.215003
0.110821 0.020531 0.214117
0.111456 0.020458 0.213193
-1.024438 0.192816 1.929648
-1.022756 0.194232 1.945227
-1.018036 0.195091 1.955161
-1.007564 0.194853 1.954026
-1.002128 0.195594 1.962625
-0.992151 0.195455 1.962310
-0.986716 0.196216 1.970963
-0.981454 0.197026 1.980044
-0.974789 0.197567 1.986356
-0.969865 0.198475 1.996292
-0.967605 0.199951 2.011881
-0.968353 0.202085 2.034027
-0.975459 0.205601 2.070040
-0.967391 0.205958 2.074188
-0.957488 0.205927 2.074369
-0.949247 0.206256 2.078120
-0.881836 0.193602 1.950976
-0.864226 0.191731 1.932405
-0.859177 0.192636 1.941764
-0.837226 0.189730 1.912657
-1.485960 0.340400 3.431788
-1.472267 0.340964 3.437629
-1.441421 0.337525 3.403018
-1.429328 0.338449 3.412317
-1.413930 0.338602 3.413770
-1.395722 0.338078 3.408319
-1.375244 0.336986 3.397066
-1.358017 0.336674 3.393609
-1.343911 0.337138 3.397899
-1.330196 0.337712 3.403234
-0.897627 0.230666 2.324144
-0.875154 0.227664 2.293499
-0.863090 0.227328 2.289684
-1.281411 0.341775 3.441705
-1.267383 0.342361 3.446837
-1.245673 0.340860 3.430907
-1.244848 0.345109 3.472799
-0.657106 0.187085 1.881581
-0.650561 0.187755 1.887757
-0.641927 0.187833 1.887946
-0.637822 0.189256 1.901638
-0.270832 0.087767 0.879964
-0.261026 0.085909 0.860991
-0.257382 0.086052 0.862074
-0.241449 0.082025 0.821387
-0.236697 0.081727 0.818054
-0.232953 0.081772 0.818159
-0.230629 0.082326 0.823341
-0.226728 0.082326 0.822982
-0.279498 0.103265 1.031834
-0.274802 0.103339 1.032113
-0.270492 0.103565 1.033889
-0.266007 0.103730 1.035064
-0.261350 0.103833 1.035616
-0.256771 0.103972 1.036514
-0.251959 0.104020 1.036508
-0.246861 0.103950 1.035320
-0.241676 0.103839 1.033729
-0.236058 0.103534 1.030201
-0.231009 0.103471 1.029088
-0.225245 0.103078 1.024693
-0.218688 0.102297 1.016440
-0.212022 0.101428 1.007331
-0.205197 0.100441 0.997057
-0.197532 0.098986 0.982157
-0.193100 0.099120 0.983024
-0.146821 0.077245 0.765716
-0.141792 0.076507 0.758056
-0.136838 0.075773 0.750435
-0.132646 0.075432 0.746723
-0.127203 0.074341 0.735594
-0.122009 0.073338 0.725343
-0.116877 0.072315 0.714907
-0.112351 0.071615 0.707686
-0.109079 0.071697 0.708190
-0.111504 0.075649 0.746912
-0.106782 0.074853 0.738755
-0.103014 0.074695 0.736896
-0.099780 0.074927 0.738886
-0.096494 0.075135 0.740656
-0.092962 0.075161 0.740624
-0.089281 0.075063 0.739388
-0.085414 0.074795 0.736481
-0.081939 0.074861 0.736869
-0.073609 0.070297 0.691711
-0.069463 0.069485 0.683500
-0.065846 0.069149 0.679971
-0.022095 0.027281 0.268026
-0.020709 0.027160 0.266767
-0.019300 0.026991 0.265040
-0.017940 0.026873 0.263811
-0.016574 0.026726 0.262310
-0.015211 0.026560 0.260624
-0.013927 0.026517 0.260143
-0.012623 0.026421 0.259154
-0.011305 0.026270 0.257623
-0.009885 0.025819 0.253156
-0.008628 0.025723 0.252177
-0.007396 0.025686 0.251779
-0.006152 0.025582 0.250727
-0.004905 0.025413 0.249047
-0.003670 0.025218 0.247108
-0.002455 0.025032 0.245267
-0.001240 0.024512 0.240157
-0.000075 0.023881 0.233962
0.001055 0.023786 0.233021
0.002185 0.023802 0.233172
0.003326 0.023875 0.233891
0.004482 0.023997 0.235087
0.005625 0.024012 0.235239
0.006809 0.024167 0.236767
0.007993 0.024277 0.237854
0.009212 0.024453 0.239590
0.010430 0.024585 0.240907
0.011682 0.024765 0.242690
0.012850 0.024748 0.242550
0.014044 0.024780 0.242896
0.015277 0.024872 0.243822
0.016521 0.024967 0.244791
0.017841 0.025156 0.246682
0.019048 0.025171 0.246874
0.020266 0.025199 0.247191
0.021526 0.025272 0.247957
0.022717 0.025261 0.247903
0.023983 0.025330 0.248639
0.025239 0.025382 0.249210
0.026503 0.025438 0.249817
0.027917 0.025626 0.251729
0.029203 0.025686 0.252383
0.030413 0.025677 0.252365
0.031726 0.025752 0.253174
0.033092 0.025863 0.254338
0.034359 0.025891 0.254689
0.035624 0.025916 0.255014
0.036956 0.025986 0.255790
0.038268 0.026038 0.256389
0.039674 0.026148 0.257559
0.040987 0.026193 0.258087
0.042356 0.026270 0.258934
0.043641 0.026291 0.259239
0.044936 0.026317 0.259590
0.046435 0.026458 0.261072
0.047854 0.026547 0.262049
0.049044 0.026508 0.261762
0.050615 0.026671 0.263472
0.051956 0.026708 0.263943
0.053334 0.026762 0.264574
0.054709 0.026812 0.265173
0.056076 0.026855 0.265707
0.057387 0.026871 0.265968
0.058718 0.026895 0.266310
0.060030 0.026909 0.266556
0.061450 0.026970 0.267266
0.062956 0.027065 0.268319
0.064581 0.027207 0.269833
0.065892 0.027214 0.270005
0.067248 0.027238 0.270351
0.068733 0.027313 0.271197
0.070232 0.027390 0.272071
0.071681 0.027446 0.272729
0.073026 0.027460 0.272972
0.074468 0.027509 0.273566
0.075760 0.027503 0.273602
0.077063 0.027500 0.273677
0.078303 0.027476 0.273529
0.079513 0.027442 0.273286
0.080754 0.027419 0.273155
0.081924 0.027374 0.272791
0.082804 0.027234 0.271492
0.082253 0.026636 0.265608
0.082883 0.026431 0.263654
0.084011 0.026390 0.263322
0.084890 0.026273 0.262227
0.085794 0.026167 0.261239
0.086629 0.026043 0.260070
0.087377 0.025896 0.258672
0.088017 0.025723 0.256998
0.088865 0.025614 0.255968
0.089707 0.025506 0.254944
0.090583 0.025410 0.254039
0.091468 0.025320 0.253179
0.092228 0.025197 0.251999
0.093118 0.025113 0.251194
0.094016 0.025033 0.250427
0.094842 0.024937 0.249489
0.095605 0.024826 0.248403
0.096552 0.024765 0.247811
0.097438 0.024690 0.247076
0.098173 0.024579 0.245971
0.098879 0.024463 0.244818
0.099676 0.024373 0.243910
0.100638 0.024324 0.243415
0.101411 0.024231 0.242471
0.102182 0.024140 0.241540
0.102983 0.024058 0.240693
0.103782 0.023977 0.239852
0.104599 0.023902 0.239064
0.105293 0.023801 0.238006
0.105804 0.023661 0.236556
0.106189 0.023496 0.234849
0.106931 0.023412 0.233950
0.107494 0.023292 0.232676
0.108061 0.023175 0.231428
0.108407 0.023013 0.229726
0.108855 0.022876 0.228264
0.109261 0.022733 0.226736
0.109723 0.022604 0.225343
0.110107 0.022462 0.223809
0.109821 0.022187 0.220945
0.110225 0.022055 0.219505
0.109826 0.021767 0.216497
0.110599 0.021714 0.215823
0.111236 0.021636 0.214889
0.111612 0.021509 0.213459
-1.050355 0.207090 1.978181
-1.025552 0.204019 1.950277
-1.013677 0.203488 1.946537
-1.003428 0.203276 1.945766
-0.999252 0.204302 1.956766
-0.990701 0.204444 1.959230
-0.982415 0.204645 1.962173
-0.977225 0.205500 1.971326
-0.972899 0.206555 1.982331
-0.966459 0.207177 1.989119
-0.966060 0.209119 2.008519
-0.965969 0.211167 2.028879
-0.969995 0.214165 2.058316
-0.980006 0.218558 2.101117
-0.959312 0.216123 2.078218
-0.932535 0.212253 2.041447
-0.871476 0.200419 1.927982
-0.860075 0.199876 1.923063
-0.860835 0.202178 1.945461
-0.837263 0.198754 1.912703
-1.472111 0.353250 3.399756
-1.458536 0.353834 3.405541
-1.438843 0.352929 3.396924
-1.417945 0.351706 3.385153
-1.405655 0.352614 3.393821
-1.391213 0.352997 3.397359
-1.372209 0.352218 3.389637
-1.354043 0.351638 3.383763
-1.341739 0.352585 3.392512
-1.328038 0.353183 3.397836
-0.883679 0.237870 2.288123
-0.877986 0.239251 2.301029
-0.862448 0.237950 2.288100
-1.278345 0.357155 3.433667
-1.264342 0.357765 3.438784
-1.251730 0.358789 3.447824
-1.244243 0.361328 3.471366
-1.229993 0.361945 3.476376
-0.668551 0.199386 1.914512
-0.657646 0.198816 1.908485
-0.648772 0.198853 1.908259
-0.645397 0.200601 1.924415
-0.255008 0.087915 0.841252
-0.251519 0.088086 0.842553
-0.242415 0.086265 0.824795
-0.238117 0.086122 0.823086
-0.233818 0.085974 0.821324
-0.231302 0.086488 0.825877
-0.228789 0.087021 0.830600
-0.279329 0.108104 1.031384
-0.274753 0.108229 1.032109
-0.270563 0.108513 1.034348
-0.266135 0.108710 1.035754
-0.261456 0.108809 1.036229
-0.256912 0.108971 1.037284
-0.252276 0.109098 1.038018
-0.247164 0.109021 1.036799
-0.241882 0.108864 1.034822
-0.236531 0.108670 1.032487
-0.231141 0.108448 1.029900
-0.225533 0.108113 1.026231
-0.219662 0.107633 1.021198
-0.212632 0.106552 1.010462
-0.204675 0.104944 0.994755
-0.196342 0.103063 0.976471
-0.146717 0.080856 0.765363
-0.140277 0.079285 0.750149
-0.134989 0.078300 0.740489
-0.131728 0.078468 0.741746
-0.126841 0.077651 0.733697
-0.121286 0.076367 0.721243
-0.116624 0.075586 0.713556
-0.111644 0.074545 0.703432
-0.105692 0.072771 0.686397
-0.104102 0.073982 0.697534
-0.106700 0.078349 0.738404
-0.102923 0.078175 0.736465
-0.099991 0.078653 0.740676
-0.096532 0.078736 0.741171
-0.092951 0.078723 0.740768
-0.089467 0.078794 0.741165
-0.085216 0.078167 0.735005
-0.080210 0.076763 0.721554
-0.074353 0.074382 0.698930
-0.069929 0.073275 0.688311
-0.065539 0.072096 0.677021
-0.022077 0.028553 0.267895
-0.020593 0.028293 0.265374
-0.019259 0.028215 0.264582
-0.017837 0.027989 0.262392
-0.016495 0.027863 0.261157
-0.015190 0.027786 0.260378
-0.013870 0.027663 0.259169
-0.012544 0.027503 0.257623
-0.011221 0.027316 0.255821
-0.009880 0.027034 0.253134
-0.008643 0.026996 0.252744
-0.007348 0.026733 0.250245
-0.006118 0.026652 0.249454
-0.004895 0.026569 0.248650
-0.003673 0.026445 0.247470
-0.002452 0.026202 0.245170
-0.001254 0.025974 0.243029
-0.000076 0.025635 0.239845
0.001063 0.025090 0.234735
0.002192 0.024999 0.233872
0.003323 0.024980 0.233694
0.004463 0.025023 0.234097
0.005601 0.025038 0.234248
0.006792 0.025246 0.236200
0.008000 0.025448 0.238104
0.009205 0.025590 0.239442
0.010399 0.025674 0.240244
0.011600 0.025756 0.241039
0.012831 0.025883 0.242254
0.014016 0.025904 0.242474
0.015259 0.026020 0.243590
0.016503 0.026121 0.244577
0.017709 0.026153 0.244909
0.018981 0.026272 0.246066
0.020239 0.026358 0.246916
0.021501 0.026439 0.247731
0.022761 0.026510 0.248446
0.024016 0.026568 0.249038
0.025245 0.026593 0.249333
0.026505 0.026647 0.249900
0.027867 0.026794 0.251339
0.029191 0.026893 0.252339
0.030451 0.026928 0.252739
0.031723 0.026971 0.253210
0.033073 0.027074 0.254255
0.034350 0.027112 0.254685
0.035592 0.027121 0.254851
0.036879 0.027162 0.255315
0.038212 0.027233 0.256067
0.039555 0.027307 0.256848
0.040961 0.027419 0.257985
0.042354 0.027515 0.258979
0.043642 0.027539 0.259300
0.044978 0.027592 0.259889
0.046296 0.027631 0.260351
0.047740 0.027740 0.261480
0.048993 0.027736 0.261543
0.050274 0.027748 0.261751
0.051813 0.027898 0.263266
0.053247 0.027986 0.264197
0.054699 0.028079 0.265176
0.055940 0.028062 0.265116
0.057298 0.028102 0.265603
0.058699 0.028162 0.266273
0.060005 0.028174 0.266494
0.061434 0.028243 0.267244
0.062827 0.028292 0.267816
0.064292 0.028371 0.268671
0.066068 0.028582 0.270771
0.067345 0.028572 0.270783
0.068796 0.028636 0.271491
0.070197 0.028676 0.271980
0.071532 0.028689 0.272202
0.072991 0.028750 0.272883
0.074380 0.028781 0.273283
0.075766 0.028811 0.273660
0.077055 0.028803 0.273686
0.078238 0.028756 0.273336
0.079475 0.028731 0.273188
0.080722 0.028709 0.273078
0.081736 0.028607 0.272198
0.082707 0.028494 0.271203
0.082992 0.028151 0.268022
0.083663 0.027947 0.266161
0.083905 0.027608 0.263013
0.084880 0.027517 0.262219
0.085507 0.027317 0.260387
0.086096 0.027111 0.258490
0.086653 0.026901 0.256550
0.087681 0.026841 0.256035
0.088726 0.026788 0.255583
0.089573 0.026677 0.254577
0.090475 0.026585 0.253748
0.091309 0.026476 0.252752
0.092107 0.026359 0.251678
0.093003 0.026273 0.250893
0.093907 0.026192 0.250147
0.094715 0.026086 0.249160
0.095519 0.025981 0.248184
0.096224 0.025853 0.246973
0.097052 0.025760 0.246099
0.097859 0.025664 0.245186
0.098646 0.025564 0.244241
0.099444 0.025471 0.243341
0.100342 0.025404 0.242696
0.101160 0.025319 0.241866
0.101878 0.025211 0.240815
0.102693 0.025129 0.240007
0.103429 0.025030 0.239028
0.104088 0.024915 0.237886
0.104819 0.024819 0.236923
0.105504 0.024714 0.235871
0.106096 0.024590 0.234629
0.106761 0.024485 0.233564
0.107041 0.024295 0.231678
0.107655 0.024184 0.230539
0.108393 0.024103 0.229677
0.108665 0.023921 0.227845
0.109154 0.023789 0.226492
0.109524 0.023635 0.224911
0.109759 0.023454 0.223076
0.110055 0.023290 0.221389
0.109840 0.023023 0.218711
0.110330 0.022906 0.217461
0.110740 0.022775 0.216068
0.111044 0.022625 0.214486
0.111566 0.022522 0.213337
-1.050067 0.216427 1.977334
-1.033952 0.215023 1.965965
-1.019852 0.214016 1.958123
-1.015822 0.215124 1.969543
-1.002485 0.214262 1.962856
-0.991797 0.213956 1.961171
-0.982187 0.213879 1.961506
-0.972808 0.213852 1.962217
-0.968002 0.214839 1.972168
-0.963645 0.215945 1.983153
-0.960262 0.217294 1.996304
-0.961417 0.219706 2.019172
-0.957865 0.221080 2.032441
-0.966587 0.225344 2.072223
-0.957509 0.225502 2.074199
-0.949255 0.225860 2.077950
-0.878664 0.211239 1.943804
-0.866566 0.210520 1.937508
-0.861001 0.211390 1.945780
-0.839872 0.208417 1.918620
-1.473681 0.369668 3.403325
-1.460082 0.370275 3.409116
-1.430074 0.366689 3.376208
-1.413273 0.366447 3.374006
-1.400375 0.367223 3.381097
-1.381522 0.366437 3.373737
-1.366466 0.366652 3.375515
-1.346856 0.365636 3.365887
-1.332185 0.365952 3.368457
-1.318573 0.366570 3.373741
-0.902325 0.253906 2.336503
