ply
format ascii 1.0
element vertex 1742
property float x
property float y
property float z
end_header
0.101676 0.064728 0.233627
0.102482 0.064530 0.232772
0.103265 0.064322 0.231876
0.103965 0.064067 0.230805
0.104654 0.063811 0.229719
0.105388 0.063586 0.228743
0.105985 0.063285 0.227482
0.106650 0.063031 0.226379
0.107407 0.062835 0.225480
0.108053 0.062578 0.224355
0.108669 0.062310 0.223179
0.109370 0.062095 0.222186
0.109876 0.061774 0.220805
0.110547 0.061551 0.219766
0.111161 0.061301 0.218620
0.111906 0.061128 0.217735
0.112987 0.061139 0.217499
0.113686 0.060945 0.216520
0.114450 0.060790 0.215666
-1.522129 0.804316 2.826601
-1.501838 0.800725 2.817724
-1.489729 0.801472 2.823933
-1.001480 0.543726 1.918105
-0.983840 0.539083 1.903928
-0.966995 0.534794 1.890864
-0.955830 0.533595 1.888611
-0.946186 0.533231 1.889215
-0.939087 0.534308 1.894840
-0.931162 0.534932 1.898776
-0.922677 0.535243 1.901523
-0.914607 0.535805 1.905081
-0.906907 0.536596 1.909381
-0.900339 0.538081 1.916078
-0.972859 0.587343 2.092962
-0.967720 0.590253 2.104723
-0.955049 0.588580 2.100073
-0.945035 0.588529 2.101129
-0.936245 0.589246 2.104860
-0.810090 0.515321 1.841752
-0.802199 0.515839 1.844506
-0.794300 0.516362 1.847227
-0.786550 0.516996 1.850289
-0.775382 0.515372 1.845217
-0.872273 0.636944 2.285646
-0.850701 0.628945 2.257344
-0.841169 0.629759 2.260616
-0.834252 0.632577 2.271041
-0.820244 0.630022 2.262129
-0.812197 0.632038 2.269589
-0.805131 0.634882 2.279982
-0.649818 0.533734 1.916994
-0.633745 0.527854 1.895899
-0.623083 0.526378 1.890594
-0.618786 0.530315 1.904699
-0.608858 0.529471 1.901606
-0.600380 0.529882 1.902996
-0.592200 0.530572 1.905365
-0.629890 0.677076 2.428216
-0.608759 0.666468 2.389758
-0.602755 0.672334 2.410358
-0.592096 0.673133 2.412776
-0.251293 0.291283 1.043874
-0.244753 0.289371 1.036816
-0.240159 0.289729 1.037890
-0.233583 0.287661 1.030272
-0.226297 0.284613 1.019141
-0.219197 0.281670 1.008389
-0.211532 0.277856 0.994520
-0.203434 0.273288 0.977954
-0.196542 0.270164 0.966564
-0.190000 0.267386 0.956409
-0.183812 0.264981 0.947596
-0.177181 0.261803 0.936018
-0.170338 0.258140 0.922715
-0.163378 0.254103 0.908079
-0.157775 0.252015 0.900413
-0.152587 0.250495 0.894778
-0.146972 0.248166 0.886261
-0.141630 0.246175 0.878952
-0.136172 0.243855 0.870475
-0.130838 0.241620 0.862306
-0.126859 0.241824 0.862843
-0.108924 0.214553 0.765373
-0.103096 0.210073 0.749230
-0.099749 0.210507 0.750620
-0.096316 0.210786 0.751455
-0.092525 0.210273 0.749473
-0.089028 0.210415 0.749828
-0.085411 0.210272 0.749173
-0.081962 0.210550 0.750018
-0.078472 0.210743 0.750564
-0.074766 0.210347 0.749016
-0.070977 0.209669 0.746469
-0.067004 0.208346 0.741629
-0.063044 0.206919 0.736424
-0.058824 0.204420 0.727414
-0.054582 0.201527 0.717006
-0.049998 0.196907 0.700463
-0.045870 0.193547 0.688411
-0.041996 0.190827 0.678644
-0.038758 0.190784 0.678401
-0.034963 0.187745 0.667511
-0.031796 0.187807 0.667652
-0.016589 0.108869 0.386985
-0.014843 0.109589 0.389503
-0.013051 0.110113 0.391330
-0.011153 0.109787 0.390133
-0.009423 0.111297 0.395468
-0.007675 0.113309 0.402585
-0.005805 0.114254 0.405917
-0.003909 0.115405 0.409979
-0.001965 0.116009 0.412103
-0.000001 0.116790 0.414859
0.002034 0.120208 0.426985
0.004151 0.122605 0.435485
0.006227 0.122591 0.435427
0.008278 0.122233 0.434147
0.010383 0.122643 0.435599
0.012324 0.121301 0.430834
0.014239 0.120121 0.426646
0.016262 0.120037 0.426351
0.018260 0.119804 0.425533
0.020226 0.119435 0.424235
0.022408 0.120288 0.427277
0.024728 0.121673 0.432217
0.026931 0.122318 0.434527
0.029059 0.122553 0.435388
0.031268 0.123075 0.437269
0.033376 0.123156 0.437585
0.035448 0.123105 0.437436
0.030711 0.090651 0.322199
0.032103 0.090245 0.320785
0.033599 0.090155 0.320496
0.035099 0.090083 0.320274
0.036548 0.089890 0.319624
0.037917 0.089525 0.318362
0.039304 0.089229 0.317346
0.040731 0.089042 0.316723
0.042118 0.088783 0.315840
0.043389 0.088306 0.314185
0.044754 0.088046 0.313301
0.046022 0.087619 0.311823
0.047434 0.087483 0.311381
0.048732 0.087151 0.310244
0.050028 0.086835 0.309162
0.051356 0.086591 0.308337
0.052672 0.086342 0.307494
0.053855 0.085892 0.305936
0.054955 0.085338 0.304005
0.056091 0.084868 0.302373
0.057291 0.084514 0.301157
0.058391 0.084033 0.299486
0.059589 0.083713 0.298389
0.060788 0.083410 0.297350
0.061921 0.083032 0.296043
0.063113 0.082748 0.295070
0.064213 0.082357 0.293715
0.065389 0.082079 0.292761
0.066220 0.081388 0.290334
0.067231 0.080943 0.288779
0.068183 0.080445 0.287038
0.069168 0.080006 0.285500
0.070137 0.079565 0.283957
0.071205 0.079250 0.282863
0.072230 0.078900 0.281639
0.073259 0.078567 0.280476
0.074424 0.078389 0.279862
0.075346 0.077967 0.278373
0.075887 0.077170 0.275547
0.076735 0.076708 0.273913
0.077034 0.075722 0.270401
0.078016 0.075428 0.269362
0.079057 0.075200 0.268554
0.080010 0.074896 0.267473
0.080955 0.074595 0.266398
0.081858 0.074265 0.265215
0.082483 0.073696 0.263177
0.083378 0.073382 0.262046
0.084304 0.073104 0.261039
0.085009 0.072645 0.259381
0.085776 0.072251 0.257955
0.086652 0.071959 0.256889
0.087280 0.071472 0.255121
0.088073 0.071132 0.253871
0.088837 0.070778 0.252570
0.089677 0.070492 0.251508
0.090492 0.070195 0.250400
0.091203 0.069826 0.249033
0.091837 0.069408 0.247486
0.092533 0.069046 0.246135
0.093201 0.068673 0.244739
0.093985 0.068395 0.243673
0.094785 0.068133 0.242665
0.095475 0.067801 0.241397
0.096272 0.067551 0.240418
0.097039 0.067286 0.239381
0.097875 0.067074 0.238526
0.098516 0.066736 0.237214
0.099178 0.066419 0.235975
0.099998 0.066213 0.235124
0.100818 0.066013 0.234284
0.101616 0.065802 0.233400
0.102478 0.065637 0.232672
0.103128 0.065341 0.231474
0.103814 0.065074 0.230369
0.104572 0.064857 0.229436
0.105245 0.064592 0.228325
0.105844 0.064288 0.227067
0.106590 0.064078 0.226136
0.107317 0.063861 0.225171
0.108010 0.063629 0.224143
0.108670 0.063382 0.223054
0.109272 0.063106 0.221854
0.109884 0.062841 0.220685
0.110587 0.062632 0.219704
0.111098 0.062321 0.218351
0.111918 0.062186 0.217608
0.112842 0.062111 0.217065
0.113606 0.061950 0.216206
0.114360 0.061786 0.215329
-1.518221 0.815859 2.817282
-1.493549 0.809814 2.800197
-1.481479 0.810554 2.806388
-0.995536 0.549668 1.905473
-0.981607 0.546983 1.898409
-0.969050 0.545021 1.893732
-0.956092 0.542795 1.888025
-0.946671 0.542554 1.889120
-0.938816 0.543215 1.893270
-0.930805 0.543797 1.897062
-0.921968 0.543904 1.899116
-0.913807 0.544416 1.902503
-0.906116 0.545222 1.906842
-0.898324 0.545983 1.910950
-0.977881 0.600390 2.102885
-0.969050 0.601090 2.106770
-0.956889 0.599718 2.103315
-0.940818 0.595841 2.090990
-0.932053 0.596559 2.094708
-0.810171 0.524114 1.841327
-0.801870 0.524373 1.843172
-0.794263 0.525097 1.846593
-0.787060 0.526107 1.850970
-0.776535 0.524894 1.847472
-0.872033 0.647570 2.284688
-0.849389 0.638629 2.253571
-0.837799 0.637878 2.251302
-0.831307 0.641038 2.262793
-0.821961 0.642051 2.266664
-0.809627 0.640728 2.262241
-0.804284 0.644975 2.277447
-0.794614 0.645820 2.280599
-0.649108 0.542197 1.914859
-0.633558 0.536652 1.895322
-0.624044 0.536135 1.893515
-0.616568 0.537380 1.897901
-0.608683 0.538300 1.901114
-0.599924 0.538464 1.901627
-0.589166 0.536811 1.895702
-0.629061 0.687664 2.425454
-0.606800 0.675602 2.382521
-0.601947 0.682832 2.407608
-0.251365 0.290620 1.024520
-0.246245 0.290278 1.023130
-0.242017 0.290995 1.025465
-0.236971 0.290737 1.024359
-0.231869 0.290400 1.022970
-0.225558 0.288501 1.016079
-0.218081 0.284997 1.003531
-0.210968 0.281823 0.992151
-0.203831 0.278472 0.980148
-0.196731 0.275018 0.967784
-0.190317 0.272382 0.958303
-0.183615 0.269194 0.946881
-0.177357 0.266516 0.937258
-0.171066 0.263649 0.926971
-0.163351 0.258379 0.908246
-0.158353 0.257238 0.904037
-0.152276 0.254233 0.893280
-0.146673 0.251871 0.884789
-0.141058 0.249349 0.875739
-0.136346 0.248319 0.871932
-0.131094 0.246211 0.864345
-0.108749 0.217853 0.764465
-0.103830 0.215169 0.754890
-0.099439 0.213424 0.748616
-0.096281 0.214297 0.751524
-0.092835 0.214571 0.752335
-0.089016 0.213969 0.750079
-0.085460 0.213978 0.749965
-0.081945 0.214094 0.750232
-0.078450 0.214275 0.750726
-0.074717 0.213795 0.748910
-0.070935 0.213118 0.746408
-0.067215 0.212566 0.744352
-0.063082 0.210576 0.737259
-0.059052 0.208718 0.730639
-0.054644 0.205204 0.718228
-0.050145 0.200863 0.702933
-0.045893 0.196957 0.689165
-0.042172 0.194911 0.681914
-0.038887 0.194701 0.681093
-0.035132 0.191894 0.671189
-0.031949 0.191957 0.671330
-0.016703 0.111509 0.389938
-0.014802 0.111169 0.388711
-0.012964 0.111273 0.389035
-0.011163 0.111789 0.390805
-0.009367 0.112569 0.393500
-0.007603 0.114219 0.399238
-0.005773 0.115645 0.404197
-0.003879 0.116601 0.407514
-0.001952 0.117456 0.410477
0.000004 0.118538 0.414240
0.002018 0.120963 0.422700
0.004154 0.124620 0.435465
0.006237 0.124769 0.435976
0.008286 0.124346 0.434489
0.010387 0.124708 0.435751
0.012314 0.123202 0.430486
0.014235 0.122085 0.426585
0.016236 0.121838 0.425728
0.018214 0.121492 0.424529
0.020168 0.121074 0.423076
0.022283 0.121614 0.424978
0.024700 0.123566 0.431818
0.026912 0.124277 0.434320
0.029022 0.124447 0.434937
0.031268 0.125138 0.437377
0.033311 0.124979 0.436848
0.035151 0.124124 0.433889
0.030666 0.092038 0.321810
0.032097 0.091744 0.320809
0.033627 0.091746 0.320847
0.035125 0.091665 0.320595
0.036588 0.091504 0.320066
0.037986 0.091199 0.319035
0.039346 0.090828 0.317772
0.040752 0.090587 0.316967
0.042127 0.090298 0.315994
0.043478 0.089979 0.314915
0.044751 0.089524 0.313364
0.046043 0.089136 0.312046
0.047402 0.088898 0.311251
0.048716 0.088590 0.310215
0.050007 0.088261 0.309105
0.051370 0.088075 0.308494
0.052674 0.087800 0.307573
0.053921 0.087447 0.306379
0.055127 0.087050 0.305027
0.056287 0.086600 0.303492
0.057503 0.086258 0.302335
0.058649 0.085828 0.300869
0.059729 0.085327 0.299151
0.060725 0.084729 0.297096
0.061840 0.084323 0.295709
0.063056 0.084068 0.294852
0.064043 0.083526 0.292988
0.065151 0.083160 0.291740
0.066129 0.082650 0.289981
0.067298 0.082391 0.289108
0.068319 0.081967 0.287650
0.069212 0.081408 0.285717
0.070328 0.081128 0.284763
0.071310 0.080706 0.283307
0.072222 0.080223 0.281634
0.073270 0.079906 0.280541
0.074328 0.079611 0.279525
0.075355 0.079292 0.278422
0.076162 0.078758 0.276562
0.076918 0.078190 0.274578
0.077663 0.077630 0.272620
0.078131 0.076815 0.269765
0.078945 0.076361 0.268175
0.079966 0.076120 0.267326
0.080959 0.075859 0.266407
0.081750 0.075420 0.264860
0.082552 0.075003 0.263387
0.083534 0.074761 0.262523
0.084408 0.074430 0.261345
0.085285 0.074112 0.260206
0.086005 0.073668 0.258623
0.086997 0.073466 0.257887
0.087772 0.073089 0.256531
0.088277 0.072501 0.254428
0.088875 0.072004 0.252644
0.089601 0.071622 0.251257
0.090456 0.071352 0.250261
0.091332 0.071106 0.249341
0.091946 0.070664 0.247733
0.092804 0.070419 0.246807
0.093519 0.070072 0.245521
0.094133 0.069660 0.244000
0.094700 0.069223 0.242389
0.095587 0.069027 0.241618
0.096219 0.068655 0.240220
0.096954 0.068363 0.239100
0.097837 0.068182 0.238361
0.098586 0.067912 0.237308
0.099300 0.067625 0.236184
0.100184 0.067458 0.235478
0.100864 0.067159 0.234302
0.101658 0.066942 0.233406
0.102493 0.066756 0.232611
0.103272 0.066538 0.231697
0.104031 0.066312 0.230746
0.104767 0.066076 0.229755
0.105502 0.065845 0.228771
0.106049 0.065501 0.227391
0.106521 0.065119 0.225870
0.107385 0.064982 0.225191
0.108017 0.064709 0.224030
0.108478 0.064339 0.222526
0.109109 0.064077 0.221386
0.109683 0.063786 0.220139
0.110386 0.063576 0.219159
0.110957 0.063293 0.217922
0.111614 0.063065 0.216861
0.112618 0.063036 0.216472
0.113398 0.062882 0.215644
0.114115 0.062696 0.214696
-1.525560 0.833479 2.828756
-1.502919 0.828488 2.815704
-0.995008 0.558540 1.903168
-0.986251 0.558739 1.906142
-0.967734 0.553360 1.889967
-0.955987 0.551789 1.886671
-0.945292 0.550801 1.885267
-0.937100 0.551266 1.888746
-0.929533 0.552113 1.893448
-0.921113 0.552464 1.896369
-0.912453 0.552678 1.898739
-0.904940 0.553598 1.903457
-0.897887 0.554820 1.909145
-0.977195 0.609976 2.100487
-0.968354 0.610678 2.104373
-0.957754 0.610272 2.104371
-0.944148 0.607924 2.097586
-0.935337 0.608647 2.101321
-0.810290 0.532935 1.840957
-0.802349 0.533439 1.843665
-0.794933 0.534306 1.847573
-0.787671 0.535298 1.851859
-0.778938 0.535302 1.852672
-0.871184 0.657733 2.282108
-0.852155 0.651398 2.260590
-0.839898 0.650144 2.256655
-0.830011 0.650717 2.259010
-0.822109 0.652881 2.266846
-0.811316 0.652776 2.266764
-0.806056 0.657181 2.282298
-0.780425 0.644871 2.239745
-0.633931 0.545928 1.896402
-0.624599 0.545567 1.895188
-0.618610 0.548157 1.904200
-0.607714 0.546412 1.898122
-0.600285 0.547779 1.902831
-0.594322 0.550546 1.912376
-0.255547 0.294726 1.022310
-0.251022 0.295070 1.023331
-0.244257 0.292743 1.015087
-0.239844 0.293198 1.016485
-0.234826 0.292917 1.015325
-0.229006 0.291604 1.010586
-0.222892 0.289853 1.004323
-0.216375 0.287490 0.995944
-0.208713 0.283468 0.981815
-0.204295 0.283768 0.982657
-0.195198 0.277435 0.960528
-0.190858 0.277720 0.961318
-0.181908 0.271149 0.938377
-0.176135 0.269102 0.931099
-0.170566 0.267271 0.924570
-0.164014 0.263765 0.912247
-0.157590 0.260278 0.899998
-0.152680 0.259170 0.895975
-0.147527 0.257574 0.890272
-0.141829 0.254905 0.880860
-0.136504 0.252765 0.873282
-0.131253 0.250632 0.865734
-0.103726 0.218550 0.754453
-0.100103 0.218446 0.753942
-0.096602 0.218610 0.754360
-0.092805 0.218094 0.752434
-0.089319 0.218295 0.752985
-0.085632 0.218001 0.751830
-0.081992 0.217808 0.751026
-0.078345 0.217575 0.750090
-0.074648 0.217179 0.748595
-0.070784 0.216233 0.745205
-0.067069 0.215666 0.743131
-0.063067 0.214062 0.737485
-0.058872 0.211575 0.728805
-0.054702 0.208875 0.719395
-0.050297 0.204859 0.705463
-0.046097 0.201165 0.692646
-0.042165 0.198161 0.682213
-0.039069 0.198913 0.684715
-0.035316 0.196154 0.675137
-0.031600 0.193070 0.664449
-0.016613 0.112785 0.388107
-0.014777 0.112864 0.388339
-0.012963 0.113163 0.389332
-0.011127 0.113331 0.389875
-0.009321 0.113935 0.391923
-0.007532 0.115104 0.395913
-0.005728 0.116761 0.401588
-0.003863 0.118209 0.406543
-0.001955 0.119909 0.412369
0.000009 0.123090 0.423290
0.002041 0.124042 0.426546
0.004150 0.126422 0.434717
0.006241 0.126826 0.436094
0.008298 0.126514 0.435013
0.010385 0.126692 0.435620
0.012407 0.126151 0.433760
0.014222 0.123958 0.426220
0.016168 0.123305 0.423980
0.018157 0.123093 0.423259
0.020060 0.122402 0.420893
0.022059 0.122363 0.420771
0.024320 0.123664 0.425259
0.026754 0.125579 0.431862
0.028920 0.126050 0.433504
0.031228 0.127034 0.436911
0.033346 0.127171 0.437411
0.035140 0.126132 0.433863
0.037192 0.126077 0.433708
0.032057 0.093145 0.320498
0.033565 0.093091 0.320342
0.035064 0.093019 0.320126
0.036539 0.092893 0.319721
0.037993 0.092724 0.319176
0.039399 0.092455 0.318283
0.040780 0.092149 0.317266
0.042177 0.091902 0.316452
0.043502 0.091519 0.315167
0.044781 0.091068 0.313652
0.046075 0.090674 0.312335
0.047307 0.090189 0.310702
0.048697 0.090023 0.310167
0.050056 0.089812 0.309480
0.051307 0.089425 0.308186
0.052640 0.089198 0.307445
0.053863 0.088802 0.306118
0.055052 0.088372 0.304674
0.056226 0.087940 0.303224
0.057488 0.087665 0.302316
0.058587 0.087160 0.300610
0.059670 0.086655 0.298908
0.060756 0.086179 0.297300
0.061942 0.085863 0.296247
0.063083 0.085500 0.295027
0.064185 0.085100 0.293683
0.065433 0.084907 0.293049
0.066334 0.084281 0.290919
0.067405 0.083892 0.289607
0.068544 0.083601 0.288630
0.069335 0.082907 0.286258
0.070322 0.082468 0.284767
0.071321 0.082059 0.283379
0.072297 0.081640 0.281952
0.073265 0.081227 0.280543
0.074322 0.080926 0.279519
0.075380 0.080636 0.278533
0.076185 0.080090 0.276656
0.076937 0.079507 0.274653
0.077735 0.078991 0.272877
0.078330 0.078290 0.270456
0.079149 0.077830 0.268867
0.080141 0.077553 0.267907
0.081049 0.077204 0.266696
0.081955 0.076864 0.265512
0.082847 0.076522 0.264318
0.083582 0.076047 0.262660
0.084617 0.075854 0.261973
0.085373 0.075421 0.260454
0.085907 0.074807 0.258306
0.086699 0.074431 0.256975
0.087642 0.074194 0.256121
0.088346 0.073763 0.254594
0.088979 0.073286 0.252901
0.089741 0.072926 0.251611
0.090570 0.072630 0.250534
0.091356 0.072307 0.249361
0.092137 0.071987 0.248196
0.092746 0.071544 0.246599
0.093400 0.071146 0.245153
0.094093 0.070787 0.243835
0.094770 0.070425 0.242503
0.095402 0.070038 0.241082
0.096261 0.069826 0.240254
0.097076 0.069587 0.239327
0.097936 0.069385 0.238524
0.098787 0.069181 0.237709
0.099598 0.068955 0.236808
0.100386 0.068717 0.235862
0.101026 0.068385 0.234587
0.101804 0.068152 0.233644
0.102611 0.067944 0.232778
0.103286 0.067653 0.231624
0.104053 0.067428 0.230687
0.104728 0.067149 0.229557
0.105480 0.066924 0.228605
0.106170 0.066666 0.227531
0.106627 0.066267 0.225969
0.107310 0.066016 0.224904
0.107924 0.065728 0.223703
0.108434 0.065382 0.222299
0.108999 0.065076 0.221021
0.109549 0.064767 0.219723
0.110115 0.064473 0.218468
0.110820 0.064266 0.217496
0.111457 0.064023 0.216394
0.112427 0.063975 0.215938
0.113243 0.063840 0.215177
0.114096 0.063728 0.214481
-1.517167 0.842495 2.810982
-1.512217 0.847293 2.830976
-1.499940 0.848035 2.837278
-0.980530 0.564613 1.893796
-0.969531 0.563485 1.892237
-0.955605 0.560619 1.884727
-0.944541 0.559394 1.882624
-0.936098 0.559713 1.885623
-0.928173 0.560351 1.889614
-0.920029 0.560868 1.893113
-0.911511 0.561166 1.895792
-0.903539 0.561811 1.899563
-0.896253 0.562898 1.904759
-0.971279 0.616232 2.086813
-0.962476 0.616930 2.090682
-0.954819 0.618386 2.097042
-0.939901 0.615120 2.087314
-0.931115 0.615842 2.091036
-0.811615 0.542566 1.843296
-0.802054 0.541993 1.842347
-0.795661 0.543572 1.848657
-0.788308 0.544522 1.852778
-0.778510 0.543787 1.851108
-0.853456 0.663099 2.263689
-0.838004 0.659324 2.251247
-0.831723 0.662760 2.263382
-0.825105 0.666015 2.274853
-0.807973 0.660756 2.257201
-0.806956 0.668713 2.284654
-0.784732 0.659073 2.251945
-0.634083 0.555022 1.896797
-0.623228 0.553305 1.890993
-0.618196 0.556782 1.902913
-0.608439 0.556044 1.900401
-0.599108 0.555680 1.899139
-0.593299 0.558620 1.909145
-0.258576 0.297509 1.015626
-0.253872 0.297603 1.015794
-0.244733 0.292402 0.997888
-0.237663 0.289519 0.987887
-0.236128 0.293398 1.000954
-0.231399 0.293384 1.000734
-0.226500 0.293152 0.999764
-0.220171 0.291019 0.992309
-0.213483 0.288308 0.982884
-0.207163 0.285986 0.974782
-0.202774 0.286286 0.975616
-0.194909 0.281577 0.959381
-0.187121 0.276758 0.942778
-0.180700 0.273775 0.932429
-0.175522 0.272575 0.928155
-0.169489 0.269951 0.919033
-0.164629 0.269107 0.915974
-0.158572 0.266208 0.905923
-0.152922 0.263850 0.897714
-0.147954 0.262569 0.893174
-0.142691 0.260673 0.886545
-0.137202 0.258238 0.878085
-0.132126 0.256451 0.871835
-0.128103 0.256661 0.872374
-0.104860 0.224578 0.763024
-0.099243 0.220136 0.747789
-0.096247 0.221395 0.751920
-0.093043 0.222254 0.754698
-0.089263 0.221753 0.752856
-0.085830 0.222107 0.753923
-0.082284 0.222187 0.754058
-0.078788 0.222417 0.754708
-0.074807 0.221231 0.750557
-0.071051 0.220629 0.748390
-0.067148 0.219486 0.744394
-0.062968 0.217256 0.736718
-0.058891 0.215142 0.729438
-0.054593 0.211907 0.718364
-0.050357 0.208497 0.706705
-0.046121 0.204602 0.693411
-0.042519 0.203135 0.688351
-0.039062 0.202175 0.685013
-0.035386 0.199810 0.676919
-0.032178 0.199873 0.677060
-0.016581 0.114441 0.387623
-0.014570 0.113140 0.383177
-0.012806 0.113658 0.384898
-0.011099 0.114948 0.389230
-0.009202 0.114384 0.387290
-0.007461 0.115973 0.392645
-0.005680 0.117782 0.398741
-0.004107 0.127880 0.432902
-0.001953 0.122063 0.413187
0.000014 0.124486 0.421371
0.002064 0.127157 0.430397
0.004126 0.127575 0.431798
0.006196 0.127863 0.432762
0.008236 0.127545 0.431676
0.010290 0.127523 0.431597
0.012294 0.126993 0.429801
0.014220 0.125918 0.426165
0.016167 0.125280 0.424009
0.018103 0.124706 0.422071
0.020026 0.124160 0.420234
0.021975 0.123867 0.419254
0.023961 0.123811 0.419079
0.025988 0.123957 0.419590
0.028186 0.124841 0.422600
0.030840 0.127489 0.431584
0.032918 0.127575 0.431901
0.035088 0.127987 0.433324
0.034048 0.117295 0.397149
0.035095 0.114537 0.387840
0.036925 0.114483 0.387686
0.032067 0.094686 0.320672
0.033566 0.094607 0.320432
0.035055 0.094509 0.320130
0.036543 0.094413 0.319836
0.037999 0.094247 0.319305
0.039364 0.093877 0.318082
0.040810 0.093720 0.317585
0.042185 0.093415 0.316586
0.043479 0.092961 0.315080
0.044806 0.092602 0.313899
0.046063 0.092128 0.312328
0.047413 0.091864 0.311470
0.048733 0.091557 0.310468
0.050057 0.091278 0.309559
0.051400 0.091048 0.308813
0.052662 0.090691 0.307641
0.053905 0.090320 0.306419
0.054885 0.089541 0.303814
0.056085 0.089150 0.302523
0.057447 0.089031 0.302156
0.058589 0.088585 0.300677
0.059740 0.088172 0.299309
0.060788 0.087631 0.297506
0.061960 0.087288 0.296377
0.063160 0.087001 0.295432
0.064263 0.086593 0.294078
0.065429 0.086287 0.293069
0.066570 0.085961 0.291991
0.067464 0.085336 0.289894
0.068469 0.084874 0.288348
0.069438 0.084385 0.286710
0.070412 0.083921 0.285157
0.071380 0.083468 0.283636
0.072305 0.082982 0.282004
0.073125 0.082395 0.280024
0.074230 0.082145 0.279186
0.075409 0.081984 0.278649
0.076252 0.081469 0.276909
0.077060 0.080935 0.275100
0.077866 0.080417 0.273341
0.078341 0.079579 0.270493
0.079293 0.079245 0.269354
0.080186 0.078863 0.268051
0.081049 0.078465 0.266687
0.082060 0.078220 0.265840
0.082992 0.077908 0.264766
0.083795 0.077486 0.263311
0.084639 0.077113 0.262021
0.085599 0.076856 0.261118
0.085931 0.076050 0.258350
0.086684 0.075634 0.256900
0.087554 0.075330 0.255830
0.088337 0.074961 0.254530
0.089113 0.074595 0.253242
0.089834 0.074194 0.251828
0.090599 0.073840 0.250566
0.091269 0.073418 0.249072
0.092097 0.073132 0.248035
0.092829 0.072778 0.246762
0.093506 0.072391 0.245371
0.094109 0.071956 0.243814
0.094750 0.071561 0.242386
0.095505 0.071260 0.241273
0.096385 0.071059 0.240489
0.097033 0.070693 0.239143
0.097911 0.070501 0.238383
0.098839 0.070349 0.237747
0.099517 0.070024 0.236524
0.100396 0.069848 0.235794
0.100946 0.069448 0.234302
0.101701 0.069196 0.233306
0.102585 0.069037 0.232613
0.103368 0.068813 0.231697
0.104014 0.068505 0.230487
0.104810 0.068300 0.229619
0.105637 0.068120 0.228825
0.106280 0.067826 0.227640
0.106702 0.067398 0.225999
0.107395 0.067149 0.224947
0.107839 0.066749 0.223386
0.108577 0.066539 0.222448
0.109104 0.066204 0.221085
0.109600 0.065857 0.219674
0.110040 0.065483 0.218162
0.110710 0.065252 0.217119
0.111469 0.065077 0.216251
0.112351 0.064977 0.215618
0.113161 0.064836 0.214842
0.113985 0.064707 0.214089
-1.546931 0.872893 2.863793
-1.517984 0.864256 2.839538
-1.470624 0.844885 2.779714
-1.458573 0.845631 2.785830
-0.985792 0.576808 1.902616
-0.969124 0.572342 1.890155
-0.956590 0.570257 1.885432
-0.944731 0.568540 1.881815
-0.935673 0.568491 1.883620
-0.928250 0.569445 1.888663
-0.919857 0.569817 1.891693
-0.911462 0.570196 1.894665
-0.903267 0.570709 1.898003
-0.896433 0.572101 1.904191
-0.968583 0.624443 2.080026
-0.959789 0.625141 2.083889
-0.955169 0.628600 2.096889
-0.941375 0.626032 2.089710
-0.919298 0.617843 2.063671
-0.813568 0.552653 1.847026
-0.804183 0.552206 1.846564
-0.797218 0.553429 1.851632
-0.789417 0.554092 1.854773
-0.780461 0.553952 1.855167
-0.966849 0.735777 2.469560
-0.956413 0.736699 2.473346
-0.945952 0.737625 2.477090
-0.860440 0.679320 2.281827
-0.839999 0.671565 2.256258
-0.830700 0.672635 2.260284
-0.827082 0.678391 2.280017
-0.811058 0.673990 2.265568
-0.805681 0.678438 2.280822
-0.797906 0.680959 2.289559
-0.788134 0.681823 2.292684
-0.633187 0.563189 1.894037
-0.621925 0.561065 1.886983
-0.614716 0.562590 1.892172
-0.607181 0.563857 1.896464
-0.597060 0.562725 1.892663
-0.591467 0.565891 1.903293
-0.289080 0.314690 1.057878
-0.284439 0.315065 1.059024
-0.276651 0.311906 1.048282
-0.266889 0.306366 1.029535
-0.258226 0.301907 1.014416
-0.251316 0.299368 1.005743
-0.245654 0.298247 1.001830
-0.238416 0.295130 0.991209
-0.235997 0.297974 1.000604
-0.230688 0.297212 0.997880
-0.224599 0.295391 0.991601
-0.218671 0.293709 0.985784
-0.212703 0.291900 0.979537
-0.205954 0.288914 0.969344
-0.199150 0.285716 0.958438
-0.193014 0.283348 0.950318
-0.188718 0.283634 0.951095
-0.180388 0.277723 0.931099
-0.174704 0.275693 0.924114
-0.169922 0.275019 0.921676
-0.164373 0.273036 0.914850
-0.158716 0.270762 0.907053
-0.153275 0.268740 0.900104
-0.147790 0.266522 0.892500
-0.142547 0.264625 0.885974
-0.137801 0.263564 0.882249
-0.132432 0.261208 0.874193
-0.125680 0.255885 0.856214
-0.122400 0.257511 0.861488
-0.100580 0.226717 0.758182
-0.097059 0.226881 0.758591
-0.093417 0.226765 0.758063
-0.089752 0.226582 0.757316
-0.085787 0.225597 0.753892
-0.082364 0.226011 0.755146
-0.078681 0.225718 0.754040
-0.074754 0.224665 0.750397
-0.071077 0.224297 0.749050
-0.067392 0.223860 0.747474
-0.063179 0.221527 0.739570
-0.058965 0.218918 0.730752
-0.054641 0.215547 0.719400
-0.050266 0.211511 0.705832
-0.046330 0.208879 0.696956
-0.042588 0.206783 0.689878
-0.039190 0.206149 0.687680
-0.035589 0.204238 0.681226
-0.031946 0.201677 0.672610
-0.028757 0.201735 0.672736
-0.014717 0.116158 0.387320
-0.012848 0.115911 0.386462
-0.011075 0.116592 0.388698
-0.009211 0.116400 0.388028
-0.007457 0.117850 0.392836
-0.006151 0.129708 0.432333
-0.004094 0.129721 0.432354
-0.002001 0.127421 0.424664
0.000020 0.129489 0.431539
0.002075 0.129559 0.431754
0.004125 0.129410 0.431242
0.006190 0.129675 0.432114
0.008220 0.129261 0.430729
0.010277 0.129346 0.431006
0.012265 0.128671 0.428755
0.014216 0.127866 0.426072
0.016154 0.127157 0.423711
0.018017 0.126076 0.420115
0.019820 0.124834 0.415985
0.021647 0.123956 0.413068
0.023414 0.122905 0.409580
0.025173 0.121979 0.406508
0.027059 0.121758 0.405788
0.028853 0.121174 0.403863
0.032869 0.129417 0.431357
0.033997 0.118989 0.396649
0.035236 0.116833 0.389488
0.037073 0.116778 0.389334
0.032176 0.096527 0.321843
0.033650 0.096361 0.321315
0.035064 0.096044 0.320285
0.036567 0.095987 0.320126
0.038062 0.095915 0.319916
0.039463 0.095620 0.318960
0.040863 0.095345 0.318074
0.042258 0.095076 0.317212
0.043621 0.094758 0.316181
0.044936 0.094358 0.314882
0.046192 0.093867 0.313276
0.047306 0.093126 0.310838
0.048685 0.092935 0.310234
0.050029 0.092690 0.309451
0.051269 0.092271 0.308089
0.052612 0.092057 0.307407
0.053755 0.091514 0.305629
0.054888 0.090983 0.303889
0.056203 0.090772 0.303219
0.057375 0.090347 0.301833
0.058589 0.090005 0.300725
0.059818 0.089704 0.299751
0.060935 0.089253 0.298276
0.061942 0.088664 0.296335
0.063137 0.088365 0.295365
0.064260 0.087979 0.294104
0.065370 0.087594 0.292842
0.066554 0.087320 0.291954
0.067464 0.086706 0.289924
0.068474 0.086242 0.288395
0.069449 0.085753 0.286782
0.070493 0.085367 0.285508
0.071494 0.084944 0.284109
0.072406 0.084432 0.282413
0.073249 0.083861 0.280516
0.074218 0.083451 0.279154
0.075380 0.083269 0.278553
0.076347 0.082881 0.277259
0.076992 0.082163 0.274859
0.077687 0.081521 0.272710
0.078358 0.080875 0.270547
0.079220 0.080444 0.269099
0.079968 0.079914 0.267315
0.080962 0.079641 0.266391
0.081940 0.079361 0.265436
0.082955 0.079125 0.264627
0.083796 0.078732 0.263293
0.084687 0.078397 0.262145
0.085390 0.077900 0.260452
0.086188 0.077503 0.259091
0.086999 0.077129 0.257799
0.087867 0.076815 0.256707
0.088554 0.076353 0.255114
0.089192 0.075862 0.253421
0.089851 0.075402 0.251828
0.090483 0.074931 0.250195
0.091277 0.074604 0.249038
0.092112 0.074320 0.248017
0.092907 0.074010 0.246908
0.093770 0.073763 0.246000
0.094520 0.073432 0.244810
0.095164 0.073029 0.243372
0.095842 0.072661 0.242047
0.096552 0.072326 0.240826
0.097228 0.071973 0.239541
0.098067 0.071748 0.238674
0.098866 0.071500 0.237723
0.099565 0.071185 0.236546
0.100364 0.070948 0.235620
0.101084 0.070661 0.234522
0.101877 0.070430 0.233604
0.102665 0.070201 0.232684
0.103486 0.070000 0.231847
0.104276 0.069782 0.230949
0.104935 0.069481 0.229770
0.105624 0.069207 0.228668
0.106304 0.068932 0.227559
0.106716 0.068491 0.225892
0.107249 0.068135 0.224500
0.107805 0.067802 0.223173
0.108367 0.067478 0.221868
0.108869 0.067123 0.220455
0.109439 0.066817 0.219192
0.110065 0.066551 0.218049
0.110809 0.066360 0.217143
0.111550 0.066172 0.216234
0.112340 0.066015 0.215417
0.112983 0.065776 0.214320
0.113919 0.065709 0.213773
-0.976518 0.580461 1.883336
-0.978291 0.586937 1.906687
-0.956144 0.579049 1.883271
-0.944730 0.577574 1.880577
-0.934970 0.577091 1.881016
-0.927334 0.577923 1.885651
-0.918866 0.578248 1.888549
-0.909898 0.578263 1.890348
-0.902249 0.579124 1.894837
-0.895366 0.580500 1.900937
-0.963532 0.631058 2.068146
-0.954768 0.631752 2.071995
-0.954113 0.637883 2.093611
-0.941893 0.636330 2.089941
-0.929065 0.634329 2.084721
-0.814389 0.562002 1.848148
-0.803791 0.560707 1.844957
-0.795750 0.561188 1.847549
-0.790388 0.563590 1.856411
-0.781046 0.563177 1.855947
-0.972171 0.742650 2.452285
-0.961798 0.743566 2.456095
-0.938554 0.734432 2.426643
-0.928070 0.735182 2.429781
-0.917769 0.736098 2.433414
-0.840375 0.682544 2.256888
-0.835595 0.687351 2.273251
-0.830704 0.692192 2.289684
-0.809678 0.683538 2.261432
-0.805164 0.688779 2.279107
-0.794194 0.688565 2.278689
-0.771037 0.677634 2.242762
-0.761440 0.678484 2.245782
-0.638703 0.577126 1.910431
-0.624064 0.571945 1.893394
-0.617767 0.574370 1.901508
-0.609953 0.575436 1.905094
-0.598768 0.573307 1.898074
-0.592028 0.575433 1.905118
-0.278747 0.308267 1.020175
-0.284062 0.319653 1.057750
-0.273558 0.313324 1.036698
-0.265259 0.309339 1.023394
-0.255414 0.303369 1.003523
-0.252015 0.304975 1.008706
-0.245246 0.302488 1.000342
-0.236348 0.297224 0.982795
-0.233493 0.299503 0.990183
-0.228216 0.298705 0.987393
-0.222334 0.297065 0.981815
-0.216066 0.294829 0.974266
-0.210346 0.293260 0.968919
-0.204152 0.290946 0.961108
-0.197909 0.288455 0.952713
-0.191791 0.286034 0.944552
-0.186233 0.284355 0.938838
-0.179788 0.281207 0.928275
-0.174141 0.279181 0.921416
-0.168447 0.276973 0.913959
-0.163825 0.276460 0.912096
-0.158722 0.275085 0.907386
-0.152795 0.272166 0.897588
-0.147653 0.270518 0.891985
-0.142518 0.268788 0.886113
-0.137202 0.266600 0.878737
-0.131825 0.264156 0.870517
-0.126362 0.261374 0.861189
-0.122198 0.261186 0.860409
-0.118215 0.261384 0.860905
-0.097828 0.232327 0.764927
-0.094270 0.232489 0.765324
-0.091141 0.233763 0.769383
-0.087722 0.234369 0.771247
-0.083515 0.232831 0.766059
-0.079580 0.231945 0.763017
-0.074409 0.227202 0.747295
-0.070748 0.226828 0.745949
-0.067146 0.226611 0.745122
-0.062919 0.224149 0.736919
-0.058888 0.222132 0.730182
-0.054541 0.218598 0.718467
-0.050572 0.216210 0.710523
-0.046656 0.213723 0.702262
-0.042742 0.210867 0.692793
-0.039471 0.210971 0.693051
-0.035828 0.208921 0.686241
-0.032578 0.208986 0.686383
-0.014775 0.118510 0.389153
-0.012975 0.118964 0.390608
-0.011236 0.120220 0.394700
-0.009311 0.119592 0.392609
-0.007500 0.120492 0.395536
-0.006085 0.130477 0.428285
-0.004049 0.130491 0.428305
-0.002003 0.129909 0.426374
0.000025 0.131548 0.431735
0.002071 0.131036 0.430036
0.004125 0.131287 0.430848
0.006186 0.131526 0.431621
0.008230 0.131382 0.431138
0.010282 0.131385 0.431143
0.012329 0.131343 0.431002
0.014338 0.130961 0.429747
0.016307 0.130346 0.427732
0.018205 0.129372 0.424539
0.019924 0.127440 0.418207
0.021616 0.125710 0.412541
0.023254 0.123975 0.406857
0.024994 0.123005 0.403687
0.026677 0.121918 0.400136
0.028348 0.120923 0.396887
0.029944 0.119749 0.393054
0.031628 0.119048 0.390776
0.033418 0.118798 0.389978
0.035155 0.118398 0.388691
0.036798 0.117734 0.386538
0.038619 0.117677 0.386377
0.033604 0.097744 0.320956
0.035099 0.097654 0.320685
0.036548 0.097447 0.320033
0.038050 0.097393 0.319884
0.039481 0.097170 0.319179
0.040884 0.096896 0.318310
0.042241 0.096535 0.317155
0.043572 0.096143 0.315898
0.044913 0.095797 0.314791
0.046133 0.095224 0.312941
0.047433 0.094847 0.311733
0.048634 0.094302 0.309975
0.050014 0.094124 0.309422
0.051314 0.093810 0.308424
0.052540 0.093381 0.307045
0.053875 0.093165 0.306367
0.054933 0.092495 0.304193
0.056185 0.092175 0.303175
0.057383 0.091786 0.301925
0.058568 0.091394 0.300667
0.059751 0.091018 0.299460
0.060897 0.090605 0.298129
0.062054 0.090227 0.296913
0.063208 0.089861 0.295735
0.064340 0.089481 0.294510
0.065549 0.089221 0.293679
0.066650 0.088827 0.292405
0.067494 0.088116 0.290084
0.068566 0.087723 0.288810
0.069666 0.087381 0.287700
0.070513 0.086741 0.285610
0.071542 0.086344 0.284318
0.072470 0.085843 0.282679
0.073512 0.085493 0.281534
0.074369 0.084943 0.279729
0.075402 0.084610 0.278638
0.076582 0.084451 0.278116
0.077429 0.083936 0.276419
0.078286 0.083448 0.274810
0.078467 0.082268 0.270918
0.079373 0.081874 0.269611
0.080211 0.081424 0.268115
0.080892 0.080830 0.266143
0.081988 0.080663 0.265574
0.082954 0.080375 0.264602
0.083892 0.080069 0.263568
0.084629 0.079583 0.261937
0.085550 0.079281 0.260910
0.086258 0.078793 0.259265
0.087137 0.078473 0.258171
0.088039 0.078182 0.257166
0.088832 0.077804 0.255870
0.089591 0.077406 0.254506
0.090504 0.077151 0.253605
0.090973 0.076528 0.251494
0.091399 0.075886 0.249314
0.092188 0.075558 0.248161
0.093003 0.075259 0.247099
0.093644 0.074829 0.245599
0.094364 0.074471 0.244334
0.095136 0.074163 0.243225
0.095545 0.073583 0.241219
0.096471 0.073409 0.240541
0.097184 0.073079 0.239345
0.097999 0.072834 0.238419
0.098784 0.072571 0.237432
0.099586 0.072327 0.236497
0.100555 0.072208 0.235966
0.101359 0.071974 0.235052
0.102153 0.071739 0.234126
0.102941 0.071504 0.233194
0.103788 0.071315 0.232405
0.104548 0.071071 0.231428
0.105204 0.070762 0.230230
0.105871 0.070466 0.229071
0.106601 0.070219 0.228059
0.106983 0.069749 0.226317
0.107366 0.069290 0.224601
0.107959 0.068973 0.223341
0.108446 0.068596 0.221875
0.108970 0.068249 0.220500
0.109575 0.067959 0.219299
0.110120 0.067638 0.217989
0.110663 0.067322 0.216683
0.111340 0.067092 0.215647
0.112233 0.066996 0.215026
0.112946 0.066795 0.214057
0.113747 0.066648 0.213252
-0.986634 0.595649 1.901400
-0.978393 0.596181 1.905487
-0.961642 0.591489 1.892760
-0.946040 0.587422 1.881901
-0.934480 0.585812 1.878795
-0.926625 0.586515 1.883016
-0.919469 0.587680 1.888637
-0.909482 0.587040 1.888376
-0.901625 0.587777 1.892457
-0.894615 0.589087 1.898311
-0.905094 0.602057 1.941700
-0.957429 0.643423 2.076730
-0.948616 0.644129 2.080551
-0.937028 0.642946 2.078192
-0.922651 0.639804 2.069416
-0.812300 0.569329 1.842631
-0.803395 0.569198 1.843307
-0.793351 0.568249 1.841273
-0.788961 0.571374 1.852384
-0.780852 0.571845 1.854842
-0.776581 0.575169 1.866506
-0.958976 0.744031 2.418368
-0.968293 0.760299 2.472072
-0.957813 0.761229 2.475866
-0.943994 0.759496 2.470942
-0.933502 0.760431 2.474638
-0.844217 0.696393 2.266792
-0.832621 0.695622 2.264781
-0.835233 0.706855 2.301814
-0.820148 0.703211 2.290359
-0.808920 0.702821 2.289455
-0.803609 0.707630 2.305448
-0.784958 0.700665 2.283037
-0.775177 0.701533 2.286110
-0.639819 0.587182 1.913640
-0.621469 0.578480 1.885421
-0.612481 0.578368 1.885162
-0.607556 0.582145 1.897555
-0.597249 0.580802 1.893231
-0.589841 0.582280 1.898076
-0.275090 0.308987 1.006891
-0.270452 0.309102 1.007179
-0.267491 0.311174 1.013833
-0.259577 0.307452 1.001605
-0.250813 0.302570 0.985590
-0.246692 0.303210 0.987555
-0.241483 0.302511 0.985155
-0.232927 0.297510 0.968742
-0.230601 0.300427 0.978105
-0.225304 0.299512 0.974987
-0.219402 0.297739 0.969071
-0.213582 0.296005 0.963277
-0.207789 0.294234 0.957362
-0.202803 0.293551 0.954987
-0.196730 0.291230 0.947278
-0.190381 0.288382 0.937856
-0.185373 0.287479 0.934759
-0.179524 0.285195 0.927172
-0.173722 0.282876 0.919469
-0.168751 0.281824 0.915888
-0.163436 0.280127 0.910210
-0.158663 0.279295 0.907343
-0.153110 0.277004 0.899738
-0.147784 0.275006 0.893085
-0.142493 0.272958 0.886272
-0.137500 0.271372 0.880965
-0.132362 0.269394 0.874385
-0.127396 0.267651 0.868571
-0.121541 0.263860 0.856119
-0.115957 0.260418 0.844800
-0.109699 0.255161 0.827602
-0.097922 0.245289 0.795309
-0.092602 0.241243 0.782059
-0.089224 0.242128 0.784797
-0.084516 0.239327 0.775595
-0.080123 0.237202 0.768587
-0.075226 0.233312 0.755865
-0.071073 0.231456 0.749739
-0.067446 0.231209 0.748827
-0.063354 0.229254 0.742390
-0.059042 0.226224 0.732474
-0.054743 0.222872 0.721525
-0.050731 0.220315 0.713155
-0.046783 0.217692 0.704577
-0.042948 0.215235 0.696540
-0.039610 0.215062 0.695902
-0.035902 0.212670 0.688087
-0.015245 0.124230 0.401822
-0.012946 0.120596 0.390035
-0.011236 0.122151 0.395033
-0.009352 0.122064 0.394722
-0.007549 0.123247 0.398519
-0.005929 0.129239 0.417868
-0.003943 0.129252 0.417888
-0.001965 0.129795 0.419623
0.000030 0.130879 0.423108
0.002059 0.131995 0.426699
0.004110 0.132691 0.428933
0.006145 0.132575 0.428548
0.008185 0.132621 0.428686
0.010271 0.133226 0.430636
0.012276 0.132762 0.429132
0.014276 0.132375 0.427881
0.016310 0.132359 0.427833
0.018299 0.132027 0.426764
0.020116 0.130644 0.422299
0.021845 0.128988 0.416955
0.023504 0.127234 0.411293
0.025078 0.125321 0.405123
0.026727 0.124028 0.400957
0.028525 0.123554 0.399441
0.029831 0.121140 0.391654
0.031416 0.120077 0.388238
0.033283 0.120145 0.388481
0.035035 0.119818 0.387447
0.036658 0.119101 0.385153
0.038472 0.119044 0.384993
0.033709 0.099566 0.322026
0.035174 0.099376 0.321436
0.036575 0.099029 0.320339
0.038063 0.098936 0.320064
0.039557 0.098866 0.319864
0.040913 0.098468 0.318605
0.042271 0.098103 0.317451
0.043593 0.097682 0.316117
0.044969 0.097406 0.315253
0.046220 0.096884 0.313595
0.047458 0.096371 0.311963
0.048652 0.095800 0.310147
0.049898 0.095363 0.308763
0.051234 0.095119 0.308002
0.052515 0.094788 0.306959
0.053759 0.094409 0.305761
0.054997 0.094040 0.304598
0.056102 0.093469 0.302777
0.057327 0.093120 0.301674
0.058531 0.092757 0.300524
0.059743 0.092421 0.299465
0.060890 0.092003 0.298137
0.062048 0.091621 0.296921
0.063192 0.091235 0.295695
0.064399 0.090956 0.294814
0.065514 0.090559 0.293549
0.066672 0.090239 0.292531
0.067780 0.089865 0.291335
0.068890 0.089508 0.290195
0.069860 0.088988 0.288523
0.070603 0.088202 0.285989
0.071552 0.087700 0.284371
0.072585 0.087317 0.283138
0.073604 0.086931 0.281891
0.074502 0.086419 0.280235
0.075443 0.085974 0.278793
0.076552 0.085731 0.278006
0.077481 0.085299 0.276601
0.078524 0.085004 0.275637
0.079280 0.084415 0.273715
0.079781 0.083576 0.270981
0.080388 0.082873 0.268687
0.081178 0.082379 0.267065
0.082061 0.081992 0.265787
0.083132 0.081801 0.265143
0.084145 0.081561 0.264334
0.084963 0.081141 0.262938
0.085390 0.080364 0.260384
0.086299 0.080058 0.259348
0.087217 0.079768 0.258365
0.087958 0.079326 0.256882
0.088763 0.078954 0.255624
0.089601 0.078621 0.254484
0.090245 0.078128 0.252825
0.090793 0.077566 0.250938
0.091446 0.077107 0.249378
0.092317 0.076842 0.248441
0.093114 0.076523 0.247325
0.093829 0.076144 0.246010
0.094514 0.075751 0.244646
0.095137 0.075319 0.243148
0.095603 0.074774 0.241282
0.096284 0.074408 0.239988
0.097022 0.074094 0.238856
0.097881 0.073879 0.238037
0.098738 0.073667 0.237222
0.099506 0.073394 0.236204
0.100506 0.073297 0.235743
0.101383 0.073113 0.234996
0.102174 0.072872 0.234059
0.103013 0.072669 0.233237
0.103835 0.072459 0.232385
0.104550 0.072180 0.231303
0.105255 0.071899 0.230210
0.105886 0.071575 0.228966
0.106588 0.071304 0.227888
0.107145 0.070943 0.226511
0.107671 0.070569 0.225086
0.108223 0.070219 0.223730
0.108709 0.069833 0.222253
0.109261 0.069497 0.220923
0.109681 0.069085 0.219341
0.110237 0.068765 0.218045
0.110798 0.068454 0.216766
0.111391 0.068169 0.215558
0.112241 0.068044 0.214848
0.113026 0.067883 0.214010
0.113841 0.067743 0.213223
-0.986393 0.610314 1.919605
-0.961658 0.600610 1.891401
-0.944624 0.595578 1.877753
-0.933352 0.594117 1.875246
-0.926203 0.595278 1.880920
-0.919147 0.596523 1.886778
-0.910383 0.596673 1.889092
-0.901878 0.596998 1.891877
-0.894127 0.597834 1.896203
-0.889520 0.600812 1.907253
-0.956690 0.652830 2.074045
-0.947869 0.653536 2.077869
-0.938138 0.653623 2.079653
-0.917631 0.646126 2.057210
-0.908902 0.646849 2.060855
-0.806053 0.579879 1.848628
-0.798611 0.580828 1.852734
-0.791144 0.581780 1.856795
-0.782982 0.582238 1.859221
-0.775892 0.583512 1.864201
-0.955874 0.753049 2.409871
-0.952645 0.759536 2.431486
-0.947957 0.765003 2.449788
-0.939945 0.767890 2.459778
-0.929484 0.768823 2.463459
-0.846007 0.708622 2.271147
-0.834793 0.708182 2.270273
-0.834784 0.717361 2.300191
-0.819335 0.713338 2.287738
-0.802618 0.708090 2.271303
-0.802725 0.717744 2.302628
-0.783283 0.709943 2.277916
-0.764423 0.702461 2.254180
-0.754740 0.703321 2.257173
-0.623490 0.589305 1.891425
-0.612694 0.587485 1.885715
-0.610460 0.593942 1.906549
-0.597486 0.589988 1.893932
-0.588753 0.590164 1.894549
-0.588249 0.598723 1.922050
-0.270163 0.308131 0.988942
-0.269873 0.313196 1.005122
-0.262363 0.309913 0.994503
-0.256828 0.308888 0.991121
-0.250204 0.306490 0.983328
-0.245449 0.306334 0.982722
-0.239115 0.304164 0.975649
-0.233314 0.302601 0.970517
-0.227844 0.301413 0.966582
-0.222376 0.300180 0.962499
-0.217497 0.299708 0.960851
-0.211738 0.297977 0.955164
-0.206342 0.296692 0.950904
-0.201885 0.296732 0.950886
-0.195073 0.293233 0.939527
-0.189987 0.292226 0.936151
-0.184955 0.291258 0.932898
-0.179754 0.289969 0.928614
-0.173668 0.287153 0.919444
-0.168814 0.286282 0.916499
-0.163207 0.284055 0.909214
-0.158307 0.282971 0.905587
-0.153057 0.281184 0.899714
-0.147554 0.278819 0.891992
-0.142439 0.277069 0.886239
-0.137356 0.275276 0.880351
-0.132399 0.273634 0.874946
-0.127633 0.272293 0.870509
-0.122954 0.271054 0.866398
-0.117560 0.268100 0.856810
-0.110112 0.260085 0.831056
-0.106254 0.260268 0.831501
-0.097754 0.248659 0.794283
-0.093404 0.247099 0.789171
-0.089753 0.247334 0.789798
-0.084960 0.244309 0.780015
-0.080353 0.241568 0.771144
-0.075135 0.236642 0.755307
-0.071043 0.234948 0.749790
-0.067597 0.235323 0.750880
-0.064016 0.235246 0.750531
-0.059568 0.231786 0.739390
-0.054883 0.226914 0.723755
-0.051103 0.225383 0.718782
-0.046972 0.221976 0.707831
-0.043124 0.219485 0.699805
-0.039842 0.219699 0.700411
-0.036018 0.216692 0.690749
-0.032749 0.216758 0.690891
-0.015214 0.125925 0.401295
-0.013302 0.125867 0.401078
-0.011423 0.126154 0.401960
-0.009563 0.126807 0.404011
-0.007657 0.127017 0.404653
-0.005828 0.129099 0.411261
-0.003963 0.132064 0.420680
-0.001988 0.133667 0.425767
0.000036 0.133238 0.424381
0.002077 0.134825 0.429419
0.004144 0.135670 0.432095
0.006200 0.135695 0.432165
0.008280 0.136118 0.433502
0.010338 0.136075 0.433358
0.012482 0.136991 0.436270
0.014484 0.136311 0.434105
0.016506 0.135964 0.432998
0.018728 0.137161 0.436814
0.020399 0.134484 0.428294
0.022674 0.135908 0.432838
0.023470 0.128971 0.410753
0.024852 0.126073 0.401535
0.026386 0.124303 0.395911
0.028162 0.123833 0.394429
0.029890 0.123223 0.392504
0.031451 0.122038 0.388746
0.033374 0.122310 0.389632
0.035051 0.121697 0.387702
0.036786 0.121337 0.386579
0.038606 0.121280 0.386420
0.033731 0.101150 0.322305
0.035249 0.101107 0.322192
0.036625 0.100678 0.320848
0.038051 0.100415 0.320032
0.039620 0.100535 0.320442
0.040986 0.100150 0.319239
0.042276 0.099612 0.317551
0.043664 0.099336 0.316699
0.045084 0.099147 0.316125
0.046323 0.098585 0.314360
0.047498 0.097925 0.312283
0.048499 0.096960 0.309233
0.049850 0.096728 0.308522
0.051251 0.096604 0.308152
0.052495 0.096199 0.306889
0.053727 0.095796 0.305630
0.054969 0.095430 0.304489
0.056043 0.094798 0.302501
0.057299 0.094499 0.301573
0.058466 0.094071 0.300233
0.059726 0.093809 0.299419
0.060964 0.093525 0.298536
0.062056 0.093036 0.296997
0.063239 0.092700 0.295947
0.064376 0.092315 0.294737
0.065484 0.091904 0.293441
0.066478 0.091353 0.291701
0.067808 0.091278 0.291477
0.068894 0.090884 0.290230
0.069845 0.090330 0.288474
0.070869 0.089890 0.287080
0.071663 0.089181 0.284822
0.072767 0.088877 0.283854
0.073740 0.088426 0.282418
0.074704 0.087981 0.280996
0.075417 0.087260 0.278692
0.076291 0.086748 0.277052
0.077150 0.086236 0.275411
0.077930 0.085654 0.273542
0.078730 0.085113 0.271800
0.079686 0.084755 0.270641
0.080459 0.084217 0.268905
0.081298 0.083765 0.267436
0.082152 0.083340 0.266055
0.083205 0.083128 0.265347
0.084164 0.082829 0.264358
0.085140 0.082556 0.263448
0.085802 0.081990 0.261601
0.086179 0.081172 0.258946
0.087040 0.080827 0.257794
0.087979 0.080562 0.256895
0.088715 0.080121 0.255432
0.089469 0.079708 0.254051
0.090308 0.079381 0.252941
0.090834 0.078791 0.250988
0.091593 0.078416 0.249714
0.092245 0.077960 0.248178
0.093056 0.077647 0.247096
0.093924 0.077390 0.246181
0.094377 0.076802 0.244211
0.095135 0.076472 0.243056
0.095514 0.075849 0.240967
0.096177 0.075464 0.239627
0.097102 0.075293 0.238958
0.097910 0.075034 0.238006
0.098739 0.074798 0.237120
0.099721 0.074681 0.236605
0.100469 0.074393 0.235542
0.101449 0.074283 0.235033
0.102293 0.074075 0.234208
0.103015 0.073785 0.233116
0.103872 0.073596 0.232338
0.104676 0.073375 0.231447
0.105294 0.073029 0.230155
0.105949 0.072715 0.228958
0.106472 0.072318 0.227491
0.106909 0.071872 0.225860
0.107355 0.071441 0.224269
0.107983 0.071138 0.223072
0.108356 0.070674 0.221364
0.109067 0.070438 0.220359
0.109675 0.070141 0.219153
0.110275 0.069844 0.217937
0.110761 0.069480 0.216505
0.111209 0.069101 0.215014
0.112227 0.069080 0.214622
0.112967 0.068888 0.213691
0.113604 0.068638 0.212567
-0.985847 0.619231 1.917028
-0.983428 0.623526 1.932745
-0.949651 0.607832 1.886357
-0.933189 0.603026 1.873588
-0.924511 0.603206 1.876200
-0.919186 0.605599 1.885614
-0.910076 0.605522 1.887255
-0.899827 0.604678 1.886420
-0.893019 0.606153 1.892739
-0.888017 0.608896 1.902950
-0.950777 0.658638 2.060102
-0.941993 0.659339 2.063909
-0.935152 0.661428 2.071992
-0.918233 0.656359 2.057568
-0.909483 0.657083 2.061220
-0.805530 0.588295 1.846612
-0.798726 0.589725 1.852218
-0.792352 0.591509 1.858881
-0.782104 0.590409 1.856421
-0.779412 0.595053 1.871974
-0.956229 0.773962 2.439951
-0.945850 0.774885 2.443701
-0.937858 0.777811 2.453712
-0.927407 0.778745 2.457386
-0.854361 0.726479 2.293081
-0.833999 0.718245 2.267662
-0.833267 0.726923 2.295588
-0.818779 0.723672 2.285799
-0.800383 0.716834 2.264631
-0.793260 0.720045 2.275162
-0.780478 0.718137 2.269479
-0.770731 0.719007 2.272533
-0.626560 0.601196 1.900583
-0.615269 0.598909 1.893515
-0.613007 0.605474 1.914402
-0.599971 0.601434 1.901731
-0.590375 0.600773 1.899718
-0.587524 0.607062 1.919654
-1.185358 1.243899 3.933512
-0.269804 0.312394 0.987702
-0.259920 0.306226 0.968137
-0.257700 0.309028 0.976924
-0.256477 0.313150 0.989874
-0.249859 0.310715 0.982090
-0.237363 0.300742 0.950475
-0.232178 0.299826 0.947480
-0.224289 0.295316 0.933123
-0.220969 0.296759 0.937574
-0.216422 0.296582 0.936896
-0.211640 0.296068 0.935154
-0.207043 0.295797 0.934170
-0.202082 0.294982 0.931468
-0.197402 0.294552 0.929977
-0.192702 0.294071 0.928322
-0.188097 0.293718 0.927066
-0.184672 0.295233 0.931704
-0.178079 0.291634 0.920204
-0.173428 0.291116 0.918421
-0.168661 0.290373 0.915929
-0.163127 0.288234 0.909034
-0.158269 0.287208 0.905649
-0.152870 0.285115 0.898901
-0.147474 0.282907 0.891794
-0.142270 0.280953 0.885485
-0.137451 0.279661 0.881268
-0.132723 0.278480 0.877398
-0.127823 0.276851 0.872123
-0.123285 0.275924 0.869058
-0.118561 0.274502 0.864439
-0.112591 0.269992 0.850098
-0.108645 0.270179 0.850552
-0.097622 0.252109 0.793537
-0.093472 0.251048 0.790076
-0.089616 0.250726 0.788940
-0.085251 0.248886 0.783032
-0.080914 0.246968 0.776882
-0.075873 0.242615 0.763077
-0.071266 0.239285 0.752496
-0.067663 0.239152 0.751976
-0.064047 0.238957 0.751261
-0.059681 0.235777 0.741167
-0.055086 0.231240 0.726813
-0.051016 0.228448 0.717949
-0.047046 0.225734 0.709337
-0.043208 0.223286 0.701565
-0.039847 0.223106 0.700923
-0.036056 0.220258 0.691902
-0.032493 0.218378 0.685932
-0.029246 0.218439 0.686058
-0.015130 0.127170 0.399371
-0.013260 0.127418 0.400116
-0.011440 0.128311 0.402891
-0.009549 0.128605 0.403783
-0.007663 0.129136 0.405422
-0.005821 0.131014 0.411296
-0.003969 0.134474 0.422134
-0.001975 0.135204 0.424402
0.000042 0.135529 0.425405
0.002084 0.136939 0.429813
0.004147 0.137620 0.431936
0.006212 0.137897 0.432795
0.008284 0.138156 0.433596
