ply
format ascii 1.0
element vertex 1742
property float x
property float y
property float z
end_header
0.104526 0.027945 0.216759
0.105001 0.027796 0.215485
0.105208 0.027579 0.213682
0.105754 0.027454 0.212586
0.106150 0.027293 0.211202
0.106736 0.027184 0.210208
0.107219 0.027051 0.209020
0.107852 0.026957 0.208133
0.108687 0.026915 0.207637
-1.031783 0.258814 1.941152
-1.023938 0.259156 1.945256
-1.017359 0.259828 1.951751
-1.007373 0.259634 1.951660
-1.002201 0.260688 1.960875
-0.996935 0.261738 1.969981
-0.993011 0.263163 1.981847
-0.988994 0.264591 1.993665
-0.988991 0.267130 2.013798
-0.988557 0.269601 2.033359
-0.980742 0.270088 2.037894
-0.975397 0.271271 2.047620
-0.966722 0.271542 2.050396
-0.958529 0.271956 2.054184
-0.873548 0.250370 1.891688
-0.872828 0.252739 1.910079
-0.862434 0.252327 1.907402
-0.840043 0.248359 1.877784
-1.472667 0.440018 3.327452
-1.460501 0.441067 3.335874
-1.437998 0.438984 3.320514
-1.428560 0.440888 3.335223
-1.416646 0.442061 3.344324
-1.400633 0.441967 3.343761
-1.386004 0.442313 3.346444
-1.373671 0.443408 3.354718
-1.378591 0.450162 3.405735
-0.903708 0.298561 2.258681
-0.913558 0.305402 2.310281
-0.903323 0.305613 2.311676
-0.883251 0.302461 2.287585
-1.318059 0.456920 3.455363
-1.298016 0.455588 3.444791
-1.282628 0.455876 3.446412
-1.280224 0.460846 3.483362
-0.681823 0.248620 1.878861
-0.680293 0.251321 1.898870
-0.677303 0.253547 1.915256
-0.660127 0.250451 1.891412
-0.655387 0.252053 1.903027
-0.646803 0.252201 1.903634
-0.302811 0.139324 1.047750
-0.294760 0.137876 1.036458
-0.289197 0.137562 1.033689
-0.284604 0.137708 1.034363
-0.280621 0.138159 1.037326
-0.275746 0.138178 1.037042
-0.270869 0.138198 1.036757
-0.266160 0.138305 1.037122
-0.261520 0.138453 1.037790
-0.256281 0.138284 1.036076
-0.250655 0.137895 1.032717
-0.245084 0.137522 1.029471
-0.238935 0.136803 1.023641
-0.233057 0.136212 1.018770
-0.229028 0.136699 1.021967
-0.218952 0.133521 0.997766
-0.137746 0.091983 0.686162
-0.132983 0.090964 0.678261
-0.130396 0.091420 0.681366
-0.125894 0.090522 0.674381
-0.121157 0.089403 0.665765
-0.116840 0.088543 0.659077
-0.113346 0.088275 0.656812
-0.109733 0.087898 0.653733
-0.106127 0.087504 0.650535
-0.103173 0.087640 0.651286
-0.101518 0.088923 0.660552
-0.106621 0.096398 0.715800
-0.103373 0.096569 0.716796
-0.099929 0.096562 0.716474
-0.096209 0.096279 0.714105
-0.093740 0.097274 0.721224
-0.073949 0.086301 0.639198
-0.069465 0.084582 0.626260
-0.065539 0.083417 0.617440
-0.062618 0.083483 0.617734
-0.022981 0.035727 0.264131
-0.021521 0.035417 0.261771
-0.020075 0.035094 0.259320
-0.018638 0.034745 0.256674
-0.017387 0.034718 0.256416
-0.016172 0.034763 0.256691
-0.014872 0.034620 0.255581
-0.013573 0.034453 0.254300
-0.012182 0.033996 0.250879
-0.010908 0.033801 0.249400
-0.009635 0.033559 0.247576
-0.008362 0.033253 0.245278
-0.007121 0.032992 0.243321
-0.005911 0.032795 0.241843
-0.004669 0.032290 0.238095
-0.003394 0.031144 0.229621
-0.002289 0.031210 0.230092
-0.001186 0.031439 0.231760
-0.000066 0.031518 0.232333
0.001059 0.031549 0.232550
0.002202 0.031827 0.234597
0.003366 0.032108 0.236665
0.004542 0.032336 0.238342
0.005718 0.032471 0.239347
0.006875 0.032469 0.239340
0.008045 0.032520 0.239726
0.009269 0.032748 0.241415
0.010493 0.032925 0.242736
0.011704 0.033031 0.243539
0.012915 0.033115 0.244186
0.014155 0.033255 0.245245
0.015384 0.033350 0.245971
0.016617 0.033439 0.246661
0.017849 0.033513 0.247243
0.019078 0.033571 0.247714
0.020342 0.033683 0.248582
0.021617 0.033798 0.249476
0.022945 0.033979 0.250860
0.024243 0.034101 0.251812
0.025556 0.034230 0.252818
0.026824 0.034290 0.253317
0.028125 0.034385 0.254076
0.029377 0.034415 0.254364
0.030645 0.034460 0.254762
0.031938 0.034529 0.255340
0.033365 0.034731 0.256904
0.034700 0.034828 0.257692
0.036090 0.034971 0.258819
0.037400 0.035028 0.259325
0.038674 0.035051 0.259567
0.039948 0.035071 0.259796
0.041367 0.035213 0.260936
0.042904 0.035445 0.262737
0.044216 0.035482 0.263098
0.045489 0.035488 0.263227
0.046856 0.035563 0.263878
0.048285 0.035681 0.264841
0.049707 0.035787 0.265724
0.051087 0.035860 0.266354
0.052460 0.035923 0.266916
0.053832 0.035983 0.267456
0.055243 0.036064 0.268161
0.056565 0.036087 0.268421
0.057851 0.036085 0.268503
0.059196 0.036119 0.268855
0.060551 0.036158 0.269243
0.061917 0.036201 0.269661
0.063259 0.036229 0.269968
0.064552 0.036229 0.270062
0.065861 0.036237 0.270217
0.067257 0.036291 0.270722
0.068597 0.036314 0.270988
0.070068 0.036404 0.271754
0.071167 0.036301 0.271077
0.072569 0.036353 0.271561
0.073920 0.036379 0.271841
0.075368 0.036450 0.272465
0.076840 0.036531 0.273154
0.078118 0.036518 0.273143
0.079254 0.036440 0.272645
0.078698 0.035599 0.266434
0.078738 0.035051 0.262407
0.079047 0.034636 0.259381
0.079523 0.034307 0.256988
0.080407 0.034162 0.255967
0.081460 0.034091 0.255504
0.082322 0.033944 0.254460
0.083200 0.033807 0.253495
0.084260 0.033748 0.253105
0.085167 0.033629 0.252267
0.086097 0.033523 0.251519
0.087137 0.033462 0.251106
0.088007 0.033338 0.250217
0.088870 0.033214 0.249328
0.089705 0.033084 0.248384
0.090565 0.032966 0.247530
0.091329 0.032817 0.246432
0.092135 0.032686 0.245471
0.092979 0.032571 0.244628
0.093812 0.032456 0.243774
0.094583 0.032323 0.242779
0.095131 0.032117 0.241234
0.095460 0.031843 0.239175
0.096053 0.031663 0.237811
0.096788 0.031533 0.236821
0.097628 0.031439 0.236101
0.098351 0.031311 0.235112
0.098992 0.031160 0.233945
0.099642 0.031015 0.232820
0.100320 0.030881 0.231776
0.101090 0.030779 0.230957
0.101551 0.030585 0.229451
0.102138 0.030434 0.228252
0.102559 0.030236 0.226703
0.102737 0.029972 0.224648
0.103126 0.029774 0.223082
0.103447 0.029561 0.221395
0.103471 0.029267 0.219106
0.104042 0.029134 0.218001
0.104402 0.028944 0.216471
0.104625 0.028720 0.214680
0.104953 0.028529 0.213130
0.105417 0.028378 0.211873
0.105910 0.028238 0.210685
0.106622 0.028159 0.209943
0.107377 0.028092 0.209286
0.107994 0.027990 0.208364
0.108817 0.027943 0.207840
-1.024977 0.266278 1.927943
-1.021046 0.267642 1.939375
-1.014207 0.268262 1.945335
-1.004037 0.268004 1.944847
-1.000553 0.269543 1.957319
-0.996550 0.270969 1.968906
-0.990039 0.271734 1.975617
-0.989010 0.274032 1.993413
-0.994325 0.278150 2.024390
-0.992154 0.280233 2.040505
-0.986614 0.281395 2.049858
-0.980540 0.282427 2.058196
-0.969694 0.282092 2.056499
-0.961468 0.282519 2.060298
-0.881052 0.261527 1.907783
-0.866894 0.259973 1.896955
-0.863628 0.261687 1.909918
-0.840477 0.257348 1.878644
-1.480505 0.458136 3.344996
-1.457762 0.455940 3.329480
-1.444380 0.456657 3.335137
-1.432323 0.457814 3.343918
-1.416808 0.457878 3.344644
-1.404427 0.458968 3.352779
-1.390028 0.459416 3.356146
-1.374479 0.459491 3.356702
-0.923661 0.316035 2.308589
-0.914309 0.316553 2.312238
-0.902446 0.316204 2.309506
-0.894884 0.317372 2.317806
-1.332233 0.478303 3.492683
-1.304558 0.474211 3.462335
-1.286790 0.473664 3.457806
-1.294528 0.482612 3.522518
-0.676654 0.255533 1.864754
-0.677081 0.259053 1.890057
-0.672182 0.260602 1.900940
-0.660136 0.259385 1.891618
-0.651776 0.259603 1.892736
-0.633747 0.255922 1.865409
-0.303632 0.144683 1.050777
-0.295077 0.142946 1.037762
-0.289569 0.142651 1.035217
-0.284363 0.142498 1.033694
-0.280274 0.142908 1.036255
-0.275431 0.142942 1.036077
-0.270484 0.142922 1.035507
-0.265896 0.143095 1.036325
-0.261196 0.143213 1.036742
-0.256164 0.143150 1.035847
-0.251093 0.143062 1.034771
-0.245377 0.142596 1.030959
-0.238856 0.141634 1.023561
-0.232726 0.140869 1.017586
-0.226076 0.139750 1.009066
-0.218692 0.138118 0.996850
-0.137623 0.095179 0.685750
-0.132713 0.094017 0.677088
-0.129336 0.093910 0.676030
-0.125437 0.093410 0.672143
-0.120866 0.092369 0.664375
-0.116159 0.091166 0.655447
-0.112681 0.090887 0.653172
-0.108890 0.090334 0.648928
-0.105502 0.090092 0.646925
-0.102147 0.089864 0.645033
-0.099194 0.089986 0.645657
-0.096176 0.090056 0.645905
-0.092958 0.089937 0.644808
-0.090039 0.090109 0.645797
-0.086905 0.090071 0.645289
-0.083500 0.089739 0.642676
-0.080042 0.089323 0.639470
-0.076907 0.089248 0.638714
-0.073874 0.089289 0.638797
-0.069240 0.087317 0.624483
-0.065184 0.085926 0.614343
-0.061920 0.085498 0.611095
-0.014599 0.038383 0.273661
-0.013176 0.038083 0.271472
-0.011813 0.037915 0.270229
-0.009637 0.034767 0.247753
-0.008416 0.034666 0.246998
-0.007175 0.034429 0.245279
-0.005952 0.034212 0.243705
-0.004738 0.033940 0.241741
-0.003498 0.033259 0.236870
-0.002295 0.032425 0.230908
-0.001178 0.032372 0.230519
-0.000064 0.032374 0.230519
0.001054 0.032495 0.231371
0.002220 0.033203 0.236406
0.003383 0.033412 0.237894
0.004562 0.033626 0.239420
0.005709 0.033562 0.238966
0.006889 0.033684 0.239845
0.008070 0.033774 0.240495
0.009252 0.033848 0.241031
0.010449 0.033952 0.241788
0.011660 0.034075 0.242690
0.012919 0.034302 0.244326
0.014139 0.034397 0.245033
0.015366 0.034493 0.245746
0.016584 0.034558 0.246235
0.017798 0.034605 0.246606
0.019034 0.034685 0.247215
0.020302 0.034812 0.248162
0.021596 0.034966 0.249306
0.022914 0.035141 0.250599
0.024231 0.035297 0.251762
0.025510 0.035384 0.252436
0.026806 0.035486 0.253222
0.028104 0.035582 0.253967
0.029350 0.035607 0.254204
0.030640 0.035680 0.254791
0.031975 0.035799 0.255707
0.033288 0.035885 0.256391
0.034593 0.035956 0.256970
0.035888 0.036012 0.257442
0.037249 0.036130 0.258357
0.038595 0.036224 0.259112
0.039902 0.036278 0.259573
0.041332 0.036436 0.260786
0.042695 0.036527 0.261525
0.044127 0.036671 0.262641
0.045423 0.036697 0.262912
0.046788 0.036776 0.263564
0.048138 0.036839 0.264103
0.049713 0.037066 0.265826
0.051065 0.037120 0.266304
0.052335 0.037113 0.266344
0.053732 0.037194 0.267021
0.055063 0.037227 0.267350
0.056496 0.037326 0.268155
0.057843 0.037365 0.268529
0.059182 0.037396 0.268854
0.060489 0.037407 0.269025
0.061895 0.037477 0.269624
0.063216 0.037494 0.269841
0.064521 0.037501 0.269987
0.065888 0.037543 0.270383
0.067222 0.037564 0.270632
0.068704 0.037666 0.271460
0.069954 0.037639 0.271359
0.071363 0.037697 0.271870
0.072672 0.037702 0.271995
0.073914 0.037671 0.271864
0.075140 0.037635 0.271686
0.076268 0.037550 0.271163
0.077963 0.037743 0.272642
0.078768 0.037506 0.271012
0.079465 0.037226 0.269068
0.079134 0.036481 0.263758
0.079700 0.036167 0.261559
0.079636 0.035580 0.257384
0.080386 0.035370 0.255928
0.081281 0.035228 0.254969
0.082299 0.035144 0.254417
0.083167 0.034998 0.253421
0.084139 0.034900 0.252764
0.085093 0.034797 0.252068
0.086009 0.034682 0.251281
0.086934 0.034573 0.250536
0.087880 0.034475 0.249871
0.088786 0.034365 0.249108
0.089605 0.034225 0.248120
0.090426 0.034088 0.247160
0.091257 0.033959 0.246246
0.092005 0.033802 0.245130
0.092877 0.033695 0.244365
0.093721 0.033580 0.243541
0.094362 0.033396 0.242213
0.094953 0.033199 0.240782
0.095252 0.032906 0.238651
0.095639 0.032650 0.236783
0.096548 0.032575 0.236228
0.097388 0.032480 0.235513
0.098055 0.032329 0.234395
0.098881 0.032234 0.233672
0.099637 0.032118 0.232794
0.100130 0.031921 0.231322
0.100779 0.031778 0.230231
0.101495 0.031658 0.229306
0.101948 0.031460 0.227808
0.102402 0.031266 0.226333
0.102666 0.031018 0.224467
0.102910 0.030771 0.222590
0.103092 0.030509 0.220610
0.103373 0.030282 0.218870
0.103935 0.030141 0.217747
0.104426 0.029982 0.216488
0.104652 0.029751 0.214702
0.104902 0.029531 0.212989
0.105327 0.029365 0.211654
0.105756 0.029202 0.210341
0.106344 0.029086 0.209355
0.107190 0.029042 0.208879
0.107823 0.028942 0.207989
0.108544 0.028867 0.207272
-1.031436 0.277185 1.939666
-1.018422 0.276148 1.933987
-1.012581 0.277056 1.941831
-1.002704 0.276866 1.941899
-0.998672 0.278302 1.953291
-0.994348 0.279682 1.964224
-0.987896 0.280484 1.971028
-0.985610 0.282496 1.986265
-0.989889 0.286445 2.015076
-0.988823 0.288910 2.033389
-0.987064 0.291219 2.050543
-0.977890 0.291364 2.052401
-0.969945 0.291882 2.056818
-0.961709 0.292322 2.060619
-0.880644 0.270408 1.906734
-0.870048 0.269904 1.903706
-0.861880 0.270151 1.905917
-0.847975 0.268585 1.895287
-1.479771 0.473677 3.343156
-1.455584 0.470936 3.324353
-1.442018 0.471610 3.329558
-1.426800 0.471752 3.330925
-1.416226 0.473451 3.343195
-1.403787 0.474556 3.351202
-1.389412 0.475026 3.354636
-1.376182 0.475902 3.360865
-1.362597 0.476674 3.366286
-0.916282 0.328160 2.317283
-0.905885 0.328339 2.318377
-0.889034 0.326155 2.302742
-1.333894 0.495389 3.497196
-1.319619 0.496203 3.502492
-1.305295 0.497020 3.507740
-1.276888 0.492427 3.474752
-0.675410 0.263846 1.861462
-0.671721 0.265852 1.875246
-0.669410 0.268464 1.893269
-0.657320 0.267172 1.883728
-0.650459 0.267998 1.889101
-0.642616 0.268439 1.891721
-0.304494 0.150090 1.053953
-0.294848 0.147753 1.037154
-0.289171 0.147360 1.033997
-0.284169 0.147304 1.033198
-0.280108 0.147741 1.035857
-0.275276 0.147781 1.035718
-0.270255 0.147719 1.034860
-0.265559 0.147835 1.035249
-0.260766 0.147901 1.035279
-0.255449 0.147666 1.033203
-0.249781 0.147215 1.029619
-0.243872 0.146602 1.024894
-0.237729 0.145820 1.018996
-0.230942 0.144603 1.010054
-0.226457 0.144806 1.011040
-0.132571 0.097151 0.676574
-0.129155 0.097008 0.675296
-0.125210 0.096452 0.671140
-0.120537 0.095291 0.662783
-0.115926 0.094117 0.654347
-0.111794 0.093278 0.648250
-0.108109 0.092775 0.644491
-0.104643 0.092436 0.641881
-0.101213 0.092109 0.639361
-0.098134 0.092091 0.638985
-0.095177 0.092191 0.639432
-0.092188 0.092265 0.639704
-0.089253 0.092401 0.640407
-0.086183 0.092400 0.640172
-0.083265 0.092570 0.641118
-0.079836 0.092163 0.638076
-0.076720 0.092098 0.637412
-0.073759 0.092222 0.638061
-0.069901 0.091188 0.630702
-0.065860 0.089810 0.620974
-0.063016 0.090011 0.622174
-0.014582 0.039662 0.273480
-0.013160 0.039351 0.271292
-0.011799 0.039178 0.270049
-0.010491 0.039159 0.269877
-0.009115 0.038841 0.267649
-0.007750 0.038476 0.265097
-0.006365 0.037853 0.260776
-0.005176 0.038369 0.264305
-0.003518 0.034615 0.238419
-0.002349 0.034352 0.236589
-0.001182 0.033646 0.231712
-0.000063 0.033684 0.231960
0.001058 0.033700 0.232068
0.002389 0.036935 0.254333
0.003586 0.036617 0.252140
0.004615 0.035173 0.242199
0.005742 0.034913 0.240411
0.006872 0.034752 0.239314
0.008084 0.034992 0.240972
0.009276 0.035096 0.241705
0.010446 0.035103 0.241769
0.011641 0.035186 0.242361
0.012834 0.035244 0.242783
0.014083 0.035436 0.244128
0.015319 0.035569 0.245071
0.016538 0.035645 0.245628
0.017759 0.035713 0.246132
0.018978 0.035770 0.246563
0.020217 0.035855 0.247191
0.021515 0.036031 0.248450
0.022842 0.036233 0.249886
0.024172 0.036420 0.251225
0.025464 0.036534 0.252063
0.026747 0.036624 0.252739
0.028049 0.036733 0.253549
0.029353 0.036833 0.254304
0.030624 0.036887 0.254741
0.031906 0.036949 0.255232
0.033248 0.037073 0.256159
0.034550 0.037145 0.256725
0.035860 0.037221 0.257319
0.037155 0.037276 0.257777
0.038439 0.037318 0.258139
0.039828 0.037454 0.259161
0.041233 0.037597 0.260231
0.042669 0.037759 0.261436
0.044020 0.037839 0.262072
0.045342 0.037891 0.262513
0.046629 0.037911 0.262739
0.048013 0.038006 0.263486
0.049385 0.038088 0.264141
0.050786 0.038186 0.264916
0.052187 0.038280 0.265657
0.053540 0.038335 0.266133
0.054939 0.038420 0.266815
0.056383 0.038532 0.267684
0.057714 0.038562 0.267990
0.059083 0.038617 0.268462
0.060429 0.038654 0.268816
0.061712 0.038651 0.268886
0.063044 0.038677 0.269163
0.064397 0.038715 0.269521
0.065761 0.038758 0.269912
0.067156 0.038818 0.270420
0.068732 0.038977 0.271620
0.070197 0.039069 0.272352
0.071325 0.038973 0.271777
0.072584 0.038951 0.271709
0.073947 0.038985 0.272033
0.075271 0.038996 0.272202
0.076579 0.039000 0.272310
0.077272 0.038695 0.270267
0.076343 0.037602 0.262707
0.077454 0.037532 0.262296
0.078567 0.037466 0.261905
0.079063 0.037111 0.259499
0.079769 0.036865 0.257845
0.080404 0.036594 0.256016
0.081320 0.036457 0.255117
0.082240 0.036326 0.254257
0.083160 0.036199 0.253423
0.084082 0.036076 0.252614
0.084954 0.035935 0.251676
0.085861 0.035813 0.250866
0.086755 0.035688 0.250038
0.087694 0.035586 0.249356
0.088529 0.035444 0.248400
0.089360 0.035305 0.247453
0.090249 0.035192 0.246684
0.091004 0.035030 0.245570
0.091848 0.034905 0.244717
0.092664 0.034774 0.243808
0.093544 0.034670 0.243085
0.094131 0.034461 0.241621
0.094382 0.034135 0.239334
0.094929 0.033922 0.237839
0.095546 0.033740 0.236548
0.096334 0.033621 0.235698
0.097254 0.033551 0.235180
0.097993 0.033420 0.234237
0.098640 0.033262 0.233091
0.099327 0.033120 0.232057
0.099925 0.032952 0.230833
0.100532 0.032790 0.229649
0.101170 0.032642 0.228553
0.101722 0.032470 0.227282
0.102278 0.032302 0.226037
0.102430 0.032012 0.223928
0.102644 0.031747 0.221988
0.102853 0.031486 0.220070
0.103308 0.031304 0.218702
0.103881 0.031162 0.217600
0.104142 0.030929 0.215866
0.104527 0.030738 0.214410
0.104956 0.030563 0.213063
0.105598 0.030453 0.212159
0.106041 0.030288 0.210865
0.106645 0.030172 0.209904
0.107390 0.030098 0.209223
0.107882 0.029954 0.208055
0.108658 0.029892 0.207439
-1.031071 0.286313 1.938534
-1.020483 0.285921 1.937476
-1.012907 0.286373 1.942051
-1.006777 0.287247 1.949403
-0.999300 0.287749 1.954152
-0.992890 0.288570 1.960998
-0.985973 0.289258 1.966863
-0.985172 0.291771 1.985070
-0.998163 0.298456 2.031619
-0.990008 0.298887 2.035543
-0.983023 0.299682 2.041885
-0.979920 0.301689 2.056416
-0.978893 0.304382 2.075563
-0.947485 0.297586 2.029934
-0.939347 0.298036 2.033647
-0.849189 0.272203 1.857910
-0.856902 0.277532 1.894765
-0.838625 0.274467 1.874264
-1.470108 0.486250 3.321132
-1.456770 0.487011 3.326893
-1.445966 0.488644 3.338533
-1.426520 0.487361 3.330159
-1.413793 0.488371 3.337365
-1.400530 0.489217 3.343370
-1.386459 0.489796 3.347474
-1.372738 0.490514 3.352448
-1.356588 0.490370 3.351459
-1.343010 0.491164 3.356807
-0.911008 0.337133 2.303995
-0.905302 0.339051 2.316953
-0.900854 0.341492 2.333442
-1.326601 0.509081 3.478228
-1.312393 0.509914 3.483492
-1.292157 0.508396 3.472638
-1.288515 0.513452 3.506622
-0.667556 0.269459 1.839953
-0.668445 0.273362 1.866250
-0.657088 0.272295 1.858583
-0.648045 0.272170 1.857326
-0.639906 0.272427 1.858643
-0.304253 0.154964 1.053317
-0.299742 0.155206 1.054574
-0.289568 0.152475 1.035624
-0.284454 0.152360 1.034447
-0.280496 0.152871 1.037510
-0.275629 0.152896 1.037272
-0.270520 0.152785 1.036106
-0.265758 0.152871 1.036266
-0.260718 0.152796 1.035336
-0.255318 0.152503 1.032927
-0.249791 0.152123 1.029920
-0.243930 0.151519 1.025403
-0.236777 0.150071 1.015181
-0.229649 0.148580 1.004672
-0.223391 0.147601 0.997627
-0.218949 0.147804 0.998581
-0.132626 0.100427 0.677067
-0.130439 0.101235 0.682231
-0.124901 0.099418 0.669703
-0.120323 0.098289 0.661826
-0.115889 0.097220 0.654361
-0.111789 0.096380 0.648445
-0.108124 0.095878 0.644809
-0.104625 0.095497 0.641995
-0.101493 0.095440 0.641361
-0.098239 0.095260 0.639906
-0.095287 0.095372 0.640410
-0.092375 0.095531 0.641241
-0.089481 0.095721 0.642285
-0.086434 0.095757 0.642290
-0.083359 0.095761 0.642093
-0.080274 0.095755 0.641831
-0.077314 0.095904 0.642613
-0.074154 0.095805 0.641743
-0.070878 0.095544 0.639787
-0.067408 0.094984 0.635838
-0.063993 0.094453 0.632100
-0.062447 0.096765 0.647380
-0.016015 0.041279 0.275633
-0.014516 0.040799 0.272376
-0.013103 0.040489 0.270255
-0.011750 0.040319 0.269075
-0.010372 0.040007 0.266955
-0.009047 0.039843 0.265820
-0.007764 0.039838 0.265756
-0.006471 0.039775 0.265303
-0.005169 0.039602 0.264123
-0.003882 0.039480 0.263281
-0.002578 0.038973 0.259885
-0.001310 0.038576 0.257216
-0.000068 0.038452 0.256375
0.001169 0.038402 0.256036
0.002399 0.038310 0.255414
0.003608 0.038047 0.253660
0.004798 0.037773 0.251829
0.005984 0.037583 0.250570
0.006926 0.036179 0.241219
0.008067 0.036075 0.240532
0.009260 0.036195 0.241343
0.010431 0.036214 0.241486
0.011612 0.036261 0.241818
0.012803 0.036326 0.242273
0.014015 0.036435 0.243031
0.015277 0.036647 0.244467
0.016501 0.036743 0.245144
0.017732 0.036842 0.245839
0.018936 0.036876 0.246101
0.020140 0.036904 0.246328
0.021507 0.037213 0.248430
0.022929 0.037578 0.250915
0.024203 0.037676 0.251616
0.025463 0.037744 0.252127
0.026775 0.037880 0.253089
0.028068 0.037977 0.253796
0.029362 0.038069 0.254466
0.030606 0.038089 0.254663
0.031879 0.038144 0.255093
0.033216 0.038267 0.255985
0.034543 0.038372 0.256753
0.035795 0.038387 0.256930
0.037118 0.038476 0.257597
0.038500 0.038618 0.258618
0.040052 0.038916 0.260696
0.041288 0.038898 0.260656
0.042589 0.038941 0.261024
0.043950 0.039035 0.261734
0.045274 0.039091 0.262193
0.046604 0.039149 0.262668
0.047935 0.039205 0.263131
0.049296 0.039282 0.263733
0.050689 0.039380 0.264480
0.052137 0.039514 0.265471
0.053441 0.039536 0.265710
0.054766 0.039572 0.266038
0.056174 0.039665 0.266756
0.057626 0.039784 0.267647
0.059035 0.039868 0.268306
0.060278 0.039839 0.268205
0.061588 0.039855 0.268405
0.062958 0.039908 0.268853
0.064229 0.039898 0.268877
0.065603 0.039950 0.269320
0.067820 0.040504 0.273147
0.069409 0.040669 0.274349
0.070727 0.040672 0.274459
0.071672 0.040464 0.273147
0.072867 0.040403 0.272818
0.074010 0.040315 0.272311
0.074960 0.040127 0.271123
0.076004 0.039994 0.270308
0.077003 0.039843 0.269366
0.077746 0.039566 0.267574
0.078510 0.039308 0.265907
0.079339 0.039092 0.264513
0.079790 0.038698 0.261919
0.079456 0.037941 0.256864
0.080461 0.037838 0.256224
0.081268 0.037645 0.254982
0.082237 0.037533 0.254275
0.083102 0.037376 0.253269
0.084004 0.037241 0.252401
0.084909 0.037110 0.251563
0.085725 0.036945 0.250488
0.086541 0.036784 0.249439
0.087436 0.036661 0.248638
0.088284 0.036521 0.247723
0.089038 0.036348 0.246572
0.089904 0.036223 0.245751
0.090812 0.036118 0.245061
0.091567 0.035956 0.243974
0.092406 0.035831 0.243134
0.093202 0.035692 0.242196
0.093259 0.035277 0.239382
0.093919 0.035097 0.238158
0.094411 0.034859 0.236537
0.095425 0.034818 0.236241
0.096114 0.034660 0.235151
0.096772 0.034495 0.234006
0.097604 0.034395 0.233295
0.098274 0.034240 0.232212
0.099025 0.034117 0.231336
0.099556 0.033922 0.229963
0.100149 0.033752 0.228756
0.100755 0.033590 0.227595
0.101359 0.033430 0.226448
0.102111 0.033322 0.225642
0.102154 0.032988 0.223297
0.102625 0.032797 0.221918
0.102906 0.032550 0.220153
0.103289 0.032340 0.218631
0.103833 0.032184 0.217467
0.104398 0.032037 0.216361
0.104876 0.031867 0.215087
0.105241 0.031666 0.213600
0.105824 0.031534 0.212572
0.106271 0.031364 0.211279
0.106685 0.031188 0.209937
0.107598 0.031159 0.209581
0.108345 0.031084 0.208898
0.108987 0.030980 0.208015
-1.030697 0.295432 1.937364
-1.022012 0.295577 1.939934
-1.010784 0.294982 1.937559
-1.003016 0.295395 1.941717
-0.996159 0.296088 1.947628
-0.988960 0.296690 1.952871
-0.980412 0.296895 1.955426
-0.974824 0.298009 1.963893
-0.976087 0.301260 1.986377
-0.983669 0.306542 2.022215
-0.987856 0.310860 2.051645
-0.981614 0.311948 2.059709
-0.976641 0.313466 2.070544
-0.960109 0.311267 2.056758
-0.951854 0.311735 2.060520
-0.852715 0.282140 1.865456
-0.853693 0.285402 1.887519
-0.846592 0.286002 1.891934
-1.470742 0.502133 3.322353
-1.457385 0.502914 3.328116
-1.446701 0.504644 3.340075
-1.432673 0.505234 3.344397
-1.416169 0.504953 3.342877
-1.404471 0.506400 3.352706
-1.393273 0.508061 3.363882
-1.377576 0.508101 3.364245
-1.362514 0.508380 3.366111
-0.927434 0.350108 2.318116
-0.915825 0.349834 2.316221
-0.906157 0.350305 2.319203
-0.898224 0.351465 2.326709
-1.348072 0.533987 3.534672
-1.333622 0.534856 3.540018
-1.299404 0.527718 3.492317
-1.284602 0.528384 3.496201
-1.270227 0.529245 3.501319
-0.668174 0.282055 1.865645
-0.660027 0.282324 1.867059
-0.653118 0.283138 1.872042
-0.646871 0.284265 1.879068
-0.301451 0.158483 1.043813
-0.294905 0.157621 1.037756
-0.289319 0.157252 1.034941
-0.284800 0.157460 1.035921
-0.280328 0.157702 1.037114
-0.275433 0.157710 1.036765
-0.270462 0.157674 1.036122
-0.265635 0.157723 1.036031
-0.260447 0.157555 1.034512
-0.255162 0.157321 1.032554
-0.249505 0.156844 1.029001
-0.244059 0.156484 1.026215
-0.237358 0.155287 1.017947
-0.229962 0.153577 1.006317
-0.223095 0.152155 0.996587
-0.215324 0.150041 0.982332
-0.206875 0.147351 0.964319
-0.135214 0.105686 0.690496
-0.131055 0.104991 0.685676
-0.126317 0.103785 0.677518
-0.121221 0.102214 0.666991
-0.116237 0.100655 0.656554
-0.111940 0.099621 0.649549
-0.108223 0.099059 0.645628
-0.104710 0.098655 0.642749
-0.101529 0.098551 0.641821
-0.098231 0.098323 0.640092
-0.095365 0.098526 0.641176
-0.092426 0.098666 0.641846
-0.089409 0.098729 0.642024
-0.086450 0.098862 0.642662
-0.083545 0.099069 0.643785
-0.080463 0.099075 0.643606
-0.077542 0.099288 0.644776
-0.074653 0.099560 0.646333
-0.071607 0.099640 0.646645
-0.068644 0.099846 0.647786
-0.065592 0.099937 0.648182
-0.062375 0.099772 0.646930
-0.059252 0.099749 0.646601
-0.056191 0.099834 0.646977
-0.053025 0.099731 0.646143
-0.050463 0.100822 0.653051
-0.015996 0.042561 0.275439
-0.014286 0.041450 0.268196
-0.012940 0.041279 0.267043
-0.011610 0.041127 0.266019
-0.010345 0.041193 0.266404
-0.009029 0.041049 0.265435
-0.007718 0.040889 0.264367
-0.006414 0.040702 0.263123
-0.005121 0.040515 0.261890
-0.003816 0.040079 0.259049
-0.002553 0.039876 0.257714
-0.001306 0.039768 0.257003
-0.000066 0.039682 0.256433
0.001166 0.039490 0.255186
0.002390 0.039362 0.254352
0.003598 0.039149 0.252972
0.004783 0.038848 0.251029
0.005956 0.038600 0.249428
0.007083 0.038181 0.246725
0.008162 0.037667 0.243416
0.009254 0.037329 0.241242
0.010416 0.037320 0.241201
0.011599 0.037379 0.241602
0.012777 0.037413 0.241842
0.013984 0.037520 0.242558
0.015237 0.037724 0.243907
0.016489 0.037895 0.245040
0.017729 0.038019 0.245874
0.018939 0.038065 0.246208
0.020168 0.038143 0.246755
0.021501 0.038397 0.248437
0.022778 0.038529 0.249339
0.024124 0.038759 0.250876
0.025379 0.038828 0.251375
0.026672 0.038946 0.252187
0.027986 0.039083 0.253132
0.029277 0.039177 0.253801
0.030538 0.039226 0.254178
0.031830 0.039309 0.254777
0.033175 0.039449 0.255753
0.034465 0.039515 0.256247
0.035745 0.039566 0.256648
0.037036 0.039625 0.257105
0.038357 0.039712 0.257739
0.039901 0.040016 0.259790
0.041205 0.040068 0.260206
0.042463 0.040074 0.260324
0.043766 0.040121 0.260708
0.045131 0.040220 0.261435
0.046466 0.040288 0.261960
0.048096 0.040602 0.264086
0.049442 0.040665 0.264583
0.050814 0.040746 0.265199
0.052087 0.040746 0.265286
0.053407 0.040782 0.265606
0.054722 0.040812 0.265891
0.056084 0.040875 0.266392
0.057376 0.040885 0.266546
0.058818 0.040999 0.267384
0.060093 0.040995 0.267446
0.061374 0.040994 0.267530
0.062682 0.041012 0.267736
0.064319 0.041239 0.269309
0.066600 0.041862 0.273472
0.068458 0.042200 0.275771
0.069790 0.042208 0.275909
0.070796 0.042022 0.274781
0.072080 0.042004 0.274754
0.073085 0.041827 0.273684
0.074128 0.041678 0.272790
0.075164 0.041530 0.271904
0.075999 0.041278 0.270335
0.077133 0.041194 0.269861
0.078094 0.041022 0.268810
0.078872 0.040761 0.267174
0.079456 0.040409 0.264939
0.079795 0.039945 0.261967
0.079595 0.039231 0.257346
0.080532 0.039089 0.256478
0.081308 0.038876 0.255133
0.082239 0.038741 0.254305
0.083110 0.038583 0.253317
0.083915 0.038398 0.252155
0.084813 0.038261 0.251299
0.085595 0.038076 0.250124
0.086306 0.037865 0.248776
0.087238 0.037755 0.248090
0.087982 0.037568 0.246890
0.088731 0.037388 0.245731
0.089632 0.037276 0.245016
0.090575 0.037183 0.244426
0.091259 0.036988 0.243159
0.091076 0.036451 0.239636
0.091793 0.036284 0.238537
0.092615 0.036160 0.237727
0.093488 0.036060 0.237063
0.094222 0.035909 0.236059
0.094999 0.035778 0.235181
0.095872 0.035686 0.234552
0.096342 0.035447 0.232956
0.096978 0.035274 0.231788
0.097874 0.035199 0.231253
0.098590 0.035061 0.230302
0.099049 0.034836 0.228774
0.099765 0.034705 0.227858
0.100114 0.034450 0.226126
0.100837 0.034329 0.225258
0.101475 0.034181 0.224213
0.101968 0.033988 0.222864
0.102446 0.033794 0.221501
0.102759 0.033549 0.219806
0.103277 0.033377 0.218572
0.103814 0.033213 0.217391
0.104274 0.033029 0.216066
0.104824 0.032876 0.214942
0.105409 0.032737 0.213900
0.105869 0.032563 0.212618
0.106213 0.032356 0.211118
0.106531 0.032145 0.209586
0.107450 0.032118 0.209242
0.108025 0.031990 0.208227
0.108722 0.031899 0.207454
-1.016377 0.300423 1.909966
-1.015868 0.302972 1.927809
-1.006228 0.302820 1.928384
-0.998186 0.303151 1.931947
-0.990450 0.303581 1.936065
-0.983914 0.304391 1.942528
-0.977561 0.305273 1.949380
-0.970809 0.306047 1.955463
-0.967821 0.308033 1.969233
-0.978316 0.314391 2.010901
-0.975762 0.316639 2.026238
-0.976496 0.320009 2.048697
-0.983088 0.325386 2.083955
-0.957858 0.320232 2.051702
-0.949615 0.320710 2.055456
-0.852612 0.290913 1.865053
-0.843784 0.290894 1.865447
-0.834237 0.290625 1.864178
-1.479595 0.520924 3.342124
-1.466144 0.521730 3.347921
-1.443249 0.519155 3.331937
-1.431112 0.520437 3.340613
-1.420785 0.522412 3.353660
-1.402271 0.521389 3.347371
-1.387825 0.521871 3.350673
-1.374958 0.522966 3.357826
-1.362695 0.524318 3.366558
-1.349032 0.525158 3.371925
-0.909119 0.358112 2.299299
-0.904136 0.360433 2.314088
-0.901504 0.363759 2.335283
-1.333901 0.544866 3.497657
-1.319591 0.545748 3.502944
-1.304598 0.546365 3.506474
-1.281066 0.543377 3.486802
-1.266719 0.544258 3.491902
-0.659625 0.287137 1.841921
-0.650835 0.287082 1.841218
-0.642343 0.287159 1.841333
-0.634468 0.287517 1.843228
-0.303569 0.164578 1.051345
-0.294835 0.162503 1.037716
-0.289283 0.162140 1.035026
-0.284547 0.162231 1.035219
-0.280447 0.162693 1.037780
-0.275253 0.162527 1.036322
-0.270216 0.162449 1.035421
-0.265364 0.162481 1.035221
-0.260077 0.162243 1.033295
-0.254775 0.161986 1.031249
-0.249283 0.161596 1.028353
-0.243662 0.161106 1.024818
-0.237385 0.160153 1.018342
-0.229857 0.158299 1.006140
-0.222926 0.156786 0.996118
-0.215499 0.154851 0.983420
-0.211107 0.155060 0.984339
-0.134584 0.108478 0.687506
-0.130434 0.107756 0.682652
-0.125271 0.106140 0.672139
-0.120976 0.105192 0.665869
-0.116545 0.104073 0.658525
-0.112459 0.103208 0.652793
-0.108339 0.102261 0.646554
-0.104965 0.101985 0.644557
-0.101715 0.101815 0.643240
-0.098392 0.101559 0.641383
-0.095421 0.101664 0.641804
-0.092514 0.101844 0.642708
-0.089565 0.101989 0.643396
-0.086674 0.102214 0.644586
-0.083711 0.102367 0.645332
-0.080832 0.102639 0.646825
-0.077989 0.102980 0.648767
-0.075145 0.103348 0.650873
-0.072096 0.103454 0.651340
-0.069107 0.103661 0.652445
-0.066054 0.103785 0.653031
-0.062960 0.103856 0.653296
-0.059765 0.103758 0.652500
-0.056496 0.103514 0.650792
-0.053754 0.104265 0.655346
-0.050402 0.103850 0.652581
-0.047290 0.103910 0.652804
-0.015976 0.043839 0.275240
-0.014545 0.043522 0.273202
-0.013149 0.043260 0.271510
-0.011736 0.042876 0.269054
-0.010331 0.042430 0.266213
-0.008961 0.042019 0.263597
-0.007660 0.041853 0.262527
-0.006364 0.041654 0.261247
-0.005073 0.041401 0.259636
-0.003794 0.041102 0.257737
-0.002531 0.040790 0.255761
-0.001291 0.040595 0.254522
-0.000063 0.040272 0.252480
0.001151 0.040146 0.251684
0.002356 0.039972 0.250584
0.003558 0.039894 0.250093
0.004748 0.039757 0.249235
0.005919 0.039544 0.247902
0.007044 0.039147 0.245420
0.008158 0.038813 0.243339
0.009264 0.038531 0.241580
0.010398 0.038412 0.240849
0.011577 0.038467 0.241210
0.012756 0.038511 0.241511
0.013934 0.038546 0.241753
0.015179 0.038747 0.243039
0.016444 0.038967 0.244452
0.017704 0.039144 0.245595
0.018897 0.039162 0.245741
0.020136 0.039265 0.246430
0.021430 0.039460 0.247694
0.022707 0.039603 0.248637
0.024041 0.039828 0.250095
0.025299 0.039910 0.250657
0.026597 0.040045 0.251560
0.027926 0.040213 0.252669
0.029327 0.040466 0.254318
0.030627 0.040565 0.254999
0.031882 0.040599 0.255279
0.033165 0.040664 0.255750
0.034424 0.040696 0.256020
0.035737 0.040789 0.256673
0.037011 0.040831 0.257006
0.038294 0.040881 0.257393
0.039835 0.041194 0.259439
0.041096 0.041207 0.259596
0.042418 0.041279 0.260127
0.043778 0.041382 0.260856
0.045064 0.041412 0.261126
0.046531 0.041601 0.262400
0.047932 0.041723 0.263255
0.049214 0.041739 0.263437
0.050485 0.041744 0.263555
0.051946 0.041902 0.264638
0.053162 0.041860 0.264458
0.054482 0.041899 0.264793
0.055852 0.041974 0.265356
0.057192 0.042024 0.265758
0.058496 0.042045 0.265984
0.059858 0.042106 0.266459
0.061297 0.042219 0.267256
0.063108 0.042577 0.269613
0.065623 0.043386 0.274830
0.067346 0.043650 0.276591
0.068373 0.043462 0.275486
0.069641 0.043430 0.275375
0.070746 0.043301 0.274640
0.071778 0.043132 0.273654
0.072842 0.042987 0.272821
0.073744 0.042755 0.271426
0.074748 0.042587 0.270445
0.075979 0.042553 0.270305
0.076836 0.042314 0.268866
0.077892 0.042191 0.268154
0.077866 0.041495 0.263803
0.078113 0.040964 0.260495
0.078663 0.040606 0.258284
0.079704 0.040509 0.257728
0.080515 0.040300 0.256456
0.081321 0.040094 0.255202
0.082079 0.039871 0.253835
0.082948 0.039707 0.252844
0.083828 0.039554 0.251915
0.084697 0.039400 0.250973
0.085385 0.039167 0.249529
0.086260 0.039024 0.248658
0.087089 0.038866 0.247680
0.087801 0.038659 0.246393
0.088398 0.038409 0.244820
0.089094 0.038207 0.243551
0.090183 0.038177 0.243375
0.091018 0.038041 0.242520
0.091349 0.037701 0.240358
0.091652 0.037357 0.238170
0.092536 0.037256 0.237523
0.093339 0.037125 0.236681
0.094136 0.036995 0.235839
0.094990 0.036890 0.235152
0.095637 0.036708 0.233968
0.096231 0.036510 0.232676
0.096852 0.036327 0.231473
0.097712 0.036236 0.230854
0.098373 0.036075 0.229779
0.098914 0.035873 0.228444
0.099797 0.035798 0.227910
0.099823 0.035421 0.225445
0.100532 0.035292 0.224551
0.101131 0.035127 0.223424
0.101865 0.035012 0.222609
0.102335 0.034810 0.221230
0.102919 0.034650 0.220114
0.103206 0.034394 0.218385
0.103708 0.034214 0.217131
0.104428 0.034109 0.216345
0.104900 0.033926 0.215056
0.105524 0.033795 0.214090
0.106115 0.033656 0.213065
0.106716 0.033523 0.212069
0.106987 0.033290 0.210433
0.107535 0.033146 0.209355
0.108389 0.033099 0.208874
0.109109 0.033011 0.208134
-1.031851 0.314231 1.938534
-1.023949 0.314628 1.942655
-1.005911 0.311890 1.927314
-0.999504 0.312741 1.934057
-0.994075 0.313917 1.942732
-0.983005 0.313316 1.940335
-0.975541 0.313866 1.944975
-0.968112 0.314436 1.949674
-0.965206 0.316501 1.963574
-0.967189 0.320225 1.987710
-0.970906 0.324601 2.015848
-0.982611 0.331762 2.061235
-0.977448 0.333312 2.071726
-0.969113 0.333803 2.075559
-0.872793 0.303688 1.888964
-0.845378 0.297176 1.849042
-0.845183 0.300197 1.868368
-0.835885 0.300014 1.867705
-1.472213 0.534016 3.325204
-1.458816 0.534837 3.330972
-1.446425 0.536048 3.339083
-1.433638 0.537137 3.346352
-1.419528 0.537750 3.350567
-1.404869 0.538167 3.353476
-1.390354 0.538648 3.356709
-1.376953 0.539578 3.362659
-1.362897 0.540270 3.367047
-1.349220 0.541130 3.372413
-0.910363 0.369457 2.302475
-0.901648 0.370322 2.307770
-0.893479 0.371434 2.314565
-1.350061 0.568160 3.540167
-1.335566 0.569074 3.545514
-1.295386 0.558929 3.481903
-1.295101 0.565958 3.525224
-1.280586 0.566871 3.530377
-0.667360 0.299298 1.863667
-0.655711 0.297988 1.855172
-0.646717 0.297865 1.854045
-0.643764 0.300560 1.870426
-0.303310 0.169416 1.050651
-0.294581 0.167278 1.037029
-0.289541 0.167198 1.036163
-0.284902 0.167351 1.036734
-0.280237 0.167493 1.037234
-0.275301 0.167476 1.036739
-0.270213 0.167364 1.035653
-0.265217 0.167307 1.034898
-0.260102 0.167170 1.033651
-0.254773 0.166889 1.031505
-0.248987 0.166291 1.027403
-0.243598 0.165940 1.024827
-0.237371 0.164992 1.018563
-0.229189 0.162617 1.003500
-0.221058 0.160179 0.988056
-0.216656 0.160396 0.988995
-0.133142 0.110565 0.680363
-0.131211 0.111681 0.686953
-0.126566 0.110483 0.679316
-0.121033 0.108429 0.666421
-0.116584 0.107260 0.658980
-0.112924 0.106773 0.655728
-0.109021 0.106021 0.650862
-0.105357 0.105466 0.647208
-0.102269 0.105470 0.646992
-0.099122 0.105412 0.646394
-0.096114 0.105503 0.646715
-0.093167 0.105669 0.647503
-0.090293 0.105934 0.648892
-0.087427 0.106226 0.650461
-0.084415 0.106357 0.651037
-0.081465 0.106577 0.652173
-0.078601 0.106934 0.654141
-0.075706 0.107276 0.656026
-0.072604 0.107340 0.656219
-0.069532 0.107460 0.656753
-0.066395 0.107484 0.656711
-0.063199 0.107411 0.656081
-0.060062 0.107436 0.656053
-0.056854 0.107328 0.655226
-0.053678 0.107274 0.654731
-0.050728 0.107694 0.657136
-0.046828 0.106017 0.646756
-0.018396 0.062360 0.380052
-0.011739 0.044189 0.269267
-0.010276 0.043488 0.264953
-0.008959 0.043293 0.263730
-0.007647 0.043059 0.262270
-0.006389 0.043097 0.262471
-0.005117 0.043034 0.262063
-0.003767 0.042074 0.256196
-0.002506 0.041637 0.253515
-0.001281 0.041545 0.252941
-0.000061 0.041458 0.252395
0.001150 0.041242 0.251071
0.002355 0.041143 0.250461
0.003556 0.041066 0.249989
0.004756 0.041012 0.249660
0.005915 0.040701 0.247769
0.007011 0.040132 0.244317
0.008102 0.039702 0.241706
0.009210 0.039455 0.240216
0.010385 0.039518 0.240612
0.011564 0.039580 0.241006
0.012717 0.039550 0.240846
0.013901 0.039613 0.241256
0.015132 0.039791 0.242366
0.016440 0.040131 0.244464
0.017678 0.040265 0.245311
0.018904 0.040358 0.245915
0.020128 0.040434 0.246413
0.021405 0.040603 0.247484
0.022711 0.040806 0.248770
0.024011 0.040978 0.249859
0.025250 0.041034 0.250255
0.026526 0.041143 0.250969
0.027875 0.041351 0.252294
0.029316 0.041672 0.254306
0.030552 0.041687 0.254454
0.031745 0.041645 0.254261
0.033077 0.041781 0.255154
0.034313 0.041791 0.255281
0.035684 0.041958 0.256372
0.036944 0.041989 0.256626
0.038178 0.041988 0.256691
0.039615 0.042203 0.258080
0.041171 0.042529 0.260150
0.042522 0.042629 0.260837
0.043781 0.042635 0.260953
0.045080 0.042677 0.261290
0.046500 0.042829 0.262302
0.047744 0.042816 0.262299
0.049183 0.042973 0.263344
0.050533 0.043045 0.263874
0.051807 0.043052 0.263999
0.053171 0.043131 0.264570
0.054485 0.043167 0.264874
0.055791 0.043195 0.265132
0.057091 0.043217 0.265352
0.058375 0.043226 0.265495
0.059722 0.043280 0.265917
0.061153 0.043392 0.266689
0.063570 0.044184 0.271647
0.066239 0.045117 0.277470
0.067383 0.044994 0.276803
0.068374 0.044776 0.275547
0.069736 0.044804 0.275805
0.070863 0.044683 0.275145
0.071843 0.044475 0.273952
0.072737 0.044223 0.272477
0.073774 0.044064 0.271582
0.074686 0.043838 0.270265
0.075367 0.043486 0.268174
0.076304 0.043291 0.267044
0.077002 0.042969 0.265130
0.078049 0.042849 0.264458
0.079112 0.042742 0.263861
0.079573 0.042317 0.261304
0.079608 0.041683 0.257449
0.080479 0.041499 0.256368
0.081205 0.041247 0.254867
0.082052 0.041063 0.253779
0.082894 0.040882 0.252705
0.083703 0.040689 0.251559
0.084580 0.040534 0.250646
0.085381 0.040349 0.249533
0.086118 0.040138 0.248266
0.086887 0.039948 0.247117
0.087754 0.039807 0.246272
0.088460 0.039598 0.245000
0.089211 0.039414 0.243881
0.089996 0.039249 0.242876
0.090821 0.039106 0.242000
0.091487 0.038899 0.240722
0.092390 0.038797 0.240088
0.092927 0.038545 0.238525
0.093611 0.038359 0.237365
0.094142 0.038116 0.235847
0.094507 0.037812 0.233945
0.095654 0.037825 0.233998
0.095850 0.037465 0.231742
0.096719 0.037374 0.231141
0.097357 0.037196 0.230000
0.098050 0.037043 0.229005
0.098749 0.036896 0.228041
0.099395 0.036732 0.226968
0.099872 0.036510 0.225531
0.100411 0.036316 0.224254
0.100791 0.036068 0.222645
0.101567 0.035965 0.221926
0.102167 0.035804 0.220834
0.102606 0.035589 0.219410
0.103213 0.035437 0.218363
0.103851 0.035298 0.217392
0.104399 0.035131 0.216243
0.105108 0.035021 0.215438
0.105771 0.034899 0.214546
0.106247 0.034717 0.213281
0.106663 0.034520 0.211914
0.106997 0.034300 0.210399
0.107740 0.034214 0.209697
0.108550 0.034150 0.209127
0.109331 0.034079 0.208498
-1.021630 0.323141 1.937747
-1.006012 0.321087 1.927025
-1.000359 0.322207 1.935251
-0.991155 0.322192 1.936588
-0.980677 0.321760 1.935325
-0.970808 0.321521 1.935144
-0.964224 0.322376 1.941472
-0.958470 0.323528 1.949517
-0.993448 0.338584 2.041326
-0.985216 0.339065 2.045232
-0.993241 0.345205 2.083224
-0.991969 0.348204 2.102213
-0.987932 0.350283 2.115590
-0.872334 0.312448 1.887747
-0.845878 0.306089 1.849933
-0.838810 0.306688 1.854097
-0.838461 0.309782 1.873294
-0.817667 0.305307 1.846671
-1.475694 0.556921 3.369273
-1.446839 0.551956 3.339836
-1.435249 0.553542 3.349941
-1.427633 0.556711 3.369555
-1.413999 0.557580 3.375155
-1.396351 0.556867 3.371106
-1.370390 0.552785 3.346579
-1.353884 0.552466 3.344757
-1.340285 0.553340 3.350085
-0.910462 0.380354 2.302750
-0.898596 0.379912 2.300002
-0.889400 0.380602 2.304062
-0.882084 0.382124 2.313109
-1.355969 0.594744 3.599840
-1.341191 0.595696 3.605215
-1.294710 0.582411 3.524373
-1.280186 0.583345 3.529521
-0.670835 0.309696 1.873515
-0.655346 0.306572 1.854298
-0.643825 0.305246 1.845927
-0.643275 0.309156 1.869193
-0.303045 0.174242 1.049938
-0.294181 0.171959 1.035828
-0.288750 0.171640 1.033548
-0.284256 0.171877 1.034606
-0.279995 0.172266 1.036569
-0.274980 0.172196 1.035768
-0.270278 0.172324 1.036151
-0.265237 0.172236 1.035231
-0.259924 0.171965 1.033207
-0.254659 0.171716 1.031313
-0.249162 0.171298 1.028399
-0.243736 0.170913 1.025687
-0.236610 0.169296 1.015583
-0.228738 0.167067 1.001814
-0.219546 0.163759 0.981587
-0.208065 0.158563 0.950065
-0.203821 0.158774 0.950949
-0.135200 0.115575 0.691114
-0.129439 0.113411 0.677904
-0.126393 0.113576 0.678627
-0.122202 0.112694 0.673094
-0.117580 0.111357 0.664849
-0.113599 0.110569 0.659892
-0.109818 0.109936 0.655867
-0.106121 0.109354 0.652150
-0.102875 0.109215 0.651078
-0.099795 0.109249 0.651043
-0.096754 0.109329 0.651287
-0.093723 0.109427 0.651636
-0.090936 0.109825 0.653782
-0.088031 0.110105 0.655224
-0.085050 0.110308 0.656214
-0.082034 0.110478 0.657007
-0.079135 0.110826 0.658868
-0.076125 0.111043 0.659952
-0.073141 0.111316 0.661372
-0.070041 0.111431 0.661863
-0.067027 0.111699 0.663264
-0.063869 0.111744 0.663347
-0.060707 0.111784 0.663409
-0.057551 0.111843 0.663583
-0.054202 0.111510 0.661447
-0.051094 0.111666 0.662211
-0.047795 0.111394 0.660451
-0.045000 0.112343 0.665936
-0.020372 0.064664 0.383083
-0.018371 0.064114 0.379762
-0.016649 0.064525 0.382132
-0.014717 0.064121 0.379685
-0.012846 0.063911 0.378388
-0.010897 0.063173 0.373975
-0.008965 0.062268 0.368578
-0.003766 0.043315 0.256341
-0.002531 0.043321 0.256355
-0.001282 0.042853 0.253571
-0.000059 0.042614 0.252146
0.001150 0.042386 0.250786
0.002319 0.041666 0.246518
0.003488 0.041435 0.245150
0.004663 0.041370 0.244768
0.005820 0.041213 0.243842
0.006926 0.040802 0.241414
0.008068 0.040691 0.240766
0.009217 0.040638 0.240465
0.010383 0.040662 0.240620
0.011539 0.040647 0.240550
0.012699 0.040648 0.240575
0.013883 0.040718 0.241012
0.015076 0.040802 0.241534
0.016394 0.041189 0.243857
0.017730 0.041565 0.246116
0.018884 0.041493 0.245724
0.020124 0.041609 0.246444
0.021404 0.041790 0.247557
0.022697 0.041975 0.248696
0.023933 0.042040 0.249129
0.025213 0.042175 0.249973
0.026460 0.042243 0.250427
0.027767 0.042398 0.251398
0.029058 0.042515 0.252151
0.030403 0.042699 0.253296
0.031634 0.042715 0.253453
0.032903 0.042778 0.253891
0.034174 0.042841 0.254328
0.035642 0.043137 0.256150
0.036868 0.043130 0.256176
0.038097 0.043126 0.256222
0.039475 0.043287 0.257248
0.040888 0.043475 0.258439
0.042308 0.043658 0.259602
0.043622 0.043725 0.260077
0.044837 0.043692 0.259958
0.046137 0.043741 0.260330
0.047487 0.043833 0.260957
0.049033 0.044097 0.262612
0.050421 0.044209 0.263361
0.051865 0.044364 0.264366
0.053242 0.044455 0.264993
0.054583 0.044513 0.265421
0.055927 0.044570 0.265846
0.057138 0.044521 0.265638
0.058327 0.044457 0.265344
0.059649 0.044495 0.265655
0.061050 0.044589 0.266302
0.064227 0.045950 0.274517
0.066057 0.046312 0.276767
0.067319 0.046269 0.276597
0.068341 0.046067 0.275471
0.069532 0.045983 0.275053
0.070678 0.045873 0.274480
0.071653 0.045659 0.273279
0.072674 0.045481 0.272292
0.073487 0.045181 0.270574
0.074260 0.044866 0.268768
0.075069 0.044585 0.267154
0.075888 0.044318 0.265629
0.076711 0.044063 0.264169
0.077502 0.043797 0.262641
0.078478 0.043643 0.261782
0.079327 0.043425 0.260531
0.079733 0.042974 0.257884
0.080498 0.042727 0.256457
0.081371 0.042544 0.255412
0.082114 0.042299 0.253994
0.083014 0.042142 0.253093
0.083902 0.041982 0.252179
0.084780 0.041822 0.251257
0.085545 0.041612 0.250031
0.086185 0.041348 0.248474
0.086992 0.041169 0.247428
0.087887 0.041037 0.246655
0.088533 0.040793 0.245211
0.089247 0.040586 0.243984
0.090061 0.040430 0.243055
0.090828 0.040257 0.242020
0.091496 0.040045 0.240747
0.091913 0.039729 0.238846
0.092617 0.039544 0.237725
0.093241 0.039329 0.236420
0.094019 0.039184 0.235531
0.094662 0.038986 0.234321
0.095391 0.038828 0.233342
0.096025 0.038635 0.232151
0.096700 0.038463 0.231079
0.097327 0.038276 0.229912
0.097753 0.038015 0.228292
0.098470 0.037872 0.227376
0.099203 0.037738 0.226507
0.099682 0.037510 0.225074
0.099839 0.037169 0.222948
0.100668 0.037081 0.222343
0.101214 0.036892 0.221122
0.101760 0.036708 0.219920
0.102448 0.036577 0.219035
0.102991 0.036398 0.217854
0.103608 0.036249 0.216841
0.104309 0.036131 0.216014
0.104988 0.036008 0.215146
0.105608 0.035868 0.214165
0.106256 0.035740 0.213250
0.106596 0.035511 0.211727
0.106988 0.035304 0.210327
0.107776 0.035230 0.209711
0.108451 0.035121 0.208876
0.109100 0.035005 0.207994
-1.013739 0.329799 1.922251
-1.004341 0.329706 1.923322
-0.993453 0.329118 1.921412
-0.986571 0.329858 1.927173
-0.979037 0.330392 1.931654
-0.970894 0.330729 1.934904
-0.964439 0.331653 1.941513
-0.958183 0.332664 1.948562
-0.960957 0.336860 1.974211
-1.003145 0.355091 2.082103
-0.994743 0.355596 2.086045
-0.990810 0.357726 2.099449
-0.987410 0.360093 2.114186
-0.860688 0.317076 1.862310
-0.847875 0.315570 1.854086
-0.840934 0.316241 1.858595
-0.834208 0.317009 1.863615
-0.818792 0.314455 1.849054
-1.476648 0.573189 3.371196
-1.449263 0.568664 3.345210
-1.430415 0.567425 3.338469
-1.425753 0.571849 3.364957
-1.406083 0.570285 3.356133
-1.387933 0.569310 3.350686
-1.366185 0.566820 3.336244
-1.349236 0.566286 3.333239
-1.335671 0.567176 3.338547
-0.907922 0.390120 2.296342
-0.894167 0.388831 2.288703
-0.886465 0.390175 2.296515
-0.879969 0.392089 2.307640
-1.324440 0.597497 3.516284
-1.309993 0.598448 3.521531
-1.301334 0.602101 3.542616
-1.286724 0.603060 3.547785
-0.668951 0.317641 1.868395
-0.652237 0.313828 1.845656
-0.653028 0.318447 1.872486
-0.293874 0.176683 1.034958
-0.289448 0.176967 1.036267
-0.284301 0.176812 1.034997
-0.279808 0.177065 1.036111
-0.274961 0.177100 1.035938
-0.269939 0.177022 1.035101
-0.265084 0.177051 1.034889
-0.260051 0.176961 1.033975
-0.254616 0.176589 1.031408
-0.249018 0.176087 1.028082
-0.243521 0.175638 1.025065
-0.237488 0.174776 1.019642
-0.226061 0.169826 0.990379
-0.216809 0.166335 0.969641
-0.208599 0.163509 0.952793
-0.199227 0.159627 0.929808
-0.135055 0.118747 0.690605
-0.130447 0.117558 0.683421
-0.126724 0.117126 0.680645
-0.121256 0.115015 0.668124
-0.117858 0.114808 0.666667
-0.114290 0.114419 0.664154
-0.110575 0.113857 0.660645
-0.107137 0.113554 0.658646
-0.103834 0.113381 0.657404
-0.100729 0.113421 0.657394
-0.097685 0.113534 0.657819
-0.094624 0.113634 0.658170
-0.091522 0.113691 0.658273
-0.088671 0.114075 0.660273
-0.085727 0.114363 0.661719
-0.082575 0.114385 0.661637
-0.079708 0.114820 0.663940
-0.076701 0.115081 0.665246
-0.073617 0.115244 0.665989
-0.070640 0.115597 0.667835
-0.067564 0.115814 0.668899
-0.064516 0.116104 0.670389
-0.061389 0.116274 0.671191
-0.058337 0.116613 0.672978
-0.055052 0.116500 0.672163
-0.051859 0.116579 0.672459
-0.048543 0.116374 0.671129
-0.044941 0.115408 0.665416
-0.041764 0.115466 0.665613
-0.022176 0.066399 0.382686
-0.020344 0.066427 0.382783
-0.018354 0.065891 0.379626
-0.016626 0.066284 0.381832
-0.014696 0.065869 0.379386
-0.012828 0.065653 0.378090
-0.010881 0.064895 0.373681
-0.008952 0.063966 0.368287
-0.007356 0.065550 0.377373
-0.003729 0.065688 0.378106
-0.000062 0.046981 0.270395
0.001241 0.046982 0.270392
0.002533 0.046768 0.269155
0.003550 0.043350 0.249477
0.004731 0.043158 0.248374
0.005883 0.042829 0.246482
0.006966 0.042196 0.242848
0.007991 0.041438 0.238494
0.009150 0.041485 0.238772
0.010316 0.041544 0.239129
0.011491 0.041628 0.239628
0.012628 0.041566 0.239293
0.013824 0.041696 0.240062
0.015020 0.041806 0.240720
0.016605 0.042903 0.247064
0.017814 0.042947 0.247351
0.018942 0.042803 0.246557
0.020203 0.042959 0.247490
0.021422 0.043014 0.247844
0.022624 0.043029 0.247976
0.023931 0.043233 0.249195
