ply
format ascii 1.0
element vertex 1744
property float x
property float y
property float z
end_header
-0.684922 0.460684 1.914369
-0.665314 0.453454 1.884290
-0.657578 0.454229 1.887445
-0.651014 0.455845 1.894068
-0.640704 0.454848 1.889799
-0.632716 0.455494 1.892333
-0.299169 0.246590 1.023124
-0.295284 0.247373 1.026167
-0.290535 0.247446 1.026259
-0.286569 0.248199 1.029161
-0.280891 0.247470 1.025911
-0.276278 0.247670 1.026505
-0.271612 0.247831 1.026926
-0.266670 0.247739 1.026296
-0.261988 0.247891 1.026670
-0.257245 0.247990 1.026818
-0.249798 0.245436 1.015979
-0.241313 0.241742 1.000424
-0.230679 0.235705 0.975176
-0.222738 0.232230 0.960538
-0.218465 0.232515 0.961450
-0.206525 0.224477 0.927957
-0.199499 0.221548 0.915591
-0.192924 0.219003 0.904814
-0.145936 0.177481 0.732638
-0.142273 0.177240 0.731434
-0.140248 0.179080 0.738815
-0.136497 0.178755 0.737262
-0.133252 0.179092 0.738441
-0.131148 0.181022 0.746186
-0.126369 0.179266 0.738736
-0.122878 0.179287 0.738617
-0.119172 0.178988 0.737179
-0.115406 0.178577 0.735282
-0.111924 0.178595 0.735153
-0.108283 0.178352 0.733957
-0.104884 0.178506 0.734392
-0.101688 0.179027 0.736342
-0.098539 0.179672 0.738803
-0.095006 0.179636 0.738468
-0.091505 0.179664 0.738400
-0.087729 0.179130 0.736025
-0.084195 0.179070 0.735602
-0.080262 0.178116 0.731516
-0.076341 0.177106 0.727200
-0.072596 0.176426 0.724250
-0.067554 0.172370 0.707448
-0.063979 0.171829 0.705079
-0.060326 0.171006 0.701564
-0.056314 0.169010 0.693241
-0.053034 0.169099 0.693477
-0.024887 0.090667 0.371697
-0.023146 0.090800 0.372183
-0.021437 0.091090 0.373315
-0.019695 0.091281 0.374040
-0.017997 0.091735 0.375852
-0.016295 0.092266 0.377978
-0.014606 0.093012 0.380988
-0.012885 0.093746 0.383953
-0.011147 0.094567 0.387274
-0.009338 0.095002 0.389020
-0.007524 0.095590 0.391396
-0.005675 0.095978 0.392954
-0.003812 0.096399 0.394652
-0.001931 0.096730 0.395986
-0.000036 0.096781 0.396176
0.001868 0.097247 0.398065
0.003764 0.097030 0.397168
0.005660 0.096940 0.396793
0.007547 0.096794 0.396190
0.009391 0.096264 0.394019
0.011239 0.095941 0.392700
0.013112 0.095891 0.392504
0.014948 0.095618 0.391396
0.016738 0.095147 0.389480
0.018259 0.093389 0.382303
0.019984 0.092903 0.380332
0.021696 0.092440 0.378459
0.023500 0.092409 0.378359
0.021211 0.077440 0.317095
0.022701 0.077348 0.316747
0.024148 0.077129 0.315878
0.025629 0.077034 0.315523
0.027103 0.076934 0.315148
0.028529 0.076713 0.314279
0.029940 0.076477 0.313347
0.031366 0.076298 0.312655
0.032728 0.075987 0.311424
0.034146 0.075829 0.310822
0.035545 0.075642 0.310101
0.036875 0.075330 0.308870
0.038184 0.074999 0.307564
0.039490 0.074689 0.306342
0.040818 0.074439 0.305367
0.042133 0.074184 0.304378
0.043348 0.073776 0.302759
0.044557 0.073385 0.301208
0.045822 0.073107 0.300124
0.046918 0.072583 0.298030
0.047988 0.072053 0.295910
0.049182 0.071732 0.294651
0.050284 0.071300 0.292934
0.051394 0.070902 0.291359
0.052231 0.070157 0.288358
0.053410 0.069899 0.287352
0.054575 0.069635 0.286330
0.055631 0.069250 0.284802
0.056648 0.068833 0.283148
0.057739 0.068526 0.281942
0.058915 0.068330 0.281193
0.059692 0.067690 0.278615
0.060757 0.067397 0.277467
0.061954 0.067261 0.276961
0.062862 0.066823 0.275210
0.063891 0.066529 0.274054
0.064796 0.066119 0.272418
0.065923 0.065949 0.271766
0.066835 0.065573 0.270267
0.067781 0.065244 0.268958
0.068838 0.065033 0.268134
0.069752 0.064696 0.266787
0.070573 0.064287 0.265143
0.071156 0.063678 0.262674
0.072046 0.063361 0.261403
0.073133 0.063225 0.260879
0.073998 0.062905 0.259590
0.074797 0.062540 0.258113
0.075663 0.062241 0.256911
0.076540 0.061962 0.255783
0.077450 0.061717 0.254793
0.078421 0.061527 0.254030
0.079285 0.061261 0.252947
0.080215 0.061052 0.252101
0.081116 0.060829 0.251188
0.082050 0.060635 0.250397
0.082563 0.060141 0.248359
0.083463 0.059939 0.247523
0.084277 0.059681 0.246452
0.085105 0.059440 0.245449
0.085891 0.059176 0.244349
0.086180 0.058582 0.241880
0.087084 0.058416 0.241173
0.088062 0.058303 0.240682
0.088751 0.058004 0.239420
0.089573 0.057798 0.238538
0.090313 0.057545 0.237455
0.091266 0.057433 0.236946
0.092218 0.057323 0.236443
0.092914 0.057058 0.235295
0.093613 0.056801 0.234176
0.094454 0.056635 0.233427
0.095197 0.056415 0.232450
0.095945 0.056203 0.231499
0.096779 0.056045 0.230768
0.097474 0.055812 0.229718
0.098266 0.055638 0.228907
0.099049 0.055464 0.228087
0.099829 0.055291 0.227268
0.100606 0.055120 0.226449
0.101240 0.054876 0.225323
0.101858 0.054628 0.224174
0.102328 0.054306 0.222717
0.102989 0.054091 0.221692
0.103623 0.053867 0.220620
0.104116 0.053575 0.219262
0.104873 0.053423 0.218471
0.105511 0.053214 0.217438
0.105942 0.052905 0.215991
0.106396 0.052614 0.214608
0.107149 0.052475 0.213837
0.107787 0.052283 0.212838
0.108386 0.052076 0.211771
0.109149 0.051950 0.211025
0.109858 0.051801 0.210177
0.110842 0.051784 0.209847
-1.021104 0.475519 1.904620
-1.004300 0.471897 1.892312
-0.992377 0.470524 1.888899
-0.985061 0.471329 1.894132
-0.976439 0.471521 1.896804
-0.967657 0.471637 1.899085
-0.958581 0.471612 1.900706
-0.950405 0.472033 1.904043
-0.943260 0.472979 1.909420
-1.012158 0.512444 2.070340
-1.019001 0.520956 2.106272
-1.008924 0.520901 2.107506
-0.996008 0.519365 2.102663
-0.987307 0.520018 2.106601
-0.854655 0.454735 1.843204
-0.844939 0.454191 1.842000
-0.835773 0.453935 1.841898
-0.826467 0.453597 1.841401
-0.812046 0.450415 1.829294
-1.288846 0.722553 2.935755
-1.276719 0.723521 2.940810
-1.263941 0.724137 2.944352
-1.247638 0.722726 2.939567
-1.231777 0.721541 2.935622
-0.922165 0.558990 2.275949
-0.901180 0.552686 2.250721
-0.891315 0.553133 2.252930
-0.883559 0.554916 2.260529
-0.871929 0.554280 2.258225
-0.716645 0.485103 1.977046
-0.684259 0.469265 1.912521
-0.666191 0.462957 1.886798
-0.655180 0.461449 1.880610
-0.646306 0.461426 1.880441
-0.639333 0.462777 1.885846
-0.625032 0.458789 1.869465
-0.302413 0.254155 1.034382
-0.293578 0.250769 1.020409
-0.289061 0.251021 1.021234
-0.285605 0.252217 1.025891
-0.280041 0.251562 1.023007
-0.275922 0.252205 1.025397
-0.270990 0.252115 1.024795
-0.266299 0.252249 1.025101
-0.261578 0.252360 1.025307
-0.257328 0.252938 1.027400
-0.250431 0.250887 1.018813
-0.242195 0.247387 1.004346
-0.229345 0.238941 0.969803
-0.222676 0.236723 0.960545
-0.215253 0.233592 0.947589
-0.205763 0.228039 0.924812
-0.199500 0.225899 0.915883
-0.195396 0.226163 0.916702
-0.145198 0.180050 0.729184
-0.143310 0.182039 0.737033
-0.141259 0.183914 0.744414
-0.138597 0.185069 0.748881
-0.135337 0.185467 0.750281
-0.132382 0.186315 0.753504
-0.128865 0.186398 0.753629
-0.124608 0.185383 0.749323
-0.119598 0.183158 0.740124
-0.115778 0.182673 0.737967
-0.112406 0.182889 0.738642
-0.108692 0.182544 0.737053
-0.105600 0.183256 0.739736
-0.102381 0.183789 0.741697
-0.098648 0.183406 0.739963
-0.095442 0.184009 0.742210
-0.091965 0.184118 0.742471
-0.088059 0.183341 0.739159
-0.084325 0.182873 0.737101
-0.080364 0.181851 0.732815
-0.076523 0.181021 0.729309
-0.072706 0.180171 0.725728
-0.068708 0.178767 0.719920
-0.063853 0.174867 0.704071
-0.060075 0.173650 0.699033
-0.055368 0.169446 0.681984
-0.025017 0.092940 0.373865
-0.023356 0.093436 0.375802
-0.021588 0.093545 0.376184
-0.019793 0.093550 0.376151
-0.018110 0.094140 0.378472
-0.016416 0.094795 0.381056
-0.014638 0.095073 0.382129
-0.012898 0.095707 0.384636
-0.011167 0.096628 0.388295
-0.009366 0.097198 0.390552
-0.007525 0.097525 0.391832
-0.005669 0.097830 0.393031
-0.003806 0.098244 0.394666
-0.001931 0.098830 0.396997
-0.000032 0.099137 0.398213
0.001861 0.098556 0.395866
0.003782 0.099288 0.398793
0.005682 0.099156 0.398256
0.007509 0.098141 0.394175
0.009421 0.098417 0.395283
0.011259 0.097957 0.393436
0.013109 0.097714 0.392466
0.014997 0.097784 0.392759
0.016799 0.097339 0.390984
0.018583 0.096887 0.389182
0.020466 0.096986 0.389600
0.022090 0.095946 0.385446
0.023926 0.095914 0.385344
0.021229 0.079013 0.317465
0.022767 0.079081 0.317766
0.024274 0.079038 0.317620
0.025725 0.078827 0.316805
0.027190 0.078682 0.316253
0.028585 0.078360 0.314998
0.029951 0.077995 0.313566
0.031354 0.077755 0.312639
0.032745 0.077509 0.311693
0.034159 0.077337 0.311044
0.035539 0.077104 0.310153
0.036919 0.076889 0.309335
0.038234 0.076562 0.308065
0.039570 0.076299 0.307058
0.040814 0.075884 0.305440
0.042180 0.075716 0.304814
0.043410 0.075323 0.303286
0.044693 0.075044 0.302214
0.045928 0.074706 0.300909
0.047043 0.074197 0.298915
0.048182 0.073756 0.297193
0.049191 0.073147 0.294795
0.050417 0.072884 0.293795
0.051523 0.072467 0.292170
0.052576 0.071999 0.290340
0.053637 0.071566 0.288651
0.054716 0.071178 0.287143
0.055998 0.071067 0.286750
0.057023 0.070642 0.285094
0.057982 0.070158 0.283196
0.059077 0.069857 0.282033
0.060214 0.069616 0.281116
0.061006 0.068996 0.278669
0.061992 0.068617 0.277190
0.063045 0.068327 0.276068
0.063994 0.067937 0.274546
0.064901 0.067521 0.272913
0.066015 0.067331 0.272193
0.066842 0.066861 0.270340
0.067779 0.066517 0.268995
0.068752 0.066220 0.267838
0.069857 0.066060 0.267229
0.070752 0.065710 0.265853
0.071427 0.065171 0.263710
0.072123 0.064668 0.261713
0.073240 0.064555 0.261289
0.074143 0.064261 0.260127
0.074988 0.063925 0.258797
0.075630 0.063431 0.256822
0.076339 0.063007 0.255130
0.077464 0.062935 0.254857
0.078476 0.062775 0.254225
0.079253 0.062433 0.252856
0.080207 0.062240 0.252084
0.081226 0.062102 0.251532
0.082060 0.061829 0.250430
0.082856 0.061534 0.249239
0.083629 0.061232 0.248010
0.084464 0.060983 0.246996
0.085453 0.060850 0.246445
0.086047 0.060443 0.244783
0.086733 0.060110 0.243417
0.087424 0.059790 0.242098
0.088237 0.059561 0.241143
0.088847 0.059202 0.239656
0.089717 0.059023 0.238894
0.090429 0.058746 0.237731
0.091320 0.058591 0.237056
0.092284 0.058485 0.236578
0.093012 0.058235 0.235507
0.093815 0.058037 0.234643
0.094622 0.057846 0.233801
0.095440 0.057665 0.232999
0.096237 0.057477 0.232156
0.097001 0.057273 0.231246
0.097853 0.057125 0.230557
0.098600 0.056919 0.229627
0.099345 0.056718 0.228708
0.100072 0.056510 0.227756
0.100785 0.056298 0.226786
0.101546 0.056118 0.225933
0.101896 0.055717 0.224184
0.102259 0.055331 0.222490
0.103049 0.055182 0.221742
0.103671 0.054946 0.220638
0.104222 0.054679 0.219399
0.104948 0.054507 0.218536
0.105716 0.054360 0.217766
0.106214 0.054079 0.216449
0.106860 0.053877 0.215443
0.107621 0.053738 0.214674
0.108077 0.053449 0.213304
0.108611 0.053205 0.212098
0.109309 0.053044 0.211218
0.109964 0.052866 0.210259
0.110873 0.052811 0.209781
-1.022543 0.485349 1.906226
-1.006354 0.481958 1.895152
-0.992538 0.479653 1.888217
-0.983826 0.479794 1.890808
-0.976317 0.480531 1.895652
-0.967977 0.480869 1.898835
-0.958227 0.480506 1.899161
-0.949885 0.480850 1.902192
-0.945647 0.483298 1.913474
-1.026385 0.529643 2.098624
-1.019631 0.531306 2.106791
-1.007221 0.530025 2.103203
-0.997147 0.529961 2.104357
-0.988422 0.530620 2.108304
-0.853664 0.462945 1.840504
-0.842310 0.461487 1.835736
-0.833216 0.461251 1.835759
-0.826768 0.462491 1.841596
-0.809283 0.457517 1.822626
-1.305787 0.746133 2.973664
-1.293484 0.747122 2.978788
-1.267015 0.739862 2.950923
-1.268791 0.749117 2.988849
-1.243500 0.742420 2.963052
-0.910998 0.562845 2.248096
-0.899670 0.562375 2.246686
-0.890535 0.563281 2.250723
-0.878619 0.562429 2.247684
-0.869988 0.563685 2.253018
-0.860592 0.564470 2.256427
-0.689969 0.476030 1.903420
-0.681976 0.476698 1.906131
-0.662974 0.469586 1.877702
-0.653994 0.469476 1.877240
-0.645093 0.469421 1.876967
-0.638909 0.471369 1.884675
-0.631276 0.472288 1.888240
-0.302065 0.258747 1.033345
-0.289152 0.251741 1.005188
-0.286337 0.253440 1.011783
-0.283376 0.255065 1.018071
-0.279136 0.255575 1.019899
-0.274783 0.255998 1.021370
-0.270281 0.256295 1.022332
-0.266072 0.256886 1.024458
-0.260633 0.256288 1.021840
-0.256251 0.256728 1.023351
-0.250149 0.255428 1.017921
-0.243084 0.253076 1.008298
-0.233220 0.247657 0.986459
-0.228840 0.247958 0.987409
-0.220290 0.243662 0.970048
-0.208993 0.236078 0.939610
-0.199582 0.230343 0.916542
-0.192414 0.227000 0.902999
-0.176114 0.222593 0.884749
-0.168517 0.218180 0.866973
-0.164318 0.218057 0.866248
-0.159451 0.217017 0.861883
-0.128678 0.189713 0.752833
-0.124184 0.188312 0.747073
-0.119778 0.186967 0.741540
-0.115888 0.186371 0.738980
-0.112459 0.186502 0.739308
-0.108954 0.186512 0.739157
-0.105377 0.186395 0.738507
-0.102206 0.187013 0.740767
-0.098661 0.186968 0.740405
-0.095149 0.186984 0.740288
-0.091751 0.187233 0.741099
-0.088069 0.186900 0.739608
-0.084379 0.186521 0.737941
-0.080513 0.185705 0.734546
-0.076692 0.184924 0.731298
-0.072681 0.183588 0.725860
-0.068452 0.181541 0.717621
-0.063426 0.177056 0.699753
-0.059119 0.174190 0.688293
-0.055869 0.174285 0.688540
-0.024894 0.094277 0.372265
-0.023356 0.095245 0.376027
-0.021660 0.095680 0.377689
-0.019804 0.095420 0.376612
-0.018154 0.096201 0.379642
-0.016512 0.097203 0.383551
-0.014770 0.097796 0.385844
-0.012946 0.097939 0.386369
-0.011194 0.098757 0.389557
-0.009391 0.099369 0.391934
-0.007560 0.099917 0.394063
-0.005694 0.100224 0.395244
-0.003836 0.101031 0.398404
-0.001946 0.101755 0.401235
-0.000028 0.102112 0.402623
0.001903 0.102506 0.404163
0.003826 0.102259 0.403176
0.005732 0.101866 0.401618
0.007619 0.101431 0.399900
0.009499 0.101091 0.398556
0.011334 0.100461 0.396075
0.013241 0.100566 0.396494
0.015052 0.099998 0.394265
0.016935 0.099988 0.394237
0.018719 0.099450 0.392132
0.020249 0.097779 0.385563
0.022200 0.098255 0.387460
0.024045 0.098223 0.387358
0.021248 0.080591 0.317846
0.022705 0.080366 0.316987
0.024273 0.080541 0.317704
0.025735 0.080362 0.317029
0.027109 0.079945 0.315413
0.028558 0.079781 0.314802
0.029939 0.079452 0.313539
0.031318 0.079148 0.312377
0.032729 0.078950 0.311636
0.034074 0.078617 0.310365
0.035495 0.078480 0.309867
0.036891 0.078301 0.309204
0.038206 0.077968 0.307936
0.039594 0.077805 0.307339
0.040906 0.077509 0.306220
0.042229 0.077253 0.305259
0.043569 0.077045 0.304487
0.044877 0.076795 0.303552
0.046041 0.076323 0.301739
0.047032 0.075599 0.298931
0.048183 0.075169 0.297284
0.049347 0.074783 0.295811
0.050390 0.074239 0.293714
0.051718 0.074134 0.293354
0.052775 0.073656 0.291517
0.053575 0.072853 0.288394
0.054596 0.072383 0.286587
0.055754 0.072112 0.285572
0.056931 0.071880 0.284706
0.058011 0.071538 0.283404
0.059083 0.071202 0.282127
0.060138 0.070860 0.280823
0.061143 0.070476 0.279352
0.062081 0.070032 0.277646
0.063024 0.069613 0.276033
0.064036 0.069285 0.274782
0.064961 0.068878 0.273214
0.066008 0.068614 0.272213
0.066977 0.068280 0.270931
0.067936 0.067949 0.269663
0.068941 0.067675 0.268615
0.069857 0.067326 0.267269
0.070572 0.066798 0.265209
0.071408 0.066401 0.263670
0.072247 0.066022 0.262195
0.073240 0.065793 0.261318
0.074181 0.065525 0.260282
0.075023 0.065181 0.258940
0.075650 0.064664 0.256910
0.076273 0.064159 0.254925
0.077367 0.064061 0.254551
0.078376 0.063896 0.253910
0.079316 0.063681 0.253066
0.080212 0.063438 0.252108
0.081114 0.063206 0.251190
0.081926 0.062911 0.250023
0.082787 0.062663 0.249031
0.083682 0.062446 0.248164
0.084470 0.062156 0.247004
0.085320 0.061921 0.246053
0.085974 0.061550 0.244563
0.086719 0.061254 0.243365
0.087418 0.060933 0.242063
0.088141 0.060637 0.240858
0.088865 0.060350 0.239679
0.089670 0.060124 0.238744
0.090561 0.059960 0.238048
0.091487 0.059824 0.237456
0.092348 0.059648 0.236705
0.093204 0.059474 0.235954
0.094046 0.059295 0.235177
0.094843 0.059093 0.234301
0.095603 0.058871 0.233347
0.096266 0.058596 0.232173
0.097029 0.058388 0.231258
0.097863 0.058226 0.230521
0.098595 0.058008 0.229555
0.099238 0.057743 0.228397
0.100084 0.057601 0.227717
0.100959 0.057477 0.227106
0.101479 0.057157 0.225710
0.102297 0.057009 0.224989
0.102428 0.056486 0.222778
0.103009 0.056219 0.221572
0.103702 0.056017 0.220617
0.104259 0.055748 0.219386
0.104995 0.055578 0.218540
0.105676 0.055382 0.217587
0.106356 0.055190 0.216637
0.106896 0.054930 0.215410
0.107771 0.054845 0.214862
0.108250 0.054562 0.213530
0.108633 0.054236 0.212023
0.109495 0.054154 0.211455
0.110064 0.053929 0.210324
0.110839 0.053809 0.209588
-1.019640 0.493107 1.899700
-1.007987 0.491852 1.897155
-0.992460 0.488668 1.887045
-0.983731 0.488803 1.889638
-0.975045 0.488963 1.892233
-0.967122 0.489512 1.896244
-0.957872 0.489394 1.897581
-0.949376 0.489663 1.900331
-0.942024 0.490533 1.905334
-1.022040 0.537356 2.088893
-1.016232 0.539529 2.098953
-1.007306 0.540075 2.102602
-0.992869 0.537647 2.094588
-0.984167 0.538308 2.098521
-0.854954 0.472395 1.842695
-0.846337 0.472446 1.843952
-0.834163 0.470492 1.837318
-0.827690 0.471746 1.843148
-0.811859 0.467636 1.827958
-1.298719 0.764305 2.990167
-1.286325 0.765315 2.995262
-1.274543 0.766717 3.001807
-1.255812 0.763923 2.991841
-0.910218 0.572977 2.245851
-0.897693 0.571730 2.241460
-0.888363 0.572513 2.244975
-0.877600 0.572380 2.244847
-0.869040 0.573699 2.250363
-0.859291 0.574255 2.252843
-0.688493 0.483979 1.899298
-0.677230 0.482316 1.892839
-0.663332 0.478708 1.878712
-0.654996 0.479071 1.880136
-0.647210 0.479852 1.883168
-0.638430 0.479907 1.883326
-0.628680 0.479225 1.880560
-0.291697 0.258753 1.014194
-0.287302 0.259096 1.015360
-0.282874 0.259422 1.016448
-0.278431 0.259744 1.017515
-0.274073 0.260158 1.018931
-0.270237 0.261093 1.022378
-0.265134 0.260814 1.021067
-0.260191 0.260686 1.020340
-0.255838 0.261156 1.021944
-0.249890 0.259984 1.017120
-0.242622 0.257366 1.006639
-0.233510 0.252648 0.987948
-0.226868 0.250466 0.979174
-0.219997 0.247934 0.969031
-0.211162 0.243035 0.949644
-0.203454 0.239249 0.934610
-0.195734 0.235280 0.918868
-0.191606 0.235547 0.919669
-0.178889 0.225021 0.878344
-0.175867 0.226482 0.883811
-0.168278 0.221989 0.866051
-0.164084 0.221862 0.865326
-0.159222 0.220802 0.860964
-0.156691 0.223004 0.869321
-0.124000 0.191589 0.746270
-0.119869 0.190648 0.742411
-0.116127 0.190288 0.740821
-0.112482 0.190069 0.739779
-0.108957 0.190045 0.739498
-0.105885 0.190837 0.742394
-0.102304 0.190735 0.741816
-0.098561 0.190313 0.739995
-0.095458 0.191140 0.743038
-0.092000 0.191295 0.743467
-0.088194 0.190709 0.741020
-0.084488 0.190301 0.739268
-0.080710 0.189687 0.736721
-0.076361 0.187615 0.728520
-0.072032 0.185397 0.719757
-0.067567 0.182592 0.708727
-0.062735 0.178446 0.692499
-0.058728 0.176320 0.684119
-0.024942 0.096253 0.373205
-0.023298 0.096817 0.375335
-0.021752 0.097914 0.379531
-0.019848 0.097456 0.377705
-0.018170 0.098122 0.380236
-0.016590 0.099528 0.385638
-0.014830 0.100074 0.387707
-0.013020 0.100386 0.388877
-0.011260 0.101252 0.392193
-0.009466 0.102097 0.395429
-0.007621 0.102681 0.397660
-0.005753 0.103241 0.399800
-0.003862 0.103736 0.401690
-0.001963 0.104788 0.405741
-0.000024 0.105282 0.407635
0.001921 0.105167 0.407173
0.003863 0.105079 0.406821
0.005767 0.104353 0.404001
0.007642 0.103596 0.401066
0.009529 0.103273 0.399816
0.011390 0.102821 0.398068
0.013332 0.103126 0.399254
0.015200 0.102853 0.398204
0.016950 0.101935 0.394661
0.019041 0.103041 0.398960
0.020866 0.102640 0.397424
0.022759 0.102609 0.397327
0.021385 0.082624 0.319980
0.022743 0.082007 0.317618
0.024328 0.082233 0.318519
0.025860 0.082264 0.318669
0.027216 0.081761 0.316750
0.028628 0.081474 0.315673
0.030044 0.081224 0.314738
0.031415 0.080880 0.313443
0.032828 0.080674 0.312682
0.034199 0.080385 0.311604
0.035585 0.080153 0.310746
0.036956 0.079909 0.309841
0.038283 0.079591 0.308656
0.039629 0.079335 0.307707
0.040926 0.079002 0.306465
0.042247 0.078737 0.305486
0.043617 0.078577 0.304913
0.044866 0.078217 0.303566
0.046077 0.077816 0.302061
0.046976 0.076927 0.298664
0.048231 0.076657 0.297665
0.049429 0.076313 0.296382
0.050599 0.075947 0.295013
0.051828 0.075687 0.294058
0.052968 0.075314 0.292662
0.054080 0.074921 0.291188
0.054496 0.073608 0.286135
0.055633 0.073308 0.285023
0.056883 0.073168 0.284530
0.057941 0.072794 0.283125
0.059087 0.072544 0.282205
0.060221 0.072291 0.281273
0.061348 0.072041 0.280347
0.062255 0.071549 0.278480
0.063283 0.071213 0.277220
0.064074 0.070629 0.274994
0.065071 0.070292 0.273725
0.066124 0.070027 0.272738
0.067100 0.069691 0.271472
0.068044 0.069337 0.270131
0.069077 0.069083 0.269183
0.070041 0.068772 0.268007
0.070697 0.068175 0.265714
0.071452 0.067692 0.263864
0.072380 0.067387 0.262704
0.073332 0.067114 0.261669
0.074443 0.066993 0.261225
0.075259 0.066616 0.259774
0.075968 0.066157 0.258006
0.076426 0.065498 0.255452
0.077261 0.065177 0.254215
0.078490 0.065193 0.254289
0.079415 0.064960 0.253391
0.080351 0.064742 0.252547
0.081240 0.064495 0.251581
0.082116 0.064243 0.250600
0.082746 0.063809 0.248902
0.083601 0.063559 0.247917
0.084402 0.063275 0.246796
0.085208 0.063002 0.245715
0.086004 0.062730 0.244631
0.086716 0.062404 0.243335
0.087604 0.062212 0.242558
0.088317 0.061902 0.241316
0.089114 0.061657 0.240324
0.089860 0.061385 0.239219
0.090694 0.061178 0.238365
0.091526 0.060976 0.237523
0.092364 0.060782 0.236708
0.093266 0.060634 0.236068
0.094060 0.060420 0.235168
0.094881 0.060228 0.234346
0.095663 0.060017 0.233443
0.096340 0.059745 0.232298
0.097035 0.059490 0.231214
0.097779 0.059271 0.230262
0.098686 0.059155 0.229703
0.099294 0.058863 0.228458
0.100017 0.058645 0.227493
0.100751 0.058439 0.226565
0.101562 0.058280 0.225816
0.102207 0.058031 0.224710
0.102654 0.057676 0.223184
0.103231 0.057400 0.221960
0.103951 0.057209 0.221057
0.104702 0.057038 0.220222
0.105314 0.056796 0.219106
0.106055 0.056627 0.218264
0.106707 0.056415 0.217246
0.107226 0.056137 0.215965
0.107872 0.055930 0.214950
0.108550 0.055743 0.214006
0.109068 0.055479 0.212751
0.109810 0.055332 0.211939
0.110369 0.055096 0.210776
0.111189 0.054994 0.210113
-1.022788 0.503793 1.904404
-1.004059 0.499012 1.888655
-0.992349 0.497665 1.885769
-0.982777 0.497376 1.886783
-0.974898 0.497947 1.890961
-0.967204 0.498624 1.895455
-0.957329 0.498178 1.895594
-0.949270 0.498679 1.899244
-0.945263 0.501339 1.911039
-1.023023 0.547837 2.090017
-1.014293 0.548476 2.094100
-1.003321 0.547904 2.093474
-0.994870 0.548712 2.098035
-0.986137 0.549378 2.101981
-0.856906 0.482246 1.846284
-0.840451 0.477852 1.830544
-0.830645 0.477187 1.829016
-0.823665 0.478149 1.833661
-0.810258 0.475361 1.823861
-0.802686 0.475973 1.827046
-1.246340 0.755263 2.901502
-1.247875 0.764582 2.938381
-1.229467 0.761753 2.928504
-0.895274 0.580754 2.235109
-0.885189 0.581037 2.236673
-0.876712 0.582395 2.242325
-0.867393 0.583221 2.245877
-0.858385 0.584279 2.250276
-0.686865 0.491781 1.894742
-0.675197 0.489779 1.887115
-0.663844 0.487954 1.880141
-0.656204 0.488848 1.883605
-0.647971 0.489318 1.885409
-0.638781 0.489069 1.884409
-0.629089 0.488423 1.881854
-0.286957 0.263581 1.014303
-0.277008 0.258751 0.995539
-0.278090 0.264235 1.016451
-0.270974 0.261985 1.007606
-0.268788 0.264507 1.017101
-0.264293 0.264806 1.018043
-0.259582 0.264898 1.018178
-0.255214 0.265348 1.019688
-0.249181 0.264053 1.014482
-0.242721 0.262245 1.007305
-0.234629 0.258566 0.992944
-0.226530 0.254730 0.977980
-0.219724 0.252218 0.968102
-0.212549 0.249168 0.956159
-0.204530 0.244974 0.939834
-0.196974 0.241162 0.924976
-0.189286 0.237010 0.908822
-0.181870 0.233015 0.893277
-0.175949 0.230791 0.884526
-0.170824 0.229528 0.879456
-0.166033 0.228662 0.875913
-0.161210 0.227707 0.872032
-0.156462 0.226811 0.868377
-0.152501 0.227038 0.869022
-0.120327 0.194930 0.745556
-0.116222 0.193980 0.741736
-0.112722 0.194011 0.741671
-0.109460 0.194469 0.743240
-0.105923 0.194452 0.742995
-0.102212 0.194103 0.741485
-0.098700 0.194123 0.741384
-0.095303 0.194377 0.742183
-0.091659 0.194129 0.741067
-0.087895 0.193596 0.738867
-0.084238 0.193266 0.737447
-0.080087 0.191723 0.731404
-0.075864 0.189861 0.724149
-0.071521 0.187508 0.715030
-0.067117 0.184752 0.704384
-0.062505 0.181103 0.690339
-0.059028 0.180521 0.687994
-0.024911 0.097925 0.372957
-0.023377 0.098956 0.376829
-0.021766 0.099808 0.380017
-0.019900 0.099535 0.378927
-0.018278 0.100554 0.382756
-0.016625 0.101610 0.386731
-0.014866 0.102198 0.388923
-0.013142 0.103232 0.392818
-0.011329 0.103793 0.394917
-0.009513 0.104555 0.397779
-0.007691 0.105607 0.401749
-0.005828 0.106605 0.405516
-0.003923 0.107461 0.408749
-0.001971 0.107420 0.408568
-0.000020 0.108065 0.411002
0.001956 0.108791 0.413748
0.003891 0.107651 0.409402
0.005821 0.107191 0.407643
0.007729 0.106653 0.405590
0.009577 0.105666 0.401836
0.011537 0.106038 0.403252
0.013587 0.107012 0.406962
0.015250 0.105075 0.399604
0.017416 0.106646 0.405588
0.020203 0.111326 0.423402
0.022459 0.112496 0.427870
0.021309 0.083839 0.318933
0.022739 0.083496 0.317649
0.024265 0.083526 0.317791
0.025780 0.083516 0.317781
0.027235 0.083323 0.317077
0.028700 0.083178 0.316558
0.030114 0.082908 0.315562
0.031533 0.082677 0.314718
0.032932 0.082417 0.313766
0.034271 0.082036 0.312355
0.035594 0.081648 0.310918
0.036977 0.081426 0.310113
0.038310 0.081112 0.308962
0.039643 0.080824 0.307910
0.040998 0.080599 0.307097
0.042299 0.080284 0.305947
0.043666 0.080114 0.305347
0.044999 0.079895 0.304557
0.046249 0.079546 0.303277
0.047504 0.079225 0.302104
0.048531 0.078555 0.299601
0.049716 0.078171 0.298188
0.050949 0.077883 0.297138
0.052002 0.077341 0.295123
0.053169 0.076993 0.293844
0.053606 0.075634 0.288708
0.054581 0.075082 0.286651
0.055810 0.074898 0.285998
0.056961 0.074619 0.284985
0.058141 0.074393 0.284169
0.059358 0.074221 0.283561
0.060467 0.073926 0.282483
0.061568 0.073633 0.281411
0.062570 0.073238 0.279946
0.063424 0.072688 0.277891
0.064330 0.072220 0.276143
0.065134 0.071657 0.274036
0.066002 0.071187 0.272278
0.067087 0.070964 0.271462
0.068001 0.070572 0.270000
0.069037 0.070318 0.269064
0.069924 0.069924 0.267592
0.070787 0.069522 0.266085
0.071695 0.069176 0.264789
0.072688 0.068923 0.263851
0.073588 0.068592 0.262607
0.074356 0.068151 0.260941
0.075159 0.067755 0.259448
0.076008 0.067414 0.258158
0.076791 0.067025 0.256685
0.077536 0.066616 0.255131
0.078542 0.066440 0.254465
0.079467 0.066203 0.253561
0.080331 0.065922 0.252488
0.081169 0.065628 0.251360
0.082177 0.065478 0.250781
0.082861 0.065078 0.249242
0.083645 0.064766 0.248037
0.084488 0.064509 0.247036
0.085300 0.064235 0.245966
0.086109 0.063966 0.244913
0.086709 0.063551 0.243295
0.087442 0.063243 0.242084
0.088333 0.063056 0.241332
0.089105 0.062790 0.240271
0.089931 0.062568 0.239375
0.090814 0.062391 0.238646
0.091512 0.062092 0.237447
0.092428 0.061947 0.236832
0.093114 0.061653 0.235640
0.093991 0.061491 0.234946
0.094852 0.061322 0.234224
0.095603 0.061087 0.233242
0.096132 0.060718 0.231740
0.096710 0.060387 0.230381
0.097674 0.060301 0.229950
0.098496 0.060131 0.229194
0.099203 0.059895 0.228178
0.099989 0.059712 0.227354
0.100612 0.059436 0.226175
0.101486 0.059313 0.225567
0.102183 0.059089 0.224572
0.102645 0.058736 0.223077
0.103338 0.058521 0.222100
0.104091 0.058344 0.221259
0.104788 0.058139 0.220305
0.105433 0.057910 0.219250
0.106202 0.057753 0.218459
0.106841 0.057529 0.217406
0.107374 0.057252 0.216149
0.107909 0.056982 0.214906
0.108514 0.056754 0.213811
0.109041 0.056489 0.212571
0.109967 0.056435 0.212110
0.110655 0.056260 0.211187
0.111149 0.055990 0.209898
-1.012462 0.507779 1.883986
-1.005156 0.508645 1.889568
-0.990753 0.505904 1.881634
-0.981809 0.505925 1.883863
-0.972485 0.505750 1.885260
-0.965339 0.506715 1.890815
-0.957355 0.507255 1.894699
-0.948748 0.507471 1.897288
-0.940648 0.507966 1.900834
-1.023821 0.558238 2.090724
-1.015068 0.558880 2.094816
-1.006073 0.559401 2.098367
-0.988826 0.555299 2.084483
-0.980130 0.555964 2.088409
-0.862529 0.494240 1.857746
-0.839552 0.486024 1.827975
-0.830308 0.485670 1.827693
-0.820684 0.485085 1.826475
-0.810476 0.484138 1.823831
-0.799273 0.482571 1.818789
-1.267552 0.773604 2.916967
-1.255419 0.774605 2.921944
-1.252323 0.781265 2.948196
-1.245473 0.785707 2.966010
-0.900895 0.595031 2.248804
-0.887246 0.592982 2.241563
-0.877109 0.593259 2.243063
-0.868901 0.594864 2.249535
-0.858858 0.595236 2.251297
-0.850243 0.596621 2.256842
-0.683011 0.497919 1.884027
-0.672186 0.496466 1.878640
-0.662449 0.495789 1.876155
-0.655128 0.496926 1.880503
-0.647013 0.497484 1.882630
-0.637965 0.497331 1.882034
-0.629104 0.497322 1.881954
-0.276065 0.271766 1.026727
-0.271571 0.272110 1.027834
-0.265858 0.271223 1.024284
-0.259884 0.270033 1.019581
-0.255567 0.270553 1.021331
-0.248828 0.268478 1.013283
-0.242886 0.267200 1.008238
-0.235338 0.264069 0.996199
-0.227042 0.259954 0.980450
-0.220458 0.257669 0.971606
-0.213514 0.254858 0.960778
-0.206049 0.251288 0.947093
-0.197707 0.246467 0.928700
-0.190208 0.242502 0.913535
-0.182761 0.238422 0.897943
-0.177520 0.237093 0.892719
-0.172747 0.236340 0.889661
-0.167613 0.235044 0.884561
-0.162686 0.233979 0.880336
-0.157228 0.232074 0.872949
-0.152170 0.230674 0.867468
-0.119551 0.197202 0.741045
-0.116160 0.197409 0.741643
-0.112818 0.197718 0.742622
-0.109313 0.197748 0.742558
-0.105978 0.198102 0.743710
-0.102416 0.198039 0.743303
-0.098778 0.197819 0.742307
-0.095384 0.198092 0.743162
-0.091714 0.197790 0.741866
-0.087759 0.196825 0.738084
-0.083750 0.195653 0.733533
-0.079841 0.194623 0.729520
-0.075722 0.192967 0.723166
-0.071325 0.190409 0.713438
-0.067195 0.188348 0.705580
-0.062874 0.185503 0.694793
-0.058665 0.182694 0.684147
-0.024786 0.099223 0.371322
-0.023179 0.099921 0.373881
-0.021734 0.101491 0.379701
-0.019835 0.101035 0.377946
-0.018255 0.102278 0.382548
-0.016628 0.103501 0.387076
-0.014939 0.104600 0.391142
-0.013205 0.105652 0.395036
-0.011389 0.106279 0.397344
-0.009581 0.107265 0.400995
-0.007791 0.108982 0.407380
-0.005944 0.110785 0.414092
-0.003981 0.111161 0.415471
-0.001996 0.111043 0.415009
-0.000016 0.111453 0.416519
0.001983 0.112059 0.418768
0.003956 0.111327 0.416020
0.005876 0.110087 0.411379
0.007872 0.110525 0.413011
0.009782 0.109837 0.410435
0.011645 0.108932 0.407054
0.013689 0.109730 0.410043
0.015762 0.110543 0.413087
0.018125 0.112975 0.422187
0.020372 0.114267 0.427031
0.022349 0.113948 0.425856
0.021629 0.086629 0.323810
0.022752 0.085047 0.317921
0.024220 0.084870 0.317282
0.025776 0.085008 0.317825
0.027230 0.084807 0.317103
0.028649 0.084529 0.316093
0.030112 0.084399 0.315642
0.031495 0.084069 0.314438
0.032883 0.083780 0.313394
0.034287 0.083556 0.312594
0.035584 0.083099 0.310925
0.036936 0.082804 0.309862
0.038232 0.082409 0.308425
0.039644 0.082287 0.308010
0.041014 0.082087 0.307305
0.042345 0.081825 0.306371
0.043704 0.081634 0.305702
0.045082 0.081490 0.305208
0.046414 0.081273 0.304443
0.047585 0.080796 0.302704
0.048656 0.080182 0.300454
0.049793 0.079709 0.298729
0.050938 0.079275 0.297150
0.051873 0.078546 0.294468
0.053160 0.078374 0.293873
0.054156 0.077792 0.291739
0.055171 0.077267 0.289817
0.056144 0.076709 0.287774
0.057294 0.076415 0.286717
0.058267 0.075904 0.284847
0.059533 0.075788 0.284458
0.060689 0.075540 0.283575
0.061635 0.075048 0.281770
0.062512 0.074494 0.279736
0.063450 0.074034 0.278052
0.064208 0.073388 0.275666
0.065289 0.073130 0.274735
0.066280 0.072782 0.273466
0.067253 0.072428 0.272173
0.068181 0.072040 0.270752
0.069136 0.071694 0.269485
0.070122 0.071392 0.268381
0.071052 0.071046 0.267109
0.071911 0.070641 0.265615
0.072842 0.070320 0.264432
0.073717 0.069957 0.263090
0.074648 0.069658 0.261984
0.075223 0.069042 0.259685
0.076069 0.068690 0.258378
0.076891 0.068328 0.257028
0.077657 0.067929 0.255535
0.078558 0.067659 0.254524
0.079541 0.067465 0.253799
0.080402 0.067176 0.252710
0.081138 0.066792 0.251261
0.081726 0.066299 0.249399
0.082591 0.066042 0.248421
0.083605 0.065909 0.247908
0.084465 0.065661 0.246954
0.085263 0.065371 0.245843
0.085979 0.065028 0.244524
0.086748 0.064733 0.243383
0.087610 0.064514 0.242523
0.088375 0.064230 0.241416
0.089151 0.063962 0.240363
0.089680 0.063524 0.238671
0.090635 0.063396 0.238136
0.091501 0.063211 0.237378
0.092286 0.062974 0.236423
0.093099 0.062761 0.235554
0.093920 0.062559 0.234719
0.094736 0.062358 0.233882
0.095586 0.062184 0.233144
0.096130 0.061817 0.231674
0.096832 0.061559 0.230607
0.097518 0.061297 0.229517
0.098420 0.061175 0.228947
0.099088 0.060911 0.227840
0.099756 0.060653 0.226748
0.100566 0.060486 0.225989
0.101253 0.060249 0.224964
0.102014 0.060061 0.224112
0.102726 0.059849 0.223162
0.103311 0.059567 0.221947
0.104110 0.059413 0.221199
0.104928 0.059273 0.220496
0.105429 0.058959 0.219136
0.106042 0.058712 0.218019
0.106715 0.058503 0.217036
0.107332 0.058268 0.215946
0.108030 0.058081 0.215023
0.108838 0.057956 0.214323
0.109297 0.057649 0.212939
0.110264 0.057614 0.212547
0.110958 0.057437 0.211623
0.111524 0.057198 0.210459
-1.013132 0.517194 1.883999
-0.999132 0.514631 1.877059
-0.989458 0.514270 1.878033
-0.982904 0.515539 1.884860
-0.973092 0.515108 1.885375
-0.964271 0.515198 1.887702
-0.955843 0.515502 1.890721
-0.946996 0.515584 1.892838
-0.938954 0.516111 1.896502
-1.022397 0.567421 2.086856
-1.013641 0.568066 2.090948
-1.000466 0.566222 2.085793
-0.986455 0.563865 2.078648
-0.977766 0.564533 2.082569
-0.859933 0.501556 1.851475
-0.839479 0.494665 1.827178
-0.830706 0.494585 1.827960
-0.821218 0.494073 1.827085
-0.812841 0.494226 1.828604
-0.801327 0.492455 1.822945
-1.255506 0.779943 2.888473
-1.243471 0.780941 2.893405
-1.267017 0.804555 2.982084
-1.254587 0.805599 2.987053
-1.242131 0.806649 2.991971
-0.901119 0.605814 2.248996
-0.887637 0.603844 2.242218
-0.878457 0.604787 2.246207
-0.868500 0.605213 2.248223
-0.858818 0.605844 2.250951
-0.849426 0.606698 2.254462
-0.684003 0.507553 1.886660
-0.673129 0.506046 1.881196
-0.662348 0.504572 1.875815
-0.655320 0.505955 1.881023
-0.647446 0.506714 1.883882
-0.637936 0.506196 1.881964
-0.627437 0.504869 1.877006
-0.271416 0.276817 1.027440
-0.266375 0.276610 1.026481
-0.259772 0.274743 1.019358
-0.254863 0.274632 1.018741
-0.248410 0.272821 1.011817
-0.241767 0.270726 1.003836
-0.234452 0.267780 0.992698
-0.226259 0.263691 0.977325
-0.219893 0.261606 0.969380
-0.213357 0.259226 0.960342
-0.206186 0.255953 0.947998
-0.199098 0.252641 0.935514
-0.190871 0.247702 0.917007
-0.183719 0.243960 0.902939
-0.179015 0.243368 0.900533
-0.174028 0.242353 0.896562
-0.167911 0.239675 0.886443
-0.163299 0.239064 0.883969
-0.157824 0.237124 0.876582
-0.151911 0.234403 0.866313
-0.120518 0.202357 0.747338
-0.116159 0.200943 0.741941
-0.112897 0.201400 0.743453
-0.109673 0.201954 0.745324
-0.105904 0.201508 0.743509
-0.102469 0.201690 0.744013
-0.098865 0.201542 0.743299
-0.095253 0.201365 0.742483
-0.091574 0.201028 0.741078
-0.087432 0.199607 0.735686
-0.083474 0.198505 0.731471
-0.079486 0.197234 0.726640
-0.075558 0.196005 0.721968
-0.071375 0.193963 0.714308
-0.067080 0.191401 0.704742
-0.062628 0.188096 0.692448
-0.057955 0.183725 0.676236
-0.054766 0.183821 0.676476
-0.024970 0.101760 0.374305
-0.023434 0.102838 0.378219
-0.022047 0.104808 0.385409
-0.020083 0.104147 0.382928
-0.018572 0.105931 0.389442
-0.016902 0.107112 0.393739
-0.015128 0.107843 0.396382
-0.013308 0.108410 0.398427
-0.011542 0.109676 0.403039
-0.009674 0.110289 0.405260
-0.007824 0.111469 0.409562
-0.005975 0.113436 0.416762
-0.004074 0.115911 0.425827
-0.002023 0.114805 0.421742
-0.000011 0.115001 0.422441
0.002015 0.115584 0.424569
0.004037 0.115482 0.424181
0.006029 0.114871 0.421927
0.007989 0.114110 0.419126
0.010019 0.114451 0.420375
0.012073 0.114904 0.422038
0.013946 0.113747 0.417793
0.016091 0.114828 0.421771
0.018538 0.117574 0.431867
0.020426 0.116585 0.428247
0.022549 0.116996 0.429776
0.024653 0.117244 0.430706
0.026507 0.116357 0.427469
0.021272 0.086704 0.318552
0.022779 0.086652 0.318381
0.024251 0.086483 0.317784
0.025763 0.086466 0.317746
0.027238 0.086336 0.317295
0.028682 0.086123 0.316545
0.030061 0.085749 0.315201
0.031526 0.085642 0.314841
0.032925 0.085374 0.313890
0.034269 0.084993 0.312523
0.035648 0.084725 0.311577
0.036992 0.084401 0.310424
0.038301 0.084023 0.309073
0.039699 0.083863 0.308525
0.041027 0.083571 0.307492
0.042348 0.083283 0.306479
0.043677 0.083032 0.305597
0.045030 0.082840 0.304937
0.046333 0.082571 0.303993
0.047516 0.082111 0.302344
0.048642 0.081582 0.300443
0.049724 0.081012 0.298392
0.050823 0.080501 0.296555
0.052024 0.080174 0.295397
0.053148 0.079748 0.293873
0.054378 0.079499 0.293003
0.055465 0.079059 0.291430
0.056189 0.078136 0.288073
0.057043 0.077432 0.285522
0.058278 0.077268 0.284960
0.059482 0.077069 0.284271
0.060601 0.076772 0.283217
0.061674 0.076431 0.282003
0.062672 0.076013 0.280503
0.063598 0.075528 0.278752
0.064629 0.075184 0.277521
0.065343 0.074492 0.275006
0.066291 0.074088 0.273551
0.067320 0.073790 0.272484
0.068245 0.073391 0.271041
0.069198 0.073035 0.269760
0.070264 0.072810 0.268956
0.071187 0.072448 0.267645
0.072118 0.072105 0.266405
0.073141 0.071865 0.265540
0.074113 0.071584 0.264521
0.075109 0.071336 0.263621
0.075936 0.070936 0.262159
0.076094 0.069936 0.258474
0.076693 0.069366 0.256377
0.077473 0.068974 0.254935
0.078335 0.068668 0.253804
0.079400 0.068544 0.253348
0.080322 0.068303 0.252454
0.081086 0.067938 0.251095
0.081865 0.067594 0.249815
0.082691 0.067299 0.248710
0.083566 0.067051 0.247777
0.084506 0.066862 0.247057
0.085234 0.066512 0.245738
0.086004 0.066205 0.244571
0.086740 0.065879 0.243332
0.087697 0.065727 0.242735
0.088559 0.065509 0.241886
0.089283 0.065197 0.240684
0.090136 0.064984 0.239846
0.090964 0.064760 0.238960
0.091417 0.064277 0.237113
0.092343 0.064134 0.236519
0.093016 0.063822 0.235293
0.093773 0.063573 0.234297
0.094472 0.063292 0.233175
0.095338 0.063127 0.232478
0.096079 0.062885 0.231486
0.096771 0.062616 0.230393
0.097536 0.062400 0.229487
0.098255 0.062159 0.228486
0.099006 0.061945 0.227574
0.099680 0.061686 0.226494
0.100302 0.061402 0.225311
0.101171 0.061273 0.224693
0.101764 0.060981 0.223470
0.102433 0.060741 0.222429
0.103093 0.060500 0.221379
0.103800 0.060291 0.220437
0.104669 0.060180 0.219844
0.105254 0.059909 0.218659
0.105945 0.059703 0.217704
0.106642 0.059504 0.216767
0.107402 0.059345 0.215962
0.108053 0.059128 0.214941
0.108761 0.058946 0.214038
0.109344 0.058701 0.212892
0.110229 0.058621 0.212337
0.110914 0.058437 0.211393
0.111585 0.058249 0.210423
-1.004726 0.521907 1.867097
-0.996992 0.522544 1.871812
-0.987999 0.522527 1.874080
-0.979897 0.522985 1.877953
-0.972466 0.523813 1.883060
-0.963490 0.523818 1.885113
-0.955746 0.524499 1.889508
-0.942270 0.522017 1.882414
-0.935637 0.523316 1.888860
-1.020485 0.576303 2.081956
-1.011729 0.576948 2.086047
-1.001817 0.576940 2.087691
-0.983446 0.572014 2.071435
-0.980936 0.576305 2.088480
-0.862609 0.511949 1.856523
-0.841348 0.504469 1.830575
-0.832495 0.504351 1.831258
-0.819993 0.501997 1.823755
-0.812686 0.502807 1.827681
-0.800914 0.500842 1.821460
-1.275210 0.806091 2.932978
-1.262968 0.807111 2.937991
-1.236588 0.799018 2.909736
-1.247943 0.815400 2.970537
-1.229645 0.812559 2.961244
-0.909700 0.622320 2.270015
-0.886251 0.613486 2.238357
-0.877643 0.614835 2.243796
-0.867534 0.615154 2.245425
-0.858105 0.615969 2.248816
-0.850204 0.617915 2.256289
-0.681369 0.514475 1.879271
-0.671315 0.513544 1.876028
-0.662370 0.513448 1.875803
-0.655115 0.514678 1.880386
-0.646217 0.514633 1.880282
-0.637733 0.514921 1.881364
-0.627441 0.513737 1.877039
-0.271037 0.281287 1.026195
-0.266062 0.281139 1.025476
-0.259902 0.279711 1.020078
-0.255161 0.279784 1.020152
-0.247936 0.277084 1.010110
-0.241757 0.275472 1.004031
-0.234908 0.273015 0.994873
-0.227394 0.269671 0.982478
-0.219876 0.266182 0.969561
-0.213887 0.264437 0.962991
-0.206812 0.261243 0.951151
-0.200012 0.258263 0.940089
-0.191714 0.253169 0.921336
-0.186009 0.251343 0.914482
-0.179768 0.248689 0.904616
-0.174540 0.247340 0.899501
-0.168886 0.245306 0.891895
-0.163349 0.243342 0.884547
-0.158685 0.242610 0.881679
-0.152617 0.239635 0.870663
-0.148637 0.239863 0.871288
-0.119918 0.204892 0.743913
-0.116534 0.205140 0.744640
-0.113270 0.205620 0.746215
-0.109399 0.204995 0.743777
-0.106140 0.205514 0.745493
-0.102482 0.205269 0.744442
-0.098706 0.204763 0.742442
-0.095202 0.204803 0.742429
-0.091563 0.204545 0.741340
-0.087587 0.203484 0.737339
-0.083443 0.201929 0.731556
-0.079424 0.200555 0.726435
-0.075607 0.199591 0.722804
-0.071512 0.197764 0.716054
-0.067085 0.194793 0.705166
-0.062368 0.190621 0.689942
-0.057882 0.186732 0.675749
-0.053932 0.184221 0.666549
-0.025009 0.103722 0.375115
-0.023456 0.104757 0.378805
-0.021911 0.106009 0.383278
-0.020000 0.105554 0.381587
-0.018675 0.108413 0.391875
-0.016871 0.108817 0.393291
-0.015099 0.109556 0.395918
-0.013282 0.110131 0.397955
-0.010014 0.116222 0.419892
-0.008014 0.116241 0.419929
-0.006082 0.117596 0.424795
-0.004094 0.118660 0.428614
-0.002050 0.118643 0.428527
-0.000006 0.118769 0.428965
0.002042 0.118894 0.429400
0.004069 0.118308 0.427269
0.006063 0.117449 0.424157
0.008063 0.117115 0.422944
0.010050 0.116756 0.421646
0.012106 0.117189 0.423210
0.014113 0.117085 0.422836
0.016221 0.117747 0.425232
0.018609 0.120066 0.433618
0.020504 0.119056 0.429983
0.022617 0.119378 0.431163
0.024618 0.119106 0.430197
0.026469 0.118205 0.426964
0.021477 0.089057 0.321699
0.022830 0.088355 0.319183
0.024304 0.088178 0.318565
0.025815 0.088148 0.318484
0.027239 0.087839 0.317393
0.028724 0.087749 0.317096
0.030155 0.087514 0.316278
0.031535 0.087158 0.315021
0.032973 0.086988 0.314440
0.034384 0.086762 0.313657
0.035712 0.086356 0.312225
0.037046 0.085996 0.310962
0.038456 0.085834 0.310413
0.039772 0.085482 0.309181
0.041111 0.085202 0.308208
0.042403 0.084847 0.306966
0.043704 0.084532 0.305870
0.045023 0.084273 0.304974
0.046261 0.083881 0.303598
0.047561 0.083623 0.302709
0.048860 0.083379 0.301870
0.049877 0.082681 0.299388
0.051058 0.082285 0.298001
0.052124 0.081730 0.296034
0.053321 0.081405 0.294901
0.054427 0.080960 0.293335
0.055560 0.080577 0.291993
0.056580 0.080053 0.290138
0.057516 0.079439 0.287953
0.058351 0.078716 0.285375
0.059479 0.078411 0.284311
0.060680 0.078215 0.283643
0.061787 0.077909 0.282571
0.062921 0.077649 0.281666
0.063821 0.077117 0.279776
0.064327 0.076140 0.276267
0.065398 0.075857 0.275276
0.066313 0.075408 0.273680
0.067266 0.075020 0.272302
0.068384 0.074825 0.271625
0.069279 0.074398 0.270104
0.070092 0.073901 0.268324
0.071035 0.073557 0.267098
0.071935 0.073180 0.265750
0.072915 0.072896 0.264739
0.073794 0.072522 0.263400
0.074306 0.071806 0.260814
0.075242 0.071517 0.259774
0.076201 0.071259 0.258845
0.076945 0.070810 0.257222
0.077632 0.070324 0.255460
0.078596 0.070100 0.254647
0.079511 0.069841 0.253700
0.080298 0.069477 0.252375
0.080972 0.069029 0.250734
0.081662 0.068605 0.249184
0.082667 0.068456 0.248625
0.083524 0.068190 0.247635
0.084329 0.067889 0.246517
0.085130 0.067593 0.245415
0.085950 0.067320 0.244390
0.086729 0.067023 0.243273
0.087565 0.066776 0.242336
0.088526 0.066631 0.241761
0.089259 0.066320 0.240581
0.090095 0.066091 0.239695
0.090952 0.065884 0.238883
0.091575 0.065515 0.237477
0.092296 0.065223 0.236348
0.093065 0.064972 0.235361
0.093841 0.064732 0.234410
0.094599 0.064486 0.233427
0.095221 0.064153 0.232127
0.095769 0.063778 0.230671
0.096546 0.063563 0.229787
0.097255 0.063309 0.228753
0.098136 0.063171 0.228133
0.098735 0.062856 0.226869
0.099433 0.062610 0.225847
0.100173 0.062396 0.224934
0.100928 0.062195 0.224061
0.101734 0.062030 0.223309
0.102453 0.061815 0.222372
0.103129 0.061580 0.221351
0.103799 0.061345 0.220327
0.104680 0.061239 0.219755
0.105345 0.061010 0.218733
0.105894 0.060718 0.217480
0.106620 0.060533 0.216598
0.107250 0.060298 0.215529
0.107932 0.060095 0.214568
0.108577 0.059876 0.213538
0.109203 0.059651 0.212477
0.109998 0.059522 0.211746
0.110650 0.059318 0.210739
0.111524 0.059236 0.210153
-1.004245 0.530658 1.864888
-0.995551 0.530792 1.867837
-0.987599 0.531327 1.872095
-0.979818 0.531965 1.876616
-0.971269 0.532195 1.879601
-0.962678 0.532407 1.882423
-0.951039 0.530921 1.879144
-0.942465 0.531134 1.881786
-0.935632 0.532342 1.887868
-0.923634 0.530607 1.883425
-1.008462 0.585007 2.078316
-1.002347 0.587206 2.087839
-0.991361 0.586565 2.087188
-0.980252 0.585840 2.086146
-0.971502 0.586524 2.090044
-0.840322 0.512547 1.827642
-0.832514 0.513064 1.830629
-0.821744 0.511748 1.827011
-0.814050 0.512340 1.830142
-0.803854 0.511354 1.827572
-1.291666 0.839692 3.003904
-1.274063 0.837436 2.997119
-1.271557 0.845165 3.025991
-1.237311 0.831733 2.979008
-0.914902 0.636678 2.282564
-0.888865 0.625912 2.244568
-0.877021 0.625001 2.241849
-0.869009 0.626833 2.248916
-0.858650 0.626996 2.249950
-0.849399 0.627983 2.253888
-0.686324 0.527159 1.892793
-0.670624 0.521869 1.873982
-0.660912 0.521159 1.871580
-0.654727 0.523249 1.879202
-0.645078 0.522592 1.876923
-0.636557 0.522842 1.877874
-0.627136 0.522349 1.876128
-0.271388 0.286514 1.027705
-0.265882 0.285799 1.024970
-0.258607 0.283122 1.015194
-0.254957 0.284387 1.019546
-0.248012 0.281956 1.010641
-0.241222 0.279609 1.002036
-0.234704 0.277490 0.994249
-0.226857 0.273681 0.980402
-0.219411 0.270208 0.967761
-0.212974 0.267856 0.959137
-0.206211 0.264984 0.948651
-0.199062 0.261476 0.935891
-0.191960 0.257874 0.922794
-0.186084 0.255789 0.915134
-0.180121 0.253483 0.906680
-0.174859 0.252074 0.901439
-0.169153 0.249941 0.893608
-0.163615 0.247952 0.886297
-0.158439 0.246421 0.880625
-0.152763 0.244010 0.871810
-0.145720 0.239222 0.854510
-0.141806 0.239443 0.855107
-0.120626 0.209667 0.748600
-0.116285 0.208242 0.743347
-0.112968 0.208619 0.744530
-0.109941 0.209574 0.747774
-0.105958 0.208711 0.744530
-0.102640 0.209144 0.745914
-0.099098 0.209132 0.745717
-0.095364 0.208704 0.744033
-0.091645 0.208274 0.742349
-0.087977 0.207932 0.740979
-0.083938 0.206648 0.736259
-0.079865 0.205163 0.730827
-0.075390 0.202468 0.721090
-0.071006 0.199769 0.711349
-0.066774 0.197253 0.702264
-0.062193 0.193385 0.688373
-0.058030 0.190461 0.677852
-0.054046 0.187816 0.668330
-0.025394 0.107148 0.381105
-0.023524 0.106893 0.380145
-0.022162 0.109094 0.387924
-0.020198 0.108462 0.385628
-0.018383 0.108580 0.386002
-0.016787 0.110173 0.391622
-0.015356 0.113371 0.402947
-0.010296 0.121610 0.432113
-0.008239 0.121630 0.432152
-0.006181 0.121655 0.432209
-0.004113 0.121430 0.431385
-0.002065 0.121911 0.433071
-0.000001 0.121679 0.432225
0.002053 0.121343 0.431015
0.004091 0.120844 0.429230
0.006142 0.120920 0.429492
0.008098 0.119569 0.424683
0.010189 0.120348 0.427447
0.012335 0.121413 0.431229
0.014083 0.118811 0.421991
0.016630 0.122756 0.436010
0.018612 0.122117 0.433747
0.020487 0.120973 0.429696
0.022590 0.121261 0.430735
0.024448 0.120294 0.427318
0.026016 0.118160 0.419756
0.028008 0.118120 0.419639
0.022856 0.089962 0.319623
0.024256 0.089504 0.318016
0.025679 0.089180 0.316889
0.027223 0.089287 0.317293
0.028665 0.089068 0.316541
0.030100 0.088846 0.315782
0.031525 0.088621 0.315011
0.032965 0.088453 0.314447
0.034398 0.088284 0.313879
0.035754 0.087939 0.312686
0.037092 0.087578 0.311437
0.038459 0.087310 0.310522
0.039791 0.086988 0.309416
0.041091 0.086618 0.308139
0.042408 0.086310 0.307082
0.043716 0.086004 0.306033
0.044990 0.085654 0.304829
0.046358 0.085499 0.304319
0.047537 0.085014 0.302637
0.048811 0.084724 0.301644
0.049986 0.084282 0.300114
0.051142 0.083833 0.298558
0.052283 0.083385 0.297006
0.053287 0.082748 0.294779
0.054477 0.082425 0.293672
0.055647 0.082088 0.292514
0.056675 0.081564 0.290686
0.057718 0.081085 0.289021
0.058649 0.080475 0.286886
0.059602 0.079923 0.284957
0.060798 0.079713 0.284247
0.061807 0.079272 0.282713
0.062714 0.078722 0.280786
0.063613 0.078185 0.278906
0.064569 0.077738 0.277345
0.065484 0.077262 0.275678
0.066591 0.077025 0.274865
0.067562 0.076643 0.273531
0.068532 0.076275 0.272244
0.069299 0.075698 0.270211
0.070396 0.075497 0.269514
0.071288 0.075087 0.268072
0.072139 0.074648 0.266523
0.072852 0.074084 0.264527
0.073832 0.073807 0.263551
0.074723 0.073451 0.262291
0.075280 0.072783 0.259916
0.075948 0.072243 0.257993
0.076758 0.071852 0.256601
0.077875 0.071757 0.256263
0.078687 0.071388 0.254940
0.079596 0.071116 0.253965
0.080581 0.070920 0.253255
0.081372 0.070561 0.251958
0.081710 0.069825 0.249316
0.082391 0.069400 0.247777
0.083385 0.069246 0.247202
0.084371 0.069090 0.246618
0.085255 0.068856 0.245748
0.086021 0.068534 0.244562
0.086824 0.068250 0.243508
0.087796 0.068103 0.242939
