ply
format ascii 1.0
element vertex 1691
property float x
property float y
property float z
end_header
0.061412 -0.108672 0.263195
0.062331 -0.108095 0.261744
0.063281 -0.107592 0.260470
0.064311 -0.107240 0.259559
0.065319 -0.106868 0.258596
0.066176 -0.106265 0.257072
0.067208 -0.105961 0.256269
0.068189 -0.105590 0.255299
0.069049 -0.105046 0.253909
0.070059 -0.104745 0.253103
0.070972 -0.104311 0.251973
0.071929 -0.103957 0.251030
0.072747 -0.103416 0.249635
0.073623 -0.102972 0.248471
0.074573 -0.102646 0.247585
0.075530 -0.102338 0.246741
0.076478 -0.102029 0.245887
0.077465 -0.101780 0.245178
0.078524 -0.101630 0.244700
0.079580 -0.101483 0.244223
0.080539 -0.101217 0.243457
0.081546 -0.101017 0.242844
0.082467 -0.100719 0.241990
0.083362 -0.100397 0.241073
0.084276 -0.100108 0.240229
0.085145 -0.099772 0.239269
0.086019 -0.099451 0.238338
0.086736 -0.098960 0.236995
0.087434 -0.098460 0.235622
0.088088 -0.097924 0.234159
0.088689 -0.097343 0.232585
0.089317 -0.096806 0.231109
0.090041 -0.096385 0.229904
0.090618 -0.095818 0.228345
0.090987 -0.095048 0.226296
0.091061 -0.093992 0.223562
0.091636 -0.093471 0.222094
0.092016 -0.092767 0.220186
0.092308 -0.091990 0.218100
0.092533 -0.091165 0.215894
0.092464 -0.090072 0.213048
0.092785 -0.089379 0.211145
0.093186 -0.088777 0.209449
0.093370 -0.087984 0.207296
0.093964 -0.087590 0.206077
0.094615 -0.087257 0.204990
0.095157 -0.086832 0.203679
0.096095 -0.086772 0.203216
0.096708 -0.086424 0.202064
0.097662 -0.086384 0.201622
0.098612 -0.086341 0.201159
0.099625 -0.086354 0.200811
0.100558 -0.086298 0.200289
0.101527 -0.086273 0.199824
0.102380 -0.086151 0.199118
0.103433 -0.086197 0.198786
0.104317 -0.086104 0.198115
0.105406 -0.086180 0.197813
0.106000 -0.085853 0.196569
0.107097 -0.085935 0.196245
0.107960 -0.085831 0.195473
-1.615065 -1.314236 3.104544
-1.567679 -1.287779 3.047855
-1.544189 -1.280636 3.036506
-1.543202 -1.292199 3.069322
-1.524254 -1.288804 3.066437
-1.509358 -1.288803 3.071420
-1.498842 -1.292583 3.085237
-0.390008 -0.659055 1.621876
-0.383467 -0.660967 1.626746
-0.371188 -0.652864 1.606951
-0.362420 -0.650730 1.601831
-0.356175 -0.653131 1.607858
-0.348763 -0.653452 1.608751
-0.342411 -0.655818 1.614668
-0.387628 -0.776981 1.913148
-0.378891 -0.777569 1.914659
-0.373547 -0.785318 1.933790
-0.367895 -0.792792 1.952235
-0.362612 -0.801467 1.973625
-0.355394 -0.806211 1.985322
-0.347462 -0.809548 1.993543
-0.339219 -0.812327 2.000384
-0.331243 -0.815926 2.009232
-0.323476 -0.820265 2.019892
-0.314715 -0.822275 2.024810
-0.306850 -0.826824 2.035971
-0.297499 -0.827536 2.037677
-0.288742 -0.830003 2.043698
-0.281060 -0.835840 2.058006
-0.271491 -0.836284 2.059034
-0.262051 -0.837173 2.061149
-0.254438 -0.844193 2.078356
-0.244543 -0.843906 2.077566
-0.235137 -0.845354 2.081044
-0.225521 -0.846138 2.082884
-0.216274 -0.848446 2.088472
-0.206894 -0.850429 2.093257
-0.198068 -0.855006 2.104425
-0.190263 -0.864707 2.128198
-0.020943 -0.120694 0.296990
-0.019522 -0.120585 0.296707
-0.018181 -0.120991 0.297693
-0.016791 -0.121110 0.297971
-0.015326 -0.120666 0.296862
-0.013919 -0.120633 0.296768
-0.012534 -0.120812 0.297193
-0.011142 -0.120948 0.297513
-0.009723 -0.120803 0.297142
-0.008369 -0.121549 0.298962
-0.006958 -0.121601 0.299076
-0.005515 -0.120969 0.297509
-0.004095 -0.120583 0.296546
-0.002691 -0.120538 0.296421
-0.001282 -0.119949 0.294960
0.000114 -0.120122 0.295374
0.001508 -0.119859 0.294716
0.002895 -0.119556 0.293957
0.004291 -0.119694 0.294285
0.005673 -0.119466 0.293712
0.007057 -0.119349 0.293414
0.008438 -0.119236 0.293126
0.009806 -0.119000 0.292533
0.011206 -0.119161 0.292919
0.012627 -0.119479 0.293689
0.013955 -0.118945 0.292367
0.015352 -0.119047 0.292606
0.016771 -0.119276 0.293161
0.018210 -0.119608 0.293965
0.019688 -0.120133 0.295246
0.021159 -0.120546 0.296250
0.022621 -0.120856 0.297002
0.023902 -0.120221 0.295431
0.025306 -0.120242 0.295471
0.026831 -0.120805 0.296843
0.028263 -0.120915 0.297101
0.029915 -0.121909 0.299533
0.031265 -0.121637 0.298853
0.032762 -0.121935 0.299574
0.034070 -0.121535 0.298577
0.035279 -0.120829 0.296829
0.036618 -0.120602 0.296258
0.037977 -0.120460 0.295893
0.039321 -0.120276 0.295427
0.040547 -0.119760 0.294143
0.041806 -0.119372 0.293173
0.043060 -0.118995 0.292229
0.044228 -0.118409 0.290772
0.045388 -0.117840 0.289353
0.046475 -0.117119 0.287562
0.047571 -0.116462 0.285925
0.048565 -0.115596 0.283777
0.049543 -0.114742 0.281655
0.050460 -0.113794 0.279303
0.051461 -0.113082 0.277526
0.052514 -0.112514 0.276103
0.053488 -0.111807 0.274339
0.054537 -0.111289 0.273035
0.055526 -0.110676 0.271496
0.056533 -0.110123 0.270103
0.057612 -0.109734 0.269110
0.058524 -0.109050 0.267392
0.059465 -0.108447 0.265871
0.060451 -0.107951 0.264607
0.061382 -0.107379 0.263158
0.062298 -0.106802 0.261695
0.063205 -0.106234 0.260251
0.064179 -0.105797 0.259125
0.065193 -0.105442 0.258195
0.066056 -0.104860 0.256711
0.066952 -0.104350 0.255398
0.068011 -0.104109 0.254740
0.068945 -0.103688 0.253639
0.069850 -0.103238 0.252464
0.070940 -0.103072 0.251980
0.071922 -0.102757 0.251129
0.072874 -0.102410 0.250195
0.073777 -0.102007 0.249121
0.074721 -0.101673 0.248212
0.075761 -0.101478 0.247637
0.076699 -0.101152 0.246740
0.077681 -0.100896 0.246007
0.078821 -0.100848 0.245779
0.079807 -0.100608 0.245076
0.080797 -0.100379 0.244397
0.081791 -0.100161 0.243738
0.082713 -0.099863 0.242880
0.083639 -0.099578 0.242049
0.084503 -0.099228 0.241054
0.085387 -0.098910 0.240130
0.086214 -0.098536 0.239066
0.086978 -0.098101 0.237848
0.087615 -0.097535 0.236307
0.088372 -0.097115 0.235116
0.088911 -0.096470 0.233372
0.089728 -0.096138 0.232383
0.090151 -0.095398 0.230399
0.090838 -0.094951 0.229118
0.091210 -0.094190 0.227075
0.091318 -0.093178 0.224419
0.091649 -0.092414 0.222360
0.092020 -0.091708 0.220432
0.092413 -0.091040 0.218589
0.092598 -0.090184 0.216291
0.092791 -0.089355 0.214052
0.092700 -0.088274 0.211205
0.093007 -0.087592 0.209306
0.093249 -0.086864 0.207293
0.093763 -0.086401 0.205906
0.094409 -0.086070 0.204823
0.095029 -0.085721 0.203689
0.095785 -0.085502 0.202852
0.096646 -0.085379 0.202233
0.097538 -0.085286 0.201673
0.098631 -0.085369 0.201516
0.099504 -0.085262 0.200894
0.100514 -0.085272 0.200538
0.101307 -0.085100 0.199736
0.102138 -0.084963 0.199004
0.103097 -0.084934 0.198508
0.103842 -0.084731 0.197589
0.104946 -0.084822 0.197338
0.105690 -0.084622 0.196394
0.106410 -0.084407 0.195398
0.107607 -0.084570 0.195256
-1.615650 -1.299348 3.110500
-1.595495 -1.295313 3.106614
-1.573880 -1.290006 3.099418
-1.585108 -1.311779 3.157142
-1.555483 -1.299840 3.133568
-1.543495 -1.302551 3.145079
-1.499632 -1.278152 3.090860
-1.406446 -1.316962 3.220643
-1.387008 -1.313161 3.214583
-0.390569 -0.652273 1.624481
-0.376666 -0.641640 1.598142
-0.367661 -0.639087 1.591908
-0.364731 -0.647207 1.612249
-0.357108 -0.647170 1.612254
-0.350662 -0.649311 1.617674
-0.344817 -0.652687 1.626157
-0.341996 -0.662070 1.649596
-0.371025 -0.752499 1.875003
-0.368074 -0.764737 1.905527
-0.363701 -0.774562 1.930028
-0.359110 -0.784416 1.954589
-0.354001 -0.793629 1.977543
-0.346865 -0.798673 1.990101
-0.339788 -0.804139 2.003697
-0.331629 -0.807286 2.011505
-0.323976 -0.811886 2.022927
-0.321206 -0.829375 2.066451
-0.307601 -0.819107 2.040812
-0.299479 -0.823252 2.051076
-0.289830 -0.823336 2.051213
-0.281544 -0.827430 2.061336
-0.272634 -0.829923 2.067466
-0.263878 -0.833085 2.075254
-0.255781 -0.838657 2.089042
-0.246179 -0.839541 2.091146
-0.236982 -0.841942 2.097027
-0.227492 -0.843468 2.100724
-0.218041 -0.845285 2.105145
-0.208744 -0.847902 2.111553
-0.199611 -0.851486 2.120368
-0.190616 -0.856065 2.131657
-0.181227 -0.859296 2.139589
-0.021082 -0.120051 0.298870
-0.019644 -0.119892 0.298460
-0.018043 -0.118644 0.295336
-0.016815 -0.119839 0.298296
-0.015381 -0.119654 0.297818
-0.013926 -0.119245 0.296785
-0.012538 -0.119391 0.297133
-0.011136 -0.119428 0.297211
-0.009700 -0.119046 0.296244
-0.008310 -0.119211 0.296641
-0.006930 -0.119606 0.297609
-0.005508 -0.119307 0.296851
-0.004086 -0.118791 0.295553
-0.002693 -0.119016 0.296102
-0.001285 -0.118392 0.294535
0.000108 -0.118361 0.294445
0.001504 -0.118514 0.294815
0.002887 -0.118018 0.293569
0.004272 -0.117907 0.293280
0.005638 -0.117451 0.292135
0.007009 -0.117248 0.291619
0.008360 -0.116835 0.290583
0.009715 -0.116583 0.289944
0.011132 -0.117041 0.291075
0.012554 -0.117452 0.292085
0.013954 -0.117595 0.292433
0.015305 -0.117333 0.291771
0.016728 -0.117622 0.292480
0.018192 -0.118136 0.293749
0.019629 -0.118412 0.294425
0.021048 -0.118545 0.294748
0.022495 -0.118812 0.295402
0.023966 -0.119167 0.296276
0.025248 -0.118596 0.294846
0.026895 -0.119706 0.297597
0.028654 -0.121183 0.301259
0.030170 -0.121538 0.302130
0.031619 -0.121601 0.302277
0.033248 -0.122323 0.304061
0.034853 -0.122900 0.305485
0.036026 -0.121970 0.303161
0.036699 -0.119482 0.296964
0.038094 -0.119440 0.296847
0.039348 -0.118974 0.295676
0.040601 -0.118540 0.294584
0.041884 -0.118218 0.293769
0.043083 -0.117685 0.292428
0.044312 -0.117268 0.291376
0.045429 -0.116585 0.289662
0.046507 -0.115849 0.287813
0.047650 -0.115309 0.286452
0.048604 -0.114356 0.284063
0.049620 -0.113595 0.282151
0.050716 -0.113053 0.280782
0.051624 -0.112130 0.278465
0.052648 -0.111497 0.276866
0.053661 -0.110874 0.275291
0.054664 -0.110261 0.273738
0.055643 -0.109628 0.272136
0.056619 -0.109018 0.270588
0.057633 -0.108506 0.269281
0.058692 -0.108099 0.268234
0.059676 -0.107575 0.266892
0.060681 -0.107109 0.265695
0.061757 -0.106785 0.264846
0.062728 -0.106295 0.263585
0.063687 -0.105806 0.262323
0.064679 -0.105389 0.261236
0.065604 -0.104879 0.259918
0.066569 -0.104452 0.258802
0.067406 -0.103843 0.257232
0.068348 -0.103415 0.256107
0.069340 -0.103075 0.255197
0.070198 -0.102551 0.253830
0.071153 -0.102185 0.252850
0.072112 -0.101837 0.251910
0.073050 -0.101470 0.250922
0.074007 -0.101141 0.250023
0.075041 -0.100926 0.249402
0.076059 -0.100697 0.248741
0.077094 -0.100496 0.248146
0.078043 -0.100192 0.247292
0.079210 -0.100172 0.247135
0.080240 -0.099982 0.246552
0.081195 -0.099705 0.245753
0.082184 -0.099477 0.245066
0.083052 -0.099111 0.244036
0.083852 -0.098676 0.242830
0.084756 -0.098372 0.241944
0.085582 -0.097988 0.240855
0.086360 -0.097560 0.239650
0.087153 -0.097159 0.238509
0.087895 -0.096713 0.237249
0.088655 -0.096297 0.236061
0.089295 -0.095764 0.234578
0.089880 -0.095185 0.232977
0.090571 -0.094732 0.231679
0.091108 -0.094130 0.230012
0.091579 -0.093476 0.228209
0.091820 -0.092604 0.225872
0.092052 -0.091745 0.223561
0.092510 -0.091128 0.221834
0.092811 -0.090373 0.219764
0.093048 -0.089573 0.217581
0.092991 -0.088510 0.214756
0.093252 -0.087772 0.212711
0.093496 -0.087032 0.210659
0.093821 -0.086384 0.208822
0.094132 -0.085737 0.206979
0.094585 -0.085231 0.205473
0.095309 -0.084978 0.204564
0.095850 -0.084569 0.203272
0.096709 -0.084445 0.202656
0.097508 -0.084273 0.201910
0.098416 -0.084196 0.201382
0.099293 -0.084094 0.200781
0.100225 -0.084042 0.200284
0.101055 -0.083905 0.199572
0.101943 -0.083818 0.198965
0.102641 -0.083579 0.197980
0.103664 -0.083606 0.197612
0.104265 -0.083295 0.196429
0.105352 -0.083374 0.196149
0.106214 -0.083275 0.195431
0.106818 -0.082978 0.194231
-1.628226 -1.293981 3.139412
-1.622530 -1.301689 3.163847
-1.593314 -1.290497 3.142112
-1.569318 -1.283359 3.129965
-1.553113 -1.282517 3.132942
-1.543248 -1.286947 3.148618
-1.531209 -1.289638 3.159877
-1.457828 -1.292271 3.187179
-1.443599 -1.293238 3.193257
-1.407716 -1.274619 3.150783
-1.421803 -1.301336 3.220251
-1.407503 -1.302372 3.226109
-1.390598 -1.300995 3.225853
-1.408367 -1.332394 3.306806
-1.393741 -1.333510 3.312548
-1.408159 -1.362762 3.388125
-1.393201 -1.363935 3.393832
-1.378229 -1.365122 3.399463
-0.377214 -0.634961 1.600678
-0.369523 -0.634713 1.600163
-0.358321 -0.628299 1.584083
-0.355791 -0.637142 1.606458
-0.350764 -0.641801 1.618272
-0.342912 -0.641386 1.617279
-0.342522 -0.655225 1.652218
-0.376211 -0.753967 1.901266
-0.367528 -0.754545 1.902734
-0.358680 -0.754805 1.903390
-0.359472 -0.775888 1.956542
-0.356133 -0.788932 1.989413
-0.348243 -0.792327 1.997942
-0.345855 -0.808777 2.039382
-0.338027 -0.813087 2.050199
-0.330580 -0.818594 2.064026
-0.321744 -0.820892 2.069752
-0.312679 -0.822733 2.074319
-0.304652 -0.827514 2.086291
-0.293836 -0.824788 2.079332
-0.285333 -0.828591 2.088825
-0.276280 -0.831011 2.094829
-0.265721 -0.828915 2.089443
-0.256768 -0.831865 2.096772
-0.247144 -0.832788 2.098987
-0.237104 -0.832331 2.097724
-0.227795 -0.834515 2.103112
-0.218554 -0.837160 2.109660
-0.209247 -0.839795 2.116178
-0.199718 -0.841757 2.121002
-0.190551 -0.845540 2.130411
-0.181567 -0.850599 2.143032
-0.021410 -0.120454 0.303424
-0.019776 -0.119246 0.300364
-0.018007 -0.116975 0.294627
-0.016981 -0.119562 0.301125
-0.015401 -0.118354 0.298067
-0.013888 -0.117484 0.295859
-0.012502 -0.117601 0.296137
-0.011050 -0.117050 0.294735
-0.009631 -0.116756 0.293980
-0.008253 -0.116920 0.294378
-0.006903 -0.117653 0.296208
-0.005476 -0.117102 0.294806
-0.004078 -0.117013 0.294568
-0.002674 -0.116545 0.293376
-0.001278 -0.115894 0.291727
0.000102 -0.115958 0.291875
0.001483 -0.115910 0.291742
0.002862 -0.115815 0.291490
0.004233 -0.115585 0.290901
0.005585 -0.115065 0.289581
0.006948 -0.114943 0.289263
0.008350 -0.115385 0.290366
0.009723 -0.115359 0.290290
0.011150 -0.115911 0.291669
0.012596 -0.116508 0.293162
0.014003 -0.116661 0.293539
0.015324 -0.116139 0.292217
0.016790 -0.116706 0.293636
0.018306 -0.117508 0.295646
0.019667 -0.117272 0.295042
0.021197 -0.118009 0.296888
0.022660 -0.118303 0.297620
0.024281 -0.119336 0.300211
0.025793 -0.119753 0.301253
0.027320 -0.120190 0.302344
0.028999 -0.121219 0.304924
0.030510 -0.121479 0.305570
0.032066 -0.121891 0.306596
0.033622 -0.122261 0.307518
0.034806 -0.121307 0.305109
0.035657 -0.119315 0.300090
0.036778 -0.118345 0.297639
0.038066 -0.117961 0.296662
0.039342 -0.117571 0.295671
0.040567 -0.117061 0.294376
0.041809 -0.116629 0.293278
0.043060 -0.116250 0.292312
0.044209 -0.115630 0.290739
0.045385 -0.115116 0.289429
0.046521 -0.114531 0.287944
0.047577 -0.113788 0.286058
0.048615 -0.113047 0.284177
0.049638 -0.112309 0.282304
0.050674 -0.111639 0.280597
0.051657 -0.110889 0.278691
0.052569 -0.110029 0.276505
0.053580 -0.109413 0.274932
0.054616 -0.108876 0.273555
0.055549 -0.108163 0.271736
0.056567 -0.107644 0.270401
0.057676 -0.107317 0.269548
0.058646 -0.106751 0.268091
0.059691 -0.106344 0.267032
0.060695 -0.105881 0.265830
0.061696 -0.105431 0.264662
0.062753 -0.105094 0.263770
0.063647 -0.104502 0.262239
0.064575 -0.103987 0.260897
0.065616 -0.103670 0.260052
0.066555 -0.103208 0.258837
0.067372 -0.102576 0.257196
0.068422 -0.102314 0.256478
0.069377 -0.101923 0.255435
0.070286 -0.101478 0.254252
0.071277 -0.101164 0.253395
0.072246 -0.100830 0.252486
0.073228 -0.100526 0.251645
0.074206 -0.100225 0.250810
0.075132 -0.099864 0.249823
0.076205 -0.099708 0.249342
0.077211 -0.099471 0.248653
0.078233 -0.099259 0.248025
0.079230 -0.099024 0.247334
0.080364 -0.098963 0.247074
0.081466 -0.098865 0.246716
0.082294 -0.098443 0.245544
0.083245 -0.098178 0.244758
0.084081 -0.097785 0.243650
0.084940 -0.097431 0.242632
0.085844 -0.097136 0.241758
0.086564 -0.096644 0.240387
0.087418 -0.096312 0.239408
0.088245 -0.095960 0.238375
0.088961 -0.095497 0.237061
0.089670 -0.095038 0.235750
0.090157 -0.094359 0.233888
0.090751 -0.093807 0.232336
0.091119 -0.093037 0.230240
0.091681 -0.092483 0.228671
0.091941 -0.091639 0.226381
0.092194 -0.090809 0.224120
0.092522 -0.090071 0.222082
0.092754 -0.089258 0.219853
0.093005 -0.088481 0.217709
0.092977 -0.087459 0.214956
0.093085 -0.086586 0.212566
0.093446 -0.085966 0.210790
0.093625 -0.085193 0.208633
0.093939 -0.084558 0.206808
0.094457 -0.084118 0.205453
0.094966 -0.083679 0.204093
0.095589 -0.083349 0.202989
0.096267 -0.083073 0.202006
0.096973 -0.082827 0.201085
0.097967 -0.082829 0.200757
0.098822 -0.082715 0.200132
0.099867 -0.082760 0.199880
0.100755 -0.082676 0.199301
0.101601 -0.082558 0.198627
0.102449 -0.082444 0.197948
0.103321 -0.082352 0.197306
0.104377 -0.082407 0.196998
0.105125 -0.082220 0.196096
0.105824 -0.081998 0.195095
0.106846 -0.082027 0.194673
-1.604084 -1.259547 3.097333
-1.617636 -1.282240 3.158723
-1.581853 -1.265890 3.123747
-1.574002 -1.271794 3.143441
-1.555502 -1.269127 3.141766
-1.538968 -1.268028 3.143772
-1.496822 -1.245598 3.092622
-1.444193 -1.264874 3.160617
-1.423508 -1.259987 3.151953
-1.411134 -1.262433 3.161484
-1.402457 -1.268276 3.179407
-1.410228 -1.289286 3.235284
-1.395925 -1.290358 3.241055
-1.385650 -1.295222 3.256234
-1.377641 -1.302339 3.276980
-1.370968 -1.310899 3.301270
-1.380032 -1.334881 3.364344
-1.365747 -1.336577 3.371187
-0.377661 -0.628092 1.602750
-0.370362 -0.628528 1.603949
-0.363696 -0.630078 1.607980
-0.354758 -0.627674 1.601906
-0.349790 -0.632345 1.613874
-0.343947 -0.635606 1.622233
-0.337487 -0.637849 1.627984
-0.332557 -0.643158 1.641549
-0.368148 -0.785075 2.003710
-0.358964 -0.785655 2.005149
-0.351735 -0.790661 2.017874
-0.342572 -0.791477 2.019899
-0.341548 -0.811684 2.071398
-0.332003 -0.812238 2.072733
-0.325600 -0.820744 2.094355
-0.315925 -0.821279 2.095627
-0.306232 -0.821801 2.096861
-0.295522 -0.819537 2.090983
-0.286434 -0.821777 2.096587
-0.277234 -0.823839 2.101736
-0.267612 -0.824759 2.103966
-0.257599 -0.824500 2.103184
-0.248512 -0.827303 2.110209
-0.239459 -0.830461 2.118139
-0.229037 -0.828941 2.114132
-0.219794 -0.831744 2.121149
-0.209974 -0.832528 2.123019
-0.200374 -0.834313 2.127436
-0.190939 -0.837009 2.134176
-0.182824 -0.846118 2.157267
-0.021209 -0.117875 0.300479
-0.019654 -0.117070 0.298408
-0.018048 -0.115816 0.295196
-0.016825 -0.117017 0.298237
-0.015300 -0.116142 0.295990
-0.013845 -0.115677 0.294788
-0.012399 -0.115199 0.293553
-0.010946 -0.114520 0.291807
-0.009569 -0.114562 0.291898
-0.008199 -0.114712 0.292265
-0.006855 -0.115365 0.293915
-0.005445 -0.114939 0.292815
-0.004054 -0.114784 0.292407
-0.002667 -0.114655 0.292065
-0.001278 -0.114067 0.290554
0.000097 -0.114035 0.290460
0.001474 -0.114168 0.290786
0.002844 -0.113918 0.290137
0.004227 -0.114179 0.290791
0.005582 -0.113739 0.289660
0.006961 -0.113854 0.289942
0.008378 -0.114454 0.291461
0.009760 -0.114481 0.291521
0.011181 -0.114891 0.292555
0.012613 -0.115322 0.293646
0.014080 -0.115947 0.295228
0.015479 -0.115947 0.295220
0.016919 -0.116235 0.295945
0.018356 -0.116453 0.296493
0.019877 -0.117143 0.298243
0.021274 -0.117049 0.297997
0.022829 -0.117787 0.299870
0.024564 -0.119313 0.303747
0.026041 -0.119485 0.304178
0.027664 -0.120275 0.306181
0.029308 -0.121071 0.308203
0.030863 -0.121441 0.309137
0.032387 -0.121661 0.309689
0.033579 -0.120670 0.307160
0.034395 -0.118464 0.301537
0.035513 -0.117435 0.298909
0.036745 -0.116846 0.297402
0.038044 -0.116505 0.296526
0.039347 -0.116200 0.295739
0.040581 -0.115718 0.294505
0.041881 -0.115452 0.293817
0.043074 -0.114916 0.292442
0.044232 -0.114326 0.290928
0.045373 -0.113724 0.289384
0.046423 -0.112939 0.287373
0.047503 -0.112270 0.285656
0.048414 -0.111247 0.283038
0.049481 -0.110631 0.281454
0.050496 -0.109933 0.279658
0.051495 -0.109236 0.277868
0.052512 -0.108611 0.276257
0.053493 -0.107943 0.274535
0.054544 -0.107447 0.273249
0.055553 -0.106891 0.271809
0.056579 -0.106393 0.270516
0.057663 -0.106022 0.269544
0.058644 -0.105485 0.268147
0.059688 -0.105079 0.267082
0.060738 -0.104700 0.266084
0.061701 -0.104191 0.264751
0.062722 -0.103798 0.263713
0.063707 -0.103361 0.262561
0.064613 -0.102816 0.261129
0.065630 -0.102464 0.260188
0.066609 -0.102068 0.259132
0.067435 -0.101456 0.257523
0.068368 -0.101023 0.256368
0.069397 -0.100743 0.255599
0.070313 -0.100314 0.254447
0.071295 -0.099990 0.253558
0.072263 -0.099659 0.252648
0.073245 -0.099358 0.251811
0.074312 -0.099179 0.251280
0.075223 -0.098800 0.250239
0.076304 -0.098654 0.249784
0.077357 -0.098476 0.249242
0.078337 -0.098213 0.248481
0.079448 -0.098119 0.248144
0.080531 -0.097993 0.247721
0.081449 -0.097673 0.246804
0.082446 -0.097455 0.246138
0.083390 -0.097183 0.245331
0.084170 -0.096728 0.244059
0.085124 -0.096483 0.243311
0.086003 -0.096161 0.242363
0.086850 -0.095813 0.241343
0.087733 -0.095512 0.240439
0.088523 -0.095120 0.239297
0.089370 -0.094798 0.238327
0.090017 -0.094275 0.236846
0.090715 -0.093817 0.235523
0.091196 -0.093149 0.233666
0.091557 -0.092376 0.231543
0.092062 -0.091765 0.229820
0.092294 -0.090900 0.227455
0.092556 -0.090084 0.225209
0.092718 -0.089192 0.222766
0.092885 -0.088324 0.220381
0.092964 -0.087393 0.217834
0.093090 -0.086527 0.215443
0.093287 -0.085745 0.213256
0.093317 -0.084829 0.210732
0.093697 -0.084246 0.209030
0.093774 -0.083408 0.206688
0.094271 -0.082957 0.205298
0.094899 -0.082628 0.204204
0.095362 -0.082165 0.202768
0.095974 -0.081838 0.201659
0.096820 -0.081715 0.201044
0.097638 -0.081571 0.200364
0.098669 -0.081607 0.200113
0.099706 -0.081646 0.199857
0.100589 -0.081560 0.199279
0.101450 -0.081458 0.198650
0.102492 -0.081501 0.198359
0.103232 -0.081305 0.197473
0.104179 -0.081275 0.196972
0.105307 -0.081384 0.196792
0.105820 -0.081022 0.195454
0.106785 -0.081008 0.194940
-1.641329 -1.273193 3.173666
-1.626782 -1.273883 3.180871
-1.610978 -1.273593 3.185425
-1.570665 -1.253738 3.140756
-1.543205 -1.243855 3.120762
-1.536084 -1.250334 3.141622
-1.493034 -1.227408 3.088360
-1.508940 -1.252977 3.156955
-1.478941 -1.266335 3.202536
-1.446914 -1.251919 3.169699
-1.415485 -1.237722 3.137190
-1.406633 -1.243175 3.154324
-1.399136 -1.249958 3.174728
-1.388919 -1.254435 3.189171
-1.387517 -1.267062 3.224247
-1.382969 -1.277069 3.252582
-1.376226 -1.285254 3.276197
-1.384084 -1.307421 3.335395
-1.386840 -1.325228 3.383435
-1.371989 -1.326433 3.389013
-0.373448 -0.613553 1.585013
-0.370358 -0.620897 1.604054
-0.362585 -0.620533 1.603169
-0.353972 -0.618685 1.598437
-0.348482 -0.622334 1.607896
-0.342686 -0.625589 1.616323
-0.336426 -0.628126 1.622885
-0.333074 -0.636338 1.644100
-0.270513 -0.823540 2.126383
-0.260621 -0.824002 2.127439
-0.250713 -0.824449 2.128456
-0.240636 -0.824359 2.128083
-0.230456 -0.823894 2.126740
-0.220869 -0.825601 2.131004
-0.210902 -0.825990 2.131863
-0.202404 -0.832456 2.148407
-0.192337 -0.832816 2.149192
-0.183167 -0.837320 2.160668
-0.021342 -0.117152 0.302246
-0.019692 -0.115852 0.298873
-0.017919 -0.113572 0.292973
-0.016769 -0.115184 0.297111
-0.015231 -0.114188 0.294523
-0.013798 -0.113860 0.293662
-0.012319 -0.113026 0.291494
-0.010878 -0.112393 0.289843
-0.009504 -0.112348 0.289712
-0.008146 -0.112527 0.290157
-0.006811 -0.113165 0.291787
-0.005431 -0.113171 0.291790
-0.004051 -0.113185 0.291810
-0.002667 -0.113066 0.291491
-0.001281 -0.112538 0.290116
0.000093 -0.113102 0.291557
0.001473 -0.113137 0.291636
0.002864 -0.113524 0.292621
0.004255 -0.113687 0.293031
0.005644 -0.113714 0.293089
0.007052 -0.114040 0.293921
0.008412 -0.113602 0.292782
0.009803 -0.113653 0.292905
0.011186 -0.113608 0.292781
0.012616 -0.113997 0.293774
0.014120 -0.114913 0.296128
0.015554 -0.115143 0.296714
0.017011 -0.115492 0.297605
0.018385 -0.115262 0.297007
0.019937 -0.116104 0.299171
0.021410 -0.116407 0.299946
0.022966 -0.117093 0.301707
0.024711 -0.118607 0.305602
0.026238 -0.118964 0.306516
0.027883 -0.119787 0.308632
0.029583 -0.120757 0.311125
0.031344 -0.121869 0.313986
0.032820 -0.121820 0.313854
0.033204 -0.117903 0.303755
0.034078 -0.115973 0.298778
0.035397 -0.115656 0.297956
0.036692 -0.115285 0.296995
0.038035 -0.115086 0.296476
0.039309 -0.114702 0.295479
0.040539 -0.114219 0.294226
0.041822 -0.113911 0.293426
0.043005 -0.113362 0.292004
0.044127 -0.112691 0.290264
0.045311 -0.112213 0.289024
0.046371 -0.111464 0.287082
0.047468 -0.110845 0.285477
0.048352 -0.109775 0.282709
0.049358 -0.109035 0.280788
0.050446 -0.108508 0.279416
0.051406 -0.107741 0.277423
0.052434 -0.107150 0.275885
0.053459 -0.106584 0.274407
0.054497 -0.106068 0.273057
0.055537 -0.105580 0.271778
0.056629 -0.105211 0.270805
0.057611 -0.104659 0.269358
0.058611 -0.104162 0.268050
0.059656 -0.103764 0.266996
0.060617 -0.103240 0.265615
0.061661 -0.102875 0.264642
0.062618 -0.102384 0.263342
0.063622 -0.101986 0.262278
0.064610 -0.101579 0.261190
0.065639 -0.101250 0.260300
0.066636 -0.100884 0.259311
0.067590 -0.100468 0.258192
0.068557 -0.100086 0.257157
0.069488 -0.099665 0.256020
0.070498 -0.099371 0.255204
0.071495 -0.099069 0.254365
0.072479 -0.098758 0.253502
0.073442 -0.098429 0.252586
0.074439 -0.098156 0.251812
0.075480 -0.097948 0.251201
0.076433 -0.097635 0.250315
0.077635 -0.097645 0.250255
0.078696 -0.097478 0.249737
0.079669 -0.097210 0.248954
0.080838 -0.097186 0.248793
0.081858 -0.096985 0.248174
0.082661 -0.096537 0.246918
0.083724 -0.096400 0.246452
0.084515 -0.095959 0.245203
0.085353 -0.095582 0.244115
0.086325 -0.095363 0.243424
0.087088 -0.094921 0.242161
0.087935 -0.094583 0.241155
0.088720 -0.094187 0.239996
0.089644 -0.093947 0.239228
0.090376 -0.093514 0.237966
0.090886 -0.092865 0.236147
0.091422 -0.092258 0.234429
0.091887 -0.091596 0.232565
0.092398 -0.090994 0.230851
0.092676 -0.090180 0.228591
0.092876 -0.089310 0.226187
0.093001 -0.088390 0.223650
0.093085 -0.087451 0.221063
0.093310 -0.086665 0.218856
0.093604 -0.085959 0.216848
0.093827 -0.085205 0.214712
0.093531 -0.084002 0.211439
0.093893 -0.083409 0.209698
0.093861 -0.082483 0.207114
0.094436 -0.082104 0.205896
0.094992 -0.081716 0.204649
0.095540 -0.081329 0.203397
0.096112 -0.080971 0.202207
0.096860 -0.080767 0.201391
0.097675 -0.080622 0.200712
0.098651 -0.080612 0.200356
0.099505 -0.080503 0.199743
0.100557 -0.080555 0.199514
0.101374 -0.080418 0.198805
0.102316 -0.080384 0.198333
0.103172 -0.080282 0.197682
0.103904 -0.080086 0.196784
0.105009 -0.080180 0.196579
0.105811 -0.080042 0.195791
0.106441 -0.079778 0.194677
-1.595125 -1.222195 3.088467
-1.579808 -1.221946 3.093044
-1.577429 -1.231795 3.123021
-1.566144 -1.234816 3.135544
-1.550599 -1.234506 3.139431
-1.533679 -1.233086 3.140305
-1.525612 -1.238827 3.159257
-1.509854 -1.238379 3.162273
-1.508881 -1.250172 3.196419
-1.494661 -1.251122 3.202722
-1.479938 -1.251667 3.207838
-1.459096 -1.246995 3.199423
-1.452694 -1.254698 3.222620
-1.437955 -1.255290 3.227435
-1.418311 -1.251568 3.221013
-1.405262 -1.253648 3.229390
-1.391609 -1.255232 3.236367
-1.385787 -1.263995 3.261756
-1.377441 -1.270630 3.281566
-1.377605 -1.285360 3.322208
-1.382930 -1.305302 3.376278
-0.380786 -0.617930 1.616268
-0.371388 -0.614980 1.608602
-0.364148 -0.615555 1.610145
-0.353622 -0.610484 1.596905
-0.346963 -0.612012 1.600915
-0.340188 -0.613401 1.604548
-0.335664 -0.619005 1.619199
-0.331051 -0.624703 1.634082
-0.323611 -0.625210 1.635378
-0.230972 -0.815537 2.130972
-0.221016 -0.815941 2.131873
-0.021073 -0.114238 0.298329
-0.019663 -0.114243 0.298322
-0.017880 -0.111909 0.292207
-0.016674 -0.113102 0.295302
-0.015241 -0.112833 0.294582
-0.013771 -0.112207 0.292929
-0.012296 -0.111400 0.290804
-0.010877 -0.110959 0.289635
-0.009483 -0.110679 0.288888
-0.008105 -0.110528 0.288479
-0.006800 -0.111512 0.291031
-0.005439 -0.111856 0.291914
-0.004048 -0.111601 0.291235
-0.002676 -0.111890 0.291974
-0.001293 -0.111795 0.291714
0.000088 -0.111855 0.291857
0.001474 -0.112191 0.292722
0.002871 -0.112621 0.293834
0.004275 -0.112945 0.294669
0.005671 -0.112950 0.294672
0.007085 -0.113238 0.295413
0.008451 -0.112802 0.294267
0.009883 -0.113233 0.295383
0.011301 -0.113425 0.295874
0.012736 -0.113722 0.296642
0.014232 -0.114449 0.298533
0.015653 -0.114499 0.298655
0.017094 -0.114670 0.299096
0.018563 -0.114987 0.299917
0.020075 -0.115509 0.301274
0.021700 -0.116571 0.304039
0.023139 -0.116560 0.304006
0.024733 -0.117285 0.305891
0.026336 -0.117969 0.307673
0.027721 -0.117658 0.306856
0.029495 -0.118947 0.310215
0.031081 -0.119388 0.311362
0.031929 -0.117086 0.305354
0.032748 -0.114881 0.299599
0.033934 -0.114092 0.297538
0.035361 -0.114144 0.297670
0.036649 -0.113760 0.296663
0.037970 -0.113502 0.295988
0.039232 -0.113094 0.294917
0.040487 -0.112694 0.293869
0.041743 -0.112324 0.292898
0.042885 -0.111678 0.291209
0.044014 -0.111041 0.289539
0.045109 -0.110361 0.287758
0.046269 -0.109873 0.286478
0.047338 -0.109203 0.284720
0.048334 -0.108407 0.282634
0.049298 -0.107583 0.280476
0.050342 -0.106974 0.278875
0.051393 -0.106410 0.277390
0.052376 -0.105734 0.275614
0.053383 -0.105142 0.274053
0.054436 -0.104665 0.272793
0.055493 -0.104217 0.271605
0.056519 -0.103732 0.270320
0.057536 -0.103254 0.269050
0.058552 -0.102794 0.267826
0.059574 -0.102364 0.266680
0.060607 -0.101971 0.265627
0.061632 -0.101579 0.264574
0.062600 -0.101113 0.263325
0.063661 -0.100811 0.262504
0.064744 -0.100553 0.261794
0.065783 -0.100241 0.260940
0.066739 -0.099813 0.259784
0.067668 -0.099364 0.258566
0.068711 -0.099093 0.257811
0.069703 -0.098760 0.256894
0.070679 -0.098416 0.255943
0.071693 -0.098137 0.255157
0.072677 -0.097825 0.254283
0.073620 -0.097469 0.253293
0.074636 -0.097220 0.252575
0.075633 -0.096955 0.251813
0.076645 -0.096717 0.251116
0.077666 -0.096496 0.250461
0.078704 -0.096304 0.249875
0.079714 -0.096084 0.249213
0.080681 -0.095818 0.248428
0.081771 -0.095705 0.248035
0.082714 -0.095425 0.247204
0.083617 -0.095107 0.246270
0.084543 -0.094824 0.245421
0.085402 -0.094474 0.244396
0.086365 -0.094247 0.243682
0.087203 -0.093892 0.242632
0.088050 -0.093555 0.241623
0.088921 -0.093253 0.240697
0.089808 -0.092975 0.239829
0.090616 -0.092623 0.238765
0.091305 -0.092159 0.237406
0.091765 -0.091479 0.235486
0.092297 -0.090886 0.233784
0.092663 -0.090145 0.231697
0.092952 -0.089349 0.229461
0.093189 -0.088522 0.227144
0.093370 -0.087661 0.224734
0.093273 -0.086562 0.221709
0.093523 -0.085807 0.219561
0.093966 -0.085243 0.217896
0.093814 -0.084158 0.214895
0.093855 -0.083268 0.212388
0.093697 -0.082223 0.209481
0.093974 -0.081577 0.207587
0.094309 -0.080996 0.205850
0.094888 -0.080634 0.204661
0.095521 -0.080325 0.203599
0.096120 -0.079994 0.202473
0.096796 -0.079732 0.201513
0.097669 -0.079637 0.200963
0.098453 -0.079472 0.200225
0.099444 -0.079476 0.199898
0.100383 -0.079437 0.199453
0.101427 -0.079482 0.199204
0.102439 -0.079502 0.198876
0.103166 -0.079301 0.197983
0.104059 -0.079231 0.197400
0.105259 -0.079394 0.197381
0.105924 -0.079153 0.196342
0.106658 -0.078968 0.195426
-1.625346 -1.229910 3.151056
-1.575208 -1.203281 3.087905
-1.584884 -1.222272 3.141595
-1.565966 -1.219367 3.138879
-1.552867 -1.220982 3.147609
-1.538038 -1.221258 3.152711
-1.523434 -1.221720 3.158126
-1.510436 -1.223495 3.166772
-1.497357 -1.225242 3.175196
-1.484991 -1.227615 3.185097
-1.478412 -1.234873 3.207551
-1.462781 -1.234644 3.210431
-1.445926 -1.233368 3.210440
-1.436559 -1.238522 3.227058
-1.420324 -1.237803 3.228253
-1.407229 -1.239836 3.236499
-1.399706 -1.246880 3.257719
-1.396129 -1.257638 3.288559
-1.389185 -1.265574 3.311940
-1.385991 -1.277148 3.344768
-1.384156 -1.290259 3.381554
-0.381344 -0.611146 1.618714
-0.371472 -0.607476 1.609025
-0.365581 -0.610298 1.616519
-0.352804 -0.601501 1.593226
-0.345753 -0.602297 1.595328
-0.340649 -0.606597 1.606701
-0.334380 -0.608970 1.612960
-0.329179 -0.613445 1.624776
-0.322510 -0.615334 1.629734
-0.315083 -0.615833 1.630998
-0.021202 -0.113491 0.300040
-0.019751 -0.113307 0.299533
-0.018013 -0.111322 0.294264
-0.016737 -0.112093 0.296283
-0.015257 -0.111525 0.294761
-0.013776 -0.110824 0.292888
-0.012308 -0.110087 0.290924
-0.010880 -0.109572 0.289543
-0.009469 -0.109099 0.288276
-0.008130 -0.109434 0.289146
-0.006814 -0.110299 0.291416
-0.005459 -0.110793 0.292706
-0.004100 -0.111503 0.294567
-0.002710 -0.111710 0.295098
-0.001315 -0.111919 0.295637
0.000085 -0.112015 0.295879
0.001492 -0.112476 0.297083
0.002905 -0.112702 0.297669
0.004334 -0.113212 0.299006
0.005752 -0.113252 0.299103
0.007169 -0.113255 0.299100
0.008569 -0.113031 0.298499
0.009985 -0.113044 0.298526
0.011433 -0.113382 0.299410
0.012863 -0.113475 0.299649
0.014286 -0.113500 0.299710
0.015770 -0.113961 0.300923
0.017200 -0.113989 0.300991
0.018697 -0.114417 0.302117
0.020243 -0.115068 0.303832
0.021742 -0.115378 0.304646
0.023217 -0.115534 0.305054
0.024792 -0.116135 0.306637
0.026434 -0.116969 0.308838
0.027739 -0.116302 0.307075
0.029545 -0.117694 0.310748
0.031204 -0.118399 0.312605
0.031817 -0.115252 0.304295
0.032656 -0.113157 0.298761
0.033992 -0.112890 0.298055
0.035404 -0.112885 0.298039
0.036673 -0.112441 0.296864
0.037948 -0.112049 0.295827
0.039241 -0.111734 0.294993
0.040508 -0.111373 0.294035
0.041751 -0.110969 0.292968
0.042936 -0.110441 0.291568
0.044033 -0.109728 0.289682
0.045188 -0.109199 0.288278
0.046252 -0.108486 0.286391
0.047344 -0.107879 0.284780
0.048296 -0.106992 0.282432
0.049288 -0.106243 0.280444
0.050254 -0.105477 0.278413
0.051304 -0.104922 0.276937
0.052379 -0.104443 0.275660
0.053394 -0.103873 0.274142
0.054421 -0.103351 0.272748
0.055458 -0.102873 0.271469
0.056582 -0.102574 0.270663
0.057590 -0.102082 0.269343
0.058560 -0.101546 0.267907
0.059583 -0.101121 0.266764
0.060586 -0.100682 0.265579
0.061615 -0.100304 0.264554
0.062612 -0.099890 0.263430
0.063619 -0.099505 0.262383
0.064759 -0.099341 0.261915
0.065766 -0.098982 0.260931
0.066544 -0.098299 0.259089
0.067601 -0.098045 0.258377
0.068671 -0.097819 0.257735
0.069619 -0.097428 0.256656
0.070680 -0.097207 0.256024
0.071692 -0.096928 0.255234
0.072733 -0.096697 0.254564
0.073764 -0.096459 0.253877
0.074804 -0.096240 0.253234
0.075753 -0.095914 0.252305
0.076780 -0.095695 0.251654
0.077784 -0.095455 0.250945
0.078834 -0.095276 0.250392
0.079816 -0.095023 0.249642
0.080825 -0.094808 0.248986
0.081845 -0.094612 0.248374
0.082785 -0.094331 0.247535
0.083751 -0.094087 0.246790
0.084692 -0.093822 0.245984
0.085568 -0.093493 0.245003
0.086515 -0.093250 0.244244
0.087368 -0.092912 0.243231
0.088267 -0.092632 0.242365
0.089082 -0.092272 0.241284
0.089967 -0.091993 0.240410
0.090824 -0.091693 0.239473
0.091606 -0.091325 0.238353
0.092101 -0.090683 0.236516
0.092523 -0.089987 0.234529
0.092835 -0.089202 0.232306
0.093050 -0.088343 0.229886
0.093205 -0.087447 0.227367
0.093343 -0.086557 0.224856
0.093255 -0.085480 0.221857
0.093669 -0.084883 0.220100
0.093942 -0.084172 0.218043
0.094175 -0.083442 0.215927
0.094013 -0.082381 0.212953
0.093930 -0.081413 0.210214
0.094278 -0.080834 0.208477
0.094640 -0.080279 0.206794
0.095108 -0.079826 0.205364
0.095732 -0.079512 0.204284
0.096310 -0.079165 0.203112
0.096945 -0.078872 0.202069
0.097787 -0.078752 0.201459
0.098629 -0.078634 0.200844
0.099595 -0.078616 0.200469
0.100496 -0.078548 0.199955
0.101505 -0.078565 0.199643
0.102455 -0.078535 0.199200
0.103368 -0.078479 0.198673
0.104024 -0.078230 0.197644
0.105130 -0.078320 0.197459
0.105897 -0.078159 0.196621
0.106746 -0.078061 0.195927
-1.605706 -1.199796 3.116864
-1.568039 -1.182768 3.077567
-1.571975 -1.197099 3.119657
-1.566803 -1.204704 3.144120
-1.550536 -1.203847 3.146338
-1.537884 -1.205808 3.155752
-1.528652 -1.210518 3.172211
-1.515474 -1.212168 3.180509
-1.500213 -1.212170 3.184328
-1.493933 -1.219505 3.207277
-1.478148 -1.219154 3.209884
-1.463907 -1.220085 3.215721
-1.450747 -1.221947 3.223879
-1.434652 -1.221351 3.225420
-1.422866 -1.224453 3.236599
-1.407778 -1.224751 3.240248
-1.396980 -1.228830 3.253787
-1.393653 -1.239647 3.285079
-1.392080 -1.252290 3.321140
-0.379869 -0.601124 1.612500
-0.371170 -0.599345 1.607741
-0.364102 -0.600182 1.609986
-0.353705 -0.595449 1.597279
-0.345227 -0.593814 1.592871
-0.338388 -0.594986 1.595982
-0.332658 -0.598208 1.604582
-0.325926 -0.599737 1.608631
-0.319232 -0.601411 1.613057
-0.313639 -0.605291 1.623394
-0.307828 -0.608937 1.633092
-0.301584 -0.611890 1.640926
-0.295338 -0.614995 1.649158
-0.290011 -0.620235 1.663110
-0.282379 -0.620700 1.664249
-0.021230 -0.112196 0.300323
-0.019790 -0.112083 0.299997
-0.018001 -0.109825 0.293931
-0.016758 -0.110803 0.296529
-0.015291 -0.110338 0.295264
-0.013759 -0.109265 0.292373
-0.012327 -0.108836 0.291204
-0.010918 -0.108529 0.290367
-0.009512 -0.108168 0.289382
-0.008160 -0.108403 0.289994
-0.006862 -0.109602 0.293186
-0.005481 -0.109752 0.293570
-0.004102 -0.110032 0.294304
-0.002733 -0.111037 0.296979
-0.001321 -0.110615 0.295837
0.000080 -0.110623 0.295844
0.001488 -0.111143 0.297224
0.002918 -0.112004 0.299515
0.004346 -0.112224 0.300093
0.005793 -0.112711 0.301384
0.007262 -0.113350 0.303084
0.008679 -0.113100 0.302408
0.010146 -0.113486 0.303432
0.011563 -0.113280 0.302873
0.012963 -0.112967 0.302030
0.014460 -0.113483 0.303406
0.015867 -0.113265 0.302818
0.017349 -0.113564 0.303614
0.018756 -0.113370 0.303091
0.020254 -0.113714 0.304007
0.021659 -0.113526 0.303501
0.023046 -0.113271 0.302819
0.024693 -0.114247 0.305426
0.026270 -0.114809 0.306927
0.027597 -0.114278 0.305507
0.029461 -0.115910 0.309869
0.030792 -0.115393 0.308486
0.031495 -0.112674 0.301216
0.032603 -0.111578 0.298286
0.033907 -0.111214 0.297312
0.035278 -0.111091 0.296982
0.036614 -0.110871 0.296394
0.037907 -0.110541 0.295511
0.039185 -0.110194 0.294585
0.040487 -0.109933 0.293885
0.041734 -0.109547 0.292851
0.042915 -0.109019 0.291439
0.044045 -0.108397 0.289772
0.045120 -0.107681 0.287855
0.046238 -0.107106 0.286313
0.047346 -0.106542 0.284801
0.048316 -0.105709 0.282569
0.049143 -0.104614 0.279637
0.050145 -0.103940 0.277827
0.051182 -0.103372 0.276300
0.052221 -0.102834 0.274851
0.053255 -0.102314 0.273450
0.054249 -0.101744 0.271916
0.055404 -0.101495 0.271236
0.056470 -0.101098 0.270159
0.057503 -0.100661 0.268973
0.058538 -0.100244 0.267841
0.059503 -0.099731 0.266449
0.060576 -0.099415 0.265581
0.061632 -0.099083 0.264670
0.062599 -0.098626 0.263422
0.063655 -0.098323 0.262584
0.064731 -0.098062 0.261853
0.065714 -0.097673 0.260782
0.066640 -0.097215 0.259522
0.067599 -0.096821 0.258430
0.068715 -0.096662 0.257964
0.069728 -0.096366 0.257127
0.070722 -0.096054 0.256247
0.071770 -0.095825 0.255583
0.072842 -0.095635 0.255023
0.073886 -0.095416 0.254378
0.074892 -0.095154 0.253618
0.075919 -0.094927 0.252947
0.076857 -0.094597 0.251998
0.077886 -0.094389 0.251370
0.079013 -0.094303 0.251062
0.079968 -0.094017 0.250218
0.081034 -0.093869 0.249736
0.082039 -0.093655 0.249076
0.082941 -0.093331 0.248118
0.083893 -0.093073 0.247328
0.084876 -0.092854 0.246639
0.085774 -0.092550 0.245720
0.086808 -0.092399 0.245202
0.087702 -0.092105 0.244298
0.088602 -0.091825 0.243426
0.089384 -0.091431 0.242248
0.090356 -0.091239 0.241598
0.091121 -0.090846 0.240410
0.091735 -0.090314 0.238848
0.092221 -0.089670 0.236988
0.092674 -0.089010 0.235077
0.092940 -0.088189 0.232737
0.093119 -0.087306 0.230229
0.093029 -0.086194 0.227115
0.093335 -0.085471 0.225018
0.093598 -0.084725 0.222859
0.093733 -0.083882 0.220439
0.093956 -0.083135 0.218267
0.094343 -0.082548 0.216510
0.094430 -0.081715 0.214100
0.094395 -0.080796 0.211461
0.094513 -0.080026 0.209207
0.094826 -0.079435 0.207416
0.095185 -0.078895 0.205750
0.095848 -0.078615 0.204756
0.096442 -0.078286 0.203624
0.097110 -0.078022 0.202652
0.097961 -0.077909 0.202063
0.098909 -0.077874 0.201666
0.099663 -0.077689 0.200866
0.100697 -0.077724 0.200623
0.101598 -0.077657 0.200102
0.102558 -0.077634 0.199684
0.103601 -0.077675 0.199412
0.104249 -0.077422 0.198372
0.105293 -0.077464 0.198075
0.106272 -0.077458 0.197637
0.106947 -0.077233 0.196624
-1.618804 -1.183090 3.111689
-1.604720 -1.183819 3.118699
-1.586159 -1.181230 3.116758
-1.572853 -1.182543 3.124920
-1.563298 -1.186732 3.140516
-1.550672 -1.188650 3.149945
-1.539422 -1.191672 3.162143
-1.528554 -1.195055 3.175156
-1.518302 -1.198995 3.189505
-1.503433 -1.199332 3.194131
-1.490709 -1.201407 3.203237
-1.479215 -1.204527 3.214998
-1.466925 -1.207060 3.225064
-1.456731 -1.211391 3.239815
-1.443819 -1.213532 3.248588
-1.427411 -1.212750 3.249410
-1.411134 -1.212066 3.250363
-1.398713 -1.214715 3.260138
-1.394974 -1.225050 3.290451
-1.393279 -1.237436 3.326201
-0.380426 -0.594339 1.614882
-0.372221 -0.593387 1.612292
-0.363528 -0.591603 1.607427
-0.353556 -0.587617 1.596567
-0.344642 -0.585253 1.590107
-0.337930 -0.586609 1.593742
-0.332044 -0.589495 1.601521
-0.326025 -0.592273 1.608999
-0.318508 -0.592398 1.609262
-0.312578 -0.595553 1.617746
-0.306907 -0.599372 1.628026
-0.299303 -0.599516 1.628316
-0.293034 -0.602415 1.636080
-0.286442 -0.604787 1.642411
-0.280022 -0.607665 1.650106
-0.274599 -0.612935 1.664290
-0.267682 -0.615083 1.669990
-0.259301 -0.613897 1.666634
-0.251611 -0.614324 1.667655
-0.021320 -0.111219 0.301471
-0.019832 -0.110873 0.300509
-0.018040 -0.108645 0.294447
-0.016770 -0.109443 0.296587
-0.015347 -0.109307 0.296197
-0.013771 -0.107937 0.292465
-0.012357 -0.107680 0.291749
-0.010956 -0.107489 0.291213
-0.009598 -0.107710 0.291793
-0.008219 -0.107754 0.291896
-0.006862 -0.108150 0.292950
-0.005510 -0.108840 0.294804
-0.004116 -0.108908 0.294971
-0.002730 -0.109333 0.296108
-0.001328 -0.109420 0.296331
0.000075 -0.109261 0.295889
0.001479 -0.109436 0.296349
0.002901 -0.110080 0.298081
0.004340 -0.110775 0.299953
0.005788 -0.111282 0.301316
0.007230 -0.111498 0.301893
0.008725 -0.112322 0.304116
0.010168 -0.112342 0.304164
0.011609 -0.112331 0.304127
0.013032 -0.112177 0.303706
0.014525 -0.112589 0.304816
0.015930 -0.112304 0.304040
0.017343 -0.112122 0.303543
0.018773 -0.112067 0.303393
0.020197 -0.111984 0.303165
0.021576 -0.111680 0.302340
0.023189 -0.112551 0.304698
0.024722 -0.112953 0.305786
0.026061 -0.112475 0.304492
0.027575 -0.112760 0.305264
0.029122 -0.113147 0.306312
0.030234 -0.111885 0.302896
0.031518 -0.111345 0.301436
0.032669 -0.110402 0.298885
0.034025 -0.110203 0.298347
0.035319 -0.109826 0.297327
0.036657 -0.109608 0.296740
0.037914 -0.109174 0.295567
0.039217 -0.108900 0.294824
0.040443 -0.108436 0.293571
0.041651 -0.107958 0.292276
0.042823 -0.107419 0.290817
0.043930 -0.106754 0.289017
0.044985 -0.106010 0.287002
0.046069 -0.105373 0.285275
0.047120 -0.104701 0.283453
0.048142 -0.104002 0.281558
0.049055 -0.103112 0.279145
0.050014 -0.102365 0.277117
0.051183 -0.102072 0.276320
0.052205 -0.101509 0.274787
0.053239 -0.100996 0.273391
0.054281 -0.100522 0.272097
0.055456 -0.100311 0.271515
0.056527 -0.099924 0.270455
0.057510 -0.099404 0.269031
0.058507 -0.098929 0.267731
0.059445 -0.098377 0.266220
0.060490 -0.098021 0.265236
0.061569 -0.097735 0.264441
0.062545 -0.097298 0.263233
0.063581 -0.096971 0.262324
0.064666 -0.096728 0.261638
0.065749 -0.096493 0.260971
0.066743 -0.096138 0.259977
0.067849 -0.095954 0.259444
0.068946 -0.095763 0.258888
0.070062 -0.095607 0.258424
0.071086 -0.095331 0.257633
0.072113 -0.095069 0.256876
0.073142 -0.094818 0.256147
0.074105 -0.094491 0.255207
0.075090 -0.094202 0.254368
0.076128 -0.093987 0.253725
0.077094 -0.093692 0.252863
0.078037 -0.093378 0.251945
0.079130 -0.093251 0.251527
0.080106 -0.092992 0.250749
0.081058 -0.092712 0.249911
0.081986 -0.092414 0.249019
0.082854 -0.092057 0.247965
0.083770 -0.091764 0.247078
0.084759 -0.091556 0.246417
0.085734 -0.091339 0.245726
0.086672 -0.091090 0.244943
0.087706 -0.090947 0.244439
0.088673 -0.090739 0.243756
0.089690 -0.090586 0.243214
0.090538 -0.090269 0.242227
0.091435 -0.090008 0.241384
0.092227 -0.089652 0.240282
0.092618 -0.088920 0.238163
0.092890 -0.088092 0.235785
0.093240 -0.087357 0.233651
0.093310 -0.086380 0.230868
0.093316 -0.085368 0.227984
0.093260 -0.084324 0.225012
0.093615 -0.083671 0.223078
0.093806 -0.082887 0.220792
0.094099 -0.082211 0.218785
0.094266 -0.081440 0.216524
0.094339 -0.080606 0.214088
0.094143 -0.079563 0.211094
0.094406 -0.078926 0.209171
0.094829 -0.078434 0.207629
0.095186 -0.077899 0.205963
0.095758 -0.077549 0.204781
0.096389 -0.077255 0.203735
0.097165 -0.077081 0.202997
0.097996 -0.076953 0.202371
0.098887 -0.076874 0.201864
0.099780 -0.076798 0.201351
0.100652 -0.076709 0.200791
0.101633 -0.076702 0.200435
0.102592 -0.076680 0.200024
0.103441 -0.076576 0.199387
0.104488 -0.076619 0.199118
0.105341 -0.076521 0.198465
0.106257 -0.076469 0.197918
0.107317 -0.076522 0.197624
-1.601834 -1.155618 3.082757
-1.621714 -1.180957 3.155382
-1.575653 -1.158302 3.099592
-1.576637 -1.170131 3.135844
-1.567672 -1.174735 3.152617
-1.552893 -1.175031 3.157672
-1.540974 -1.177520 3.168455
-1.530778 -1.181390 3.182812
-1.521753 -1.186252 3.199710
-1.504682 -1.184878 3.199643
-1.489070 -1.184639 3.202483
-1.477613 -1.187736 3.214206
-1.463806 -1.188990 3.220813
-1.452299 -1.192160 3.232484
-1.441811 -1.196245 3.246521
-1.422337 -1.192884 3.240224
-1.410703 -1.196098 3.251662
-1.402880 -1.202651 3.272077
-1.383448 -1.199289 3.265408
-1.394485 -1.222564 3.331191
-0.379723 -0.585590 1.611889
-0.366011 -0.575960 1.585360
-0.361432 -0.580603 1.598105
-0.352399 -0.578136 1.591270
-0.343837 -0.576353 1.586306
-0.337449 -0.578216 1.591366
-0.331437 -0.580823 1.598466
-0.324808 -0.582444 1.602844
-0.318142 -0.584078 1.607245
-0.312277 -0.587297 1.616001
-0.306156 -0.590185 1.623839
-0.299912 -0.592978 1.631409
-0.292985 -0.594532 1.635562
-0.286109 -0.596280 1.640242
-0.278825 -0.597251 1.642777
-0.271205 -0.597536 1.643423
-0.264229 -0.599301 1.648136
-0.257162 -0.600961 1.652554
-0.250424 -0.603518 1.659435
-0.244094 -0.607256 1.669559
-0.235726 -0.606006 1.665966
-0.229145 -0.609422 1.675198
-0.222129 -0.611887 1.681816
-0.021258 -0.109451 0.300473
-0.019752 -0.108985 0.299168
-0.017987 -0.106903 0.293431
-0.016780 -0.108076 0.296626
-0.015342 -0.107835 0.295943
-0.013849 -0.107122 0.293965
-0.012414 -0.106748 0.292918
-0.011028 -0.106760 0.292931
-0.009616 -0.106482 0.292150
-0.008247 -0.106676 0.292664
-0.006894 -0.107183 0.294037
-0.005504 -0.107234 0.294160
-0.004138 -0.107942 0.296087
-0.002746 -0.108379 0.297272
-0.001342 -0.108750 0.298275
0.000071 -0.108910 0.298701
0.001489 -0.109051 0.299076
0.002932 -0.110030 0.301749
0.004385 -0.110610 0.303329
0.005844 -0.111009 0.304415
0.007318 -0.111477 0.305690
0.008790 -0.111769 0.306482
0.010245 -0.111794 0.306544
0.011706 -0.111870 0.306747
0.013118 -0.111502 0.305733
0.014537 -0.111272 0.305100
0.015920 -0.110829 0.303881
0.017277 -0.110289 0.302399
0.018736 -0.110435 0.302796
0.020063 -0.109839 0.301161
0.021684 -0.110823 0.303859
0.023192 -0.111142 0.304733
0.024840 -0.112059 0.307248
0.026105 -0.111236 0.304994
0.027512 -0.111077 0.304559
0.029167 -0.111883 0.306771
0.030006 -0.109630 0.300598
0.031343 -0.109321 0.299751
0.032471 -0.108341 0.297069
0.033992 -0.108697 0.298049
0.035284 -0.108324 0.297027
0.036485 -0.107708 0.295341
0.037880 -0.107690 0.295296
0.039025 -0.106987 0.293373
0.040333 -0.106764 0.292762
0.041607 -0.106469 0.291957
0.042670 -0.105672 0.289773
0.043713 -0.104875 0.287591
0.044804 -0.104239 0.285847
0.045966 -0.103800 0.284643
0.046966 -0.103028 0.282528
0.048047 -0.102475 0.281010
0.048987 -0.101657 0.278767
0.050015 -0.101061 0.277127
0.051071 -0.100550 0.275725
0.052190 -0.100186 0.274721
0.053293 -0.099809 0.273682
0.054358 -0.099381 0.272502
0.055468 -0.099052 0.271591
0.056558 -0.098705 0.270629
0.057553 -0.098209 0.269256
0.058575 -0.097781 0.268071
0.059476 -0.097173 0.266389
0.060547 -0.096862 0.265520
0.061485 -0.096355 0.264111
0.062499 -0.095986 0.263079
0.063540 -0.095671 0.262192
0.064554 -0.095329 0.261230
0.065642 -0.095107 0.260593
0.066607 -0.094716 0.259493
0.067706 -0.094529 0.258946
0.068825 -0.094374 0.258488
0.069847 -0.094096 0.257687
0.070930 -0.093907 0.257128
0.072025 -0.093740 0.256625
0.073005 -0.093431 0.255732
0.074065 -0.093234 0.255140
0.075128 -0.093045 0.254569
0.076158 -0.092823 0.253903
0.077151 -0.092563 0.253129
0.078142 -0.092309 0.252368
0.079162 -0.092097 0.251716
0.080167 -0.091874 0.251032
0.081173 -0.091657 0.250362
0.082137 -0.091401 0.249577
0.083121 -0.091174 0.248869
0.084100 -0.090946 0.248155
0.085081 -0.090728 0.247462
0.086065 -0.090520 0.246790
0.087075 -0.090343 0.246200
0.088097 -0.090184 0.245652
0.088989 -0.089897 0.244751
0.090090 -0.089827 0.244432
0.090990 -0.089560 0.243574
0.091657 -0.089073 0.242112
0.092555 -0.088821 0.241281
0.092971 -0.088117 0.239218
0.093285 -0.087335 0.236940
0.093334 -0.086326 0.234043
0.093308 -0.085275 0.231023
0.092864 -0.083868 0.227042
0.093197 -0.083189 0.225025
0.093424 -0.082432 0.222792
0.093710 -0.081744 0.220740
0.093877 -0.080968 0.218447
0.094201 -0.080343 0.216556
0.094303 -0.079545 0.214193
0.094061 -0.078477 0.211098
0.094472 -0.077971 0.209511
