ply
format ascii 1.0
element vertex 1688
property float x
property float y
property float z
end_header
0.042268 -0.062687 0.268232
0.043716 -0.062926 0.269307
0.045159 -0.063142 0.270291
0.046537 -0.063260 0.270852
0.047900 -0.063351 0.271297
0.049421 -0.063640 0.272593
0.050890 -0.063849 0.273550
0.052274 -0.063943 0.274011
0.053663 -0.064040 0.274482
0.055155 -0.064251 0.275448
0.056618 -0.064420 0.276231
0.058026 -0.064519 0.276717
0.059409 -0.064587 0.277068
0.060843 -0.064705 0.277634
0.062204 -0.064744 0.277858
0.063504 -0.064718 0.277805
0.064821 -0.064710 0.277829
0.066077 -0.064644 0.277597
0.067391 -0.064634 0.277613
0.068591 -0.064518 0.277168
0.069466 -0.064107 0.275454
0.069914 -0.063324 0.272138
0.069923 -0.062179 0.267265
0.071278 -0.062250 0.267618
0.072370 -0.062094 0.266990
0.073292 -0.061799 0.265764
0.074336 -0.061615 0.265012
0.075288 -0.061363 0.263964
0.076303 -0.061170 0.263167
0.077347 -0.061005 0.262491
0.078333 -0.060800 0.261640
0.079276 -0.060570 0.260675
0.080113 -0.060266 0.259390
0.080969 -0.059986 0.258205
0.081807 -0.059701 0.256996
0.082720 -0.059478 0.256049
0.083616 -0.059250 0.255077
0.084531 -0.059041 0.254184
0.085425 -0.058824 0.253254
0.085923 -0.058344 0.251187
0.086849 -0.058164 0.250406
0.087697 -0.057937 0.249420
0.088415 -0.057630 0.248089
0.089183 -0.057365 0.246930
0.089872 -0.057057 0.245580
0.090048 -0.056434 0.242873
0.091021 -0.056321 0.242354
0.091377 -0.055833 0.240220
0.091967 -0.055499 0.238741
0.092237 -0.054982 0.236472
0.092385 -0.054406 0.233943
0.092677 -0.053926 0.231827
0.093229 -0.053608 0.230398
0.093866 -0.053346 0.229205
0.094143 -0.052887 0.227162
0.093711 -0.052046 0.223469
0.094077 -0.051661 0.221734
0.094706 -0.051427 0.220643
0.095106 -0.051076 0.219041
0.095494 -0.050725 0.217437
0.095915 -0.050400 0.215937
0.096491 -0.050163 0.214804
0.097090 -0.049942 0.213738
0.097736 -0.049750 0.212788
0.098371 -0.049556 0.211823
0.098909 -0.049317 0.210662
0.099579 -0.049149 0.209791
0.100217 -0.048968 0.208862
0.100835 -0.048781 0.207899
0.101531 -0.048635 0.207101
0.102075 -0.048420 0.206002
0.102585 -0.048193 0.204845
0.102911 -0.047885 0.203335
0.103518 -0.047712 0.202389
0.104431 -0.047682 0.202042
0.105185 -0.047580 0.201382
0.105876 -0.047453 0.200600
-1.592524 -0.715265 3.129615
-1.591620 -0.721577 3.159927
-1.589359 -0.727387 3.187953
-1.573592 -0.727070 3.189005
-1.560759 -0.728116 3.195904
-1.548116 -0.729273 3.203170
-1.535051 -0.730252 3.209537
-1.519330 -0.729976 3.210268
-1.508345 -0.731992 3.220970
-1.495401 -0.733091 3.227525
-1.485040 -0.735492 3.239712
-1.476085 -0.738647 3.255122
-1.457900 -0.737202 3.250159
-1.444639 -0.738244 3.256056
-1.449665 -0.748753 3.303632
-1.436102 -0.749786 3.309317
-0.607877 -0.455821 2.013176
-0.599243 -0.456465 2.015617
-0.587094 -0.454409 2.006119
-0.566213 -0.452827 1.998242
-0.557563 -0.453452 2.000531
-0.035971 -0.059448 0.260015
-0.034616 -0.059249 0.259073
-0.033532 -0.059516 0.260169
-0.032262 -0.059460 0.259857
-0.031002 -0.059420 0.259618
-0.029824 -0.059539 0.260072
-0.028546 -0.059463 0.259674
-0.027317 -0.059484 0.259706
-0.026167 -0.059688 0.260535
-0.024717 -0.059194 0.258323
-0.023497 -0.059231 0.258428
-0.019459 -0.051772 0.225834
-0.018168 -0.051174 0.223182
-0.017147 -0.051313 0.223742
-0.016673 -0.053212 0.231979
-0.015574 -0.053248 0.232099
-0.014468 -0.053263 0.232125
-0.013336 -0.053175 0.231702
-0.012308 -0.053527 0.233203
-0.011230 -0.053709 0.233960
-0.010196 -0.054165 0.235915
-0.009093 -0.054326 0.236585
-0.008006 -0.054634 0.237899
-0.006895 -0.054861 0.238863
-0.005772 -0.055065 0.239729
-0.004639 -0.055246 0.240496
-0.003495 -0.055376 0.241044
-0.002347 -0.055546 0.241768
-0.001193 -0.055772 0.242736
-0.000030 -0.055895 0.243258
0.001139 -0.056048 0.243915
0.002316 -0.056229 0.244696
0.003501 -0.056432 0.245576
0.004696 -0.056645 0.246501
0.005895 -0.056810 0.247220
0.007103 -0.056985 0.247984
0.008311 -0.057121 0.248582
0.009525 -0.057252 0.249157
0.010748 -0.057404 0.249831
0.011998 -0.057655 0.250932
0.013228 -0.057773 0.251460
0.014463 -0.057889 0.251982
0.015709 -0.058027 0.252604
0.016982 -0.058239 0.253548
0.018253 -0.058417 0.254344
0.019522 -0.058565 0.255018
0.020776 -0.058655 0.255436
0.022069 -0.058837 0.256261
0.023350 -0.058972 0.256879
0.024660 -0.059160 0.257733
0.025951 -0.059289 0.258329
0.027376 -0.059697 0.260145
0.028714 -0.059887 0.261018
0.029998 -0.059954 0.261352
0.031321 -0.060091 0.261990
0.032745 -0.060403 0.263396
0.034069 -0.060515 0.263933
0.035505 -0.060810 0.265268
0.036881 -0.060985 0.266084
0.038155 -0.060987 0.266141
0.039518 -0.061124 0.266795
0.040877 -0.061248 0.267388
0.042311 -0.061473 0.268426
0.043615 -0.061501 0.268607
0.045099 -0.061774 0.269855
0.046485 -0.061901 0.270469
0.047994 -0.062180 0.271749
0.049442 -0.062369 0.272632
0.050872 -0.062525 0.273377
0.052366 -0.062751 0.274423
0.053740 -0.062825 0.274807
0.055096 -0.062874 0.275083
0.056578 -0.063061 0.275967
0.057938 -0.063107 0.276229
0.059312 -0.063166 0.276548
0.060697 -0.063234 0.276907
0.062116 -0.063334 0.277403
0.063521 -0.063415 0.277819
0.064779 -0.063350 0.277593
0.066076 -0.063324 0.277538
0.067386 -0.063311 0.277540
0.068579 -0.063192 0.277071
0.069632 -0.062949 0.276061
0.070355 -0.062423 0.273808
0.071137 -0.061968 0.271863
0.071045 -0.060781 0.266702
0.072366 -0.060824 0.266937
0.073543 -0.060746 0.266640
0.074324 -0.060349 0.264938
0.075292 -0.060114 0.263947
0.076336 -0.059947 0.263251
0.077351 -0.059763 0.262479
0.078354 -0.059576 0.261688
0.079356 -0.059394 0.260918
0.080275 -0.059155 0.259896
0.081091 -0.058851 0.258580
0.081963 -0.058594 0.257471
0.082789 -0.058313 0.256255
0.083653 -0.058066 0.255183
0.084586 -0.057874 0.254347
0.085317 -0.057550 0.252931
0.085933 -0.057160 0.251217
0.086811 -0.056951 0.250298
0.087809 -0.056827 0.249744
0.088481 -0.056497 0.248284
0.088983 -0.056069 0.246388
0.089415 -0.055608 0.244345
0.090188 -0.055368 0.243268
0.090983 -0.055149 0.242274
0.091576 -0.054813 0.240765
0.091927 -0.054342 0.238661
0.092476 -0.053999 0.237111
0.093013 -0.053658 0.235563
0.092885 -0.052945 0.232380
0.092007 -0.051826 0.227413
0.091709 -0.051056 0.223973
0.092824 -0.051082 0.224020
0.093651 -0.050951 0.223368
0.094154 -0.050648 0.221960
0.094766 -0.050409 0.220830
0.095149 -0.050056 0.219190
0.095661 -0.049778 0.217873
0.096196 -0.049517 0.216627
0.096707 -0.049249 0.215345
0.097343 -0.049050 0.214358
0.097952 -0.048842 0.213324
0.098681 -0.048697 0.212559
0.099165 -0.048435 0.211277
0.099767 -0.048237 0.210262
0.100420 -0.048066 0.209363
0.101105 -0.047913 0.208536
0.101646 -0.047697 0.207421
0.102215 -0.047497 0.206372
0.102759 -0.047290 0.205283
0.103137 -0.047010 0.203874
0.103811 -0.046870 0.203061
0.104724 -0.046840 0.202710
0.105408 -0.046708 0.201914
0.106122 -0.046592 0.201175
-1.590618 -0.699495 3.127077
-1.605876 -0.712841 3.189409
-1.594163 -0.714355 3.198718
-1.575716 -0.712852 3.194384
-1.561813 -0.713397 3.199091
-1.546518 -0.713311 3.200841
-1.532129 -0.713645 3.204359
-1.517125 -0.713699 3.206493
-1.503875 -0.714587 3.212265
-1.490014 -0.715200 3.216691
-1.480254 -0.717816 3.230021
-1.467841 -0.719187 3.237652
-1.457627 -0.721676 3.250218
-1.448015 -0.724519 3.264291
-1.439123 -0.727788 3.280193
-1.436224 -0.734193 3.310146
-1.429910 -0.738973 3.332696
-1.411885 -0.737742 3.328046
-1.402080 -0.740826 3.342779
-1.396043 -0.745994 3.366837
-1.382197 -0.747061 3.372308
-1.367053 -0.747443 3.374608
-1.355124 -0.749614 3.384901
-1.329713 -0.744290 3.361278
-1.323857 -0.749916 3.387028
-1.309959 -0.751069 3.392506
-1.295912 -0.752164 3.397654
-1.281823 -0.753263 3.402751
-1.276425 -0.759562 3.431272
-1.262153 -0.760674 3.436301
-1.247837 -0.761789 3.441279
-0.608425 -0.446701 2.014692
-0.602796 -0.449579 2.027247
-0.594087 -0.450216 2.029675
-0.036023 -0.058288 0.260270
-0.034932 -0.058538 0.261315
-0.033788 -0.058715 0.262035
-0.032479 -0.058607 0.261481
-0.031258 -0.058655 0.261629
-0.030036 -0.058708 0.261799
-0.028834 -0.058804 0.262158
-0.027537 -0.058708 0.261669
-0.026306 -0.058748 0.261786
-0.023009 -0.053949 0.240345
-0.021874 -0.053983 0.240444
-0.019489 -0.050764 0.226060
-0.018338 -0.050569 0.225145
-0.017381 -0.050919 0.226655
-0.016558 -0.051737 0.230252
-0.015501 -0.051886 0.230874
-0.014487 -0.052213 0.232291
-0.013406 -0.052331 0.232778
-0.012321 -0.052458 0.233304
-0.011239 -0.052623 0.234004
-0.010163 -0.052850 0.234983
-0.009090 -0.053157 0.236318
-0.007987 -0.053357 0.237180
-0.006899 -0.053730 0.238812
-0.005776 -0.053933 0.239690
-0.004644 -0.054125 0.240522
-0.003504 -0.054321 0.241374
-0.002353 -0.054478 0.242056
-0.001195 -0.054591 0.242546
-0.000032 -0.054691 0.242978
0.001137 -0.054878 0.243800
0.002313 -0.055046 0.244538
0.003506 -0.055365 0.245951
0.004692 -0.055434 0.246256
0.005884 -0.055541 0.246733
0.007089 -0.055707 0.247470
0.008295 -0.055839 0.248064
0.009502 -0.055939 0.248515
0.010717 -0.056057 0.249050
0.011971 -0.056334 0.250294
0.013260 -0.056713 0.251994
0.014472 -0.056727 0.252072
0.015766 -0.057032 0.253448
0.017019 -0.057157 0.254024
0.018266 -0.057247 0.254448
0.019535 -0.057389 0.255106
0.020784 -0.057461 0.255455
0.022066 -0.057609 0.256143
0.023370 -0.057796 0.257009
0.024718 -0.058069 0.258257
0.025971 -0.058103 0.258447
0.027299 -0.058293 0.259332
0.028641 -0.058494 0.260266
0.029954 -0.058622 0.260881
0.031372 -0.058937 0.262330
0.032617 -0.058917 0.262284
0.033983 -0.059107 0.263180
0.035429 -0.059418 0.264615
0.036900 -0.059749 0.266139
0.038187 -0.059768 0.266277
0.039490 -0.059810 0.266521
0.040850 -0.059933 0.267125
0.042212 -0.060053 0.267714
0.043718 -0.060363 0.269158
0.045108 -0.060500 0.269827
0.046585 -0.060744 0.270976
0.047946 -0.060826 0.271400
0.049382 -0.060997 0.272227
0.050800 -0.061138 0.272916
0.052234 -0.061289 0.273656
0.053640 -0.061402 0.274222
0.055145 -0.061620 0.275257
0.056503 -0.061666 0.275529
0.057928 -0.061783 0.276114
0.059333 -0.061873 0.276581
0.060738 -0.061960 0.277032
0.062129 -0.062028 0.277399
0.063493 -0.062068 0.277639
0.064780 -0.062031 0.277536
0.066112 -0.062039 0.277632
0.067471 -0.062071 0.277834
0.068756 -0.062035 0.277732
0.069916 -0.061890 0.277139
0.070553 -0.061295 0.274532
0.070041 -0.059742 0.267629
0.071272 -0.059705 0.267513
0.072177 -0.059401 0.266200
0.073247 -0.059242 0.265531
0.074308 -0.059079 0.264846
0.075297 -0.058866 0.263935
0.076341 -0.058703 0.263242
0.077420 -0.058571 0.262686
0.078363 -0.058342 0.261694
0.079404 -0.058192 0.261054
0.080387 -0.058005 0.260242
0.081164 -0.057676 0.258794
0.081941 -0.057358 0.257389
0.082851 -0.057141 0.256433
0.083730 -0.056909 0.255410
0.084516 -0.056621 0.254130
0.085212 -0.056282 0.252616
0.085970 -0.055993 0.251323
0.086835 -0.055781 0.250371
0.087785 -0.055627 0.249679
0.088406 -0.055273 0.248082
0.088808 -0.054792 0.245912
0.089292 -0.054374 0.244019
0.090221 -0.054235 0.243371
0.090829 -0.053908 0.241880
0.091481 -0.053615 0.240535
0.091749 -0.053107 0.238222
0.092517 -0.052898 0.237243
0.091818 -0.051865 0.232565
0.091807 -0.051240 0.229714
0.091583 -0.050513 0.226399
0.091962 -0.050131 0.224626
0.093089 -0.050161 0.224697
0.093745 -0.049939 0.223633
0.094149 -0.049590 0.221992
0.094673 -0.049311 0.220659
0.095379 -0.049132 0.219770
0.095840 -0.048832 0.218332
0.096360 -0.048568 0.217051
0.096943 -0.048341 0.215927
0.097476 -0.048094 0.214710
0.098148 -0.047920 0.213813
0.098762 -0.047722 0.212798
0.099382 -0.047530 0.211809
0.100112 -0.047395 0.211062
0.100669 -0.047181 0.209956
0.101184 -0.046952 0.208777
0.101822 -0.046784 0.207861
0.102328 -0.046559 0.206685
0.102783 -0.046315 0.205418
0.103314 -0.046110 0.204315
0.103945 -0.045953 0.203415
0.104825 -0.045908 0.203003
0.105472 -0.045763 0.202138
0.106148 -0.045632 0.201328
-1.601429 -0.689235 3.149497
-1.592999 -0.692050 3.164956
-1.589450 -0.697058 3.190341
-1.579481 -0.699321 3.203051
-1.562817 -0.698636 3.202132
-1.550065 -0.699704 3.209122
-1.536197 -0.700284 3.213760
-1.521065 -0.700296 3.215666
-1.506526 -0.700584 3.218728
-1.492785 -0.701253 3.223431
-1.481051 -0.702889 3.232476
-1.470792 -0.705267 3.244834
-1.457949 -0.706444 3.251568
-1.447186 -0.708665 3.263013
-1.436882 -0.711161 3.275637
-1.430672 -0.715760 3.297862
-1.418602 -0.717497 3.306813
-1.403404 -0.717673 3.308487
-1.396697 -0.722245 3.330338
-1.383783 -0.723675 3.337624
-1.367924 -0.723580 3.337797
-1.350463 -0.722627 3.333928
-1.333833 -0.722102 3.331954
-1.319619 -0.722888 3.335959
-1.304035 -0.722935 3.336473
-1.293676 -0.725915 3.350459
-1.286736 -0.730911 3.373682
-1.277621 -0.734782 3.391643
-1.256447 -0.731728 3.377577
-1.247404 -0.735752 3.396118
-1.234805 -0.737756 3.405277
-1.220609 -0.738846 3.410155
-0.035992 -0.056994 0.259933
-0.035090 -0.057546 0.262379
-0.033937 -0.057713 0.263065
-0.032602 -0.057571 0.262348
-0.031414 -0.057688 0.262808
-0.030281 -0.057920 0.263800
-0.028775 -0.057428 0.261491
-0.025631 -0.053474 0.243425
-0.024176 -0.052837 0.240470
-0.022658 -0.051990 0.236562
-0.020490 -0.049485 0.225111
-0.019348 -0.049316 0.224295
-0.018335 -0.049479 0.224986
-0.017316 -0.049643 0.225686
-0.016443 -0.050275 0.228515
-0.015470 -0.050670 0.230270
-0.014477 -0.051058 0.231992
-0.013417 -0.051252 0.232834
-0.012325 -0.051344 0.233219
-0.011262 -0.051592 0.234309
-0.010263 -0.052222 0.237137
-0.009089 -0.052009 0.236142
-0.008031 -0.052489 0.238291
-0.006916 -0.052700 0.239223
-0.005787 -0.052862 0.239934
-0.004650 -0.053014 0.240601
-0.003506 -0.053158 0.241237
-0.002356 -0.053328 0.241991
-0.001198 -0.053462 0.242585
-0.000035 -0.053625 0.243313
0.001135 -0.053751 0.243875
0.002311 -0.053873 0.244423
0.003494 -0.054038 0.245166
0.004686 -0.054215 0.245969
0.005882 -0.054362 0.246635
0.007088 -0.054533 0.247416
0.008306 -0.054732 0.248324
0.009512 -0.054816 0.248714
0.010727 -0.054927 0.249229
0.011958 -0.055088 0.249972
0.013184 -0.055196 0.250477
0.014452 -0.055449 0.251641
0.015746 -0.055756 0.253055
0.017028 -0.055976 0.254077
0.018280 -0.056079 0.254570
0.019557 -0.056237 0.255316
0.020822 -0.056345 0.255837
0.022102 -0.056480 0.256480
0.023398 -0.056640 0.257240
0.024689 -0.056771 0.257871
0.025985 -0.056901 0.258499
0.027326 -0.057111 0.259498
0.028680 -0.057330 0.260533
0.029953 -0.057377 0.260793
0.031276 -0.057510 0.261444
0.032613 -0.057659 0.262169
0.034010 -0.057899 0.263307
0.035353 -0.058031 0.263961
0.036805 -0.058329 0.265368
0.038152 -0.058444 0.265948
0.039520 -0.058584 0.266641
0.040853 -0.058665 0.267064
0.042236 -0.058810 0.267784
0.043674 -0.059021 0.268806
0.045210 -0.059349 0.270358
0.046583 -0.059450 0.270882
0.047929 -0.059513 0.271230
0.049318 -0.059623 0.271795
0.050764 -0.059796 0.272648
0.052154 -0.059895 0.273165
0.053622 -0.060077 0.274058
0.055067 -0.060224 0.274796
0.056507 -0.060360 0.275483
0.058010 -0.060555 0.276437
0.059404 -0.060630 0.276846
0.060778 -0.060682 0.277147
0.062144 -0.060724 0.277406
0.063495 -0.060749 0.277585
0.064839 -0.060768 0.277733
0.066129 -0.060735 0.277646
0.067425 -0.060709 0.277590
0.068759 -0.060719 0.277693
0.069940 -0.060594 0.277183
0.070675 -0.060095 0.274959
0.070894 -0.059184 0.270845
0.071007 -0.058218 0.266478
0.072092 -0.058070 0.265848
0.073379 -0.058086 0.265970
0.074351 -0.057856 0.264964
0.075379 -0.057677 0.264189
0.076457 -0.057541 0.263612
0.077481 -0.057370 0.262864
0.078500 -0.057200 0.262126
0.079502 -0.057024 0.261351
0.080321 -0.056724 0.260007
0.081181 -0.056461 0.258833
0.082045 -0.056209 0.257701
0.082898 -0.055957 0.256568
0.083540 -0.055572 0.254819
0.084377 -0.055326 0.253706
0.085245 -0.055106 0.252710
0.085971 -0.054802 0.251323
0.086634 -0.054468 0.249792
0.087517 -0.054278 0.248919
0.088326 -0.054048 0.247861
0.088682 -0.053550 0.245571
0.089351 -0.053253 0.244193
0.090230 -0.053086 0.243410
0.090733 -0.052705 0.241641
0.091376 -0.052414 0.240278
0.092135 -0.052196 0.239246
0.091989 -0.051477 0.235911
0.092590 -0.051188 0.234545
0.091681 -0.050081 0.229426
0.092037 -0.049683 0.227551
0.092042 -0.049107 0.224857
0.092752 -0.048916 0.223920
0.093701 -0.048854 0.223567
0.094314 -0.048620 0.222422
0.094844 -0.048349 0.221103
0.095478 -0.048136 0.220044
0.096084 -0.047914 0.218936
0.096747 -0.047725 0.217973
0.097373 -0.047522 0.216940
0.098174 -0.047408 0.216306
0.098679 -0.047154 0.215030
0.099473 -0.047042 0.214393
0.100288 -0.046943 0.213806
0.100687 -0.046653 0.212342
0.101409 -0.046517 0.211572
0.102057 -0.046349 0.210654
0.102665 -0.046167 0.209660
0.103115 -0.045918 0.208355
0.103578 -0.045681 0.207093
0.103759 -0.045323 0.205282
0.104263 -0.045113 0.204130
0.105195 -0.045090 0.203813
0.105779 -0.044920 0.202824
0.106426 -0.044778 0.201956
-1.595502 -0.671727 3.138959
-1.595053 -0.677848 3.170114
-1.584692 -0.679833 3.181824
-1.576471 -0.682784 3.197936
-1.561288 -0.682749 3.199939
-1.545660 -0.682517 3.200897
-1.532729 -0.683483 3.207355
-1.520290 -0.684691 3.214835
-1.506145 -0.685149 3.218678
-1.492420 -0.685809 3.223364
-1.479100 -0.686671 3.228898
-1.468265 -0.688718 3.239898
-1.456383 -0.690312 3.248673
-1.445310 -0.692328 3.259341
-1.433861 -0.694205 3.269269
-1.424243 -0.697020 3.283522
-1.416462 -0.700807 3.302268
-1.404493 -0.702582 3.311456
-1.396088 -0.706202 3.329253
-1.384730 -0.708392 3.340235
-1.368514 -0.708120 3.339525
-1.354114 -0.708794 3.343191
-1.338327 -0.708749 3.343392
-1.322398 -0.708627 3.343157
-1.310369 -0.710618 3.352817
-1.293321 -0.709903 3.349639
-1.280721 -0.711643 3.357974
-1.271915 -0.715561 3.376522
-1.251808 -0.713141 3.365096
-1.234874 -0.712490 3.361960
-1.224175 -0.715466 3.375878
-1.184733 -0.701503 3.309811
-0.036556 -0.056622 0.263882
-0.035328 -0.056672 0.264038
-0.034269 -0.057005 0.265516
-0.033030 -0.057052 0.265663
-0.031174 -0.055997 0.260679
-0.030325 -0.056737 0.264052
-0.026748 -0.052216 0.242948
-0.025392 -0.051818 0.241035
-0.023743 -0.050757 0.236042
-0.021776 -0.048873 0.227228
-0.020508 -0.048445 0.225186
-0.019441 -0.048471 0.225257
-0.018403 -0.048575 0.225694
-0.017438 -0.048898 0.227149
-0.016474 -0.049267 0.228815
-0.015512 -0.049695 0.230762
-0.014428 -0.049770 0.231067
-0.013407 -0.050090 0.232516
-0.012344 -0.050296 0.233436
-0.011266 -0.050480 0.234253
-0.010203 -0.050775 0.235592
-0.009130 -0.051095 0.237044
-0.008015 -0.051230 0.237642
-0.006901 -0.051420 0.238495
-0.005773 -0.051562 0.239132
-0.004640 -0.051721 0.239847
-0.003500 -0.051879 0.240561
-0.002357 -0.052142 0.241761
-0.001200 -0.052252 0.242261
-0.000037 -0.052414 0.243000
0.001132 -0.052543 0.243588
0.002309 -0.052725 0.244424
0.003490 -0.052837 0.244941
0.004680 -0.052991 0.245654
0.005876 -0.053148 0.246378
0.007083 -0.053322 0.247188
0.008308 -0.053568 0.248337
0.009528 -0.053726 0.249079
0.010747 -0.053840 0.249616
0.011967 -0.053939 0.250091
0.013209 -0.054108 0.250888
0.014448 -0.054237 0.251506
0.015755 -0.054580 0.253118
0.016998 -0.054670 0.253557
0.018265 -0.054820 0.254282
0.019543 -0.054980 0.255052
0.020839 -0.055169 0.255959
0.022121 -0.055304 0.256616
0.023404 -0.055427 0.257220
0.024700 -0.055565 0.257901
0.026002 -0.055702 0.258576
0.027317 -0.055855 0.259329
0.028665 -0.056059 0.260318
0.029980 -0.056182 0.260936
0.031270 -0.056251 0.261304
0.032590 -0.056369 0.261898
0.033951 -0.056543 0.262759
0.035347 -0.056763 0.263832
0.036772 -0.057011 0.265040
0.038164 -0.057194 0.265947
0.039481 -0.057256 0.266293
0.040894 -0.057449 0.267250
0.042306 -0.057629 0.268146
0.043739 -0.057826 0.269125
0.045157 -0.057991 0.269958
0.046540 -0.058106 0.270553
0.047919 -0.058207 0.271092
0.049290 -0.058295 0.271566
0.050751 -0.058481 0.272498
0.052212 -0.058659 0.273391
0.053682 -0.058837 0.274292
0.055201 -0.059059 0.275394
0.056538 -0.059081 0.275564
0.057979 -0.059207 0.276219
0.059424 -0.059333 0.276874
0.060808 -0.059392 0.277218
0.062178 -0.059437 0.277494
0.063544 -0.059476 0.277740
0.064909 -0.059511 0.277973
0.066271 -0.059543 0.278184
0.067594 -0.059539 0.278232
0.068919 -0.059537 0.278283
0.070110 -0.059421 0.277805
0.070925 -0.058998 0.275885
0.069871 -0.057062 0.266892
0.070973 -0.056926 0.266309
0.072140 -0.056845 0.265983
0.073276 -0.056743 0.265559
0.074355 -0.056602 0.264944
0.075372 -0.056418 0.264132
0.076393 -0.056243 0.263358
0.077468 -0.056114 0.262794
0.078356 -0.055854 0.261617
0.079378 -0.055697 0.260920
0.080239 -0.055434 0.259719
0.081034 -0.055134 0.258344
0.081722 -0.054771 0.256671
0.082542 -0.054505 0.255450
0.083306 -0.054211 0.254094
0.084192 -0.054004 0.253140
0.085118 -0.053828 0.252325
0.085815 -0.053514 0.250863
0.086555 -0.053235 0.249561
0.087388 -0.053019 0.248553
0.088147 -0.052766 0.247364
0.088538 -0.052302 0.245180
0.089453 -0.052154 0.244479
0.090121 -0.051869 0.243127
0.090543 -0.051451 0.241148
0.091169 -0.051158 0.239749
0.091104 -0.050490 0.236587
0.091391 -0.050030 0.234398
0.091882 -0.049692 0.232776
0.092071 -0.049200 0.230428
0.092322 -0.048753 0.228284
0.092400 -0.048226 0.225761
0.092950 -0.047954 0.224431
0.093715 -0.047798 0.223635
0.094382 -0.047597 0.222621
0.094971 -0.047361 0.221439
0.095749 -0.047223 0.220713
0.096365 -0.047010 0.219625
0.097025 -0.046822 0.218650
0.097612 -0.046603 0.217525
0.098214 -0.046396 0.216449
0.098867 -0.046217 0.215496
0.099544 -0.046053 0.214608
0.100311 -0.045933 0.213918
0.100848 -0.045711 0.212748
0.101478 -0.045536 0.211786
0.102260 -0.045432 0.211144
0.102893 -0.045264 0.210202
0.103498 -0.045087 0.209208
0.103703 -0.044741 0.207424
0.103972 -0.044429 0.205789
0.104353 -0.044170 0.204393
0.105315 -0.044160 0.204137
0.105977 -0.044025 0.203298
0.106686 -0.043912 0.202548
-1.586944 -0.653248 3.123189
-1.584002 -0.658163 3.149178
-1.582784 -0.663895 3.178981
-1.577289 -0.667927 3.200543
-1.560341 -0.667141 3.198900
-1.548202 -0.668417 3.207019
-1.534309 -0.668953 3.211477
-1.521418 -0.669942 3.217991
-1.507324 -0.670416 3.221926
-1.491442 -0.670098 3.221938
-1.478376 -0.671052 3.227962
-1.465331 -0.672035 3.234027
-1.453344 -0.673531 3.242459
-1.443008 -0.675832 3.254677
-1.429628 -0.676742 3.260103
-1.420779 -0.679840 3.275985
-1.410727 -0.682426 3.289309
-1.399037 -0.684268 3.298968
-1.387370 -0.686162 3.308797
-1.377302 -0.688901 3.322616
-1.363513 -0.689820 3.327584
-1.350216 -0.691013 3.333791
-1.340023 -0.693842 3.347816
-1.324155 -0.693765 3.347750
-1.311349 -0.695310 3.355438
-1.296868 -0.695995 3.358903
-1.283562 -0.697336 3.365463
-1.271472 -0.699379 3.375351
-1.253682 -0.698300 3.370105
-1.253163 -0.706937 3.411685
-1.234394 -0.705369 3.403957
-1.220229 -0.706427 3.408841
-0.035377 -0.055484 0.264284
-0.034071 -0.055411 0.263860
-0.031822 -0.053739 0.255828
-0.029544 -0.051884 0.246928
-0.027764 -0.050786 0.241636
-0.026560 -0.050691 0.241121
-0.024629 -0.049139 0.233679
-0.023535 -0.049187 0.233851
-0.021533 -0.047247 0.224575
-0.020509 -0.047365 0.225083
-0.019518 -0.047575 0.226030
-0.018459 -0.047633 0.226253
-0.017470 -0.047891 0.227435
-0.016420 -0.048007 0.227939
-0.015457 -0.048412 0.229816
-0.014515 -0.048948 0.232320
-0.013444 -0.049102 0.233014
-0.012389 -0.049347 0.234137
-0.011322 -0.049590 0.235253
-0.010203 -0.049638 0.235447
-0.009112 -0.049845 0.236400
-0.008013 -0.050064 0.237410
-0.006905 -0.050292 0.238462
-0.005770 -0.050372 0.238819
-0.004638 -0.050530 0.239546
-0.003502 -0.050724 0.240445
-0.002365 -0.051097 0.242200
-0.001205 -0.051228 0.242804
-0.000039 -0.051348 0.243362
0.001133 -0.051513 0.244133
0.002310 -0.051609 0.244584
0.003493 -0.051733 0.245168
0.004684 -0.051883 0.245876
0.005875 -0.051969 0.246283
0.007075 -0.052094 0.246881
0.008287 -0.052257 0.247659
0.009505 -0.052413 0.248408
0.010733 -0.052588 0.249246
0.011969 -0.052757 0.250063
0.013226 -0.052979 0.251131
0.014510 -0.053264 0.252503
0.015761 -0.053392 0.253131
0.017041 -0.053595 0.254116
0.018302 -0.053715 0.254712
0.019564 -0.053820 0.255239
0.020832 -0.053931 0.255795
0.022105 -0.054041 0.256351
0.023412 -0.054217 0.257221
0.024733 -0.054406 0.258157
0.026059 -0.054587 0.259055
0.027327 -0.054637 0.259336
0.028633 -0.054753 0.259932
0.029915 -0.054818 0.260287
0.031247 -0.054964 0.261029
0.032669 -0.055251 0.262444
0.034074 -0.055489 0.263626
0.035403 -0.055591 0.264162
0.036730 -0.055683 0.264656
0.038167 -0.055929 0.265886
0.039498 -0.056009 0.266322
0.040979 -0.056290 0.267720
0.042310 -0.056355 0.268091
0.043723 -0.056522 0.268947
0.045139 -0.056682 0.269774
0.046508 -0.056776 0.270288
0.047900 -0.056892 0.270905
0.049245 -0.056948 0.271238
0.050681 -0.057104 0.272047
0.052200 -0.057343 0.273253
0.053704 -0.057554 0.274331
0.055140 -0.057683 0.275015
0.056585 -0.057816 0.275720
0.058024 -0.057938 0.276368
0.059458 -0.058048 0.276964
0.060829 -0.058094 0.277250
0.062179 -0.058117 0.277431
0.063541 -0.058151 0.277661
0.064923 -0.058202 0.277971
0.066262 -0.058212 0.278087
0.067553 -0.058181 0.278008
0.068921 -0.058216 0.278238
0.070118 -0.058108 0.277788
0.071105 -0.057833 0.276534
0.070357 -0.056183 0.268703
0.071121 -0.055777 0.266820
0.072066 -0.055525 0.265669
0.073426 -0.055596 0.266064
0.074375 -0.055359 0.264979
0.075363 -0.055157 0.264064
0.076409 -0.055005 0.263380
0.077381 -0.054804 0.262466
0.078301 -0.054575 0.261409
0.079291 -0.054400 0.260608
0.080269 -0.054222 0.259793
0.081089 -0.053945 0.258498
0.082053 -0.053770 0.257692
0.082704 -0.053399 0.255938
0.083442 -0.053093 0.254496
0.084195 -0.052806 0.253138
0.084967 -0.052538 0.251871
0.085912 -0.052383 0.251142
0.086605 -0.052081 0.249701
0.087345 -0.051816 0.248431
0.087933 -0.051468 0.246763
0.088678 -0.051220 0.245571
0.089277 -0.050895 0.244006
0.089929 -0.050608 0.242619
0.090304 -0.050175 0.240522
0.090920 -0.049885 0.239109
0.090794 -0.049200 0.235799
0.091181 -0.048806 0.233879
0.091765 -0.048526 0.232501
0.092309 -0.048231 0.231047
0.092615 -0.047821 0.229035
0.092613 -0.047263 0.226310
0.093090 -0.046959 0.224799
0.093972 -0.046864 0.224284
0.094628 -0.046660 0.223237
0.095212 -0.046425 0.222040
0.095938 -0.046265 0.221189
0.096674 -0.046112 0.220373
0.097248 -0.045886 0.219200
0.097955 -0.045727 0.218339
0.098405 -0.045452 0.216921
0.099089 -0.045291 0.216035
0.099767 -0.045130 0.215145
0.100395 -0.044949 0.214158
0.101205 -0.044854 0.213565
0.101761 -0.044648 0.212441
0.102510 -0.044531 0.211730
0.103252 -0.044412 0.211008
0.103772 -0.044202 0.209837
0.104122 -0.043923 0.208339
0.104130 -0.043507 0.206182
0.104629 -0.043303 0.205017
0.105670 -0.043324 0.204913
0.106134 -0.043110 0.203689
0.106743 -0.042959 0.202751
-1.594881 -0.641565 3.139838
-1.580478 -0.641745 3.143156
-1.575187 -0.645664 3.164667
-1.576277 -0.652298 3.199397
-1.560889 -0.652178 3.200886
-1.547062 -0.652714 3.205476
-1.535142 -0.654074 3.213997
-1.522390 -0.655104 3.220784
-1.507404 -0.655184 3.222791
-1.492776 -0.655423 3.225472
-1.478590 -0.655864 3.229040
-1.466454 -0.657234 3.237079
-1.455269 -0.659063 3.247288
-1.444331 -0.661045 3.258156
-1.432672 -0.662737 3.267503
-1.421367 -0.664632 3.277762
-1.411947 -0.667460 3.292539
-1.399091 -0.668709 3.299442
-1.384965 -0.669372 3.303373
-1.374843 -0.672008 3.316959
-1.360824 -0.672779 3.321258
-1.347898 -0.674114 3.328269
-1.336240 -0.676124 3.338531
-1.322781 -0.677259 3.344404
-1.309847 -0.678694 3.351688
-1.297005 -0.680213 3.359314
-1.284804 -0.682111 3.368743
-1.267526 -0.681327 3.364864
-1.252735 -0.681878 3.367512
-1.238763 -0.682895 3.372400
-1.222496 -0.682657 3.371032
-0.035818 -0.053003 0.258326
-0.034616 -0.053051 0.258480
-0.033081 -0.052572 0.256070
-0.031375 -0.051774 0.252113
-0.029114 -0.049961 0.243217
-0.027467 -0.049095 0.238935
-0.025878 -0.048262 0.234820
-0.024636 -0.048030 0.233627
-0.023481 -0.047953 0.233195
-0.022306 -0.047825 0.232516
-0.020882 -0.047124 0.229055
-0.019662 -0.046829 0.227571
-0.018488 -0.046618 0.226492
-0.017484 -0.046835 0.227499
-0.016486 -0.047095 0.228717
-0.015643 -0.047871 0.232440
-0.014411 -0.047484 0.230517
-0.013521 -0.048250 0.234198
-0.012394 -0.048235 0.234088
-0.011311 -0.048406 0.234880
-0.010226 -0.048606 0.235814
-0.009118 -0.048729 0.236381
-0.008048 -0.049126 0.238277
-0.006897 -0.049072 0.237988
-0.005779 -0.049285 0.238997
-0.004646 -0.049438 0.239717
-0.003517 -0.049749 0.241206
-0.002366 -0.049907 0.241955
-0.001209 -0.050142 0.243080
-0.000042 -0.050315 0.243904
0.001133 -0.050448 0.244542
0.002313 -0.050558 0.245069
0.003497 -0.050643 0.245476
0.004686 -0.050749 0.245991
0.005880 -0.050849 0.246475
0.007078 -0.050951 0.246973
0.008294 -0.051128 0.247837
0.009518 -0.051302 0.248692
0.010776 -0.051606 0.250176
0.012002 -0.051709 0.250691
0.013221 -0.051765 0.250977
0.014508 -0.052052 0.252388
0.015757 -0.052172 0.252991
0.017021 -0.052320 0.253737
0.018278 -0.052430 0.254298
0.019528 -0.052506 0.254695
0.020801 -0.052631 0.255333
0.022093 -0.052786 0.256117
0.023414 -0.052992 0.257156
0.024699 -0.053100 0.257718
0.026015 -0.053260 0.258536
0.027359 -0.053460 0.259551
0.028663 -0.053569 0.260125
0.029957 -0.053649 0.260561
0.031263 -0.053745 0.261077
0.032596 -0.053877 0.261771
0.033979 -0.054078 0.262802
0.035401 -0.054326 0.264060
0.036760 -0.054463 0.264783
0.038146 -0.054630 0.265654
0.039508 -0.054751 0.266304
0.040961 -0.054988 0.267519
0.042335 -0.055108 0.268166
0.043680 -0.055183 0.268597
0.045115 -0.055366 0.269550
0.046548 -0.055535 0.270441
0.047912 -0.055614 0.270894
0.049230 -0.055638 0.271081
0.050628 -0.055748 0.271687
0.052219 -0.056061 0.273279
0.053648 -0.056188 0.273968
0.055423 -0.056662 0.276353
0.056564 -0.056482 0.275544
0.058015 -0.056613 0.276255
0.059509 -0.056778 0.277134
0.060909 -0.056849 0.277549
0.062308 -0.056915 0.277945
0.063628 -0.056907 0.277978
0.064952 -0.056905 0.278035
0.066326 -0.056944 0.278297
0.067578 -0.056880 0.278052
0.068900 -0.056876 0.278100
0.070176 -0.056834 0.277961
0.071089 -0.056506 0.276421
0.071019 -0.055422 0.271183
0.071441 -0.054755 0.267975
0.072258 -0.054407 0.266333
0.073320 -0.054254 0.265639
0.074420 -0.054133 0.265100
0.075381 -0.053917 0.264092
0.076333 -0.053701 0.263086
0.077219 -0.053447 0.261887
0.078063 -0.053172 0.260585
0.079101 -0.053036 0.259960
0.080110 -0.052885 0.259257
0.081004 -0.052664 0.258206
0.081805 -0.052389 0.256892
0.082620 -0.052132 0.255659
0.083449 -0.051891 0.254504
0.084182 -0.051597 0.253087
0.085044 -0.051390 0.252088
0.085816 -0.051136 0.250855
0.086752 -0.050984 0.250122
0.087365 -0.050649 0.248485
0.088183 -0.050441 0.247466
0.088415 -0.049907 0.244845
0.089153 -0.049669 0.243671
0.089930 -0.049459 0.242630
0.090685 -0.049241 0.241548
0.090446 -0.048496 0.237875
0.089586 -0.047441 0.232676
0.090171 -0.047168 0.231306
0.091324 -0.047195 0.231403
0.091838 -0.046894 0.229892
0.092529 -0.046690 0.228848
0.093117 -0.046440 0.227570
0.093540 -0.046113 0.225916
0.094063 -0.045843 0.224533
0.094693 -0.045631 0.223426
0.095559 -0.045536 0.222888
0.096129 -0.045303 0.221670
0.096902 -0.045170 0.220935
0.097469 -0.044945 0.219742
0.098158 -0.044780 0.218839
0.098885 -0.044636 0.218030
0.099352 -0.044379 0.216663
0.100108 -0.044254 0.215936
0.100918 -0.044156 0.215332
0.101607 -0.044008 0.214475
0.102297 -0.043863 0.213625
0.102980 -0.043718 0.212768
0.103625 -0.043559 0.211839
0.104113 -0.043339 0.210600
0.104481 -0.043073 0.209134
0.104746 -0.042770 0.207480
0.105212 -0.042554 0.206240
0.105938 -0.042446 0.205517
0.106404 -0.042238 0.204295
0.107077 -0.042114 0.203476
-1.590788 -0.619245 3.101377
-1.578068 -0.620011 3.107716
-1.580018 -0.626609 3.143183
-1.580379 -0.632697 3.176003
-1.570694 -0.634843 3.188931
-1.558843 -0.636146 3.197515
-1.546681 -0.637348 3.205469
-1.534105 -0.638401 3.212568
-1.522506 -0.639887 3.221731
-1.508103 -0.640213 3.224946
-1.493604 -0.640505 3.227883
-1.481731 -0.641941 3.236481
-1.467475 -0.642365 3.239875
-1.456038 -0.644045 3.249509
-1.444341 -0.645645 3.258647
-1.432932 -0.647410 3.268528
-1.421843 -0.649360 3.279254
-1.409722 -0.650877 3.287708
-1.397044 -0.652169 3.294936
-1.384815 -0.653701 3.303301
-1.374098 -0.655991 3.315411
-1.362205 -0.657766 3.324843
-1.349085 -0.658983 3.331378
-1.337693 -0.661083 3.342303
-1.324035 -0.662101 3.347682
-1.310403 -0.663157 3.353184
-1.297620 -0.664674 3.360945
-1.283097 -0.665327 3.364272
-1.270575 -0.667047 3.372927
-1.253437 -0.666357 3.369333
-1.239388 -0.667313 3.374001
-1.224283 -0.667719 3.375827
-1.210261 -0.668734 3.380678
-0.038585 -0.052174 0.260410
-0.037379 -0.052224 0.260576
-0.035681 -0.051568 0.257224
-0.034219 -0.051218 0.255401
-0.032073 -0.049780 0.248159
-0.030402 -0.048998 0.244187
-0.028602 -0.047936 0.238827
-0.027335 -0.047718 0.237676
-0.025790 -0.046973 0.233903
-0.024784 -0.047188 0.234912
-0.023777 -0.047422 0.236012
-0.022500 -0.047113 0.234417
-0.021257 -0.046849 0.233047
-0.019663 -0.045738 0.227467
-0.018567 -0.045720 0.227329
-0.017497 -0.045773 0.227542
-0.016502 -0.046038 0.228817
-0.015468 -0.046226 0.229702
-0.014740 -0.047428 0.235635
-0.013357 -0.046549 0.231225
-0.012431 -0.047244 0.234640
-0.011342 -0.047402 0.235385
-0.010219 -0.047432 0.235500
-0.009122 -0.047608 0.236344
-0.007996 -0.047662 0.236579
-0.006898 -0.047924 0.237856
-0.005772 -0.048060 0.238505
-0.004641 -0.048209 0.239224
-0.003497 -0.048291 0.239609
-0.002370 -0.048791 0.242072
-0.001211 -0.048963 0.242911
-0.000044 -0.049174 0.243947
0.001130 -0.049237 0.244251
0.002309 -0.049331 0.244709
0.003495 -0.049466 0.245375
0.004682 -0.049543 0.245754
0.005875 -0.049639 0.246233
0.007073 -0.049739 0.246735
0.008288 -0.049912 0.247597
0.009529 -0.050181 0.248945
0.010794 -0.050500 0.250536
0.012023 -0.050602 0.251060
0.013251 -0.050681 0.251466
0.014470 -0.050715 0.251658
0.015731 -0.050881 0.252505
0.016986 -0.051004 0.253139
0.018257 -0.051155 0.253916
0.019496 -0.051204 0.254191
0.020762 -0.051313 0.254762
0.022038 -0.051434 0.255398
0.023393 -0.051716 0.256836
0.024778 -0.052033 0.258452
0.026128 -0.052249 0.259568
0.027374 -0.052247 0.259602
0.028678 -0.052351 0.260166
0.029984 -0.052451 0.260710
0.031296 -0.052552 0.261265
0.032646 -0.052707 0.262087
0.034008 -0.052868 0.262944
0.035376 -0.053026 0.263786
0.036775 -0.053219 0.264804
0.038141 -0.053354 0.265535
0.039549 -0.053535 0.266500
0.040997 -0.053758 0.267672
0.042386 -0.053892 0.268406
0.043728 -0.053960 0.268812
0.045153 -0.054124 0.269696
0.046516 -0.054206 0.270173
0.047900 -0.054308 0.270746
0.049244 -0.054361 0.271081
0.050675 -0.054503 0.271865
0.052132 -0.054666 0.272748
0.053614 -0.054847 0.273723
0.055074 -0.054996 0.274540
0.056566 -0.055171 0.275484
0.057929 -0.055214 0.275772
0.059437 -0.055391 0.276730
0.060849 -0.055471 0.277207
0.062233 -0.055524 0.277545
0.063602 -0.055562 0.277804
0.065057 -0.055671 0.278423
0.066351 -0.055641 0.278346
0.067648 -0.055615 0.278283
0.069066 -0.055687 0.278714
0.070177 -0.055513 0.277912
0.070995 -0.055118 0.276003
0.071079 -0.054179 0.271362
0.071498 -0.053523 0.268142
0.072400 -0.053247 0.266815
0.073406 -0.053054 0.265909
0.074502 -0.052932 0.265353
0.075430 -0.052697 0.264227
0.076439 -0.052525 0.263417
0.077322 -0.052273 0.262204
0.078269 -0.052072 0.261242
0.079307 -0.051938 0.260610
0.080310 -0.051784 0.259879
0.081253 -0.051596 0.258976
0.082026 -0.051309 0.257568
0.082893 -0.051087 0.256486
0.083684 -0.050826 0.255205
0.084409 -0.050533 0.253757
0.085084 -0.050218 0.252197
0.085910 -0.050001 0.251120
0.086640 -0.049734 0.249793
0.087355 -0.049465 0.248455
0.087973 -0.049150 0.246874
0.088600 -0.048848 0.245360
0.089059 -0.048462 0.243420
0.089816 -0.048246 0.242327
0.090142 -0.047808 0.240110
0.090414 -0.047351 0.237802
0.090220 -0.046666 0.234338
0.090839 -0.046412 0.233035
0.091125 -0.045996 0.230917
0.091889 -0.045829 0.230039
0.092707 -0.045692 0.229310
0.093301 -0.045449 0.228044
0.093756 -0.045145 0.226466
0.094287 -0.044883 0.225097
0.095021 -0.044724 0.224233
0.095750 -0.044565 0.223369
0.096395 -0.044371 0.222321
0.097102 -0.044210 0.221431
0.097640 -0.043976 0.220169
0.098361 -0.043829 0.219338
0.098927 -0.043616 0.218170
0.099719 -0.043506 0.217513
0.100301 -0.043308 0.216407
0.101190 -0.043245 0.215968
0.101941 -0.043125 0.215237
0.102556 -0.042951 0.214228
0.103281 -0.042826 0.213454
0.104015 -0.042706 0.212704
0.104478 -0.042479 0.211409
0.104873 -0.042229 0.209990
0.104957 -0.041859 0.207973
0.105566 -0.041704 0.207013
0.106307 -0.041603 0.206314
0.106750 -0.041389 0.205044
0.107441 -0.041274 0.204254
-1.568928 -0.596167 3.059726
-1.589115 -0.609457 3.130414
-1.577131 -0.610544 3.138340
-1.574972 -0.615491 3.166003
-1.571092 -0.619855 3.190568
-1.560813 -0.621755 3.202345
-1.548788 -0.622991 3.210585
-1.537134 -0.624402 3.219619
-1.525826 -0.625984 3.229427
-1.510754 -0.626038 3.231244
-1.496499 -0.626436 3.234729
-1.484456 -0.627778 3.242986
-1.471053 -0.628568 3.248291
-1.457906 -0.629486 3.254157
-1.446227 -0.631064 3.263344
-1.434466 -0.632640 3.272431
-1.421961 -0.633920 3.279896
-1.410190 -0.635559 3.289133
-1.397349 -0.636747 3.295952
-1.384915 -0.638150 3.303802
-1.373837 -0.640217 3.315008
-1.361796 -0.641878 3.324038
-1.347854 -0.642672 3.328495
-1.337236 -0.645089 3.341286
-1.324191 -0.646378 3.348166
-1.310116 -0.647191 3.352504
-1.298878 -0.649442 3.364224
-1.283000 -0.649401 3.364005
-1.268085 -0.649853 3.366271
-1.253093 -0.650277 3.368331
-1.238270 -0.650801 3.370846
-1.226189 -0.652799 3.380936
-1.204236 -0.649525 3.363668
-0.039800 -0.050891 0.260203
-0.038596 -0.050942 0.260374
-0.037116 -0.050618 0.258637
-0.035413 -0.049957 0.255180
-0.032992 -0.048200 0.246128
-0.031542 -0.047785 0.243939
-0.029874 -0.046995 0.239833
-0.028657 -0.046881 0.239179
-0.027613 -0.047050 0.239974
-0.026391 -0.046919 0.239242
-0.025202 -0.046836 0.238753
-0.023829 -0.046388 0.236409
-0.022644 -0.046280 0.235798
-0.021391 -0.046016 0.234397
-0.020078 -0.045583 0.232138
-0.018589 -0.044678 0.227475
-0.017577 -0.044881 0.228459
-0.016544 -0.045049 0.229269
-0.015508 -0.045234 0.230166
-0.014523 -0.045612 0.232042
-0.013551 -0.046091 0.234437
-0.012431 -0.046112 0.234505
-0.011337 -0.046241 0.235125
-0.010231 -0.046344 0.235616
-0.009122 -0.046463 0.236188
-0.008014 -0.046618 0.236943
-0.006908 -0.046834 0.238012
-0.005791 -0.047054 0.239109
-0.004650 -0.047136 0.239502
-0.003506 -0.047226 0.239941
-0.002366 -0.047494 0.241284
-0.001218 -0.047999 0.243835
-0.000046 -0.048042 0.244043
0.001129 -0.048093 0.244289
0.002310 -0.048224 0.244951
0.003494 -0.048304 0.245352
0.004685 -0.048415 0.245916
0.005879 -0.048509 0.246393
0.007082 -0.048629 0.247007
0.008295 -0.048776 0.247761
0.009535 -0.049022 0.249022
0.010787 -0.049270 0.250295
0.012010 -0.049349 0.250711
0.013217 -0.049354 0.250755
0.014460 -0.049480 0.251412
0.015725 -0.049655 0.252326
0.017000 -0.049834 0.253265
0.018259 -0.049948 0.253869
0.019514 -0.050035 0.254346
0.020784 -0.050148 0.254951
0.022064 -0.050271 0.255612
0.023361 -0.050419 0.256403
0.024622 -0.050476 0.256737
0.025941 -0.050642 0.257624
0.027401 -0.051056 0.259772
0.028700 -0.051146 0.260282
0.029990 -0.051214 0.260677
0.031292 -0.051296 0.261147
0.032610 -0.051397 0.261712
0.033959 -0.051536 0.262476
0.035388 -0.051783 0.263795
0.036787 -0.051970 0.264806
0.038190 -0.052150 0.265786
0.039533 -0.052240 0.266307
0.041082 -0.052588 0.268144
0.042427 -0.052660 0.268578
0.043729 -0.052677 0.268732
0.045123 -0.052800 0.269430
0.046522 -0.052923 0.270129
0.047925 -0.053043 0.270810
0.049282 -0.053107 0.271210
0.050614 -0.053142 0.271459
0.052389 -0.053628 0.274015
0.053691 -0.053618 0.274040
0.055142 -0.053754 0.274807
0.056544 -0.053837 0.275307
0.057978 -0.053945 0.275938
0.059471 -0.054103 0.276819
0.060903 -0.054199 0.277387
0.062233 -0.054202 0.277477
0.063546 -0.054191 0.277497
0.064961 -0.054265 0.277949
0.066500 -0.054438 0.278908
0.067740 -0.054364 0.278601
0.069018 -0.054323 0.278462
0.070402 -0.054365 0.278748
0.071424 -0.054131 0.277620
0.071788 -0.053416 0.274020
0.071702 -0.052398 0.268861
0.072347 -0.051941 0.266576
0.073433 -0.051810 0.265966
0.074417 -0.051613 0.265011
0.075495 -0.051486 0.264417
0.076355 -0.051218 0.263093
0.077432 -0.051101 0.262544
0.078358 -0.050890 0.261508
0.079393 -0.050755 0.260863
0.080396 -0.050604 0.260130
0.081328 -0.050414 0.259194
0.082206 -0.050197 0.258111
0.082984 -0.049925 0.256749
0.083749 -0.049654 0.255386
0.084462 -0.049360 0.253902
0.084982 -0.048963 0.251882
0.085736 -0.048711 0.250602
0.086640 -0.048549 0.249787
0.087331 -0.048274 0.248382
0.087907 -0.047943 0.246689
0.088565 -0.047665 0.245262
0.089114 -0.047337 0.243571
0.089967 -0.047177 0.242741
0.090510 -0.046859 0.241097
0.090187 -0.046108 0.237215
0.090096 -0.045491 0.234026
0.090836 -0.045305 0.233040
0.091162 -0.044919 0.231027
0.091713 -0.044651 0.229618
0.092571 -0.044538 0.228995
0.093374 -0.044401 0.228246
0.094072 -0.044218 0.227254
0.094688 -0.044001 0.226083
0.095235 -0.043757 0.224768
0.096038 -0.043635 0.224073
0.096784 -0.043489 0.223254
0.097347 -0.043266 0.222026
0.097867 -0.043028 0.220721
0.098613 -0.042894 0.219941
0.099215 -0.042701 0.218850
0.099917 -0.042555 0.217993
0.100675 -0.042434 0.217264
0.101329 -0.042273 0.216318
0.102162 -0.042190 0.215761
0.102867 -0.042055 0.214935
0.103510 -0.041898 0.213989
0.104067 -0.041710 0.212875
0.104669 -0.041543 0.211861
0.104854 -0.041215 0.210022
0.105200 -0.040957 0.208527
0.105689 -0.040758 0.207329
0.106419 -0.040655 0.206610
0.106877 -0.040451 0.205369
0.107554 -0.040333 0.204553
-1.569668 -0.581873 3.062097
-1.597072 -0.597541 3.146996
-1.584231 -0.598305 3.153335
-1.576387 -0.600990 3.169677
-1.568776 -0.603816 3.186655
-1.560145 -0.606302 3.201727
-1.546784 -0.606980 3.207144
-1.534217 -0.607987 3.214184
-1.522352 -0.609295 3.222709
-1.508891 -0.609985 3.227859
-1.496032 -0.610936 3.234282
-1.482477 -0.611620 3.239188
-1.470348 -0.612913 3.247220
-1.458552 -0.614374 3.256050
-1.445911 -0.615506 3.263047
-1.434960 -0.617391 3.273939
-1.424314 -0.619450 3.285668
-1.411511 -0.620606 3.292523
-1.400180 -0.622442 3.302904
-1.387211 -0.623585 3.309520
-1.374629 -0.624929 3.317125
-1.361935 -0.626253 3.324549
-1.347735 -0.626908 3.328340
-1.334652 -0.628105 3.334934
-1.321935 -0.629504 3.342532
-1.308615 -0.630648 3.348701
-1.295353 -0.631848 3.355099
-1.282487 -0.633274 3.362630
-1.267967 -0.633908 3.365895
-1.250768 -0.633204 3.361985
-1.235783 -0.633617 3.363950
-1.218231 -0.632707 3.358836
-1.205226 -0.634168 3.366243
-0.041892 -0.050675 0.265574
-0.039830 -0.049683 0.260292
-0.038373 -0.049407 0.258759
-0.036459 -0.048504 0.253948
-0.034204 -0.047069 0.246357
-0.032689 -0.046588 0.243764
-0.031399 -0.046404 0.242724
-0.030174 -0.046304 0.242131
-0.029124 -0.046476 0.242958
-0.027754 -0.046131 0.241086
-0.026554 -0.046051 0.240599
-0.025368 -0.045990 0.240213
-0.024151 -0.045863 0.239488
-0.022845 -0.045547 0.237775
-0.021395 -0.044895 0.234313
-0.020003 -0.044299 0.231149
-0.018678 -0.043792 0.228451
-0.017652 -0.043966 0.229309
-0.016656 -0.044241 0.230692
-0.015671 -0.044589 0.232460
-0.014575 -0.044649 0.232732
-0.013550 -0.044954 0.234280
-0.012440 -0.045009 0.234524
-0.011332 -0.045084 0.234875
-0.010238 -0.045235 0.235631
-0.009138 -0.045398 0.236443
-0.008029 -0.045548 0.237197
-0.006926 -0.045793 0.238445
-0.005802 -0.045972 0.239352
-0.004660 -0.046061 0.239791
-0.003522 -0.046257 0.240793
-0.002372 -0.046429 0.241671
-0.001216 -0.046651 0.242810
-0.000048 -0.046822 0.243690
0.001128 -0.046950 0.244343
0.002308 -0.047049 0.244856
0.003496 -0.047174 0.245502
0.004689 -0.047297 0.246139
0.005890 -0.047431 0.246838
0.007092 -0.047523 0.247322
0.008322 -0.047750 0.248513
0.009547 -0.047897 0.249287
0.010790 -0.048090 0.250305
0.012010 -0.048154 0.250652
0.013222 -0.048173 0.250770
0.014466 -0.048299 0.251446
0.015766 -0.048574 0.252902
0.017024 -0.048694 0.253553
0.018258 -0.048729 0.253767
0.019555 -0.048920 0.254791
0.020834 -0.049045 0.255480
0.022093 -0.049112 0.255863
0.023399 -0.049271 0.256732
0.024696 -0.049396 0.257426
0.026048 -0.049613 0.258600
0.027367 -0.049750 0.259363
0.028684 -0.049873 0.260049
0.029979 -0.049948 0.260490
0.031265 -0.050002 0.260827
0.032562 -0.050069 0.261234
0.033906 -0.050202 0.261984
0.035323 -0.050428 0.263220
0.036764 -0.050672 0.264555
0.038185 -0.050873 0.265669
0.039638 -0.051102 0.266929
0.041020 -0.051228 0.267654
0.042414 -0.051360 0.268413
0.043744 -0.051411 0.268744
0.045044 -0.051423 0.268879
0.046467 -0.051572 0.269730
0.047852 -0.051671 0.270321
0.049264 -0.051793 0.271034
0.050729 -0.051963 0.271998
0.052244 -0.052175 0.273182
0.053668 -0.052288 0.273849
0.055055 -0.052360 0.274303
0.056581 -0.052558 0.275417
0.057976 -0.052628 0.275857
0.059461 -0.052774 0.276702
0.060970 -0.052935 0.277626
0.062357 -0.052985 0.277965
0.063714 -0.053009 0.278166
0.065071 -0.053031 0.278358
0.066418 -0.053045 0.278506
0.067749 -0.053045 0.278581
0.069060 -0.053030 0.278575
0.070321 -0.052978 0.278374
0.071401 -0.052794 0.277480
0.071949 -0.052230 0.274585
0.072228 -0.051494 0.270785
0.072720 -0.050935 0.267907
0.073617 -0.050672 0.266588
0.074441 -0.050370 0.265057
0.075581 -0.050287 0.264683
0.076517 -0.050074 0.263617
0.077363 -0.049810 0.262279
0.078383 -0.049664 0.261562
0.079424 -0.049536 0.260934
0.080280 -0.049298 0.259728
0.081198 -0.049105 0.258754
0.081886 -0.048781 0.257085
0.082761 -0.048576 0.256042
0.083634 -0.048376 0.255018
0.084325 -0.048078 0.253475
0.085106 -0.047839 0.252239
0.085875 -0.047599 0.250997
0.086742 -0.047420 0.250073
0.087278 -0.047067 0.248225
0.088028 -0.046837 0.247023
0.088509 -0.046473 0.245106
0.089153 -0.046202 0.243679
0.089370 -0.045720 0.241132
0.090251 -0.045585 0.240415
0.090181 -0.044979 0.237206
0.090864 -0.044759 0.236030
0.091362 -0.044455 0.234403
0.091982 -0.044217 0.233119
0.092419 -0.043897 0.231402
0.093163 -0.043729 0.230479
0.093866 -0.043546 0.229471
0.094382 -0.043281 0.228027
0.095073 -0.043102 0.227029
0.095661 -0.042880 0.225803
0.096328 -0.042698 0.224780
0.096930 -0.042492 0.223625
0.097546 -0.042296 0.222517
0.098109 -0.042082 0.221307
0.098711 -0.041889 0.220202
0.099547 -0.041799 0.219627
0.100041 -0.041568 0.218310
0.100769 -0.041437 0.217514
0.101533 -0.041325 0.216806
0.102233 -0.041189 0.215964
0.102957 -0.041065 0.215181
0.103602 -0.040912 0.214239
0.104225 -0.040754 0.213259
0.104780 -0.040572 0.212150
0.105249 -0.040361 0.210880
0.105632 -0.040121 0.209452
0.106064 -0.039905 0.208138
0.106433 -0.039668 0.206712
0.107023 -0.039518 0.205728
0.107678 -0.039394 0.204870
-1.562220 -0.564607 3.048451
-1.577625 -0.575481 3.109538
-1.566969 -0.576963 3.119797
-1.568245 -0.582911 3.154095
-1.570034 -0.589164 3.189968
-1.558530 -0.590503 3.199132
-1.545906 -0.591440 3.206003
-1.533731 -0.592569 3.213808
-1.521127 -0.593555 3.220723
-1.509080 -0.594780 3.228832
-1.495691 -0.595497 3.234076
-1.483160 -0.596574 3.241176
-1.469270 -0.597121 3.245299
-1.458239 -0.598855 3.255777
-1.446190 -0.600203 3.264065
-1.433095 -0.601142 3.270038
-1.423090 -0.603413 3.283166
-1.410000 -0.604411 3.289287
-1.397144 -0.605533 3.295997
-1.384551 -0.606797 3.303394
-1.371752 -0.607998 3.310370
-1.359549 -0.609494 3.318877
-1.346358 -0.610578 3.325061
-1.332701 -0.611473 3.330145
-1.320949 -0.613275 3.340094
-1.306964 -0.614071 3.344496
-1.294207 -0.615472 3.352121
-1.280214 -0.616312 3.356626
-1.265887 -0.617012 3.360300
-1.250646 -0.617278 3.361550
-1.236668 -0.618183 3.366221
-1.222292 -0.618910 3.369863
-1.205579 -0.618458 3.367028
-0.042712 -0.048892 0.262810
-0.041137 -0.048514 0.260688
-0.039529 -0.048070 0.258217
-0.037143 -0.046623 0.250357
-0.035641 -0.046226 0.248143
-0.034288 -0.046002 0.246861
-0.033112 -0.046006 0.246803
-0.031908 -0.045972 0.246547
-0.030817 -0.046103 0.247175
-0.029559 -0.045987 0.246477
-0.028176 -0.045657 0.244638
-0.026921 -0.045516 0.243811
-0.025779 -0.045561 0.243989
-0.024334 -0.045050 0.241188
-0.022970 -0.044646 0.238960
-0.021433 -0.043844 0.234611
-0.020161 -0.043528 0.232862
-0.018727 -0.042803 0.228928
-0.017693 -0.042958 0.229710
-0.016692 -0.043221 0.231067
-0.015625 -0.043339 0.231650
-0.014598 -0.043594 0.232968
-0.013538 -0.043784 0.233936
-0.012444 -0.043891 0.234469
-0.011400 -0.044211 0.236141
-0.010276 -0.044260 0.236368
-0.009146 -0.044288 0.236484
-0.008044 -0.044482 0.237487
-0.006931 -0.044670 0.238465
-0.005816 -0.044919 0.239766
-0.004673 -0.045017 0.240266
-0.003523 -0.045086 0.240616
-0.002376 -0.045290 0.241687
-0.001217 -0.045441 0.242477
-0.000050 -0.045624 0.243441
0.001126 -0.045772 0.244225
0.002306 -0.045863 0.244700
0.003494 -0.045993 0.245390
