ply
format ascii 1.0
element vertex 1742
property float x
property float y
property float z
end_header
-0.252412 0.095869 0.808445
-0.250023 0.096420 0.812794
-0.245817 0.096277 0.811282
-0.242200 0.096363 0.811697
-0.241939 0.097809 0.823555
-0.295784 0.121534 1.022908
-0.292711 0.122272 1.028700
-0.288481 0.122544 1.030562
-0.283613 0.122550 1.030175
-0.279269 0.122786 1.031720
-0.274577 0.122875 1.032024
-0.269515 0.122798 1.030931
-0.264522 0.122751 1.030080
-0.258773 0.122345 1.026216
-0.253714 0.122255 1.025006
-0.247767 0.121726 1.020113
-0.241518 0.121025 1.013777
-0.235114 0.120215 1.006537
-0.227314 0.118643 0.992927
-0.219381 0.116935 0.978179
-0.161961 0.090158 0.753499
-0.155140 0.088319 0.737799
-0.149134 0.086870 0.725364
-0.146135 0.087146 0.727338
-0.141837 0.086641 0.722801
-0.136530 0.085480 0.712794
-0.131193 0.084240 0.702140
-0.125401 0.082635 0.688461
-0.119865 0.081117 0.675519
-0.127565 0.088720 0.738516
-0.124178 0.088826 0.739080
-0.119507 0.087993 0.731841
-0.116367 0.088272 0.733850
-0.113255 0.088589 0.736182
-0.109571 0.088465 0.734856
-0.106218 0.088609 0.735762
-0.102840 0.088742 0.736574
-0.033464 0.032199 0.266959
-0.032196 0.032214 0.266985
-0.030877 0.032178 0.266594
-0.029498 0.032073 0.265632
-0.028081 0.031916 0.264247
-0.026571 0.031633 0.261818
-0.025274 0.031588 0.261366
-0.023934 0.031483 0.260416
-0.022551 0.031304 0.258866
-0.021044 0.030923 0.255648
-0.019506 0.030447 0.251646
-0.018295 0.030453 0.251632
-0.017002 0.030312 0.250405
-0.015627 0.029994 0.247718
-0.014230 0.029576 0.244213
-0.012966 0.029384 0.242578
-0.011499 0.028649 0.236472
-0.010087 0.027903 0.230270
-0.008975 0.027908 0.230273
-0.007880 0.027973 0.230775
-0.006792 0.028086 0.231679
-0.005676 0.028109 0.231838
-0.004560 0.028137 0.232041
-0.003512 0.028751 0.237082
-0.002371 0.028827 0.237690
-0.001224 0.028890 0.238201
-0.000072 0.028946 0.238650
0.001087 0.029043 0.239438
0.002247 0.029062 0.239586
0.003428 0.029241 0.241062
0.004601 0.029279 0.241378
0.005780 0.029334 0.241833
0.006960 0.029374 0.242172
0.008186 0.029569 0.243786
0.009430 0.029767 0.245439
0.010664 0.029896 0.246521
0.011874 0.029938 0.246887
0.013084 0.029973 0.247203
0.014313 0.030040 0.247784
0.015563 0.030139 0.248630
0.016829 0.030252 0.249595
0.018077 0.030319 0.250190
0.019312 0.030357 0.250543
0.020592 0.030458 0.251419
0.021890 0.030572 0.252408
0.023211 0.030705 0.253557
0.024548 0.030845 0.254764
0.025857 0.030936 0.255579
0.027090 0.030933 0.255612
0.028352 0.030963 0.255919
0.029661 0.031038 0.256606
0.030946 0.031084 0.257051
0.032279 0.031171 0.257843
0.033681 0.031317 0.259128
0.035222 0.031577 0.261352
0.036501 0.031591 0.261550
0.037808 0.031629 0.261945
0.039083 0.031638 0.262102
0.040364 0.031651 0.262291
0.041850 0.031819 0.263771
0.043212 0.031886 0.264416
0.044578 0.031952 0.265051
0.045890 0.031976 0.265344
0.047203 0.032000 0.265635
0.048626 0.032094 0.266513
0.050022 0.032167 0.267213
0.051430 0.032244 0.267950
0.052743 0.032258 0.268168
0.054325 0.032432 0.269716
0.055723 0.032492 0.270311
0.057068 0.032518 0.270627
0.058373 0.032521 0.270752
0.059739 0.032556 0.271147
0.061108 0.032592 0.271550
0.062531 0.032654 0.272171
0.064006 0.032741 0.272995
0.065350 0.032757 0.273239
0.066761 0.032807 0.273754
0.068116 0.032827 0.274026
0.069415 0.032821 0.274070
0.070647 0.032783 0.273856
0.071805 0.032713 0.273369
0.072977 0.032652 0.272955
0.073657 0.032376 0.270748
0.073992 0.031961 0.267368
0.074328 0.031561 0.264110
0.075520 0.031531 0.263947
0.076289 0.031328 0.262339
0.077188 0.031185 0.261220
0.077854 0.030953 0.259362
0.078675 0.030789 0.258068
0.079426 0.030604 0.256587
0.080227 0.030442 0.255309
0.081008 0.030279 0.254007
0.081786 0.030119 0.252732
0.082753 0.030032 0.252065
0.083697 0.029939 0.251348
0.084506 0.029801 0.250249
0.085471 0.029722 0.249636
0.086293 0.029596 0.248624
0.087152 0.029485 0.247741
0.088080 0.029400 0.247072
0.088880 0.029276 0.246065
0.089729 0.029170 0.245213
0.090588 0.029071 0.244407
0.091399 0.028959 0.243488
0.092192 0.028843 0.242541
0.093008 0.028738 0.241675
0.093796 0.028627 0.240752
0.094506 0.028495 0.239647
0.095418 0.028427 0.239073
0.096124 0.028299 0.237993
0.096878 0.028188 0.237054
0.097487 0.028038 0.235778
0.097955 0.027851 0.234189
0.098146 0.027591 0.231973
0.098541 0.027393 0.230278
0.099223 0.027278 0.229279
0.099753 0.027125 0.227946
0.100285 0.026975 0.226639
0.100624 0.026777 0.224920
0.101303 0.026673 0.223983
0.101581 0.026466 0.222180
0.102243 0.026363 0.221239
0.102113 0.026060 0.218613
0.101910 0.025744 0.215877
0.102071 0.025525 0.213951
0.102737 0.025437 0.213103
0.103409 0.025351 0.212275
0.103744 0.025185 0.210769
0.104133 0.025035 0.209392
0.104617 0.024911 0.208221
0.104944 0.024752 0.206750
0.105766 0.024711 0.206264
0.106257 0.024595 0.205134
0.106788 0.024490 0.204092
-1.031394 0.240260 1.941175
-1.021601 0.240120 1.941533
-1.011076 0.239803 1.940377
-1.009888 0.241715 1.957181
-1.006975 0.243246 1.970835
-0.999771 0.243760 1.976173
-1.003729 0.247030 2.003797
-1.012945 0.251668 2.042479
-1.017373 0.255195 2.072095
-1.007852 0.255258 2.073519
-0.997760 0.255175 2.073693
-0.989488 0.255562 2.077605
-0.891271 0.232493 1.890706
-0.884487 0.233050 1.895819
-0.874046 0.232645 1.893046
-1.513656 0.415594 3.383883
-1.493284 0.414356 3.374330
-1.490226 0.417947 3.404015
-1.466699 0.415813 3.386984
-1.445611 0.414331 3.375176
-1.428653 0.414013 3.372767
-1.415969 0.414941 3.380423
-1.405383 0.416511 3.393236
-0.946509 0.283735 2.311492
-0.941206 0.285421 2.325135
-0.935473 0.287014 2.337976
-0.920417 0.285752 2.327501
-1.342343 0.421756 3.434930
-1.327342 0.422120 3.437484
-1.308630 0.421299 3.430319
-1.307246 0.426106 3.468910
-1.293097 0.426821 3.474122
-0.701070 0.234369 1.907286
-0.695925 0.235665 1.917437
-0.688055 0.236061 1.920227
-0.285932 0.104996 0.852940
-0.282382 0.105171 0.854100
-0.273820 0.103458 0.839920
-0.270306 0.103629 0.841036
-0.255874 0.099558 0.807717
-0.252678 0.099801 0.809409
-0.250257 0.100363 0.813674
-0.245382 0.099943 0.809966
-0.242478 0.100325 0.812755
-0.301535 0.126769 1.026585
-0.297069 0.126935 1.027526
-0.292864 0.127220 1.029419
-0.288420 0.127410 1.030529
-0.283943 0.127591 1.031566
-0.279321 0.127712 1.032110
-0.274768 0.127869 1.032943
-0.269562 0.127723 1.031320
-0.264660 0.127718 1.030831
-0.259093 0.127386 1.027703
-0.253876 0.127217 1.025885
-0.248089 0.126750 1.021666
-0.241873 0.126041 1.015498
-0.235422 0.125179 1.008096
-0.227334 0.123391 0.993253
-0.218502 0.121116 0.974501
-0.214165 0.121288 0.975442
-0.156244 0.090448 0.727089
-0.152002 0.089988 0.723064
-0.147068 0.089087 0.715508
-0.143860 0.089215 0.716211
-0.139266 0.088468 0.709896
-0.134806 0.087771 0.703993
-0.129040 0.086166 0.690816
-0.124919 0.085604 0.686016
-0.119791 0.084304 0.675304
-0.115656 0.083650 0.669776
-0.123855 0.092133 0.737387
-0.119524 0.091520 0.732175
-0.116379 0.091807 0.734162
-0.113309 0.092171 0.736773
-0.109626 0.092045 0.735471
-0.106280 0.092201 0.736434
-0.101163 0.090781 0.724807
-0.097782 0.090872 0.725259
-0.032166 0.033470 0.266834
-0.030890 0.033477 0.266804
-0.029464 0.033316 0.265425
-0.028058 0.033164 0.264129
-0.026706 0.033064 0.263252
-0.025373 0.032978 0.262488
-0.023987 0.032812 0.261090
-0.022634 0.032675 0.259920
-0.021140 0.032306 0.256919
-0.019721 0.032014 0.254526
-0.018339 0.031746 0.252334
-0.017007 0.031533 0.250583
-0.015597 0.031133 0.247346
-0.014315 0.030942 0.245780
-0.013069 0.030802 0.244615
-0.011759 0.030469 0.241924
-0.010396 0.029909 0.237437
-0.008991 0.029075 0.230782
-0.007895 0.029147 0.231322
-0.006802 0.029256 0.232153
-0.005685 0.029284 0.232343
-0.004553 0.029222 0.231829
-0.003448 0.029358 0.232889
-0.002357 0.029815 0.236489
-0.001221 0.029995 0.237908
-0.000070 0.030143 0.239065
0.001086 0.030144 0.239063
0.002246 0.030185 0.239387
0.003415 0.030277 0.240114
0.004605 0.030464 0.241593
0.005774 0.030466 0.241613
0.006961 0.030543 0.242237
0.008182 0.030728 0.243714
0.009415 0.030901 0.245102
0.010650 0.031045 0.246260
0.011869 0.031118 0.246860
0.013091 0.031182 0.247395
0.014301 0.031210 0.247640
0.015528 0.031269 0.248143
0.016777 0.031360 0.248893
0.018038 0.031459 0.249719
0.019326 0.031590 0.250803
0.020585 0.031661 0.251410
0.021843 0.031722 0.251942
0.023160 0.031858 0.253073
0.024456 0.031952 0.253872
0.025780 0.032073 0.254890
0.027048 0.032116 0.255290
0.028312 0.032151 0.255625
0.029608 0.032217 0.256216
0.030948 0.032324 0.257131
0.032239 0.032373 0.257596
0.033563 0.032451 0.258284
0.035013 0.032640 0.259867
0.036414 0.032773 0.261000
0.037776 0.032862 0.261790
0.039031 0.032856 0.261820
0.040354 0.032905 0.262299
0.041744 0.033004 0.263175
0.043177 0.033130 0.264267
0.044543 0.033200 0.264908
0.045895 0.033254 0.265437
0.047201 0.033274 0.265685
0.048560 0.033329 0.266215
0.050104 0.033505 0.267718
0.051471 0.033556 0.268222
0.052826 0.033597 0.268651
0.054274 0.033694 0.269527
0.055730 0.033791 0.270401
0.057017 0.033784 0.270442
0.058345 0.033801 0.270677
0.059711 0.033838 0.271076
0.061051 0.033859 0.271349
0.062435 0.033904 0.271808
0.063836 0.033955 0.272320
0.065291 0.034033 0.273046
0.066697 0.034083 0.273543
0.067997 0.034077 0.273595
0.069247 0.034047 0.273454
0.070600 0.034068 0.273720
0.071748 0.033991 0.273198
0.072839 0.033889 0.272481
0.073493 0.033592 0.270185
0.074077 0.033274 0.267715
0.074955 0.033096 0.266375
0.075028 0.032575 0.262264
0.075921 0.032420 0.261107
0.076864 0.032293 0.260159
0.077881 0.032199 0.259483
0.078683 0.032021 0.258124
0.079457 0.031837 0.256718
0.080321 0.031694 0.255635
0.081204 0.031563 0.254647
0.081936 0.031378 0.253218
0.082794 0.031245 0.252212
0.083720 0.031142 0.251440
0.084620 0.031032 0.250607
0.085524 0.030927 0.249808
0.086370 0.030804 0.248861
0.087114 0.030648 0.247648
0.088065 0.030568 0.247044
0.088892 0.030448 0.246110
0.089637 0.030303 0.244972
0.090460 0.030188 0.244071
0.091261 0.030069 0.243128
0.092051 0.029949 0.242177
0.092924 0.029858 0.241461
0.093679 0.029732 0.240454
0.094341 0.029580 0.239231
0.094934 0.029411 0.237860
0.095666 0.029288 0.236858
0.096295 0.029136 0.235623
0.096857 0.028968 0.234249
0.097542 0.028840 0.233195
0.097991 0.028646 0.231600
0.098677 0.028525 0.230586
0.099244 0.028373 0.229315
0.099864 0.028238 0.228186
0.100413 0.028087 0.226912
0.100786 0.027890 0.225267
0.100982 0.027649 0.223256
0.101382 0.027468 0.221726
0.101461 0.027205 0.219526
0.101681 0.026985 0.217665
0.101808 0.026745 0.215637
0.102381 0.026625 0.214575
0.102664 0.026433 0.212926
0.103054 0.026272 0.211519
0.103771 0.026197 0.210795
0.104141 0.026036 0.209376
0.104416 0.025855 0.207787
0.105105 0.025779 0.207033
0.105672 0.025675 0.206043
0.106326 0.025593 0.205229
0.106948 0.025506 0.204358
-1.035039 0.250370 1.947665
-1.021734 0.249374 1.941435
-1.012804 0.249439 1.943362
-1.012499 0.251647 1.961926
-1.005931 0.252326 1.968491
-1.000749 0.253368 1.977819
-1.001814 0.256027 1.999703
-1.008540 0.260197 2.033338
-1.009631 0.262979 2.056083
-1.000045 0.263007 2.057230
-0.994485 0.264105 2.066674
-0.986233 0.264503 2.070574
-0.885934 0.239975 1.879220
-0.880565 0.240926 1.887262
-0.873865 0.241529 1.892519
-1.518844 0.433032 3.395314
-1.484444 0.427720 3.354215
-1.485868 0.432726 3.393944
-1.463124 0.430727 3.378637
-1.440849 0.428823 3.363991
-1.422279 0.427992 3.357677
-1.406997 0.428143 3.358981
-1.394763 0.429236 3.367596
-1.381202 0.429941 3.373091
-0.939613 0.295878 2.321234
-0.933094 0.297277 2.332079
-0.921619 0.297111 2.330605
-1.341626 0.437715 3.433213
-1.321933 0.436541 3.423617
-1.307438 0.437076 3.427357
-1.304081 0.441395 3.460698
-1.289956 0.442132 3.465894
-0.699342 0.242767 1.902711
-0.693164 0.243742 1.909970
-0.685320 0.244150 1.912746
-0.673234 0.243037 1.903584
-0.282203 0.109140 0.853661
-0.273534 0.107317 0.839147
-0.265748 0.105793 0.826962
-0.257262 0.103941 0.812211
-0.252496 0.103558 0.808941
-0.249841 0.104043 0.812439
-0.246404 0.104213 0.813467
-0.308515 0.132549 1.034269
-0.302351 0.131992 1.029532
-0.297430 0.131969 1.028950
-0.292997 0.132165 1.030069
-0.288354 0.132271 1.030484
-0.284045 0.132537 1.032131
-0.279356 0.132632 1.032442
-0.274715 0.132753 1.032951
-0.269866 0.132776 1.032696
-0.264822 0.132703 1.031685
-0.259306 0.132386 1.028776
-0.254100 0.132218 1.027021
-0.248209 0.131681 1.022398
-0.241556 0.130709 1.014405
-0.235034 0.129771 1.006678
-0.226925 0.127898 0.991714
-0.218588 0.125816 0.975131
-0.156117 0.093844 0.726686
-0.149302 0.091783 0.710409
-0.143918 0.090527 0.700377
-0.141064 0.090839 0.702484
-0.137228 0.090520 0.699706
-0.131713 0.089050 0.688043
-0.127584 0.088465 0.683227
-0.123804 0.088098 0.680099
-0.119311 0.087190 0.672801
-0.115713 0.086905 0.670316
-0.123745 0.095586 0.736966
-0.119283 0.094844 0.730938
-0.116060 0.095071 0.732388
-0.112891 0.095357 0.734298
-0.109431 0.095409 0.734409
-0.105983 0.095475 0.734628
-0.100975 0.094092 0.723710
-0.095704 0.092357 0.710100
-0.090603 0.090664 0.696825
-0.030883 0.034755 0.266842
-0.029438 0.034565 0.265292
-0.028034 0.034409 0.264005
-0.026712 0.034342 0.263410
-0.025368 0.034239 0.262545
-0.023899 0.033949 0.260240
-0.022490 0.033715 0.258378
-0.021096 0.033479 0.256496
-0.019695 0.033201 0.254300
-0.018345 0.032979 0.252537
-0.017019 0.032769 0.250874
-0.015546 0.032225 0.246655
-0.014331 0.032169 0.246168
-0.013105 0.032076 0.245409
-0.011836 0.031848 0.243625
-0.010534 0.031475 0.240723
-0.009234 0.031012 0.237145
-0.007897 0.030276 0.231487
-0.006801 0.030379 0.232245
-0.005683 0.030402 0.232387
-0.004560 0.030401 0.232355
-0.003472 0.030717 0.234749
-0.002340 0.030751 0.234993
-0.001209 0.030870 0.235889
-0.000069 0.031160 0.238093
0.001089 0.031335 0.239415
0.002252 0.031409 0.239976
0.003416 0.031440 0.240210
0.004589 0.031514 0.240776
0.005777 0.031641 0.241755
0.006954 0.031678 0.242045
0.008153 0.031786 0.242880
0.009390 0.031999 0.244522
0.010634 0.032184 0.245947
0.011861 0.032286 0.246753
0.013053 0.032282 0.246747
0.014295 0.032392 0.247613
0.015520 0.032448 0.248072
0.016782 0.032570 0.249041
0.018007 0.032607 0.249358
0.019260 0.032687 0.250007
0.020526 0.032779 0.250760
0.021819 0.032901 0.251735
0.023130 0.033035 0.252809
0.024439 0.033153 0.253768
0.025743 0.033254 0.254596
0.027024 0.033316 0.255130
0.028296 0.033363 0.255549
0.029583 0.033423 0.256074
0.030874 0.033483 0.256593
0.032178 0.033550 0.257181
0.033515 0.033647 0.257990
0.034910 0.033792 0.259179
0.036341 0.033961 0.260550
0.037678 0.034034 0.261186
0.038955 0.034048 0.261379
0.040293 0.034114 0.261967
0.041655 0.034196 0.262679
0.043123 0.034357 0.264003
0.044506 0.034444 0.264758
0.045883 0.034520 0.265436
0.047180 0.034534 0.265632
0.048603 0.034637 0.266520
0.050094 0.034782 0.267728
0.051434 0.034818 0.268096
0.052847 0.034899 0.268819
0.054156 0.034910 0.269000
0.055598 0.035004 0.269824
0.056939 0.035031 0.270132
0.058238 0.035032 0.270239
0.059604 0.035073 0.270650
0.060960 0.035105 0.271001
0.062378 0.035172 0.271612
0.063847 0.035264 0.272422
0.065229 0.035305 0.272837
0.066606 0.035341 0.273222
0.067890 0.035328 0.273218
0.069158 0.035307 0.273153
0.070477 0.035312 0.273290
0.071642 0.035242 0.272840
0.072758 0.035150 0.272221
0.073664 0.034962 0.270856
0.073973 0.034502 0.267382
0.074437 0.034128 0.264575
0.075315 0.033953 0.263306
0.076031 0.033713 0.261523
0.076866 0.033532 0.260198
0.077650 0.033335 0.258746
0.078460 0.033155 0.257425
0.079390 0.033030 0.256531
0.080388 0.032937 0.255877
0.081287 0.032807 0.254934
0.082122 0.032655 0.253817
0.083039 0.032540 0.252983
0.083895 0.032404 0.251985
0.084750 0.032272 0.251013
0.085708 0.032182 0.250365
0.086508 0.032037 0.249276
0.087219 0.031862 0.247962
0.088064 0.031740 0.247053
0.088929 0.031629 0.246225
0.089757 0.031508 0.245309
0.090585 0.031389 0.244416
0.091423 0.031278 0.243568
0.092168 0.031137 0.242491
0.092931 0.031006 0.241482
0.093736 0.030892 0.240603
0.094437 0.030747 0.239476
0.095087 0.030588 0.238242
0.095657 0.030409 0.236834
0.096249 0.030240 0.235506
0.096797 0.030061 0.234098
0.097646 0.029979 0.233436
0.097837 0.029699 0.231226
0.098426 0.029544 0.229990
0.099185 0.029444 0.229167
0.099845 0.029316 0.228129
0.100431 0.029170 0.226938
0.100900 0.028994 0.225505
0.100897 0.028686 0.223048
0.101069 0.028435 0.221022
0.101166 0.028167 0.218866
0.101614 0.028002 0.217498
0.101884 0.027792 0.215773
0.101979 0.027538 0.213707
0.102108 0.027299 0.211745
0.102822 0.027219 0.211014
0.103001 0.027000 0.209199
0.103455 0.026857 0.207964
0.104125 0.026773 0.207173
0.104774 0.026684 0.206343
0.105516 0.026621 0.205699
0.106180 0.026539 0.204908
0.106897 0.026472 0.204218
-1.033822 0.259325 1.944988
-1.023829 0.259128 1.945049
-1.012350 0.258548 1.942141
-1.011459 0.260687 1.959574
-1.005540 0.261557 1.967408
-0.999281 0.262354 1.974617
-0.999946 0.265001 1.995688
-1.009187 0.269993 2.034370
-1.001043 0.270385 2.038337
-0.998682 0.272362 2.054184
-0.986495 0.271672 2.049847
-0.978302 0.272079 2.053716
-0.886283 0.248948 1.879787
-0.882333 0.250338 1.890892
-0.871600 0.249812 1.887469
-0.864056 0.250199 1.890883
-1.516325 0.448301 3.389502
-1.474614 0.440600 3.331852
-1.464964 0.442415 3.346069
-1.455957 0.444467 3.361984
-1.431095 0.441670 3.341141
-1.411187 0.440358 3.331437
-1.397031 0.440831 3.335161
-1.394047 0.444880 3.365862
-0.934753 0.305232 2.309257
-0.929205 0.306985 2.322406
-0.918794 0.307153 2.323522
-1.339651 0.453233 3.428274
-1.325728 0.453983 3.433583
-1.313374 0.455296 3.443081
-1.301813 0.456920 3.454866
-1.287703 0.457680 3.460050
-0.700463 0.252147 1.905890
-0.692991 0.252692 1.909634
-0.675291 0.249473 1.884907
-0.673762 0.252221 1.905241
-0.308297 0.137353 1.033707
-0.302135 0.136775 1.028971
-0.297358 0.136815 1.028883
-0.292961 0.137035 1.030132
-0.288708 0.137330 1.031944
-0.283963 0.137397 1.032033
-0.279413 0.137564 1.032858
-0.274856 0.137732 1.033696
-0.269884 0.137695 1.032986
-0.265094 0.137751 1.032970
-0.259668 0.137473 1.030442
-0.254401 0.137270 1.028478
-0.248575 0.136751 1.024148
-0.241900 0.135735 1.016097
-0.234207 0.134096 1.003384
-0.225737 0.131933 0.986772
-0.221357 0.132121 0.987739
-0.146266 0.093242 0.696158
-0.141608 0.092367 0.689327
-0.139526 0.093172 0.695028
-0.134742 0.092167 0.687236
-0.130327 0.091371 0.681005
-0.125850 0.090490 0.674148
-0.122174 0.090153 0.671352
-0.118379 0.089709 0.667758
-0.114324 0.089037 0.662479
-0.122485 0.098112 0.729700
-0.119130 0.098225 0.730240
-0.116023 0.098555 0.732398
-0.112573 0.098606 0.732486
-0.109211 0.098739 0.733188
-0.105855 0.098888 0.734005
-0.101713 0.098286 0.729264
-0.095574 0.095644 0.709394
-0.092258 0.095736 0.709820
-0.032127 0.035998 0.266711
-0.030873 0.036029 0.266855
-0.029277 0.035648 0.263944
-0.027835 0.035429 0.262237
-0.026444 0.035255 0.260868
-0.025041 0.035049 0.259265
-0.023708 0.034924 0.258269
-0.022353 0.034751 0.256914
-0.021062 0.034662 0.256189
-0.019624 0.034306 0.253494
-0.018270 0.034059 0.251610
-0.016942 0.033829 0.249847
-0.015602 0.033539 0.247656
-0.014347 0.033398 0.246562
-0.013118 0.033297 0.245770
-0.011883 0.033161 0.244720
-0.010597 0.032836 0.242281
-0.009365 0.032619 0.240639
-0.007982 0.031741 0.234130
-0.006804 0.031522 0.232483
-0.005680 0.031517 0.232413
-0.004541 0.031401 0.231536
-0.003438 0.031546 0.232584
-0.002328 0.031744 0.234022
-0.001208 0.032034 0.236146
-0.000067 0.032243 0.237677
0.001084 0.032313 0.238186
0.002241 0.032385 0.238707
0.003408 0.032508 0.239610
0.004607 0.032798 0.241749
0.005782 0.032833 0.242012
0.006956 0.032852 0.242159
0.008147 0.032933 0.242767
0.009383 0.033151 0.244386
0.010612 0.033298 0.245489
0.011845 0.033430 0.246482
0.013043 0.033444 0.246611
0.014278 0.033545 0.247382
0.015490 0.033580 0.247667
0.016735 0.033676 0.248409
0.017996 0.033788 0.249275
0.019228 0.033836 0.249663
0.020476 0.033905 0.250216
0.021752 0.034010 0.251038
0.023084 0.034186 0.252384
0.024421 0.034351 0.253660
0.025720 0.034450 0.254442
0.026988 0.034499 0.254864
0.028258 0.034549 0.255286
0.029562 0.034631 0.255962
0.030828 0.034666 0.256280
0.032110 0.034715 0.256712
0.033554 0.034929 0.258365
0.034873 0.035001 0.258972
0.036309 0.035183 0.260390
0.037638 0.035252 0.260977
0.038937 0.035289 0.261335
0.040195 0.035288 0.261406
0.041576 0.035391 0.262256
0.043101 0.035608 0.263942
0.044480 0.035694 0.264671
0.045778 0.035713 0.264896
0.047100 0.035748 0.265249
0.048440 0.035796 0.265694
0.049912 0.035936 0.266824
0.051342 0.036038 0.267679
0.052771 0.036136 0.268498
0.054132 0.036183 0.268945
0.055554 0.036268 0.269671
0.056883 0.036289 0.269929
0.058222 0.036316 0.270224
0.059547 0.036333 0.270451
0.060905 0.036369 0.270814
0.062240 0.036390 0.271071
0.063614 0.036432 0.271484
0.065000 0.036480 0.271934
0.066363 0.036512 0.272275
0.067742 0.036553 0.272673
0.069034 0.036546 0.272714
0.070442 0.036598 0.273203
0.071608 0.036526 0.272757
0.072776 0.036457 0.272337
0.073304 0.036076 0.269575
0.074492 0.036027 0.269299
0.075145 0.035725 0.267131
0.075294 0.035198 0.263270
0.076001 0.034944 0.261457
0.076678 0.034685 0.259597
0.077647 0.034565 0.258770
0.078682 0.034477 0.258185
0.079392 0.034251 0.256566
0.080125 0.034042 0.255069
0.081110 0.033945 0.254405
0.081951 0.033791 0.253315
0.082847 0.033664 0.252421
0.083832 0.033576 0.251820
0.084738 0.033460 0.250996
0.085654 0.033350 0.250224
0.086485 0.033211 0.249226
0.087271 0.033059 0.248124
0.088077 0.032918 0.247105
0.088833 0.032762 0.245970
0.089680 0.032644 0.245109
0.090571 0.032544 0.244388
0.091284 0.032384 0.243203
0.092085 0.032258 0.242277
0.092814 0.032111 0.241181
0.093662 0.032008 0.240415
0.094405 0.031872 0.239394
0.094942 0.031670 0.237876
0.095496 0.031479 0.236431
0.096205 0.031343 0.235394
0.096843 0.031187 0.234202
0.097439 0.031021 0.232934
0.098118 0.030885 0.231880
0.098656 0.030708 0.230516
0.099198 0.030536 0.229184
0.099810 0.030389 0.228034
0.100439 0.030250 0.226938
0.100923 0.030072 0.225537
0.101111 0.029809 0.223502
0.101197 0.029523 0.221280
0.101735 0.029372 0.220074
0.102231 0.029213 0.218793
0.102042 0.028863 0.216081
0.102138 0.028600 0.214011
0.101979 0.028272 0.211446
0.102197 0.028053 0.209699
0.102855 0.027959 0.208870
0.103370 0.027827 0.207758
0.103859 0.027691 0.206605
0.104576 0.027618 0.205915
0.105473 0.027594 0.205576
0.106135 0.027508 0.204777
0.106567 0.027366 0.203543
-1.031469 0.267964 1.940153
-1.023037 0.268164 1.943156
-1.014964 0.268462 1.946788
-1.008541 0.269206 1.953571
-1.004202 0.270526 1.964456
-0.998486 0.271495 1.972731
-0.997873 0.273884 1.991250
-1.002935 0.277891 2.021480
-1.001438 0.280139 2.038871
-0.997280 0.281680 2.051048
-0.987107 0.281536 2.050884
-0.978901 0.281955 2.054756
-0.889680 0.258815 1.886808
-0.887789 0.260869 1.902414
-0.877391 0.260440 1.899855
-0.851543 0.255369 1.863364
-1.517720 0.459883 3.356443
-1.504282 0.460601 3.362389
-1.476762 0.456977 3.336538
-1.469565 0.459632 3.356437
-1.450262 0.458517 3.348719
-1.431239 0.457467 3.341390
-1.415034 0.457305 3.340456
-1.401467 0.458001 3.345713
-1.391065 0.459759 3.358651
-1.377519 0.460507 3.364127
-0.938971 0.317543 2.319700
-0.927520 0.317355 2.318236
-0.920000 0.318524 2.326632
-1.351578 0.473574 3.458905
-1.337520 0.474354 3.464259
-1.318825 0.473489 3.457531
-1.311935 0.476893 3.481916
-1.315144 0.484101 3.533997
-0.697144 0.259901 1.896987
-0.688532 0.260019 1.897486
-0.683882 0.261655 1.909039
-0.671947 0.260511 1.900277
-0.664100 0.260942 1.902975
-0.309115 0.142628 1.036622
-0.302685 0.141910 1.031025
-0.298285 0.142136 1.032275
-0.293239 0.142056 1.031301
-0.288587 0.142167 1.031707
-0.283966 0.142298 1.032249
-0.279377 0.142451 1.032938
-0.274706 0.142566 1.033350
-0.269888 0.142607 1.033226
-0.265083 0.142658 1.033157
-0.259803 0.142449 1.031215
-0.254144 0.142021 1.027679
-0.247976 0.141286 1.021927
-0.240561 0.139798 1.010723
-0.232575 0.137910 0.996645
-0.226484 0.137091 0.990295
-0.217230 0.134281 0.969582
-0.144682 0.095521 0.688815
-0.140008 0.094580 0.681735
-0.137377 0.095008 0.684524
-0.133376 0.094486 0.680470
-0.129078 0.093723 0.674682
-0.124545 0.092746 0.667365
-0.120856 0.092361 0.664318
-0.117484 0.092206 0.662923
-0.112981 0.091130 0.654916
-0.122572 0.101684 0.730466
-0.119214 0.101801 0.731005
-0.115694 0.101781 0.730574
-0.112139 0.101730 0.729917
-0.108749 0.101829 0.730347
-0.105462 0.102035 0.731543
-0.100884 0.100963 0.723584
-0.096584 0.100103 0.717158
-0.091299 0.098121 0.702709
-0.088009 0.098213 0.703116
-0.031868 0.036982 0.264665
-0.030495 0.036858 0.263694
-0.029240 0.036873 0.263716
-0.027853 0.036717 0.262513
-0.026568 0.036685 0.262207
-0.025030 0.036284 0.259258
-0.023643 0.036071 0.257663
-0.022334 0.035959 0.256798
-0.020964 0.035733 0.255111
-0.019547 0.035391 0.252609
-0.018250 0.035236 0.251441
-0.016892 0.034935 0.249233
-0.015534 0.034585 0.246685
-0.014272 0.034409 0.245380
-0.013045 0.034297 0.244531
-0.011849 0.034249 0.244141
-0.010548 0.033854 0.241290
-0.009297 0.033539 0.239007
-0.008076 0.033263 0.237002
-0.006831 0.032782 0.233547
-0.005658 0.032518 0.231639
-0.004533 0.032472 0.231283
-0.003417 0.032490 0.231395
-0.002316 0.032714 0.232972
-0.001195 0.032865 0.234028
-0.000065 0.033192 0.236345
0.001086 0.033484 0.238418
0.002242 0.033538 0.238797
0.003396 0.033532 0.238750
0.004594 0.033864 0.241110
0.005773 0.033940 0.241657
0.006945 0.033958 0.241797
0.008143 0.034080 0.242674
0.009362 0.034251 0.243906
0.010604 0.034455 0.245373
0.011821 0.034545 0.246034
0.013038 0.034620 0.246594
0.014249 0.034665 0.246938
0.015480 0.034751 0.247579
0.016713 0.034826 0.248145
0.017944 0.034888 0.248627
0.019197 0.034982 0.249335
0.020485 0.035126 0.250403
0.021746 0.035210 0.251043
0.023087 0.035406 0.252490
0.024365 0.035492 0.253154
0.025648 0.035575 0.253801
0.026942 0.035667 0.254512
0.028301 0.035831 0.255744
0.029550 0.035849 0.255936
0.030848 0.035922 0.256522
0.032207 0.036058 0.257560
0.033517 0.036131 0.258151
0.034861 0.036235 0.258962
0.036186 0.036312 0.259586
0.037552 0.036423 0.260453
0.038866 0.036478 0.260929
0.040139 0.036493 0.261115
0.041539 0.036618 0.262092
0.042987 0.036777 0.263313
0.044376 0.036878 0.264120
0.045716 0.036934 0.264609
0.047091 0.037014 0.265268
0.048431 0.037063 0.265712
0.049853 0.037170 0.266571
0.051325 0.037309 0.267657
0.052653 0.037339 0.267966
0.054042 0.037409 0.268563
0.055398 0.037454 0.268979
0.056815 0.037536 0.269667
0.058181 0.037583 0.270097
0.059529 0.037616 0.270430
0.060835 0.037621 0.270565
0.062230 0.037680 0.271086
0.063567 0.037702 0.271340
0.064914 0.037729 0.271631
0.066242 0.037744 0.271834
0.067594 0.037772 0.272129
0.068938 0.037794 0.272385
0.070252 0.037800 0.272516
0.071652 0.037850 0.272975
0.073003 0.037874 0.273233
0.074273 0.037855 0.273186
0.075082 0.037605 0.271474
0.075374 0.037110 0.267985
0.075471 0.036537 0.263930
0.075700 0.036045 0.260456
0.076443 0.035811 0.258838
0.077293 0.035633 0.257625
0.078466 0.035607 0.257508
0.079285 0.035423 0.256251
0.079998 0.035199 0.254694
0.080994 0.035104 0.254069
0.081685 0.034881 0.252517
0.082642 0.034777 0.251820
0.083700 0.034718 0.251445
0.084690 0.034632 0.250876
0.085654 0.034538 0.250243
0.086453 0.034382 0.249152
0.087111 0.034174 0.247686
0.087934 0.034035 0.246718
0.088758 0.033901 0.245773
0.089531 0.033751 0.244713
0.090376 0.033631 0.243869
0.091125 0.033479 0.242787
0.091848 0.033322 0.241659
0.092553 0.033162 0.240507
0.093330 0.033031 0.239564
0.094072 0.032891 0.238548
0.094363 0.032599 0.236422
0.095120 0.032472 0.235498
0.096016 0.032396 0.234925
0.096550 0.032200 0.233487
0.097249 0.032063 0.232468
0.097797 0.031881 0.231110
0.098455 0.031737 0.230032
0.099074 0.031584 0.228882
0.099698 0.031437 0.227761
0.100351 0.031301 0.226723
0.100933 0.031146 0.225538
0.101068 0.030858 0.223386
0.101086 0.030541 0.221014
0.101491 0.030346 0.219521
0.101688 0.030094 0.217605
0.101776 0.029814 0.215489
0.101852 0.029537 0.213382
0.101592 0.029168 0.210613
0.102072 0.029018 0.209409
0.102702 0.028912 0.208524
0.103268 0.028791 0.207517
0.103906 0.028691 0.206662
0.104535 0.028591 0.205793
0.105541 0.028596 0.205666
0.106225 0.028513 0.204907
0.106806 0.028405 0.203952
-1.032138 0.277373 1.940987
-1.020825 0.276800 1.938550
-1.013667 0.277353 1.943914
-1.009182 0.278655 1.954445
-1.002310 0.279316 1.960407
-0.997061 0.280445 1.969584
-0.995112 0.282533 1.985426
-1.002759 0.287411 2.020825
-1.008798 0.291917 2.053568
-1.000414 0.292297 2.057224
-0.993898 0.293235 2.064741
-0.985627 0.293669 2.068640
-0.891780 0.268360 1.891064
-0.874773 0.265897 1.874343
-0.874363 0.268479 1.893133
-0.854528 0.265089 1.869748
-1.515542 0.475037 3.351392
-1.502111 0.475775 3.357329
-1.473296 0.471604 3.328528
-1.459032 0.472052 3.332228
-1.448861 0.473848 3.345357
-1.430897 0.473107 3.340489
-1.414506 0.472876 3.339135
-1.399244 0.473021 3.340357
-1.384313 0.473282 3.342324
-1.370821 0.474048 3.347772
-0.936307 0.327546 2.313139
-0.925135 0.327439 2.312311
-0.916732 0.328321 2.318422
-1.351138 0.489721 3.457888
-1.337074 0.490524 3.463237
-1.315179 0.488438 3.448128
-1.313936 0.494066 3.487408
-1.314330 0.500460 3.532020
-0.695140 0.268078 1.891659
-0.685812 0.267910 1.890132
-0.676212 0.267630 1.887784
-0.670653 0.268962 1.896783
-0.656819 0.266968 1.882291
-0.321963 0.151274 1.063424
-0.314826 0.150265 1.055956
-0.302731 0.146819 1.031363
-0.297334 0.146561 1.029172
-0.293055 0.146855 1.030847
-0.288777 0.147159 1.032589
-0.284063 0.147249 1.032812
-0.279500 0.147421 1.033609
-0.274822 0.147537 1.034007
-0.270012 0.147586 1.033929
-0.265064 0.147559 1.033319
-0.259461 0.147160 1.030099
-0.254093 0.146882 1.027720
-0.247607 0.145934 1.020655
-0.239892 0.144209 1.008167
-0.230930 0.141650 0.989851
-0.222689 0.139435 0.973959
-0.213111 0.136272 0.951457
-0.145225 0.099181 0.691598
-0.139496 0.097480 0.679444
-0.136784 0.097856 0.681775
-0.132563 0.097145 0.676531
-0.127794 0.095986 0.668182
-0.123290 0.094973 0.660852
-0.119612 0.094560 0.657699
-0.116032 0.094203 0.654946
-0.111998 0.093448 0.649432
-0.109360 0.093848 0.651949
-0.117500 0.103793 0.720746
-0.115614 0.105215 0.730328
-0.111759 0.104877 0.727702
-0.108135 0.104742 0.726488
-0.105451 0.105539 0.731737
-0.100494 0.104038 0.721063
-0.095579 0.102474 0.709966
-0.092262 0.102572 0.710390
-0.031875 0.038265 0.264830
-0.030174 0.037727 0.261024
-0.028727 0.037475 0.259193
-0.027339 0.037281 0.257773
-0.026006 0.037146 0.256765
-0.024838 0.037247 0.257384
-0.023425 0.036971 0.255401
-0.022236 0.037037 0.255787
-0.020768 0.036620 0.252842
-0.019355 0.036253 0.250246
-0.017935 0.035823 0.247219
-0.016676 0.035677 0.246158
-0.015480 0.035654 0.245947
-0.014259 0.035566 0.245287
-0.013073 0.035557 0.245173
-0.011868 0.035488 0.244656
-0.010578 0.035124 0.242106
-0.009253 0.034537 0.238025
-0.008041 0.034267 0.236128
-0.006752 0.033523 0.230970
-0.005625 0.033451 0.230451
-0.004521 0.033517 0.230878
-0.003409 0.033543 0.231040
-0.002301 0.033653 0.231778
-0.001196 0.034057 0.234547
-0.000064 0.034209 0.235580
0.001080 0.034397 0.236866
0.002235 0.034564 0.238007
0.003403 0.034750 0.239290
0.004578 0.034891 0.240258
0.005748 0.034946 0.240639
0.006934 0.035063 0.241453
0.008145 0.035257 0.242797
0.009364 0.035430 0.244004
0.010584 0.035566 0.244960
0.011800 0.035667 0.245671
0.013006 0.035718 0.246045
0.014234 0.035816 0.246751
0.015471 0.035920 0.247495
0.016704 0.036002 0.248088
0.017935 0.036067 0.248573
0.019181 0.036152 0.249198
0.020425 0.036226 0.249746
0.021683 0.036312 0.250385
0.023037 0.036542 0.252019
0.024321 0.036644 0.252771
0.025594 0.036719 0.253345
0.026871 0.036793 0.253910
0.028165 0.036884 0.254594
0.029597 0.037140 0.256419
0.030846 0.037154 0.256582
0.032150 0.037231 0.257180
0.033500 0.037354 0.258101
0.034824 0.037440 0.258764
0.036175 0.037548 0.259580
0.037510 0.037633 0.260242
0.038819 0.037687 0.260691
0.040153 0.037760 0.261276
0.041479 0.037822 0.261789
0.042934 0.037994 0.263060
0.044280 0.038063 0.263621
0.045589 0.038097 0.263943
0.046931 0.038156 0.264439
0.048313 0.038244 0.265135
0.049726 0.038350 0.265961
0.051131 0.038446 0.266716
0.052541 0.038540 0.267461
0.053919 0.038607 0.268015
0.055239 0.038630 0.268271
0.056651 0.038715 0.268954
0.057997 0.038752 0.269304
0.059398 0.038823 0.269893
0.060782 0.038880 0.270388
0.062064 0.038871 0.270418
0.063436 0.038918 0.270839
0.064778 0.038945 0.271118
0.066095 0.038955 0.271284
0.067406 0.038962 0.271425
0.068734 0.038978 0.271630
0.070108 0.039019 0.272008
0.071670 0.039162 0.273092
0.073214 0.039289 0.274071
0.074314 0.039178 0.273384
0.075298 0.039011 0.272302
0.075967 0.038689 0.270136
0.075749 0.037933 0.264939
0.075956 0.037411 0.261376
0.075827 0.036744 0.256787
0.076787 0.036617 0.255970
0.078005 0.036615 0.256025
0.078840 0.036436 0.254841
0.079704 0.036276 0.253787
0.080762 0.036207 0.253368
0.081734 0.036102 0.252692
0.082547 0.035932 0.251554
0.083580 0.035860 0.251103
0.084531 0.035756 0.250423
0.085462 0.035646 0.249699
0.086287 0.035496 0.248689
0.087022 0.035313 0.247446
0.087812 0.035157 0.246388
0.088625 0.035015 0.245418
0.089424 0.034870 0.244428
0.090193 0.034717 0.243382
0.090995 0.034581 0.242445
0.091729 0.034423 0.241348
0.092438 0.034260 0.240210
0.093235 0.034132 0.239320
0.093808 0.033927 0.237879
0.094443 0.033749 0.236621
0.094960 0.033533 0.235096
0.095858 0.033455 0.234533
0.096405 0.033258 0.233129
0.097126 0.033125 0.232166
0.097630 0.032921 0.230705
0.098293 0.032775 0.229640
0.098825 0.032589 0.228291
0.099474 0.032445 0.227233
0.100107 0.032299 0.226152
0.100770 0.032166 0.225154
0.100866 0.031857 0.222917
0.100681 0.031466 0.220105
0.101054 0.031255 0.218549
0.101309 0.031013 0.216766
0.101647 0.030801 0.215186
0.102025 0.030605 0.213713
0.101875 0.030256 0.211167
0.102403 0.030114 0.210054
0.102853 0.029951 0.208794
0.103676 0.029899 0.208296
0.104288 0.029788 0.207380
0.105022 0.029713 0.206709
0.105952 0.029695 0.206422
0.106559 0.029587 0.205504
0.107344 0.029530 0.204930
-1.025957 0.284893 1.928919
-1.017873 0.285189 1.932521
-1.009300 0.285353 1.935136
-1.004309 0.286543 1.944623
-0.998634 0.287557 1.952850
-0.992614 0.288490 1.960453
-0.991866 0.290987 1.978619
-1.011701 0.299628 2.038524
-1.003512 0.300055 2.042505
-1.001243 0.302279 2.058643
-0.985190 0.300343 2.046386
-0.976983 0.300785 2.050252
-0.886458 0.275640 1.879571
-0.880663 0.276599 1.886773
-0.872031 0.276678 1.887910
-0.851250 0.272864 1.862420
-1.506045 0.487776 3.330139
-1.492685 0.488529 3.336039
-1.473162 0.487260 3.328030
-1.462830 0.489037 3.340734
-1.450501 0.490177 3.349003
-1.436970 0.490932 3.354554
-1.419438 0.490321 3.350691
-1.404641 0.490653 3.353183
-1.392682 0.491994 3.362498
-1.379097 0.492786 3.367977
-0.933673 0.337498 2.306645
-0.923632 0.337790 2.308587
-0.912142 0.337552 2.306861
-0.901681 0.337695 2.307686
-1.341868 0.508670 3.475781
-1.317802 0.505704 3.455157
-1.308371 0.508351 3.472818
-1.315001 0.517384 3.534031
-0.695624 0.277194 1.893102
-0.686711 0.277191 1.892748
-0.679692 0.277961 1.897652
-0.672367 0.278626 1.901798
-0.657847 0.276286 1.885417
-0.321717 0.156191 1.062787
-0.311636 0.153694 1.045436
-0.302755 0.151718 1.031630
-0.298349 0.151957 1.032878
-0.293628 0.152040 1.033063
-0.288996 0.152174 1.033579
-0.284245 0.152248 1.033687
-0.279578 0.152370 1.034114
-0.274830 0.152453 1.034266
-0.269936 0.152456 1.033870
-0.264957 0.152410 1.033142
-0.259397 0.152022 1.030088
-0.251044 0.149951 1.015637
-0.246708 0.150245 1.017208
-0.238904 0.148396 1.004273
-0.234469 0.148609 1.005287
-0.221315 0.143189 0.968214
-0.217016 0.143389 0.969157
-0.143700 0.101407 0.684539
-0.137771 0.099480 0.671246
-0.135131 0.099893 0.673745
-0.131364 0.099471 0.670621
-0.126391 0.098094 0.661059
-0.122147 0.097225 0.654934
-0.118255 0.096599 0.650451
-0.114797 0.096304 0.648195
-0.110996 0.095696 0.643843
-0.107694 0.095496 0.642244
-0.118134 0.107828 0.724891
-0.114794 0.107947 0.725410
-0.110787 0.107427 0.721638
-0.107748 0.107843 0.724156
-0.104796 0.108377 0.727470
-0.101413 0.108486 0.727933
-0.073590 0.091284 0.611659
-0.030690 0.039652 0.265602
-0.029440 0.039685 0.265739
-0.027766 0.039125 0.261907
-0.026336 0.038872 0.260137
-0.024850 0.038507 0.257622
-0.023648 0.038566 0.257943
-0.022292 0.038367 0.256545
-0.020637 0.037602 0.251362
-0.019120 0.037007 0.247322
-0.017550 0.036223 0.242027
-0.016302 0.036041 0.240759
-0.015053 0.035828 0.239282
-0.013891 0.035804 0.239073
-0.012644 0.035538 0.237248
-0.011477 0.035464 0.236715
-0.010374 0.035595 0.237552
-0.009190 0.035448 0.236530
-0.007910 0.034833 0.232399
-0.006750 0.034637 0.231058
-0.005621 0.034547 0.230430
-0.004525 0.034674 0.231253
-0.003394 0.034520 0.230206
-0.002305 0.034856 0.232429
-0.001191 0.035073 0.233860
-0.000062 0.035346 0.235671
0.001079 0.035464 0.236444
0.002234 0.035666 0.237787
0.003394 0.035789 0.238608
0.004567 0.035954 0.239708
0.005745 0.036081 0.240556
0.006928 0.036189 0.241282
0.008094 0.036193 0.241318
0.009347 0.036537 0.243625
0.010562 0.036669 0.244520
0.011771 0.036757 0.245127
0.012981 0.036830 0.245639
0.014197 0.036907 0.246178
0.015450 0.037062 0.247238
0.016690 0.037164 0.247948
0.017930 0.037253 0.248581
0.019156 0.037303 0.248952
0.020395 0.037372 0.249451
0.021684 0.037518 0.250469
0.023098 0.037855 0.252764
0.024310 0.037842 0.252729
0.025578 0.037914 0.253261
0.026873 0.038018 0.254013
0.028340 0.038346 0.256260
0.029624 0.038408 0.256734
0.030867 0.038415 0.256841
0.032148 0.038466 0.257246
0.033506 0.038602 0.258222
0.034800 0.038656 0.258658
0.036101 0.038715 0.259124
0.037463 0.038834 0.259991
0.038852 0.038971 0.260987
0.040169 0.039030 0.261459
0.041487 0.039086 0.261910
0.042847 0.039177 0.262604
0.044228 0.039282 0.263388
0.045603 0.039375 0.264095
0.046937 0.039429 0.264544
0.048325 0.039524 0.265269
0.049650 0.039564 0.265626
0.051018 0.039635 0.266194
0.052401 0.039714 0.266814
0.053818 0.039815 0.267582
0.055150 0.039849 0.267903
0.056523 0.039911 0.268410
0.057983 0.040030 0.269305
0.059349 0.040080 0.269733
0.060709 0.040124 0.270125
0.061975 0.040105 0.270089
0.063307 0.040130 0.270346
0.064640 0.040153 0.270597
0.065904 0.040134 0.270557
0.067189 0.040127 0.270604
0.068549 0.040166 0.270952
0.069927 0.040212 0.271357
0.071733 0.040499 0.273381
0.072847 0.040391 0.272742
0.074006 0.040313 0.272295
0.074958 0.040125 0.271113
0.075993 0.039988 0.270271
0.075833 0.039237 0.265274
0.075895 0.038624 0.261202
0.076531 0.038318 0.259205
0.077222 0.038049 0.257456
0.078383 0.038016 0.257300
0.077976 0.037235 0.252081
0.079186 0.037238 0.252164
0.080220 0.037160 0.251693
0.081107 0.037017 0.250782
0.082188 0.036965 0.250482
0.083213 0.036890 0.250022
0.084192 0.036797 0.249438
0.085142 0.036694 0.248784
0.086047 0.036574 0.248014
0.086873 0.036425 0.247037
0.087781 0.036313 0.246312
0.088528 0.036139 0.245160
0.089312 0.035984 0.244132
0.090110 0.035839 0.243165
0.090697 0.035614 0.241656
0.091523 0.035488 0.240809
0.092153 0.035290 0.239471
0.092661 0.035050 0.237846
0.093549 0.034958 0.237219
0.094112 0.034749 0.235788
0.094919 0.034633 0.234989
0.095546 0.034455 0.233762
0.096135 0.034268 0.232465
0.096761 0.034098 0.231282
0.097384 0.033930 0.230110
0.098162 0.033820 0.229319
0.098713 0.033635 0.228016
0.099231 0.033443 0.226659
0.099926 0.033313 0.225723
0.100527 0.033156 0.224590
0.100959 0.032946 0.223098
0.100797 0.032550 0.220332
0.101284 0.032368 0.219019
0.101568 0.032127 0.217290
0.101709 0.031845 0.215287
0.102049 0.031631 0.213731
0.102366 0.031413 0.212149
0.102643 0.031188 0.210509
0.102966 0.030981 0.208983
0.103852 0.030946 0.208609
0.104433 0.030821 0.207624
0.104834 0.030647 0.206293
0.106163 0.030744 0.206784
0.106855 0.030656 0.206025
0.107213 0.030476 0.204629
-1.025019 0.293804 1.926691
-1.015801 0.293780 1.928144
-1.008275 0.294250 1.932748
-1.000301 0.294596 1.936460
-0.995485 0.295887 1.946310
-0.988611 0.296585 1.952182
-0.984655 0.298180 1.963888
-1.019701 0.311728 2.054302
-1.011437 0.312170 2.058316
-1.006294 0.313593 2.068727
-0.995112 0.313143 2.066716
-0.986814 0.313601 2.070621
-0.888789 0.285269 1.884292
-0.872393 0.282830 1.868853
-0.868816 0.284540 1.880764
-0.856773 0.283483 1.874336
-1.503746 0.502723 3.324787
-1.490394 0.503495 3.330678
-1.477287 0.504368 3.337139
-1.466615 0.506099 3.349195
-1.449243 0.505531 3.345944
-1.433004 0.505350 3.345169
-1.420483 0.506492 3.353060
-1.408333 0.507792 3.361926
-1.394178 0.508391 3.366066
-1.380566 0.509204 3.371549
-0.932357 0.347880 2.303403
-0.919954 0.347284 2.299419
-0.911104 0.348031 2.304279
-0.899491 0.347727 2.302141
-1.348660 0.527716 3.493495
-1.323116 0.524102 3.469237
-1.323361 0.530741 3.512781
-1.328589 0.539571 3.570755
-0.692116 0.284682 1.883680
-0.684150 0.285054 1.885827
-0.675076 0.284968 1.884915
-0.666786 0.285215 1.886180
-0.653904 0.283478 1.874294
-0.321465 0.161096 1.062131
-0.313606 0.159648 1.052227
-0.303438 0.156959 1.034144
-0.297779 0.156553 1.031097
-0.293336 0.156782 1.032235
-0.289032 0.157096 1.033914
-0.284026 0.157032 1.033104
-0.279260 0.157101 1.033161
-0.274429 0.157135 1.032986
-0.269519 0.157125 1.032511
-0.264278 0.156917 1.030735
-0.258397 0.156315 1.026365
-0.253145 0.156077 1.024390
-0.247455 0.155555 1.020546
-0.239709 0.153694 1.007923
-0.143563 0.104575 0.684092
-0.137706 0.102637 0.671135
-0.134226 0.102421 0.669440
-0.131004 0.102396 0.669001
-0.125594 0.100616 0.657101
-0.121490 0.099819 0.651628
-0.117632 0.099187 0.647241
-0.113916 0.098645 0.643443
-0.110790 0.098597 0.642876
-0.107389 0.098295 0.640655
-0.104883 0.098819 0.643814
-0.114674 0.111311 0.724920
-0.110670 0.110774 0.721150
-0.107634 0.111202 0.723665
-0.104685 0.111752 0.726975
-0.084437 0.096560 0.627699
-0.081506 0.096651 0.628073
-0.077180 0.095033 0.617348
-0.073509 0.094124 0.611238
-0.070637 0.094204 0.611564
-0.029613 0.041206 0.267419
-0.027967 0.040679 0.263917
-0.026403 0.040227 0.260910
-0.025092 0.040136 0.260242
-0.023824 0.040107 0.259982
-0.022400 0.039797 0.257907
-0.020999 0.039495 0.255883
-0.019460 0.038880 0.251839
-0.018164 0.038701 0.250621
-0.016638 0.037971 0.245835
-0.015411 0.037865 0.245100
-0.013720 0.036505 0.236248
-0.012571 0.036475 0.236006
-0.011381 0.036307 0.234878
-0.010256 0.036331 0.234994
-0.009091 0.036201 0.234119
-0.007854 0.035707 0.230890
-0.006647 0.035210 0.227651
-0.005551 0.035225 0.227720
-0.004471 0.035370 0.228630
-0.003398 0.035684 0.230645
-0.002301 0.035941 0.232285
-0.001190 0.036218 0.234059
-0.000060 0.036303 0.234595
0.001081 0.036597 0.236490
0.002235 0.036799 0.237787
0.003386 0.036839 0.238044
0.004540 0.036874 0.238273
0.005711 0.037011 0.239157
0.006882 0.037099 0.239731
0.008136 0.037548 0.242643
0.009330 0.037636 0.243226
0.010548 0.037793 0.244255
0.011735 0.037819 0.244444
0.012956 0.037938 0.245236
0.014179 0.038044 0.245944
0.015442 0.038232 0.247186
0.016685 0.038346 0.247955
0.017912 0.038411 0.248413
0.019146 0.038481 0.248899
0.020394 0.038571 0.249520
0.021677 0.038711 0.250470
0.022992 0.038892 0.251685
0.024321 0.039076 0.252927
0.025549 0.039088 0.253056
0.026824 0.039167 0.253624
0.028114 0.039262 0.254294
0.029470 0.039436 0.255476
0.030808 0.039573 0.256427
0.032158 0.039714 0.257408
0.033437 0.039760 0.257767
0.034779 0.039875 0.258583
0.036072 0.039928 0.258999
0.037400 0.040014 0.259629
0.038768 0.040136 0.260496
0.040180 0.040296 0.261607
0.041438 0.040295 0.261681
0.042739 0.040335 0.262018
0.044063 0.040393 0.262478
0.045344 0.040410 0.262673
0.046675 0.040469 0.263140
0.048366 0.040830 0.265567
0.049715 0.040890 0.266046
0.051069 0.040951 0.266531
0.052402 0.040992 0.266889
0.053762 0.041053 0.267373
0.055103 0.041096 0.267741
0.056438 0.041133 0.268072
0.057783 0.041175 0.268440
0.059214 0.041275 0.269185
0.060522 0.041287 0.269352
0.061854 0.041315 0.269624
0.063188 0.041343 0.269896
0.064497 0.041353 0.270055
0.065800 0.041359 0.270186
0.067029 0.041320 0.270015
0.068305 0.041310 0.270039
0.069636 0.041333 0.270279
0.071032 0.041393 0.270756
0.072612 0.041557 0.271913
0.073495 0.041322 0.270460
0.074535 0.041182 0.269629
0.075064 0.040770 0.267008
0.075580 0.040364 0.264428
0.075721 0.039775 0.260643
0.075879 0.039214 0.257033
0.076736 0.039025 0.255868
0.077833 0.038963 0.255526
0.078636 0.038758 0.254243
0.079068 0.038379 0.251817
0.079969 0.038235 0.250932
0.081188 0.038246 0.251055
0.081946 0.038042 0.249768
0.082851 0.037912 0.248959
0.083970 0.037881 0.248800
0.084769 0.037708 0.247710
0.085753 0.037622 0.247183
0.086679 0.037513 0.246500
0.087471 0.037350 0.245455
0.088339 0.037223 0.244646
0.089119 0.037062 0.243614
0.089948 0.036926 0.242736
0.090622 0.036730 0.241461
0.091224 0.036511 0.240026
0.091874 0.036315 0.238747
0.092236 0.036013 0.236756
0.093021 0.035880 0.235878
0.093636 0.035686 0.234591
0.094437 0.035566 0.233789
0.095195 0.035434 0.232894
0.095857 0.035268 0.231782
0.096617 0.035143 0.230925
0.097181 0.034949 0.229616
0.097899 0.034815 0.228689
0.098456 0.034627 0.227406
0.099085 0.034468 0.226304
0.099531 0.034250 0.224809
0.100183 0.034106 0.223796
0.100016 0.033689 0.220989
0.100729 0.033575 0.220156
0.101189 0.033379 0.218783
0.101452 0.033123 0.217011
0.101890 0.032928 0.215635
0.102156 0.032683 0.213920
0.102420 0.032442 0.212225
0.102772 0.032233 0.210735
0.103311 0.032086 0.209643
0.104001 0.031988 0.208865
0.104563 0.031853 0.207839
0.105170 0.031735 0.206908
0.106129 0.031723 0.206668
0.106937 0.031668 0.206131
0.107248 0.031467 0.204640
-1.023178 0.302433 1.922745
-1.014081 0.302439 1.924418
-1.004315 0.302244 1.924718
-0.999099 0.303428 1.933714
-0.994056 0.304686 1.943115
-0.985582 0.304907 1.945820
-0.982922 0.306948 1.960071
-0.990517 0.312260 1.995162
-1.004117 0.319585 2.043084
-1.008882 0.324214 2.073730
-0.996421 0.323343 2.069136
-0.988103 0.323813 2.073048
-0.888359 0.294032 1.883147
-0.865043 0.289202 1.852895
-0.860752 0.290698 1.863111
-0.851204 0.290432 1.861974
-1.496266 0.515837 3.307963
-1.482967 0.516625 3.313824
-1.471941 0.518230 3.324835
-1.456128 0.518165 3.325048
-1.442792 0.518991 3.330881
-1.430073 0.520059 3.338187
-1.413987 0.519913 3.337614
-1.405381 0.522545 3.354794
-1.392774 0.523732 3.362620
-1.381385 0.525410 3.373521
-0.926081 0.356324 2.287897
-0.917180 0.357044 2.292506
-0.905229 0.356580 2.289459
-0.893783 0.356306 2.287590
-1.360054 0.548785 3.523124
-1.325329 0.541365 3.475182
-1.315359 0.543997 3.491709
-1.327698 0.556039 3.568560
-0.694235 0.294467 1.889568
-0.683896 0.293842 1.885262
-0.673128 0.293015 1.879626
-0.668387 0.294824 1.890874
-0.657439 0.293907 1.884608
-0.313351 0.164497 1.051556
-0.302982 0.161615 1.032777
-0.297403 0.161235 1.029991
-0.292740 0.161348 1.030343
-0.288559 0.161735 1.032437
-0.283752 0.161777 1.032326
-0.278955 0.161828 1.032258
-0.274580 0.162129 1.033787
-0.269537 0.162040 1.032820
-0.265028 0.162275 1.033908
-0.259303 0.161759 1.030218
-0.250506 0.159272 1.013968
-0.247208 0.160251 1.019794
-0.240984 0.159335 1.013555
-0.236507 0.159560 1.014574
-0.142900 0.107342 0.681140
-0.136754 0.105110 0.666705
-0.133316 0.104902 0.665113
-0.130071 0.104840 0.664450
-0.125203 0.103434 0.655272
-0.120537 0.102129 0.646739
-0.116694 0.101469 0.642304
-0.112934 0.100848 0.638120
-0.109071 0.100098 0.633127
-0.105989 0.100043 0.632530
-0.103048 0.100121 0.632781
-0.099868 0.099967 0.631561
-0.097036 0.100160 0.632548
-0.094024 0.100175 0.632407
-0.090976 0.100151 0.632025
-0.087679 0.099842 0.629852
-0.084243 0.099348 0.626511
-0.081006 0.099060 0.624481
-0.077633 0.098577 0.621226
-0.073834 0.097493 0.614197
-0.022373 0.040993 0.257722
-0.021075 0.040879 0.256941
-0.019638 0.040464 0.254270
-0.018530 0.040716 0.255798
-0.017466 0.041108 0.258200
-0.015731 0.039861 0.250313
-0.014528 0.039866 0.250299
-0.013220 0.039557 0.248312
-0.011827 0.038910 0.244208
-0.010419 0.038063 0.238850
-0.009169 0.037657 0.236267
-0.007968 0.037364 0.234398
-0.006698 0.036600 0.229578
-0.005607 0.036698 0.230162
-0.004522 0.036904 0.231431
-0.003404 0.036886 0.231296
-0.002289 0.036887 0.231290
-0.001187 0.037309 0.233916
-0.000059 0.037426 0.234637
0.001076 0.037531 0.235288
0.002228 0.037807 0.237011
0.003393 0.038050 0.238532
0.004560 0.038181 0.239357
0.005736 0.038324 0.240255
0.006908 0.038392 0.240690
0.008080 0.038443 0.241015
0.009324 0.038779 0.243138
