ply
format ascii 1.0
element vertex 1746
property float x
property float y
property float z
end_header
0.072996 0.020209 0.263461
0.074106 0.020168 0.263023
0.075177 0.020117 0.262463
0.076121 0.020035 0.261484
0.076790 0.019884 0.259610
0.077481 0.019743 0.257869
0.078070 0.019582 0.255846
0.078802 0.019460 0.254345
0.079654 0.019371 0.253271
0.080462 0.019275 0.252091
0.081349 0.019200 0.251187
0.082208 0.019121 0.250225
0.083151 0.019063 0.249539
0.084137 0.019016 0.248997
0.085073 0.018960 0.248326
0.085920 0.018885 0.247411
0.086852 0.018831 0.246763
0.087755 0.018772 0.246047
0.088597 0.018702 0.245176
0.088928 0.018527 0.242931
0.089109 0.018326 0.240337
0.089678 0.018209 0.238835
0.090667 0.018178 0.238472
0.091387 0.018096 0.237417
0.091503 0.017897 0.234830
0.091503 0.017680 0.232010
0.092095 0.017582 0.230735
0.092557 0.017461 0.229163
0.093121 0.017363 0.227870
0.093811 0.017289 0.226909
0.094340 0.017188 0.225577
0.094960 0.017106 0.224487
0.095823 0.017069 0.223982
0.096320 0.016968 0.222636
0.096896 0.016883 0.221493
0.097364 0.016782 0.220125
0.097988 0.016708 0.219126
0.098684 0.016649 0.218303
0.099186 0.016559 0.217065
0.099676 0.016468 0.215817
0.100271 0.016397 0.214813
0.100976 0.016344 0.214053
0.101568 0.016275 0.213065
0.101780 0.016146 0.211297
0.102375 0.016081 0.210344
0.102787 0.015988 0.209027
0.103341 0.015919 0.208014
0.103778 0.015833 0.206776
0.104161 0.015740 0.205444
0.104908 0.015704 0.204840
0.105438 0.015636 0.203817
0.106107 0.015590 0.203067
-1.054135 0.160688 1.986578
-1.041160 0.160139 1.981167
-1.029330 0.159757 1.977734
-1.023155 0.160255 1.985098
-1.011701 0.159927 1.982156
-0.998363 0.159292 1.975328
-0.983458 0.158393 1.965136
-0.969739 0.157670 1.957040
-0.954106 0.156619 1.944791
-0.937759 0.155429 1.930740
-0.926363 0.155044 1.926617
-0.918718 0.155285 1.930212
-0.909384 0.155244 1.930223
-0.904531 0.155973 1.939767
-0.904933 0.157633 1.960831
-0.918648 0.161671 2.011419
-0.910675 0.161935 2.015021
-0.043284 0.021693 0.264497
-0.041714 0.021538 0.262490
-0.040330 0.021472 0.261572
-0.038583 0.021203 0.258183
-0.037234 0.021142 0.257330
-0.035842 0.021051 0.256119
-0.034432 0.020944 0.254702
-0.032858 0.020724 0.251930
-0.031026 0.020318 0.246904
-0.029549 0.020123 0.244433
-0.028204 0.020005 0.242909
-0.026870 0.019884 0.241359
-0.025352 0.019611 0.237954
-0.024058 0.019492 0.236438
-0.022868 0.019451 0.235862
-0.021607 0.019342 0.234461
-0.020357 0.019231 0.233051
-0.018701 0.018701 0.226560
-0.017588 0.018683 0.226272
-0.016538 0.018733 0.226818
-0.015557 0.018873 0.228459
-0.014538 0.018987 0.229777
-0.013555 0.019169 0.231933
-0.012471 0.019229 0.232604
-0.011372 0.019275 0.233122
-0.010267 0.019321 0.233630
-0.009178 0.019413 0.234698
-0.008058 0.019453 0.235149
-0.006932 0.019493 0.235600
-0.005809 0.019556 0.236325
-0.004676 0.019610 0.236958
-0.003549 0.019731 0.238397
-0.002399 0.019781 0.238972
-0.001245 0.019860 0.239920
-0.000081 0.019929 0.240738
0.001088 0.019951 0.240988
0.002263 0.020004 0.241629
0.003446 0.020062 0.242329
0.004625 0.020079 0.242534
0.005825 0.020157 0.243483
0.007048 0.020278 0.244949
0.008259 0.020331 0.245602
0.009478 0.020391 0.246344
0.010702 0.020445 0.247022
0.011922 0.020481 0.247472
0.013177 0.020565 0.248524
0.014421 0.020620 0.249212
0.015659 0.020659 0.249720
0.016891 0.020684 0.250059
0.018128 0.020711 0.250427
0.019479 0.020857 0.252237
0.020752 0.020908 0.252901
0.022006 0.020933 0.253261
0.023298 0.020991 0.254018
0.024606 0.021057 0.254870
0.025927 0.021127 0.255779
0.027283 0.021217 0.256941
0.028603 0.021274 0.257692
0.029885 0.021297 0.258051
0.031159 0.021314 0.258325
0.032465 0.021350 0.258844
0.033804 0.021405 0.259589
0.035196 0.021488 0.260671
0.036636 0.021593 0.262036
0.037995 0.021646 0.262761
0.039386 0.021712 0.263655
0.040758 0.021764 0.264383
0.042112 0.021804 0.264957
0.043432 0.021824 0.265298
0.044769 0.021851 0.265724
0.046132 0.021889 0.266288
0.047458 0.021907 0.266617
0.049021 0.022032 0.268233
0.050588 0.022151 0.269796
0.051967 0.022185 0.270310
0.053338 0.022213 0.270765
0.054719 0.022244 0.271249
0.056059 0.022257 0.271522
0.057432 0.022283 0.271942
0.058861 0.022328 0.272612
0.060196 0.022337 0.272830
0.061570 0.022359 0.273215
0.062944 0.022380 0.273589
0.064313 0.022399 0.273930
0.065665 0.022411 0.274193
0.067042 0.022431 0.274549
0.068361 0.022431 0.274664
0.069632 0.022416 0.274590
0.070858 0.022387 0.274346
0.072353 0.022443 0.275135
0.071732 0.021852 0.267995
0.072126 0.021585 0.264828
0.072989 0.021466 0.263466
0.074079 0.021416 0.262954
0.075240 0.021388 0.262709
0.076250 0.021318 0.261954
0.076918 0.021157 0.260068
0.077297 0.020923 0.257279
0.077721 0.020708 0.254724
0.078750 0.020658 0.254200
0.079419 0.020517 0.252544
0.080242 0.020419 0.251420
0.081226 0.020365 0.250827
0.082126 0.020291 0.249990
0.082985 0.020209 0.249058
0.083986 0.020164 0.248565
0.084972 0.020116 0.248044
0.085825 0.020039 0.247152
0.086712 0.019971 0.246378
0.087616 0.019910 0.245668
0.088466 0.019837 0.244825
0.089235 0.019749 0.243779
0.090014 0.019665 0.242785
0.090991 0.019626 0.242338
0.091595 0.019508 0.240919
0.092334 0.019422 0.239881
0.091415 0.018993 0.234609
0.092820 0.019052 0.235352
0.091911 0.018640 0.230274
0.093017 0.018641 0.230301
0.093725 0.018564 0.229349
0.093979 0.018399 0.227314
0.094397 0.018270 0.225711
0.095070 0.018193 0.224745
0.095784 0.018125 0.223887
0.096345 0.018030 0.222689
0.096842 0.017925 0.221363
0.097311 0.017817 0.219997
0.098128 0.017775 0.219431
0.098912 0.017727 0.218798
0.099323 0.017615 0.217354
0.099682 0.017495 0.215819
0.100237 0.017412 0.214729
0.100989 0.017365 0.214069
0.101432 0.017266 0.212765
0.101727 0.017143 0.211172
0.102177 0.017050 0.209921
0.102724 0.016974 0.208882
0.103353 0.016912 0.208020
0.103728 0.016811 0.206658
0.104140 0.016718 0.205383
0.104920 0.016685 0.204843
0.105465 0.016615 0.203846
0.106103 0.016561 0.203035
-1.052263 0.169815 1.982826
-1.047233 0.170524 1.992509
-1.039191 0.170752 1.996479
-1.028585 0.170558 1.995443
-1.021659 0.170977 2.001489
-1.012856 0.171087 2.003837
-1.001972 0.170843 2.001975
-0.985758 0.169678 1.989225
-0.966732 0.168002 1.970396
-0.944368 0.165707 1.944227
-0.928790 0.164570 1.931555
-0.918878 0.164424 1.930449
-0.909011 0.164283 1.929340
-0.898421 0.164008 1.926586
-0.891248 0.164357 1.931108
-0.918377 0.171104 2.010763
-0.248989 0.069191 0.808701
-0.242657 0.068483 0.800098
-0.239613 0.068696 0.802244
-0.239528 0.069777 0.814524
-0.236282 0.069958 0.816279
-0.234203 0.070497 0.822196
-0.231173 0.070762 0.824919
-0.230782 0.071858 0.837315
-0.043547 0.023104 0.266163
-0.041478 0.022672 0.261063
-0.039944 0.022514 0.259131
-0.038492 0.022393 0.257632
-0.037277 0.022407 0.257686
-0.035890 0.022315 0.256525
-0.034448 0.022182 0.254882
-0.033000 0.022034 0.253086
-0.031155 0.021599 0.247998
-0.029645 0.021372 0.245293
-0.028322 0.021266 0.243991
-0.027083 0.021217 0.243339
-0.025570 0.020939 0.240067
-0.024202 0.020759 0.237922
-0.022906 0.020627 0.236325
-0.021658 0.020525 0.235084
-0.020331 0.020333 0.232822
-0.018580 0.019671 0.225170
-0.017500 0.019680 0.225209
-0.016426 0.019697 0.225344
-0.015334 0.019694 0.225260
-0.014282 0.019747 0.225808
-0.013198 0.019759 0.225893
-0.012472 0.020359 0.232707
-0.011371 0.020404 0.233175
-0.010277 0.020475 0.233938
-0.009157 0.020504 0.234235
-0.008051 0.020577 0.235030
-0.006924 0.020614 0.235420
-0.005792 0.020644 0.235731
-0.004668 0.020726 0.236634
-0.003521 0.020731 0.236677
-0.002401 0.020966 0.239333
-0.001246 0.021057 0.240355
-0.000080 0.021128 0.241159
0.001090 0.021143 0.241323
0.002266 0.021196 0.241914
0.003443 0.021213 0.242105
0.004621 0.021233 0.242339
0.005830 0.021352 0.243700
0.007043 0.021446 0.244788
0.008271 0.021553 0.246015
0.009480 0.021588 0.246437
0.010697 0.021630 0.246933
0.011925 0.021686 0.247592
0.013193 0.021796 0.248879
0.014423 0.021830 0.249295
0.015650 0.021856 0.249626
0.016902 0.021909 0.250276
0.018155 0.021956 0.250853
0.019428 0.022020 0.251632
0.020738 0.022116 0.252772
0.022041 0.022195 0.253723
0.023281 0.022204 0.253885
0.024572 0.022259 0.254572
0.025880 0.022324 0.255374
0.027263 0.022444 0.256811
0.028603 0.022519 0.257739
0.029888 0.022547 0.258126
0.031175 0.022574 0.258514
0.032481 0.022612 0.259026
0.033799 0.022656 0.259603
0.035157 0.022721 0.260434
0.036575 0.022820 0.261655
0.037928 0.022873 0.262347
0.039348 0.022962 0.263454
0.040763 0.023042 0.264465
0.042063 0.023054 0.264699
0.043355 0.023061 0.264875
0.044732 0.023112 0.265555
0.046097 0.023153 0.266135
0.047876 0.023395 0.269017
0.049253 0.023433 0.269550
0.050598 0.023454 0.269899
0.051920 0.023463 0.270110
0.053314 0.023504 0.270688
0.054707 0.023542 0.271239
0.056072 0.023567 0.271629
0.057378 0.023566 0.271731
0.058756 0.023594 0.272170
0.060176 0.023638 0.272783
0.061570 0.023669 0.273255
0.062962 0.023698 0.273706
0.064277 0.023698 0.273818
0.065615 0.023706 0.274022
0.066935 0.023708 0.274150
0.068214 0.023695 0.274111
0.069503 0.023686 0.274119
0.070774 0.023671 0.274054
0.071774 0.023568 0.272967
0.072072 0.023242 0.269299
0.072272 0.022896 0.265396
0.072933 0.022706 0.263295
0.073992 0.022644 0.262675
0.075154 0.022615 0.262438
0.076188 0.022549 0.261768
0.077093 0.022448 0.260687
0.077670 0.022256 0.258547
0.078367 0.022104 0.256864
0.078176 0.021709 0.252368
0.079009 0.021607 0.251263
0.079934 0.021533 0.250475
0.081013 0.021502 0.250188
0.081913 0.021425 0.249363
0.082876 0.021366 0.248746
0.083833 0.021307 0.248130
0.084843 0.021263 0.247682
0.085804 0.021208 0.247106
0.086701 0.021140 0.246360
0.087668 0.021089 0.245826
0.088623 0.021038 0.245272
0.089386 0.020942 0.244204
0.090186 0.020858 0.243258
0.091181 0.020820 0.242853
0.091824 0.020703 0.241528
0.092543 0.020607 0.240431
0.093052 0.020467 0.238815
0.093437 0.020303 0.236919
0.093611 0.020098 0.234536
0.094366 0.020020 0.233643
0.094935 0.019906 0.232309
0.094994 0.019688 0.229767
0.095238 0.019514 0.227722
0.095799 0.019407 0.226464
0.096574 0.019346 0.225730
0.097001 0.019217 0.224199
0.097287 0.019063 0.222374
0.097638 0.018926 0.220731
0.098033 0.018799 0.219210
0.098692 0.018725 0.218302
0.099331 0.018649 0.217360
0.099770 0.018538 0.215998
0.100374 0.018458 0.215008
0.101008 0.018387 0.214095
0.101461 0.018283 0.212811
0.101711 0.018146 0.211123
0.102566 0.018118 0.210704
0.102740 0.017972 0.208896
0.103205 0.017879 0.207703
0.103614 0.017778 0.206409
0.104149 0.017700 0.205379
0.104781 0.017640 0.204549
0.105443 0.017586 0.203780
0.106091 0.017531 0.202986
-1.048903 0.178655 1.976256
-1.048782 0.180242 1.995227
-1.044152 0.181076 2.005795
-1.032019 0.180613 2.001902
-1.028881 0.181729 2.015444
-1.022256 0.182245 2.022254
-1.016471 0.182921 2.030775
-1.004928 0.182564 2.027750
-0.982340 0.180175 2.002064
-0.953080 0.176504 1.962031
-0.933768 0.174621 1.941790
-0.922125 0.174149 1.937164
-0.909012 0.173388 1.929247
-0.894421 0.172326 1.917923
-0.890975 0.173412 1.930442
-0.253945 0.072257 0.800941
-0.250586 0.072380 0.801988
-0.248869 0.072988 0.808404
-0.247500 0.073719 0.816166
-0.244155 0.073875 0.817555
-0.240939 0.074076 0.819427
-0.239402 0.074808 0.827169
-0.237122 0.075328 0.832558
-0.232381 0.075071 0.829348
-0.230300 0.075679 0.835687
-0.262714 0.091032 1.003823
-0.255074 0.090018 0.992178
-0.249777 0.089809 0.989402
-0.242964 0.089036 0.980421
-0.241466 0.090218 0.992969
-0.043519 0.024368 0.266055
-0.041379 0.023870 0.260503
-0.039758 0.023650 0.257993
-0.038312 0.023523 0.256497
-0.037037 0.023496 0.256091
-0.035734 0.023449 0.255478
-0.034372 0.023358 0.254385
-0.032754 0.023081 0.251264
-0.031038 0.022710 0.247135
-0.029502 0.022447 0.244181
-0.028153 0.022310 0.242601
-0.026887 0.022231 0.241649
-0.025362 0.021919 0.238179
-0.024092 0.021810 0.236911
-0.022860 0.021726 0.235921
-0.021642 0.021646 0.234983
-0.020483 0.021620 0.234631
-0.018935 0.021157 0.229543
-0.017523 0.020798 0.225577
-0.016371 0.020720 0.224673
-0.015348 0.020804 0.225534
-0.014324 0.020902 0.226535
-0.013479 0.021298 0.230780
-0.012341 0.021263 0.230346
-0.011316 0.021432 0.232131
-0.010214 0.021478 0.232593
-0.009174 0.021683 0.234766
-0.008045 0.021703 0.234956
-0.006922 0.021751 0.235436
-0.005795 0.021801 0.235946
-0.004671 0.021895 0.236936
-0.003548 0.022049 0.238583
-0.002394 0.022073 0.238824
-0.001244 0.022208 0.240271
-0.000079 0.022247 0.240680
0.001090 0.022291 0.241142
0.002264 0.022335 0.241615
0.003462 0.022509 0.243497
0.004622 0.022405 0.242375
0.005823 0.022503 0.243438
0.007046 0.022642 0.244943
0.008283 0.022774 0.246389
0.009505 0.022840 0.247120
0.010727 0.022890 0.247684
0.011954 0.022939 0.248235
0.013177 0.022973 0.248626
0.014408 0.023013 0.249096
0.015666 0.023087 0.249927
0.016915 0.023138 0.250510
0.018186 0.023210 0.251333
0.019517 0.023345 0.252839
0.020769 0.023374 0.253207
0.022048 0.023429 0.253853
0.023281 0.023432 0.253939
0.024523 0.023444 0.254122
0.025892 0.023570 0.255547
0.027179 0.023612 0.256076
0.028565 0.023733 0.257454
0.029842 0.023758 0.257790
0.031173 0.023822 0.258555
0.032471 0.023856 0.259000
0.033793 0.023905 0.259609
0.035147 0.023971 0.260415
0.036511 0.024041 0.261253
0.037897 0.024119 0.262187
0.039209 0.024147 0.262577
0.040565 0.024199 0.263232
0.041950 0.024264 0.264039
0.043385 0.024354 0.265110
0.044707 0.024377 0.265457
0.046014 0.024391 0.265704
0.047410 0.024449 0.266445
0.048798 0.024501 0.267113
0.050470 0.024689 0.269265
0.051877 0.024741 0.269936
0.053361 0.024827 0.270976
0.054691 0.024838 0.271207
0.056009 0.024843 0.271372
0.057351 0.024859 0.271653
0.058757 0.024900 0.272217
0.060147 0.024934 0.272696
0.061523 0.024960 0.273093
0.062890 0.024982 0.273436
0.064210 0.024984 0.273573
0.065572 0.025002 0.273886
0.066846 0.024987 0.273826
0.068139 0.024979 0.273850
0.069421 0.024968 0.273834
0.070697 0.024954 0.273795
0.071848 0.024898 0.273287
0.072499 0.024673 0.270927
0.072262 0.024160 0.265394
0.073053 0.024002 0.263760
0.073951 0.023884 0.262560
0.075192 0.023879 0.262600
0.076166 0.023791 0.261722
0.076988 0.023658 0.260358
0.077858 0.023545 0.259200
0.078070 0.023239 0.255916
0.078635 0.023046 0.253872
0.079261 0.022876 0.252086
0.080250 0.022815 0.251488
0.081195 0.022743 0.250769
0.082140 0.022673 0.250071
0.083082 0.022605 0.249383
0.084010 0.022534 0.248672
0.085015 0.022486 0.248201
0.085924 0.022414 0.247464
0.086857 0.022350 0.246816
0.087752 0.022278 0.246074
0.088649 0.022209 0.245353
0.089561 0.022145 0.244690
0.090311 0.022043 0.243604
0.091119 0.021958 0.242695
0.091820 0.021849 0.241526
0.092564 0.021753 0.240491
0.093184 0.021631 0.239159
0.093842 0.021520 0.237949
0.094216 0.021348 0.236053
0.094651 0.021193 0.234348
0.094940 0.021010 0.232322
0.095455 0.020880 0.230881
0.096043 0.020769 0.229643
0.096590 0.020651 0.228331
0.097114 0.020532 0.226985
0.097631 0.020413 0.225650
0.097915 0.020249 0.223802
0.098134 0.020075 0.221844
0.098393 0.019913 0.220007
0.099068 0.019838 0.219124
0.099485 0.019713 0.217686
0.099922 0.019594 0.216314
0.100121 0.019432 0.214454
0.100767 0.019359 0.213569
0.101183 0.019243 0.212211
0.101348 0.019083 0.210354
0.102012 0.019019 0.209546
0.102809 0.018980 0.209017
0.103276 0.018882 0.207824
0.103728 0.018783 0.206614
0.104192 0.018688 0.205442
0.104919 0.018642 0.204793
0.105581 0.018585 0.204021
0.106155 0.018514 0.203083
-1.039874 0.186419 1.958993
-1.044598 0.188951 1.987026
-1.044756 0.190696 2.006722
-1.029426 0.189620 1.996654
-1.027794 0.191070 2.013110
-1.022271 0.191818 2.022088
-1.020396 0.193270 2.038434
-1.012644 0.193627 2.043151
-0.991631 0.191430 2.020843
-0.983608 0.191722 2.024733
-0.931224 0.183289 1.936373
-0.911417 0.181165 1.914555
-0.894443 0.179567 1.898223
-0.881865 0.178828 1.890908
-1.505440 0.314807 3.330751
-1.476026 0.311901 3.300482
-1.483155 0.316738 3.352049
-1.461966 0.315566 3.339943
-1.448985 0.316159 3.346434
-1.440134 0.317676 3.362623
-0.246744 0.070731 0.745822
-0.241534 0.070240 0.740377
-0.257227 0.075902 0.799767
-0.253696 0.075975 0.800244
-0.252723 0.076829 0.808923
-0.251045 0.077491 0.815571
-0.248728 0.077973 0.820319
-0.244893 0.077987 0.820130
-0.241245 0.078063 0.820579
-0.241680 0.079483 0.835156
-0.241069 0.080602 0.846537
-0.237446 0.080733 0.847547
-0.270158 0.096768 1.014501
-0.262566 0.095755 1.003422
-0.256540 0.095287 0.998051
-0.252545 0.095569 1.000542
-0.248475 0.095834 1.002839
-0.241324 0.094897 0.992568
-0.230896 0.092609 0.968172
-0.226627 0.092749 0.969167
-0.175095 0.074702 0.779843
-0.169600 0.073927 0.771385
-0.130368 0.068761 0.714779
-0.125725 0.068100 0.707582
-0.042344 0.024955 0.258941
-0.041102 0.024955 0.258830
-0.039633 0.024813 0.257247
-0.038172 0.024667 0.255624
-0.036927 0.024656 0.255405
-0.035825 0.024743 0.256195
-0.034484 0.024665 0.255287
-0.033137 0.024577 0.254276
-0.030829 0.023742 0.245541
-0.029507 0.023630 0.244293
-0.028280 0.023587 0.243764
-0.026788 0.023312 0.240831
-0.025258 0.022975 0.237276
-0.024028 0.022893 0.236350
-0.022929 0.022935 0.236701
-0.021681 0.022823 0.235479
-0.020488 0.022761 0.234769
-0.018432 0.021676 0.223514
-0.017429 0.021773 0.224444
-0.016310 0.021726 0.223903
-0.015259 0.021770 0.224306
-0.014261 0.021904 0.225627
-0.013438 0.022350 0.230171
-0.012391 0.022469 0.231347
-0.011304 0.022534 0.231978
-0.010199 0.022574 0.232343
-0.009111 0.022664 0.233226
-0.008024 0.022785 0.234434
-0.006897 0.022813 0.234696
-0.005780 0.022888 0.235440
-0.004672 0.023049 0.237066
-0.003535 0.023128 0.237857
-0.002390 0.023204 0.238619
-0.001242 0.023357 0.240178
-0.000078 0.023407 0.240678
0.001090 0.023428 0.240881
0.002265 0.023509 0.241705
0.003449 0.023589 0.242528
0.004626 0.023598 0.242624
0.005818 0.023662 0.243289
0.007031 0.023773 0.244441
0.008267 0.023920 0.245959
0.009491 0.024000 0.246794
0.010720 0.024073 0.247574
0.011922 0.024076 0.247623
0.013212 0.024240 0.249340
0.014425 0.024247 0.249435
0.015665 0.024294 0.249957
0.016913 0.024347 0.250541
0.018142 0.024367 0.250782
0.019430 0.024459 0.251772
0.020690 0.024506 0.252305
0.021939 0.024536 0.252664
0.023237 0.024613 0.253517
0.024565 0.024715 0.254616
0.025861 0.024775 0.255299
0.027206 0.024875 0.256386
0.028503 0.024923 0.256952
0.029843 0.025004 0.257858
0.031153 0.025054 0.258447
0.032496 0.025126 0.259259
0.033809 0.025170 0.259788
0.035157 0.025235 0.260548
0.036461 0.025266 0.260949
0.037830 0.025338 0.261779
0.039134 0.025364 0.262130
0.040469 0.025407 0.262664
0.041854 0.025478 0.263491
0.043309 0.025586 0.264699
0.044624 0.025608 0.265022
0.045965 0.025642 0.265478
0.047357 0.025703 0.266202
0.049166 0.025980 0.269180
0.050551 0.026025 0.269748
0.051833 0.026017 0.269763
0.053322 0.026109 0.270828
0.054650 0.026121 0.271054
0.055952 0.026119 0.271146
0.057313 0.026145 0.271520
0.058700 0.026181 0.272001
0.060103 0.026222 0.272539
0.061424 0.026227 0.272698
0.062824 0.026264 0.273195
0.064266 0.026317 0.273859
0.065504 0.026286 0.273643
0.066858 0.026302 0.273919
0.068199 0.026312 0.274131
0.069417 0.026275 0.273857
0.070737 0.026278 0.273989
0.071971 0.026249 0.273790
0.072992 0.026144 0.272807
0.072298 0.025440 0.265559
0.072985 0.025238 0.263548
0.073796 0.025084 0.262041
0.075048 0.025084 0.262129
0.076084 0.025012 0.261470
0.077049 0.024919 0.260593
0.078040 0.024838 0.259831
0.079037 0.024761 0.259112
0.078356 0.024169 0.252999
0.079205 0.024059 0.251930
0.080098 0.023966 0.251032
0.081108 0.023911 0.250524
0.082017 0.023827 0.249718
0.082960 0.023756 0.249036
0.083845 0.023670 0.248200
0.084853 0.023620 0.247743
0.085800 0.023556 0.247123
0.086665 0.023471 0.246285
0.087717 0.023438 0.245989
0.088504 0.023336 0.244964
0.089358 0.023254 0.244146
0.090256 0.023185 0.243464
0.091109 0.023107 0.242676
0.091958 0.023030 0.241895
0.092635 0.022912 0.240680
0.093184 0.022766 0.239163
0.093770 0.022632 0.237771
0.094478 0.022530 0.236712
0.095278 0.022453 0.235904
0.095562 0.022257 0.233843
0.095949 0.022089 0.232075
0.096536 0.021971 0.230820
0.096956 0.021817 0.229191
0.097509 0.021697 0.227904
0.097784 0.021518 0.225997
0.098202 0.021374 0.224452
0.098411 0.021189 0.222461
0.098595 0.021001 0.220448
0.099021 0.020869 0.219009
0.099618 0.020775 0.217965
0.100093 0.020658 0.216671
0.100514 0.020532 0.215280
0.100863 0.020394 0.213756
0.101284 0.020274 0.212407
0.101786 0.020171 0.211243
0.102335 0.020081 0.210191
0.102765 0.019968 0.208908
0.103483 0.019913 0.208218
0.103913 0.019805 0.206960
0.104257 0.019682 0.205545
0.104897 0.019616 0.204725
0.105580 0.019560 0.203992
0.106167 0.019488 0.203077
-1.032877 0.194404 1.945545
-1.037991 0.197125 1.974203
-1.035243 0.198388 1.988207
-1.024288 0.198088 1.986459
-1.024201 0.199902 2.005853
-1.026224 0.202167 2.029700
-1.031024 0.205026 2.059468
-1.016664 0.204094 2.051078
-1.004640 0.203617 2.047184
-0.996505 0.203927 2.051125
-0.930781 0.192342 1.935315
-0.911259 0.190170 1.914101
-0.902331 0.190188 1.914854
-0.881727 0.187720 1.890515
-1.527198 0.331836 3.343389
-1.504916 0.330396 3.329478
-1.488553 0.330239 3.328397
-1.483544 0.332625 3.352850
-1.467477 0.332556 3.352473
-1.454721 0.333244 3.359641
-1.439591 0.333397 3.361333
-1.434388 0.335878 3.386414
-0.244442 0.073566 0.738940
-0.243739 0.074416 0.747215
-0.256732 0.079534 0.798318
-0.254461 0.080005 0.802750
-0.253044 0.080762 0.810046
-0.250652 0.081228 0.814396
-0.249033 0.081962 0.821430
-0.244340 0.081692 0.818391
-0.241832 0.082155 0.822692
-0.242169 0.083616 0.836965
-0.240934 0.084573 0.846188
-0.280442 0.101830 1.017956
-0.270552 0.099960 0.998808
-0.270000 0.101534 1.014077
-0.263130 0.100746 1.005750
-0.259473 0.101182 1.009638
-0.255174 0.101380 1.011141
-0.249162 0.100891 1.005798
-0.240759 0.099397 0.990435
-0.233900 0.098492 0.980963
-0.224798 0.096587 0.961534
-0.220546 0.096731 0.962504
-0.176756 0.079171 0.787401
-0.172509 0.078945 0.784785
-0.169008 0.079058 0.785535
-0.148510 0.071045 0.705580
-0.148110 0.072498 0.719671
-0.130278 0.072140 0.714462
-0.126462 0.071915 0.711906
-0.041909 0.025930 0.256347
-0.040722 0.025957 0.256505
-0.039128 0.025718 0.254036
-0.038225 0.025934 0.256053
-0.036574 0.025638 0.253035
-0.034355 0.024911 0.245753
-0.032914 0.024716 0.243734
-0.031198 0.024292 0.239462
-0.029983 0.024241 0.238871
-0.028714 0.024142 0.237800
-0.027737 0.024289 0.239164
-0.026053 0.023803 0.234297
-0.024944 0.023822 0.234401
-0.024028 0.024036 0.236428
-0.022000 0.023103 0.227186
-0.020859 0.023054 0.226628
-0.019018 0.022182 0.217998
-0.017984 0.022205 0.218158
-0.016971 0.022257 0.218611
-0.016248 0.022723 0.223126
-0.015289 0.022902 0.224833
-0.014243 0.022968 0.225420
-0.013213 0.023073 0.226403
-0.012159 0.023149 0.227104
-0.011295 0.023640 0.231878
-0.010200 0.023704 0.232456
-0.009095 0.023754 0.232913
-0.007987 0.023814 0.233464
-0.006890 0.023929 0.234561
-0.005769 0.023988 0.235112
-0.004666 0.024173 0.236899
-0.003533 0.024274 0.237859
-0.002393 0.024397 0.239045
-0.001238 0.024465 0.239700
-0.000077 0.024509 0.240121
0.001089 0.024567 0.240670
0.002262 0.024640 0.241386
0.003443 0.024713 0.242101
0.004627 0.024772 0.242676
0.005813 0.024814 0.243096
0.007015 0.024898 0.243921
0.008237 0.025019 0.245125
0.009472 0.025143 0.246352
0.010706 0.025237 0.247297
0.011943 0.025319 0.248117
0.013177 0.025379 0.248729
0.014431 0.025464 0.249598
0.015664 0.025501 0.249997
0.016911 0.025556 0.250566
0.018183 0.025637 0.251403
0.019440 0.025689 0.251957
0.020688 0.025723 0.252337
0.022053 0.025890 0.254029
0.023242 0.025845 0.253638
0.024517 0.025894 0.254177
0.025821 0.025968 0.254962
0.027084 0.025996 0.255291
0.028486 0.026148 0.256857
0.029865 0.026268 0.258102
0.031192 0.026335 0.258831
0.032488 0.026370 0.259252
0.033806 0.026421 0.259824
0.035133 0.026474 0.260431
0.036488 0.026544 0.261198
0.037821 0.026594 0.261776
0.039098 0.026603 0.261945
0.040500 0.026693 0.262921
0.041833 0.026734 0.263418
0.043299 0.026854 0.264698
0.044640 0.026893 0.265172
0.046034 0.026960 0.265931
0.047594 0.027118 0.267590
0.049011 0.027189 0.268385
0.050357 0.027217 0.268767
0.051854 0.027324 0.269926
0.053178 0.027336 0.270150
0.054497 0.027345 0.270346
0.055888 0.027389 0.270887
0.057245 0.027415 0.271247
0.058596 0.027437 0.271571
0.059993 0.027478 0.272090
0.061304 0.027480 0.272213
0.062692 0.027515 0.272671
0.064067 0.027543 0.273056
0.065513 0.027600 0.273726
0.066765 0.027574 0.273580
0.068124 0.027593 0.273872
0.069448 0.027597 0.274021
0.070692 0.027570 0.273853
0.071909 0.027533 0.273595
0.072594 0.027297 0.271356
0.072699 0.026856 0.267068
0.072998 0.026500 0.263626
0.073984 0.026402 0.262742
0.075030 0.026327 0.262095
0.075985 0.026224 0.261162
0.076917 0.026117 0.260178
0.077851 0.026013 0.259231
0.078568 0.025841 0.257601
0.078504 0.025421 0.253500
0.079294 0.025287 0.252239
0.080355 0.025242 0.251863
0.081163 0.025119 0.250713
0.082115 0.025045 0.250036
0.082998 0.024951 0.249169
0.083915 0.024871 0.248426
0.084805 0.024784 0.247620
0.085720 0.024707 0.246908
0.086640 0.024634 0.246227
0.087466 0.024536 0.245298
0.088424 0.024477 0.244755
0.089352 0.024412 0.244141
0.090154 0.024314 0.243199
0.091057 0.024246 0.242547
0.091879 0.024158 0.241694
0.092698 0.024071 0.240849
0.093523 0.023988 0.240036
0.094165 0.023860 0.238776
0.094656 0.023698 0.237160
0.095134 0.023537 0.235548
0.095963 0.023465 0.234823
0.096362 0.023290 0.233072
0.096673 0.023099 0.231144
0.096922 0.022897 0.229107
0.097422 0.022759 0.227694
0.097858 0.022608 0.226162
0.098314 0.022466 0.224700
0.098613 0.022291 0.222908
0.098670 0.022065 0.220605
0.098913 0.021886 0.218758
0.099470 0.021779 0.217628
0.099966 0.021661 0.216381
0.100442 0.021541 0.215110
0.100845 0.021408 0.213701
0.101343 0.021297 0.212513
0.101767 0.021173 0.211183
0.102346 0.021084 0.210192
0.103091 0.021031 0.209548
0.103545 0.020919 0.208321
0.104086 0.020827 0.207280
0.104545 0.020721 0.206087
0.105124 0.020639 0.205139
0.105710 0.020561 0.204214
0.106249 0.020476 0.203203
-1.027179 0.202521 1.934531
-1.029530 0.204811 1.957842
-1.026060 0.205974 1.970316
-1.013738 0.205365 1.965757
-1.015764 0.207678 1.989099
-1.019443 0.210376 2.016069
-1.020953 0.212672 2.039145
-1.020129 0.214522 2.057875
-1.010629 0.214565 2.059207
-0.987630 0.211715 2.032692
-0.979550 0.212039 2.036565
-0.902342 0.197258 1.895240
-0.899740 0.198653 1.909236
-0.878920 0.196014 1.884390
-1.539916 0.346927 3.336016
-1.526652 0.347480 3.342049
-1.514685 0.348342 3.350965
-1.501308 0.348895 3.356812
-1.493450 0.350756 3.375153
-1.476648 0.350534 3.373358
-1.461505 0.350705 3.375262
-1.450033 0.351771 3.385688
-1.433814 0.351696 3.385051
-0.262145 0.083837 0.803729
-0.258788 0.083979 0.804801
-0.255240 0.084062 0.805304
-0.252548 0.084433 0.808562
-0.250197 0.084932 0.813024
-0.247143 0.085204 0.815306
-0.244344 0.085573 0.818516
-0.240120 0.085448 0.816985
-0.242028 0.087537 0.836604
-0.285308 0.106682 1.018706
-0.280274 0.106603 1.017514
-0.276315 0.106938 1.020253
-0.271217 0.106836 1.018824
-0.266413 0.106848 1.018480
-0.261337 0.106750 1.017081
-0.256008 0.106542 1.014638
-0.250227 0.106135 1.010295
-0.242444 0.104847 0.997564
-0.235128 0.103712 0.986313
-0.227148 0.102233 0.971790
-0.219960 0.101056 0.960151
-0.177181 0.083131 0.789468
-0.171922 0.082413 0.782284
-0.168431 0.082531 0.783030
-0.151843 0.076090 0.721585
-0.148007 0.075889 0.719342
-0.145080 0.076155 0.721529
-0.141824 0.076258 0.722165
-0.130744 0.075838 0.717203
-0.128220 0.076379 0.721993
-0.126662 0.077541 0.732659
-0.042595 0.027606 0.260615
-0.041228 0.027528 0.259764
-0.039825 0.027420 0.258634
-0.038094 0.027072 0.255246
-0.036859 0.027065 0.255077
-0.034294 0.026048 0.245393
-0.033093 0.026031 0.245133
-0.031845 0.025974 0.244504
-0.030397 0.025744 0.242244
-0.028706 0.025281 0.237807
-0.027498 0.025223 0.237172
-0.026372 0.025239 0.237239
-0.025003 0.025013 0.235032
-0.023804 0.024943 0.234305
-0.021818 0.024001 0.225386
-0.020628 0.023882 0.224191
-0.019079 0.023311 0.218773
-0.018035 0.023326 0.218849
-0.017026 0.023391 0.219403
-0.016054 0.023520 0.220552
-0.015238 0.023910 0.224158
-0.014230 0.024037 0.225293
-0.013268 0.024269 0.227418
-0.012301 0.024534 0.229855
-0.011227 0.024617 0.230584
-0.010141 0.024686 0.231192
-0.009056 0.024779 0.232020
-0.008020 0.025050 0.234526
-0.006900 0.025105 0.235008
-0.005779 0.025178 0.235657
-0.004670 0.025351 0.237258
-0.003536 0.025457 0.238223
-0.002384 0.025474 0.238367
-0.001235 0.025594 0.239473
-0.000076 0.025663 0.240107
0.001089 0.025703 0.240464
0.002260 0.025765 0.241040
0.003444 0.025887 0.242185
0.004628 0.025947 0.242740
0.005803 0.025942 0.242698
0.007009 0.026052 0.243738
0.008236 0.026198 0.245120
0.009472 0.026333 0.246394
0.010706 0.026432 0.247340
0.011948 0.026529 0.248268
0.013172 0.026571 0.248690
0.014390 0.026595 0.248942
0.015648 0.026683 0.249798
0.016885 0.026727 0.250245
0.018122 0.026762 0.250616
0.019395 0.026845 0.251436
0.020707 0.026967 0.252629
0.021970 0.027016 0.253133
0.023346 0.027191 0.254827
0.024604 0.027219 0.255141
0.025888 0.027270 0.255682
0.027142 0.027287 0.255900
0.028484 0.027387 0.256904
0.029878 0.027526 0.258277
0.031185 0.027577 0.258829
0.032472 0.027608 0.259186
0.033786 0.027658 0.259731
0.035111 0.027713 0.260329
0.036453 0.027777 0.261014
0.037821 0.027856 0.261835
0.039155 0.027905 0.262388
0.040507 0.027965 0.263032
0.041877 0.028032 0.263753
0.043292 0.028124 0.264711
0.044641 0.028169 0.265235
0.045980 0.028206 0.265676
0.047307 0.028234 0.266035
0.048653 0.028271 0.266483
0.050039 0.028329 0.267128
0.051533 0.028443 0.268305
0.053043 0.028560 0.269516
0.054474 0.028631 0.270286
0.055832 0.028660 0.270669
0.057191 0.028689 0.271043
0.058560 0.028721 0.271453
0.059912 0.028744 0.271773
0.061276 0.028771 0.272137
0.062691 0.028821 0.272714
0.064157 0.028891 0.273485
0.065441 0.028878 0.273473
0.066870 0.028929 0.274058
0.068129 0.028905 0.273936
0.069373 0.028876 0.273766
0.070659 0.028865 0.273770
0.071907 0.028839 0.273628
0.072922 0.028722 0.272621
0.073273 0.028353 0.269214
0.073039 0.027774 0.263810
0.073762 0.027572 0.261987
0.074801 0.027493 0.261330
0.075978 0.027467 0.261168
0.076720 0.027286 0.259540
0.077507 0.027127 0.258114
0.078008 0.026875 0.255793
0.078895 0.026761 0.254789
0.079553 0.026574 0.253086
0.080266 0.026411 0.251605
0.081109 0.026295 0.250570
0.082037 0.026209 0.249819
0.082963 0.026125 0.249082
0.083873 0.026038 0.248319
0.084885 0.025985 0.247872
0.085641 0.025856 0.246697
0.086584 0.025786 0.246081
0.087702 0.025770 0.245973
0.088458 0.025649 0.244860
0.089259 0.025544 0.243897
0.090082 0.025448 0.243013
0.091004 0.025382 0.242413
0.091810 0.025286 0.241520
0.092615 0.025191 0.240639
0.093461 0.025110 0.239881
0.094258 0.025018 0.239014
0.094991 0.024912 0.238001
0.095356 0.024712 0.236095
0.095879 0.024557 0.234616
0.096272 0.024374 0.232851
0.096814 0.024231 0.231475
0.096980 0.023999 0.229238
0.097308 0.023811 0.227421
0.097769 0.023660 0.225947
0.098424 0.023559 0.224941
0.098740 0.023379 0.223184
0.098957 0.023180 0.221234
0.099194 0.022990 0.219366
0.099646 0.022853 0.217998
0.100095 0.022719 0.216645
0.100500 0.022577 0.215217
0.100730 0.022399 0.213440
0.101216 0.022281 0.212225
0.101808 0.022188 0.211248
0.102208 0.022056 0.209887
0.102961 0.022002 0.209260
0.103572 0.021918 0.208349
0.104134 0.021826 0.207348
0.104632 0.021723 0.206229
0.105256 0.021647 0.205367
0.105741 0.021544 0.204242
0.106409 0.021481 0.203477
-1.023637 0.210980 1.927565
-1.020959 0.212321 1.941260
-1.021024 0.214262 1.960374
-1.011214 0.214148 1.960609
-1.009872 0.215841 1.977319
-1.019877 0.220014 2.016697
-1.028449 0.223953 2.053895
-1.027074 0.225781 2.071675
-1.016231 0.225543 2.070427
-1.005312 0.225282 2.068903
-0.997080 0.225625 2.072845
-0.907899 0.207476 1.906773
-0.901000 0.207956 1.911782
-0.883517 0.205978 1.894132
-0.862465 0.203118 1.868311
-1.551810 0.369228 3.396962
-1.522098 0.365926 3.367227
-1.503810 0.365330 3.362289
-1.501037 0.368530 3.392201
-1.476730 0.366455 3.373470
-1.463264 0.367055 3.379268
-1.444330 0.366281 3.372336
-1.433737 0.367629 3.384854
-1.420181 0.368238 3.390498
-0.951266 0.249452 2.296758
-0.942043 0.249869 2.300511
-0.929336 0.249361 2.295695
-0.920091 0.249780 2.299371
-1.329398 0.369580 3.401438
-1.315628 0.370205 3.406720
-1.317089 0.375185 3.451997
-0.259340 0.087975 0.806616
-0.255658 0.088018 0.806721
-0.253150 0.088472 0.810590
-0.249859 0.088663 0.812034
-0.248021 0.089384 0.818319
-0.244487 0.089507 0.819115
-0.240093 0.089313 0.817016
-0.291532 0.112057 1.024215
-0.285131 0.111451 1.018245
-0.280085 0.111363 1.017000
-0.278127 0.112521 1.027126
-0.272884 0.112367 1.025273
-0.267054 0.111962 1.021120
-0.262361 0.112028 1.021257
-0.256634 0.111646 1.017317
-0.251019 0.111299 1.013693
-0.244861 0.110694 1.007715
-0.237031 0.109293 0.994503
-0.228604 0.107554 0.978228
-0.219056 0.105205 0.956415
-0.175206 0.085932 0.780841
-0.170526 0.085451 0.776112
-0.167063 0.085572 0.776851
-0.156024 0.081730 0.741629
-0.150295 0.080557 0.730638
-0.146243 0.080247 0.727493
-0.141562 0.079569 0.721013
-0.138298 0.079674 0.721635
-0.133334 0.080847 0.731603
-0.129996 0.080948 0.732193
-0.126565 0.080996 0.732302
-0.123206 0.081094 0.732864
-0.042562 0.028836 0.260487
-0.041088 0.028679 0.258957
-0.039625 0.028520 0.257413
-0.038311 0.028461 0.256779
-0.037051 0.028441 0.256487
-0.035464 0.028158 0.253840
-0.033824 0.027813 0.250630
-0.031609 0.026952 0.242774
-0.030321 0.026845 0.241719
-0.028861 0.026571 0.239165
-0.027829 0.026685 0.240107
-0.026663 0.026675 0.239933
-0.025434 0.026598 0.239161
-0.024207 0.026516 0.238348
-0.022331 0.025681 0.230767
-0.021210 0.025670 0.230605
-0.019247 0.024584 0.220779
-0.018251 0.024676 0.221549
-0.017241 0.024762 0.222258
-0.016220 0.024841 0.222907
-0.015213 0.024956 0.223887
-0.014183 0.025047 0.224647
-0.013227 0.025294 0.226821
-0.012248 0.025538 0.228960
-0.011186 0.025641 0.229840
-0.010121 0.025759 0.230852
-0.009037 0.025852 0.231647
-0.008014 0.026168 0.234448
-0.006898 0.026239 0.235045
-0.005766 0.026262 0.235227
-0.004646 0.026367 0.236141
-0.003521 0.026507 0.237372
-0.002378 0.026578 0.237986
-0.001233 0.026721 0.239252
-0.000074 0.026789 0.239846
0.001089 0.026826 0.240168
0.002257 0.026887 0.240714
0.003440 0.027021 0.241913
0.004620 0.027069 0.242339
0.005803 0.027113 0.242740
0.006991 0.027161 0.243176
0.008209 0.027293 0.244374
0.009454 0.027470 0.245974
0.010714 0.027648 0.247584
0.011919 0.027660 0.247711
0.013151 0.027728 0.248348
0.014390 0.027797 0.248996
0.015613 0.027828 0.249307
0.016853 0.027883 0.249831
0.018094 0.027930 0.250293
0.019365 0.028016 0.251109
0.020642 0.028100 0.251902
0.021933 0.028191 0.252768
0.023241 0.028294 0.253744
0.024525 0.028359 0.254387
0.025896 0.028514 0.255829
0.027161 0.028542 0.256146
0.028461 0.028604 0.256762
0.029794 0.028691 0.257616
0.031090 0.028739 0.258110
0.032384 0.028779 0.258547
0.033711 0.028846 0.259225
0.035147 0.028998 0.260662
0.036679 0.029215 0.262695
0.037922 0.029195 0.262602
0.039264 0.029250 0.263181
0.040544 0.029258 0.263333
0.041933 0.029340 0.264165
0.043236 0.029360 0.264435
0.044608 0.029424 0.265102
0.045967 0.029475 0.265662
0.047345 0.029537 0.266309
0.048774 0.029625 0.267204
0.050187 0.029700 0.267975
0.051602 0.029771 0.268724
0.052969 0.029813 0.269198
0.054415 0.029896 0.270051
0.055798 0.029940 0.270557
0.057187 0.029987 0.271081
0.058563 0.030024 0.271518
0.059899 0.030039 0.271765
0.061274 0.030073 0.272180
0.062626 0.030095 0.272482
0.064159 0.030201 0.273545
0.065588 0.030254 0.274134
0.066844 0.030227 0.273995
0.068180 0.030237 0.274189
0.069487 0.030234 0.274262
0.070790 0.030229 0.274320
0.071792 0.030098 0.273232
0.071964 0.029630 0.269083
0.072085 0.029157 0.264888
0.072762 0.028922 0.262846
0.073724 0.028807 0.261889
0.074679 0.028692 0.260937
0.075729 0.028617 0.260344
0.076531 0.028452 0.258933
0.077328 0.028291 0.257547
0.078104 0.028127 0.256136
0.078834 0.027952 0.254618
0.079665 0.027818 0.253470
0.080421 0.027661 0.252116
0.081173 0.027508 0.250788
0.082043 0.027398 0.249858
0.083060 0.027341 0.249396
0.083853 0.027212 0.248277
0.084657 0.027090 0.247221
0.085627 0.027024 0.246671
0.086543 0.026943 0.245981
0.087406 0.026847 0.245154
0.088314 0.026768 0.244472
0.089186 0.026680 0.243708
0.090033 0.026587 0.242890
0.090871 0.026494 0.242066
0.091735 0.026410 0.241327
0.092601 0.026329 0.240608
0.093413 0.026235 0.239761
0.094185 0.026132 0.238831
0.094751 0.025975 0.237401
0.095200 0.025790 0.235708
0.095958 0.025692 0.234808
0.096408 0.025515 0.233176
0.096836 0.025335 0.231524
0.097284 0.025166 0.229951
0.097686 0.024988 0.228298
0.097772 0.024734 0.225946
0.098311 0.024599 0.224672
0.098738 0.024439 0.223167
0.099024 0.024248 0.221372
0.099235 0.024043 0.219443
0.099719 0.023907 0.218142
0.100120 0.023755 0.216681
0.100620 0.023629 0.215455
0.101038 0.023486 0.214072
0.101394 0.023332 0.212579
0.101795 0.023191 0.211199
0.102477 0.023117 0.210415
0.103027 0.023014 0.209369
0.103489 0.022894 0.208156
0.104113 0.022812 0.207279
0.104613 0.022704 0.206164
0.105459 0.022672 0.205732
0.105934 0.022563 0.204582
0.106523 0.022479 0.203660
-1.019797 0.219312 1.920023
-1.015136 0.220273 1.929891
-1.015783 0.222414 1.950028
-1.008629 0.222871 1.955327
-1.005174 0.224161 1.967865
-1.012066 0.227805 2.001007
-1.023198 0.232480 2.043174
-1.036003 0.237628 2.089463
-1.018427 0.235840 2.074695
-0.992271 0.232010 2.041877
-0.984139 0.232362 2.045769
-0.904890 0.215763 1.900304
-0.900502 0.216861 1.910590
-0.883232 0.214847 1.893400
-0.864339 0.212393 1.872262
-1.562015 0.387784 3.419127
-1.519079 0.381048 3.360399
-1.502115 0.380753 3.358371
-1.502020 0.384774 3.394317
-1.471375 0.380970 3.361153
-1.454511 0.380691 3.358991
-1.446899 0.382854 3.378293
-1.429485 0.382443 3.374796
-1.412248 0.382071 3.371558
-0.947137 0.259147 2.286803
-0.923729 0.255643 2.255815
-0.924067 0.258705 2.282720
-0.908759 0.257408 2.271107
-1.329089 0.380943 3.360732
-1.315500 0.381584 3.366002
-1.306335 0.383540 3.382798
-1.316440 0.391270 3.450459
-0.263424 0.093237 0.819416
-0.256124 0.092004 0.808294
-0.253289 0.092361 0.811144
-0.251141 0.092985 0.816314
-0.248188 0.093325 0.818984
-0.245202 0.093663 0.821633
-0.240848 0.093481 0.819712
-0.296423 0.116934 1.024948
-0.291346 0.116844 1.023732
-0.286828 0.116978 1.024477
-0.282572 0.117226 1.026209
-0.278190 0.117429 1.027544
-0.273303 0.117422 1.027039
-0.267804 0.117148 1.024185
-0.262700 0.117039 1.022778
-0.258454 0.117316 1.024738
-0.252812 0.116958 1.021148
-0.246288 0.116169 1.013801
-0.235767 0.113426 0.989412
-0.227842 0.111846 0.975183
-0.224240 0.112367 0.979272
-0.176086 0.090111 0.784948
-0.169687 0.088720 0.772475
-0.163895 0.087592 0.762303
-0.157273 0.085959 0.747752
-0.151583 0.084772 0.737083
-0.147102 0.084220 0.731953
-0.142684 0.083679 0.726918
-0.135273 0.081311 0.706034
-0.132068 0.081416 0.706629
-0.133592 0.084518 0.733220
-0.130246 0.084623 0.733810
-0.125981 0.084120 0.729130
-0.119511 0.082075 0.711090
-0.117937 0.083370 0.722005
-0.037021 0.029650 0.256354
-0.035606 0.029498 0.254939
-0.034072 0.029233 0.252547
-0.032068 0.028529 0.246378
-0.030650 0.028313 0.244424
-0.029310 0.028155 0.242968
-0.027708 0.027722 0.239147
-0.026620 0.027788 0.239632
-0.025433 0.027752 0.239244
-0.024004 0.027435 0.236435
-0.022644 0.027171 0.234085
-0.020949 0.026455 0.227851
-0.019539 0.026040 0.224207
-0.018214 0.025695 0.221181
-0.017181 0.025746 0.221562
-0.016140 0.025792 0.221900
-0.015098 0.025842 0.222271
-0.014284 0.026320 0.226336
-0.013271 0.026480 0.227661
-0.012210 0.026564 0.228338
-0.011122 0.026602 0.228621
-0.010084 0.026779 0.230100
-0.009004 0.026877 0.230902
-0.007988 0.027219 0.233804
-0.006875 0.027291 0.234396
-0.005761 0.027384 0.235165
-0.004644 0.027505 0.236180
-0.003510 0.027580 0.236801
-0.002367 0.027606 0.237002
-0.001229 0.027821 0.238828
-0.000073 0.027910 0.239583
0.001088 0.027944 0.239863
0.002254 0.027995 0.240296
0.003429 0.028089 0.241102
0.004612 0.028186 0.241938
0.005789 0.028215 0.242186
0.006974 0.028264 0.242615
0.008191 0.028408 0.243869
0.009428 0.028579 0.245346
0.010686 0.028768 0.246987
0.011899 0.028808 0.247359
0.013117 0.028853 0.247771
0.014344 0.028907 0.248260
0.015586 0.028982 0.248933
0.016830 0.029049 0.249545
0.018084 0.029124 0.250226
0.019376 0.029245 0.251311
0.020660 0.029342 0.252190
0.022032 0.029545 0.253977
0.023304 0.029600 0.254507
0.024595 0.029672 0.255179
0.025883 0.029734 0.255771
0.027132 0.029746 0.255937
0.028408 0.029787 0.256347
0.029716 0.029857 0.257015
0.031059 0.029953 0.257918
0.032381 0.030024 0.258593
0.033723 0.030107 0.259383
0.035138 0.030246 0.260656
0.036606 0.030420 0.262238
0.037970 0.030499 0.262998
0.039242 0.030501 0.263102
0.040535 0.030518 0.263338
0.041919 0.030601 0.264143
0.043244 0.030638 0.264547
0.044622 0.030708 0.265245
0.046017 0.030786 0.266016
0.047451 0.030885 0.266965
0.048879 0.030975 0.267838
0.050200 0.030994 0.268103
0.051602 0.031061 0.268782
0.053038 0.031145 0.269607
0.054385 0.031174 0.269956
0.055724 0.031197 0.270257
0.057094 0.031235 0.270694
0.058486 0.031284 0.271218
0.059920 0.031352 0.271914
0.061318 0.031399 0.272428
0.062792 0.031483 0.273255
0.064073 0.031467 0.273225
0.065444 0.031496 0.273583
0.066833 0.031533 0.274001
0.068095 0.031509 0.273895
0.069324 0.031470 0.273663
0.070618 0.031462 0.273698
0.071803 0.031407 0.273315
0.072663 0.031214 0.271738
0.072353 0.030534 0.265912
0.072808 0.030195 0.263053
0.073704 0.030047 0.261855
0.074996 0.030063 0.262080
0.075833 0.029899 0.260735
0.076552 0.029694 0.259035
0.076345 0.029142 0.254305
0.077551 0.029139 0.254353
0.078666 0.029102 0.254105
0.079322 0.028898 0.252402
0.080093 0.028743 0.251113
0.080988 0.028635 0.250242
0.081932 0.028548 0.249542
0.082874 0.028462 0.248857
0.083853 0.028391 0.248296
0.084777 0.028304 0.247590
0.085665 0.028208 0.246798
0.086648 0.028145 0.246294
0.087504 0.028043 0.245445
0.088406 0.027958 0.244741
0.089224 0.027849 0.243821
0.089928 0.027708 0.242617
0.090878 0.027645 0.242093
0.091636 0.027526 0.241073
0.092461 0.027429 0.240248
0.093367 0.027359 0.239647
0.094113 0.027244 0.238650
0.094841 0.027127 0.237628
0.095237 0.026919 0.235799
0.095980 0.026812 0.234860
0.096306 0.026593 0.232926
0.096844 0.026436 0.231538
0.097237 0.026244 0.229832
0.097358 0.025984 0.227524
0.097900 0.025840 0.226231
0.098358 0.025678 0.224769
0.098805 0.025516 0.223307
0.099029 0.025301 0.221371
0.099201 0.025077 0.219351
0.099580 0.024909 0.217821
0.099884 0.024727 0.216152
0.100361 0.024590 0.214881
0.100837 0.024456 0.213625
0.101257 0.024311 0.212268
0.101596 0.024150 0.210761
0.102174 0.024048 0.209767
0.102840 0.023969 0.208962
0.103415 0.023870 0.207979
0.103944 0.023762 0.206911
0.104544 0.023673 0.205996
0.105289 0.023618 0.205368
0.105904 0.023535 0.204490
0.106456 0.023439 0.203496
-1.028739 0.230438 1.936527
-1.018710 0.230244 1.936371
-1.017379 0.232031 1.952790
-1.011991 0.232916 1.961559
-1.006206 0.233726 1.969615
-1.019732 0.239078 2.015903
-1.011674 0.239423 2.019918
-1.014853 0.242460 2.046573
-1.013244 0.244399 2.063918
-0.998883 0.243271 2.055282
-0.990691 0.243638 2.059200
-0.905521 0.224894 1.901469
-0.902430 0.226364 1.914535
-0.888519 0.225123 1.904601
-0.864295 0.221216 1.872051
-1.561387 0.403751 3.417564
-1.515127 0.395864 3.351495
-1.497240 0.395302 3.347335
-1.499263 0.400041 3.387968
-1.473092 0.397278 3.364982
-1.451383 0.395671 3.351695
-1.436949 0.396035 3.355012
-1.424430 0.396940 3.362834
-1.404030 0.395645 3.351933
-1.390571 0.396298 3.357462
-0.937336 0.270197 2.289069
-0.925609 0.269914 2.286568
-0.904451 0.266842 2.260393
-1.356234 0.404889 3.429473
-1.342359 0.405567 3.434848
-1.315503 0.402293 3.406682
-1.320798 0.408891 3.462050
-1.306714 0.409579 3.467310
-0.703613 0.223329 1.890258
-0.683819 0.219825 1.860228
-0.680018 0.221437 1.873472
-0.262457 0.096757 0.816509
-0.257933 0.096506 0.814110
-0.254753 0.096758 0.815945
-0.251404 0.096953 0.817285
-0.252055 0.098720 0.831868
-0.246540 0.098090 0.826242
-0.244340 0.098780 0.831726
-0.296229 0.121717 1.024446
-0.291878 0.121924 1.025773
-0.287425 0.122096 1.026789
-0.282773 0.122187 1.027125
-0.278399 0.122403 1.028505
-0.273498 0.122392 1.027967
-0.268437 0.122307 1.026809
-0.263174 0.122126 1.024833
-0.258350 0.122145 1.024538
-0.252954 0.121889 1.021936
-0.245863 0.120791 1.012275
-0.238607 0.119566 1.001556
-0.230461 0.117836 0.986617
-0.224073 0.116952 0.978773
-0.219730 0.117121 0.979737
-0.169558 0.092339 0.772079
-0.159200 0.088620 0.740650
-0.153749 0.087527 0.731180
-0.149437 0.087047 0.726841
-0.145512 0.086774 0.724236
-0.139714 0.085345 0.711982
-0.136492 0.085456 0.712594
-0.124273 0.079797 0.665107
-0.123216 0.081195 0.676464
-0.129385 0.087560 0.729172
-0.125607 0.087359 0.727182
-0.120558 0.086237 0.717538
-0.117838 0.086765 0.721621
-0.115345 0.087496 0.727401
-0.036178 0.031218 0.259118
-0.034969 0.031250 0.259280
-0.033156 0.030724 0.254821
-0.031232 0.030051 0.249150
-0.029477 0.029494 0.244440
-0.028030 0.029211 0.242015
-0.026797 0.029136 0.241311
-0.025609 0.029107 0.240986
-0.024315 0.028948 0.239593
-0.022758 0.028443 0.235344
-0.021407 0.028157 0.232912
-0.020257 0.028120 0.232538
-0.019149 0.028139 0.232629
-0.017127 0.026735 0.220961
-0.016075 0.026757 0.221093
-0.016436 0.029303 0.242072
-0.014840 0.028483 0.235238
-0.013260 0.027561 0.227578
-0.012208 0.027666 0.228396
-0.011141 0.027757 0.229106
-0.010074 0.027869 0.229993
-0.009017 0.028039 0.231354
-0.007950 0.028220 0.232813
-0.006867 0.028398 0.234248
-0.005741 0.028428 0.234470
-0.004624 0.028532 0.235303
-0.003519 0.028811 0.237577
-0.002375 0.028875 0.238089
-0.001226 0.028932 0.238547
-0.000072 0.029024 0.239291
0.001088 0.029079 0.239730
0.002252 0.029118 0.240051
0.003436 0.029306 0.241598
0.004615 0.029369 0.242115
0.005796 0.029413 0.242481
0.006974 0.029430 0.242635
0.008193 0.029591 0.243970
0.009426 0.029756 0.245350
0.010659 0.029883 0.246415
0.011893 0.029987 0.247291
0.013114 0.030043 0.247774
0.014343 0.030105 0.248319
0.015584 0.030180 0.248964
0.016822 0.030240 0.249495
0.018068 0.030305 0.250072
0.019289 0.030322 0.250248
0.020596 0.030465 0.251474
0.021919 0.030613 0.252744
0.023285 0.030802 0.254359
0.024591 0.030898 0.255208
0.025878 0.030961 0.255781
0.027120 0.030968 0.255900
0.028394 0.031009 0.256296
0.029711 0.031090 0.257038
0.030997 0.031135 0.257474
0.032310 0.031201 0.258095
0.033672 0.031309 0.259055
0.035400 0.031737 0.262674
0.036677 0.031744 0.262813
0.037921 0.031724 0.262725
0.039224 0.031752 0.263045
0.040520 0.031773 0.263304
0.041920 0.031873 0.264217
0.043243 0.031909 0.264606
0.044570 0.031946 0.265004
0.045950 0.032018 0.265689
0.047358 0.032105 0.266505
0.048803 0.032211 0.267485
0.050148 0.032248 0.267887
0.051486 0.032278 0.268237
0.052883 0.032344 0.268877
0.054321 0.032430 0.269698
0.055695 0.032475 0.270172
0.057161 0.032571 0.271069
0.058480 0.032580 0.271246
0.059817 0.032599 0.271505
0.061207 0.032644 0.271988
0.062545 0.032661 0.272232
0.064067 0.032771 0.273252
0.065363 0.032764 0.273292
0.066748 0.032800 0.273699
0.068023 0.032783 0.273652
0.069382 0.032805 0.273939
0.070665 0.032791 0.273925
0.071595 0.032617 0.272568
0.072249 0.032326 0.270232
0.072483 0.031860 0.266431
0.072783 0.031439 0.263000
0.073720 0.031302 0.261946
0.074729 0.031200 0.261181
0.075721 0.031095 0.260384
0.076631 0.030960 0.259336
0.077398 0.030772 0.257843
0.078226 0.030614 0.256596
0.078841 0.030378 0.254698
0.079609 0.030208 0.253342
0.080395 0.030050 0.252086
0.081136 0.029879 0.250723
0.082020 0.029766 0.249831
0.082983 0.029684 0.249205
0.083834 0.029565 0.248261
0.084820 0.029496 0.247734
0.085775 0.029418 0.247132
0.086660 0.029318 0.246341
0.087532 0.029217 0.245534
0.088428 0.029127 0.244812
0.089215 0.029003 0.243807
0.089891 0.028847 0.242525
0.090654 0.028723 0.241503
0.091556 0.028644 0.240868
0.092402 0.028551 0.240099
0.093153 0.028431 0.239102
0.094016 0.028348 0.238407
0.094723 0.028219 0.237332
0.095485 0.028111 0.236414
0.096037 0.027943 0.234996
0.096314 0.027701 0.232942
0.096645 0.027479 0.231058
0.097244 0.027337 0.229841
0.097395 0.027074 0.227601
0.097980 0.026936 0.226406
0.098399 0.026756 0.224850
0.098646 0.026534 0.222935
0.099011 0.026348 0.221315
