ply
format ascii 1.0
element vertex 1685
property float x
property float y
property float z
end_header
0.113698 -0.052324 0.227136
0.114220 -0.052062 0.225783
0.114850 -0.051854 0.224653
0.115732 -0.051763 0.224018
0.116420 -0.051588 0.223008
0.117075 -0.051401 0.221937
-1.490900 -0.626493 2.787000
-1.478102 -0.626687 2.790885
-1.463454 -0.626093 2.791117
-1.452851 -0.627235 2.798951
-1.438210 -0.626639 2.798900
-1.427674 -0.627839 2.806737
-1.415204 -0.628202 2.810717
-1.403115 -0.628745 2.815377
-1.396629 -0.631833 2.831328
-1.387978 -0.633993 2.843021
-1.380963 -0.636951 2.858191
-1.370630 -0.638421 2.866592
-1.363869 -0.641603 2.882582
-1.362505 -0.647413 2.910299
-1.365155 -0.655268 2.947141
-1.331934 -0.645892 2.906377
-1.314227 -0.643922 2.898822
-1.333952 -0.660444 2.974447
-1.288063 -0.644487 2.903709
-1.278338 -0.646477 2.913716
-1.288981 -0.658923 2.970786
-1.395315 -0.721095 3.252066
-1.399738 -0.731395 3.299414
-1.389612 -0.734238 3.313054
-1.374459 -0.734460 3.314784
-1.366109 -0.738366 3.333057
-1.355508 -0.741131 3.346108
-1.342185 -0.742456 3.352582
-1.328321 -0.743511 3.357759
-1.315024 -0.744913 3.364430
-1.300289 -0.745525 3.367462
-1.287031 -0.747010 3.374372
-1.273403 -0.748315 3.380399
-1.260109 -0.749853 3.387412
-1.245164 -0.750436 3.390048
-1.231688 -0.751930 3.396743
-1.219918 -0.754520 3.408325
-1.207880 -0.757013 3.419408
-1.197633 -0.760710 3.435874
-1.187358 -0.764491 3.452665
-1.187608 -0.775247 3.500901
-1.172861 -0.776380 3.505619
-1.170092 -0.785587 3.546744
-0.255547 -0.363451 1.624784
-0.251886 -0.369422 1.650988
-0.245477 -0.371616 1.660310
-0.237793 -0.371964 1.661387
-0.230239 -0.372546 1.663519
-0.223159 -0.373964 1.669387
-0.215533 -0.374540 1.671503
-0.207946 -0.375230 1.674134
-0.200631 -0.376487 1.679305
-0.192870 -0.376979 1.681065
-0.185162 -0.377619 1.683503
-0.177716 -0.378879 1.688708
-0.169978 -0.379608 1.691561
-0.162115 -0.380117 1.693442
-0.185631 -0.511905 2.279102
-0.175021 -0.512747 2.282399
-0.163249 -0.510075 2.270076
-0.151332 -0.506534 2.253907
-0.140611 -0.506765 2.254550
-0.129662 -0.506146 2.251425
-0.117931 -0.502086 2.233021
-0.107167 -0.501748 2.231195
-0.096495 -0.501817 2.231200
-0.085532 -0.500201 2.223732
-0.074640 -0.498606 2.216382
-0.063807 -0.496939 2.208736
-0.052997 -0.494832 2.199155
-0.042249 -0.492413 2.188211
-0.031618 -0.490204 2.178226
-0.021020 -0.486599 2.162058
-0.010545 -0.481633 2.139869
-0.000282 -0.477727 2.122414
0.009759 -0.471151 2.093118
0.019596 -0.466363 2.071791
0.029145 -0.460237 2.044540
0.038654 -0.456725 2.028920
0.048291 -0.455827 2.024935
0.057786 -0.454114 2.017349
0.067145 -0.451971 2.007871
0.076762 -0.451883 2.007546
0.013229 -0.069194 0.307414
0.014627 -0.068832 0.305824
0.015993 -0.068401 0.303924
0.017471 -0.068482 0.304305
0.018723 -0.067730 0.300989
0.019990 -0.067136 0.298376
0.021266 -0.066649 0.296239
0.022664 -0.066584 0.295980
0.024010 -0.066379 0.295105
0.025392 -0.066293 0.294754
0.026862 -0.066433 0.295416
0.028351 -0.066605 0.296221
0.029886 -0.066860 0.297398
0.031318 -0.066873 0.297504
0.032807 -0.067003 0.298126
0.034225 -0.066982 0.298085
0.035694 -0.067058 0.298475
0.037103 -0.067021 0.298361
0.038452 -0.066880 0.297791
0.039855 -0.066841 0.297671
0.041232 -0.066762 0.297378
0.042622 -0.066710 0.297206
0.044025 -0.066679 0.297130
0.045492 -0.066745 0.297484
0.046829 -0.066622 0.296999
0.048158 -0.066494 0.296491
0.049515 -0.066411 0.296188
0.050872 -0.066334 0.295912
0.052112 -0.066111 0.294982
0.053458 -0.066031 0.294693
0.054976 -0.066163 0.295350
0.056391 -0.066167 0.295432
0.057838 -0.066208 0.295684
0.059473 -0.066456 0.296860
0.061346 -0.066953 0.299149
0.063101 -0.067300 0.300770
0.064927 -0.067707 0.302659
0.066582 -0.067922 0.303687
0.068525 -0.068414 0.305957
0.070296 -0.068718 0.307388
0.071008 -0.067995 0.304218
0.072371 -0.067912 0.303915
0.073300 -0.067434 0.301840
0.074208 -0.066954 0.299754
0.075264 -0.066624 0.298337
0.076498 -0.066460 0.297665
0.077545 -0.066144 0.296305
0.078498 -0.065759 0.294637
0.079360 -0.065313 0.292693
0.080488 -0.065098 0.291780
0.081294 -0.064633 0.289745
0.082206 -0.064268 0.288152
0.082988 -0.063814 0.286161
0.083879 -0.063457 0.284601
0.085041 -0.063313 0.283994
0.086054 -0.063065 0.282915
0.086642 -0.062518 0.280493
0.087452 -0.062145 0.278846
0.088244 -0.061770 0.277189
0.089204 -0.061523 0.276098
0.089938 -0.061129 0.274346
0.090369 -0.060543 0.271731
0.091307 -0.060308 0.270686
0.092313 -0.060124 0.269866
0.093136 -0.059828 0.268538
0.094121 -0.059643 0.267701
0.094971 -0.059378 0.266504
0.095702 -0.059046 0.265003
0.096530 -0.058782 0.263801
0.097260 -0.058466 0.262361
0.097952 -0.058135 0.260848
0.098843 -0.057930 0.259894
0.099388 -0.057529 0.258057
0.100353 -0.057378 0.257335
0.101094 -0.057104 0.256058
0.101705 -0.056764 0.254481
0.102119 -0.056324 0.252444
0.102904 -0.056095 0.251354
0.103734 -0.055897 0.250392
0.104315 -0.055570 0.248850
0.104678 -0.055136 0.246818
0.105213 -0.054800 0.245225
0.106006 -0.054606 0.244257
0.106575 -0.054301 0.242786
0.107329 -0.054096 0.241758
0.107817 -0.053763 0.240148
0.108197 -0.053383 0.238325
0.108804 -0.053123 0.237026
0.109359 -0.052842 0.235631
0.110209 -0.052708 0.234883
0.110852 -0.052479 0.233703
0.111238 -0.052135 0.232000
0.112041 -0.051990 0.231178
0.112703 -0.051783 0.230074
0.113100 -0.051460 0.228443
0.113472 -0.051132 0.226780
0.113987 -0.050873 0.225421
0.114746 -0.050728 0.224553
0.115673 -0.050659 0.224012
0.116352 -0.050483 0.222989
0.117064 -0.050325 0.222033
-1.490294 -0.612888 2.787145
-1.480614 -0.614369 2.796857
-1.466556 -0.614044 2.798213
-1.455525 -0.614992 2.805237
-1.443201 -0.615408 2.809701
-1.429789 -0.615364 2.811937
-1.418533 -0.616256 2.818328
-1.404567 -0.615977 2.819245
-1.398464 -0.619175 2.835965
-1.389513 -0.621163 2.847041
-1.385370 -0.625360 2.868152
-1.381444 -0.629739 2.890012
-1.377601 -0.634245 2.912370
-1.375584 -0.639691 2.938968
-1.366028 -0.641707 2.949719
-1.332803 -0.632532 2.908916
-1.332254 -0.638836 2.939195
-1.330520 -0.644699 2.967372
-1.296067 -0.634664 2.922281
-1.293122 -0.640009 2.947908
-1.402460 -0.701646 3.232829
-1.389221 -0.702637 3.238325
-1.394781 -0.713264 3.288158
-1.387821 -0.717655 3.309174
-1.377047 -0.720152 3.321378
-1.365544 -0.722322 3.331992
-1.354757 -0.724925 3.344529
-1.343035 -0.727084 3.354942
-1.329182 -0.728127 3.360134
-1.315568 -0.729329 3.365982
-1.301130 -0.730098 3.369763
-1.287294 -0.731228 3.375144
-1.273339 -0.732319 3.380275
-1.260869 -0.734303 3.389464
-1.245790 -0.734800 3.391724
-1.233929 -0.737232 3.402858
-1.219010 -0.737878 3.405689
-1.205574 -0.739452 3.412740
-1.194690 -0.742655 3.427257
-1.185977 -0.747314 3.448436
-1.183841 -0.756305 3.489546
-1.169154 -0.757418 3.494253
-1.171233 -0.769579 3.549876
-0.259343 -0.360970 1.648227
-0.251072 -0.360360 1.644946
-0.244529 -0.362272 1.653180
-0.237834 -0.364078 1.660935
-0.230216 -0.364547 1.662597
-0.223089 -0.365855 1.668093
-0.215537 -0.366540 1.670751
-0.208030 -0.367357 1.674019
-0.200716 -0.368593 1.679205
-0.193219 -0.369582 1.683273
-0.185624 -0.370464 1.686861
-0.178059 -0.371489 1.691109
-0.170497 -0.372618 1.695844
-0.162360 -0.372542 1.695101
-0.154756 -0.373746 1.700198
-0.147477 -0.375912 1.709678
-0.185917 -0.501711 2.281344
-0.175292 -0.502538 2.284647
-0.151570 -0.496453 2.256133
-0.139106 -0.490584 2.229071
-0.128429 -0.490572 2.228647
-0.117572 -0.489803 2.224805
-0.107129 -0.490788 2.228951
-0.096208 -0.489556 2.223045
-0.085678 -0.490256 2.225941
-0.074634 -0.487800 2.214527
-0.063790 -0.486060 2.206387
-0.053066 -0.484731 2.200138
-0.042305 -0.482322 2.189007
-0.031608 -0.479294 2.175094
-0.021022 -0.475816 2.159165
-0.010550 -0.470666 2.135668
-0.000302 -0.466126 2.114966
0.009735 -0.460897 2.091162
0.019541 -0.455605 2.067091
0.029089 -0.449868 2.041026
0.038542 -0.445926 2.023127
0.048416 -0.447453 2.030060
0.057794 -0.444645 2.017348
0.067464 -0.444572 2.017064
0.011589 -0.066786 0.303025
0.013133 -0.067247 0.305129
0.014578 -0.067153 0.304720
0.015961 -0.066821 0.303229
0.017401 -0.066764 0.302991
0.018702 -0.066223 0.300564
0.020015 -0.065796 0.298650
0.021280 -0.065282 0.296346
0.022630 -0.065073 0.295431
0.023949 -0.064808 0.294262
0.025343 -0.064763 0.294094
0.026833 -0.064955 0.295005
0.028386 -0.065272 0.296488
0.029886 -0.065442 0.297304
0.031406 -0.065639 0.298244
0.032850 -0.065666 0.298416
0.034330 -0.065762 0.298902
0.035743 -0.065725 0.298788
0.037186 -0.065744 0.298928
0.038563 -0.065648 0.298550
0.039942 -0.065564 0.298223
0.041329 -0.065498 0.297985
0.042682 -0.065384 0.297527
0.044215 -0.065545 0.298321
0.045663 -0.065573 0.298512
0.047060 -0.065527 0.298369
0.048538 -0.065594 0.298743
0.049888 -0.065490 0.298334
0.051275 -0.065438 0.298167
0.052652 -0.065377 0.297955
0.054018 -0.065305 0.297700
0.055334 -0.065178 0.297190
0.056856 -0.065294 0.297790
0.058456 -0.065492 0.298763
0.059928 -0.065541 0.299055
0.061837 -0.066054 0.301467
0.063561 -0.066349 0.302888
0.065151 -0.066495 0.303627
0.067005 -0.066899 0.305541
0.068335 -0.066773 0.305039
0.069708 -0.066693 0.304746
0.070297 -0.065883 0.301111
0.071439 -0.065612 0.299940
0.072881 -0.065622 0.300053
0.074037 -0.065379 0.299007
0.075191 -0.065144 0.297995
0.076367 -0.064935 0.297103
0.077420 -0.064632 0.295777
0.078380 -0.064264 0.294149
0.079295 -0.063871 0.292409
0.080344 -0.063599 0.291217
0.081208 -0.063192 0.289401
0.082000 -0.062743 0.287396
0.082932 -0.062414 0.285935
0.083829 -0.062070 0.284402
0.084725 -0.061736 0.282912
0.085772 -0.061521 0.281963
0.086691 -0.061223 0.280628
0.087596 -0.060923 0.279286
0.088262 -0.060468 0.277229
0.088874 -0.059991 0.275064
0.089683 -0.059658 0.273556
0.090652 -0.059440 0.272573
0.091529 -0.059169 0.271340
0.092383 -0.058890 0.270067
0.093032 -0.058490 0.268238
0.093943 -0.058263 0.267198
0.094781 -0.057998 0.265975
0.095538 -0.057691 0.264557
0.096382 -0.057443 0.263407
0.097235 -0.057208 0.262308
0.098095 -0.056982 0.261246
0.098845 -0.056698 0.259918
0.099815 -0.056547 0.259187
0.100421 -0.056195 0.257536
0.101149 -0.055920 0.256227
0.101518 -0.055454 0.254042
0.102238 -0.055190 0.252773
0.102934 -0.054918 0.251465
0.103594 -0.054633 0.250092
0.103929 -0.054186 0.247970
0.104505 -0.053873 0.246456
0.105181 -0.053618 0.245200
0.105930 -0.053405 0.244131
0.106588 -0.053152 0.242872
0.107216 -0.052889 0.241561
0.107942 -0.052680 0.240488
0.108438 -0.052364 0.238921
0.108926 -0.052051 0.237358
0.109708 -0.051883 0.236452
0.110296 -0.051628 0.235143
0.110760 -0.051320 0.233586
0.111347 -0.051075 0.232305
0.111823 -0.050785 0.230812
0.112562 -0.050618 0.229871
0.113062 -0.050348 0.228456
0.113659 -0.050126 0.227248
0.114154 -0.049864 0.225849
0.114767 -0.049658 0.224694
0.115762 -0.049619 0.224288
0.116297 -0.049386 0.222991
0.117079 -0.049261 0.222171
-1.496465 -0.602021 2.799920
-1.484182 -0.602435 2.804784
-1.473370 -0.603460 2.812356
-1.460329 -0.603582 2.815591
-1.447173 -0.603660 2.818483
-1.436277 -0.604691 2.825701
-1.422900 -0.604688 2.827966
-1.408994 -0.604459 2.829049
-1.401721 -0.607098 2.843448
-1.395645 -0.610313 2.860447
-1.389983 -0.613774 2.878506
-1.384540 -0.617402 2.897259
-1.367818 -0.616023 2.892416
-1.365247 -0.621054 2.917575
-1.345311 -0.618208 2.905635
-1.315907 -0.610909 2.872644
-1.331016 -0.624339 2.937042
-1.332627 -0.631653 2.972618
-1.300289 -0.622860 2.932302
-1.305331 -0.631977 2.976215
-1.411327 -0.690699 3.253745
-1.398021 -0.691683 3.259276
-1.398848 -0.699759 3.298148
-1.384299 -0.700238 3.301139
-1.379109 -0.705517 3.326677
-1.364897 -0.706249 3.330700
-1.353764 -0.708611 3.342328
-1.341766 -0.710570 3.351984
-1.327144 -0.711170 3.355155
-1.313330 -0.712224 3.360393
-1.300053 -0.713598 3.367074
-1.286522 -0.714866 3.373183
-1.275155 -0.717384 3.385124
-1.263694 -0.719912 3.397049
-1.250367 -0.721429 3.404138
-1.237215 -0.723088 3.411839
-1.221865 -0.723489 3.413545
-1.208236 -0.724935 3.420121
-1.202484 -0.731210 3.449424
-1.188036 -0.732297 3.454196
-1.178751 -0.736642 3.474280
-1.194113 -0.756728 3.568540
-1.179075 -0.757847 3.573299
-0.255774 -0.348232 1.624861
-0.250653 -0.351906 1.641497
-0.244700 -0.354610 1.653610
-0.237288 -0.355311 1.656386
-0.230134 -0.356460 1.661257
-0.223157 -0.357976 1.667841
-0.215707 -0.358817 1.671287
-0.208115 -0.359479 1.673904
-0.200793 -0.360678 1.679034
-0.193384 -0.361817 1.683888
-0.185677 -0.362472 1.686503
-0.178357 -0.363978 1.693083
-0.170735 -0.364981 1.697336
-0.162833 -0.365458 1.699151
-0.155278 -0.366805 1.705023
-0.147699 -0.368243 1.711327
-0.139488 -0.368183 1.710684
-0.131734 -0.369397 1.715977
-0.124295 -0.371716 1.726408
-0.107304 -0.480791 2.231121
-0.096079 -0.478154 2.218573
-0.085299 -0.477345 2.214534
-0.074408 -0.475605 2.206193
-0.063574 -0.473715 2.197186
-0.052910 -0.472595 2.191770
-0.042279 -0.471303 2.185582
-0.031575 -0.468071 2.170422
-0.020988 -0.464258 2.152592
-0.010542 -0.459202 2.129025
-0.000321 -0.454906 2.109003
0.009671 -0.448805 2.080640
0.019484 -0.444813 2.062076
0.029133 -0.441032 2.044514
0.038748 -0.438764 2.033987
0.048430 -0.438004 2.030472
0.057914 -0.436008 2.021247
0.067607 -0.435936 2.020961
0.011725 -0.066114 0.306508
0.013167 -0.065966 0.305838
0.014640 -0.065984 0.305938
0.016056 -0.065768 0.304954
0.017425 -0.065410 0.303318
0.018707 -0.064808 0.300550
0.019992 -0.064299 0.298217
0.021271 -0.063842 0.296130
0.022542 -0.063418 0.294196
0.023945 -0.063393 0.294115
0.025393 -0.063483 0.294569
0.026874 -0.063643 0.295352
0.028419 -0.063930 0.296727
0.029901 -0.064056 0.297356
0.031431 -0.064268 0.298385
0.032839 -0.064221 0.298220
0.034337 -0.064347 0.298856
0.035784 -0.064372 0.299025
0.037176 -0.064301 0.298751
0.038502 -0.064123 0.297986
0.039844 -0.063984 0.297397
0.041268 -0.063982 0.297448
0.042658 -0.063929 0.297265
0.044136 -0.064007 0.297692
0.045657 -0.064140 0.298377
0.047115 -0.064180 0.298628
0.048523 -0.064151 0.298562
0.050010 -0.064225 0.298976
0.051475 -0.064267 0.299241
0.052900 -0.064258 0.299272
0.054284 -0.064201 0.299078
0.055766 -0.064260 0.299425
0.057271 -0.064343 0.299884
0.058862 -0.064515 0.300758
0.060460 -0.064686 0.301630
0.062171 -0.064968 0.303019
0.063900 -0.065254 0.304427
0.065232 -0.065132 0.303935
0.066843 -0.065288 0.304734
0.068413 -0.065397 0.305319
0.069462 -0.065014 0.303604
0.070335 -0.064486 0.301209
0.071604 -0.064335 0.300573
0.072982 -0.064285 0.300408
0.074261 -0.064151 0.299853
0.075302 -0.063822 0.298381
0.076237 -0.063416 0.296544
0.077231 -0.063073 0.295005
0.078256 -0.062767 0.293635
0.079301 -0.062488 0.292385
0.080093 -0.062022 0.290265
0.081198 -0.061810 0.289326
0.082111 -0.061462 0.287747
0.083000 -0.061107 0.286135
0.083680 -0.060613 0.283866
0.084517 -0.060246 0.282191
0.085580 -0.060049 0.281306
0.086306 -0.059626 0.279359
0.087084 -0.059250 0.277630
0.087699 -0.058777 0.275443
0.088674 -0.058554 0.274427
0.089580 -0.058294 0.273229
0.090631 -0.058134 0.272500
0.091489 -0.057857 0.271214
0.092143 -0.057460 0.269362
0.092826 -0.057091 0.267641
0.093717 -0.056860 0.266556
0.094700 -0.056689 0.265752
0.095438 -0.056377 0.264286
0.096314 -0.056155 0.263230
0.097188 -0.055937 0.262192
0.098017 -0.055699 0.261055
0.098936 -0.055517 0.260174
0.099528 -0.055158 0.258464
0.100268 -0.054890 0.257167
0.100795 -0.054512 0.255355
0.101223 -0.054091 0.253334
0.101986 -0.053857 0.252181
0.102782 -0.053645 0.251128
0.103486 -0.053390 0.249870
0.104202 -0.053147 0.248661
0.104603 -0.052751 0.246729
0.105277 -0.052500 0.245470
0.105875 -0.052217 0.244053
0.106510 -0.051958 0.242745
0.107017 -0.051643 0.241167
0.107593 -0.051368 0.239766
0.108258 -0.051140 0.238584
0.108963 -0.050936 0.237502
0.109630 -0.050719 0.236351
0.110330 -0.050521 0.235285
0.110857 -0.050248 0.233864
0.111239 -0.049916 0.232157
0.111853 -0.049694 0.230953
0.112562 -0.049517 0.229954
0.113209 -0.049317 0.228837
0.113820 -0.049106 0.227658
0.114390 -0.048881 0.226407
0.115105 -0.048721 0.225451
0.116001 -0.048640 0.224850
0.116738 -0.048495 0.223939
0.117267 -0.048267 0.222636
-1.506182 -0.592440 2.819297
-1.489115 -0.590980 2.815253
-1.473070 -0.589903 2.812880
-1.464649 -0.591889 2.824976
-1.449267 -0.591073 2.823571
-1.436808 -0.591446 2.827713
-1.422937 -0.591240 2.828962
-1.411845 -0.592196 2.835655
-1.401876 -0.593646 2.844605
-1.397215 -0.597395 2.864470
-1.394449 -0.602036 2.888527
-1.386140 -0.604352 2.901341
-1.377874 -0.606734 2.914378
-1.378499 -0.613119 2.946562
-1.368519 -0.614869 2.956390
-1.338111 -0.607384 2.921699
-1.323125 -0.606817 2.920175
-1.348901 -0.625128 3.009444
-1.337132 -0.626245 3.015875
-1.345910 -0.637112 3.069193
-1.418711 -0.678851 3.271217
-1.405352 -0.679825 3.276777
-1.394290 -0.681946 3.287773
-1.382629 -0.683817 3.297490
-1.376890 -0.688695 3.321624
-1.365691 -0.690922 3.332897
-1.353336 -0.692610 3.341496
-1.339909 -0.693783 3.347533
-1.326669 -0.695082 3.354105
-1.312037 -0.695675 3.357198
-1.298387 -0.696810 3.362836
-1.285315 -0.698288 3.370059
-1.273459 -0.700472 3.380627
-1.260287 -0.701979 3.387860
-1.247165 -0.703553 3.395354
-1.232048 -0.704029 3.397488
-1.216728 -0.704400 3.399058
-1.210452 -0.710087 3.426224
-1.196142 -0.711151 3.431025
-1.188736 -0.716406 3.455989
-1.181909 -0.722161 3.483308
-1.179058 -0.730542 3.523231
-1.180191 -0.741666 3.576325
-0.272171 -0.351652 1.678085
-0.260112 -0.346236 1.651722
-0.251745 -0.345552 1.647940
-0.245091 -0.347251 1.655536
-0.238637 -0.349356 1.665065
-0.230750 -0.349438 1.664956
-0.223582 -0.350651 1.670248
-0.216063 -0.351386 1.673266
-0.208512 -0.352124 1.676308
-0.201026 -0.353034 1.680174
-0.193354 -0.353683 1.682808
-0.185796 -0.354603 1.686744
-0.178381 -0.355895 1.692459
-0.170836 -0.357037 1.697469
-0.163196 -0.358087 1.702050
-0.155678 -0.359530 1.708510
-0.148117 -0.361028 1.715242
-0.140399 -0.362299 1.720912
-0.132562 -0.363402 1.725789
-0.124484 -0.363950 1.728049
-0.116734 -0.365603 1.735570
-0.108469 -0.365775 1.736070
-0.096236 -0.468174 2.220694
-0.084577 -0.462661 2.194254
-0.074250 -0.463909 2.199907
-0.063802 -0.464689 2.203360
-0.052632 -0.459475 2.178418
-0.042060 -0.458206 2.172202
-0.031603 -0.457763 2.169930
-0.020929 -0.452226 2.143533
-0.010531 -0.447676 2.121839
-0.000338 -0.442150 2.095545
0.009628 -0.437747 2.074601
0.019439 -0.434340 2.058398
0.029107 -0.431111 2.043060
0.038780 -0.429558 2.035688
0.048461 -0.428699 2.031626
0.057962 -0.426801 2.022660
0.067667 -0.426730 2.022374
0.011701 -0.064527 0.305821
0.013150 -0.064428 0.305365
0.014551 -0.064139 0.304010
0.016006 -0.064116 0.303922
0.017374 -0.063777 0.302338
0.018671 -0.063253 0.299880
0.019831 -0.062370 0.295724
0.021242 -0.062344 0.295629
0.022663 -0.062345 0.295669
0.024025 -0.062196 0.294998
0.025536 -0.062427 0.296131
0.027078 -0.062706 0.297496
0.028669 -0.063064 0.299241
0.030178 -0.063216 0.300008
0.031685 -0.063349 0.300687
0.033161 -0.063412 0.301039
0.034637 -0.063470 0.301370
0.036106 -0.063512 0.301622
0.037529 -0.063471 0.301486
0.038819 -0.063217 0.300340
0.040136 -0.063023 0.299482
0.041573 -0.063024 0.299549
0.042992 -0.062999 0.299496
0.044428 -0.063000 0.299565
0.045886 -0.063031 0.299779
0.047516 -0.063289 0.301076
0.048898 -0.063211 0.300776
0.050363 -0.063241 0.300993
0.051806 -0.063244 0.301077
0.053317 -0.063326 0.301543
0.054779 -0.063348 0.301721
0.056278 -0.063410 0.302089
0.057863 -0.063564 0.302900
0.059521 -0.063788 0.304043
0.061120 -0.063939 0.304841
0.062909 -0.064279 0.306536
0.064639 -0.064543 0.307874
0.066014 -0.064449 0.307502
0.067894 -0.064841 0.309452
0.067737 -0.063313 0.302233
0.068903 -0.063059 0.301095
0.070122 -0.062862 0.300230
0.071412 -0.062736 0.299701
0.072646 -0.062567 0.298966
0.073913 -0.062432 0.298389
0.075034 -0.062182 0.297262
0.076053 -0.061857 0.295778
0.077091 -0.061560 0.294419
0.078144 -0.061284 0.293165
0.078768 -0.060689 0.290377
0.079803 -0.060425 0.289171
0.080618 -0.060005 0.287218
0.081418 -0.059589 0.285279
0.082250 -0.059210 0.283516
0.083453 -0.059105 0.283062
0.084399 -0.058825 0.281764
0.085398 -0.058590 0.280682
0.086385 -0.058354 0.279590
0.087171 -0.057991 0.277887
0.087644 -0.057434 0.275249
0.088305 -0.057015 0.273271
0.089357 -0.056857 0.272536
0.090286 -0.056626 0.271450
0.091138 -0.056354 0.270165
0.091918 -0.056046 0.268700
0.092562 -0.055664 0.266878
0.093751 -0.055616 0.266651
0.094493 -0.055308 0.265174
0.095307 -0.055049 0.263929
0.096199 -0.054841 0.262925
0.097143 -0.054668 0.262082
0.097863 -0.054375 0.260655
0.098658 -0.054130 0.259460
0.099213 -0.053762 0.257664
0.099970 -0.053510 0.256424
0.100524 -0.053158 0.254694
0.101060 -0.052803 0.252951
0.101852 -0.052590 0.251879
0.102440 -0.052278 0.250325
0.103231 -0.052075 0.249288
0.104045 -0.051888 0.248325
0.104659 -0.051606 0.246902
0.105352 -0.051370 0.245687
0.105900 -0.051069 0.244158
0.106435 -0.050768 0.242623
0.107066 -0.050518 0.241328
0.107914 -0.050376 0.240537
0.108300 -0.050023 0.238734
0.108933 -0.049790 0.237498
0.109710 -0.049628 0.236589
0.110290 -0.049380 0.235266
0.110833 -0.049121 0.233882
0.111314 -0.048840 0.232386
0.111823 -0.048576 0.230967
0.112743 -0.048494 0.230402
0.113307 -0.048263 0.229118
0.113865 -0.048033 0.227834
0.114247 -0.047735 0.226214
0.115212 -0.047683 0.225755
0.116225 -0.047651 0.225381
0.116746 -0.047421 0.224056
0.117666 -0.047355 0.223497
-1.505005 -0.578497 2.818244
-1.488927 -0.577450 2.815998
-1.474725 -0.577119 2.817097
-1.464321 -0.578282 2.825355
-1.451398 -0.578463 2.828693
-1.438192 -0.578535 2.831365
-1.425408 -0.578780 2.834762
-1.413619 -0.579437 2.840063
-1.403872 -0.580953 2.849463
-1.398323 -0.584254 2.867515
-1.392370 -0.587449 2.884959
-1.384423 -0.589857 2.898449
-1.382270 -0.594808 2.924343
-1.380812 -0.600161 2.952141
-1.371429 -0.602144 2.963276
-1.339217 -0.594042 2.924668
-1.354239 -0.606941 2.989373
-1.345107 -0.609173 3.001473
-1.351729 -0.618663 3.049263
-1.346815 -0.623021 3.071688
-1.399018 -0.654182 3.226225
-1.416406 -0.669568 3.302936
-1.392905 -0.665752 3.284852
-1.383967 -0.668889 3.300992
-1.378458 -0.673775 3.325681
-1.365579 -0.675130 3.332863
-1.352411 -0.676372 3.339413
-1.340965 -0.678514 3.350334
-1.326818 -0.679326 3.354610
-1.312803 -0.680226 3.359251
-1.299897 -0.681730 3.366804
-1.284733 -0.682073 3.368556
-1.271515 -0.683471 3.375453
-1.259024 -0.685301 3.384417
-1.244875 -0.686264 3.389038
-1.231927 -0.687923 3.397038
-1.220279 -0.690362 3.408827
-1.206511 -0.691651 3.414881
-1.197361 -0.695659 3.434301
-1.188059 -0.699687 3.453765
-1.181431 -0.705423 3.481606
-1.187480 -0.718997 3.548065
-0.275047 -0.337357 1.647318
-0.272527 -0.344079 1.679596
-0.261311 -0.339896 1.658643
-0.253225 -0.339653 1.656928
-0.245950 -0.340516 1.660617
-0.239082 -0.342020 1.667438
-0.231346 -0.342344 1.668506
-0.224026 -0.343329 1.672810
-0.216350 -0.343820 1.674713
-0.208669 -0.344343 1.676776
-0.201013 -0.344951 1.679268
-0.193489 -0.345846 1.683162
-0.186007 -0.346899 1.687834
-0.178433 -0.347867 1.692107
-0.170913 -0.349037 1.697371
-0.163468 -0.350488 1.704009
-0.155900 -0.351813 1.710044
-0.148343 -0.353314 1.716949
-0.140572 -0.354451 1.722097
-0.132643 -0.355306 1.725885
-0.124581 -0.355897 1.728410
-0.116502 -0.356522 1.731112
-0.108479 -0.357428 1.735194
-0.100263 -0.357797 1.736683
-0.092211 -0.358874 1.741625
-0.105307 -0.450673 2.186790
-0.094849 -0.450830 2.187236
-0.084579 -0.452035 2.192789
-0.074092 -0.452263 2.193626
-0.063264 -0.450139 2.183079
-0.052333 -0.446301 2.164240
-0.042020 -0.447146 2.168139
-0.031362 -0.443670 2.151113
-0.020750 -0.437738 2.122202
-0.010483 -0.434728 2.107481
-0.000355 -0.430151 2.085193
0.009587 -0.426768 2.068717
0.019394 -0.423878 2.054648
0.029102 -0.421486 2.043020
0.038826 -0.420474 2.038105
0.048435 -0.418869 2.030338
0.058088 -0.418121 2.026741
0.067817 -0.418050 2.026453
0.011760 -0.063388 0.307278
0.013143 -0.062941 0.305128
0.014510 -0.062510 0.303055
0.016027 -0.062748 0.304229
0.017363 -0.062296 0.302060
0.018584 -0.061534 0.298393
0.019879 -0.061106 0.296344
0.021250 -0.060954 0.295641
0.022632 -0.060851 0.295176
0.024078 -0.060921 0.295551
0.025567 -0.061088 0.296400
0.027172 -0.061497 0.298426
0.028759 -0.061826 0.300072
0.030355 -0.062144 0.301662
0.031975 -0.062480 0.303345
0.033417 -0.062452 0.303262
0.034904 -0.062508 0.303590
0.036377 -0.062535 0.303779
0.037735 -0.062370 0.303036
0.039018 -0.062099 0.301781
0.040421 -0.062029 0.301505
0.041798 -0.061927 0.301074
0.043149 -0.061794 0.300492
0.044655 -0.061885 0.301001
0.046140 -0.061941 0.301345
0.047697 -0.062088 0.302131
0.049162 -0.062108 0.302304
0.050653 -0.062161 0.302634
0.052215 -0.062296 0.303365
0.053585 -0.062200 0.302973
0.055099 -0.062270 0.303394
0.056587 -0.062311 0.303667
0.058218 -0.062501 0.304672
0.059755 -0.062584 0.305155
0.061272 -0.062642 0.305518
0.063148 -0.063057 0.307621
0.064628 -0.063065 0.307743
0.066570 -0.063515 0.310015
0.067971 -0.063439 0.309726
0.067813 -0.061943 0.302499
0.069133 -0.061832 0.302033
0.070262 -0.061557 0.300766
0.071402 -0.061302 0.299596
0.072780 -0.061258 0.299456
0.074081 -0.061152 0.299009
0.074910 -0.060668 0.296715
0.075832 -0.060276 0.294864
0.076696 -0.059853 0.292861
0.078110 -0.059865 0.292988
0.078819 -0.059348 0.290518
0.079657 -0.058943 0.288597
0.080623 -0.058645 0.287197
0.081051 -0.057972 0.283958
0.081958 -0.057658 0.282473
0.082940 -0.057407 0.281289
0.084042 -0.057245 0.280544
0.085064 -0.057034 0.279557
0.086039 -0.056799 0.278444
0.087037 -0.056586 0.277438
0.087685 -0.056155 0.275360
0.088425 -0.055795 0.273623
0.088890 -0.055274 0.271097
0.089993 -0.055159 0.270558
0.090828 -0.054886 0.269235
0.091651 -0.054613 0.267912
0.092578 -0.054408 0.266919
0.093300 -0.054090 0.265368
0.094382 -0.053987 0.264862
0.095114 -0.053688 0.263398
0.096068 -0.053521 0.262571
0.096810 -0.053242 0.261191
0.097725 -0.053064 0.260299
0.098622 -0.052880 0.259379
0.099444 -0.052662 0.258280
0.100025 -0.052322 0.256583
0.100529 -0.051951 0.254727
0.101157 -0.051652 0.253218
0.101919 -0.051428 0.252071
0.102139 -0.050939 0.249618
0.102882 -0.050719 0.248478
0.103633 -0.050508 0.247378
0.104362 -0.050290 0.246239
0.105001 -0.050035 0.244909
0.105577 -0.049755 0.243456
0.106205 -0.049506 0.242144
0.106900 -0.049294 0.241004
0.107248 -0.048927 0.239104
0.108200 -0.048841 0.238569
0.108957 -0.048669 0.237609
0.109610 -0.048455 0.236433
0.110410 -0.048310 0.235586
0.111004 -0.048078 0.234311
0.111711 -0.047899 0.233284
0.112160 -0.047615 0.231735
0.112880 -0.047450 0.230760
0.113474 -0.047236 0.229536
0.114083 -0.047031 0.228353
0.114638 -0.046809 0.227075
0.115280 -0.046626 0.225976
0.116400 -0.046638 0.225813
0.117060 -0.046467 0.224754
0.117751 -0.046312 0.223760
-1.504923 -0.564988 2.819197
-1.487481 -0.563448 2.814321
-1.473130 -0.563062 2.815064
-1.466394 -0.565607 2.830331
-1.450608 -0.564677 2.828083
-1.438365 -0.565123 2.832596
-1.426411 -0.565691 2.837606
-1.415930 -0.566861 2.845520
-1.407817 -0.569011 2.858247
-1.399669 -0.571189 2.871015
-1.396362 -0.575405 2.893937
-1.396320 -0.581063 2.924031
-1.387554 -0.583169 2.936163
-1.381411 -0.586430 2.954027
-1.372259 -0.588468 2.965638
-1.356992 -0.587900 2.964021
-1.351287 -0.591505 2.983356
-1.349836 -0.597069 3.012495
-1.343262 -0.600461 3.030598
-1.379382 -0.623216 3.146381
-1.390653 -0.635116 3.207319
-1.393807 -0.643529 3.250591
-1.393950 -0.650724 3.287637
-1.383934 -0.653285 3.301199
-1.375525 -0.656672 3.318854
-1.365821 -0.659512 3.333669
-1.352916 -0.660854 3.340837
-1.340154 -0.662300 3.348454
-1.326253 -0.663210 3.353291
-1.313352 -0.664650 3.360731
-1.299206 -0.665487 3.365055
-1.285543 -0.666595 3.370685
-1.272955 -0.668296 3.379245
-1.259435 -0.669546 3.385457
-1.248441 -0.672188 3.398649
-1.235319 -0.673738 3.406258
-1.225114 -0.676941 3.422164
-1.211296 -0.678207 3.428224
-1.201427 -0.681749 3.445727
-1.194976 -0.687355 3.473602
-1.182646 -0.689687 3.484882
-1.188555 -0.702872 3.550935
-0.299027 -0.348277 1.741170
-0.280791 -0.336363 1.681043
-0.270918 -0.334063 1.668996
-0.264741 -0.336319 1.679718
-0.255280 -0.334415 1.669669
-0.247552 -0.334733 1.670719
-0.240236 -0.335647 1.674754
-0.232465 -0.335967 1.675835
-0.224771 -0.336426 1.677613
-0.216796 -0.336483 1.677400
-0.209142 -0.337062 1.679794
-0.201393 -0.337529 1.681641
-0.193813 -0.338330 1.685166
-0.186137 -0.339029 1.688187
-0.178512 -0.339886 1.692009
-0.171223 -0.341496 1.699590
-0.163517 -0.342395 1.703638
-0.155800 -0.343366 1.708062
-0.148349 -0.345063 1.716106
-0.140560 -0.346128 1.721014
-0.132485 -0.346577 1.722880
-0.124606 -0.347637 1.727795
-0.116719 -0.348822 1.733348
-0.108573 -0.349356 1.735678
-0.100527 -0.350333 1.740225
-0.092352 -0.350995 1.743223
-0.084200 -0.351886 1.747376
-0.094998 -0.440934 2.189246
-0.084714 -0.442114 2.194806
-0.073200 -0.436299 2.165673
-0.063144 -0.438690 2.177288
-0.052011 -0.433071 2.149179
-0.041686 -0.433063 2.148942
-0.031204 -0.430884 2.137951
-0.020771 -0.427599 2.121505
-0.010434 -0.421854 2.092873
-0.000372 -0.417878 2.073045
0.009560 -0.416471 2.065986
0.019361 -0.413684 2.052109
0.029111 -0.412046 2.043949
0.038899 -0.411648 2.041964
0.048582 -0.410507 2.036316
0.058364 -0.410451 2.036071
0.011800 -0.062136 0.308250
0.013236 -0.061920 0.307196
0.014614 -0.061505 0.305155
0.016084 -0.061516 0.305230
0.017444 -0.061139 0.303382
0.018728 -0.060574 0.300608
0.020140 -0.060473 0.300137
0.021443 -0.060082 0.298227
0.022794 -0.059865 0.297186
0.024246 -0.059925 0.297522
0.025750 -0.060098 0.298422
0.027310 -0.060375 0.299839
0.028903 -0.060695 0.301476
0.030520 -0.061032 0.303200
0.032151 -0.061365 0.304908
0.033702 -0.061523 0.305745
0.035145 -0.061479 0.305585
0.036643 -0.061531 0.305904
0.038078 -0.061476 0.305693
0.039467 -0.061355 0.305153
0.040707 -0.061018 0.303542
0.042097 -0.060921 0.303126
0.043517 -0.060873 0.302956
0.044907 -0.060787 0.302602
0.046455 -0.060914 0.303304
0.048032 -0.061070 0.304156
0.049581 -0.061182 0.304789
0.051068 -0.061214 0.305023
0.052638 -0.061341 0.305732
0.054121 -0.061362 0.305913
0.055779 -0.061574 0.307051
0.057300 -0.061629 0.307405
0.058733 -0.061588 0.307283
0.060476 -0.061867 0.308756
0.061942 -0.061855 0.308778
0.063562 -0.061995 0.309558
0.064967 -0.061923 0.309280
0.065362 -0.060912 0.304312
0.066700 -0.060805 0.303861
0.067769 -0.060464 0.302233
0.068891 -0.060182 0.300905
0.070248 -0.060113 0.300639
0.071496 -0.059956 0.299929
0.072745 -0.059805 0.299250
0.073986 -0.059653 0.298567
0.074795 -0.059166 0.296202
0.075635 -0.058721 0.294042
0.076613 -0.058397 0.292492
0.077623 -0.058109 0.291115
0.078585 -0.057795 0.289609
0.079462 -0.057431 0.287845
0.080617 -0.057277 0.287133
0.081338 -0.056824 0.284923
0.082231 -0.056505 0.283378
0.083186 -0.056238 0.282091
0.084147 -0.055983 0.280862
0.085140 -0.055757 0.279776
0.086163 -0.055558 0.278819
0.087158 -0.055347 0.277799
0.087278 -0.054594 0.274060
0.087947 -0.054202 0.272124
0.088777 -0.053919 0.270736
0.089733 -0.053720 0.269760
0.090782 -0.053581 0.269086
0.091491 -0.053249 0.267433
0.092209 -0.052930 0.265848
0.093239 -0.052797 0.265190
0.094158 -0.052605 0.264232
0.094979 -0.052365 0.263025
0.095925 -0.052198 0.262184
0.096740 -0.051966 0.261009
0.097599 -0.051763 0.259974
0.098547 -0.051611 0.259193
0.099382 -0.051405 0.258134
0.099927 -0.051055 0.256349
0.100464 -0.050710 0.254582
0.101202 -0.050473 0.253354
0.101972 -0.050258 0.252227
0.102397 -0.049879 0.250275
0.102814 -0.049506 0.248345
0.103684 -0.049357 0.247532
0.104524 -0.049196 0.246656
0.105133 -0.048932 0.245257
0.105829 -0.048714 0.244080
0.106409 -0.048448 0.242655
0.107045 -0.048212 0.241377
0.107572 -0.047933 0.239877
0.108255 -0.047729 0.238742
0.109126 -0.047611 0.238033
0.109819 -0.047418 0.236942
0.110465 -0.047209 0.235764
0.111276 -0.047075 0.234947
0.112004 -0.046908 0.233964
0.112596 -0.046688 0.232706
0.113184 -0.046471 0.231454
0.113816 -0.046276 0.230304
0.114214 -0.045990 0.228695
0.114857 -0.045808 0.227590
0.115656 -0.045690 0.226800
0.116532 -0.045605 0.226158
0.117420 -0.045526 0.225539
0.118160 -0.045392 0.224633
-1.508352 -0.552767 2.826686
-1.490596 -0.551159 2.821234
-1.471399 -0.548985 2.812728
-1.466596 -0.552191 2.831657
-1.449816 -0.550906 2.827433
-1.433473 -0.549765 2.823812
-1.424208 -0.551344 2.834038
-1.415653 -0.553230 2.845741
-1.406767 -0.555023 2.856858
-1.401843 -0.558429 2.876182
-1.401007 -0.563546 2.904239
-1.405095 -0.570766 2.943056
-1.397330 -0.573267 2.957464
-1.390018 -0.576007 2.973012
-1.395716 -0.584248 3.016884
-1.383466 -0.585070 3.022362
-1.360514 -0.581336 3.004206
-1.358166 -0.586421 3.031530
-1.402914 -0.612164 3.165611
-1.390051 -0.613052 3.171108
-1.405179 -0.626438 3.241187
-1.402214 -0.631964 3.270529
-1.395219 -0.635777 3.290929
-1.386734 -0.638988 3.308141
-1.375534 -0.641008 3.319103
-1.364352 -0.643083 3.330276
-1.350956 -0.644151 3.336155
-1.337980 -0.645447 3.343144
-1.324735 -0.646644 3.349541
-1.311600 -0.647924 3.356302
-1.300420 -0.650213 3.368218
-1.286952 -0.651402 3.374366
-1.274974 -0.653383 3.384557
-1.262646 -0.655234 3.394008
-1.252068 -0.658053 3.408407
-1.241181 -0.660780 3.422273
-1.227353 -0.661994 3.428241
-1.214941 -0.664014 3.438326
-1.206775 -0.668441 3.460817
-1.187480 -0.666741 3.451532
-1.183626 -0.673785 3.487451
-1.189614 -0.686708 3.553741
-0.307364 -0.340007 1.741353
-0.299401 -0.340381 1.742667
-0.287068 -0.335665 1.717939
-0.274759 -0.330703 1.691975
-0.266829 -0.330872 1.692271
-0.258138 -0.330077 1.687653
-0.249445 -0.329230 1.682773
-0.241853 -0.329828 1.685294
-0.233794 -0.329810 1.684673
-0.225898 -0.330029 1.685271
-0.217860 -0.330049 1.684863
-0.209973 -0.330309 1.685687
-0.202182 -0.330747 1.687437
-0.194368 -0.331184 1.689186
-0.186678 -0.331879 1.692266
-0.179154 -0.332946 1.697253
-0.171698 -0.334250 1.703455
-0.164101 -0.335395 1.708861
-0.156521 -0.336697 1.715075
-0.148735 -0.337676 1.719657
-0.140842 -0.338515 1.723538
-0.132787 -0.339045 1.725865
-0.124856 -0.339987 1.730296
-0.117036 -0.341386 1.737073
-0.108857 -0.341872 1.739219
-0.100759 -0.342717 1.743209
-0.092916 -0.344660 1.752792
-0.084984 -0.346633 1.762550
-0.077022 -0.348902 1.773827
-0.068528 -0.349034 1.774256
-0.060304 -0.350775 1.782877
-0.063248 -0.428810 2.179252
-0.052100 -0.423319 2.151119
-0.041076 -0.416364 2.115579
-0.030717 -0.413809 2.102426
-0.020407 -0.409729 2.081547
-0.010364 -0.408327 2.074301
-0.000388 -0.406405 2.064437
0.009477 -0.403741 2.050823
0.019273 -0.402338 2.043641
0.029108 -0.402433 2.044092
0.038949 -0.402523 2.044543
0.048755 -0.402291 2.043377
0.010358 -0.060909 0.309394
0.011792 -0.060630 0.307988
0.013206 -0.060323 0.306441
0.014601 -0.059997 0.304808
0.016058 -0.059962 0.304651
0.017430 -0.059641 0.303046
0.018782 -0.059310 0.301390
0.020116 -0.058969 0.299690
0.021528 -0.058890 0.299322
0.022959 -0.058869 0.299249
0.024443 -0.058977 0.299841
0.025965 -0.059159 0.300807
0.027541 -0.059440 0.302281
0.029164 -0.059789 0.304101
0.030742 -0.060016 0.305308
0.032399 -0.060369 0.307159
0.033945 -0.060494 0.307850
0.035437 -0.060515 0.308017
0.037005 -0.060661 0.308822
0.038438 -0.060581 0.308480
0.039910 -0.060567 0.308473
0.041276 -0.060399 0.307687
0.042583 -0.060159 0.306530
0.044044 -0.060144 0.306526
0.045468 -0.060082 0.306283
0.046925 -0.060066 0.306278
0.048494 -0.060191 0.306989
0.050044 -0.060285 0.307546
0.051469 -0.060227 0.307326
0.052971 -0.060259 0.307573
0.054488 -0.060307 0.307899
0.055971 -0.060315 0.308018
0.057385 -0.060251 0.307774
0.059021 -0.060417 0.308703
0.060351 -0.060268 0.308030
0.062012 -0.060450 0.309044
0.063658 -0.060610 0.309942
0.065064 -0.060539 0.309664
0.065433 -0.059527 0.304571
0.066456 -0.059141 0.302677
0.067624 -0.058897 0.301515
0.069010 -0.058851 0.301358
0.070234 -0.058670 0.300513
0.071556 -0.058577 0.300115
0.072804 -0.058429 0.299432
0.073872 -0.058144 0.298049
0.075149 -0.058031 0.297546
0.075616 -0.057308 0.293913
0.076712 -0.057080 0.292817
0.077479 -0.056620 0.290525
0.078485 -0.056347 0.289192
0.079624 -0.056177 0.288387
0.080384 -0.055751 0.286260
0.081347 -0.055477 0.284913
0.082063 -0.055046 0.282759
0.083100 -0.054842 0.281763
0.083969 -0.054534 0.280236
0.085075 -0.054387 0.279531
0.086020 -0.054145 0.278329
0.086777 -0.053792 0.276558
0.087456 -0.053402 0.274594
0.087759 -0.052798 0.271524
0.088720 -0.052601 0.270544
0.089688 -0.052414 0.269611
0.090468 -0.052124 0.268143
0.091386 -0.051921 0.267118
0.092189 -0.051658 0.265784
0.093124 -0.051476 0.264856
0.094102 -0.051322 0.264072
0.094966 -0.051110 0.262988
0.095876 -0.050929 0.262054
0.096766 -0.050742 0.261085
0.097500 -0.050478 0.259717
0.098291 -0.050251 0.258532
0.098963 -0.049968 0.257058
0.099712 -0.049732 0.255813
0.100268 -0.049406 0.254104
0.100927 -0.049137 0.252687
0.101796 -0.048976 0.251815
0.102370 -0.048679 0.250237
0.103017 -0.048422 0.248862
0.103779 -0.048225 0.247789
0.104598 -0.048058 0.246865
0.105339 -0.047860 0.245774
0.106093 -0.047672 0.244726
0.106599 -0.047378 0.243130
0.107119 -0.047096 0.241590
0.107903 -0.046935 0.240662
0.108620 -0.046749 0.239597
0.109296 -0.046549 0.238455
0.109900 -0.046323 0.237173
0.110637 -0.046157 0.236189
0.111564 -0.046072 0.235617
0.112265 -0.045897 0.234572
0.112937 -0.045714 0.233478
0.113441 -0.045467 0.232049
0.113935 -0.045221 0.230618
0.114551 -0.045027 0.229446
0.115165 -0.044836 0.228279
0.115952 -0.044716 0.227461
0.116883 -0.044653 0.226927
0.117536 -0.044486 0.225850
0.118292 -0.044360 0.224976
-1.503429 -0.537500 2.818481
-1.486619 -0.536257 2.814684
-1.470713 -0.535321 2.812350
-1.461668 -0.536888 2.823039
-1.448276 -0.536873 2.825285
-1.434674 -0.536780 2.826995
-1.423360 -0.537551 2.833131
-1.416942 -0.540202 2.849076
-1.408542 -0.542143 2.861171
-1.402081 -0.544875 2.877347
-1.399648 -0.549242 2.902069
-1.392675 -0.551896 2.917654
-1.387596 -0.555361 2.937441
-1.385853 -0.560246 2.964652
-1.384291 -0.571112 3.024654
-1.387744 -0.578479 3.064793
-1.360999 -0.573282 3.038273
-1.369012 -0.582771 3.089505
-1.401134 -0.602837 3.196762
-1.405771 -0.611385 3.242892
-1.404428 -0.617492 3.276001
-1.397357 -0.621188 3.296247
-1.388539 -0.624182 3.312687
-1.378123 -0.626517 3.325557
-1.364825 -0.627582 3.331604
-1.351442 -0.628633 3.337496
-1.338221 -0.629784 3.343851
-1.324701 -0.630822 3.349526
-1.313141 -0.632829 3.360284
-1.300551 -0.634383 3.368563
-1.288323 -0.636155 3.377932
-1.275834 -0.637841 3.386779
-1.264596 -0.640204 3.399156
-1.252990 -0.642439 3.410789
-1.243498 -0.645831 3.428503
-1.235848 -0.650281 3.451774
-1.221509 -0.651283 3.456686
-1.211878 -0.654857 3.475189
-1.202136 -0.658469 3.493834
-1.187532 -0.659481 3.498633
-0.458327 -0.366221 1.930872
-0.446404 -0.363958 1.918265
-0.318191 -0.334351 1.755295
-0.303079 -0.327061 1.716421
-0.298263 -0.330788 1.735370
-0.288249 -0.328797 1.724329
-0.276488 -0.324638 1.701936
-0.268567 -0.324874 1.702593
-0.260294 -0.324686 1.701039
-0.251934 -0.324374 1.698846
-0.243913 -0.324494 1.698921
-0.235896 -0.324627 1.699075
-0.227023 -0.323550 1.692910
-0.219155 -0.323879 1.694108
-0.211477 -0.324527 1.696988
-0.203042 -0.324018 1.693827
-0.194798 -0.323785 1.692121
-0.187325 -0.324870 1.697320
-0.179965 -0.326259 1.704112
-0.172320 -0.327238 1.708774
-0.164409 -0.327786 1.711199
-0.156622 -0.328654 1.715302
-0.148782 -0.329500 1.719310
-0.141014 -0.330615 1.724730
-0.132968 -0.331178 1.727290
-0.124921 -0.331814 1.730238
-0.116869 -0.332530 1.733624
-0.108763 -0.333187 1.736719
-0.100717 -0.334157 1.741460
-0.092609 -0.335078 1.745962
-0.084583 -0.336509 1.753135
-0.076584 -0.338381 1.762624
-0.068454 -0.340065 1.771153
-0.060268 -0.341913 1.780550
-0.051892 -0.343124 1.786650
-0.043581 -0.345329 1.797939
-0.041149 -0.406736 2.117450
-0.030776 -0.404241 2.104285
-0.020321 -0.397684 2.070005
-0.010317 -0.395884 2.060510
-0.000405 -0.395800 2.059970
0.009471 -0.394348 2.052336
0.019323 -0.393879 2.049842
0.029127 -0.393086 2.045681
0.038936 -0.392737 2.043857
0.048807 -0.393018 2.045336
0.058642 -0.392963 2.045088
0.010369 -0.059501 0.309667
0.011808 -0.059239 0.308320
0.013259 -0.059093 0.307577
0.014674 -0.058834 0.306244
0.016089 -0.058620 0.305156
0.017448 -0.058252 0.303265
0.018745 -0.057752 0.300688
0.020133 -0.057586 0.299856
0.021535 -0.057477 0.299324
0.022971 -0.057467 0.299310
0.024450 -0.057558 0.299821
0.025972 -0.057736 0.300792
0.027588 -0.058092 0.302694
0.029200 -0.058405 0.304374
0.030749 -0.058567 0.305273
0.032439 -0.058972 0.307438
0.034017 -0.059145 0.308398
0.035562 -0.059250 0.309008
0.037088 -0.059316 0.309414
0.038636 -0.059410 0.309968
0.040108 -0.059385 0.309904
0.041485 -0.059225 0.309140
0.042892 -0.059118 0.308652
0.044390 -0.059140 0.308838
0.045795 -0.059040 0.308394
0.047196 -0.058941 0.307951
0.048857 -0.059164 0.309193
0.050427 -0.059265 0.309804
0.051811 -0.059149 0.309275
0.053452 -0.059325 0.310277
0.054900 -0.059282 0.310135
0.056121 -0.059003 0.308760
0.057842 -0.059249 0.310136
0.059090 -0.059013 0.308982
0.060204 -0.058656 0.307200
0.062030 -0.058993 0.309053
0.063727 -0.059196 0.310201
0.064166 -0.058247 0.305311
0.065227 -0.057892 0.303535
0.066427 -0.057673 0.302472
0.067655 -0.057487 0.301582
0.068950 -0.057365 0.301027
0.070337 -0.057323 0.300887
0.071483 -0.057089 0.299742
0.072570 -0.056820 0.298407
0.073735 -0.056620 0.297434
0.074511 -0.056135 0.294963
0.075591 -0.055892 0.293764
0.076566 -0.055582 0.292207
0.077741 -0.055425 0.291455
0.078507 -0.054988 0.289227
0.079095 -0.054443 0.286425
0.080283 -0.054323 0.285859
0.081231 -0.054046 0.284468
0.082154 -0.053763 0.283036
0.083038 -0.053464 0.281519
0.083834 -0.053118 0.279752
0.084617 -0.052775 0.277996
0.084987 -0.052189 0.274957
0.086000 -0.052009 0.274055
0.086697 -0.051647 0.272190
0.087718 -0.051486 0.271376
0.088598 -0.051247 0.270155
0.089553 -0.051059 0.269191
0.090426 -0.050829 0.268005
0.091285 -0.050598 0.266810
0.092291 -0.050454 0.266070
0.093106 -0.050210 0.264801
0.093978 -0.050004 0.263722
0.094912 -0.049835 0.262837
0.095781 -0.049637 0.261795
0.096541 -0.049389 0.260481
0.097473 -0.049233 0.259653
0.098303 -0.049030 0.258570
0.099218 -0.048875 0.257731
0.099896 -0.048608 0.256299
0.100329 -0.048229 0.254275
0.101152 -0.048045 0.253269
0.101979 -0.047867 0.252288
0.102494 -0.047548 0.250563
0.102943 -0.047207 0.248711
0.103783 -0.047050 0.247827
0.104658 -0.046913 0.247039
0.105380 -0.046710 0.245903
0.106055 -0.046492 0.244676
0.106508 -0.046183 0.242961
0.107185 -0.045975 0.241780
0.107958 -0.045813 0.240828
0.108688 -0.045637 0.239794
0.109461 -0.045482 0.238866
0.110284 -0.045350 0.238053
0.110991 -0.045175 0.237002
0.111713 -0.045008 0.235990
0.112464 -0.044857 0.235051
0.113042 -0.044640 0.233759
0.113527 -0.044391 0.232292
0.113913 -0.044109 0.230643
0.114604 -0.043949 0.229626
0.115368 -0.043819 0.228757
0.115936 -0.043619 0.227511
0.116721 -0.043503 0.226695
0.117642 -0.043439 0.226140
0.118361 -0.043303 0.225198
-1.500591 -0.523049 2.814141
-1.480508 -0.520677 2.804048
-1.465099 -0.519920 2.802506
-1.461884 -0.523518 2.824315
-1.447778 -0.523246 2.825134
-1.436892 -0.524145 2.832149
-1.428300 -0.525905 2.843712
-1.420920 -0.528150 2.857790
-1.413393 -0.530384 2.871706
-1.407354 -0.533225 2.888818
-1.405578 -0.537753 2.914983
-1.406543 -0.543429 2.947297
-1.394751 -0.544242 2.953143
-1.388134 -0.547111 2.970055
-1.396279 -0.555917 3.019122
-1.384055 -0.556710 3.024600
-1.388572 -0.564325 3.067056
-1.375910 -0.565045 3.071962
-1.434503 -0.595353 3.237689
-1.421381 -0.596229 3.243310
-1.412675 -0.598997 3.259139
-1.408981 -0.603974 3.286910
-1.397234 -0.605572 3.296209
-1.388886 -0.608696 3.313735
-1.377609 -0.610594 3.324505
-1.364741 -0.611822 3.331552
-1.352053 -0.613160 3.339124
-1.339688 -0.614679 3.347603
-1.327026 -0.616096 3.355460
-1.315060 -0.617876 3.365216
-1.301974 -0.619166 3.372239
-1.290067 -0.621056 3.382462
-1.280016 -0.623898 3.397804
-1.267533 -0.625613 3.406940
-1.254012 -0.626853 3.413430
-1.243692 -0.629746 3.428864
-1.229906 -0.630938 3.434972
-1.228378 -0.638534 3.475884
-1.215935 -0.640585 3.486553
-1.195919 -0.638649 3.475464
-0.471119 -0.359822 1.946074
-0.458819 -0.357422 1.932404
-0.449063 -0.356946 1.929136
-0.318569 -0.326352 1.756731
-0.306588 -0.322549 1.735640
-0.299793 -0.324144 1.743603
-0.291093 -0.323711 1.740659
-0.278959 -0.319323 1.716465
-0.271208 -0.319837 1.718640
-0.263055 -0.319897 1.718375
-0.254490 -0.319442 1.715361
-0.245330 -0.318187 1.708058
-0.236853 -0.317763 1.705228
-0.228516 -0.317503 1.703287
-0.219142 -0.315730 1.693250
-0.210860 -0.315457 1.691267
-0.202841 -0.315570 1.691368
-0.194953 -0.315906 1.692673
-0.187424 -0.316879 1.697404
-0.180517 -0.319039 1.708504
-0.172971 -0.320223 1.714388
-0.165388 -0.321455 1.720536
-0.157966 -0.323145 1.729146
-0.149995 -0.323838 1.732437
-0.141936 -0.324411 1.735097
-0.133598 -0.324381 1.734550
-0.125549 -0.325094 1.737994
-0.117287 -0.325321 1.738851
-0.108957 -0.325381 1.738833
-0.100785 -0.325963 1.741626
-0.092646 -0.326764 1.745606
-0.084623 -0.328180 1.752884
-0.076428 -0.329170 1.757907
-0.068205 -0.330273 1.763546
-0.060173 -0.332745 1.776517
-0.051943 -0.334764 1.787088
-0.043586 -0.336603 1.796710
-0.035045 -0.337586 1.801787
-0.026526 -0.339495 1.811822
-0.020364 -0.388237 2.071797
-0.010347 -0.386480 2.062295
-0.000419 -0.383580 2.046719
0.009432 -0.383581 2.046646
0.019255 -0.383011 2.043551
0.029112 -0.383260 2.044850
0.038930 -0.383006 2.043487
0.048848 -0.383627 2.046818
0.058694 -0.383573 2.046569
0.010395 -0.058166 0.310355
0.011822 -0.057840 0.308632
0.013220 -0.057455 0.306595
0.014729 -0.057583 0.307294
0.016078 -0.057121 0.304855
0.017530 -0.057070 0.304608
0.018863 -0.056669 0.302498
0.020258 -0.056498 0.301614
0.021743 -0.056584 0.302112
0.023148 -0.056464 0.301506
0.024646 -0.056574 0.302134
0.026150 -0.056682 0.302757
0.027703 -0.056879 0.303857
0.029226 -0.056998 0.304543
0.030804 -0.057207 0.305716
0.032427 -0.057478 0.307217
0.034041 -0.057709 0.308513
0.035603 -0.057837 0.309259
0.037012 -0.057716 0.308677
0.038511 -0.057738 0.308859
0.039967 -0.057697 0.308708
0.041399 -0.057627 0.308403
0.042798 -0.057514 0.307876
0.044209 -0.057427 0.307484
0.045612 -0.057335 0.307065
0.047087 -0.057336 0.307146
0.048624 -0.057409 0.307620
0.050183 -0.057505 0.308212
0.051702 -0.057548 0.308529
0.053190 -0.057558 0.308664
0.054565 -0.057447 0.308154
0.056255 -0.057665 0.309405
0.058199 -0.058125 0.311961
0.058805 -0.057259 0.307403
0.060424 -0.057398 0.308237
0.062097 -0.057581 0.309306
0.062495 -0.056599 0.304121
0.063864 -0.056523 0.303796
0.065020 -0.056265 0.302496
0.066177 -0.056019 0.301263
0.067567 -0.055977 0.301117
0.068907 -0.055895 0.300767
0.069974 -0.055601 0.299266
0.071307 -0.055525 0.298942
0.072398 -0.055267 0.297636
0.073299 -0.054877 0.295615
0.074362 -0.054621 0.294315
0.075362 -0.054329 0.292818
0.076244 -0.053964 0.290924
0.077152 -0.053630 0.289197
0.078147 -0.053367 0.287851
0.078883 -0.052939 0.285613
0.080071 -0.052824 0.285060
0.080991 -0.052539 0.283585
0.082039 -0.052345 0.282600
0.082966 -0.052081 0.281235
0.083727 -0.051723 0.279360
0.084370 -0.051305 0.277154
0.085399 -0.051130 0.276263
0.086381 -0.050933 0.275245
0.087350 -0.050734 0.274214
0.087809 -0.050250 0.271635
0.088658 -0.049999 0.270318
0.089530 -0.049769 0.269103
0.090435 -0.049562 0.268017
0.091296 -0.049338 0.266832
0.092177 -0.049131 0.265729
0.093073 -0.048937 0.264700
0.093810 -0.048666 0.263245
0.094674 -0.048467 0.262177
0.095554 -0.048281 0.261174
0.096396 -0.048080 0.260090
0.097338 -0.047935 0.259298
0.098092 -0.047701 0.258024
0.098638 -0.047374 0.256234
0.099517 -0.047212 0.255340
0.100157 -0.046942 0.253853
0.100875 -0.046715 0.252592
0.101724 -0.046553 0.251677
0.102348 -0.046293 0.250227
0.102973 -0.046039 0.248808
0.103826 -0.045892 0.247957
0.104586 -0.045708 0.246900
0.105358 -0.045533 0.245884
0.106200 -0.045391 0.245044
0.106877 -0.045183 0.243841
0.107622 -0.045008 0.242805
0.108383 -0.044843 0.241820
0.109137 -0.044679 0.240830
0.109877 -0.044512 0.239820
0.110611 -0.044347 0.238811
0.111344 -0.044185 0.237809
0.112195 -0.044072 0.237065
0.112826 -0.043875 0.235866
0.113398 -0.043660 0.234557
0.113907 -0.043425 0.233134
0.114338 -0.043166 0.231571
0.114983 -0.042991 0.230454
0.115526 -0.042782 0.229144
0.116118 -0.042595 0.227944
0.117052 -0.042535 0.227417
0.117837 -0.042423 0.226598
0.118460 -0.042255 0.225472
-1.488894 -0.505641 2.793138
