ply
format ascii 1.0
element vertex 1745
property float x
property float y
property float z
end_header
0.003736 0.101605 0.393373
0.005613 0.101553 0.393162
0.007498 0.101641 0.393496
0.009360 0.101439 0.392714
0.011206 0.101166 0.391659
0.013095 0.101295 0.392165
0.014925 0.100994 0.391009
0.016792 0.100981 0.390969
0.018694 0.101164 0.391691
0.020480 0.100738 0.390059
0.022186 0.100025 0.387321
0.024030 0.099993 0.387219
0.021247 0.082090 0.317912
0.022630 0.081598 0.316034
0.024129 0.081559 0.315909
0.025590 0.081404 0.315338
0.026949 0.080959 0.313643
0.028360 0.080709 0.312709
0.029712 0.080327 0.311260
0.031126 0.080138 0.310566
0.032448 0.079741 0.309064
0.033870 0.079612 0.308607
0.035246 0.079390 0.307787
0.036583 0.079102 0.306712
0.038001 0.079004 0.306377
0.039351 0.078777 0.305545
0.040623 0.078417 0.304195
0.041865 0.078025 0.302723
0.043059 0.077572 0.301014
0.044356 0.077328 0.300115
0.045589 0.076991 0.298859
0.046701 0.076477 0.296917
0.048052 0.076373 0.296562
0.048858 0.075432 0.292960
0.050005 0.075055 0.291549
0.051297 0.074912 0.291045
0.052391 0.074494 0.289474
0.053059 0.073506 0.285688
0.054090 0.073058 0.284000
0.055291 0.072858 0.283271
0.056453 0.072615 0.282379
0.057520 0.072265 0.281067
0.058523 0.071852 0.279512
0.059572 0.071512 0.278241
0.060638 0.071207 0.277103
0.061446 0.070618 0.274859
0.062557 0.070396 0.274042
0.063600 0.070107 0.272961
0.064602 0.069785 0.271751
0.065666 0.069541 0.270847
0.066454 0.069021 0.268860
0.067277 0.068555 0.267086
0.068173 0.068179 0.265660
0.069104 0.067853 0.264423
0.069978 0.067482 0.263012
0.070871 0.067142 0.261718
0.071796 0.066844 0.260587
0.072852 0.066675 0.259956
0.073708 0.066333 0.258648
0.074556 0.065993 0.257348
0.075292 0.065568 0.255710
0.076026 0.065155 0.254114
0.076990 0.064948 0.253324
0.078041 0.064820 0.252834
0.078780 0.064440 0.251362
0.079760 0.064267 0.250691
0.080513 0.063917 0.249330
0.081236 0.063555 0.247914
0.082123 0.063329 0.247030
0.082928 0.063048 0.245922
0.083796 0.062821 0.245025
0.084639 0.062581 0.244074
0.085357 0.062258 0.242792
0.086189 0.062025 0.241857
0.086950 0.061747 0.240746
0.087670 0.061448 0.239547
0.088311 0.061102 0.238158
0.089208 0.060940 0.237484
0.090068 0.060756 0.236720
0.090916 0.060569 0.235940
0.091903 0.060478 0.235526
0.092540 0.060162 0.234232
0.093382 0.059984 0.233472
0.094232 0.059817 0.232744
0.094821 0.059489 0.231387
0.095606 0.059290 0.230528
0.096337 0.059063 0.229551
0.097128 0.058877 0.228731
0.097925 0.058699 0.227932
0.098645 0.058479 0.226966
0.099179 0.058154 0.225588
0.099984 0.057994 0.224839
0.100640 0.057751 0.223766
0.101246 0.057485 0.222596
0.101764 0.057176 0.221250
0.102275 0.056869 0.219905
0.102979 0.056674 0.218989
0.103654 0.056467 0.218018
0.104177 0.056183 0.216741
0.105019 0.056074 0.216133
0.105661 0.055862 0.215116
0.106078 0.055535 0.213652
0.106855 0.055402 0.212924
0.107593 0.055252 0.212118
0.107948 0.054909 0.210565
0.108798 0.054822 0.209985
0.109546 0.054685 0.209204
0.110209 0.054510 0.208262
-1.015555 0.500230 1.890936
-1.002997 0.498485 1.886658
-0.992566 0.497774 1.886181
-0.984115 0.498053 1.889352
-0.973846 0.497409 1.888922
-0.966038 0.498022 1.893170
-0.958634 0.498857 1.898178
-0.949587 0.498846 1.899878
-0.941472 0.499328 1.903376
-1.025758 0.549302 2.095605
-1.017005 0.549943 2.099699
-1.006846 0.549829 2.100829
-0.997750 0.550300 2.104108
-0.861711 0.484950 1.856637
-0.841938 0.478697 1.833784
-0.834321 0.479299 1.837111
-0.823264 0.477916 1.832767
-0.816942 0.479282 1.838906
-0.798313 0.473380 1.817092
-0.932690 0.598001 2.300947
-0.905847 0.587613 2.261506
-0.889553 0.583901 2.247699
-0.877901 0.583185 2.245365
-0.869439 0.584597 2.251173
-0.859448 0.585003 2.253063
-0.850000 0.585793 2.256385
-0.694615 0.497329 1.916119
-0.674379 0.489185 1.884829
-0.663164 0.487455 1.878217
-0.655669 0.488450 1.882071
-0.647774 0.489170 1.884836
-0.637635 0.488191 1.881029
-0.627637 0.487295 1.877509
-0.684609 0.650500 2.502327
-0.274962 0.265841 1.022434
-0.270970 0.266654 1.025357
-0.265432 0.265948 1.022431
-0.260618 0.265955 1.022241
-0.255605 0.265755 1.021250
-0.248858 0.263710 1.013165
-0.242249 0.261735 1.005347
-0.235445 0.259465 0.996395
-0.228330 0.256754 0.985750
-0.220434 0.253034 0.971233
-0.212375 0.248964 0.955377
-0.205124 0.245686 0.942562
-0.198129 0.242575 0.930396
-0.190102 0.238032 0.912740
-0.183903 0.235620 0.903262
-0.176919 0.232063 0.889401
-0.171426 0.230337 0.882556
-0.166195 0.228885 0.876769
-0.160187 0.226262 0.866498
-0.155490 0.225402 0.862982
-0.150751 0.224433 0.859052
-0.145634 0.222831 0.852702
-0.141728 0.223045 0.853304
-0.119567 0.193698 0.740846
-0.116078 0.193739 0.740817
-0.112572 0.193753 0.740687
-0.109179 0.193969 0.741329
-0.105712 0.194064 0.741514
-0.102286 0.194244 0.742022
-0.098804 0.194326 0.742161
-0.095252 0.194273 0.741789
-0.092031 0.194916 0.744074
-0.088231 0.194335 0.741690
-0.084083 0.192910 0.736090
-0.079675 0.190736 0.727639
-0.075584 0.189160 0.721476
-0.070771 0.185541 0.707529
-0.066371 0.182698 0.696551
-0.061661 0.178656 0.681014
-0.058056 0.177548 0.676663
-0.054734 0.177226 0.675315
-0.051543 0.177316 0.675543
-0.025188 0.099017 0.377115
-0.023226 0.098318 0.374398
-0.021515 0.098655 0.375629
-0.019867 0.099373 0.378310
-0.018051 0.099309 0.378018
-0.016390 0.100171 0.381255
-0.014703 0.101077 0.384659
-0.012912 0.101430 0.385962
-0.011208 0.102692 0.390725
-0.009404 0.103351 0.393198
-0.007708 0.105844 0.402652
-0.005788 0.105865 0.402704
-0.003838 0.105135 0.399900
-0.001940 0.105737 0.402168
-0.000020 0.105304 0.400502
0.001885 0.104827 0.398671
0.003771 0.104355 0.396867
0.005650 0.104045 0.395678
0.007523 0.103809 0.394777
0.009380 0.103490 0.393560
0.011263 0.103519 0.393673
0.013117 0.103309 0.392880
0.015025 0.103525 0.393706
0.016886 0.103402 0.393250
0.018930 0.104311 0.396723
0.020913 0.104749 0.398405
0.022810 0.104718 0.398309
0.021117 0.083085 0.316063
0.022642 0.083138 0.316289
0.024139 0.083090 0.316133
0.025541 0.082741 0.314832
0.027028 0.082689 0.314662
0.028394 0.082292 0.313186
0.029757 0.081925 0.311821
0.031071 0.081467 0.310114
0.032563 0.081494 0.310254
0.033929 0.081218 0.309240
0.035301 0.080977 0.308362
0.036704 0.080824 0.307822
0.038067 0.080599 0.307008
0.039418 0.080366 0.306164
0.040747 0.080104 0.305213
0.041992 0.079702 0.303727
0.043256 0.079362 0.302479
0.044580 0.079149 0.301717
0.045818 0.078803 0.300447
0.047011 0.078403 0.298971
0.047969 0.077645 0.296129
0.049092 0.077190 0.294446
0.050252 0.076817 0.293073
0.051419 0.076475 0.291816
0.052590 0.076155 0.290646
0.053315 0.075223 0.287142
0.054075 0.074386 0.283995
0.055129 0.073983 0.282507
0.056349 0.073818 0.281925
0.057489 0.073558 0.280981
0.058668 0.073358 0.280266
0.059691 0.072976 0.278854
0.060783 0.072694 0.277823
0.061674 0.072189 0.275936
0.062673 0.071827 0.274600
0.063618 0.071420 0.273085
0.064717 0.071199 0.272281
0.065339 0.070472 0.269541
0.066471 0.070312 0.268970
0.067500 0.070052 0.268012
0.068300 0.069568 0.266194
0.069251 0.069251 0.265018
0.069902 0.068652 0.262756
0.070705 0.068221 0.261134
0.071705 0.067991 0.260282
0.072805 0.067862 0.259815
0.073744 0.067589 0.258792
0.074535 0.067193 0.257295
0.075373 0.066850 0.256000
0.075961 0.066300 0.253909
0.077063 0.066210 0.253574
0.077877 0.065878 0.252312
0.078778 0.065629 0.251363
0.079545 0.065277 0.250017
0.080371 0.064983 0.248891
0.081236 0.064728 0.247910
0.082058 0.064448 0.246828
0.083064 0.064317 0.246316
0.083775 0.063965 0.244951
0.084741 0.063814 0.244356
0.085562 0.063560 0.243356
0.086279 0.063236 0.242089
0.087004 0.062927 0.240873
0.087680 0.062590 0.239548
0.088393 0.062288 0.238350
0.089139 0.062017 0.237268
0.090111 0.061908 0.236799
0.090902 0.061679 0.235866
0.091815 0.061536 0.235260
0.092630 0.061332 0.234413
0.093388 0.061096 0.233439
0.094251 0.060934 0.232740
0.094965 0.060680 0.231685
0.095685 0.060435 0.230661
0.096304 0.060133 0.229412
0.097118 0.059958 0.228642
0.097909 0.059773 0.227827
0.098567 0.059512 0.226716
0.099305 0.059303 0.225800
0.099770 0.058938 0.224281
0.100397 0.058676 0.223147
0.101076 0.058449 0.222140
0.101706 0.058199 0.221036
0.102360 0.057967 0.219998
0.103054 0.057763 0.219054
0.103807 0.057595 0.218242
0.104506 0.057401 0.217323
0.105144 0.057178 0.216284
0.105789 0.056963 0.215267
0.106314 0.056687 0.214015
0.106998 0.056501 0.213091
0.107770 0.056365 0.212346
0.108029 0.055965 0.210599
0.108777 0.055824 0.209816
0.109508 0.055677 0.208998
0.110071 0.055447 0.207861
-1.015067 0.509085 1.888833
-1.003099 0.507604 1.885701
-0.990951 0.506005 1.882010
-0.983654 0.506876 1.887403
-0.972415 0.505714 1.885125
-0.963898 0.505958 1.887993
-0.955870 0.506467 1.891758
-0.947411 0.506756 1.894614
-0.939219 0.507194 1.897946
-1.024551 0.558636 2.092215
-1.015792 0.559279 2.096310
-1.005945 0.559330 2.098101
-0.995752 0.559188 2.099083
-0.986995 0.559858 2.103036
-0.841049 0.486890 1.831235
-0.834297 0.488004 1.836475
-0.820484 0.484966 1.826028
-0.815506 0.487143 1.835151
-0.805400 0.486270 1.832729
-0.935063 0.610429 2.306419
-0.910903 0.601642 2.273786
-0.888997 0.594152 2.245986
-0.877874 0.593777 2.245021
-0.870085 0.595674 2.252599
-0.859490 0.595674 2.252954
-0.848469 0.595375 2.252132
-0.693925 0.505875 1.914131
-0.674499 0.498174 1.885105
-0.663076 0.496258 1.877930
-0.654648 0.496562 1.879125
-0.647807 0.498094 1.884940
-0.637641 0.497079 1.881079
-0.628630 0.496947 1.880536
-0.620628 0.497621 1.883014
-0.694644 0.660670 2.496891
-0.683762 0.661520 2.499669
-0.673675 0.663182 2.505494
-0.271026 0.271564 1.025771
-0.265139 0.270491 1.021516
-0.259424 0.269556 1.017779
-0.255006 0.269959 1.019088
-0.248739 0.268383 1.012923
-0.241989 0.266213 1.004513
-0.235106 0.263809 0.995218
-0.228628 0.261771 0.987301
-0.219769 0.256864 0.968569
-0.212359 0.253479 0.955579
-0.205747 0.250920 0.945706
-0.198151 0.247020 0.930784
-0.192075 0.244883 0.922504
-0.184620 0.240847 0.907079
-0.178838 0.238853 0.899347
-0.172318 0.235754 0.887455
-0.167050 0.234254 0.881589
-0.160516 0.230858 0.868594
-0.155178 0.229048 0.861567
-0.148393 0.224948 0.845936
-0.145416 0.226553 0.851758
-0.119946 0.197854 0.743493
-0.116449 0.197901 0.743490
-0.112581 0.197302 0.741061
-0.109269 0.197670 0.742263
-0.105984 0.198112 0.743749
-0.102229 0.197677 0.741944
-0.098746 0.197756 0.742069
-0.095541 0.198417 0.744382
-0.091719 0.197800 0.741902
-0.088053 0.197484 0.740556
-0.082710 0.193223 0.724422
-0.078513 0.191387 0.717390
-0.074724 0.190423 0.713631
-0.070325 0.187740 0.703437
-0.065642 0.183995 0.689272
-0.061218 0.180617 0.676493
-0.057985 0.180574 0.676208
-0.054040 0.178182 0.667135
-0.026887 0.100462 0.376017
-0.025107 0.100507 0.376128
-0.023377 0.100771 0.377062
-0.021581 0.100774 0.377021
-0.019927 0.101505 0.379702
-0.018180 0.101857 0.380971
-0.016508 0.102757 0.384292
-0.014803 0.103649 0.387585
-0.012979 0.103837 0.388251
-0.011214 0.104647 0.391243
-0.009452 0.105821 0.395597
-0.007761 0.108559 0.405802
-0.005847 0.108983 0.407356
-0.003884 0.108433 0.405274
-0.001966 0.109356 0.408704
-0.000015 0.109013 0.407404
0.001923 0.108653 0.406040
0.003847 0.108252 0.404531
0.005748 0.107684 0.402399
0.007646 0.107357 0.401172
0.009457 0.106190 0.396808
0.011280 0.105513 0.394279
0.013296 0.106586 0.398293
0.014993 0.105147 0.392921
0.018049 0.112501 0.420414
0.019597 0.109922 0.410792
0.020643 0.105253 0.393359
0.022668 0.105938 0.395940
0.024551 0.105905 0.395837
0.021246 0.085094 0.318072
0.022680 0.084780 0.316921
0.024121 0.084524 0.315990
0.025612 0.084464 0.315793
0.027058 0.084272 0.315103
0.028492 0.084064 0.314354
0.029879 0.083744 0.313192
0.031268 0.083461 0.312167
0.032744 0.083426 0.312070
0.034043 0.082962 0.310373
0.035395 0.082659 0.309278
0.036686 0.082243 0.307763
0.038126 0.082182 0.307575
0.039410 0.081801 0.306191
0.040692 0.081442 0.304892
0.041986 0.081132 0.303775
0.043244 0.080776 0.302486
0.044548 0.080524 0.301591
0.045840 0.080267 0.300677
0.047050 0.079888 0.299302
0.048157 0.079359 0.297369
0.049201 0.078762 0.295179
0.050266 0.078229 0.293230
0.051335 0.077731 0.291414
0.052460 0.077341 0.289999
0.053508 0.076861 0.288247
0.054291 0.076034 0.285195
0.055427 0.075730 0.284101
0.056629 0.075528 0.283389
0.057738 0.075215 0.282261
0.058821 0.074881 0.281054
0.059842 0.074487 0.279620
0.060830 0.074068 0.278091
0.061732 0.073565 0.276246
0.062741 0.073207 0.274946
0.063717 0.072827 0.273558
0.064693 0.072461 0.272225
0.065543 0.071973 0.270426
0.066343 0.071448 0.268491
0.067495 0.071315 0.268026
0.068338 0.070867 0.266375
0.069299 0.070555 0.265235
0.070028 0.070022 0.263259
0.071137 0.069881 0.262757
0.071936 0.069446 0.261145
0.072917 0.069197 0.260232
0.073679 0.068754 0.258585
0.074587 0.068458 0.257490
0.075424 0.068108 0.256187
0.076130 0.067652 0.254484
0.076983 0.067340 0.253319
0.078030 0.067204 0.252813
0.079024 0.067027 0.252150
0.079835 0.066702 0.250928
0.080715 0.066444 0.249953
0.081727 0.066300 0.249404
0.082215 0.065741 0.247289
0.082912 0.065363 0.245853
0.083779 0.065127 0.244946
0.084504 0.064789 0.243653
0.085287 0.064504 0.242553
0.086090 0.064241 0.241535
0.086932 0.064014 0.240645
0.087755 0.063779 0.239723
0.088521 0.063510 0.238665
0.089104 0.063117 0.237139
0.089924 0.062899 0.236267
0.090747 0.062690 0.235421
0.091496 0.062434 0.234398
0.092146 0.062118 0.233142
0.093051 0.061980 0.232548
0.093880 0.061794 0.231770
0.094641 0.061569 0.230837
0.095473 0.061395 0.230090
0.096259 0.061195 0.229243
0.096887 0.060900 0.228032
0.097809 0.060795 0.227525
0.098450 0.060519 0.226373
0.099095 0.060251 0.225245
0.099682 0.059954 0.224002
0.100331 0.059701 0.222916
0.101117 0.059533 0.222141
0.101757 0.059284 0.221056
0.102378 0.059029 0.219942
0.103074 0.058822 0.218998
0.103842 0.058660 0.218214
0.104518 0.058449 0.217241
0.105188 0.058239 0.216264
0.105754 0.057976 0.215080
0.106429 0.057778 0.214128
0.106945 0.057498 0.212864
0.107701 0.057351 0.212084
0.108354 0.057152 0.211101
0.109186 0.057050 0.210467
0.109877 0.056877 0.209562
0.110484 0.056665 0.208497
-0.996870 0.513466 1.872810
-0.987101 0.513045 1.873559
-0.980429 0.514241 1.880114
-0.972980 0.515049 1.885158
-0.963405 0.514736 1.886007
-0.954672 0.514871 1.888406
-0.940901 0.512266 1.880655
-0.933611 0.513174 1.885710
-0.925328 0.513549 1.888725
-1.013350 0.567903 2.090350
-1.005270 0.568942 2.095810
-0.994138 0.568256 2.094837
-0.966906 0.558263 2.059438
-0.958305 0.558932 2.063273
-0.839733 0.494814 1.827731
-0.832286 0.495526 1.831438
-0.823799 0.495626 1.832826
-0.816381 0.496379 1.836568
-0.807113 0.496011 1.836108
-0.919979 0.611313 2.268811
-0.907888 0.610365 2.265891
-0.889886 0.605374 2.247899
-0.878488 0.604809 2.246287
-0.870077 0.606313 2.252306
-0.856549 0.604244 2.245004
-0.850509 0.607471 2.257335
-0.841024 0.608289 2.260666
-0.693230 0.514399 1.912110
-0.669770 0.503521 1.871809
-0.661695 0.504074 1.873964
-0.653814 0.504792 1.876700
-0.645020 0.504816 1.876825
-0.636383 0.504964 1.877383
-0.626439 0.504065 1.874020
-0.611255 0.498865 1.854634
-0.689096 0.667111 2.477340
-0.678391 0.668058 2.480452
-0.672825 0.674188 2.502784
-0.271177 0.276573 1.026537
-0.264561 0.274726 1.019491
-0.258646 0.273552 1.014939
-0.254875 0.274645 1.018789
-0.248236 0.272630 1.011107
-0.241655 0.270600 1.003369
-0.234615 0.267966 0.993389
-0.227891 0.265593 0.984373
-0.220231 0.262008 0.970870
-0.212667 0.258387 0.957235
-0.205396 0.254973 0.944368
-0.197997 0.251245 0.930343
-0.191326 0.248291 0.919190
-0.185338 0.246110 0.910897
-0.178945 0.243273 0.900182
-0.172656 0.240443 0.889497
-0.166533 0.237708 0.879166
-0.160754 0.235338 0.870192
-0.156100 0.234533 0.867005
-0.150048 0.231528 0.855688
-0.143771 0.228000 0.842445
-0.139912 0.228214 0.843036
-0.120227 0.201868 0.745534
-0.116157 0.200940 0.741929
-0.112953 0.201499 0.743818
-0.109571 0.201767 0.744634
-0.106009 0.201710 0.744253
-0.102500 0.201752 0.744241
-0.098899 0.201612 0.743558
-0.095273 0.201407 0.742638
-0.091682 0.201265 0.741952
-0.087891 0.200655 0.739547
-0.083295 0.198081 0.729909
-0.079019 0.196076 0.722372
-0.074880 0.194246 0.715489
-0.070701 0.192133 0.707571
-0.066612 0.190066 0.699826
-0.061125 0.183581 0.675827
-0.057882 0.183493 0.675383
-0.054103 0.181594 0.668279
-0.050947 0.181685 0.668503
-0.026764 0.101801 0.374515
-0.025076 0.102189 0.375886
-0.023455 0.102930 0.378557
-0.021708 0.103200 0.379496
-0.020012 0.103777 0.381570
-0.018332 0.104566 0.384424
-0.016689 0.105763 0.388780
-0.014957 0.106621 0.391889
-0.013147 0.107095 0.393594
-0.011349 0.107842 0.396301
-0.009542 0.108779 0.399708
-0.007723 0.110021 0.404241
-0.005859 0.111239 0.408690
-0.003912 0.111311 0.408929
-0.001967 0.111632 0.410086
-0.000011 0.111969 0.411305
0.001948 0.111769 0.410555
0.003893 0.111351 0.409007
0.005817 0.110822 0.407055
0.007735 0.110482 0.405800
0.009705 0.110864 0.407198
0.011449 0.108963 0.400216
0.013190 0.107584 0.395156
0.015947 0.113796 0.417981
0.018025 0.114322 0.419924
0.020169 0.115120 0.422868
0.021738 0.112786 0.414310
0.023940 0.113854 0.418251
0.021320 0.086900 0.319271
0.022699 0.086348 0.317263
0.024136 0.086072 0.316274
0.025657 0.086111 0.316444
0.027083 0.085845 0.315493
0.028440 0.085398 0.313879
0.029875 0.085216 0.313242
0.031282 0.084979 0.312400
0.032685 0.084751 0.311599
0.034040 0.084424 0.310433
0.035392 0.084119 0.309346
0.036731 0.083806 0.308234
0.038051 0.083476 0.307062
0.039430 0.083294 0.306432
0.040730 0.082964 0.305262
0.041994 0.082589 0.303922
0.043161 0.082052 0.301990
0.044514 0.081891 0.301444
0.045952 0.081893 0.301495
0.047020 0.081254 0.299188
0.048083 0.080645 0.296993
0.049302 0.080324 0.295858
0.050339 0.079735 0.293732
0.051538 0.079424 0.292634
0.052754 0.079157 0.291697
0.053882 0.078775 0.290334
0.054671 0.077928 0.287258
0.055585 0.077295 0.284972
0.056707 0.076977 0.283843
0.057835 0.076680 0.282794
0.058940 0.076366 0.281680
0.059923 0.075913 0.280049
0.060961 0.075547 0.278741
0.061828 0.074990 0.276726
0.062791 0.074569 0.275213
0.063820 0.074242 0.274046
0.064750 0.073816 0.272510
0.065721 0.073452 0.271201
0.066478 0.072867 0.269074
0.067478 0.072566 0.267996
0.068487 0.072285 0.266989
0.069426 0.071942 0.265749
0.070231 0.071474 0.264049
0.070872 0.070859 0.261800
0.071826 0.070573 0.260766
0.072973 0.070483 0.260453
0.073827 0.070118 0.259118
0.074490 0.069586 0.257167
0.075350 0.069252 0.255947
0.076151 0.068876 0.254564
0.076874 0.068441 0.252964
0.077536 0.067967 0.251215
0.078590 0.067845 0.250765
0.079644 0.067727 0.250324
0.080396 0.067359 0.248956
0.081140 0.066996 0.247603
0.082049 0.066776 0.246779
0.082847 0.066475 0.245646
0.083742 0.066257 0.244821
0.084634 0.066044 0.244007
0.085402 0.065741 0.242857
0.086170 0.065446 0.241733
0.086942 0.065162 0.240645
0.087809 0.064955 0.239839
0.088589 0.064690 0.238811
0.089048 0.064200 0.236951
0.089810 0.063938 0.235927
0.090544 0.063663 0.234851
0.091487 0.063540 0.234327
0.092112 0.063201 0.233006
0.092967 0.063027 0.232283
0.093872 0.062890 0.231694
0.094659 0.062678 0.230822
0.095368 0.062419 0.229772
0.096130 0.062201 0.228868
0.096969 0.062037 0.228154
0.097764 0.061849 0.227345
0.098531 0.061648 0.226482
0.099187 0.061381 0.225373
0.099776 0.061080 0.224130
0.100415 0.060815 0.223015
0.101069 0.060565 0.221945
0.101816 0.060375 0.221089
0.102362 0.060071 0.219808
0.103032 0.059845 0.218807
0.103749 0.059651 0.217912
0.104337 0.059387 0.216756
0.104962 0.059149 0.215684
0.105647 0.058949 0.214745
0.106290 0.058730 0.213726
0.106798 0.058441 0.212444
0.107584 0.058309 0.211721
0.108282 0.058131 0.210826
0.109138 0.058041 0.210236
0.109921 0.057914 0.209501
0.110440 0.057651 0.208265
-0.996085 0.522069 1.870110
-0.987491 0.522258 1.873117
-0.978476 0.522226 1.875229
-0.971661 0.523380 1.881502
-0.963513 0.523830 1.885157
-0.954068 0.523578 1.886191
-0.943053 0.522451 1.883979
-0.935775 0.523393 1.889138
-0.929998 0.525202 1.897348
-1.000942 0.570796 2.063805
-1.007140 0.580006 2.098785
-0.995178 0.578837 2.096147
-0.986527 0.579590 2.100384
-0.977736 0.580276 2.104302
-0.841418 0.504511 1.830727
-0.832629 0.504432 1.831553
-0.824332 0.504653 1.833404
-0.816475 0.505151 1.836203
-0.806775 0.504508 1.834791
-0.926570 0.626501 2.284631
-0.910224 0.622679 2.271323
-0.890357 0.616328 2.248727
-0.877531 0.614757 2.243512
-0.869994 0.616898 2.251791
-0.859367 0.616875 2.252123
-0.848864 0.616941 2.252732
-0.827298 0.608868 2.223569
-0.673538 0.515245 1.882242
-0.661733 0.512954 1.873998
-0.654006 0.513806 1.877202
-0.646358 0.514745 1.880692
-0.636957 0.514294 1.879075
-0.627880 0.514096 1.878350
-0.614276 0.510134 1.863845
-0.700988 0.690544 2.520473
-0.684376 0.685790 2.502740
-0.673432 0.686650 2.505472
-0.272524 0.282830 1.031824
-0.265406 0.280446 1.022947
-0.258690 0.278405 1.015318
-0.255201 0.279827 1.020311
-0.248368 0.277567 1.011871
-0.241471 0.275146 1.002844
-0.234179 0.272169 0.991788
-0.227385 0.269661 0.982441
-0.220392 0.266807 0.971836
-0.212701 0.262970 0.957651
-0.205666 0.259795 0.945879
-0.199555 0.257672 0.937939
-0.192435 0.254122 0.924804
-0.185836 0.251109 0.913630
-0.179286 0.248022 0.902189
-0.172532 0.244495 0.889154
-0.166712 0.242149 0.880416
-0.160965 0.239791 0.871639
-0.155128 0.237172 0.861916
-0.150501 0.236311 0.858589
-0.144708 0.233523 0.848258
-0.140823 0.233741 0.848852
-0.120169 0.205321 0.745470
-0.116152 0.204468 0.742203
-0.112825 0.204812 0.743283
-0.109594 0.205360 0.745101
-0.105855 0.204961 0.743489
-0.102399 0.205101 0.743833
-0.098790 0.204937 0.743074
-0.095158 0.204707 0.742082
-0.091764 0.204994 0.742966
-0.087930 0.204282 0.740232
-0.083768 0.202715 0.734405
-0.079330 0.200318 0.725579
-0.075335 0.198873 0.720202
-0.070638 0.195347 0.707301
-0.066206 0.192241 0.695928
-0.061451 0.187820 0.679801
-0.058162 0.187638 0.679028
-0.054161 0.185003 0.669381
-0.051002 0.185095 0.669604
-0.026770 0.103626 0.374824
-0.025171 0.104392 0.377537
-0.023588 0.105347 0.380937
-0.021809 0.105517 0.381501
-0.020107 0.106121 0.383635
-0.018359 0.106578 0.385240
-0.016683 0.107607 0.388917
-0.014915 0.108219 0.391087
-0.013121 0.108795 0.393128
-0.009938 0.115339 0.416702
-0.007953 0.115358 0.416739
-0.005982 0.115666 0.417822
-0.004006 0.116130 0.419475
-0.001994 0.115435 0.416941
-0.000006 0.115548 0.417329
0.001986 0.115683 0.417800
0.003970 0.115406 0.416788
0.005974 0.115727 0.417939
0.007932 0.115203 0.416040
0.009943 0.115512 0.417153
0.012033 0.116479 0.420645
0.014052 0.116583 0.421024
0.016096 0.116842 0.421963
0.018158 0.117154 0.423101
0.020271 0.117701 0.425088
0.022155 0.116939 0.422354
0.023906 0.115661 0.417756
0.025891 0.115625 0.417648
0.021364 0.088588 0.320005
0.022740 0.088005 0.317918
0.024184 0.087741 0.316990
0.025591 0.087382 0.315714
0.027092 0.087364 0.315677
0.028494 0.087047 0.314561
0.029886 0.086733 0.313452
0.031280 0.086454 0.312476
0.032641 0.086112 0.311274
0.034025 0.085858 0.310389
0.035385 0.085566 0.309371
0.036751 0.085312 0.308487
0.038086 0.085007 0.307426
0.039447 0.084782 0.306649
0.040784 0.084524 0.305755
0.042029 0.084099 0.304259
0.043241 0.083636 0.302629
0.044571 0.083427 0.301914
0.045905 0.083237 0.301268
0.047164 0.082925 0.300183
0.048365 0.082534 0.298812
0.049404 0.081896 0.296548
0.050554 0.081473 0.295059
0.051665 0.081011 0.293429
0.052768 0.080561 0.291845
0.053907 0.080187 0.290535
0.054741 0.079390 0.287689
0.055578 0.078635 0.284998
0.056676 0.078278 0.283744
0.057737 0.077887 0.282372
0.058965 0.077734 0.281856
0.059946 0.077269 0.280212
0.061037 0.076963 0.279141
0.062000 0.076512 0.277545
0.063092 0.076236 0.276578
0.063984 0.075733 0.274792
0.064882 0.075259 0.273104
0.065751 0.074769 0.271361
0.066499 0.074164 0.269196
0.067639 0.074010 0.268667
0.068568 0.073636 0.267335
0.069513 0.073291 0.266108
0.070599 0.073105 0.265458
0.071434 0.072670 0.263901
0.072068 0.072049 0.261665
0.072968 0.071710 0.260451
0.073944 0.071457 0.259544
0.074778 0.071077 0.258175
0.075585 0.070683 0.256754
0.076399 0.070308 0.255397
0.077173 0.069909 0.253952
0.078066 0.069628 0.252930
0.079034 0.069421 0.252176
0.079826 0.069069 0.250891
0.080649 0.068753 0.249732
0.081288 0.068291 0.248042
0.081918 0.067836 0.246372
0.082896 0.067677 0.245773
0.083910 0.067551 0.245292
0.084597 0.067170 0.243878
0.085408 0.066895 0.242848
0.086334 0.066717 0.242165
0.087022 0.066362 0.240834
0.087705 0.066013 0.239519
0.088362 0.065653 0.238161
0.088814 0.065151 0.236287
0.089534 0.064857 0.235159
0.090445 0.064706 0.234545
0.091279 0.064504 0.233744
0.092056 0.064268 0.232810
0.092919 0.064096 0.232105
0.093710 0.063879 0.231232
0.094542 0.063695 0.230472
0.095360 0.063506 0.229688
0.096111 0.063277 0.228752
0.096702 0.062949 0.227453
0.097511 0.062768 0.226680
0.098072 0.062434 0.225346
0.098889 0.062268 0.224613
0.099446 0.061943 0.223301
0.100244 0.061774 0.222544
0.100905 0.061525 0.221489
0.101613 0.061309 0.220549
0.102323 0.061099 0.219622
0.102960 0.060850 0.218546
0.103651 0.060637 0.217596
0.104286 0.060397 0.216535
0.104769 0.060073 0.215169
0.105486 0.059890 0.214296
0.106251 0.059736 0.213521
0.106981 0.059566 0.212676
0.107686 0.059385 0.211786
0.108274 0.059144 0.210670
0.109156 0.059066 0.210125
0.109891 0.058911 0.209293
0.110511 0.058698 0.208244
-1.003155 0.534845 1.882102
-0.987321 0.531177 1.871568
-0.979360 0.531717 1.875740
-0.971859 0.532519 1.880743
-0.962846 0.532500 1.882752
-0.954646 0.532934 1.886272
-0.946053 0.533156 1.888950
-0.938159 0.533780 1.892968
-0.930200 0.534379 1.896814
-1.015632 0.589167 2.093092
-1.006822 0.589827 2.097159
-0.996242 0.589454 2.097466
-0.983812 0.587968 2.093724
-0.975031 0.588654 2.097635
-0.841482 0.513255 1.830163
-0.832353 0.512965 1.830275
-0.823655 0.512938 1.831261
-0.816653 0.513979 1.835995
-0.805085 0.512137 1.830371
-0.925745 0.636744 2.282132
-0.914733 0.636561 2.282145
-0.890894 0.627340 2.249691
-0.877842 0.625586 2.243948
-0.872559 0.629394 2.258104
-0.860778 0.628550 2.255525
-0.849627 0.628152 2.254495
-0.845438 0.632955 2.272089
-0.676162 0.526178 1.889455
-0.661048 0.521267 1.871966
-0.651563 0.520721 1.870122
-0.643741 0.521508 1.873031
-0.636400 0.522712 1.877409
-0.627119 0.522335 1.876077
-0.615388 0.519877 1.867244
-0.687967 0.689417 2.474007
-0.676011 0.689103 2.472529
-0.669659 0.694592 2.491847
-0.272445 0.287630 1.031705
-0.266234 0.286178 1.026327
-0.258504 0.283010 1.014791
-0.255067 0.284511 1.019989
-0.248857 0.282916 1.014084
-0.241512 0.279946 1.003243
-0.234423 0.277157 0.993056
-0.227746 0.274753 0.984244
-0.220500 0.271548 0.972563
-0.212748 0.267572 0.958119
-0.206072 0.264805 0.948012
-0.198842 0.261188 0.934860
-0.192751 0.258936 0.926596
-0.186557 0.256439 0.917457
-0.179933 0.253218 0.905731
-0.173908 0.250703 0.896536
-0.166520 0.246050 0.879698
-0.161055 0.244072 0.872428
-0.155352 0.241621 0.863470
-0.150566 0.240502 0.859276
-0.144966 0.237984 0.850088
-0.141072 0.238204 0.850681
-0.120070 0.208700 0.745151
-0.116227 0.208139 0.742979
-0.112895 0.208485 0.744052
-0.109429 0.208600 0.744296
-0.105673 0.208151 0.742533
-0.102097 0.208036 0.741966
-0.098558 0.207994 0.741658
-0.094888 0.207661 0.740316
-0.091121 0.207082 0.738102
-0.087672 0.207211 0.738410
-0.083668 0.205983 0.733889
-0.079150 0.203328 0.724290
-0.074212 0.199302 0.709816
-0.069854 0.196528 0.699807
-0.066013 0.195005 0.694262
-0.061699 0.191849 0.682905
-0.058363 0.191554 0.681740
-0.054424 0.189129 0.673003
-0.051249 0.189222 0.673226
-0.026623 0.104847 0.372976
-0.024937 0.105221 0.374252
-0.023394 0.106299 0.378035
-0.021841 0.107511 0.382295
-0.020219 0.108571 0.386014
-0.018387 0.108607 0.386096
-0.016727 0.109777 0.390214
-0.014886 0.109903 0.390618
-0.009984 0.117930 0.419035
-0.007933 0.117118 0.416118
-0.005993 0.117960 0.419082
-0.004014 0.118489 0.420936
-0.002008 0.118538 0.421087
-0.000001 0.118634 0.421411
0.002008 0.118666 0.421509
0.004017 0.118658 0.421466
0.006026 0.118636 0.421378
0.008039 0.118695 0.421582
0.010036 0.118540 0.421028
0.012085 0.118951 0.422487
0.014144 0.119327 0.423825
0.016170 0.119360 0.423946
0.018214 0.119504 0.424468
0.020305 0.119900 0.425886
0.022279 0.119594 0.424813
0.023750 0.116860 0.415120
0.025897 0.117623 0.417850
0.021251 0.089621 0.318392
0.022742 0.089514 0.318032
0.024207 0.089323 0.317373
0.025648 0.089073 0.316507
0.027123 0.088961 0.316134
0.028540 0.088679 0.315159
0.029995 0.088537 0.314684
0.031357 0.088148 0.313331
0.032776 0.087945 0.312642
0.034138 0.087616 0.311505
0.035471 0.087241 0.310205
0.036801 0.086892 0.308998
0.038165 0.086643 0.308149
0.039508 0.086368 0.307210
0.040751 0.085901 0.305588
0.042033 0.085546 0.304365
0.043254 0.085095 0.302800
0.044460 0.084645 0.301238
0.045809 0.084485 0.300711
0.047119 0.084267 0.299977
0.048346 0.083915 0.298766
0.049512 0.083482 0.297266
0.050563 0.082884 0.295178
0.051657 0.082388 0.293454
0.052822 0.082027 0.292209
0.053995 0.081695 0.291071
0.055059 0.081222 0.289425
0.055815 0.080326 0.286275
0.056740 0.079712 0.284126
0.057910 0.079461 0.283271
0.058999 0.079114 0.282072
0.060062 0.078748 0.280806
0.061087 0.078349 0.279419
0.062182 0.078055 0.278406
0.063147 0.077612 0.276862
0.064075 0.077144 0.275225
0.064872 0.076539 0.273099
0.065653 0.075940 0.270992
0.066663 0.075624 0.269893
0.067636 0.075278 0.268685
0.068444 0.074764 0.266877
0.069295 0.074316 0.265300
0.070401 0.074152 0.264734
0.071445 0.073930 0.263962
0.072287 0.073509 0.262475
0.073177 0.073151 0.261211
0.074149 0.072886 0.260274
0.074962 0.072475 0.258817
0.075701 0.072007 0.257152
0.076380 0.071498 0.255337
0.077168 0.071106 0.253936
0.078021 0.070783 0.252781
0.079083 0.070658 0.252329
0.079876 0.070300 0.251039
0.080682 0.069963 0.249824
0.081367 0.069532 0.248269
0.082353 0.069368 0.247662
0.082987 0.068916 0.246023
0.083840 0.068655 0.245066
0.084668 0.068382 0.244057
0.085356 0.068004 0.242671
0.086009 0.067609 0.241221
0.086869 0.067384 0.240375
0.087607 0.067072 0.239212
0.088319 0.066749 0.238006
0.089103 0.066487 0.237012
0.089727 0.066114 0.235619
0.090531 0.065881 0.234718
0.091448 0.065735 0.234122
0.092015 0.065344 0.232650
0.092853 0.065152 0.231880
0.093593 0.064897 0.230881
0.094423 0.064709 0.230115
0.095199 0.064489 0.229229
0.096000 0.064291 0.228414
0.096751 0.064063 0.227489
0.097484 0.063830 0.226535
0.098150 0.063558 0.225440
0.098827 0.063299 0.224384
0.099550 0.063074 0.223442
0.100210 0.062815 0.222371
0.100881 0.062568 0.221337
0.101721 0.062429 0.220679
0.102266 0.062115 0.219392
0.102911 0.061867 0.218331
0.103699 0.061708 0.217580
0.104372 0.061486 0.216593
0.104973 0.061226 0.215465
0.105459 0.060904 0.214112
0.106307 0.060795 0.213501
0.107034 0.060620 0.212645
0.107578 0.060346 0.211433
0.108160 0.060098 0.210301
0.109044 0.060020 0.209757
0.109827 0.059889 0.209015
0.110639 0.059776 0.208324
-1.004072 0.544415 1.882495
-0.989724 0.541502 1.874848
-0.978563 0.540296 1.872987
-0.971155 0.541159 1.878195
-0.963336 0.541807 1.882565
-0.954269 0.541760 1.884426
-0.946888 0.542678 1.889554
-0.938079 0.542788 1.891783
-0.928831 0.542644 1.893039
-1.016257 0.599529 2.093336
-1.007425 0.600191 2.097411
-0.997237 0.600051 2.098597
-0.987450 0.600152 2.100542
-0.978620 0.600843 2.104473
-0.843895 0.523457 1.834675
-0.831329 0.521025 1.827324
-0.821992 0.520586 1.826895
-0.816676 0.522712 1.835408
-0.807221 0.522206 1.834623
-0.799535 0.522846 1.837803
-0.911332 0.644952 2.273199
-0.894133 0.640302 2.257449
-0.879232 0.637206 2.247113
-0.867931 0.636676 2.245772
-0.863098 0.640936 2.261280
-0.850229 0.639260 2.255799
-0.832423 0.633784 2.236854
-0.675460 0.534550 1.887355
-0.660755 0.529875 1.871022
-0.651295 0.529338 1.869262
-0.645498 0.531804 1.878079
-0.635880 0.531147 1.875834
-0.626711 0.530852 1.874839
-0.615597 0.528878 1.867886
-0.685901 0.699014 2.466910
-0.678519 0.703400 2.482063
-0.668795 0.705471 2.489022
-0.273074 0.293188 1.034261
-0.266848 0.291708 1.028880
-0.258614 0.287937 1.015415
-0.255446 0.289771 1.021710
-0.248806 0.287661 1.014091
-0.241379 0.284541 1.002910
-0.234499 0.281955 0.993609
-0.227784 0.279466 0.984648
-0.220509 0.276171 0.972848
-0.212892 0.272301 0.959021
-0.206046 0.269268 0.948147
-0.199611 0.266651 0.938738
-0.192442 0.262912 0.925381
-0.186555 0.260793 0.917725
-0.179993 0.257605 0.906315
-0.173880 0.254923 0.896682
-0.167125 0.251140 0.883185
-0.161479 0.248874 0.875024
-0.156402 0.247387 0.869607
-0.150285 0.244133 0.857980
-0.143217 0.239109 0.840140
-0.139368 0.239328 0.840725
-0.120655 0.213283 0.749070
-0.116259 0.211736 0.743474
-0.113068 0.212356 0.745494
-0.109574 0.212428 0.745588
-0.105676 0.211697 0.742866
-0.102187 0.211763 0.742941
-0.098582 0.211584 0.742162
-0.095024 0.211498 0.741708
-0.091375 0.211195 0.740499
-0.087688 0.210777 0.738887
-0.083851 0.209950 0.735846
-0.079460 0.207602 0.727482
-0.075335 0.205769 0.720924
-0.070470 0.201642 0.706338
-0.066297 0.199184 0.697607
-0.062101 0.196394 0.687721
-0.058642 0.195754 0.685365
-0.054532 0.192741 0.674711
-0.050960 0.191369 0.669804
-0.047797 0.191456 0.670012
-0.025175 0.108044 0.378052
-0.023512 0.108667 0.380181
-0.021956 0.109931 0.384552
-0.020315 0.110962 0.388113
-0.018684 0.112254 0.392587
-0.016985 0.113386 0.396502
-0.015660 0.117612 0.411238
-0.013706 0.117641 0.411300
-0.011829 0.118462 0.414132
-0.009963 0.119728 0.418525
-0.007987 0.119985 0.419394
-0.006027 0.120733 0.421979
-0.004043 0.121529 0.424736
-0.002016 0.121297 0.423902
0.000004 0.121436 0.424370
0.002029 0.121606 0.424948
0.004028 0.120845 0.422274
0.006041 0.120851 0.422283
0.008053 0.120846 0.422259
0.010041 0.120545 0.421205
0.012062 0.120687 0.421700
0.014130 0.121178 0.423416
0.016182 0.121433 0.424315
0.018177 0.121250 0.423682
0.020279 0.121740 0.425405
0.022379 0.122135 0.426797
0.024193 0.121033 0.422964
0.025860 0.119419 0.417343
0.027841 0.119380 0.417226
0.022727 0.090954 0.317899
0.024172 0.090689 0.316993
0.025595 0.090381 0.315937
0.027149 0.090539 0.316513
0.028548 0.090191 0.315323
0.029934 0.089841 0.314128
0.031344 0.089592 0.313284
0.032751 0.089356 0.312490
0.034147 0.089115 0.311676
0.035439 0.088631 0.310017
0.036796 0.088341 0.309037
0.038116 0.087988 0.307837
0.039485 0.087771 0.307112
0.040766 0.087380 0.305782
0.042078 0.087080 0.304771
0.043314 0.086649 0.303301
0.044510 0.086168 0.301656
0.045870 0.086025 0.301192
0.047189 0.085814 0.300496
0.048364 0.085363 0.298954
0.049449 0.084781 0.296958
0.050578 0.084307 0.295338
0.051772 0.083963 0.294172
0.052939 0.083595 0.292922
0.054110 0.083251 0.291756
0.055315 0.082975 0.290830
0.056359 0.082477 0.289124
0.057346 0.081922 0.287214
0.058191 0.081195 0.284701
0.059621 0.081297 0.285098
0.060120 0.080154 0.281124
0.061272 0.079911 0.280308
0.062362 0.079601 0.279253
0.063251 0.079053 0.277361
0.064084 0.078456 0.275300
0.064810 0.077756 0.272873
0.065908 0.077522 0.272078
0.066832 0.077095 0.270605
0.067723 0.076647 0.269059
0.068616 0.076218 0.267572
0.069439 0.075728 0.265872
0.070326 0.075324 0.264475
0.071344 0.075072 0.263606
0.072076 0.074533 0.261726
0.073027 0.074234 0.260688
0.073793 0.073761 0.259035
0.074615 0.073358 0.257625
0.075375 0.072908 0.256048
0.076377 0.072703 0.255327
0.077211 0.072347 0.254074
0.077841 0.071813 0.252194
0.078721 0.071523 0.251164
0.079660 0.071294 0.250349
0.080659 0.071125 0.249739
0.081365 0.070706 0.248247
0.082170 0.070383 0.247092
0.083100 0.070176 0.246335
0.083795 0.069777 0.244906
0.084403 0.069320 0.243265
0.085246 0.069064 0.242327
0.086198 0.068902 0.241717
0.086878 0.068530 0.240361
0.087810 0.068364 0.239727
0.088609 0.068100 0.238741
0.089408 0.067842 0.237775
0.089978 0.067419 0.236224
0.090523 0.066989 0.234644
0.091223 0.066682 0.233490
0.092171 0.066561 0.232983
0.092966 0.066334 0.232098
0.093880 0.066196 0.231520
0.094529 0.065876 0.230301
0.095321 0.065663 0.229446
0.096110 0.065452 0.228596
0.096850 0.065213 0.227641
0.097570 0.064966 0.226651
0.098263 0.064706 0.225610
0.099015 0.064491 0.224717
0.099722 0.064251 0.223732
0.100473 0.064044 0.222855
0.101155 0.063798 0.221835
0.101851 0.063566 0.220854
0.102414 0.063256 0.219597
0.102945 0.062933 0.218288
0.103767 0.062793 0.217602
0.104451 0.062573 0.216634
0.105006 0.062280 0.215405
0.105509 0.061963 0.214082
0.106084 0.061693 0.212917
0.106867 0.061549 0.212171
0.107455 0.061296 0.211044
0.108043 0.061047 0.209923
0.108946 0.060980 0.209412
0.109787 0.060879 0.208777
0.110588 0.060758 0.208059
-1.004310 0.553628 1.881565
-0.989533 0.550429 1.873165
-0.978732 0.549404 1.872038
-0.969761 0.549396 1.874270
-0.962528 0.550383 1.879799
-0.954208 0.550762 1.883160
-0.945573 0.550964 1.885827
-0.937833 0.551698 1.890224
-0.930081 0.552438 1.894564
-1.014861 0.608692 2.089375
-1.006024 0.609354 2.093452
-0.996523 0.609623 2.096092
-0.985992 0.609262 2.096480
-0.977159 0.609954 2.100410
-0.843494 0.531936 1.833034
-0.829864 0.528782 1.823373
-0.819876 0.527907 1.821494
-0.816023 0.531006 1.833271
-0.804812 0.529333 1.828512
-0.793021 0.527238 1.822231
-0.910497 0.655111 2.270627
-0.893579 0.650581 2.255597
-0.878640 0.647400 2.245183
-0.868899 0.648019 2.247893
-0.857237 0.647204 2.245575
-0.849731 0.649545 2.254159
-0.831121 0.643350 2.233070
-0.821676 0.644182 2.236323
-0.682488 0.549123 1.906828
-0.661666 0.539459 1.873467
-0.650877 0.537824 1.867952
-0.643588 0.539078 1.872437
-0.636289 0.540357 1.876980
-0.626276 0.539335 1.873501
-0.617167 0.539075 1.872636
-0.685028 0.709777 2.464078
-0.671100 0.707323 2.455262
-0.660343 0.708184 2.457930
-0.272396 0.297342 1.031859
-0.266231 0.295892 1.026677
-0.259490 0.293736 1.019040
-0.255108 0.294219 1.020551
-0.248450 0.292046 1.012844
-0.241503 0.289442 1.003641
-0.234659 0.286860 0.994511
-0.227245 0.283461 0.982550
-0.220174 0.280357 0.971609
-0.213070 0.277080 0.960066
-0.205986 0.273687 0.948126
-0.199492 0.270944 0.938438
-0.193141 0.268276 0.929008
-0.187250 0.266138 0.921418
-0.180971 0.263333 0.911517
-0.173930 0.259257 0.897222
-0.167096 0.255293 0.883320
-0.161151 0.252519 0.873538
-0.155712 0.250413 0.866070
-0.150636 0.248794 0.860286
-0.144808 0.245807 0.849780
-0.140915 0.246030 0.850370
-0.119901 0.215495 0.744673
-0.115786 0.214401 0.740740
-0.112457 0.214741 0.741757
-0.109170 0.215185 0.743140
-0.105472 0.214824 0.741740
-0.102012 0.214938 0.741983
-0.098497 0.214941 0.741846
-0.094894 0.214746 0.741026
-0.091359 0.214695 0.740709
-0.087623 0.214148 0.738680
-0.083886 0.213556 0.736501
-0.079653 0.211594 0.729601
-0.075300 0.209120 0.720941
-0.070782 0.205931 0.709822
-0.066674 0.203678 0.701938
-0.062105 0.199702 0.688123
-0.058568 0.198789 0.684867
-0.054676 0.196497 0.676865
-0.050839 0.194127 0.668602
-0.047684 0.194215 0.668809
-0.025201 0.109973 0.378658
-0.023440 0.110159 0.379248
-0.022061 0.112320 0.386638
-0.020255 0.112499 0.387208
-0.018809 0.114918 0.395488
-0.017016 0.115516 0.397503
-0.015282 0.116722 0.401615
-0.013601 0.118726 0.408472
-0.011824 0.120426 0.414282
-0.009950 0.121631 0.418397
-0.008018 0.122534 0.421469
-0.006034 0.123001 0.423049
-0.004051 0.123957 0.426310
-0.002027 0.124309 0.427501
0.000009 0.124078 0.426688
0.002043 0.124196 0.427076
0.004053 0.123458 0.424523
0.006063 0.123210 0.423663
0.008065 0.122956 0.422779
0.010018 0.122208 0.420204
0.012077 0.122796 0.422224
0.014121 0.123071 0.423171
0.016176 0.123372 0.424210
0.018217 0.123506 0.424677
0.020303 0.123882 0.425981
0.022455 0.124559 0.428322
0.024398 0.124062 0.426629
0.026347 0.123668 0.425290
0.028364 0.123627 0.425172
0.022739 0.092501 0.318141
0.024178 0.092210 0.317159
0.025620 0.091962 0.316326
0.027088 0.091826 0.315882
0.028564 0.091732 0.315582
0.029975 0.091451 0.314643
0.031356 0.091106 0.313484
0.032751 0.090834 0.312576
0.034117 0.090507 0.311479
0.035460 0.090149 0.310279
0.036801 0.089815 0.309161
0.038122 0.089459 0.307970
0.039480 0.089212 0.307152
0.040788 0.088876 0.306032
0.042089 0.088547 0.304933
0.043376 0.088210 0.303810
0.044581 0.087735 0.302212
0.045759 0.087237 0.300533
0.047103 0.087076 0.300014
0.048332 0.086719 0.298823
0.049511 0.086295 0.297398
0.050646 0.085820 0.295799
0.051820 0.085434 0.294509
0.053019 0.085109 0.293424
0.054130 0.084662 0.291921
0.055301 0.084330 0.290814
0.056406 0.083915 0.289420
0.057252 0.083144 0.286795
0.058520 0.083007 0.286359
0.059311 0.082215 0.283661
0.060232 0.081635 0.281692
0.061297 0.081271 0.280468
0.062328 0.080877 0.279141
0.063343 0.080481 0.277801
0.064318 0.080050 0.276343
0.065244 0.079576 0.274733
0.066248 0.079215 0.273510
0.067077 0.078662 0.271624
0.067839 0.078053 0.269542
0.068583 0.077445 0.267465
0.069551 0.077109 0.266323
0.070691 0.076972 0.265861
0.071599 0.076591 0.264561
0.072421 0.076133 0.262989
0.072887 0.075322 0.260197
0.074065 0.075262 0.259994
0.075099 0.075060 0.259298
0.075836 0.074573 0.257615
0.076801 0.074321 0.256743
0.077447 0.073773 0.254846
0.078523 0.073645 0.254394
0.079556 0.073482 0.253819
0.079854 0.072655 0.250944
0.081132 0.072730 0.251184
0.081778 0.072245 0.249487
0.082098 0.071489 0.246850
0.082826 0.071106 0.245497
0.083854 0.070987 0.245051
0.084584 0.070622 0.243751
0.085353 0.070299 0.242596
0.086215 0.070061 0.241725
0.087037 0.069796 0.240760
0.087646 0.069370 0.239234
0.088564 0.069196 0.238573
0.089234 0.068835 0.237262
0.089800 0.068404 0.235704
0.090458 0.068052 0.234416
0.091164 0.067746 0.233278
0.091960 0.067512 0.232385
0.092808 0.067321 0.231635
0.093630 0.067117 0.230833
0.094371 0.066859 0.229841
0.095195 0.066666 0.229066
0.096022 0.066479 0.228306
0.096777 0.066247 0.227383
0.097447 0.065962 0.226274
0.098124 0.065688 0.225197
0.098852 0.065455 0.224250
0.099638 0.065264 0.223442
0.100295 0.064993 0.222356
0.101060 0.064797 0.221516
0.101870 0.064634 0.220783
0.102439 0.064323 0.219534
0.103053 0.064046 0.218396
0.103851 0.063888 0.217653
0.104543 0.063668 0.216693
0.105025 0.063327 0.215309
0.105462 0.062964 0.213847
0.105998 0.062668 0.212602
0.106785 0.062524 0.211861
0.107433 0.062302 0.210848
0.108084 0.062086 0.209846
0.108979 0.062013 0.209315
0.109724 0.061856 0.208491
0.110515 0.061728 0.207750
-1.010009 0.565906 1.890807
-0.993117 0.561488 1.878574
-0.979023 0.558585 1.871272
-0.970553 0.558868 1.874526
-0.962401 0.559341 1.878322
-0.954073 0.559720 1.881705
-0.945853 0.560171 1.885239
-0.937391 0.560486 1.888227
-0.929586 0.561204 1.892490
-0.932178 0.568275 1.918113
-1.007673 0.620368 2.095794
-0.997343 0.620137 2.096772
-0.988247 0.620675 2.100269
-0.979378 0.621370 2.104214
-0.844776 0.541487 1.835015
-0.830127 0.537629 1.823185
-0.821477 0.537618 1.824322
-0.816768 0.540213 1.834244
-0.804772 0.537992 1.827755
-0.795207 0.537366 1.826619
-0.900129 0.666104 2.271641
-0.878702 0.658071 2.244893
-0.869160 0.658852 2.248153
-0.859366 0.659458 2.250767
-0.843537 0.655392 2.237380
-0.829571 0.652689 2.228592
-0.814826 0.649296 2.217399
-0.681771 0.557549 1.904638
-0.660932 0.547704 1.871229
-0.650204 0.546086 1.865889
-0.642646 0.547123 1.869587
-0.635570 0.548605 1.874776
-0.625672 0.547659 1.871636
-0.614483 0.545541 1.864459
-0.271257 0.300962 1.027699
-0.266256 0.300780 1.026939
-0.257601 0.296387 1.011796
-0.255491 0.299501 1.022273
-0.249005 0.297507 1.015308
-0.241923 0.294708 1.005594
-0.235065 0.292076 0.996445
-0.227400 0.288314 0.983441
-0.219858 0.284556 0.970448
-0.212123 0.280381 0.956038
-0.205064 0.276939 0.944124
-0.197967 0.273291 0.931511
-0.191915 0.270954 0.923370
-0.186746 0.269784 0.919202
-0.180451 0.266893 0.909171
-0.174213 0.263947 0.898957
-0.167054 0.259424 0.883375
-0.160807 0.256122 0.871955
-0.155215 0.253718 0.863596
-0.150476 0.252617 0.859671
-0.144660 0.249596 0.849216
-0.140770 0.249819 0.849804
-0.120805 0.220691 0.750566
-0.116337 0.218966 0.744550
-0.112557 0.218468 0.742708
-0.109383 0.219155 0.744892
-0.105744 0.218923 0.743958
-0.101922 0.218284 0.741642
-0.098320 0.218088 0.740832
-0.094769 0.217996 0.740377
-0.091111 0.217640 0.739029
-0.087349 0.216998 0.736715
-0.083316 0.215600 0.731834
-0.079333 0.214218 0.727015
-0.075155 0.212159 0.719903
-0.070652 0.208945 0.708874
-0.066260 0.205752 0.697926
-0.062103 0.202994 0.688461
-0.058794 0.202854 0.687879
-0.054687 0.199784 0.677368
-0.051069 0.198227 0.671991
-0.047898 0.198316 0.672198
-0.025175 0.111682 0.378500
-0.023306 0.111344 0.377303
-0.021888 0.113287 0.383841
-0.020356 0.114940 0.389396
-0.018843 0.117044 0.396479
-0.017095 0.117991 0.399647
-0.015378 0.119417 0.404436
-0.013683 0.121444 0.411264
-0.011912 0.123369 0.417745
-0.009989 0.124166 0.420412
-0.008056 0.125217 0.423940
-0.006085 0.126175 0.427156
-0.004067 0.126636 0.428690
-0.002030 0.126886 0.429515
0.000014 0.126777 0.429127
0.002056 0.126665 0.428732
0.004078 0.126081 0.426741
0.006077 0.125412 0.424464
0.008069 0.124956 0.422915
0.010078 0.124897 0.422710
0.012085 0.124827 0.422470
0.014116 0.125000 0.423058
0.016192 0.125476 0.424671
0.018225 0.125541 0.424900
0.020329 0.126042 0.426601
0.022437 0.126470 0.428064
0.024443 0.126300 0.427503
0.026472 0.126263 0.427394
0.022666 0.093697 0.317190
0.024154 0.093611 0.316918
0.025605 0.093397 0.316212
0.027113 0.093403 0.316253
0.028556 0.093195 0.315574
0.029973 0.092930 0.314700
0.031417 0.092767 0.314175
0.032749 0.092305 0.312634
0.034269 0.092390 0.312952
0.035516 0.091760 0.310846
0.036821 0.091326 0.309409
0.038202 0.091106 0.308694
0.039603 0.090947 0.308187
0.040863 0.090488 0.306664
0.042126 0.090067 0.305274
0.043425 0.089748 0.304227
0.044679 0.089360 0.302946
0.045847 0.088829 0.301180
0.047094 0.088479 0.300030
0.048346 0.088159 0.298978
0.049538 0.087750 0.297628
0.050727 0.087358 0.296335
0.051826 0.086837 0.294604
0.053017 0.086494 0.293473
0.054172 0.086109 0.292205
0.055398 0.085855 0.291376
0.056606 0.085587 0.290500
0.057613 0.085032 0.288652
0.058383 0.084165 0.285739
0.059191 0.083387 0.283132
0.060219 0.082950 0.281676
0.061344 0.082661 0.280723
0.062455 0.082366 0.279750
0.063358 0.081814 0.277903
0.064397 0.081456 0.276713
0.065288 0.080930 0.274950
0.066267 0.080531 0.273616
0.067155 0.080039 0.271966
0.068030 0.079550 0.270323
0.068868 0.079037 0.268598
0.069381 0.078177 0.265689
0.070391 0.077896 0.264747
0.071515 0.077751 0.264262
0.072393 0.077346 0.262894
0.073176 0.076856 0.261234
0.074305 0.076739 0.260840
0.075184 0.076373 0.259594
0.075981 0.075936 0.258106
0.076798 0.075532 0.256726
0.077666 0.075190 0.255557
0.078334 0.074668 0.253769
0.079135 0.074287 0.252460
0.080016 0.073991 0.251435
0.080799 0.073615 0.250134
0.081885 0.073521 0.249789
0.082526 0.073036 0.248111
0.083150 0.072551 0.246428
0.083817 0.072115 0.244910
0.084705 0.071878 0.244064
0.085681 0.071723 0.243489
0.086541 0.071475 0.242597
0.087439 0.071264 0.241827
0.088107 0.070875 0.240444
0.088916 0.070606 0.239469
0.089979 0.070544 0.239187
0.090241 0.069863 0.236803
0.090539 0.069226 0.234564
0.091451 0.069069 0.233946
0.092206 0.068798 0.232937
0.092984 0.068551 0.232002
0.093876 0.068393 0.231363
0.094518 0.068058 0.230122
0.095219 0.067772 0.229040
0.096089 0.067612 0.228377
0.096733 0.067299 0.227189
0.097393 0.067003 0.226056
0.098177 0.066799 0.225222
0.098849 0.066523 0.224143
0.099612 0.066313 0.223278
0.100365 0.066101 0.222401
0.101090 0.065876 0.221470
0.101794 0.065642 0.220501
0.102414 0.065358 0.219359
0.103063 0.065099 0.218291
0.103817 0.064911 0.217452
0.104447 0.064650 0.216361
0.105040 0.064371 0.215201
0.105512 0.064024 0.213806
0.106003 0.063695 0.212463
0.106723 0.063509 0.211587
0.107485 0.063351 0.210794
0.108119 0.063121 0.209751
0.108824 0.062937 0.208849
0.109689 0.062847 0.208250
0.110524 0.062742 0.207587
-1.011968 0.576159 1.892986
-0.993711 0.570894 1.878272
-0.979843 0.568079 1.871470
-0.969714 0.567400 1.871585
-0.961522 0.567853 1.875329
-0.953823 0.568608 1.879978
-0.945480 0.568990 1.883305
-0.936512 0.569001 1.885310
-0.928706 0.569725 1.889591
-0.926901 0.574181 1.906181
-1.005515 0.629034 2.090174
-0.995158 0.628769 2.091091
-0.988069 0.630583 2.098845
-0.979186 0.631278 2.102795
-0.840445 0.547408 1.824770
-0.830981 0.546872 1.824259
-0.819028 0.544669 1.818119
-0.814238 0.547234 1.827828
-0.806099 0.547579 1.830068
-0.794548 0.545590 1.824441
-0.899283 0.676224 2.268985
-0.889161 0.676656 2.271127
-0.871920 0.671616 2.254842
-0.862627 0.672650 2.258893
-0.850307 0.671320 2.254955
