ply
format ascii 1.0
element vertex 1681
property float x
property float y
property float z
end_header
0.104208 -0.029826 0.215992
0.104536 -0.029626 0.214422
0.104751 -0.029398 0.212641
0.105185 -0.029236 0.211325
0.105720 -0.029104 0.210226
0.106225 -0.028967 0.209078
0.106823 -0.028857 0.208120
0.107342 -0.028728 0.207018
0.107907 -0.028614 0.206011
-1.548571 -0.397897 2.999585
-1.576782 -0.408879 3.084491
-1.571250 -0.411235 3.104259
-1.563841 -0.413139 3.120513
-1.565855 -0.417593 3.155931
-1.563476 -0.420950 3.182969
-1.552800 -0.422117 3.193344
-1.542278 -0.423349 3.204110
-1.532481 -0.424807 3.216481
-1.520060 -0.425560 3.223408
-1.508442 -0.426556 3.232074
-1.496061 -0.427354 3.239146
-1.484712 -0.428467 3.248505
-1.472466 -0.429342 3.255965
-1.458056 -0.429598 3.258639
-1.445338 -0.430364 3.265088
-1.430975 -0.430652 3.267820
-1.415720 -0.430675 3.268456
-1.401687 -0.431074 3.271866
-1.386952 -0.431265 3.273606
-1.375265 -0.432419 3.282578
-1.365889 -0.434334 3.297253
-1.355307 -0.435905 3.309243
-1.345478 -0.437759 3.323298
-1.334195 -0.439177 3.333981
-1.322466 -0.440482 3.343725
-1.311732 -0.442153 3.356184
-1.299744 -0.443438 3.365642
-1.285584 -0.444004 3.369581
-1.273774 -0.445407 3.379804
-1.259889 -0.446111 3.384660
-1.243408 -0.445902 3.382533
-1.229608 -0.446662 3.387700
-1.217847 -0.448193 3.398655
-1.203850 -0.448931 3.403541
-1.175772 -0.450437 3.413383
-1.161617 -0.451177 3.418128
-1.146472 -0.451548 3.420034
-1.134254 -0.453100 3.430830
-1.118801 -0.453385 3.431997
-1.095516 -0.450460 3.408822
-1.080653 -0.450962 3.411552
-1.055169 -0.446980 3.380337
-1.020298 -0.438840 3.317665
-0.300417 -0.137662 1.039252
-0.295164 -0.137503 1.037662
-0.287749 -0.136314 1.028299
-0.283048 -0.136393 1.028493
-0.275476 -0.135068 1.018093
-0.267558 -0.133522 1.006037
-0.259701 -0.131951 0.993799
-0.251534 -0.130162 0.979921
-0.243814 -0.128542 0.967322
-0.235495 -0.126537 0.951840
-0.227020 -0.124369 0.935138
-0.219499 -0.122648 0.921804
-0.213352 -0.121640 0.913837
-0.207125 -0.120544 0.905216
-0.199665 -0.118668 0.890749
-0.193643 -0.117585 0.882238
-0.186910 -0.116013 0.870066
-0.182089 -0.115582 0.866468
-0.173498 -0.112684 0.844374
-0.167983 -0.111693 0.836594
-0.045852 -0.035555 0.265641
-0.044170 -0.035226 0.263080
-0.042802 -0.035137 0.262305
-0.041783 -0.035337 0.263696
-0.040454 -0.035280 0.263163
-0.038546 -0.034697 0.258720
-0.037865 -0.035217 0.262497
-0.032849 -0.031602 0.235465
-0.031604 -0.031488 0.234526
-0.030405 -0.031412 0.233875
-0.029073 -0.031188 0.232127
-0.027215 -0.030358 0.225875
-0.025636 -0.029785 0.221540
-0.024503 -0.029702 0.220849
-0.023666 -0.029987 0.222898
-0.022708 -0.030139 0.223959
-0.021868 -0.030470 0.226353
-0.020848 -0.030573 0.227047
-0.019856 -0.030731 0.228160
-0.018816 -0.030827 0.228811
-0.017778 -0.030940 0.229591
-0.016835 -0.031244 0.231794
-0.015825 -0.031457 0.233322
-0.014779 -0.031627 0.234531
-0.013694 -0.031735 0.235281
-0.012599 -0.031836 0.235984
-0.011500 -0.031948 0.236771
-0.010409 -0.032109 0.237927
-0.009278 -0.032171 0.238347
-0.008179 -0.032378 0.239848
-0.007032 -0.032428 0.240187
-0.005882 -0.032487 0.240592
-0.004734 -0.032592 0.241345
-0.003579 -0.032696 0.242097
-0.002414 -0.032759 0.242542
-0.001244 -0.032829 0.243042
-0.000069 -0.032892 0.243499
0.001110 -0.032937 0.243825
0.002294 -0.033011 0.244363
0.003490 -0.033141 0.245321
0.004691 -0.033250 0.246128
0.005904 -0.033374 0.247054
0.007118 -0.033464 0.247729
0.008333 -0.033530 0.248228
0.009559 -0.033620 0.248905
0.010787 -0.033698 0.249497
0.012050 -0.033856 0.250686
0.013297 -0.033944 0.251362
0.014552 -0.034036 0.252070
0.015798 -0.034095 0.252538
0.017011 -0.034077 0.252437
0.018244 -0.034100 0.252646
0.019485 -0.034136 0.252952
0.020748 -0.034202 0.253479
0.022004 -0.034250 0.253884
0.023311 -0.034368 0.254804
0.024635 -0.034498 0.255823
0.025907 -0.034546 0.256227
0.027229 -0.034654 0.257086
0.028564 -0.034767 0.257983
0.029981 -0.034968 0.259535
0.031286 -0.035025 0.260030
0.032571 -0.035058 0.260336
0.033970 -0.035206 0.261508
0.035336 -0.035310 0.262353
0.036747 -0.035451 0.263473
0.038103 -0.035530 0.264139
0.039320 -0.035480 0.263840
0.040803 -0.035665 0.265298
0.042127 -0.035704 0.265670
0.043510 -0.035789 0.266387
0.045041 -0.035987 0.267950
0.046455 -0.036084 0.268754
0.047841 -0.036153 0.269362
0.049532 -0.036444 0.271619
0.050915 -0.036499 0.272120
0.052327 -0.036572 0.272758
0.053705 -0.036617 0.273189
0.055132 -0.036693 0.273853
0.056776 -0.036907 0.275541
0.058022 -0.036858 0.275275
0.059468 -0.036935 0.275947
0.060903 -0.037003 0.276547
0.062320 -0.037057 0.277047
0.063649 -0.037057 0.277147
0.065112 -0.037134 0.277818
0.066391 -0.037104 0.277693
0.067704 -0.037095 0.277718
0.069101 -0.037130 0.278082
0.070366 -0.037095 0.277914
0.071590 -0.037041 0.277596
0.072588 -0.036873 0.276431
0.071580 -0.035710 0.267803
0.072566 -0.035566 0.266807
0.073765 -0.035529 0.266614
0.074720 -0.035378 0.265565
0.075544 -0.035171 0.264088
0.076299 -0.034939 0.262426
0.077167 -0.034766 0.261199
0.078295 -0.034713 0.260875
0.079181 -0.034556 0.259769
0.080011 -0.034380 0.258514
0.080847 -0.034213 0.257316
0.081625 -0.034025 0.255969
0.082469 -0.033870 0.254863
0.083077 -0.033625 0.253072
0.083583 -0.033346 0.251022
0.084131 -0.033091 0.249149
0.084580 -0.032805 0.247040
0.085047 -0.032533 0.245034
0.085606 -0.032304 0.243344
0.086355 -0.032151 0.242226
0.087108 -0.032004 0.241145
0.087809 -0.031842 0.239950
0.088653 -0.031735 0.239165
0.089549 -0.031649 0.238535
0.090299 -0.031515 0.237531
0.091170 -0.031426 0.236865
0.092068 -0.031347 0.236277
0.092634 -0.031159 0.234857
0.093643 -0.031123 0.234576
0.094438 -0.031017 0.233767
0.095282 -0.030930 0.233092
0.096175 -0.030861 0.232543
0.096957 -0.030757 0.231735
0.097759 -0.030663 0.230988
0.098089 -0.030424 0.229147
0.098539 -0.030227 0.227617
0.099233 -0.030109 0.226671
0.100097 -0.030044 0.226123
0.100619 -0.029879 0.224814
0.101229 -0.029743 0.223719
0.101654 -0.029556 0.222236
0.102369 -0.029456 0.221401
0.102991 -0.029333 0.220378
0.103671 -0.029227 0.219487
0.104183 -0.029078 0.218254
0.104519 -0.028882 0.216673
0.104573 -0.028613 0.214533
0.104794 -0.028395 0.212766
0.105142 -0.028215 0.211278
0.105546 -0.028053 0.209921
0.106171 -0.027952 0.209014
0.106783 -0.027850 0.208089
0.107195 -0.027699 0.206782
0.107918 -0.027629 0.206082
-1.579615 -0.391350 3.060262
-1.567325 -0.391883 3.066507
-1.588445 -0.400858 3.138730
-1.576482 -0.401575 3.146209
-1.573219 -0.404543 3.171220
-1.566618 -0.406701 3.189787
-1.554943 -0.407572 3.198149
-1.545295 -0.408997 3.210748
-1.530759 -0.409144 3.213210
-1.521185 -0.410633 3.226113
-1.507632 -0.411069 3.230632
-1.497586 -0.412479 3.242715
-1.484527 -0.413081 3.248344
-1.471899 -0.413816 3.254930
-1.457394 -0.414034 3.257354
-1.442448 -0.414131 3.258731
-1.431812 -0.415481 3.269878
-1.410980 -0.413869 3.257633
-1.397366 -0.414364 3.261877
-1.385853 -0.415499 3.271086
-1.374201 -0.416618 3.280089
-1.363855 -0.418164 3.292370
-1.356902 -0.420797 3.313142
-1.348159 -0.422930 3.329902
-1.333834 -0.423342 3.333038
-1.322885 -0.424849 3.344717
-1.310942 -0.426069 3.354074
-1.300872 -0.427935 3.368449
-1.287742 -0.428828 3.375099
-1.273376 -0.429328 3.378588
-1.262216 -0.430935 3.390729
-1.246126 -0.430879 3.389723
-1.231565 -0.431357 3.392863
-1.216826 -0.431785 3.395553
-1.202727 -0.432455 3.400094
-1.188701 -0.433170 3.404933
-1.172216 -0.432997 3.402741
-1.159410 -0.434197 3.411293
-1.140867 -0.433253 3.402952
-1.131446 -0.435796 3.421952
-1.119531 -0.437438 3.433828
-0.306479 -0.133232 1.043381
-0.302029 -0.133444 1.044651
-0.293987 -0.132050 1.033344
-0.287724 -0.131422 1.028026
-0.282838 -0.131412 1.027539
-0.275358 -0.130175 1.017458
-0.268217 -0.129057 1.008314
-0.260830 -0.127779 0.997916
-0.252679 -0.126072 0.984177
-0.244297 -0.124183 0.969026
-0.236467 -0.122509 0.955556
-0.228037 -0.120452 0.939111
-0.221271 -0.119210 0.929025
-0.214088 -0.117688 0.916769
-0.206920 -0.116111 0.904094
-0.199026 -0.114052 0.887674
-0.191703 -0.112237 0.873173
-0.185510 -0.111019 0.863318
-0.179107 -0.109617 0.852049
-0.174358 -0.109186 0.848328
-0.167634 -0.107468 0.834623
-0.045563 -0.034065 0.263884
-0.044377 -0.034124 0.264230
-0.042770 -0.033853 0.262025
-0.041736 -0.034032 0.263310
-0.037515 -0.031544 0.243960
-0.036052 -0.031289 0.241898
-0.034050 -0.030534 0.235964
-0.032786 -0.030411 0.234932
-0.031543 -0.030300 0.233987
-0.030327 -0.030208 0.233189
-0.028629 -0.029610 0.228496
-0.026927 -0.028961 0.223407
-0.025586 -0.028662 0.221026
-0.024632 -0.028789 0.221930
-0.023700 -0.028955 0.223140
-0.022907 -0.029314 0.225836
-0.021812 -0.029303 0.225688
-0.020921 -0.029580 0.227753
-0.019889 -0.029677 0.228440
-0.018860 -0.029790 0.229248
-0.017859 -0.029966 0.230541
-0.016901 -0.030241 0.232598
-0.015820 -0.030318 0.233141
-0.014758 -0.030448 0.234090
-0.013700 -0.030608 0.235268
-0.012609 -0.030717 0.236061
-0.011497 -0.030793 0.236602
-0.010381 -0.030871 0.237159
-0.009278 -0.031015 0.238224
-0.008163 -0.031151 0.239235
-0.007021 -0.031213 0.239679
-0.005879 -0.031302 0.240336
-0.004728 -0.031376 0.240881
-0.003578 -0.031501 0.241816
-0.002414 -0.031576 0.242371
-0.001246 -0.031661 0.243007
-0.000070 -0.031748 0.243665
0.001111 -0.031815 0.244167
0.002296 -0.031876 0.244629
0.003486 -0.031932 0.245061
0.004684 -0.032021 0.245744
0.005900 -0.032167 0.246865
0.007119 -0.032276 0.247713
0.008336 -0.032347 0.248269
0.009561 -0.032429 0.248907
0.010800 -0.032533 0.249723
0.012045 -0.032634 0.250521
0.013326 -0.032804 0.251852
0.014562 -0.032842 0.252170
0.015789 -0.032857 0.252314
0.017035 -0.032908 0.252737
0.018259 -0.032910 0.252790
0.019487 -0.032918 0.252895
0.020779 -0.033028 0.253784
0.022040 -0.033080 0.254226
0.023299 -0.033123 0.254604
0.024572 -0.033180 0.255095
0.025876 -0.033271 0.255850
0.027197 -0.033376 0.256711
0.028578 -0.033541 0.258039
0.029823 -0.033540 0.258093
0.031171 -0.033649 0.259002
0.032476 -0.033706 0.259504
0.033809 -0.033786 0.260191
0.035162 -0.033880 0.260987
0.036636 -0.034080 0.262605
0.038071 -0.034231 0.263845
0.039378 -0.034261 0.264158
0.040677 -0.034283 0.264406
0.042012 -0.034332 0.264871
0.043409 -0.034428 0.265696
0.044908 -0.034597 0.267087
0.046500 -0.034827 0.268946
0.047867 -0.034879 0.269444
0.049264 -0.034950 0.270083
0.050708 -0.035051 0.270950
0.052236 -0.035202 0.272218
0.053690 -0.035298 0.273051
0.055151 -0.035393 0.273886
0.056583 -0.035466 0.274544
0.058052 -0.035558 0.275356
0.059513 -0.035641 0.276099
0.060901 -0.035678 0.276482
0.062365 -0.035757 0.277189
0.063717 -0.035769 0.277385
0.065087 -0.035792 0.277657
0.066393 -0.035778 0.277647
0.067688 -0.035759 0.277600
0.069020 -0.035761 0.277708
0.070287 -0.035728 0.277553
0.071400 -0.035621 0.276815
0.072429 -0.035476 0.275781
0.071447 -0.034369 0.267262
0.072484 -0.034255 0.266464
0.073715 -0.034235 0.266396
0.074720 -0.034113 0.265525
0.075665 -0.033967 0.264475
0.076397 -0.033733 0.262729
0.077307 -0.033583 0.261638
0.078318 -0.033481 0.260919
0.079115 -0.033292 0.259522
0.080145 -0.033206 0.258920
0.081031 -0.033064 0.257875
0.081832 -0.032891 0.256592
0.082384 -0.032625 0.254577
0.083196 -0.032469 0.253412
0.083804 -0.032238 0.251665
0.084404 -0.032010 0.249939
0.084711 -0.031680 0.247404
0.084426 -0.031140 0.243229
0.085215 -0.031006 0.242217
0.086164 -0.030932 0.241677
0.086905 -0.030787 0.240574
0.087729 -0.030675 0.239721
0.088672 -0.030606 0.239209
0.089528 -0.030510 0.238473
0.090377 -0.030414 0.237734
0.091236 -0.030323 0.237034
0.092099 -0.030236 0.236357
0.092976 -0.030156 0.235726
0.093886 -0.030088 0.235188
0.094660 -0.029978 0.234322
0.095430 -0.029870 0.233460
0.096328 -0.029804 0.232922
0.097138 -0.029713 0.232179
0.097747 -0.029563 0.230971
0.098165 -0.029359 0.229338
0.098688 -0.029190 0.227977
0.099317 -0.029056 0.226880
0.100040 -0.028953 0.226012
0.100473 -0.028768 0.224508
0.101120 -0.028648 0.223500
0.101803 -0.028541 0.222585
0.102377 -0.028405 0.221444
0.103087 -0.028310 0.220609
0.103789 -0.028214 0.219766
0.104242 -0.028054 0.218409
0.104624 -0.027877 0.216921
0.104757 -0.027639 0.214944
0.104700 -0.027355 0.212610
0.104826 -0.027124 0.210680
0.105358 -0.027002 0.209587
0.105796 -0.026858 0.208316
0.106461 -0.026773 0.207502
0.106972 -0.026652 0.206395
0.107607 -0.026564 0.205534
-1.559281 -0.375403 3.051258
-1.581525 -0.384300 3.125527
-1.577433 -0.386905 3.148556
-1.571943 -0.389213 3.169074
-1.565554 -0.391341 3.188022
-1.552799 -0.391904 3.194113
-1.545031 -0.393750 3.210551
-1.532012 -0.394281 3.216166
-1.522871 -0.395831 3.229992
-1.509911 -0.396410 3.235794
-1.496156 -0.396790 3.239871
-1.486455 -0.398265 3.252792
-1.468862 -0.397634 3.248420
-1.454444 -0.397859 3.250943
-1.443092 -0.398937 3.260341
-1.432461 -0.400240 3.271495
-0.572959 -0.161822 1.322876
-1.398020 -0.399169 3.263491
-1.386512 -0.400265 3.272706
-1.374865 -0.401346 3.281715
-1.354686 -0.399933 3.270253
-1.348605 -0.402698 3.292878
-1.345954 -0.406564 3.324430
-1.335069 -0.408004 3.336073
-1.320722 -0.408408 3.339177
-1.311815 -0.410524 3.356215
-1.301820 -0.412348 3.370787
-1.289501 -0.413472 3.379573
-1.274894 -0.413882 3.382456
-1.264251 -0.415605 3.396011
-1.250090 -0.416201 3.400299
-1.233441 -0.415974 3.397804
-1.219033 -0.416508 3.401466
-1.204530 -0.417023 3.404918
-1.190491 -0.417715 3.409768
-1.173670 -0.417437 3.406648
-1.157572 -0.417413 3.405551
-1.147122 -0.419453 3.421252
-1.130540 -0.419278 3.418832
-1.108895 -0.417193 3.400808
-0.321738 -0.128473 1.045886
-0.317316 -0.128681 1.047211
-0.310205 -0.127789 1.039571
-0.304937 -0.127639 1.037965
-0.301073 -0.128082 1.041172
-0.295710 -0.127892 1.039223
-0.289675 -0.127399 1.034813
-0.283534 -0.126842 1.029877
-0.276160 -0.125705 1.020231
-0.269281 -0.124757 1.012117
-0.261540 -0.123368 1.000431
-0.253824 -0.121940 0.988432
-0.245930 -0.120370 0.975297
-0.237750 -0.118599 0.960530
-0.229223 -0.116582 0.943786
-0.221835 -0.115075 0.931181
-0.214399 -0.113481 0.917886
-0.207209 -0.111955 0.905143
-0.199919 -0.110308 0.891441
-0.192309 -0.108410 0.875716
-0.185396 -0.106829 0.862566
-0.180011 -0.106078 0.856125
-0.173173 -0.104415 0.842335
-0.168359 -0.103924 0.838003
-0.046135 -0.032316 0.260025
-0.044946 -0.032355 0.260228
-0.043416 -0.032144 0.258426
-0.042808 -0.032624 0.262175
-0.038811 -0.030472 0.244780
-0.037406 -0.030283 0.243171
-0.035998 -0.030082 0.241457
-0.034364 -0.029671 0.238064
-0.032743 -0.029243 0.234541
-0.031489 -0.029125 0.233509
-0.030391 -0.029147 0.233603
-0.028655 -0.028536 0.228622
-0.026960 -0.027919 0.223600
-0.025837 -0.027866 0.223106
-0.024793 -0.027900 0.223299
-0.023753 -0.027940 0.223552
-0.022771 -0.028056 0.224409
-0.021969 -0.028416 0.227222
-0.020936 -0.028500 0.227827
-0.019901 -0.028590 0.228481
-0.018885 -0.028720 0.229458
-0.017930 -0.028966 0.231364
-0.016942 -0.029186 0.233061
-0.015828 -0.029205 0.233161
-0.014732 -0.029264 0.233581
-0.013669 -0.029402 0.234634
-0.012593 -0.029537 0.235661
-0.011465 -0.029564 0.235832
-0.010349 -0.029629 0.236313
-0.009247 -0.029758 0.237298
-0.008152 -0.029949 0.238787
-0.007011 -0.030004 0.239199
-0.005867 -0.030071 0.239705
-0.004724 -0.030176 0.240512
-0.003576 -0.030300 0.241481
-0.002415 -0.030400 0.242253
-0.001248 -0.030517 0.243172
-0.000072 -0.030539 0.243337
0.001108 -0.030615 0.243931
0.002295 -0.030691 0.244533
0.003492 -0.030814 0.245507
0.004690 -0.030879 0.246027
0.005899 -0.030974 0.246790
0.007121 -0.031093 0.247742
0.008347 -0.031194 0.248558
0.009581 -0.031296 0.249385
0.010805 -0.031345 0.249797
0.012083 -0.031526 0.251254
0.013302 -0.031531 0.251322
0.014561 -0.031626 0.252103
0.015793 -0.031649 0.252323
0.017011 -0.031643 0.252311
0.018260 -0.031692 0.252734
0.019490 -0.031704 0.252869
0.020726 -0.031723 0.253069
0.021986 -0.031775 0.253529
0.023246 -0.031823 0.253955
0.024542 -0.031911 0.254715
0.025833 -0.031985 0.255361
0.027161 -0.032096 0.256301
0.028529 -0.032242 0.257527
0.029888 -0.032366 0.258582
0.031167 -0.032397 0.258899
0.032454 -0.032434 0.259257
0.033770 -0.032496 0.259824
0.035162 -0.032623 0.260917
0.036622 -0.032803 0.262431
0.038044 -0.032938 0.263592
0.039322 -0.032944 0.263718
0.040632 -0.032975 0.264044
0.042099 -0.033127 0.265352
0.043495 -0.033218 0.266160
0.044848 -0.033270 0.266665
0.046274 -0.033372 0.267575
0.047632 -0.033420 0.268054
0.049045 -0.033504 0.268818
0.050672 -0.033727 0.270697
0.052230 -0.033893 0.272125
0.053592 -0.033926 0.272489
0.054986 -0.033978 0.273004
0.056584 -0.034151 0.274489
0.058070 -0.034250 0.275381
0.059511 -0.034318 0.276030
0.060922 -0.034366 0.276520
0.062282 -0.034385 0.276767
0.063672 -0.034418 0.277135
0.065077 -0.034458 0.277560
0.066415 -0.034462 0.277691
0.067755 -0.034467 0.277825
0.069102 -0.034475 0.277989
0.070467 -0.034491 0.278216
0.071705 -0.034446 0.277947
0.071078 -0.033523 0.270592
0.071709 -0.033215 0.268200
0.072545 -0.033012 0.266648
0.073748 -0.032980 0.266476
0.074822 -0.032892 0.265851
0.075770 -0.032753 0.264808
0.076553 -0.032548 0.263232
0.077373 -0.032365 0.261831
0.078321 -0.032240 0.260900
0.079362 -0.032157 0.260303
0.080223 -0.032005 0.259142
0.080878 -0.031777 0.257361
0.081623 -0.031590 0.255914
0.082437 -0.031435 0.254717
0.083144 -0.031244 0.253231
0.083561 -0.030952 0.250915
0.084299 -0.030785 0.249612
0.084719 -0.030508 0.247411
0.085633 -0.030414 0.246693
0.086368 -0.030259 0.245482
0.086258 -0.029818 0.241932
0.087111 -0.029715 0.241135
0.087783 -0.029555 0.239862
0.088765 -0.029502 0.239453
0.089566 -0.029391 0.238568
0.090363 -0.029281 0.237693
0.091268 -0.029209 0.237114
0.092112 -0.029119 0.236389
0.092973 -0.029036 0.235719
0.093776 -0.028938 0.234915
0.094603 -0.028849 0.234184
0.095414 -0.028757 0.233427
0.096157 -0.028648 0.232515
0.096936 -0.028551 0.231704
0.097600 -0.028423 0.230633
0.098322 -0.028315 0.229716
0.098993 -0.028194 0.228694
0.099503 -0.028031 0.227320
0.100002 -0.027868 0.225944
0.100645 -0.027748 0.224911
0.101223 -0.027614 0.223749
0.101647 -0.027440 0.222267
0.102341 -0.027342 0.221391
0.103013 -0.027240 0.220477
0.103539 -0.027102 0.219264
0.104275 -0.027022 0.218506
0.104720 -0.026868 0.217150
0.104880 -0.026645 0.215228
0.104812 -0.026368 0.212872
0.105162 -0.026202 0.211391
0.105294 -0.025984 0.209496
0.105687 -0.025835 0.208142
0.106208 -0.025719 0.207051
0.106882 -0.025642 0.206265
0.107396 -0.025529 0.205176
-1.573799 -0.364296 3.080134
-1.589433 -0.371336 3.141608
-1.582636 -0.373220 3.159369
-1.571037 -0.373996 3.167649
-1.565674 -0.376287 3.188645
-1.559039 -0.378314 3.207306
-1.545818 -0.378766 3.212518
-1.534522 -0.379705 3.221744
-1.520468 -0.379973 3.225180
-1.511046 -0.381417 3.238487
-1.496913 -0.381689 3.241749
-1.484371 -0.382376 3.248445
-1.469299 -0.382420 3.249578
-1.456335 -0.383020 3.255338
-0.587833 -0.156240 1.328137
-0.574123 -0.154230 1.311248
-0.560765 -0.152273 1.294763
-0.556673 -0.152817 1.299510
-0.544692 -0.151183 1.285706
-1.358164 -0.385503 3.278663
-1.344980 -0.386133 3.284019
-1.339932 -0.389141 3.309524
-1.333514 -0.391817 3.332136
-1.323098 -0.393369 3.345112
-1.309515 -0.394005 3.350235
-1.300802 -0.396140 3.368033
-1.288858 -0.397332 3.377748
-1.275237 -0.398031 3.383204
-1.261302 -0.398648 3.387907
-1.247520 -0.399331 3.393107
-1.231636 -0.399350 3.392607
-1.218436 -0.400252 3.399553
-1.206427 -0.401575 3.410016
-1.174352 -0.401574 3.408320
-1.159509 -0.401989 3.410920
-1.141733 -0.401384 3.404830
-1.130560 -0.403117 3.418522
-1.114816 -0.403247 3.418574
-0.324564 -0.122721 1.039352
-0.317566 -0.121917 1.032182
-0.315428 -0.122983 1.040830
-0.309959 -0.122763 1.038591
-0.304803 -0.122663 1.037351
-0.300245 -0.122804 1.038141
-0.295583 -0.122906 1.038600
-0.290182 -0.122700 1.036444
-0.283850 -0.122087 1.030844
-0.277176 -0.121302 1.023794
-0.270315 -0.120406 1.015810
-0.262591 -0.119086 1.004255
-0.254955 -0.117759 0.992635
-0.246255 -0.115881 0.976388
-0.237678 -0.113990 0.960037
-0.228874 -0.111914 0.942141
-0.222109 -0.110772 0.932122
-0.214757 -0.109286 0.919207
-0.207261 -0.107663 0.905157
-0.199469 -0.105814 0.889220
-0.191151 -0.103601 0.870231
-0.185441 -0.102733 0.862561
-0.180634 -0.102338 0.858865
-0.174151 -0.100954 0.846873
-0.167715 -0.099532 0.834573
-0.046505 -0.030496 0.255261
-0.045340 -0.030533 0.255466
-0.043329 -0.029987 0.250791
-0.041709 -0.029689 0.248194
-0.040034 -0.029333 0.245113
-0.038664 -0.029185 0.243777
-0.037298 -0.029031 0.242398
-0.035860 -0.028810 0.240452
-0.034206 -0.028395 0.236894
-0.032735 -0.028108 0.234411
-0.031397 -0.027919 0.232748
-0.029845 -0.027519 0.229329
-0.028847 -0.027619 0.230077
-0.026630 -0.026512 0.220784
-0.025680 -0.026628 0.221674
-0.024942 -0.026984 0.224562
-0.023780 -0.026892 0.223723
-0.022766 -0.026967 0.224273
-0.021918 -0.027256 0.226612
-0.021000 -0.027484 0.228438
-0.019961 -0.027569 0.229082
-0.018929 -0.027676 0.229907
-0.017941 -0.027864 0.231406
-0.016909 -0.028004 0.232510
-0.015799 -0.028025 0.232637
-0.014748 -0.028163 0.233725
-0.013632 -0.028190 0.233898
-0.012597 -0.028403 0.235621
-0.011475 -0.028445 0.235924
-0.010359 -0.028510 0.236427
-0.009232 -0.028561 0.236811
-0.008128 -0.028704 0.237960
-0.007010 -0.028842 0.239068
-0.005872 -0.028927 0.239749
-0.004722 -0.028989 0.240239
-0.003577 -0.029130 0.241384
-0.002413 -0.029176 0.241746
-0.001247 -0.029274 0.242539
-0.000073 -0.029399 0.243562
0.001107 -0.029436 0.243860
0.002293 -0.029507 0.244438
0.003486 -0.029589 0.245114
0.004685 -0.029668 0.245770
0.005894 -0.029763 0.246562
0.007108 -0.029846 0.247258
0.008329 -0.029933 0.247988
0.009557 -0.030016 0.248696
0.010801 -0.030127 0.249633
0.012048 -0.030225 0.250465
0.013312 -0.030341 0.251453
0.014527 -0.030336 0.251439
0.015781 -0.030408 0.252067
0.017012 -0.030427 0.252260
0.018245 -0.030447 0.252461
0.019489 -0.030483 0.252798
0.020733 -0.030512 0.253085
0.021988 -0.030555 0.253486
0.023240 -0.030589 0.253815
0.024519 -0.030653 0.254401
0.025864 -0.030790 0.255596
0.027172 -0.030872 0.256329
0.028527 -0.030998 0.257440
0.029844 -0.031073 0.258129
0.031121 -0.031103 0.258444
0.032412 -0.031144 0.258853
0.033681 -0.031162 0.259072
0.035064 -0.031279 0.260122
0.036511 -0.031444 0.261572
0.037963 -0.031602 0.262961
0.039397 -0.031735 0.264152
0.040786 -0.031825 0.264982
0.042192 -0.031922 0.265876
0.043549 -0.031977 0.266421
0.044882 -0.032012 0.266800
0.046275 -0.032087 0.267515
0.047598 -0.032110 0.267800
0.048965 -0.032161 0.268317
0.050501 -0.032318 0.269721
0.052162 -0.032544 0.271708
0.053397 -0.032501 0.271440
0.054719 -0.032510 0.271620
0.056141 -0.032578 0.272284
0.058052 -0.032920 0.275240
0.059488 -0.032983 0.275867
0.060990 -0.033079 0.276772
0.062289 -0.033063 0.276741
0.063644 -0.033077 0.276961
0.065015 -0.033099 0.277241
0.066385 -0.033119 0.277513
0.067674 -0.033099 0.277445
0.069033 -0.033113 0.277662
0.070325 -0.033095 0.277609
0.071334 -0.032947 0.276464
0.071039 -0.032214 0.270403
0.071611 -0.031892 0.267794
0.072575 -0.031753 0.266718
0.073809 -0.031735 0.266658
0.074773 -0.031604 0.265640
0.075757 -0.031485 0.264728
0.076186 -0.031143 0.261936
0.077262 -0.031073 0.261424
0.078297 -0.030988 0.260788
0.079175 -0.030845 0.259661
0.080114 -0.030730 0.258764
0.081060 -0.030621 0.257914
0.081830 -0.030450 0.256537
0.082593 -0.030281 0.255179
0.083313 -0.030102 0.253727
0.083575 -0.029764 0.250936
0.083925 -0.029467 0.248486
0.084524 -0.029265 0.246827
0.084726 -0.028932 0.244064
0.085276 -0.028726 0.242366
0.086240 -0.028663 0.241869
0.087152 -0.028584 0.241237
0.087984 -0.028481 0.240401
0.088821 -0.028383 0.239598
0.089677 -0.028293 0.238860
0.090446 -0.028179 0.237908
0.091149 -0.028047 0.236804
0.092043 -0.027976 0.236212
0.092769 -0.027856 0.235204
0.093632 -0.027780 0.234557
0.094465 -0.027697 0.233847
0.095144 -0.027571 0.232771
0.095903 -0.027471 0.231907
0.096632 -0.027365 0.230986
0.097415 -0.027276 0.230207
0.098259 -0.027206 0.229580
0.098746 -0.027040 0.228137
0.099563 -0.026967 0.227473
0.100233 -0.026856 0.226481
0.100727 -0.026701 0.225112
0.101477 -0.026616 0.224329
0.101855 -0.026437 0.222741
0.102481 -0.026325 0.221716
0.103004 -0.026189 0.220482
0.103596 -0.026072 0.219409
0.104062 -0.025927 0.218087
0.104656 -0.025817 0.217046
0.104871 -0.025616 0.215241
0.105036 -0.025407 0.213358
0.104973 -0.025147 0.211044
0.105120 -0.024942 0.209185
0.105545 -0.024806 0.207898
0.106262 -0.024741 0.207195
0.106728 -0.024619 0.206007
0.107385 -0.024543 0.205196
-1.593597 -0.350860 3.088838
-1.581233 -0.351345 3.095130
-1.586838 -0.355870 3.136905
-1.578995 -0.357435 3.152505
-1.579304 -0.360894 3.184701
-1.572351 -0.362743 3.202605
-1.560752 -0.363547 3.211166
-1.548042 -0.364106 3.217455
-1.535656 -0.364753 3.224416
-1.522935 -0.365332 3.230679
-1.509668 -0.365792 3.235778
-1.497308 -0.366483 3.242827
-1.484930 -0.367185 3.249871
-1.471982 -0.367759 3.255691
-0.598543 -0.151107 1.337985
-0.588425 -0.150127 1.329528
-0.578833 -0.149261 1.322051
-0.565985 -0.147528 1.306852
-0.550365 -0.145027 1.284812
-0.545480 -0.145331 1.287587
-0.540320 -0.145568 1.289734
-1.350607 -0.372201 3.297746
-1.337337 -0.372814 3.303081
-1.334136 -0.376282 3.333636
-1.321675 -0.377189 3.341437
-1.313020 -0.379218 3.359104
-1.296833 -0.379095 3.357639
-1.287178 -0.380902 3.373204
-1.274208 -0.381762 3.380313
-1.258982 -0.381959 3.381495
-1.245884 -0.382815 3.388455
-1.232403 -0.383574 3.394498
-1.217519 -0.383912 3.396752
-1.207087 -0.385681 3.411617
-1.172354 -0.384814 3.402218
-1.160071 -0.386055 3.412252
-1.146646 -0.386945 3.419138
-1.123904 -0.384672 3.398034
-1.115472 -0.387302 3.420203
-0.324762 -0.117871 1.039852
-0.319501 -0.117740 1.038330
-0.315738 -0.118166 1.041707
-0.311444 -0.118404 1.043416
-0.305864 -0.118153 1.040805
-0.301116 -0.118220 1.040990
-0.296228 -0.118234 1.040699
-0.290530 -0.117920 1.037515
-0.284476 -0.117448 1.032937
-0.277883 -0.116733 1.026222
-0.270912 -0.115831 1.017868
-0.263722 -0.114801 1.008387
-0.256016 -0.113505 0.996574
-0.247536 -0.111811 0.981267
-0.238152 -0.109635 0.961752
-0.228909 -0.107441 0.942088
-0.221641 -0.106105 0.929958
-0.213445 -0.104261 0.913392
-0.206909 -0.103168 0.903416
-0.198337 -0.100993 0.883969
-0.191809 -0.099786 0.873015
-0.185285 -0.098528 0.861628
-0.180950 -0.098404 0.860156
-0.174928 -0.097336 0.850435
-0.171100 -0.097467 0.851199
-0.049573 -0.029647 0.258688
-0.048042 -0.029466 0.256996
-0.046351 -0.029175 0.254347
-0.044767 -0.028938 0.252169
-0.043049 -0.028598 0.249100
-0.041610 -0.028430 0.247532
-0.040122 -0.028218 0.245579
-0.038831 -0.028135 0.244757
-0.037390 -0.027934 0.242915
-0.035651 -0.027492 0.238974
-0.034114 -0.027181 0.236181
-0.032679 -0.026933 0.233929
-0.031028 -0.026483 0.229939
-0.030029 -0.026577 0.230666
-0.029240 -0.026871 0.233130
-0.027836 -0.026600 0.230701
-0.026502 -0.026378 0.228694
-0.025102 -0.026067 0.225920
-0.023904 -0.025947 0.224808
-0.022862 -0.025993 0.225138
-0.021869 -0.026103 0.226022
-0.021022 -0.026408 0.228590
-0.019992 -0.026503 0.229353
-0.019089 -0.026789 0.231761
-0.017995 -0.026825 0.232017
-0.016924 -0.026903 0.232627
-0.015856 -0.026997 0.233388
-0.014768 -0.027068 0.233944
-0.013673 -0.027138 0.234502
-0.012597 -0.027262 0.235523
-0.011479 -0.027310 0.235893
-0.010357 -0.027359 0.236277
-0.009246 -0.027454 0.237060
-0.008122 -0.027528 0.237661
-0.006999 -0.027635 0.238558
-0.005867 -0.027740 0.239437
-0.004772 -0.028116 0.242655
-0.003594 -0.028084 0.242352
-0.002420 -0.028082 0.242314
-0.001252 -0.028182 0.243165
-0.000074 -0.028221 0.243492
0.001109 -0.028331 0.244424
0.002297 -0.028386 0.244893
0.003490 -0.028443 0.245384
0.004688 -0.028502 0.245895
0.005898 -0.028591 0.246670
0.007114 -0.028678 0.247424
0.008335 -0.028756 0.248108
0.009554 -0.028809 0.248587
0.010793 -0.028903 0.249413
0.012017 -0.028941 0.249758
0.013285 -0.029068 0.250883
0.014558 -0.029185 0.251917
0.015793 -0.029213 0.252192
0.017033 -0.029245 0.252501
0.018269 -0.029267 0.252728
0.019516 -0.029303 0.253080
0.020768 -0.029341 0.253455
0.022024 -0.029380 0.253837
0.023276 -0.029410 0.254149
0.024580 -0.029499 0.254973
0.025835 -0.029524 0.255243
0.027167 -0.029630 0.256220
0.028496 -0.029724 0.257094
0.029773 -0.029758 0.257449
0.031057 -0.029796 0.257851
0.032370 -0.029858 0.258455
0.033668 -0.029901 0.258902
0.035043 -0.030008 0.259900
0.036459 -0.030142 0.261136
0.037832 -0.030231 0.261991
0.039218 -0.030325 0.262888
0.040600 -0.030410 0.263709
0.042278 -0.030705 0.266354
0.043538 -0.030688 0.266290
0.044956 -0.030780 0.267180
0.046332 -0.030839 0.267784
0.047690 -0.030883 0.268259
0.049022 -0.030908 0.268568
0.050463 -0.030999 0.269457
0.051937 -0.031105 0.270477
0.053341 -0.031165 0.271097
0.054731 -0.031214 0.271621
0.056201 -0.031306 0.272516
0.057961 -0.031551 0.274754
0.059523 -0.031680 0.275974
0.060971 -0.031743 0.276632
0.062337 -0.031763 0.276903
0.063675 -0.031767 0.277042
0.065071 -0.031800 0.277430
0.066483 -0.031839 0.277873
0.067827 -0.031844 0.278022
0.069190 -0.031859 0.278248
0.070512 -0.031853 0.278302
0.071731 -0.031803 0.277961
0.072220 -0.031436 0.274855
0.072187 -0.030860 0.269907
0.072468 -0.030436 0.266288
0.073364 -0.030280 0.265012
0.074514 -0.030232 0.264686
0.075687 -0.030195 0.264447
0.076589 -0.030053 0.263288
0.077449 -0.029900 0.262025
0.078362 -0.029771 0.260975
0.079288 -0.029651 0.260003
0.080195 -0.029529 0.258999
0.080996 -0.029371 0.257686
0.082031 -0.029301 0.257143
0.082533 -0.029047 0.254972
0.083431 -0.028936 0.254063
0.083034 -0.028386 0.249295
0.083977 -0.028304 0.248622
0.084456 -0.028069 0.246611
0.084710 -0.027767 0.244004
0.085322 -0.027589 0.242484
0.086313 -0.027537 0.242063
0.087162 -0.027441 0.241255
0.087967 -0.027335 0.240347
0.088841 -0.027252 0.239643
0.089716 -0.027171 0.238957
0.090552 -0.027081 0.238183
0.091304 -0.026968 0.237203
0.091889 -0.026810 0.235814
0.092757 -0.026736 0.235173
0.093608 -0.026660 0.234498
0.094438 -0.026579 0.233782
0.095159 -0.026470 0.232811
0.095817 -0.026347 0.231705
0.096511 -0.026235 0.230703
0.097406 -0.026181 0.230195
0.097999 -0.026047 0.228983
0.098733 -0.025953 0.228119
0.099481 -0.025865 0.227299
0.100145 -0.025758 0.226299
0.100787 -0.025646 0.225262
0.101286 -0.025502 0.223925
0.101840 -0.025374 0.222728
0.102257 -0.025215 0.221252
0.102814 -0.025093 0.220097
0.103473 -0.024998 0.219173
0.104074 -0.024892 0.218139
0.104466 -0.024738 0.216681
0.104800 -0.024573 0.215123
0.105115 -0.024407 0.213550
0.105260 -0.024206 0.211654
0.105504 -0.024030 0.209982
0.105681 -0.023843 0.208201
0.106225 -0.023742 0.207158
0.106915 -0.023674 0.206407
0.107185 -0.023516 0.204855
-1.572577 -0.331775 3.048536
-1.567092 -0.333664 3.067869
-1.579788 -0.339495 3.123371
-1.582950 -0.343368 3.160786
-1.573857 -0.344631 3.174078
-1.568543 -0.346754 3.195189
-1.558344 -0.347828 3.206531
-1.546523 -0.348558 3.214593
-1.532038 -0.348697 3.217093
-1.522086 -0.349881 3.229131
-1.508670 -0.350284 3.233870
-1.495716 -0.350805 3.239589
-1.485433 -0.351970 3.251160
-1.472491 -0.352522 3.256982
-0.599864 -0.145116 1.340997
-0.591421 -0.144589 1.336349
-0.581541 -0.143696 1.328277
-0.568431 -0.141978 1.312535
-0.552924 -0.139616 1.290810
-0.539440 -0.137719 1.273345
-0.523582 -0.135167 1.249790
-0.518570 -0.135388 1.251853
-0.501531 -0.132439 1.224571
-1.349194 -0.360409 3.332328
-1.335773 -0.361007 3.337666
-1.326586 -0.362777 3.353773
-1.308842 -0.362221 3.348315
-1.299288 -0.363947 3.363877
-1.287603 -0.365111 3.374181
-1.273423 -0.365589 3.378074
-1.261600 -0.366764 3.388349
-1.249905 -0.368007 3.399191
-1.238180 -0.369273 3.410191
-1.222130 -0.369267 3.409378
-1.205315 -0.369026 3.406351
-1.192032 -0.369876 3.413334
-1.177947 -0.370496 3.418154
-1.161793 -0.370475 3.417000
-1.142051 -0.369293 3.405103
-1.129556 -0.370454 3.414771
-1.114460 -0.370784 3.416729
-1.079959 -0.364574 3.358396
-1.065889 -0.365178 3.362822
-0.325228 -0.113108 1.041214
-0.318603 -0.112504 1.035278
-0.315863 -0.113273 1.041977
-0.311376 -0.113432 1.043040
-0.305361 -0.113030 1.038939
-0.300505 -0.113050 1.038721
-0.295724 -0.113101 1.038766
-0.290452 -0.112962 1.037065
-0.284642 -0.112605 1.033364
-0.278085 -0.111936 1.026791
-0.271307 -0.111153 1.019169
-0.264381 -0.110279 1.010724
-0.256569 -0.108997 0.998538
-0.248494 -0.107553 0.984876
-0.239215 -0.105522 0.965853
-0.234980 -0.105681 0.966875
-0.221795 -0.101741 0.930409
-0.214445 -0.100371 0.917473
-0.206854 -0.098830 0.902978
-0.199770 -0.097471 0.890154
-0.190763 -0.095094 0.868056
-0.184016 -0.093764 0.855525
-0.179477 -0.093524 0.852952
-0.173899 -0.092719 0.845226
-0.049345 -0.028277 0.257429
-0.047867 -0.028132 0.255993
-0.046323 -0.027939 0.254125
-0.044903 -0.027813 0.252867
-0.043073 -0.027418 0.249170
-0.041611 -0.027242 0.247469
-0.040412 -0.027233 0.247282
-0.038797 -0.026935 0.244469
-0.036525 -0.026148 0.237230
-0.035286 -0.026073 0.236454
-0.034261 -0.026157 0.237124
-0.033139 -0.026170 0.237149
-0.031999 -0.026169 0.237054
-0.030885 -0.026191 0.237164
-0.029640 -0.026100 0.236246
-0.028407 -0.026011 0.235359
-0.027217 -0.025956 0.234782
-0.025145 -0.025019 0.226232
-0.024004 -0.024966 0.225673
-0.022920 -0.024970 0.225637
-0.022030 -0.025195 0.227606
-0.020952 -0.025219 0.227751
-0.019981 -0.025381 0.229144
-0.018982 -0.025524 0.230377
-0.018086 -0.025833 0.233099
-0.016960 -0.025832 0.233032
-0.015897 -0.025934 0.233903
-0.014779 -0.025955 0.234032
-0.013706 -0.026064 0.234970
-0.012606 -0.026140 0.235601
-0.011488 -0.026187 0.235986
-0.010370 -0.026245 0.236465
-0.009248 -0.026307 0.236988
-0.008128 -0.026393 0.237728
-0.007001 -0.026484 0.238509
-0.005870 -0.026587 0.239407
-0.004725 -0.026666 0.240095
-0.003597 -0.026927 0.242426
-0.002420 -0.026888 0.242052
-0.001251 -0.026965 0.242731
-0.000076 -0.027088 0.243823
0.001107 -0.027142 0.244304
0.002297 -0.027209 0.244898
0.003492 -0.027277 0.245504
0.004697 -0.027367 0.246322
0.005906 -0.027439 0.246975
0.007117 -0.027499 0.247515
0.008328 -0.027536 0.247867
0.009552 -0.027603 0.248484
0.010768 -0.027634 0.248779
0.012004 -0.027704 0.249431
0.013272 -0.027830 0.250587
0.014542 -0.027937 0.251581
0.015791 -0.027991 0.252102
0.017000 -0.027972 0.251962
0.018250 -0.028017 0.252410
0.019494 -0.028049 0.252736
0.020746 -0.028087 0.253121
0.021984 -0.028103 0.253315
0.023234 -0.028132 0.253628
0.024533 -0.028214 0.254416
0.025863 -0.028322 0.255452
0.027157 -0.028383 0.256064
0.028429 -0.028417 0.256428
0.029746 -0.028490 0.257154
0.031081 -0.028574 0.257982
0.032399 -0.028637 0.258624
0.033716 -0.028694 0.259208
0.035036 -0.028750 0.259785
0.036490 -0.028908 0.261291
0.037904 -0.029024 0.262424
0.039193 -0.029040 0.262654
0.040614 -0.029151 0.263737
0.042180 -0.029355 0.265674
0.043677 -0.029500 0.267077
0.044925 -0.029474 0.266932
0.046387 -0.029587 0.268040
0.047737 -0.029623 0.268461
0.049051 -0.029635 0.268669
0.050447 -0.029695 0.269313
0.051887 -0.029778 0.270159
0.053214 -0.029793 0.270392
0.054580 -0.029829 0.270817
0.055931 -0.029855 0.271155
0.057968 -0.030237 0.274729
0.059512 -0.030351 0.275871
0.060969 -0.030417 0.276571
0.062269 -0.030403 0.276549
0.063606 -0.030408 0.276692
0.065028 -0.030452 0.277199
0.066413 -0.030477 0.277535
0.067839 -0.030520 0.278026
0.069148 -0.030510 0.278034
0.070455 -0.030498 0.278031
0.071748 -0.030482 0.277983
0.072394 -0.030196 0.275473
0.071593 -0.029328 0.267647
0.072406 -0.029140 0.266022
0.073387 -0.029024 0.265061
0.074603 -0.029004 0.264966
0.075525 -0.028872 0.263847
0.076518 -0.028772 0.263012
0.077546 -0.028687 0.262322
0.078468 -0.028567 0.261300
0.079349 -0.028435 0.260177
0.080293 -0.028330 0.259288
0.081116 -0.028186 0.258042
0.081841 -0.028013 0.256526
0.082655 -0.027875 0.255327
0.083141 -0.027632 0.253161
0.083555 -0.027372 0.250839
0.083426 -0.026944 0.246974
0.083937 -0.026732 0.245081
0.084686 -0.026601 0.243922
0.085615 -0.026528 0.243302
0.086387 -0.026410 0.242256
0.087258 -0.026325 0.241510
0.088115 -0.026238 0.240743
0.088966 -0.026151 0.239974
0.089885 -0.026086 0.239401
0.090654 -0.025980 0.238445
0.091274 -0.025834 0.237121
0.091921 -0.025699 0.235895
0.092747 -0.025617 0.235146
0.093546 -0.025530 0.234345
0.094165 -0.025396 0.233110
0.094973 -0.025316 0.232362
0.095649 -0.025203 0.231305
0.096289 -0.025082 0.230181
0.097187 -0.025031 0.229684
0.097752 -0.024897 0.228415
0.098391 -0.024784 0.227341
0.099343 -0.024751 0.226995
0.100079 -0.024666 0.226162
0.100764 -0.024570 0.225227
0.101286 -0.024437 0.223943
0.101732 -0.024289 0.222510
0.102162 -0.024140 0.221066
0.102683 -0.024015 0.219839
0.103327 -0.023921 0.218887
0.103794 -0.023788 0.217575
0.104300 -0.023667 0.216362
0.104612 -0.023505 0.214765
0.105087 -0.023382 0.213521
0.105499 -0.023248 0.212165
0.105942 -0.023123 0.210886
0.106197 -0.022960 0.209251
0.106708 -0.022854 0.208135
0.107002 -0.022705 0.206611
0.107400 -0.022580 0.205303
-1.605141 -0.323890 3.112091
-1.592709 -0.324342 3.118425
-1.595116 -0.327852 3.154060
-1.583574 -0.328535 3.162394
-1.576923 -0.330255 3.180604
-1.570537 -0.332065 3.199572
-1.560191 -0.333065 3.210633
-1.550395 -0.334203 3.222922
-1.539007 -0.335018 3.231986
-1.525728 -0.335434 3.237096
-1.515135 -0.336454 3.247945
-1.504446 -0.337475 3.258693
-1.492123 -0.338146 3.265978
-0.615444 -0.140919 1.361358
-0.606862 -0.140410 1.356697
-0.598534 -0.139951 1.352469
-0.587493 -0.138840 1.341912
-0.572040 -0.136652 1.320898
-0.557429 -0.134619 1.301349
-0.542301 -0.132415 1.280113
-0.522726 -0.129064 1.247752
-0.513867 -0.128313 1.240499
-0.499884 -0.126250 1.220540
-0.497817 -0.127185 1.229527
-1.336363 -0.345423 3.339079
-1.309436 -0.346589 3.349737
-1.287275 -0.344864 3.332657
-1.282498 -0.347811 3.360666
-1.273441 -0.349657 3.377964
-1.259606 -0.350221 3.382817
-1.249782 -0.351929 3.398662
-1.242009 -0.354267 3.420523
-1.222427 -0.353254 3.409973
-1.210693 -0.354513 3.421298
-1.178558 -0.354527 3.419636
-1.164119 -0.355032 3.423534
-1.151891 -0.356235 3.434113
-1.124823 -0.352818 3.400119
-1.117078 -0.355451 3.424394
-1.085758 -0.350550 3.376053
-1.071619 -0.351134 3.380507
-0.325795 -0.108365 1.042903
-0.319522 -0.107908 1.038131
-0.315877 -0.108339 1.041886
-0.311428 -0.108504 1.043069
-0.305908 -0.108294 1.040650
-0.300721 -0.108198 1.039313
-0.295863 -0.108220 1.039095
-0.290754 -0.108148 1.037981
-0.284927 -0.107803 1.034234
-0.278631 -0.107265 1.028633
-0.272074 -0.106606 1.021872
-0.264880 -0.105669 1.012452
-0.257722 -0.104712 1.002841
-0.248361 -0.102807 0.984163
-0.244059 -0.102964 0.985222
-0.218585 -0.095896 0.916761
-0.212022 -0.094909 0.906920
-0.207086 -0.094626 0.903796
-0.199296 -0.092998 0.887849
-0.192979 -0.092003 0.877945
-0.185115 -0.090210 0.860440
-0.179853 -0.089632 0.854541
-0.174694 -0.089080 0.848893
-0.049576 -0.027171 0.258574
-0.047780 -0.026856 0.255465
-0.046575 -0.026866 0.255444
-0.045267 -0.026815 0.254848
-0.042795 -0.026052 0.247495
-0.041369 -0.025902 0.245959
-0.040017 -0.025790 0.244794
-0.038793 -0.025757 0.244378
-0.037763 -0.025855 0.245201
-0.036598 -0.025863 0.245179
-0.035319 -0.025788 0.244374
-0.033965 -0.025653 0.242993
-0.032524 -0.025439 0.240875
-0.030915 -0.025072 0.237316
-0.029731 -0.025037 0.236897
-0.028525 -0.024979 0.236257
-0.027380 -0.024972 0.236114
-0.025536 -0.024300 0.229677
-0.024073 -0.023945 0.226250
-0.022949 -0.023909 0.225839
-0.021956 -0.024015 0.226768
-0.020998 -0.024170 0.228166
-0.020059 -0.024368 0.229962
-0.018976 -0.024402 0.230223
-0.017951 -0.024521 0.231279
-0.016865 -0.024565 0.231636
-0.015890 -0.024790 0.233700
-0.014780 -0.024823 0.233961
-0.013693 -0.024903 0.234666
-0.012609 -0.025002 0.235552
-0.011498 -0.025066 0.236103
-0.010386 -0.025137 0.236732
-0.009260 -0.025192 0.237211
-0.008139 -0.025275 0.237960
-0.007011 -0.025359 0.238717
-0.005887 -0.025499 0.240008
-0.004741 -0.025584 0.240779
-0.003582 -0.025639 0.241270
-0.002419 -0.025697 0.241798
-0.001250 -0.025740 0.242192
-0.000077 -0.025862 0.243322
0.001108 -0.026005 0.244659
0.002298 -0.026050 0.245078
0.003494 -0.026113 0.245666
0.004698 -0.026187 0.246368
0.005907 -0.026255 0.247005
0.007119 -0.026312 0.247549
0.008330 -0.026346 0.247882
0.009537 -0.026360 0.248035
0.010756 -0.026403 0.248458
0.011986 -0.026459 0.249002
0.013248 -0.026570 0.250071
0.014564 -0.026761 0.251904
0.015780 -0.026753 0.251859
0.017021 -0.026787 0.252210
0.018262 -0.026815 0.252515
0.019516 -0.026857 0.252954
0.020759 -0.026881 0.253222
0.022014 -0.026915 0.253590
0.023265 -0.026942 0.253898
0.024690 -0.027158 0.255983
0.025828 -0.027052 0.255043
0.027165 -0.027155 0.256075
0.028469 -0.027216 0.256718
0.029715 -0.027221 0.256827
0.031020 -0.027276 0.257418
0.032324 -0.027326 0.257960
0.033701 -0.027432 0.259035
0.035365 -0.027756 0.262165
0.036696 -0.027804 0.262704
0.037869 -0.027734 0.262125
0.039226 -0.027799 0.262817
0.040558 -0.027842 0.263313
0.042259 -0.028129 0.266112
0.043583 -0.028155 0.266445
0.045089 -0.028294 0.267852
0.046367 -0.028285 0.267864
0.047688 -0.028303 0.268129
0.049005 -0.028317 0.268362
0.050362 -0.028354 0.268804
0.051796 -0.028430 0.269630
0.053161 -0.028466 0.270070
0.054660 -0.028571 0.271159
0.056019 -0.028598 0.271525
0.057811 -0.028841 0.273936
0.059455 -0.029001 0.275556
0.060967 -0.029090 0.276510
0.062329 -0.029106 0.276765
0.063678 -0.029116 0.276957
0.065032 -0.029127 0.277170
0.066386 -0.029137 0.277374
0.067727 -0.029142 0.277520
0.069047 -0.029138 0.277583
0.070313 -0.029111 0.277431
0.071505 -0.029055 0.276999
0.072390 -0.028879 0.275419
0.071381 -0.027967 0.266816
0.072491 -0.027903 0.266297
0.073553 -0.027822 0.265623
0.074604 -0.027741 0.264936
0.075563 -0.027628 0.263947
0.076660 -0.027569 0.263469
0.077687 -0.027487 0.262770
0.078494 -0.027331 0.261359
0.079399 -0.027213 0.260312
0.080152 -0.027048 0.258809
0.081057 -0.026938 0.257830
0.081870 -0.026802 0.256592
0.082300 -0.026546 0.254208
0.082775 -0.026311 0.252026
0.082950 -0.025990 0.249006
0.083493 -0.025791 0.247154
0.084002 -0.025587 0.245255
0.084744 -0.025459 0.244073
0.085705 -0.025399 0.243545
0.086451 -0.025278 0.242426
0.087315 -0.025194 0.241658
0.088170 -0.025110 0.240884
0.089031 -0.025030 0.240140
0.089996 -0.024980 0.239692
0.090750 -0.024874 0.238692
0.091550 -0.024783 0.237835
0.092135 -0.024637 0.236441
0.092872 -0.024534 0.235462
0.093600 -0.024432 0.234479
0.094440 -0.024361 0.233792
0.095081 -0.024240 0.232628
0.095531 -0.024075 0.231025
0.096255 -0.023981 0.230105
0.097057 -0.023909 0.229384
0.097684 -0.023796 0.228267
0.098349 -0.023694 0.227252
0.099257 -0.023652 0.226811
0.100078 -0.023591 0.226173
0.100698 -0.023484 0.225093
0.101409 -0.023401 0.224229
0.101930 -0.023276 0.222960
0.102303 -0.023120 0.221391
0.102754 -0.022985 0.220011
0.103348 -0.022884 0.218954
0.103890 -0.022773 0.217801
0.104426 -0.022664 0.216648
0.104802 -0.022522 0.215181
0.105185 -0.022385 0.213746
0.105724 -0.022283 0.212645
0.106018 -0.022132 0.211068
0.106457 -0.022013 0.209795
0.106988 -0.021916 0.208716
0.107078 -0.021731 0.206794
0.107580 -0.021632 0.205683
-1.598056 -0.310605 3.129277
-1.591325 -0.312172 3.146928
-1.583940 -0.313639 3.163468
-1.577887 -0.315402 3.182872
-1.568528 -0.316531 3.195782
-1.560416 -0.317936 3.211378
-1.548527 -0.318592 3.219302
-1.537129 -0.319363 3.228286
-1.525611 -0.320125 3.237070
-1.515338 -0.321167 3.248584
-1.506924 -0.322628 3.264246
-1.493955 -0.323134 3.270152
-0.619455 -0.135374 1.370289
-0.613237 -0.135420 1.371002
-0.604320 -0.134865 1.365586
-0.595108 -0.134231 1.359341
-0.582950 -0.132912 1.346118
-0.569217 -0.131201 1.328889
-0.554194 -0.129152 1.308199
-0.548962 -0.129365 1.310382
-0.515451 -0.122843 1.244320
-0.510619 -0.123084 1.246741
-0.498025 -0.121439 1.230023
-0.492977 -0.121617 1.231745
-0.488014 -0.121821 1.233700
-1.289888 -0.329814 3.339305
-1.276359 -0.330370 3.344445
-1.273261 -0.333673 3.377331
-1.260729 -0.334556 3.385663
-1.244202 -0.334389 3.383297
-1.232340 -0.335488 3.393687
-1.222620 -0.337206 3.410284
-1.210277 -0.338237 3.419876
-1.164950 -0.339091 3.425680
-1.144314 -0.337760 3.411210
-1.138050 -0.340695 3.439767
-1.117661 -0.339425 3.425829
-1.104810 -0.340441 3.434923
-0.326433 -0.103627 1.044820
-0.320391 -0.103269 1.040827
-0.317353 -0.103883 1.046621
-0.311867 -0.103703 1.044402
-0.306394 -0.103522 1.042163
-0.301627 -0.103577 1.042295
-0.296245 -0.103419 1.040283
-0.290799 -0.103234 1.037983
-0.285369 -0.103048 1.035675
-0.279170 -0.102573 1.030457
-0.272444 -0.101884 1.023092
-0.265368 -0.101037 1.014140
-0.258320 -0.100169 1.004990
-0.249955 -0.098750 0.990301
-0.240878 -0.096988 0.972202
-0.236617 -0.097135 0.973233
-0.221422 -0.092711 0.928478
-0.213366 -0.091156 0.912488
-0.207304 -0.090406 0.904566
-0.200533 -0.089309 0.893176
-0.193481 -0.088036 0.880042
-0.187494 -0.087202 0.871308
-0.181358 -0.086260 0.861497
-0.175882 -0.085596 0.854472
-0.050528 -0.025787 0.257183
-0.049050 -0.025656 0.255765
-0.047625 -0.025548 0.254572
-0.046123 -0.025391 0.252898
-0.044497 -0.025157 0.250452
-0.043157 -0.025075 0.249527
-0.042055 -0.025130 0.249972
-0.040843 -0.025122 0.249783
-0.039598 -0.025093 0.249383
-0.038400 -0.025091 0.249264
-0.036730 -0.024772 0.245992
-0.035329 -0.024619 0.244374
-0.033928 -0.024455 0.242653
-0.032691 -0.024403 0.242037
-0.031422 -0.024321 0.241137
-0.030093 -0.024186 0.239707
-0.028632 -0.023929 0.237077
-0.027368 -0.023823 0.235939
-0.025610 -0.023258 0.230266
-0.024084 -0.022863 0.226281
-0.022949 -0.022819 0.225774
-0.021854 -0.022813 0.225638
-0.020947 -0.023012 0.227541
-0.020155 -0.023366 0.230979
-0.019065 -0.023398 0.231227
-0.018014 -0.023483 0.232007
-0.016928 -0.023531 0.232423
-0.015850 -0.023598 0.233029
-0.014794 -0.023712 0.234095
-0.013683 -0.023749 0.234409
-0.012607 -0.023858 0.235439
-0.011513 -0.023951 0.236310
-0.010398 -0.024016 0.236906
-0.009269 -0.024063 0.237337
-0.008159 -0.024179 0.238443
-0.007014 -0.024212 0.238736
-0.005908 -0.024419 0.240746
-0.004754 -0.024480 0.241324
-0.003600 -0.024586 0.242344
-0.002429 -0.024616 0.242619
-0.001256 -0.024667 0.243102
-0.000078 -0.024744 0.243853
0.001108 -0.024830 0.244688
0.002302 -0.024924 0.245612
0.003498 -0.024961 0.245971
0.004699 -0.025007 0.246425
0.005908 -0.025067 0.247025
0.007126 -0.025137 0.247723
0.008334 -0.025160 0.247956
0.009546 -0.025185 0.248225
0.010770 -0.025235 0.248731
0.011995 -0.025275 0.249151
0.013244 -0.025355 0.249958
0.014543 -0.025508 0.251498
0.015794 -0.025559 0.252032
0.017021 -0.025567 0.252145
0.018281 -0.025620 0.252711
0.019520 -0.025640 0.252948
0.020781 -0.025683 0.253425
0.022033 -0.025711 0.253750
0.023272 -0.025723 0.253911
0.024574 -0.025799 0.254723
0.025869 -0.025861 0.255393
0.027176 -0.025928 0.256113
0.028435 -0.025946 0.256352
0.029674 -0.025945 0.256408
0.030943 -0.025969 0.256717
0.032261 -0.026031 0.257398
0.034220 -0.026586 0.262962
0.035724 -0.026760 0.264762
0.036826 -0.026631 0.263571
0.037996 -0.026560 0.262943
0.039288 -0.026574 0.263174
0.040574 -0.026584 0.263360
0.042138 -0.026770 0.265288
0.043579 -0.026869 0.266363
0.044907 -0.026895 0.266710
0.046344 -0.026983 0.267678
0.047778 -0.027064 0.268580
0.049061 -0.027058 0.268615
0.050366 -0.027064 0.268768
0.051790 -0.027132 0.269543
0.053220 -0.027199 0.270315
0.054659 -0.027268 0.271104
0.056095 -0.027333 0.271845
0.058011 -0.027623 0.274833
0.059505 -0.027703 0.275738
0.060954 -0.027759 0.276405
0.062355 -0.027792 0.276834
0.063676 -0.027788 0.276901
0.065002 -0.027787 0.276994
0.066397 -0.027815 0.277376
0.067715 -0.027809 0.277428
0.069009 -0.027795 0.277387
0.070279 -0.027771 0.277254
0.071514 -0.027735 0.276996
0.072582 -0.027636 0.276110
0.071561 -0.026760 0.267455
0.072343 -0.026577 0.265720
0.073424 -0.026508 0.265123
0.074517 -0.026446 0.264594
0.075568 -0.026371 0.263935
0.076605 -0.026294 0.263248
0.077680 -0.026232 0.262718
0.078621 -0.026128 0.261754
0.079584 -0.026034 0.260893
0.080522 -0.025935 0.259976
0.081118 -0.025730 0.258002
0.081727 -0.025536 0.256123
0.082152 -0.025291 0.253729
0.082855 -0.025137 0.252250
0.083812 -0.025063 0.251575
0.083426 -0.024596 0.246941
0.083914 -0.024396 0.244981
0.084580 -0.024252 0.243588
0.085433 -0.024165 0.242759
0.086381 -0.024107 0.242218
0.087251 -0.024029 0.241473
0.088150 -0.023961 0.240821
0.088992 -0.023879 0.240028
0.089865 -0.023807 0.239336
0.090710 -0.023731 0.238584
0.091453 -0.023629 0.237581
0.092240 -0.023541 0.236708
0.093080 -0.023469 0.235989
