ply
format ascii 1.0
element vertex 1725
property float x
property float y
property float z
end_header
-0.027556 -0.003229 0.227447
-0.026041 -0.003178 0.223776
-0.024878 -0.003167 0.222958
-0.023923 -0.003183 0.224021
-0.022964 -0.003201 0.225159
-0.022134 -0.003239 0.227752
-0.021226 -0.003268 0.229773
-0.020132 -0.003271 0.229908
-0.019052 -0.003277 0.230246
-0.017986 -0.003286 0.230812
-0.016946 -0.003301 0.231820
-0.015938 -0.003325 0.233460
-0.014887 -0.003343 0.234668
-0.013798 -0.003355 0.235450
-0.012691 -0.003364 0.236055
-0.011601 -0.003381 0.237160
-0.010508 -0.003399 0.238424
-0.009379 -0.003410 0.239111
-0.008240 -0.003419 0.239708
-0.007088 -0.003425 0.240092
-0.005933 -0.003432 0.240541
-0.004764 -0.003431 0.240492
-0.003618 -0.003454 0.242027
-0.002447 -0.003461 0.242520
-0.001274 -0.003478 0.243679
-0.000090 -0.003483 0.244047
0.001097 -0.003485 0.244151
0.002290 -0.003493 0.244733
0.003483 -0.003496 0.244965
0.004684 -0.003504 0.245473
0.005892 -0.003512 0.246059
0.007104 -0.003519 0.246586
0.008323 -0.003528 0.247197
0.009592 -0.003553 0.248950
0.010875 -0.003576 0.250620
0.012066 -0.003568 0.250077
0.013277 -0.003567 0.250011
0.014526 -0.003575 0.250616
0.015742 -0.003575 0.250613
0.016962 -0.003575 0.250684
0.018188 -0.003577 0.250822
0.019424 -0.003580 0.251091
0.020680 -0.003586 0.251580
0.021937 -0.003592 0.252028
0.023175 -0.003594 0.252234
0.024780 -0.003650 0.256222
0.026035 -0.003652 0.256391
0.027167 -0.003637 0.255402
0.028479 -0.003646 0.256120
0.029795 -0.003655 0.256822
0.032110 -0.003781 0.265749
0.033321 -0.003772 0.265212
0.034216 -0.003730 0.262292
0.034879 -0.003666 0.257881
0.036067 -0.003660 0.257528
0.038109 -0.003738 0.263104
0.039355 -0.003735 0.263005
0.040669 -0.003739 0.263363
0.042002 -0.003744 0.263828
0.043355 -0.003751 0.264395
0.044772 -0.003763 0.265315
0.046128 -0.003769 0.265841
0.047523 -0.003778 0.266565
0.048876 -0.003783 0.267030
0.050095 -0.003778 0.266760
0.051411 -0.003780 0.267015
0.052886 -0.003794 0.268071
0.055454 -0.003883 0.274494
0.056774 -0.003883 0.274593
0.058094 -0.003883 0.274695
0.059378 -0.003881 0.274624
0.060828 -0.003889 0.275319
0.062256 -0.003896 0.275891
0.063594 -0.003896 0.276055
0.064852 -0.003892 0.275874
0.066225 -0.003895 0.276187
0.067697 -0.003904 0.276894
0.068613 -0.003881 0.275347
0.068999 -0.003829 0.271776
0.069862 -0.003805 0.270182
0.069597 -0.003722 0.264361
0.070475 -0.003702 0.263016
0.071582 -0.003694 0.262557
0.072692 -0.003686 0.262127
0.073678 -0.003673 0.261272
0.074666 -0.003661 0.260455
0.075698 -0.003650 0.259817
0.076678 -0.003638 0.259024
0.077685 -0.003628 0.258348
0.078649 -0.003615 0.257550
0.079561 -0.003601 0.256610
0.080409 -0.003584 0.255495
0.081304 -0.003570 0.254562
0.082163 -0.003555 0.253541
0.083008 -0.003540 0.252508
0.083959 -0.003529 0.251819
0.084949 -0.003521 0.251265
0.085724 -0.003504 0.250096
0.086244 -0.003477 0.248225
0.083920 -0.003338 0.238324
0.084286 -0.003308 0.236220
0.084846 -0.003286 0.234705
0.085991 -0.003287 0.234823
0.086750 -0.003274 0.233895
0.087566 -0.003263 0.233141
0.088460 -0.003256 0.232605
0.089204 -0.003243 0.231690
0.090108 -0.003236 0.231203
0.090619 -0.003215 0.229730
0.091315 -0.003201 0.228747
0.090898 -0.003149 0.225031
0.092322 -0.003162 0.225898
0.093197 -0.003155 0.225415
0.093817 -0.003140 0.224325
0.094536 -0.003129 0.223490
0.095309 -0.003120 0.222794
0.096046 -0.003110 0.222024
0.096651 -0.003096 0.220962
0.097291 -0.003083 0.219995
0.097967 -0.003071 0.219123
0.098772 -0.003064 0.218549
0.099504 -0.003055 0.217818
0.100187 -0.003045 0.216989
0.100904 -0.003035 0.216244
0.101770 -0.003031 0.215820
0.102409 -0.003020 0.214920
0.103077 -0.003010 0.214088
0.103733 -0.002999 0.213240
0.104117 -0.002981 0.211847
0.104559 -0.002966 0.210587
0.105023 -0.002951 0.209386
0.105778 -0.002944 0.208773
0.106521 -0.002937 0.208138
0.106925 -0.002922 0.206846
0.107392 -0.002908 0.205690
-1.606844 -0.029403 3.181189
-1.605221 -0.029643 3.209349
-1.616313 -0.030126 3.263597
-1.603452 -0.030167 3.269934
-0.702545 -0.013343 1.447087
-0.710220 -0.013618 1.477666
-0.710899 -0.013763 1.494106
-0.709805 -0.013877 1.507064
-0.709274 -0.014003 1.521440
-0.704781 -0.014054 1.527478
-0.699299 -0.014085 1.531425
-0.691979 -0.014080 1.531339
-0.681778 -0.014016 1.524761
-0.673801 -0.013997 1.523026
-0.665953 -0.013980 1.521505
-0.656023 -0.013918 1.515104
-0.647109 -0.013877 1.510896
-0.640146 -0.013878 1.511164
-0.631696 -0.013846 1.507856
-0.624059 -0.013832 1.506402
-0.617180 -0.013834 1.506738
-0.608018 -0.013784 1.501413
-0.599726 -0.013754 1.498112
-0.590834 -0.013709 1.493194
-0.583265 -0.013694 1.491518
-0.575128 -0.013665 1.488311
-0.566693 -0.013629 1.484228
-0.559011 -0.013610 1.482022
-0.550496 -0.013570 1.477508
-0.540450 -0.013491 1.468708
-0.531756 -0.013444 1.463393
-0.522117 -0.013372 1.455297
-0.512201 -0.013290 1.446195
-0.502656 -0.013217 1.437911
-0.492852 -0.013135 1.428647
-0.482737 -0.013042 1.418216
-0.471639 -0.012919 1.404565
-0.460189 -0.012784 1.389473
-0.450241 -0.012687 1.378555
-0.434131 -0.012411 1.348191
-0.428508 -0.012431 1.349988
-0.323254 -0.009518 1.033352
-0.318876 -0.009532 1.034556
-0.313915 -0.009529 1.033881
-0.309655 -0.009548 1.035539
-0.305054 -0.009556 1.036095
-0.300319 -0.009561 1.036214
-0.295468 -0.009562 1.035940
-0.290456 -0.009557 1.035094
-0.285476 -0.009554 1.034346
-0.280056 -0.009536 1.031962
-0.274376 -0.009508 1.028540
-0.268793 -0.009482 1.025377
-0.262295 -0.009423 1.018562
-0.255849 -0.009364 1.011722
-0.246581 -0.009197 0.993273
-0.242234 -0.009210 0.994342
-0.050802 -0.002399 0.257934
-0.049412 -0.002392 0.257002
-0.047676 -0.002367 0.254191
-0.046363 -0.002362 0.253548
-0.044560 -0.002331 0.250137
-0.043043 -0.002314 0.248191
-0.041334 -0.002285 0.245012
-0.039984 -0.002275 0.243846
-0.038548 -0.002259 0.242074
-0.037409 -0.002261 0.242131
-0.036168 -0.002256 0.241519
-0.034597 -0.002230 0.238597
-0.033112 -0.002207 0.236107
-0.031669 -0.002186 0.233757
-0.030496 -0.002183 0.233308
-0.029020 -0.002156 0.230426
-0.027641 -0.002136 0.228134
-0.025962 -0.002089 0.223087
-0.024862 -0.002087 0.222805
-0.023834 -0.002091 0.223185
-0.022959 -0.002110 0.225104
-0.021979 -0.002121 0.226152
-0.021212 -0.002154 0.229619
-0.020115 -0.002155 0.229709
-0.019052 -0.002161 0.230237
-0.017995 -0.002168 0.230924
-0.017004 -0.002184 0.232608
-0.015926 -0.002191 0.233264
-0.014850 -0.002199 0.234086
-0.013790 -0.002211 0.235319
-0.012692 -0.002219 0.236065
-0.011584 -0.002226 0.236802
-0.010472 -0.002234 0.237586
-0.009340 -0.002239 0.238113
-0.008206 -0.002245 0.238713
-0.007064 -0.002250 0.239269
-0.005921 -0.002258 0.240042
-0.004765 -0.002263 0.240520
-0.003609 -0.002271 0.241389
-0.002446 -0.002281 0.242375
-0.001269 -0.002283 0.242626
-0.000090 -0.002292 0.243590
0.001096 -0.002295 0.243883
0.002285 -0.002298 0.244226
0.003480 -0.002303 0.244694
0.004683 -0.002309 0.245383
0.005903 -0.002320 0.246498
0.007105 -0.002321 0.246614
0.008331 -0.002328 0.247425
0.009569 -0.002337 0.248327
0.010826 -0.002347 0.249486
0.012069 -0.002353 0.250139
0.013279 -0.002352 0.250039
0.014506 -0.002354 0.250271
0.015753 -0.002359 0.250789
0.016969 -0.002358 0.250773
0.018204 -0.002360 0.251039
0.019478 -0.002367 0.251785
0.020743 -0.002372 0.252330
0.021977 -0.002373 0.252481
0.023228 -0.002375 0.252800
0.024500 -0.002380 0.253318
0.025969 -0.002402 0.255734
0.027147 -0.002396 0.255207
0.028445 -0.002401 0.255809
0.029814 -0.002412 0.256981
0.031764 -0.002467 0.262875
0.033108 -0.002472 0.263503
0.033780 -0.002428 0.258949
0.035021 -0.002427 0.258925
0.036437 -0.002438 0.260162
0.037815 -0.002446 0.261069
0.039288 -0.002459 0.262553
0.040632 -0.002464 0.263120
0.041951 -0.002467 0.263501
0.043271 -0.002469 0.263879
0.044685 -0.002477 0.264798
0.046138 -0.002487 0.265891
0.047505 -0.002491 0.266459
0.048762 -0.002490 0.266398
0.050090 -0.002492 0.266729
0.051402 -0.002493 0.266964
0.053812 -0.002546 0.272759
0.055458 -0.002562 0.274509
0.056854 -0.002565 0.274975
0.058107 -0.002562 0.274747
0.059467 -0.002564 0.275032
0.060924 -0.002570 0.275751
0.062256 -0.002570 0.275888
0.063708 -0.002575 0.276543
0.065103 -0.002578 0.276938
0.066360 -0.002576 0.276745
0.067806 -0.002580 0.277337
0.068946 -0.002573 0.276680
0.069157 -0.002532 0.272395
0.068943 -0.002478 0.266623
0.069461 -0.002451 0.263841
0.070553 -0.002446 0.263302
0.071621 -0.002439 0.262695
0.072701 -0.002433 0.262157
0.073737 -0.002426 0.261478
0.074696 -0.002417 0.260557
0.075767 -0.002412 0.260050
0.076729 -0.002403 0.259196
0.077730 -0.002396 0.258495
0.078715 -0.002389 0.257764
0.079661 -0.002380 0.256930
0.080616 -0.002373 0.256151
0.081403 -0.002360 0.254870
0.082293 -0.002351 0.253940
0.083125 -0.002341 0.252861
0.083992 -0.002331 0.251916
0.084897 -0.002324 0.251111
0.085692 -0.002313 0.250003
0.086519 -0.002303 0.249015
0.086729 -0.002278 0.246299
0.086537 -0.002243 0.242529
0.084885 -0.002171 0.234812
0.085800 -0.002167 0.234302
0.086871 -0.002166 0.234221
0.087572 -0.002156 0.233155
0.088408 -0.002149 0.232467
0.089256 -0.002143 0.231824
0.090029 -0.002136 0.231002
0.090862 -0.002130 0.230346
0.091616 -0.002122 0.229501
0.092359 -0.002115 0.228647
0.093177 -0.002109 0.227990
0.094279 -0.002109 0.228031
0.094165 -0.002083 0.225159
0.094959 -0.002077 0.224490
0.095736 -0.002071 0.223793
0.096317 -0.002061 0.222652
0.096811 -0.002050 0.221328
0.097402 -0.002040 0.220248
0.098117 -0.002034 0.219460
0.098970 -0.002030 0.218989
0.099624 -0.002022 0.218082
0.100405 -0.002018 0.217464
0.101103 -0.002011 0.216671
0.101917 -0.002007 0.216133
0.102616 -0.002001 0.215356
0.103293 -0.001995 0.214541
0.103811 -0.001985 0.213403
0.104362 -0.001977 0.212348
0.104627 -0.001963 0.210728
0.105065 -0.001953 0.209474
0.105760 -0.001947 0.208741
0.106550 -0.001944 0.208199
0.107094 -0.001936 0.207177
0.107511 -0.001926 0.205922
-1.628301 -0.014554 3.223702
-1.615582 -0.014570 3.230095
-1.614016 -0.014688 3.258986
-1.601173 -0.014705 3.265315
-0.696131 -0.006453 1.433887
-0.705276 -0.006599 1.467391
-0.710544 -0.006711 1.493372
-0.711957 -0.006789 1.511644
-0.708737 -0.006824 1.520299
-0.706265 -0.006867 1.530703
-0.701315 -0.006887 1.535849
-0.694084 -0.006884 1.536005
-0.687050 -0.006884 1.536559
-0.677706 -0.006860 1.531859
-0.669773 -0.006850 1.530239
-0.661650 -0.006838 1.528105
-0.652276 -0.006812 1.522965
-0.643510 -0.006793 1.519109
-0.636241 -0.006790 1.518708
-0.629206 -0.006788 1.518831
-0.620539 -0.006770 1.514940
-0.611238 -0.006743 1.509367
-0.603327 -0.006732 1.507110
-0.594057 -0.006705 1.501340
-0.585997 -0.006692 1.498505
-0.578269 -0.006682 1.496441
-0.570510 -0.006672 1.494224
-0.562023 -0.006653 1.490005
-0.554327 -0.006642 1.487788
-0.546416 -0.006630 1.484919
-0.537984 -0.006610 1.480530
-0.528368 -0.006575 1.472715
-0.519025 -0.006543 1.465459
-0.509137 -0.006503 1.456446
-0.497172 -0.006436 1.441163
-0.486569 -0.006384 1.429466
-0.474780 -0.006315 1.413913
-0.461040 -0.006218 1.392036
-0.449782 -0.006153 1.377144
-0.437373 -0.006069 1.358252
-0.431708 -0.006078 1.360063
-0.324065 -0.004631 1.035940
-0.319082 -0.004628 1.035220
-0.313751 -0.004621 1.033337
-0.309959 -0.004636 1.036548
-0.305092 -0.004636 1.036217
-0.300269 -0.004636 1.036034
-0.295629 -0.004639 1.036498
-0.290623 -0.004637 1.035680
-0.285585 -0.004634 1.034731
-0.280419 -0.004629 1.033290
-0.274904 -0.004618 1.030506
-0.269561 -0.004609 1.028297
-0.264606 -0.004607 1.027526
-0.258431 -0.004583 1.021919
-0.251789 -0.004550 1.014240
-0.049589 -0.001162 0.257920
-0.048019 -0.001154 0.256012
-0.046447 -0.001145 0.254004
-0.044937 -0.001138 0.252247
-0.043737 -0.001138 0.252188
-0.042398 -0.001134 0.251313
-0.039889 -0.001098 0.243262
-0.038614 -0.001095 0.242486
-0.037238 -0.001089 0.241020
-0.035903 -0.001083 0.239746
-0.033732 -0.001052 0.232627
-0.032579 -0.001050 0.232298
-0.031625 -0.001056 0.233424
-0.030348 -0.001050 0.232169
-0.029045 -0.001044 0.230626
-0.027775 -0.001038 0.229241
-0.025945 -0.001010 0.222936
-0.024839 -0.001008 0.222595
-0.023775 -0.001009 0.222624
-0.023058 -0.001025 0.226074
-0.021863 -0.001020 0.224946
-0.021209 -0.001041 0.229581
-0.020178 -0.001045 0.230421
-0.019135 -0.001049 0.231241
-0.018052 -0.001051 0.231645
-0.016967 -0.001053 0.232088
-0.015933 -0.001059 0.233366
-0.014874 -0.001065 0.234446
-0.013781 -0.001068 0.235160
-0.012664 -0.001070 0.235549
-0.011546 -0.001072 0.236019
-0.010430 -0.001075 0.236636
-0.009304 -0.001078 0.237169
-0.008193 -0.001083 0.238336
-0.007055 -0.001086 0.238977
-0.005915 -0.001090 0.239796
-0.004757 -0.001092 0.240096
-0.003600 -0.001095 0.240745
-0.002439 -0.001099 0.241651
-0.001268 -0.001102 0.242393
-0.000090 -0.001106 0.243222
0.001096 -0.001109 0.243820
0.002288 -0.001112 0.244514
0.003483 -0.001114 0.244904
0.004698 -0.001120 0.246156
0.005896 -0.001120 0.246205
0.007112 -0.001123 0.246877
0.008343 -0.001127 0.247769
0.009575 -0.001130 0.248504
0.010812 -0.001133 0.249169
0.012051 -0.001136 0.249757
0.013278 -0.001137 0.250016
0.014503 -0.001138 0.250208
0.015734 -0.001139 0.250479
0.016979 -0.001141 0.250917
0.018200 -0.001141 0.250986
0.019446 -0.001142 0.251359
0.020723 -0.001146 0.252087
0.021967 -0.001147 0.252364
0.023227 -0.001148 0.252786
0.024472 -0.001149 0.253027
0.025771 -0.001152 0.253785
0.027026 -0.001154 0.254068
0.028334 -0.001157 0.254805
0.029716 -0.001162 0.256130
0.031914 -0.001198 0.264114
0.033031 -0.001193 0.262887
0.034194 -0.001189 0.262116
0.035291 -0.001183 0.260922
0.036462 -0.001180 0.260342
0.037853 -0.001184 0.261325
0.039117 -0.001185 0.261407
0.040505 -0.001188 0.262296
0.041884 -0.001191 0.263076
0.043286 -0.001195 0.263964
0.044642 -0.001197 0.264534
0.046131 -0.001203 0.265850
0.047547 -0.001207 0.266692
0.048894 -0.001208 0.267120
0.050139 -0.001207 0.266988
0.051478 -0.001209 0.267356
0.052858 -0.001211 0.267920
0.055393 -0.001239 0.274182
0.056930 -0.001244 0.275341
0.058218 -0.001243 0.275272
0.059481 -0.001242 0.275094
0.060953 -0.001245 0.275879
0.062347 -0.001247 0.276287
0.063649 -0.001246 0.276284
0.064983 -0.001247 0.276425
0.066253 -0.001246 0.276297
0.067751 -0.001249 0.277107
0.068895 -0.001246 0.276474
0.068673 -0.001219 0.270486
0.068756 -0.001198 0.265900
0.069533 -0.001189 0.264115
0.070648 -0.001187 0.263656
0.071770 -0.001185 0.263240
0.072737 -0.001180 0.262284
0.073755 -0.001177 0.261542
0.074683 -0.001172 0.260510
0.075742 -0.001169 0.259964
0.076730 -0.001166 0.259196
0.077592 -0.001160 0.258035
0.078606 -0.001157 0.257407
0.079639 -0.001155 0.256858
0.080462 -0.001149 0.255662
0.081287 -0.001144 0.254505
0.082162 -0.001139 0.253535
0.083100 -0.001136 0.252786
0.083980 -0.001132 0.251879
0.084891 -0.001128 0.251091
0.085678 -0.001123 0.249960
0.086073 -0.001113 0.247732
0.086427 -0.001103 0.245442
0.086787 -0.001093 0.243227
0.084933 -0.001056 0.234944
0.085813 -0.001053 0.234337
0.086795 -0.001052 0.234016
0.087610 -0.001049 0.233258
0.088374 -0.001045 0.232380
0.089237 -0.001042 0.231777
0.090024 -0.001039 0.230989
0.090736 -0.001035 0.230026
0.091502 -0.001031 0.229218
0.092243 -0.001028 0.228360
0.092763 -0.001022 0.226978
0.093374 -0.001017 0.225842
0.094283 -0.001015 0.225441
0.094923 -0.001011 0.224406
0.095526 -0.001007 0.223302
0.096171 -0.001003 0.222314
0.096880 -0.000999 0.221487
0.097541 -0.000996 0.220564
0.098339 -0.000993 0.219958
0.099092 -0.000991 0.219259
0.099852 -0.000988 0.218583
0.100547 -0.000985 0.217773
0.101302 -0.000983 0.217100
0.102048 -0.000980 0.216413
0.102649 -0.000977 0.215427
0.103359 -0.000974 0.214679
0.103925 -0.000970 0.213641
0.104436 -0.000966 0.212501
0.104888 -0.000961 0.211255
0.105153 -0.000955 0.209652
0.105832 -0.000952 0.208886
0.106578 -0.000950 0.208255
0.107116 -0.000946 0.207223
0.107854 -0.000945 0.206581
-1.576892 0.000666 3.121941
-1.609620 0.000692 3.218192
-1.591649 0.000696 3.213841
-1.599214 0.000712 3.261337
-1.586367 0.000719 3.267605
-0.704079 0.000325 1.464907
-0.703870 0.000330 1.479352
-0.708091 0.000338 1.503441
-0.707105 0.000343 1.516805
-0.701341 0.000347 1.520039
-0.699242 0.000351 1.531316
-0.693785 0.000355 1.535349
-0.688137 0.000358 1.538995
-0.681674 0.000361 1.540834
-0.675374 0.000363 1.543042
-0.666505 0.000365 1.539323
-0.657516 0.000366 1.535205
-0.649591 0.000368 1.533470
-0.640377 0.000369 1.528586
-0.632457 0.000371 1.526682
-0.623694 0.000372 1.522646
-0.614433 0.000373 1.517262
-0.605733 0.000374 1.513123
-0.596826 0.000375 1.508342
-0.588965 0.000376 1.506098
-0.580205 0.000377 1.501452
-0.571345 0.000378 1.496414
-0.564826 0.000380 1.497438
-0.557356 0.000381 1.495923
-0.548982 0.000382 1.491895
-0.540911 0.000383 1.488587
-0.531828 0.000384 1.482362
-0.520981 0.000383 1.470983
-0.509902 0.000381 1.458635
-0.496910 0.000378 1.440408
-0.484257 0.000375 1.422676
-0.469554 0.000371 1.398351
-0.460424 0.000370 1.390180
-0.454659 0.000372 1.392076
-0.432037 0.000360 1.341684
-0.426442 0.000362 1.343473
-0.322809 0.000280 1.031922
-0.318841 0.000282 1.034437
-0.313773 0.000282 1.033409
-0.309487 0.000284 1.034970
-0.305082 0.000285 1.036183
-0.300211 0.000287 1.035833
-0.295388 0.000288 1.035650
-0.290551 0.000289 1.035423
-0.285466 0.000289 1.034300
-0.280356 0.000290 1.033059
-0.274942 0.000291 1.030650
-0.270604 0.000292 1.032275
-0.264683 0.000292 1.027822
-0.258638 0.000291 1.022737
-0.254176 0.000293 1.023855
-0.049780 0.000077 0.258914
-0.047890 0.000076 0.255325
-0.046511 0.000076 0.254357
-0.045033 0.000076 0.252786
-0.043745 0.000076 0.252235
-0.041484 0.000074 0.245895
-0.039973 0.000073 0.243773
-0.038510 0.000073 0.241835
-0.037419 0.000073 0.242189
-0.035983 0.000073 0.240278
-0.034393 0.000072 0.237189
-0.032940 0.000072 0.234871
-0.031737 0.000072 0.234247
-0.030559 0.000072 0.233786
-0.029105 0.000071 0.231103
-0.027774 0.000070 0.229228
-0.026362 0.000070 0.226517
-0.024757 0.000068 0.221861
-0.023725 0.000069 0.222155
-0.023140 0.000070 0.226876
-0.022023 0.000070 0.226595
-0.021158 0.000071 0.229032
-0.020100 0.000071 0.229531
-0.019100 0.000072 0.230814
-0.018060 0.000072 0.231750
-0.017050 0.000073 0.233225
-0.015938 0.000073 0.233441
-0.014862 0.000073 0.234256
-0.013767 0.000073 0.234920
-0.012662 0.000074 0.235503
-0.011543 0.000074 0.235950
-0.010427 0.000074 0.236559
-0.009301 0.000074 0.237093
-0.008191 0.000075 0.238264
-0.007064 0.000075 0.239276
-0.005919 0.000075 0.239933
-0.004759 0.000075 0.240216
-0.003598 0.000076 0.240650
-0.002442 0.000076 0.241933
-0.001269 0.000076 0.242493
-0.000090 0.000076 0.243353
0.001096 0.000077 0.243811
0.002288 0.000077 0.244521
0.003487 0.000077 0.245187
0.004692 0.000077 0.245868
0.005920 0.000078 0.247196
0.007146 0.000078 0.248029
0.008356 0.000078 0.248175
0.009579 0.000078 0.248585
0.010810 0.000078 0.249128
0.012041 0.000078 0.249548
0.013267 0.000078 0.249808
0.014495 0.000078 0.250067
0.015729 0.000078 0.250404
0.016964 0.000078 0.250700
0.018204 0.000078 0.251035
0.019434 0.000078 0.251209
0.020719 0.000078 0.252041
0.021996 0.000079 0.252693
0.023248 0.000079 0.253012
0.024538 0.000079 0.253703
0.025841 0.000079 0.254470
0.027034 0.000079 0.254136
0.028369 0.000079 0.255117
0.029656 0.000079 0.255618
0.031689 0.000081 0.262248
0.033229 0.000081 0.264466
0.034380 0.000081 0.263544
0.035379 0.000080 0.261571
0.036527 0.000080 0.260800
0.037645 0.000079 0.259889
0.039145 0.000080 0.261592
0.040472 0.000080 0.262080
0.042026 0.000080 0.263972
0.043376 0.000080 0.264513
0.044714 0.000080 0.264962
0.046107 0.000080 0.265710
0.047483 0.000080 0.266333
0.048910 0.000080 0.267205
0.050201 0.000080 0.267314
0.051474 0.000080 0.267335
0.052909 0.000080 0.268180
0.055607 0.000082 0.275245
0.057000 0.000081 0.275678
0.058381 0.000081 0.276042
0.059573 0.000081 0.275522
0.060948 0.000081 0.275854
0.062300 0.000081 0.276077
0.063696 0.000080 0.276488
0.064993 0.000080 0.276469
0.066298 0.000080 0.276481
0.067619 0.000080 0.276570
0.068993 0.000079 0.276869
0.069063 0.000078 0.272022
0.069071 0.000076 0.267118
0.069528 0.000075 0.264096
0.070554 0.000075 0.263305
0.071738 0.000074 0.263125
0.072786 0.000074 0.262460
0.073770 0.000073 0.261594
0.074777 0.000073 0.260840
0.075802 0.000072 0.260171
0.076781 0.000072 0.259369
0.077626 0.000071 0.258149
0.078610 0.000071 0.257419
0.079626 0.000070 0.256816
0.080452 0.000070 0.255629
0.081358 0.000069 0.254726
0.082241 0.000068 0.253779
0.083119 0.000068 0.252841
0.084007 0.000067 0.251960
0.084896 0.000067 0.251106
0.085838 0.000066 0.250428
0.086485 0.000066 0.248917
0.085965 0.000064 0.244131
0.084800 0.000062 0.237661
0.084990 0.000061 0.235103
0.085660 0.000060 0.233919
0.086753 0.000060 0.233903
0.087499 0.000060 0.232962
0.088217 0.000059 0.231966
0.089004 0.000059 0.231172
0.089808 0.000058 0.230434
0.090646 0.000058 0.229798
0.091518 0.000057 0.229259
0.092187 0.000057 0.228223
0.092671 0.000056 0.226754
0.093617 0.000055 0.226431
0.094375 0.000055 0.225663
0.094970 0.000054 0.224518
0.095758 0.000054 0.223847
0.096437 0.000053 0.222931
0.097194 0.000053 0.222207
0.097720 0.000052 0.220970
0.098487 0.000052 0.220290
0.099201 0.000051 0.219502
0.099902 0.000051 0.218694
0.100628 0.000050 0.217950
0.101262 0.000050 0.217015
0.101972 0.000049 0.216254
0.102713 0.000048 0.215564
0.103260 0.000048 0.214475
0.103720 0.000047 0.213220
0.104222 0.000047 0.212066
0.104713 0.000046 0.210905
0.105137 0.000045 0.209622
0.105851 0.000045 0.208925
0.106506 0.000044 0.208116
0.107099 0.000044 0.207191
0.107777 0.000043 0.206436
-1.605829 0.015709 3.179233
-1.593285 0.015739 3.185537
-1.586877 0.015830 3.204210
-1.584615 0.015965 3.231569
-1.582716 0.016106 3.260090
-1.571435 0.016153 3.269536
-1.571347 0.016317 3.302569
-0.694142 0.007282 1.473828
-0.692606 0.007342 1.485706
-0.696177 0.007457 1.508849
-0.694964 0.007523 1.521949
-0.691908 0.007570 1.531200
-0.688192 0.007611 1.539124
-0.684482 0.007652 1.547185
-0.678954 0.007674 1.551226
-0.671259 0.007672 1.550308
-0.662502 0.007657 1.546851
-0.653881 0.007643 1.543602
-0.645330 0.007630 1.540414
-0.637116 0.007620 1.537934
-0.628216 0.007602 1.533694
-0.618802 0.007577 1.528055
-0.610720 0.007568 1.525587
-0.601786 0.007548 1.520882
-0.591612 0.007512 1.512874
-0.584791 0.007517 1.513328
-0.576579 0.007505 1.510130
-0.568675 0.007496 1.507650
-0.561921 0.007503 1.508182
-0.553436 0.007486 1.504005
-0.544147 0.007457 1.497500
-0.533518 0.007409 1.487080
-0.521476 0.007340 1.472391
-0.505494 0.007213 1.446034
-0.495642 0.007170 1.436739
-0.483846 0.007098 1.421477
-0.458817 0.006827 1.366384
-0.460417 0.006950 1.390165
-0.323582 0.005184 1.034401
-0.318236 0.005178 1.032482
-0.313564 0.005183 1.032727
-0.309504 0.005197 1.035034
-0.304790 0.005202 1.035199
-0.300035 0.005205 1.035235
-0.295336 0.005210 1.035479
-0.290572 0.005214 1.035506
-0.285617 0.005214 1.034855
-0.280673 0.005214 1.034237
-0.276097 0.005221 1.034987
-0.270756 0.005214 1.032863
-0.265282 0.005204 1.030161
-0.260802 0.005213 1.031304
-0.049779 0.001320 0.258911
-0.047919 0.001303 0.255482
-0.046470 0.001297 0.254135
-0.045017 0.001291 0.252701
-0.043736 0.001289 0.252187
-0.042082 0.001276 0.249445
-0.040279 0.001257 0.245644
-0.038711 0.001245 0.243100
-0.037310 0.001237 0.241490
-0.035855 0.001227 0.239425
-0.034615 0.001224 0.238718
-0.033186 0.001214 0.236627
-0.031909 0.001209 0.235520
-0.030503 0.001199 0.233358
-0.029068 0.001186 0.230812
-0.027867 0.001183 0.230002
-0.026517 0.001172 0.227855
-0.024720 0.001140 0.221530
-0.023714 0.001143 0.222058
-0.022877 0.001155 0.224301
-0.022082 0.001171 0.227209
-0.021124 0.001179 0.228657
-0.020115 0.001185 0.229703
-0.019072 0.001189 0.230479
-0.018013 0.001193 0.231153
-0.017028 0.001202 0.232936
-0.015921 0.001204 0.233200
-0.014828 0.001207 0.233728
-0.013746 0.001212 0.234550
-0.012650 0.001216 0.235290
-0.011525 0.001218 0.235591
-0.010415 0.001222 0.236290
-0.009295 0.001225 0.236962
-0.008178 0.001231 0.237911
-0.007044 0.001234 0.238582
-0.005915 0.001241 0.239777
-0.004764 0.001244 0.240459
-0.003604 0.001248 0.241039
-0.002440 0.001252 0.241802
-0.001267 0.001254 0.242301
-0.000090 0.001258 0.242990
0.001094 0.001260 0.243473
0.002283 0.001263 0.243981
0.003477 0.001266 0.244539
0.004706 0.001277 0.246609
0.005932 0.001282 0.247719
0.007132 0.001281 0.247557
0.008354 0.001284 0.248106
0.009587 0.001288 0.248806
0.010805 0.001289 0.249018
0.012039 0.001291 0.249514
0.013274 0.001293 0.249944
0.014481 0.001292 0.249840
0.015731 0.001295 0.250435
0.016975 0.001297 0.250860
0.018197 0.001297 0.250941
0.019438 0.001299 0.251258
0.020708 0.001302 0.251908
0.021976 0.001304 0.252473
0.023270 0.001308 0.253264
0.024521 0.001309 0.253531
0.025788 0.001311 0.253955
0.027099 0.001314 0.254748
0.028327 0.001314 0.254743
0.029680 0.001319 0.255828
0.031119 0.001327 0.257539
0.032568 0.001335 0.259211
0.034080 0.001345 0.261242
0.035140 0.001337 0.259805
0.036286 0.001333 0.259085
0.037815 0.001342 0.261066
0.039129 0.001344 0.261489
0.040502 0.001347 0.262274
0.042014 0.001355 0.263898
0.043336 0.001356 0.264275
0.044715 0.001359 0.264969
0.046084 0.001362 0.265579
0.047512 0.001366 0.266496
0.048849 0.001367 0.266874
0.050188 0.001368 0.267248
0.051600 0.001371 0.267990
0.053278 0.001381 0.270054
0.055327 0.001400 0.273859
0.057054 0.001409 0.275941
0.058379 0.001409 0.276034
0.059614 0.001407 0.275710
0.061017 0.001408 0.276170
0.062389 0.001409 0.276474
0.063761 0.001410 0.276773
0.065206 0.001412 0.277374
0.065263 0.001384 0.272167
0.067805 0.001410 0.277333
0.069106 0.001409 0.277322
0.068447 0.001369 0.269598
0.068727 0.001349 0.265790
0.069519 0.001339 0.264062
0.070545 0.001334 0.263272
0.071680 0.001332 0.262914
0.072742 0.001328 0.262304
0.073738 0.001323 0.261482
0.074760 0.001319 0.260783
0.075733 0.001314 0.259935
0.076675 0.001308 0.259012
0.077450 0.001300 0.257564
0.078542 0.001298 0.257197
0.079523 0.001293 0.256488
0.080523 0.001289 0.255856
0.081413 0.001284 0.254901
0.082332 0.001279 0.254063
0.083186 0.001273 0.253047
0.084051 0.001268 0.252096
0.085018 0.001264 0.251468
0.085974 0.001260 0.250826
0.086073 0.001244 0.247734
0.085592 0.001220 0.243074
0.084988 0.001195 0.238187
0.085474 0.001185 0.236443
0.085897 0.001175 0.234568
0.086913 0.001174 0.234338
0.087641 0.001168 0.233341
0.088296 0.001162 0.232175
0.089118 0.001158 0.231467
0.089943 0.001154 0.230783
0.090784 0.001150 0.230150
0.091674 0.001148 0.229648
0.092427 0.001143 0.228818
0.093273 0.001140 0.228228
0.094105 0.001136 0.227613
0.094661 0.001130 0.226346
0.095241 0.001123 0.225160
0.095772 0.001117 0.223880
0.096543 0.001113 0.223175
0.097213 0.001108 0.222250
0.097835 0.001103 0.221229
0.098483 0.001098 0.220282
0.099242 0.001094 0.219594
0.100036 0.001091 0.218988
0.100599 0.001086 0.217888
0.101402 0.001083 0.217316
0.102095 0.001079 0.216515
0.102676 0.001074 0.215487
0.103426 0.001071 0.214821
0.103939 0.001065 0.213671
0.104440 0.001059 0.212511
0.104751 0.001052 0.210980
0.105136 0.001045 0.209620
0.105712 0.001041 0.208651
0.106330 0.001036 0.207771
0.106902 0.001032 0.206810
0.107390 0.001027 0.205694
-1.585630 0.030354 3.139234
-1.619905 0.031307 3.238750
-1.592836 0.031082 3.216235
-1.582010 0.031172 3.226250
-1.578268 0.031405 3.250923
-1.571393 0.031580 3.269444
-1.571304 0.031895 3.302476
-1.558297 0.031952 3.308633
-0.686240 0.014215 1.472052
-0.688740 0.014414 1.492732
-0.693071 0.014656 1.517806
-0.691402 0.014775 1.530083
-0.688334 0.014867 1.539445
-0.684003 0.014932 1.546106
-0.678521 0.014974 1.550240
-0.672686 0.015008 1.553608
-0.664100 0.014981 1.550589
-0.656324 0.014972 1.549376
-0.647965 0.014949 1.546712
-0.638169 0.014892 1.540483
-0.630565 0.014886 1.539436
-0.622084 0.014858 1.536170
-0.613049 0.014816 1.531414
-0.604545 0.014786 1.527866
-0.596119 0.014757 1.524409
-0.587511 0.014723 1.520378
-0.579837 0.014711 1.518674
-0.572922 0.014719 1.518922
-0.563722 0.014667 1.513029
-0.554997 0.014627 1.508261
-0.545177 0.014556 1.500348
-0.534819 0.014469 1.490721
-0.516879 0.014171 1.459424
-0.507381 0.014100 1.451448
-0.501424 0.014126 1.453516
-0.323568 0.010088 1.034369
-0.318068 0.010070 1.031949
-0.313265 0.010073 1.031757
-0.309153 0.010099 1.033873
-0.304783 0.010118 1.035189
-0.299832 0.010117 1.034549
-0.295218 0.010128 1.035078
-0.290458 0.010134 1.035116
-0.285416 0.010131 1.034145
-0.280362 0.010126 1.033107
-0.275668 0.010135 1.033398
-0.270441 0.010124 1.031679
-0.264684 0.010093 1.027856
-0.049481 0.002548 0.257366
-0.047935 0.002532 0.255572
-0.046654 0.002529 0.255148
-0.045142 0.002513 0.253408
-0.043665 0.002498 0.251782
-0.041488 0.002441 0.245926
-0.039830 0.002413 0.242911
-0.038585 0.002408 0.242311
-0.037392 0.002406 0.242029
-0.035986 0.002390 0.240306
-0.034306 0.002355 0.236594
-0.032973 0.002341 0.235120
-0.031889 0.002345 0.235382
-0.030656 0.002338 0.234532
-0.029254 0.002316 0.232294
-0.027892 0.002297 0.230211
-0.026706 0.002290 0.229485
-0.024877 0.002226 0.222943
-0.023612 0.002208 0.221103
-0.022889 0.002242 0.224423
-0.021917 0.002254 0.225518
-0.021160 0.002290 0.229060
-0.020155 0.002302 0.230173
-0.019131 0.002313 0.231191
-0.018074 0.002322 0.231943
-0.016987 0.002327 0.232378
-0.015888 0.002331 0.232723
-0.014829 0.002342 0.233756
-0.013739 0.002349 0.234440
-0.012642 0.002357 0.235144
-0.011523 0.002361 0.235540
-0.010406 0.002367 0.236098
-0.009280 0.002373 0.236577
-0.008160 0.002381 0.237389
-0.007038 0.002392 0.238411
-0.005902 0.002401 0.239280
-0.004759 0.002411 0.240249
-0.003599 0.002416 0.240745
-0.002435 0.002422 0.241318
-0.001265 0.002428 0.241851
-0.000089 0.002436 0.242618
0.001092 0.002440 0.243042
0.002279 0.002446 0.243615
0.003480 0.002457 0.244721
0.004696 0.002471 0.246097
0.005907 0.002477 0.246698
0.007135 0.002486 0.247683
0.008352 0.002490 0.248038
0.009572 0.002493 0.248420
0.010804 0.002499 0.248991
0.012033 0.002503 0.249386
0.013292 0.002511 0.250290
0.014506 0.002511 0.250268
0.015714 0.002509 0.250173
0.016981 0.002517 0.250962
0.018222 0.002520 0.251297
0.019435 0.002518 0.251225
0.020765 0.002532 0.252601
0.022016 0.002534 0.252938
0.023258 0.002536 0.253139
0.024521 0.002539 0.253545
0.025792 0.002543 0.253993
0.027043 0.002544 0.254230
0.028395 0.002555 0.255360
0.029604 0.002552 0.255170
0.031069 0.002571 0.257132
0.032407 0.002578 0.257930
0.033723 0.002583 0.258511
0.034933 0.002579 0.258280
0.036430 0.002597 0.260118
0.037694 0.002597 0.260235
0.039008 0.002600 0.260685
0.040389 0.002608 0.261550
0.041997 0.002629 0.263796
0.043334 0.002633 0.264264
0.044656 0.002635 0.264627
0.046086 0.002644 0.265597
0.047457 0.002648 0.266193
0.048906 0.002657 0.267193
0.050284 0.002661 0.267765
0.051637 0.002664 0.268187
0.053149 0.002675 0.269403
0.055267 0.002715 0.273569
0.056894 0.002730 0.275173
0.058401 0.002738 0.276141
0.059571 0.002730 0.275516
0.060938 0.002732 0.275817
0.062379 0.002737 0.276434
0.063783 0.002740 0.276876
0.065049 0.002737 0.276714
0.066270 0.002732 0.276375
0.067529 0.002729 0.276208
0.068820 0.002727 0.276179
0.069264 0.002692 0.272820
0.069010 0.002633 0.266889
0.069716 0.002611 0.264816
0.070661 0.002599 0.263709
0.071765 0.002593 0.263228
0.072904 0.002588 0.262890
0.073899 0.002578 0.262056
0.074832 0.002567 0.261037
0.075795 0.002557 0.260152
0.076840 0.002550 0.259574
0.077563 0.002533 0.257942
0.078650 0.002528 0.257557
0.079692 0.002522 0.257036
0.080576 0.002511 0.256029
0.081570 0.002503 0.255396
0.082500 0.002494 0.254583
0.083421 0.002485 0.253764
0.084261 0.002474 0.252728
0.085102 0.002463 0.251718
0.086079 0.002456 0.251135
0.086670 0.002439 0.249452
0.087000 0.002415 0.247075
0.085107 0.002330 0.238523
0.085618 0.002313 0.236844
0.086133 0.002296 0.235213
0.086993 0.002289 0.234554
0.087670 0.002278 0.233421
0.088380 0.002267 0.232398
0.089219 0.002260 0.231732
0.090062 0.002253 0.231090
0.090779 0.002243 0.230137
0.091605 0.002236 0.229478
0.092476 0.002231 0.228939
0.093281 0.002223 0.228248
0.094086 0.002216 0.227567
0.094717 0.002206 0.226481
0.095279 0.002193 0.225251
0.096094 0.002187 0.224632
0.096652 0.002175 0.223429
0.097451 0.002169 0.222796
0.098074 0.002159 0.221770
0.098671 0.002149 0.220702
0.099440 0.002142 0.220032
0.100077 0.002133 0.219078
0.100808 0.002126 0.218340
0.101641 0.002121 0.217828
0.102291 0.002113 0.216929
0.103000 0.002106 0.216166
0.103531 0.002095 0.215037
0.104186 0.002087 0.214179
0.104727 0.002077 0.213094
0.105208 0.002066 0.211900
0.105258 0.002047 0.209861
0.105636 0.002035 0.208500
0.106332 0.002029 0.207775
0.106994 0.002022 0.206986
0.107526 0.002013 0.205952
-1.581509 0.045078 3.131050
-1.576131 0.045353 3.151208
-1.580267 0.045910 3.190834
-1.569041 0.046026 3.199785
-1.567052 0.046418 3.227805
-1.563712 0.046777 3.253451
-1.554630 0.046970 3.267421
-1.552406 0.047376 3.296116
-1.553877 0.047904 3.333210
-1.546072 0.048154 3.350856
-0.686364 0.021599 1.503118
-0.683731 0.021742 1.513108
-0.680974 0.021884 1.522985
-0.681413 0.022133 1.540255
-0.676066 0.022197 1.544634
-0.672117 0.022309 1.552300
-0.667240 0.022392 1.557924
-0.660216 0.022404 1.558570
-0.652153 0.022381 1.556715
-0.643364 0.022332 1.553034
-0.634547 0.022280 1.549167
-0.626012 0.022237 1.545880
-0.617814 0.022206 1.543331
-0.609227 0.022159 1.539711
-0.599459 0.022068 1.532965
-0.591449 0.022040 1.530582
-0.582893 0.021991 1.526694
-0.573531 0.021909 1.520553
-0.564129 0.021824 1.514138
-0.554094 0.021712 1.505827
-0.544575 0.021617 1.498711
-0.531430 0.021374 1.481293
-0.525380 0.021413 1.483449
-0.317832 0.014953 1.031207
-0.311692 0.014894 1.026598
-0.307878 0.014945 1.029633
-0.304279 0.015009 1.033500
-0.299024 0.014992 1.031784
-0.294590 0.015017 1.032901
-0.289685 0.015017 1.032385
-0.285211 0.015041 1.033426
-0.280068 0.015029 1.032052
-0.274016 0.014967 1.027233
-0.269275 0.014976 1.027258
-0.264552 0.014986 1.027370
-0.049476 0.003783 0.257351
-0.047880 0.003755 0.255292
-0.046498 0.003743 0.254304
-0.045116 0.003729 0.253271
-0.043810 0.003722 0.252627
-0.042345 0.003700 0.251017
-0.040500 0.003643 0.247005
-0.038782 0.003594 0.243562
-0.037548 0.003588 0.243048
-0.036367 0.003587 0.242861
-0.035134 0.003581 0.242319
-0.033156 0.003495 0.236433
-0.031850 0.003477 0.235103
-0.030794 0.003486 0.235602
-0.029272 0.003441 0.232448
-0.027917 0.003413 0.230433
-0.026646 0.003392 0.228980
-0.025166 0.003343 0.225546
-0.023802 0.003305 0.222901
-0.022996 0.003345 0.225480
-0.022014 0.003361 0.226528
-0.021218 0.003409 0.229695
-0.020124 0.003413 0.229825
-0.019053 0.003420 0.230264
-0.018005 0.003433 0.231060
-0.016958 0.003448 0.231996
-0.015880 0.003458 0.232616
-0.014808 0.003471 0.233429
-0.013715 0.003481 0.234049
-0.012610 0.003490 0.234555
-0.011500 0.003498 0.235084
-0.010404 0.003514 0.236063
-0.009291 0.003526 0.236880
-0.008163 0.003536 0.237477
-0.007036 0.003549 0.238341
-0.005917 0.003573 0.239903
-0.004759 0.003578 0.240230
-0.003596 0.003583 0.240503
-0.002435 0.003595 0.241308
-0.001265 0.003604 0.241889
-0.000089 0.003613 0.242498
0.001092 0.003621 0.243019
0.002277 0.003626 0.243325
0.003482 0.003649 0.244893
0.004694 0.003665 0.245983
0.005945 0.003700 0.248289
0.007146 0.003696 0.248062
0.008362 0.003700 0.248347
0.009592 0.003709 0.248947
0.010816 0.003713 0.249274
0.012063 0.003724 0.250018
0.013299 0.003730 0.250431
0.014512 0.003729 0.250392
0.015756 0.003735 0.250837
0.016994 0.003739 0.251163
0.018225 0.003741 0.251337
0.019443 0.003740 0.251341
0.020681 0.003743 0.251598
0.021930 0.003747 0.251949
0.023300 0.003771 0.253600
0.024563 0.003776 0.253981
0.025815 0.003778 0.254232
0.027075 0.003782 0.254543
0.028359 0.003788 0.255047
0.029738 0.003806 0.256335
0.031015 0.003810 0.256694
0.032328 0.003818 0.257312
0.033634 0.003824 0.257840
0.034959 0.003833 0.258483
0.036331 0.003845 0.259423
0.037585 0.003845 0.259490
0.038912 0.003851 0.260056
0.040292 0.003863 0.260931
0.041955 0.003900 0.263538
0.043292 0.003905 0.264021
0.044712 0.003918 0.264967
0.046043 0.003922 0.265358
0.047467 0.003933 0.266259
0.048898 0.003945 0.267157
0.050213 0.003947 0.267399
0.051550 0.003950 0.267746
0.052920 0.003956 0.268254
0.055418 0.004043 0.274324
0.056895 0.004054 0.275186
0.058349 0.004063 0.275904
0.059550 0.004054 0.275428
0.060898 0.004055 0.275644
0.062262 0.004057 0.275926
0.063622 0.004059 0.276182
0.064977 0.004060 0.276412
0.066285 0.004059 0.276443
0.067538 0.004054 0.276253
0.068805 0.004050 0.276127
0.069872 0.004035 0.275222
0.069733 0.003952 0.269691
0.069892 0.003888 0.265488
0.070582 0.003856 0.263421
0.071662 0.003846 0.262855
0.072859 0.003843 0.262734
0.073792 0.003825 0.261684
0.074712 0.003808 0.260621
0.075719 0.003796 0.259896
0.076801 0.003787 0.259446
0.077747 0.003773 0.258561
0.078687 0.003758 0.257683
0.079664 0.003746 0.256948
0.080661 0.003735 0.256303
0.081585 0.003721 0.255448
0.082450 0.003705 0.254433
0.083310 0.003689 0.253432
0.084295 0.003679 0.252831
0.085061 0.003659 0.251602
0.086114 0.003653 0.251240
0.086798 0.003631 0.249826
0.087332 0.003604 0.248020
0.085378 0.003476 0.239285
0.085465 0.003433 0.236422
0.085802 0.003401 0.234313
0.086780 0.003395 0.233981
0.087462 0.003378 0.232868
0.088332 0.003369 0.232274
0.089205 0.003360 0.231698
0.090026 0.003349 0.230999
0.090853 0.003339 0.230326
0.091712 0.003330 0.229747
0.092582 0.003321 0.229204
0.093336 0.003309 0.228385
0.093825 0.003288 0.226939
0.094514 0.003274 0.225995
0.095191 0.003260 0.225043
0.096016 0.003251 0.224451
0.096696 0.003238 0.223529
0.097507 0.003229 0.222922
0.098347 0.003221 0.222386
0.099021 0.003208 0.221486
0.099591 0.003192 0.220365
0.100403 0.003184 0.219791
0.101042 0.003171 0.218847
0.101636 0.003157 0.217817
0.102361 0.003147 0.217077
0.102914 0.003132 0.215983
0.103416 0.003115 0.214798
0.104083 0.003104 0.213965
0.104508 0.003086 0.212646
0.104952 0.003069 0.211383
0.105104 0.003044 0.209552
0.105580 0.003028 0.208386
0.106328 0.003021 0.207765
0.106895 0.003008 0.206793
0.107214 0.002989 0.205353
-1.586292 0.060063 3.140481
-1.597761 0.061072 3.194418
-1.583242 0.061097 3.196809
-1.570313 0.061185 3.202350
-1.567497 0.061671 3.228694
-1.559982 0.061981 3.245666
-1.558064 0.062522 3.274619
-1.548746 0.062773 3.288328
-1.553781 0.063616 3.332992
-1.545975 0.063946 3.350637
-0.677259 0.028304 1.483175
-0.681533 0.028781 1.508240
-0.682413 0.029123 1.526204
-0.680729 0.029361 1.538710
-0.679839 0.029640 1.553258
-0.674655 0.029735 1.558164
-0.670052 0.029858 1.564498
-0.664449 0.029938 1.568570
-0.655332 0.029861 1.564314
-0.647686 0.029849 1.563475
-0.639000 0.029788 1.560049
-0.630652 0.029742 1.557350
-0.621924 0.029677 1.553610
-0.613799 0.029639 1.551282
-0.605571 0.029595 1.548612
-0.595585 0.029463 1.541305
-0.586497 0.029373 1.536153
-0.577330 0.029276 1.530646
-0.567224 0.029129 1.522467
-0.559197 0.029086 1.519719
-0.552601 0.029117 1.520825
-0.543296 0.029004 1.514397
-0.317801 0.019842 1.031134
-0.312535 0.019818 1.029404
-0.308165 0.019852 1.030621
-0.303339 0.019856 1.030337
-0.298897 0.019886 1.031379
-0.294237 0.019903 1.031695
-0.288965 0.019878 1.029855
-0.283629 0.019847 1.027730
-0.278736 0.019847 1.027175
-0.274605 0.019902 1.029476
-0.269168 0.019863 1.026887
-0.264716 0.019896 1.028043
-0.049470 0.005018 0.257331
-0.048129 0.005007 0.256631
-0.046524 0.004968 0.254459
-0.045048 0.004940 0.252904
-0.043762 0.004932 0.252366
-0.042522 0.004929 0.252080
-0.040718 0.004858 0.248346
-0.039147 0.004812 0.245864
-0.037665 0.004774 0.243813
-0.036399 0.004762 0.243092
-0.035007 0.004732 0.241454
-0.033095 0.004628 0.236007
-0.032017 0.004637 0.236351
-0.030835 0.004630 0.235926
-0.029281 0.004566 0.232529
-0.027908 0.004525 0.230367
-0.026764 0.004520 0.230006
-0.025235 0.004446 0.226178
-0.024019 0.004424 0.224943
-0.022985 0.004434 0.225389
-0.021961 0.004448 0.225996
-0.021074 0.004492 0.228157
-0.020117 0.004525 0.229766
-0.019054 0.004537 0.230289
-0.017978 0.004547 0.230738
-0.016933 0.004567 0.231668
-0.015921 0.004599 0.233234
-0.014823 0.004609 0.233692
-0.013719 0.004619 0.234140
-0.012618 0.004632 0.234736
-0.011506 0.004642 0.235224
-0.010400 0.004659 0.236005
-0.009279 0.004671 0.236577
-0.008148 0.004681 0.237069
-0.007015 0.004693 0.237644
-0.005882 0.004711 0.238501
-0.004754 0.004742 0.240026
-0.003596 0.004753 0.240558
-0.002433 0.004765 0.241160
-0.001264 0.004778 0.241814
-0.000089 0.004790 0.242384
0.001092 0.004802 0.242977
0.002277 0.004809 0.243354
0.003488 0.004847 0.245275
0.004693 0.004861 0.245951
0.005934 0.004898 0.247833
0.007150 0.004905 0.248201
0.008392 0.004925 0.249268
0.009632 0.004939 0.249991
0.010853 0.004942 0.250148
0.012058 0.004937 0.249920
0.013319 0.004954 0.250820
0.014538 0.004954 0.250848
0.015721 0.004942 0.250296
0.017004 0.004962 0.251323
0.018230 0.004963 0.251426
0.019446 0.004961 0.251388
0.020700 0.004969 0.251840
0.021971 0.004980 0.252441
0.023278 0.004997 0.253371
0.024542 0.005003 0.253778
0.025863 0.005021 0.254718
0.027128 0.005026 0.255050
0.028420 0.005035 0.255607
0.029730 0.005047 0.256279
0.031115 0.005070 0.257532
0.032433 0.005081 0.258160
0.033741 0.005089 0.258669
0.035123 0.005107 0.259703
0.036374 0.005106 0.259739
0.037659 0.005110 0.260012
0.039003 0.005121 0.260673
0.040345 0.005131 0.261286
0.041760 0.005149 0.262329
0.043280 0.005179 0.263955
0.044686 0.005194 0.264822
0.046185 0.005218 0.266192
0.047538 0.005226 0.266669
0.048893 0.005233 0.267142
0.050182 0.005232 0.267241
0.051605 0.005245 0.268042
0.053103 0.005266 0.269189
0.055007 0.005324 0.272300
0.056785 0.005368 0.274663
0.058340 0.005389 0.275875
0.059696 0.005391 0.276116
0.060923 0.005382 0.275766
0.062298 0.005386 0.276093
0.063651 0.005387 0.276318
0.064949 0.005385 0.276304
0.066184 0.005377 0.276031
0.067506 0.005376 0.276129
0.068747 0.005369 0.275902
0.069772 0.005346 0.274837
0.069608 0.005234 0.269215
0.069928 0.005162 0.265636
0.070760 0.005130 0.264091
0.071740 0.005109 0.263151
0.072901 0.005102 0.262894
0.073882 0.005082 0.262011
0.074754 0.005056 0.260775
0.075805 0.005043 0.260199
0.076806 0.005026 0.259470
0.077722 0.005005 0.258483
0.078720 0.004990 0.257796
0.079715 0.004975 0.257118
0.080635 0.004955 0.256226
0.081529 0.004935 0.255276
0.082489 0.004919 0.254558
0.083427 0.004903 0.253793
0.084334 0.004885 0.252955
0.085267 0.004869 0.252217
0.086262 0.004857 0.251675
0.086824 0.004821 0.249904
0.086183 0.004720 0.244759
0.085934 0.004643 0.240847
0.086192 0.004595 0.238438
0.086542 0.004554 0.236336
0.086882 0.004513 0.234260
0.087676 0.004496 0.233440
0.088419 0.004477 0.232504
0.089256 0.004463 0.231833
0.090125 0.004451 0.231255
0.090825 0.004431 0.230257
0.091609 0.004416 0.229491
0.092442 0.004403 0.228858
0.093135 0.004384 0.227894
0.093901 0.004369 0.227123
0.094630 0.004352 0.226276
0.095409 0.004338 0.225559
0.096094 0.004320 0.224633
0.096682 0.004298 0.223499
0.097459 0.004285 0.222812
0.097975 0.004261 0.221546
0.098715 0.004247 0.220800
0.099568 0.004238 0.220313
0.100163 0.004219 0.219263
0.100877 0.004205 0.218486
0.101583 0.004190 0.217702
0.102381 0.004180 0.217118
0.103090 0.004166 0.216350
0.103534 0.004142 0.215039
0.104321 0.004133 0.214450
0.104810 0.004111 0.213259
0.105158 0.004085 0.211795
0.105379 0.004054 0.210098
0.105844 0.004033 0.208905
0.106446 0.004017 0.207992
0.107108 0.004004 0.207200
0.107695 0.003989 0.206271
-1.597172 0.075425 3.161966
-1.584691 0.075545 3.168237
-1.582790 0.076176 3.195851
-1.592669 0.077392 3.247898
-1.592934 0.078160 3.281053
-1.610101 0.079780 3.349907
-1.574461 0.078790 3.309052
-1.577179 0.079718 3.348674
-1.560664 0.079683 3.347735
-1.565480 0.080748 3.392892
-1.552098 0.080886 3.399031
-0.687981 0.036228 1.522508
-0.681969 0.036291 1.525209
-0.692538 0.037247 1.565402
-0.686345 0.037312 1.568125
-0.684441 0.037614 1.580770
-0.679955 0.037779 1.587626
-0.675904 0.037972 1.595621
-0.667107 0.037900 1.592431
-0.657593 0.037786 1.587402
-0.647469 0.037633 1.580741
-0.637457 0.037482 1.574170
-0.629025 0.037423 1.571366
-0.620058 0.037329 1.567119
-0.609694 0.037149 1.559177
-0.599629 0.036982 1.551792
-0.589778 0.036824 1.544770
-0.580497 0.036698 1.539070
-0.568176 0.036375 1.525051
-0.559979 0.036310 1.521872
-0.548835 0.036051 1.510491
-0.543237 0.036153 1.514264
-0.312496 0.024699 1.029310
-0.306943 0.024646 1.026573
-0.301286 0.024582 1.023403
-0.295978 0.024545 1.021344
-0.293862 0.024775 1.030421
-0.289462 0.024818 1.031665
-0.049260 0.006387 0.262676
-0.046191 0.006146 0.252654
-0.044850 0.006129 0.251807
-0.043544 0.006115 0.251122
-0.042251 0.006103 0.250490
-0.040536 0.006027 0.247255
-0.038959 0.005968 0.244701
-0.037645 0.005946 0.243702
-0.036403 0.005935 0.243135
-0.035116 0.005916 0.242224
-0.033734 0.005878 0.240581
-0.032596 0.005882 0.240639
-0.031438 0.005883 0.240560
-0.030142 0.005856 0.239386
-0.029015 0.005862 0.239525
-0.026529 0.005583 0.228008
-0.025342 0.005564 0.227155
-0.024094 0.005530 0.225664
-0.022983 0.005525 0.225391
-0.022012 0.005555 0.226534
-0.021205 0.005632 0.229586
-0.020154 0.005649 0.230201
-0.019058 0.005654 0.230358
-0.017998 0.005672 0.231014
-0.016932 0.005690 0.231677
-0.015841 0.005701 0.232074
-0.014764 0.005720 0.232777
-0.013670 0.005735 0.233324
-0.012583 0.005755 0.234106
-0.011490 0.005777 0.234926
-0.010370 0.005788 0.235331
-0.009309 0.005839 0.237379
-0.008167 0.005847 0.237657
-0.007037 0.005867 0.238413
-0.005894 0.005882 0.238995
-0.004745 0.005897 0.239579
-0.003590 0.005912 0.240183
-0.002429 0.005929 0.240825
-0.001263 0.005947 0.241546
-0.000089 0.005959 0.242040
0.001091 0.005978 0.242773
0.002276 0.005988 0.243202
0.003489 0.006041 0.245347
0.004688 0.006049 0.245665
0.005897 0.006064 0.246272
0.007111 0.006078 0.246849
0.008344 0.006102 0.247837
0.009568 0.006114 0.248347
0.010825 0.006142 0.249504
0.012063 0.006154 0.250055
0.013301 0.006165 0.250503
0.014547 0.006176 0.251010
0.015773 0.006179 0.251148
0.017012 0.006185 0.251451
0.018285 0.006202 0.252200
0.019509 0.006202 0.252226
0.020853 0.006237 0.253718
0.022134 0.006251 0.254320
0.023394 0.006257 0.254656
0.024660 0.006265 0.255020
0.025923 0.006270 0.255323
0.027172 0.006273 0.255479
0.028507 0.006293 0.256405
0.029871 0.006319 0.257512
0.031108 0.006316 0.257489
0.032460 0.006336 0.258393
0.033799 0.006352 0.259131
0.035066 0.006354 0.259299
0.036347 0.006358 0.259562
0.037730 0.006379 0.260522
0.039092 0.006396 0.261281
0.040592 0.006433 0.262904
0.042040 0.006460 0.264104
0.043419 0.006475 0.264821
0.044720 0.006477 0.265043
0.046105 0.006492 0.265742
0.047494 0.006506 0.266436
0.048863 0.006517 0.266988
0.050239 0.006528 0.267557
0.051643 0.006542 0.268256
0.053118 0.006564 0.269282
0.055301 0.006670 0.273771
0.056822 0.006694 0.274856
0.058252 0.006706 0.275471
0.059538 0.006701 0.275395
0.060892 0.006704 0.275640
0.062221 0.006703 0.275767
0.063585 0.006707 0.276042
0.064879 0.006703 0.276019
0.066161 0.006699 0.275948
0.067413 0.006691 0.275759
0.068642 0.006681 0.275491
0.069724 0.006658 0.274659
0.070247 0.006583 0.271697
0.070064 0.006446 0.266161
0.070866 0.006403 0.264500
0.071696 0.006364 0.262998
0.072830 0.006352 0.262646
0.073938 0.006339 0.262216
0.074846 0.006310 0.261105
0.075813 0.006286 0.260232
0.076864 0.006270 0.259675
0.077752 0.006241 0.258590
0.078674 0.006216 0.257653
0.079525 0.006186 0.256516
0.080511 0.006167 0.255838
0.081456 0.006146 0.255053
0.082356 0.006122 0.254155
0.083408 0.006110 0.253742
0.084371 0.006091 0.253072
0.085301 0.006071 0.252322
0.086351 0.006060 0.251941
0.087071 0.006027 0.250619
0.087676 0.005986 0.249004
0.085670 0.005771 0.240112
0.085994 0.005716 0.237893
0.086553 0.005678 0.236370
0.087393 0.005659 0.235641
0.088227 0.005640 0.234910
0.089030 0.005620 0.234115
0.089730 0.005593 0.233067
0.090333 0.005562 0.231791
0.090883 0.005528 0.230405
0.091488 0.005498 0.229189
0.092270 0.005479 0.228434
0.092867 0.005450 0.227240
0.093631 0.005431 0.226471
0.094321 0.005408 0.225536
0.095287 0.005402 0.225271
0.096216 0.005393 0.224917
0.096927 0.005373 0.224065
0.097673 0.005355 0.223300
0.098494 0.005342 0.222718
0.099312 0.005328 0.222134
0.099711 0.005293 0.220627
0.100434 0.005275 0.219856
0.101055 0.005252 0.218871
0.101627 0.005228 0.217793
0.102357 0.005212 0.217065
0.103019 0.005192 0.216199
0.103494 0.005164 0.214955
0.104159 0.005146 0.214116
0.104855 0.005129 0.213347
