ply
format ascii 1.0
element vertex 1690
property float x
property float y
property float z
end_header
-0.417502 -0.517265 1.918795
-0.409221 -0.518259 1.922043
-0.401781 -0.520387 1.929488
-0.393539 -0.521552 1.933355
-0.385300 -0.522777 1.937441
-0.377755 -0.525028 1.945321
-0.369661 -0.526609 1.950714
-0.361818 -0.528637 1.957762
-0.353819 -0.530540 1.964341
-0.347260 -0.534765 1.979511
-0.340134 -0.538326 1.992218
-0.332822 -0.541788 2.004555
-0.326570 -0.547231 2.024218
-0.317259 -0.547723 2.025565
-0.017725 -0.063080 0.232477
-0.016516 -0.062693 0.231014
-0.015450 -0.062832 0.231491
-0.014346 -0.062824 0.231430
-0.014303 -0.067854 0.249925
-0.013052 -0.067544 0.248750
-0.011674 -0.066448 0.244685
-0.010221 -0.064635 0.237982
-0.009104 -0.064760 0.238417
-0.008001 -0.065042 0.239431
-0.006868 -0.065120 0.239696
-0.005755 -0.065467 0.240951
-0.004617 -0.065631 0.241536
-0.003470 -0.065735 0.241903
-0.002320 -0.065870 0.242384
-0.001174 -0.066489 0.244650
-0.000007 -0.066614 0.245096
0.001165 -0.066722 0.245487
0.002344 -0.066935 0.246260
0.003537 -0.067265 0.247469
0.004738 -0.067536 0.248463
0.005947 -0.067798 0.249425
0.007155 -0.067954 0.249998
0.008376 -0.068180 0.250834
0.009596 -0.068340 0.251425
0.010830 -0.068546 0.252190
0.012063 -0.068714 0.252815
0.013317 -0.068953 0.253704
0.014593 -0.069261 0.254848
0.015857 -0.069468 0.255622
0.017113 -0.069609 0.256159
0.018405 -0.069873 0.257145
0.019702 -0.070116 0.258061
0.020984 -0.070282 0.258693
0.022259 -0.070409 0.259181
0.023533 -0.070521 0.259615
0.024827 -0.070675 0.260209
0.026145 -0.070879 0.260988
0.027540 -0.071265 0.262437
0.028920 -0.071582 0.263632
0.030222 -0.071685 0.264044
0.031531 -0.071795 0.264482
0.032868 -0.071960 0.265125
0.034323 -0.072359 0.266630
0.035683 -0.072538 0.267324
0.037086 -0.072788 0.268284
0.038439 -0.072927 0.268833
0.039800 -0.073073 0.269410
0.041154 -0.073195 0.269901
0.042470 -0.073244 0.270123
0.043816 -0.073342 0.270524
0.045122 -0.073368 0.270660
0.046466 -0.073454 0.271018
0.047863 -0.073615 0.271656
0.049162 -0.073622 0.271723
0.050535 -0.073735 0.272184
0.051880 -0.073804 0.272480
0.053150 -0.073764 0.272376
0.054378 -0.073671 0.272073
0.055634 -0.073617 0.271916
0.056841 -0.073504 0.271541
0.057877 -0.073179 0.270378
0.058768 -0.072689 0.268608
0.059553 -0.072090 0.266433
0.060654 -0.071892 0.265737
0.061826 -0.071785 0.265377
0.062923 -0.071595 0.264711
0.063957 -0.071343 0.263813
0.065007 -0.071119 0.263014
0.066179 -0.071034 0.262731
0.067247 -0.070842 0.262049
0.068266 -0.070607 0.261205
0.069355 -0.070450 0.260650
0.070486 -0.070342 0.260273
0.071611 -0.070231 0.259882
0.072604 -0.069997 0.259035
0.073657 -0.069827 0.258419
0.074756 -0.069705 0.257983
0.075672 -0.069420 0.256937
0.076565 -0.069123 0.255846
0.077552 -0.068919 0.255094
0.078514 -0.068699 0.254282
0.079294 -0.068329 0.252909
0.079870 -0.067797 0.250936
0.080832 -0.067603 0.250209
0.081803 -0.067423 0.249529
0.082452 -0.066985 0.247894
0.083303 -0.066722 0.246901
0.083936 -0.066294 0.245293
0.084680 -0.065965 0.244045
0.085318 -0.065562 0.242524
0.085893 -0.065123 0.240864
0.086727 -0.064888 0.239955
0.086804 -0.064102 0.237001
0.086646 -0.063163 0.233483
0.086707 -0.062407 0.230632
0.086202 -0.061267 0.226362
0.086486 -0.060709 0.224238
0.086711 -0.060123 0.222007
0.087156 -0.059702 0.220384
0.087434 -0.059179 0.218374
0.088286 -0.059051 0.217820
0.088703 -0.058639 0.216213
0.088752 -0.057996 0.213749
0.089309 -0.057696 0.212545
0.089955 -0.057459 0.211568
0.090276 -0.057022 0.209850
0.090702 -0.056661 0.208403
0.091465 -0.056515 0.207746
0.092166 -0.056335 0.206953
0.092869 -0.056159 0.206172
0.093563 -0.055982 0.205380
0.094366 -0.055873 0.204828
0.095205 -0.055788 0.204357
0.096024 -0.055693 0.203841
0.096903 -0.055634 0.203450
0.097817 -0.055596 0.203127
0.098731 -0.055558 0.202796
0.099614 -0.055505 0.202399
0.100396 -0.055396 0.201790
0.101345 -0.055381 0.201513
0.102270 -0.055352 0.201178
0.103052 -0.055248 0.200557
0.103868 -0.055164 0.199998
0.104904 -0.055197 0.199851
0.105712 -0.055111 0.199261
-1.644690 -0.838685 3.122305
-1.628976 -0.838262 3.124350
-1.601141 -0.831537 3.102716
-1.608439 -0.843103 3.149193
-1.598159 -0.845587 3.161645
-1.588244 -0.848315 3.174877
-1.574906 -0.849249 3.181266
-1.562614 -0.850773 3.189728
-1.550198 -0.852258 3.197920
-1.540092 -0.855057 3.210919
-1.525663 -0.855488 3.214909
-1.514197 -0.857607 3.225121
-1.502966 -0.859904 3.235894
-1.489042 -0.860694 3.240882
-1.474674 -0.861240 3.244843
-1.465349 -0.864775 3.259963
-1.451864 -0.865905 3.265916
-1.452655 -0.875665 3.304335
-1.444379 -0.880114 3.322631
-1.451769 -0.894311 3.377660
-0.629089 -0.510770 1.935468
-0.620822 -0.511456 1.937955
-0.610830 -0.510721 1.935031
-0.598553 -0.508026 1.924655
-0.591255 -0.509538 1.930198
-0.579610 -0.507294 1.921488
-0.569534 -0.506373 1.917770
-0.561310 -0.507097 1.920263
-0.549486 -0.504540 1.910308
-0.540799 -0.504826 1.911106
-0.530199 -0.503307 1.905051
-0.520777 -0.502873 1.903089
-0.512994 -0.504034 1.907148
-0.504710 -0.504737 1.909459
-0.495914 -0.504943 1.909876
-0.485783 -0.503775 1.905080
-0.477724 -0.504751 1.908384
-0.469294 -0.505367 1.910311
-0.445126 -0.508648 1.921448
-0.436563 -0.509242 1.923254
-0.428930 -0.510969 1.929332
-0.420150 -0.511377 1.930418
-0.412104 -0.512716 1.935011
-0.403800 -0.513788 1.938593
-0.395820 -0.515334 1.943954
-0.387042 -0.515889 1.945573
-0.379843 -0.518627 1.955423
-0.372520 -0.521329 1.965129
-0.363271 -0.521406 1.964936
-0.355376 -0.523483 1.972275
-0.348604 -0.527371 1.986437
-0.340261 -0.529033 1.992209
-0.331925 -0.530802 1.998382
-0.325070 -0.535114 2.014127
-0.317683 -0.538784 2.027453
-0.309939 -0.542061 2.039298
-0.303524 -0.547947 2.060957
-0.018855 -0.062039 0.232668
-0.017756 -0.062070 0.232746
-0.016525 -0.061615 0.231004
-0.015331 -0.061243 0.229572
-0.014289 -0.061464 0.230370
-0.014329 -0.066769 0.250216
-0.012771 -0.064916 0.243241
-0.011444 -0.063979 0.239700
-0.010241 -0.063612 0.238297
-0.009131 -0.063796 0.238960
-0.007959 -0.063538 0.237969
-0.006908 -0.064324 0.240892
-0.005766 -0.064416 0.241216
-0.004623 -0.064524 0.241601
-0.003480 -0.064721 0.242322
-0.002328 -0.064842 0.242760
-0.001173 -0.065072 0.243606
-0.000009 -0.065271 0.244340
0.001162 -0.065532 0.245306
0.002341 -0.065729 0.246038
0.003536 -0.066108 0.247450
0.004737 -0.066380 0.248465
0.005946 -0.066623 0.249373
0.007166 -0.066889 0.250371
0.008377 -0.067012 0.250834
0.009591 -0.067119 0.251237
0.010831 -0.067369 0.252180
0.012072 -0.067570 0.252940
0.013337 -0.067860 0.254034
0.014597 -0.068078 0.254863
0.015878 -0.068351 0.255900
0.017116 -0.068411 0.256139
0.018424 -0.068726 0.257339
0.019720 -0.068960 0.258234
0.021000 -0.069111 0.258820
0.022290 -0.069277 0.259466
0.023591 -0.069460 0.260177
0.024872 -0.069566 0.260598
0.026196 -0.069780 0.261427
0.027574 -0.070107 0.262685
0.028937 -0.070372 0.263708
0.030279 -0.070565 0.264465
0.031586 -0.070664 0.264869
0.032949 -0.070876 0.265698
0.034297 -0.071042 0.266355
0.035725 -0.071354 0.267565
0.037083 -0.071510 0.268189
0.038533 -0.071828 0.269420
0.039824 -0.071838 0.269498
0.041164 -0.071932 0.269894
0.042553 -0.072104 0.270581
0.043857 -0.072126 0.270706
0.045184 -0.072184 0.270968
0.046518 -0.072249 0.271255
0.047898 -0.072379 0.271786
0.049315 -0.072558 0.272505
0.050616 -0.072560 0.272557
0.051948 -0.072607 0.272777
0.053268 -0.072635 0.272925
0.054505 -0.072550 0.272651
0.055764 -0.072497 0.272497
0.056993 -0.072409 0.272209
0.058038 -0.072097 0.271077
0.058810 -0.071467 0.268751
0.059680 -0.070979 0.266955
0.060501 -0.070455 0.265026
0.061646 -0.070322 0.264562
0.062850 -0.070260 0.264367
0.063889 -0.070020 0.263497
0.064909 -0.069768 0.262583
0.066102 -0.069708 0.262392
0.067262 -0.069616 0.262077
0.068344 -0.069449 0.261476
0.069436 -0.069297 0.260930
0.070639 -0.069260 0.260815
0.071692 -0.069079 0.260158
0.072711 -0.068871 0.259396
0.073710 -0.068653 0.258592
0.074684 -0.068418 0.257725
0.075786 -0.068306 0.257315
0.076578 -0.067924 0.255885
0.077560 -0.067718 0.255116
0.078515 -0.067496 0.254285
0.079399 -0.067221 0.253247
0.080202 -0.066886 0.251983
0.081062 -0.066608 0.250930
0.081887 -0.066309 0.249795
0.082683 -0.065996 0.248604
0.083448 -0.065667 0.247348
0.084056 -0.065226 0.245664
0.084601 -0.064747 0.243838
0.085201 -0.064325 0.242218
0.085698 -0.063836 0.240344
0.085456 -0.062817 0.236471
0.086455 -0.062725 0.236082
0.086961 -0.062282 0.234369
0.086182 -0.060941 0.229275
0.086084 -0.060110 0.226094
0.085998 -0.059307 0.223015
0.086889 -0.059190 0.222510
0.086736 -0.058373 0.219370
0.087683 -0.058306 0.219046
0.088223 -0.057975 0.217721
0.088577 -0.057529 0.215964
0.088655 -0.056917 0.213577
0.089305 -0.056682 0.212599
0.089720 -0.056304 0.211082
0.090311 -0.056044 0.210000
0.090841 -0.055752 0.208795
0.091480 -0.055533 0.207855
0.092314 -0.055436 0.207366
0.092988 -0.055245 0.206520
0.093676 -0.055067 0.205713
0.094378 -0.054901 0.204946
0.095145 -0.054775 0.204321
0.096095 -0.054757 0.204090
0.096818 -0.054610 0.203372
0.097633 -0.054518 0.202848
0.098493 -0.054453 0.202417
0.099368 -0.054397 0.202012
0.100161 -0.054297 0.201434
0.101032 -0.054241 0.201012
0.101864 -0.054166 0.200505
0.102644 -0.054065 0.199894
0.103517 -0.054014 0.199456
0.104374 -0.053955 0.198981
0.105367 -0.053968 0.198755
-1.645526 -0.824092 3.125748
-1.620535 -0.818992 3.109939
-1.601688 -0.816932 3.105485
-1.601244 -0.824309 3.136765
-1.597415 -0.830066 3.161782
-1.585925 -0.831914 3.171789
-1.571297 -0.832137 3.175464
-1.561026 -0.834695 3.187918
-1.551202 -0.837545 3.201369
-1.537187 -0.838167 3.206183
-1.525267 -0.839957 3.215340
-1.513150 -0.841673 3.224103
-1.502372 -0.844178 3.235777
-1.489413 -0.845497 3.242797
-1.484534 -0.851478 3.267600
-1.477575 -0.856381 3.288175
-1.472450 -0.862462 3.313190
-1.465991 -0.867885 3.335592
-1.469674 -0.879495 3.381701
-0.622919 -0.496702 1.916396
-0.618325 -0.500275 1.930048
-0.610058 -0.500940 1.932450
-0.602523 -0.502235 1.937263
-0.593579 -0.502378 1.937604
-0.583087 -0.501196 1.932814
-0.572564 -0.499949 1.927753
-0.563283 -0.499764 1.926770
-0.557482 -0.502712 1.937843
-0.542086 -0.496962 1.915370
-0.534789 -0.498569 1.921239
-0.530221 -0.502818 1.937271
-0.518814 -0.500619 1.928440
-0.510375 -0.501257 1.930525
-0.502454 -0.502436 1.934678
-0.493951 -0.503066 1.936703
-0.485419 -0.503691 1.938697
-0.445280 -0.510099 1.961122
-0.435433 -0.509418 1.958035
-0.426671 -0.510004 1.959810
-0.417629 -0.510275 1.960369
-0.408818 -0.510846 1.962077
-0.391503 -0.512477 1.967353
-0.383480 -0.514203 1.973480
-0.376435 -0.517360 1.985094
-0.368175 -0.518967 1.990757
-0.361305 -0.522669 2.004451
-0.352158 -0.523191 2.005942
-0.344771 -0.526427 2.017844
-0.335526 -0.526932 2.019270
-0.326991 -0.528615 2.025215
-0.318634 -0.530697 2.032689
-0.311325 -0.534711 2.047562
-0.303993 -0.538942 2.063262
-0.297845 -0.545626 2.088350
-0.020120 -0.061401 0.234411
-0.018765 -0.060630 0.231427
-0.017489 -0.060035 0.229118
-0.016302 -0.059688 0.227755
-0.015424 -0.060503 0.230828
-0.014396 -0.060810 0.231964
-0.013382 -0.061229 0.233532
-0.012316 -0.061467 0.234408
-0.011230 -0.061645 0.235056
-0.010174 -0.062044 0.236550
-0.009124 -0.062587 0.238592
-0.008036 -0.062987 0.240094
-0.006898 -0.063062 0.240355
-0.005774 -0.063315 0.241300
-0.004636 -0.063511 0.242028
-0.003486 -0.063617 0.242413
-0.002335 -0.063802 0.243102
-0.001177 -0.063984 0.243782
-0.000012 -0.064177 0.244508
0.001162 -0.064496 0.245713
0.002342 -0.064678 0.246400
0.003532 -0.064906 0.247263
0.004730 -0.065128 0.248103
0.005942 -0.065423 0.249228
0.007148 -0.065556 0.249735
0.008366 -0.065748 0.250467
0.009584 -0.065892 0.251021
0.010824 -0.066142 0.251981
0.012069 -0.066364 0.252835
0.013335 -0.066648 0.253930
0.014611 -0.066936 0.255040
0.015862 -0.067070 0.255565
0.017097 -0.067124 0.255785
0.018421 -0.067497 0.257226
0.019694 -0.067645 0.257810
0.020995 -0.067870 0.258690
0.022282 -0.068023 0.259298
0.023567 -0.068156 0.259831
0.024882 -0.068359 0.260631
0.026222 -0.068606 0.261602
0.027591 -0.068905 0.262774
0.028941 -0.069131 0.263666
0.030299 -0.069356 0.264560
0.031601 -0.069440 0.264915
0.033006 -0.069735 0.266078
0.034355 -0.069894 0.266724
0.035710 -0.070056 0.267378
0.037125 -0.070317 0.268417
0.038514 -0.070515 0.269214
0.039909 -0.070709 0.269996
0.041214 -0.070738 0.270149
0.042571 -0.070850 0.270623
0.043943 -0.070981 0.271167
0.045238 -0.070982 0.271216
0.046629 -0.071131 0.271832
0.048029 -0.071284 0.272462
0.049370 -0.071344 0.272739
0.050665 -0.071336 0.272756
0.052021 -0.071413 0.273095
0.053302 -0.071385 0.273037
0.054545 -0.071308 0.272789
0.055794 -0.071243 0.272586
0.056976 -0.071098 0.272074
0.057817 -0.070542 0.269994
0.058831 -0.070217 0.268793
0.059789 -0.069841 0.267398
0.060731 -0.069462 0.265985
0.061841 -0.069286 0.265354
0.062984 -0.069154 0.264886
0.063980 -0.068869 0.263833
0.065053 -0.068676 0.263130
0.066180 -0.068546 0.262668
0.067306 -0.068419 0.262215
0.068435 -0.068301 0.261793
0.069535 -0.068158 0.261275
0.070672 -0.068055 0.260910
0.071743 -0.067894 0.260318
0.072786 -0.067713 0.259645
0.073809 -0.067519 0.258923
0.074733 -0.067242 0.257878
0.075736 -0.067044 0.257136
0.076533 -0.066673 0.255725
0.077393 -0.066367 0.254563
0.078362 -0.066163 0.253787
0.079346 -0.065977 0.253079
0.080252 -0.065733 0.252142
0.081112 -0.065459 0.251089
0.081945 -0.065172 0.249979
0.082858 -0.064956 0.249140
0.083497 -0.064533 0.247506
0.084019 -0.064033 0.245570
0.084562 -0.063563 0.243746
0.085157 -0.063144 0.242115
0.085152 -0.062297 0.238836
0.085275 -0.061565 0.235996
0.084642 -0.060313 0.231160
0.085871 -0.060403 0.231463
0.086524 -0.060091 0.230219
0.086973 -0.059647 0.228466
0.086999 -0.058927 0.225653
0.086575 -0.057924 0.221750
0.086924 -0.057456 0.219893
0.087630 -0.057231 0.218964
0.088348 -0.057021 0.218082
0.088793 -0.056640 0.216546
0.088989 -0.056111 0.214439
0.089548 -0.055822 0.213239
0.090123 -0.055547 0.212093
0.090573 -0.055203 0.210676
0.091042 -0.054878 0.209326
0.091779 -0.054720 0.208608
0.092420 -0.054509 0.207679
0.093156 -0.054357 0.206973
0.093724 -0.054112 0.205903
0.094468 -0.053972 0.205226
0.095246 -0.053855 0.204629
0.095980 -0.053715 0.203938
0.096852 -0.053654 0.203540
0.097525 -0.053485 0.202725
0.098356 -0.053406 0.202240
0.099080 -0.053271 0.201534
0.099866 -0.053171 0.200955
0.100760 -0.053130 0.200587
0.101457 -0.052987 0.199826
0.102240 -0.052891 0.199231
0.103099 -0.052836 0.198780
0.103911 -0.052757 0.198232
0.104981 -0.052811 0.198167
-1.621383 -0.804488 3.113281
-1.594441 -0.798416 3.093072
-1.592588 -0.804912 3.121397
-1.593155 -0.812765 3.154891
-1.583819 -0.815669 3.169065
-1.570233 -0.816419 3.174742
-1.560670 -0.819297 3.188567
-1.552539 -0.822991 3.205452
-1.537476 -0.823047 3.208052
-1.526425 -0.825275 3.218995
-1.516628 -0.828234 3.232679
-1.505070 -0.830281 3.242699
-1.495801 -0.833648 3.257766
-1.488269 -0.838063 3.276837
-1.484684 -0.844818 3.304966
-1.480263 -0.851236 3.331697
-1.486198 -0.863812 3.382458
-1.472177 -0.864936 3.388297
-0.631451 -0.494324 1.942539
-0.621688 -0.493824 1.940418
-0.613044 -0.494212 1.941759
-0.605083 -0.495171 1.945321
-0.596459 -0.495609 1.946810
-0.591448 -0.499111 1.960311
-0.578517 -0.495934 1.947559
-0.567752 -0.494541 1.941797
-0.559353 -0.495199 1.944066
-0.547952 -0.493177 1.935801
-0.538406 -0.492784 1.933913
-0.530736 -0.494126 1.938816
-0.520820 -0.493387 1.935536
-0.451600 -0.507898 1.988410
-0.442724 -0.508495 1.990252
-0.395760 -0.508591 1.988082
-0.386766 -0.509140 1.989711
-0.336500 -0.518808 2.024335
-0.328006 -0.520569 2.030687
-0.320949 -0.524787 2.046619
-0.313012 -0.527784 2.057792
-0.307727 -0.535592 2.087713
-0.298304 -0.536478 2.090653
-0.021261 -0.060342 0.234585
-0.020154 -0.060376 0.234674
-0.018678 -0.059241 0.230220
-0.017578 -0.059232 0.230144
-0.016575 -0.059574 0.231435
-0.015487 -0.059635 0.231634
-0.014405 -0.059726 0.231955
-0.013338 -0.059904 0.232612
-0.012265 -0.060087 0.233289
-0.011205 -0.060374 0.234374
-0.010179 -0.060930 0.236504
-0.009136 -0.061514 0.238742
-0.008054 -0.061961 0.240453
-0.006910 -0.061995 0.240563
-0.005778 -0.062182 0.241265
-0.004639 -0.062368 0.241967
-0.003496 -0.062600 0.242852
-0.002342 -0.062761 0.243458
-0.001183 -0.062986 0.244320
-0.000015 -0.063304 0.245540
0.001161 -0.063455 0.246115
0.002344 -0.063624 0.246764
0.003537 -0.063866 0.247699
0.004740 -0.064123 0.248693
0.005948 -0.064321 0.249459
0.007159 -0.064493 0.250125
0.008390 -0.064762 0.251174
0.009623 -0.064977 0.252010
0.010850 -0.065109 0.252530
0.012094 -0.065303 0.253295
0.013335 -0.065451 0.253879
0.014604 -0.065701 0.254861
0.015856 -0.065838 0.255408
0.017101 -0.065931 0.255785
0.018376 -0.066116 0.256523
0.019658 -0.066304 0.257274
0.020968 -0.066558 0.258282
0.022311 -0.066883 0.259569
0.023528 -0.066815 0.259331
0.024879 -0.067115 0.260526
0.026206 -0.067325 0.261369
0.027598 -0.067674 0.262757
0.028962 -0.067928 0.263777
0.030281 -0.068060 0.264325
0.031627 -0.068240 0.265059
0.032952 -0.068360 0.265563
0.034345 -0.068609 0.266571
0.035794 -0.068948 0.267928
0.037124 -0.069040 0.268331
0.038445 -0.069113 0.268654
0.039793 -0.069226 0.269139
0.041213 -0.069453 0.270065
0.042579 -0.069579 0.270600
0.043960 -0.069719 0.271194
0.045279 -0.069758 0.271393
0.046611 -0.069813 0.271653
0.048008 -0.069960 0.272274
0.049474 -0.070198 0.273248
0.050788 -0.070212 0.273352
0.052103 -0.070228 0.273463
0.053465 -0.070304 0.273809
0.054727 -0.070248 0.273640
0.055983 -0.070187 0.273450
0.057232 -0.070121 0.273241
0.058336 -0.069884 0.272362
0.059091 -0.069247 0.269927
0.060003 -0.068818 0.268301
0.061030 -0.068536 0.267247
0.062082 -0.068294 0.266345
0.063063 -0.067984 0.265177
0.064205 -0.067856 0.264720
0.065117 -0.067494 0.263347
0.066245 -0.067367 0.262889
0.067390 -0.067261 0.262510
0.068460 -0.067084 0.261856
0.069555 -0.066939 0.261322
0.070616 -0.066766 0.260677
0.071675 -0.066598 0.260046
0.072701 -0.066405 0.259319
0.073622 -0.066124 0.258248
0.074610 -0.065912 0.257438
0.075610 -0.065716 0.256693
0.076512 -0.065443 0.255643
0.077415 -0.065180 0.254626
0.078360 -0.064959 0.253774
0.079372 -0.064800 0.253159
0.080258 -0.064543 0.252160
0.081016 -0.064194 0.250795
0.081996 -0.064027 0.250139
0.082913 -0.063818 0.249313
0.083758 -0.063558 0.248290
0.084297 -0.063078 0.246397
0.084731 -0.062533 0.244251
0.085378 -0.062157 0.242760
0.085490 -0.061408 0.239808
0.084895 -0.060178 0.234971
0.084823 -0.059344 0.231683
0.085983 -0.059383 0.231795
0.086774 -0.059170 0.230918
0.087031 -0.058602 0.228653
0.086117 -0.057270 0.223404
0.086558 -0.056860 0.221747
0.087233 -0.056611 0.220716
0.087874 -0.056348 0.219621
0.088342 -0.055980 0.218116
0.088853 -0.055648 0.216743
0.089166 -0.055202 0.214921
0.089763 -0.054938 0.213807
0.090395 -0.054703 0.212795
0.090905 -0.054399 0.211512
0.091358 -0.054068 0.210121
0.092047 -0.053883 0.209287
0.092737 -0.053702 0.208465
0.093339 -0.053474 0.207455
0.093946 -0.053254 0.206469
0.094327 -0.052912 0.205003
0.095119 -0.052805 0.204441
0.095857 -0.052671 0.203766
0.096522 -0.052500 0.202941
0.097320 -0.052403 0.202396
0.098036 -0.052265 0.201682
0.098883 -0.052199 0.201238
0.099574 -0.052052 0.200474
0.100492 -0.052026 0.200167
0.101285 -0.051936 0.199602
0.101974 -0.051794 0.198833
0.102753 -0.051702 0.198239
0.103549 -0.051618 0.197671
0.104431 -0.051579 0.197261
-1.608584 -0.783324 3.090344
-1.595583 -0.784159 3.096865
-1.588993 -0.788189 3.115875
-1.585619 -0.793907 3.141445
-1.578640 -0.797912 3.160126
-1.571917 -0.802125 3.179521
-1.560910 -0.804214 3.190376
-1.550133 -0.806463 3.201751
-1.542374 -0.810344 3.219490
-1.528673 -0.811150 3.224900
-1.517965 -0.813577 3.236641
-1.512568 -0.818930 3.259922
-1.505708 -0.823593 3.280364
-1.498284 -0.828042 3.299861
-1.506091 -0.841091 3.353556
-1.492213 -0.842179 3.359482
-0.632230 -0.485741 1.944813
-0.623514 -0.486076 1.945974
-0.616270 -0.487585 1.951812
-0.605755 -0.486514 1.947296
-0.595486 -0.485611 1.943429
-0.592120 -0.490396 1.962306
-0.578259 -0.486505 1.946442
-0.569864 -0.487161 1.948752
-0.551647 -0.487279 1.948541
-0.542651 -0.487443 1.948828
-0.537025 -0.490692 1.961433
-0.528471 -0.491334 1.963594
-0.024158 -0.060886 0.241165
-0.023023 -0.060924 0.241266
-0.021150 -0.058907 0.233235
-0.019994 -0.058780 0.232685
-0.018709 -0.058233 0.230478
-0.017623 -0.058275 0.230606
-0.016586 -0.058497 0.231442
-0.015468 -0.058447 0.231209
-0.014443 -0.058765 0.232430
-0.013369 -0.058922 0.233017
-0.012338 -0.059312 0.234525
-0.011339 -0.059950 0.237017
-0.010228 -0.060072 0.237471
-0.009140 -0.060381 0.238663
-0.008020 -0.060537 0.239256
-0.006912 -0.060845 0.240449
-0.005782 -0.061045 0.241218
-0.004644 -0.061244 0.241986
-0.003499 -0.061437 0.242730
-0.002347 -0.061664 0.243611
-0.001187 -0.061921 0.244611
-0.000018 -0.062046 0.245093
0.001158 -0.062258 0.245922
0.002343 -0.062488 0.246823
0.003539 -0.062757 0.247879
0.004744 -0.063017 0.248906
0.005947 -0.063150 0.249428
0.007160 -0.063324 0.250116
0.008401 -0.063663 0.251460
0.009635 -0.063867 0.252272
0.010872 -0.064046 0.252987
0.012101 -0.064147 0.253396
0.013360 -0.064372 0.254295
0.014603 -0.064490 0.254777
0.015869 -0.064679 0.255541
0.017111 -0.064755 0.255858
0.018366 -0.064866 0.256316
0.019663 -0.065101 0.257266
0.021014 -0.065473 0.258763
0.022283 -0.065567 0.259159
0.023592 -0.065760 0.259949
0.024860 -0.065828 0.260247
0.026305 -0.066333 0.262275
0.027602 -0.066435 0.262713
0.028948 -0.066643 0.263571
0.030285 -0.066813 0.264277
0.031585 -0.066892 0.264627
0.032941 -0.067077 0.265399
0.034430 -0.067509 0.267148
0.035771 -0.067630 0.267671
0.037144 -0.067803 0.268400
0.038466 -0.067872 0.268716
0.039803 -0.067964 0.269127
0.041128 -0.068029 0.269430
0.042582 -0.068298 0.270543
0.043938 -0.068398 0.270989
0.045289 -0.068485 0.271380
0.046678 -0.068622 0.271976
0.048251 -0.069016 0.273585
0.049638 -0.069128 0.274082
0.050921 -0.069095 0.274001
0.052267 -0.069147 0.274257
0.053624 -0.069210 0.274557
0.054930 -0.069205 0.274589
0.056175 -0.069126 0.274329
0.057424 -0.069056 0.274099
0.058656 -0.068967 0.273798
0.059721 -0.068691 0.272752
0.060262 -0.067838 0.269410
0.061013 -0.067250 0.267124
0.061954 -0.066892 0.265747
0.063089 -0.066753 0.265239
0.064116 -0.066508 0.264309
0.065189 -0.066319 0.263598
0.066256 -0.066132 0.262894
0.067334 -0.065962 0.262256
0.068450 -0.065834 0.261786
0.069549 -0.065695 0.261269
0.070606 -0.065522 0.260614
0.071641 -0.065335 0.259899
0.072742 -0.065213 0.259442
0.073627 -0.064905 0.258242
0.074489 -0.064587 0.257003
0.075532 -0.064433 0.256412
0.076496 -0.064219 0.255575
0.077454 -0.064006 0.254743
0.078488 -0.063861 0.254180
0.079438 -0.063653 0.253362
0.080482 -0.063526 0.252862
0.081397 -0.063302 0.251975
0.082298 -0.063074 0.251066
0.083196 -0.062850 0.250170
0.083670 -0.062317 0.248037
0.084345 -0.061946 0.246550
0.084841 -0.061455 0.244581
0.085690 -0.061230 0.243665
0.085189 -0.060059 0.238983
0.085685 -0.059613 0.237178
0.085222 -0.058520 0.232797
0.086064 -0.058339 0.232042
0.086307 -0.057762 0.229705
0.086784 -0.057354 0.228039
0.086397 -0.056392 0.224164
0.086885 -0.056018 0.222624
0.087479 -0.055721 0.221381
0.088026 -0.055400 0.220044
0.088670 -0.055148 0.218973
0.089108 -0.054775 0.217415
0.089359 -0.054297 0.215438
0.089887 -0.053996 0.214159
0.090421 -0.053705 0.212914
0.091064 -0.053485 0.211944
0.091596 -0.053205 0.210731
0.092244 -0.052999 0.209802
0.092923 -0.052814 0.208954
0.093552 -0.052604 0.208002
0.094223 -0.052423 0.207155
0.094660 -0.052116 0.205806
0.095249 -0.051899 0.204804
0.095923 -0.051731 0.203991
0.096585 -0.051561 0.203161
0.097294 -0.051420 0.202435
0.097997 -0.051277 0.201698
0.098720 -0.051148 0.201005
0.099468 -0.051034 0.200364
0.100370 -0.051001 0.200031
0.101092 -0.050877 0.199333
0.101905 -0.050801 0.198814
0.102560 -0.050649 0.197985
0.103364 -0.050572 0.197443
0.104272 -0.050548 0.197091
-1.604606 -0.759671 3.053070
-1.591761 -0.760474 3.059587
-1.599266 -0.771106 3.105538
-1.583010 -0.770374 3.105608
-1.584502 -0.778346 3.140650
-1.577599 -0.782307 3.159411
-1.567731 -0.784862 3.172370
-1.559171 -0.788127 3.188087
-1.550161 -0.791227 3.203025
-1.541635 -0.794639 3.219114
-1.531786 -0.797431 3.232583
-1.521971 -0.800298 3.246250
-1.515357 -0.804924 3.266954
-1.510377 -0.810523 3.291513
-1.504847 -0.815941 3.315248
-0.632901 -0.477057 1.946744
-0.626268 -0.478985 1.954413
-0.619753 -0.481063 1.962667
-0.611366 -0.481729 1.965132
-0.600138 -0.480143 1.958388
-0.592785 -0.481657 1.964269
-0.582222 -0.480568 1.959515
-0.025149 -0.059356 0.239584
-0.024023 -0.059395 0.239690
-0.022467 -0.058321 0.235306
-0.021379 -0.058415 0.235642
-0.020066 -0.057868 0.233387
-0.018830 -0.057493 0.231831
-0.017711 -0.057452 0.231623
-0.016601 -0.057437 0.231526
-0.015586 -0.057769 0.232823
-0.014505 -0.057891 0.233278
-0.013407 -0.057963 0.233534
-0.012332 -0.058153 0.234266
-0.011249 -0.058339 0.234983
-0.010229 -0.058932 0.237342
-0.009129 -0.059150 0.238191
-0.008019 -0.059365 0.239033
-0.006908 -0.059634 0.240091
-0.005782 -0.059864 0.240995
-0.004652 -0.060151 0.242130
-0.003501 -0.060276 0.242615
-0.002350 -0.060516 0.243566
-0.001189 -0.060737 0.244440
-0.000020 -0.061000 0.245487
0.001158 -0.061176 0.246186
0.002347 -0.061466 0.247346
0.003542 -0.061666 0.248146
0.004744 -0.061857 0.248911
0.005948 -0.061990 0.249446
0.007158 -0.062133 0.250023
0.008371 -0.062258 0.250533
0.009600 -0.062451 0.251315
0.010831 -0.062614 0.251978
0.012097 -0.062928 0.253251
0.013334 -0.063047 0.253742
0.014624 -0.063373 0.255070
0.015876 -0.063499 0.255596
0.017120 -0.063574 0.255916
0.018382 -0.063704 0.256459
0.019689 -0.063962 0.257520
0.020961 -0.064083 0.258032
0.022240 -0.064211 0.258574
0.023544 -0.064394 0.259341
0.024855 -0.064577 0.260108
0.026315 -0.065111 0.262292
0.027603 -0.065191 0.262646
0.028837 -0.065140 0.262480
0.030228 -0.065432 0.263694
0.031532 -0.065521 0.264092
0.032848 -0.065628 0.264564
0.034306 -0.066000 0.266104
0.035789 -0.066391 0.267726
0.037110 -0.066465 0.268066
0.038439 -0.066548 0.268447
0.039790 -0.066662 0.268955
0.041240 -0.066930 0.270085
0.042579 -0.067007 0.270445
0.044009 -0.067218 0.271346
0.045298 -0.067207 0.271355
0.046655 -0.067297 0.271767
0.048165 -0.067594 0.273020
0.049737 -0.067962 0.274560
0.051037 -0.067948 0.274555
0.052347 -0.067948 0.274607
0.053726 -0.068034 0.275011
0.055020 -0.068012 0.274974
0.056305 -0.067981 0.274901
0.057598 -0.067960 0.274868
0.058885 -0.067932 0.274807
0.060018 -0.067732 0.274050
0.060602 -0.066934 0.270874
0.061344 -0.066340 0.268519
0.061949 -0.065626 0.265676
0.063098 -0.065505 0.265233
0.064245 -0.065386 0.264797
0.065256 -0.065136 0.263827
0.066368 -0.064995 0.263297
0.067441 -0.064821 0.262634
0.068510 -0.064650 0.261979
0.069592 -0.064497 0.261397
0.070693 -0.064366 0.260902
0.071773 -0.064221 0.260350
0.072835 -0.064065 0.259748
0.073648 -0.063699 0.258293
0.074514 -0.063391 0.257069
0.075524 -0.063212 0.256369
0.076583 -0.063080 0.255853
0.077514 -0.062847 0.254927
0.078496 -0.062663 0.254195
0.079445 -0.062459 0.253379
0.080438 -0.062294 0.252718
0.081407 -0.062116 0.252004
0.082381 -0.061947 0.251320
0.083133 -0.061618 0.249983
0.083961 -0.061354 0.248906
0.084242 -0.060703 0.246258
0.084816 -0.060278 0.244521
0.085130 -0.059683 0.242089
0.085748 -0.059313 0.240569
0.085271 -0.058206 0.236053
0.085610 -0.057677 0.233878
0.085682 -0.056985 0.231037
0.086487 -0.056791 0.230212
0.086846 -0.056312 0.228230
0.086760 -0.055561 0.225139
0.086852 -0.054941 0.222575
0.087490 -0.054677 0.221447
0.088153 -0.054434 0.220403
0.088718 -0.054137 0.219134
0.089141 -0.053762 0.217542
0.089410 -0.053303 0.215610
0.089923 -0.052999 0.214296
0.090397 -0.052678 0.212912
0.090996 -0.052437 0.211844
0.091575 -0.052190 0.210744
0.092249 -0.052002 0.209877
0.092860 -0.051782 0.208877
0.093522 -0.051596 0.208005
0.094159 -0.051399 0.207087
0.094673 -0.051140 0.205909
0.095256 -0.050924 0.204897
0.095844 -0.050714 0.203907
0.096554 -0.050573 0.203183
0.097212 -0.050407 0.202354
0.097906 -0.050263 0.201604
0.098595 -0.050120 0.200847
0.099251 -0.049962 0.200028
0.100044 -0.049876 0.199485
0.100801 -0.049774 0.198868
0.101473 -0.049632 0.198083
0.102259 -0.049548 0.197519
0.103056 -0.049471 0.196973
0.103813 -0.049376 0.196347
-1.602206 -0.743916 3.050064
-1.593660 -0.746709 3.064744
-1.600116 -0.756647 3.108655
-1.584790 -0.756376 3.110506
-1.585141 -0.763653 3.143282
-1.574865 -0.765901 3.155248
-1.570282 -0.770987 3.178797
-1.557305 -0.772012 3.185485
-1.548134 -0.774963 3.199999
-1.542618 -0.779821 3.222285
-1.532531 -0.782442 3.235225
-1.520898 -0.784320 3.244983
-1.513239 -0.788306 3.263361
-1.506563 -0.792893 3.284131
-1.505904 -0.800776 3.318465
-0.638253 -0.471813 1.963058
-0.629905 -0.472476 1.965593
-0.620031 -0.471997 1.963355
-0.608353 -0.470110 1.955236
-0.600659 -0.471291 1.959856
-0.027779 -0.058945 0.242606
-0.026642 -0.058987 0.242723
-0.025051 -0.057981 0.238531
-0.023844 -0.057811 0.237780
-0.022812 -0.058071 0.238797
-0.021388 -0.057307 0.235607
-0.020223 -0.057193 0.235093
-0.019064 -0.057081 0.234589
-0.017805 -0.056637 0.232718
-0.016698 -0.056650 0.232734
-0.015637 -0.056836 0.233457
-0.014545 -0.056923 0.233777
-0.013445 -0.056996 0.234042
-0.012351 -0.057107 0.234464
-0.011338 -0.057657 0.236688
-0.010256 -0.057936 0.237803
-0.009155 -0.058161 0.238697
-0.008050 -0.058425 0.239756
-0.006925 -0.058608 0.240480
-0.005800 -0.058869 0.241531
-0.004655 -0.059003 0.242060
-0.003512 -0.059249 0.243051
-0.002357 -0.059451 0.243863
-0.001198 -0.059877 0.245599
-0.000023 -0.059942 0.245851
0.001159 -0.060182 0.246827
0.002345 -0.060319 0.247383
0.003540 -0.060504 0.248138
0.004741 -0.060660 0.248772
0.005949 -0.060838 0.249505
0.007159 -0.060972 0.250055
0.008400 -0.061288 0.251352
0.009641 -0.061530 0.252353
0.010874 -0.061665 0.252916
0.012100 -0.061746 0.253257
0.013351 -0.061923 0.253996
0.014595 -0.062039 0.254490
0.015883 -0.062313 0.255629
0.017126 -0.062382 0.255931
0.018395 -0.062530 0.256560
0.019664 -0.062661 0.257122
0.020957 -0.062848 0.257915
0.022267 -0.063060 0.258813
0.023572 -0.063238 0.259572
0.024845 -0.063316 0.259924
0.026245 -0.063693 0.261507
0.027547 -0.063811 0.262028
0.028865 -0.063954 0.262650
0.030171 -0.064059 0.263121
0.031507 -0.064216 0.263806
0.032921 -0.064513 0.265070
0.034546 -0.065187 0.267881
0.035796 -0.065132 0.267699
0.037120 -0.065208 0.268058
0.038490 -0.065359 0.268726
0.039810 -0.065417 0.269016
0.041156 -0.065512 0.269456
0.042499 -0.065598 0.269858
0.043852 -0.065693 0.270302
0.045304 -0.065927 0.271318
0.046776 -0.066176 0.272395
0.048339 -0.066536 0.273932
0.049739 -0.066660 0.274497
0.051127 -0.066761 0.274970
0.052495 -0.066832 0.275315
0.053803 -0.066824 0.275339
0.055145 -0.066858 0.275535
0.056438 -0.066832 0.275483
0.057701 -0.066773 0.275294
0.058944 -0.066694 0.275023
0.060059 -0.066477 0.274181
0.060700 -0.065755 0.271255
0.061487 -0.065218 0.269093
0.062270 -0.064699 0.267001
0.063136 -0.064285 0.265344
0.064029 -0.063915 0.263861
0.065266 -0.063895 0.263826
0.066338 -0.063717 0.263137
0.067399 -0.063536 0.262430
0.068435 -0.063338 0.261656
0.069560 -0.063228 0.261242
0.070690 -0.063126 0.260859
0.071731 -0.062950 0.260167
0.072778 -0.062785 0.259519
0.073781 -0.062588 0.258734
0.074735 -0.062357 0.257808
0.075750 -0.062182 0.257114
0.076671 -0.061938 0.256127
0.077612 -0.061717 0.255235
0.078606 -0.061545 0.254542
0.079617 -0.061390 0.253916
0.080553 -0.061184 0.253075
0.081406 -0.060921 0.251997
0.082104 -0.060552 0.250471
0.083047 -0.060371 0.249727
0.083582 -0.059903 0.247788
0.084212 -0.059515 0.246178
0.084608 -0.058975 0.243932
0.085185 -0.058573 0.242257
0.085162 -0.057776 0.238940
0.085152 -0.057008 0.235742
0.085533 -0.056517 0.233688
0.085758 -0.055939 0.231264
0.086235 -0.055537 0.229568
0.086829 -0.055219 0.228214
0.086492 -0.054325 0.224473
0.086986 -0.053968 0.222950
0.087564 -0.053671 0.221670
0.088103 -0.053357 0.220317
0.088593 -0.053021 0.218866
0.089151 -0.052734 0.217611
0.089734 -0.052468 0.216438
0.090118 -0.052092 0.214809
0.090581 -0.051771 0.213397
0.091130 -0.051505 0.212209
0.091673 -0.051241 0.211027
0.092262 -0.051009 0.209968
0.092879 -0.050797 0.208984
0.093443 -0.050561 0.207896
0.094167 -0.050415 0.207173
0.094609 -0.050123 0.205843
0.095120 -0.049873 0.204680
0.095767 -0.049699 0.203822
0.096370 -0.049506 0.202876
0.097026 -0.049343 0.202051
0.097712 -0.049199 0.201292
0.098510 -0.049114 0.200766
0.099146 -0.048950 0.199912
0.099944 -0.048868 0.199383
0.100773 -0.048803 0.198915
0.101429 -0.048657 0.198103
0.102139 -0.048538 0.197398
0.102988 -0.048487 0.196958
0.103643 -0.048347 0.196144
-1.611082 -0.733339 3.068471
-1.598233 -0.734137 3.074993
-1.596678 -0.740185 3.103383
-1.600587 -0.748905 3.142880
-1.591335 -0.751572 3.156881
-1.579275 -0.752953 3.165348
-1.572217 -0.756768 3.183930
-1.561264 -0.758766 3.194748
-1.549682 -0.760494 3.204316
-1.541619 -0.764001 3.221266
-1.531597 -0.766599 3.234276
-1.519564 -0.768232 3.243109
-1.503943 -0.768067 3.244238
-1.493799 -0.770726 3.257185
-1.507773 -0.786013 3.323430
-0.640881 -0.464441 1.970980
-0.632506 -0.465099 1.973528
-0.624104 -0.465756 1.976047
-0.612388 -0.463924 1.967982
-0.602798 -0.463670 1.966591
-0.601128 -0.469596 1.991387
-0.030531 -0.058628 0.246154
-0.029381 -0.058673 0.246283
-0.027740 -0.057701 0.242143
-0.026491 -0.057494 0.241218
-0.025347 -0.057509 0.241226
-0.024155 -0.057411 0.240762
-0.022951 -0.057272 0.240126
-0.021564 -0.056638 0.237418
-0.020395 -0.056540 0.236959
-0.019136 -0.056165 0.235343
-0.017877 -0.055742 0.233526
-0.016730 -0.055639 0.233053
-0.015650 -0.055756 0.233504
-0.014568 -0.055887 0.234014
-0.013516 -0.056162 0.235128
-0.012361 -0.056023 0.234513
-0.011349 -0.056565 0.236748
-0.010272 -0.056874 0.238012
-0.009179 -0.057152 0.239147
-0.008065 -0.057371 0.240034
-0.006941 -0.057576 0.240867
-0.005806 -0.057746 0.241558
-0.004667 -0.057957 0.242416
-0.003520 -0.058175 0.243310
-0.002361 -0.058325 0.243924
-0.001200 -0.058656 0.245293
-0.000025 -0.058808 0.245916
0.001157 -0.059037 0.246866
0.002343 -0.059135 0.247268
0.003538 -0.059320 0.248036
0.004741 -0.059512 0.248839
0.005947 -0.059653 0.249426
0.007158 -0.059785 0.249982
0.008382 -0.059975 0.250778
0.009630 -0.060265 0.251999
0.010888 -0.060547 0.253188
0.012116 -0.060623 0.253517
0.013352 -0.060724 0.253954
0.014615 -0.060918 0.254780
0.015877 -0.061076 0.255460
0.017137 -0.061205 0.256017
0.018381 -0.061266 0.256294
0.019650 -0.061394 0.256856
0.020916 -0.061501 0.257328
0.022261 -0.061812 0.258660
0.023600 -0.062077 0.259799
0.024873 -0.062149 0.260131
0.026167 -0.062265 0.260653
0.027609 -0.062705 0.262534
0.028907 -0.062794 0.262943
0.030179 -0.062822 0.263100
0.031531 -0.063008 0.263922
0.032875 -0.063164 0.264619
0.034396 -0.063635 0.266636
0.035794 -0.063853 0.267595
0.037120 -0.063933 0.267980
0.038474 -0.064053 0.268530
0.039807 -0.064131 0.268908
0.041121 -0.064175 0.269146
0.042501 -0.064317 0.269792
0.043982 -0.064599 0.271027
0.045353 -0.064706 0.271533
0.046868 -0.065007 0.272852
0.048402 -0.065319 0.274214
0.049827 -0.065470 0.274907
0.051183 -0.065525 0.275196
0.052510 -0.065542 0.275322
0.053857 -0.065582 0.275547
0.055202 -0.065616 0.275749
0.056553 -0.065657 0.275980
0.057839 -0.065622 0.275890
0.059127 -0.065591 0.275816
0.060409 -0.065555 0.275719
0.061533 -0.065352 0.274921
0.061574 -0.064030 0.269416
0.062262 -0.063424 0.266916
0.063156 -0.063045 0.265375
0.064322 -0.062949 0.265018
0.065332 -0.062706 0.264044
0.066391 -0.062519 0.263305
0.067373 -0.062266 0.262288
0.068547 -0.062199 0.262046
0.069689 -0.062104 0.261691
0.070784 -0.061972 0.261174
0.071865 -0.061832 0.260623
0.072885 -0.061645 0.259870
0.073814 -0.061389 0.258826
0.074781 -0.061173 0.257944
0.075758 -0.060970 0.257121
0.076689 -0.060739 0.256170
0.077701 -0.060577 0.255512
0.078598 -0.060332 0.254500
0.079425 -0.060043 0.253295
0.080178 -0.059705 0.251887
0.081206 -0.059580 0.251370
0.082182 -0.059422 0.250708
0.082881 -0.059070 0.249226
0.083634 -0.058765 0.247943
0.084475 -0.058531 0.246951
0.085047 -0.058119 0.245205
0.084246 -0.056792 0.239597
0.083821 -0.055751 0.235189
0.085127 -0.055874 0.235688
0.086246 -0.055872 0.235655
0.085410 -0.054619 0.230345
0.086130 -0.054382 0.229309
0.086903 -0.054183 0.228436
0.087189 -0.053689 0.226312
0.087054 -0.052951 0.223154
0.087359 -0.052496 0.221184
0.088086 -0.052301 0.220308
0.088785 -0.052095 0.219381
0.088859 -0.051531 0.216940
0.089574 -0.051348 0.216096
0.090046 -0.051030 0.214684
0.090437 -0.050675 0.213107
0.090784 -0.050303 0.211455
0.091406 -0.050090 0.210466
0.092136 -0.049941 0.209738
0.092788 -0.049752 0.208840
0.093385 -0.049539 0.207830
0.094112 -0.049398 0.207119
0.094793 -0.049236 0.206313
0.095323 -0.049000 0.205190
0.095962 -0.048824 0.204313
0.096534 -0.048618 0.203301
0.097198 -0.048462 0.202491
0.097805 -0.048280 0.201569
0.098515 -0.048153 0.200865
0.099203 -0.048018 0.200118
0.100009 -0.047942 0.199609
0.100771 -0.047846 0.199011
0.101526 -0.047748 0.198395
0.102389 -0.047703 0.197988
0.103119 -0.047597 0.197320
0.103818 -0.047479 0.196589
-1.608002 -0.723821 3.095195
-1.591541 -0.723017 3.094750
-1.585475 -0.726966 3.114510
-1.591200 -0.736447 3.157879
-1.581335 -0.738824 3.170691
-1.570580 -0.740829 3.181782
-1.559961 -0.742938 3.193200
-1.548329 -0.744601 3.202586
-1.539715 -0.747764 3.218312
-1.527678 -0.749311 3.226974
-1.516361 -0.751247 3.237202
-1.502329 -0.751865 3.241637
-1.494328 -0.755545 3.259176
-1.493943 -0.763193 3.293746
-0.641160 -0.455326 1.971665
-0.633110 -0.456207 1.975219
-0.618649 -0.459267 1.987865
-0.610155 -0.459916 1.990338
-0.601781 -0.460677 1.993272
-0.031779 -0.057586 0.246688
-0.030489 -0.057370 0.245696
-0.029059 -0.056863 0.243463
-0.027896 -0.056859 0.243387
-0.026770 -0.056932 0.243643
-0.025608 -0.056932 0.243587
-0.024432 -0.056899 0.243390
-0.023318 -0.057016 0.243835
-0.022212 -0.057165 0.244419
-0.020975 -0.056976 0.243561
-0.019243 -0.055339 0.236516
-0.017875 -0.054614 0.233375
-0.016687 -0.054377 0.232319
-0.015637 -0.054588 0.233178
-0.014587 -0.054828 0.234165
-0.013473 -0.054854 0.234239
-0.012396 -0.055047 0.235029
-0.011321 -0.055286 0.236018
-0.010280 -0.055762 0.238016
-0.009177 -0.055987 0.238946
-0.008090 -0.056376 0.240581
-0.006943 -0.056416 0.240725
-0.005812 -0.056625 0.241595
-0.004669 -0.056798 0.242311
-0.003521 -0.056995 0.243132
-0.002363 -0.057144 0.243754
-0.001199 -0.057333 0.244546
-0.000028 -0.057646 0.245870
0.001152 -0.057753 0.246314
0.002340 -0.057948 0.247141
0.003539 -0.058183 0.248139
0.004741 -0.058348 0.248841
0.005953 -0.058535 0.249636
0.007161 -0.058631 0.250047
0.008389 -0.058837 0.250933
0.009593 -0.058847 0.250981
0.010840 -0.059090 0.252027
0.012093 -0.059309 0.252973
0.013357 -0.059540 0.253972
0.014619 -0.059725 0.254778
0.015887 -0.059899 0.255540
0.017131 -0.059967 0.255852
0.018388 -0.060068 0.256306
0.019686 -0.060284 0.257250
0.020988 -0.060483 0.258130
0.022261 -0.060583 0.258584
0.023518 -0.060628 0.258810
0.024847 -0.060846 0.259773
0.026163 -0.061013 0.260520
0.027730 -0.061724 0.263595
0.028887 -0.061499 0.262675
0.030196 -0.061605 0.263167
0.031628 -0.061941 0.264645
0.032924 -0.061995 0.264922
0.034256 -0.062112 0.265467
0.035664 -0.062353 0.266544
0.037139 -0.062689 0.268033
0.038489 -0.062799 0.268553
0.039811 -0.062858 0.268855
0.041196 -0.063009 0.269557
0.042569 -0.063134 0.270142
0.044028 -0.063375 0.271232
0.045554 -0.063694 0.272654
0.046879 -0.063724 0.272838
0.048236 -0.063795 0.273201
0.049695 -0.063992 0.274102
0.051179 -0.064211 0.275099
0.052536 -0.064264 0.275387
0.053891 -0.064311 0.275647
0.055241 -0.064351 0.275877
0.056615 -0.064416 0.276214
0.057910 -0.064390 0.276164
0.059186 -0.064344 0.276026
0.060504 -0.064346 0.276091
0.061686 -0.064205 0.275545
0.062609 -0.063806 0.273890
0.062920 -0.062812 0.269679
0.063342 -0.061968 0.266108
0.064406 -0.061771 0.265314
0.065483 -0.061595 0.264609
0.066499 -0.061368 0.263685
0.067681 -0.061301 0.263445
0.068785 -0.061167 0.262915
0.069847 -0.061001 0.262246
0.070857 -0.060795 0.261405
0.071972 -0.060686 0.260976
0.072974 -0.060487 0.260157
0.073825 -0.060171 0.258836
0.074740 -0.059917 0.257776
0.075767 -0.059759 0.257130
0.076865 -0.059661 0.256737
0.077682 -0.059352 0.255431
0.078571 -0.059106 0.254399
0.079452 -0.058862 0.253366
0.080383 -0.058661 0.252520
0.080984 -0.058230 0.250677
0.081892 -0.058028 0.249817
0.082785 -0.057822 0.248936
0.083376 -0.057413 0.247179
0.084105 -0.057109 0.245871
0.084335 -0.056480 0.243158
0.084655 -0.055926 0.240766
0.085382 -0.055654 0.239578
0.084927 -0.054628 0.235146
0.085735 -0.054430 0.234273
0.085313 -0.053467 0.230104
0.086226 -0.053354 0.229586
0.086548 -0.052882 0.227525
0.086943 -0.052467 0.225698
0.087134 -0.051940 0.223388
0.087553 -0.051560 0.221706
0.088238 -0.051344 0.220723
0.088765 -0.051042 0.219367
0.088966 -0.050561 0.217239
0.089141 -0.050077 0.215092
0.089985 -0.049976 0.214583
0.090314 -0.049594 0.212863
0.090844 -0.049330 0.211645
0.091433 -0.049103 0.210582
0.092192 -0.048972 0.209919
0.092904 -0.048818 0.209157
0.093515 -0.048615 0.208179
0.094107 -0.048407 0.207171
0.094772 -0.048241 0.206333
0.095365 -0.048041 0.205349
0.095827 -0.047781 0.204098
0.096492 -0.047625 0.203288
0.097115 -0.047452 0.202396
0.097723 -0.047275 0.201481
0.098482 -0.047175 0.200883
0.099218 -0.047065 0.200236
0.099891 -0.046927 0.199465
0.100682 -0.046847 0.198929
0.101435 -0.046752 0.198318
0.102314 -0.046715 0.197946
0.103076 -0.046626 0.197343
0.103750 -0.046499 0.196571
-1.636503 -0.715053 3.119789
-1.608815 -0.709377 3.098115
-1.606397 -0.714842 3.124949
-1.603355 -0.720130 3.150900
-1.598152 -0.724538 3.172896
-1.582752 -0.724364 3.174701
-1.570632 -0.725702 3.183006
-1.558279 -0.726959 3.190826
-1.544695 -0.727661 3.196092
-1.535124 -0.730286 3.209689
-1.523775 -0.732111 3.219660
-1.511363 -0.733457 3.227415
-1.499542 -0.735121 3.236463
-1.486525 -0.736228 3.242951
-1.478804 -0.740008 3.261118
-1.505314 -0.761178 3.355861
-0.034830 -0.057562 0.251766
-0.033082 -0.056623 0.247589
-0.031826 -0.056488 0.246935
-0.030585 -0.056371 0.246356
-0.029314 -0.056186 0.245485
-0.028112 -0.056123 0.245150
-0.027011 -0.056265 0.245710
-0.025815 -0.056214 0.245428
-0.024731 -0.056414 0.246246
-0.023548 -0.056396 0.246110
-0.022310 -0.056238 0.245367
-0.021090 -0.056111 0.244763
-0.018884 -0.053193 0.231985
-0.017752 -0.053121 0.231626
-0.016728 -0.053388 0.232749
-0.015652 -0.053515 0.233261
-0.014584 -0.053690 0.233982
-0.013523 -0.053921 0.234952
-0.012436 -0.054082 0.235619
-0.011354 -0.054301 0.236538
-0.010294 -0.054687 0.238190
-0.009177 -0.054828 0.238772
-0.008079 -0.055137 0.240090
-0.006960 -0.055380 0.241122
-0.005820 -0.055520 0.241707
-0.004676 -0.055684 0.242404
-0.003529 -0.055910 0.243368
-0.002366 -0.055997 0.243731
-0.001202 -0.056162 0.244435
-0.000030 -0.056385 0.245392
0.001151 -0.056618 0.246396
0.002339 -0.056805 0.247203
0.003533 -0.056947 0.247817
0.004743 -0.057202 0.248927
0.005950 -0.057339 0.249521
0.007170 -0.057530 0.250354
0.008402 -0.057746 0.251299
0.009625 -0.057851 0.251767
0.010873 -0.058070 0.252727
0.012121 -0.058245 0.253501
0.013356 -0.058330 0.253884
0.014592 -0.058404 0.254226
0.015854 -0.058563 0.254935
0.017154 -0.058830 0.256119
0.018405 -0.058905 0.256473
0.019686 -0.059059 0.257170
0.020944 -0.059129 0.257500
0.022244 -0.059306 0.258303
0.023547 -0.059470 0.259049
0.024887 -0.059705 0.260106
0.026184 -0.059820 0.260646
0.027575 -0.060130 0.262036
0.028941 -0.060360 0.263079
0.030285 -0.060528 0.263853
0.031606 -0.060639 0.264380
0.032958 -0.060796 0.265110
0.034307 -0.060938 0.265776
0.035773 -0.061268 0.267268
0.037159 -0.061446 0.268093
0.038487 -0.061517 0.268454
0.039825 -0.061599 0.268866
0.041192 -0.061719 0.269445
0.042560 -0.061834 0.270002
0.043897 -0.061899 0.270343
0.045477 -0.062291 0.272115
0.046881 -0.062428 0.272773
0.048368 -0.062666 0.273869
0.049817 -0.062843 0.274703
0.051203 -0.062932 0.275155
0.052585 -0.063013 0.275568
0.053936 -0.063053 0.275805
0.055265 -0.063067 0.275928
0.056603 -0.063089 0.276089
0.057917 -0.063084 0.276128
0.059204 -0.063052 0.276048
0.060485 -0.063013 0.275939
0.061665 -0.062874 0.275390
0.062397 -0.062293 0.272902
0.062827 -0.061441 0.269227
0.063577 -0.060929 0.267041
0.064556 -0.060653 0.265885
0.065597 -0.060443 0.265019
0.066687 -0.060287 0.264388
0.067803 -0.060159 0.263876
0.068824 -0.059953 0.263021
0.069853 -0.059762 0.262230
0.070943 -0.059627 0.261686
0.071975 -0.059450 0.260953
0.072974 -0.059253 0.260127
0.073833 -0.058949 0.258832
0.074872 -0.058797 0.258203
0.075806 -0.058570 0.257237
0.076738 -0.058347 0.256289
0.077903 -0.058306 0.256139
0.078819 -0.058083 0.255183
0.079674 -0.057822 0.254061
0.080709 -0.057697 0.253533
0.080999 -0.057052 0.250713
0.081839 -0.056807 0.249648
0.082805 -0.056655 0.248991
0.083517 -0.056337 0.247596
0.084232 -0.056028 0.246243
0.083882 -0.055030 0.241853
0.084752 -0.054848 0.241048
0.085338 -0.054490 0.239464
0.085653 -0.053971 0.237168
0.086061 -0.053522 0.235178
0.086144 -0.052886 0.232361
0.086552 -0.052463 0.230474
0.086607 -0.051839 0.227701
0.086864 -0.051350 0.225518
0.087377 -0.051022 0.224039
0.087525 -0.050492 0.221664
0.088435 -0.050408 0.221246
0.088744 -0.049988 0.219348
0.088789 -0.049431 0.216843
0.089082 -0.049023 0.214987
0.089848 -0.048881 0.214297
0.090558 -0.048714 0.213484
0.090772 -0.048285 0.211523
0.091377 -0.048072 0.210502
0.092194 -0.047974 0.209977
0.092876 -0.047808 0.209150
0.093527 -0.047630 0.208264
0.094225 -0.047479 0.207492
0.094971 -0.047355 0.206830
0.095592 -0.047173 0.205904
0.096076 -0.046927 0.204697
0.096572 -0.046692 0.203529
0.097279 -0.046562 0.202815
0.097793 -0.046344 0.201704
0.098446 -0.046195 0.200891
0.099212 -0.046102 0.200310
0.099947 -0.045995 0.199665
0.100755 -0.045925 0.199166
0.101484 -0.045820 0.198509
0.102405 -0.045802 0.198221
0.103154 -0.045709 0.197596
0.103903 -0.045618 0.196968
-1.637300 -0.700467 3.122679
-1.614596 -0.697064 3.110558
-1.614001 -0.703233 3.141007
-1.606740 -0.706585 3.158771
-1.601618 -0.710951 3.180953
-1.589001 -0.712042 3.188361
-1.574485 -0.712295 3.191889
-1.560566 -0.712827 3.196536
-1.548651 -0.714295 3.205257
-1.537436 -0.716117 3.215459
-1.527500 -0.718579 3.228421
-1.517026 -0.720835 3.240354
-1.506671 -0.723195 3.252652
-1.499555 -0.727176 3.272138
-1.506441 -0.738099 3.322792
-1.506345 -0.745796 3.358850
-1.511816 -0.756442 3.408119
-1.488328 -0.752672 3.392345
-1.474421 -0.753719 3.398180
-0.038100 -0.057678 0.257696
-0.036907 -0.057731 0.257857
-0.034880 -0.056439 0.252013
-0.033418 -0.056001 0.249990
-0.032110 -0.055798 0.249018
-0.030980 -0.055902 0.249415
-0.029763 -0.055850 0.249117
-0.028498 -0.055702 0.248394
-0.027360 -0.055798 0.248757
-0.026098 -0.055639 0.247990
-0.024973 -0.055772 0.248525
-0.023748 -0.055684 0.248074
-0.022374 -0.055216 0.245937
-0.020153 -0.052493 0.233756
-0.018832 -0.051931 0.231208
-0.017807 -0.052167 0.232210
-0.016740 -0.052304 0.232778
-0.015673 -0.052459 0.233425
-0.014641 -0.052766 0.234751
-0.013601 -0.053091 0.236160
-0.012503 -0.053229 0.236736
-0.011398 -0.053366 0.237310
-0.010294 -0.053535 0.238031
-0.009185 -0.053715 0.238800
-0.008066 -0.053881 0.239509
-0.006953 -0.054153 0.240691
-0.005822 -0.054361 0.241592
-0.004680 -0.054548 0.242403
-0.003531 -0.054750 0.243280
-0.002371 -0.054890 0.243887
-0.001204 -0.054989 0.244314
-0.000033 -0.055148 0.245007
0.001146 -0.055308 0.245711
0.002337 -0.055610 0.247043
0.003531 -0.055767 0.247735
0.004736 -0.055957 0.248579
0.005938 -0.056051 0.248999
0.007157 -0.056243 0.249854
0.008370 -0.056343 0.250304
0.009584 -0.056421 0.250659
0.010821 -0.056600 0.251462
0.012068 -0.056792 0.252327
0.013381 -0.057229 0.254284
0.014611 -0.057270 0.254486
0.015947 -0.057688 0.256364
0.017165 -0.057649 0.256213
0.018418 -0.057725 0.256573
0.019707 -0.057896 0.257363
0.020950 -0.057919 0.257491
0.022229 -0.058036 0.258043
0.023548 -0.058238 0.258974
0.024932 -0.058571 0.260491
0.026185 -0.058581 0.260575
0.027496 -0.058713 0.261199
0.028848 -0.058918 0.262153
0.030201 -0.059106 0.263032
0.031633 -0.059429 0.264516
0.032935 -0.059491 0.264839
0.034310 -0.059676 0.265715
0.035676 -0.059833 0.266462
