ply
format ascii 1.0
element vertex 1690
property float x
property float y
property float z
end_header
-0.338650 -0.034591 1.051798
-0.330450 -0.034255 1.041188
-0.325191 -0.034218 1.039674
-0.320798 -0.034273 1.040927
-0.315674 -0.034250 1.039818
-0.310506 -0.034222 1.038529
-0.305436 -0.034203 1.037543
-0.300112 -0.034156 1.035658
-0.294420 -0.034064 1.032428
-0.288547 -0.033948 1.028458
-0.282869 -0.033851 1.025070
-0.276086 -0.033617 1.017510
-0.268565 -0.033283 1.006935
-0.259811 -0.032781 0.991292
-0.251894 -0.032368 0.978355
-0.247638 -0.032419 0.979439
-0.217241 -0.029551 0.891932
-0.211498 -0.029343 0.885227
-0.207599 -0.029388 0.886147
-0.054650 -0.008421 0.253441
-0.053516 -0.008433 0.253682
-0.051491 -0.008302 0.249619
-0.049544 -0.008178 0.245757
-0.047857 -0.008091 0.243042
-0.044939 -0.007787 0.233797
-0.043539 -0.007737 0.232195
-0.042207 -0.007697 0.230886
-0.040850 -0.007650 0.229370
-0.039632 -0.007628 0.228586
-0.038414 -0.007604 0.227766
-0.037128 -0.007565 0.226494
-0.035120 -0.007372 0.220615
-0.033704 -0.007295 0.218217
-0.032627 -0.007289 0.217938
-0.031727 -0.007323 0.218874
-0.030927 -0.007383 0.220589
-0.030155 -0.007455 0.222645
-0.029145 -0.007472 0.223044
-0.028152 -0.007494 0.223612
-0.027166 -0.007519 0.224292
-0.026255 -0.007569 0.225683
-0.025315 -0.007614 0.226945
-0.024415 -0.007675 0.228702
-0.022441 -0.007757 0.230981
-0.021328 -0.007759 0.230956
-0.020334 -0.007806 0.232294
-0.019255 -0.007825 0.232776
-0.018086 -0.007806 0.232169
-0.017141 -0.007889 0.234573
-0.016042 -0.007907 0.235053
-0.014954 -0.007935 0.235807
-0.013898 -0.007985 0.237244
-0.012817 -0.008029 0.238491
-0.011689 -0.008048 0.239031
-0.010550 -0.008065 0.239468
-0.009399 -0.008074 0.239705
-0.008262 -0.008101 0.240471
-0.007107 -0.008115 0.240859
-0.005949 -0.008131 0.241301
-0.004782 -0.008140 0.241532
-0.003616 -0.008156 0.241989
-0.002442 -0.008164 0.242188
-0.001266 -0.008172 0.242420
-0.000089 -0.008210 0.243525
0.001099 -0.008239 0.244376
0.002294 -0.008264 0.245123
0.003502 -0.008303 0.246278
0.004713 -0.008326 0.246975
0.005944 -0.008369 0.248246
0.007147 -0.008365 0.248127
0.008360 -0.008371 0.248338
0.009596 -0.008397 0.249101
0.010823 -0.008409 0.249481
0.012046 -0.008416 0.249718
0.013278 -0.008427 0.250079
0.014522 -0.008444 0.250602
0.015739 -0.008443 0.250622
0.016971 -0.008450 0.250870
0.018230 -0.008469 0.251456
0.019573 -0.008522 0.253074
0.020792 -0.008517 0.252991
0.022007 -0.008512 0.252887
0.023275 -0.008527 0.253380
0.024484 -0.008519 0.253216
0.025696 -0.008514 0.253107
0.032958 -0.010421 0.309909
0.031251 -0.009055 0.269432
0.032362 -0.009001 0.267895
0.033215 -0.008882 0.264421
0.034301 -0.008832 0.263009
0.035556 -0.008827 0.262948
0.037081 -0.008887 0.264827
0.038969 -0.009027 0.269096
0.040096 -0.008988 0.268014
0.041356 -0.008980 0.267873
0.042579 -0.008965 0.267513
0.043667 -0.008923 0.266352
0.045042 -0.008940 0.266973
0.046401 -0.008954 0.267471
0.047588 -0.008934 0.266983
0.048965 -0.008950 0.267569
0.050362 -0.008969 0.268234
0.052875 -0.009181 0.274675
0.054367 -0.009209 0.275631
0.055688 -0.009208 0.275706
0.056984 -0.009203 0.275657
0.058339 -0.009207 0.275900
0.059727 -0.009216 0.276287
0.061077 -0.009219 0.276493
0.062357 -0.009212 0.276386
0.063691 -0.009213 0.276520
0.064960 -0.009204 0.276380
0.065710 -0.009124 0.274082
0.065791 -0.008956 0.269140
0.066337 -0.008856 0.266254
0.067142 -0.008795 0.264502
0.068200 -0.008767 0.263791
0.069280 -0.008744 0.263193
0.070295 -0.008714 0.262379
0.071247 -0.008677 0.261360
0.072206 -0.008642 0.260404
0.073216 -0.008614 0.259667
0.074129 -0.008576 0.258612
0.074991 -0.008533 0.257421
0.075753 -0.008481 0.255927
0.076404 -0.008418 0.254113
0.077193 -0.008372 0.252807
0.078045 -0.008334 0.251745
0.078934 -0.008301 0.250832
0.079931 -0.008281 0.250284
0.080756 -0.008243 0.249218
0.080985 -0.008146 0.246371
0.079993 -0.007932 0.239941
0.080670 -0.007886 0.238623
0.081304 -0.007838 0.237216
0.082030 -0.007800 0.236110
0.082684 -0.007755 0.234826
0.083395 -0.007718 0.233733
0.084300 -0.007699 0.233204
0.085048 -0.007666 0.232257
0.085767 -0.007632 0.231254
0.086521 -0.007602 0.230366
0.087249 -0.007570 0.229425
0.087947 -0.007536 0.228429
0.088460 -0.007488 0.226977
0.089217 -0.007461 0.226175
0.089903 -0.007429 0.225212
0.090572 -0.007396 0.224222
0.091240 -0.007364 0.223250
0.091680 -0.007315 0.221741
0.092304 -0.007281 0.220702
0.092532 -0.007217 0.218748
0.093420 -0.007206 0.218370
0.094391 -0.007201 0.218189
0.095095 -0.007176 0.217394
0.095886 -0.007158 0.216808
0.096688 -0.007141 0.216251
0.097372 -0.007116 0.215438
0.098020 -0.007089 0.214555
0.098688 -0.007063 0.213727
0.099098 -0.007021 0.212357
0.099418 -0.006972 0.210814
0.099728 -0.006924 0.209275
0.100114 -0.006882 0.207915
0.100602 -0.006848 0.206783
0.101027 -0.006810 0.205537
0.101564 -0.006781 0.204531
0.101903 -0.006739 0.203141
0.102438 -0.006711 0.202155
0.103329 -0.006706 0.201873
0.103701 -0.006668 0.200581
0.104081 -0.006631 0.199318
-1.632787 -0.089360 3.169810
-1.612371 -0.089051 3.160793
-1.619261 -0.090259 3.205496
-1.615804 -0.090907 3.230247
-1.612324 -0.091567 3.255293
-0.707244 -0.040938 1.456669
-0.705280 -0.041221 1.467297
-0.712761 -0.042067 1.497934
-0.704431 -0.041987 1.495575
-0.697144 -0.041969 1.495350
-0.689009 -0.041899 1.493232
-0.678672 -0.041692 1.486195
-0.671092 -0.041653 1.485066
-0.661271 -0.041472 1.478855
-0.653154 -0.041395 1.476319
-0.644854 -0.041305 1.473270
-0.635944 -0.041173 1.468706
-0.630263 -0.041251 1.471545
-0.622664 -0.041203 1.469885
-0.613278 -0.041034 1.463886
-0.604626 -0.040912 1.459494
-0.592878 -0.040575 1.447414
-0.581513 -0.040257 1.435977
-0.572607 -0.040103 1.430388
-0.560402 -0.039713 1.416308
-0.549102 -0.039378 1.404186
-0.540665 -0.039242 1.399165
-0.529367 -0.038894 1.386507
-0.517669 -0.038507 1.372464
-0.503415 -0.037917 1.351195
-0.493655 -0.037656 1.341594
-0.483885 -0.037387 1.331713
-0.472425 -0.036979 1.316852
-0.461716 -0.036620 1.303720
-0.451671 -0.036305 1.292135
-0.442821 -0.036078 1.283698
-0.437537 -0.036140 1.285507
-0.338045 -0.029556 1.049880
-0.330889 -0.029360 1.042534
-0.325442 -0.029312 1.040438
-0.321207 -0.029373 1.042214
-0.315839 -0.029332 1.040317
-0.310504 -0.029292 1.038479
-0.305392 -0.029272 1.037350
-0.299742 -0.029199 1.034332
-0.294260 -0.029141 1.031817
-0.287936 -0.028996 1.026229
-0.281932 -0.028878 1.021627
-0.275803 -0.028744 1.016416
-0.267498 -0.028374 1.002880
-0.261407 -0.028230 0.997330
-0.255113 -0.028058 0.990803
-0.245070 -0.027460 0.969228
-0.207265 -0.024612 0.867456
-0.056421 -0.007126 0.250788
-0.054910 -0.007085 0.249238
-0.053239 -0.007021 0.246880
-0.052098 -0.007027 0.246943
-0.050733 -0.007001 0.245926
-0.049189 -0.006949 0.243982
-0.047299 -0.006844 0.240193
-0.045213 -0.006705 0.235205
-0.043849 -0.006669 0.233826
-0.042838 -0.006686 0.234316
-0.041547 -0.006659 0.233266
-0.040061 -0.006599 0.231043
-0.038635 -0.006545 0.229057
-0.037195 -0.006486 0.226880
-0.035421 -0.006363 0.222484
-0.033506 -0.006206 0.216914
-0.032441 -0.006202 0.216675
-0.031556 -0.006233 0.217673
-0.030635 -0.006260 0.218492
-0.030175 -0.006385 0.222772
-0.029249 -0.006417 0.223816
-0.028118 -0.006405 0.223316
-0.027258 -0.006457 0.225027
-0.026304 -0.006489 0.226079
-0.025361 -0.006528 0.227335
-0.024437 -0.006575 0.228883
-0.023434 -0.006604 0.229818
-0.022459 -0.006644 0.231140
-0.021349 -0.006647 0.231162
-0.020297 -0.006668 0.231848
-0.019253 -0.006696 0.232731
-0.018180 -0.006715 0.233349
-0.017121 -0.006744 0.234271
-0.016032 -0.006763 0.234887
-0.014986 -0.006805 0.236291
-0.013919 -0.006844 0.237577
-0.012798 -0.006861 0.238107
-0.011689 -0.006888 0.239015
-0.010545 -0.006898 0.239323
-0.009410 -0.006918 0.239970
-0.008261 -0.006931 0.240384
-0.007112 -0.006950 0.240996
-0.005951 -0.006961 0.241362
-0.004788 -0.006974 0.241775
-0.003626 -0.006999 0.242623
-0.002458 -0.007031 0.243697
-0.001275 -0.007038 0.243941
-0.000089 -0.007051 0.244358
0.001101 -0.007065 0.244853
0.002294 -0.007074 0.245150
0.003496 -0.007094 0.245862
0.004714 -0.007128 0.247028
0.005930 -0.007146 0.247670
0.007144 -0.007156 0.248013
0.008359 -0.007163 0.248281
0.009591 -0.007182 0.248940
0.010822 -0.007196 0.249447
0.012054 -0.007207 0.249867
0.013288 -0.007218 0.250258
0.014515 -0.007223 0.250458
0.015747 -0.007230 0.250725
0.016988 -0.007239 0.251095
0.018230 -0.007248 0.251441
0.019460 -0.007251 0.251599
0.020731 -0.007268 0.252230
0.022005 -0.007284 0.252846
0.023302 -0.007306 0.253651
0.024519 -0.007302 0.253560
0.026315 -0.007462 0.259186
0.027552 -0.007456 0.259058
0.031332 -0.007770 0.270111
0.032326 -0.007695 0.267572
0.033133 -0.007583 0.263751
0.034127 -0.007520 0.261649
0.035546 -0.007552 0.262851
0.037180 -0.007626 0.265519
0.038826 -0.007698 0.268090
0.039892 -0.007653 0.266636
0.041048 -0.007628 0.265856
0.042257 -0.007615 0.265472
0.043536 -0.007614 0.265538
0.044974 -0.007640 0.266551
0.046290 -0.007645 0.266813
0.047622 -0.007652 0.267155
0.048990 -0.007664 0.267686
0.050685 -0.007725 0.269936
0.052662 -0.007826 0.273549
0.054141 -0.007849 0.274470
0.055740 -0.007888 0.275946
0.056840 -0.007856 0.274945
0.058207 -0.007862 0.275260
0.059610 -0.007873 0.275732
0.060928 -0.007872 0.275806
0.062265 -0.007873 0.275964
0.063573 -0.007870 0.275992
0.064868 -0.007867 0.275971
0.065909 -0.007833 0.274896
0.065584 -0.007641 0.268281
0.066298 -0.007576 0.266085
0.067221 -0.007536 0.264799
0.068236 -0.007508 0.263920
0.069262 -0.007482 0.263113
0.070286 -0.007457 0.262331
0.071240 -0.007426 0.261324
0.072296 -0.007406 0.260721
0.073262 -0.007378 0.259818
0.074118 -0.007339 0.258564
0.074609 -0.007267 0.256097
0.075379 -0.007223 0.254655
0.076235 -0.007189 0.253544
0.077103 -0.007158 0.252506
0.078061 -0.007135 0.251789
0.078821 -0.007095 0.250465
0.079693 -0.007067 0.249532
0.080330 -0.007019 0.247899
0.080879 -0.006964 0.246043
0.080816 -0.006859 0.242405
0.080697 -0.006753 0.238699
0.081275 -0.006707 0.237128
0.081943 -0.006669 0.235854
0.082544 -0.006627 0.234424
0.083256 -0.006596 0.233340
0.084118 -0.006576 0.232697
0.084869 -0.006549 0.231766
0.085537 -0.006516 0.230630
0.086481 -0.006504 0.230255
0.087227 -0.006479 0.229368
0.087936 -0.006451 0.228398
0.088598 -0.006420 0.227331
0.089227 -0.006388 0.226201
0.089690 -0.006345 0.224677
0.090424 -0.006322 0.223856
0.091089 -0.006294 0.222880
0.091701 -0.006264 0.221793
0.092099 -0.006219 0.220213
0.092456 -0.006174 0.218569
0.093325 -0.006162 0.218150
0.094331 -0.006161 0.218052
0.095032 -0.006139 0.217254
0.095765 -0.006120 0.216538
0.096581 -0.006107 0.216014
0.097360 -0.006091 0.215414
0.097963 -0.006065 0.214435
0.098505 -0.006036 0.213337
0.099010 -0.006005 0.212172
0.099440 -0.005971 0.210866
0.099844 -0.005935 0.209524
0.100415 -0.005910 0.208546
0.101002 -0.005887 0.207612
0.101442 -0.005855 0.206389
0.101863 -0.005823 0.205141
0.102318 -0.005794 0.203977
0.102622 -0.005756 0.202526
0.103528 -0.005753 0.202271
0.104055 -0.005729 0.201274
0.104687 -0.005711 0.200487
-1.648047 -0.075050 3.199537
-1.635393 -0.075156 3.206021
-1.631007 -0.075646 3.228841
-1.618261 -0.075755 3.235245
-0.712138 -0.034297 1.466779
-0.711921 -0.034620 1.481143
-0.711161 -0.034921 1.494601
-0.707367 -0.035079 1.501835
-0.699706 -0.035046 1.500869
-0.690086 -0.034914 1.495586
-0.680946 -0.034803 1.491193
-0.672854 -0.034744 1.488982
-0.663083 -0.034597 1.482921
-0.655824 -0.034579 1.482366
-0.647287 -0.034492 1.478836
-0.639840 -0.034463 1.477710
-0.633123 -0.034473 1.478227
-0.625301 -0.034422 1.476110
-0.618393 -0.034421 1.476096
-0.608182 -0.034234 1.468077
-0.597572 -0.034021 1.458872
-0.586995 -0.033804 1.449507
-0.576218 -0.033571 1.439401
-0.567037 -0.033426 1.433068
-0.556161 -0.033177 1.422226
-0.547306 -0.033044 1.416335
-0.538641 -0.032920 1.410782
-0.528059 -0.032674 1.399992
-0.517906 -0.032448 1.390071
-0.506969 -0.032167 1.377758
-0.495294 -0.031832 1.363089
-0.483283 -0.031466 1.347095
-0.471207 -0.031086 1.330493
-0.458853 -0.030678 1.312654
-0.448106 -0.030367 1.298989
-0.433957 -0.029814 1.274957
-0.428696 -0.029865 1.276734
-0.336205 -0.024449 1.044138
-0.329814 -0.024340 1.039115
-0.324916 -0.024340 1.038723
-0.321226 -0.024432 1.042241
-0.315989 -0.024407 1.040777
-0.310600 -0.024370 1.038764
-0.305658 -0.024367 1.038215
-0.300170 -0.024320 1.035770
-0.294604 -0.024264 1.032985
-0.288825 -0.024190 1.029357
-0.282679 -0.024081 1.024288
-0.276491 -0.023965 1.018906
-0.269579 -0.023781 1.010635
-0.262422 -0.023569 1.001155
-0.256099 -0.023425 0.994586
-0.248254 -0.023134 0.981773
-0.243970 -0.023170 0.982845
-0.056431 -0.005927 0.250817
-0.054720 -0.005872 0.248360
-0.053385 -0.005855 0.247545
-0.052259 -0.005861 0.247691
-0.050893 -0.005840 0.246687
-0.048601 -0.005710 0.241048
-0.047086 -0.005666 0.239095
-0.045867 -0.005657 0.238594
-0.044709 -0.005655 0.238398
-0.042529 -0.005520 0.232609
-0.041269 -0.005501 0.231688
-0.039662 -0.005433 0.228729
-0.038591 -0.005437 0.228781
-0.036945 -0.005357 0.225343
-0.035555 -0.005311 0.223311
-0.033775 -0.005203 0.218641
-0.032571 -0.005178 0.217532
-0.031518 -0.005177 0.217395
-0.031392 -0.005334 0.223869
-0.030168 -0.005308 0.222706
-0.029141 -0.005316 0.222971
-0.028183 -0.005339 0.223816
-0.027189 -0.005356 0.224438
-0.026255 -0.005386 0.225644
-0.025344 -0.005424 0.227157
-0.024447 -0.005469 0.228960
-0.023424 -0.005489 0.229699
-0.022440 -0.005520 0.230925
-0.021360 -0.005530 0.231261
-0.020287 -0.005542 0.231718
-0.019207 -0.005554 0.232147
-0.018202 -0.005591 0.233612
-0.017137 -0.005613 0.234461
-0.016037 -0.005625 0.234935
-0.014946 -0.005644 0.235639
-0.013835 -0.005656 0.236126
-0.012802 -0.005707 0.238164
-0.011686 -0.005726 0.238918
-0.010554 -0.005741 0.239514
-0.009408 -0.005751 0.239884
-0.008262 -0.005764 0.240384
-0.007110 -0.005776 0.240875
-0.005954 -0.005791 0.241450
-0.004788 -0.005799 0.241740
-0.003621 -0.005812 0.242268
-0.002450 -0.005827 0.242888
-0.001272 -0.005840 0.243404
-0.000089 -0.005858 0.244162
0.001100 -0.005869 0.244587
0.002292 -0.005876 0.244878
0.003488 -0.005886 0.245284
0.004691 -0.005899 0.245841
0.005934 -0.005946 0.247803
0.007133 -0.005942 0.247626
0.008356 -0.005955 0.248189
0.009604 -0.005980 0.249259
0.010853 -0.006001 0.250144
0.012069 -0.006001 0.250155
0.013284 -0.006000 0.250161
0.014529 -0.006012 0.250688
0.015751 -0.006013 0.250771
0.016987 -0.006020 0.251076
0.018219 -0.006023 0.251269
0.019442 -0.006024 0.251343
0.020698 -0.006034 0.251816
0.022330 -0.006147 0.256561
0.023450 -0.006114 0.255250
0.024591 -0.006089 0.254285
0.025990 -0.006128 0.255970
0.027338 -0.006152 0.257033
0.029801 -0.006414 0.268030
0.031076 -0.006408 0.267885
0.031645 -0.006264 0.261925
0.032899 -0.006261 0.261872
0.034131 -0.006254 0.261664
0.035200 -0.006219 0.260282
0.037100 -0.006328 0.264927
0.038406 -0.006332 0.265178
0.039757 -0.006343 0.265719
0.040999 -0.006336 0.265527
0.042255 -0.006332 0.265440
0.043576 -0.006337 0.265768
0.044927 -0.006347 0.266255
0.046250 -0.006352 0.266567
0.047588 -0.006359 0.266952
0.049008 -0.006376 0.267770
0.050962 -0.006460 0.271401
0.052537 -0.006493 0.272888
0.054183 -0.006532 0.274670
0.055609 -0.006544 0.275281
0.056878 -0.006538 0.275117
0.058232 -0.006541 0.275362
0.059589 -0.006545 0.275619
0.060891 -0.006542 0.275622
0.062189 -0.006539 0.275613
0.063497 -0.006538 0.275650
0.064712 -0.006527 0.275296
0.065878 -0.006511 0.274756
0.066819 -0.006475 0.273319
0.066110 -0.006283 0.265321
0.067041 -0.006251 0.264078
0.067968 -0.006220 0.262872
0.069197 -0.006217 0.262857
0.070149 -0.006190 0.261814
0.071165 -0.006170 0.261041
0.072077 -0.006141 0.259922
0.073099 -0.006122 0.259233
0.073888 -0.006085 0.257755
0.074547 -0.006039 0.255879
0.075415 -0.006011 0.254770
0.076356 -0.005989 0.253939
0.077214 -0.005962 0.252861
0.078189 -0.005944 0.252196
0.079022 -0.005917 0.251099
0.079898 -0.005893 0.250168
0.080867 -0.005877 0.249551
0.081652 -0.005848 0.248391
0.081882 -0.005781 0.245597
0.081179 -0.005650 0.240120
0.081611 -0.005602 0.238102
0.081948 -0.005548 0.235866
0.082717 -0.005524 0.234912
0.083201 -0.005483 0.233184
0.083750 -0.005446 0.231677
0.084694 -0.005436 0.231284
0.085472 -0.005416 0.230454
0.086063 -0.005384 0.229142
0.086934 -0.005371 0.228594
0.087856 -0.005361 0.228190
0.088398 -0.005329 0.226816
0.088832 -0.005290 0.225198
0.089555 -0.005270 0.224338
0.090375 -0.005256 0.223735
0.091077 -0.005235 0.222851
0.091732 -0.005212 0.221868
0.092199 -0.005180 0.220455
0.092682 -0.005148 0.219105
0.093517 -0.005137 0.218601
0.094334 -0.005125 0.218061
0.095018 -0.005106 0.217223
0.095736 -0.005090 0.216474
0.096599 -0.005081 0.216060
0.097352 -0.005067 0.215401
0.097934 -0.005045 0.214376
0.098561 -0.005025 0.213462
0.099203 -0.005006 0.212592
0.099616 -0.004976 0.211244
0.100062 -0.004949 0.209986
0.100537 -0.004923 0.208805
0.101104 -0.004903 0.207828
0.101615 -0.004880 0.206747
0.102032 -0.004853 0.205488
0.102530 -0.004831 0.204406
0.102871 -0.004801 0.203025
0.103645 -0.004792 0.202507
0.104068 -0.004768 0.201308
0.104522 -0.004745 0.200180
-0.725627 -0.027627 1.479735
-0.719796 -0.027668 1.482579
-0.715530 -0.027770 1.488678
-0.720624 -0.028241 1.514512
-0.711069 -0.028142 1.509716
-0.702416 -0.028077 1.506702
-0.691810 -0.027932 1.499340
-0.682232 -0.027826 1.494024
-0.674446 -0.027792 1.492518
-0.664923 -0.027685 1.487046
-0.657193 -0.027651 1.485470
-0.649493 -0.027618 1.483885
-0.641646 -0.027578 1.481887
-0.634735 -0.027578 1.481996
-0.627022 -0.027542 1.480177
-0.620094 -0.027541 1.480157
-0.611373 -0.027459 1.475779
-0.601407 -0.027319 1.468232
-0.592193 -0.027211 1.462340
-0.581915 -0.027050 1.453627
-0.572952 -0.026948 1.448008
-0.563101 -0.026801 1.439965
-0.552850 -0.026631 1.430672
-0.543392 -0.026496 1.423212
-0.533981 -0.026360 1.415680
-0.523920 -0.026188 1.406198
-0.511739 -0.025905 1.390703
-0.501435 -0.025710 1.379969
-0.488587 -0.025379 1.361860
-0.475911 -0.025047 1.343756
-0.461650 -0.024623 1.320633
-0.447731 -0.024205 1.297882
-0.432809 -0.023721 1.271562
-0.419302 -0.023302 1.248733
-0.408074 -0.023000 1.232152
-0.402963 -0.023039 1.233832
-0.335592 -0.019468 1.042210
-0.329667 -0.019407 1.038628
-0.324588 -0.019396 1.037648
-0.320821 -0.019464 1.040900
-0.315665 -0.019449 1.039680
-0.310475 -0.019431 1.038315
-0.305342 -0.019416 1.037111
-0.300201 -0.019400 1.035848
-0.294690 -0.019360 1.033254
-0.288851 -0.019296 1.029417
-0.283183 -0.019242 1.026082
-0.276775 -0.019135 1.019918
-0.270131 -0.019007 1.012670
-0.262324 -0.018792 1.000745
-0.256294 -0.018698 0.995306
-0.250023 -0.018583 0.988731
-0.241483 -0.018291 0.972786
-0.056257 -0.004712 0.250033
-0.054755 -0.004686 0.248508
-0.053457 -0.004676 0.247866
-0.052337 -0.004682 0.248048
-0.050991 -0.004667 0.247151
-0.049605 -0.004648 0.246014
-0.047534 -0.004562 0.241360
-0.045855 -0.004510 0.238519
-0.043774 -0.004415 0.233402
-0.042633 -0.004413 0.233167
-0.041477 -0.004409 0.232848
-0.040554 -0.004430 0.233860
-0.039408 -0.004427 0.233610
-0.038116 -0.004408 0.232469
-0.036986 -0.004406 0.232287
-0.035981 -0.004420 0.232909
-0.034811 -0.004413 0.232478
-0.033671 -0.004411 0.232231
-0.032520 -0.004406 0.231900
-0.030287 -0.004249 0.223568
-0.028921 -0.004207 0.221273
-0.028039 -0.004235 0.222660
-0.027238 -0.004278 0.224829
-0.026196 -0.004285 0.225119
-0.025251 -0.004310 0.226308
-0.024415 -0.004356 0.228642
-0.023463 -0.004384 0.230071
-0.022480 -0.004409 0.231322
-0.021373 -0.004412 0.231382
-0.020301 -0.004422 0.231852
-0.019256 -0.004440 0.232723
-0.018141 -0.004443 0.232821
-0.017159 -0.004481 0.234743
-0.016034 -0.004485 0.234879
-0.014931 -0.004495 0.235380
-0.013836 -0.004511 0.236120
-0.012727 -0.004523 0.236739
-0.011665 -0.004558 0.238481
-0.010456 -0.004535 0.237269
-0.009395 -0.004579 0.239528
-0.008254 -0.004592 0.240156
-0.007103 -0.004601 0.240620
-0.005945 -0.004610 0.241040
-0.004786 -0.004622 0.241618
-0.003622 -0.004635 0.242319
-0.002451 -0.004648 0.242961
-0.001272 -0.004653 0.243193
-0.000090 -0.004685 0.244853
0.001102 -0.004692 0.245218
0.002295 -0.004694 0.245297
0.003495 -0.004703 0.245782
0.004697 -0.004710 0.246154
0.005924 -0.004734 0.247386
0.007160 -0.004756 0.248547
0.008384 -0.004764 0.249000
0.009619 -0.004776 0.249639
0.010838 -0.004778 0.249774
0.012065 -0.004783 0.250057
0.013285 -0.004785 0.250172
0.014506 -0.004786 0.250283
0.015739 -0.004791 0.250572
0.016975 -0.004796 0.250875
0.018205 -0.004799 0.251069
0.019473 -0.004811 0.251731
0.020773 -0.004829 0.252716
0.022265 -0.004887 0.255800
0.023466 -0.004879 0.255415
0.024581 -0.004854 0.254171
0.025944 -0.004878 0.255510
0.027242 -0.004889 0.256112
0.028912 -0.004962 0.260023
0.030204 -0.004967 0.260358
0.031442 -0.004963 0.260226
0.032749 -0.004970 0.260665
0.034109 -0.004984 0.261488
0.035542 -0.005008 0.262793
0.036806 -0.005006 0.262818
0.038033 -0.005000 0.262589
0.039422 -0.005015 0.263464
0.040893 -0.005040 0.264825
0.042199 -0.005043 0.265078
0.043562 -0.005052 0.265667
0.044888 -0.005057 0.266013
0.046233 -0.005064 0.266455
0.047586 -0.005071 0.266927
0.049175 -0.005102 0.268672
0.050872 -0.005142 0.270906
0.052451 -0.005169 0.272425
0.054077 -0.005199 0.274120
0.055493 -0.005208 0.274695
0.056816 -0.005208 0.274806
0.058140 -0.005208 0.274918
0.059506 -0.005212 0.275227
0.060845 -0.005214 0.275403
0.062131 -0.005211 0.275348
0.063415 -0.005207 0.275283
0.064744 -0.005208 0.275423
0.065845 -0.005190 0.274608
0.066660 -0.005152 0.272660
0.066136 -0.005013 0.265417
0.066993 -0.004982 0.263880
0.068165 -0.004975 0.263626
0.069242 -0.004962 0.263021
0.070141 -0.004937 0.261776
0.071098 -0.004916 0.260787
0.072048 -0.004896 0.259811
0.073056 -0.004881 0.259074
0.073796 -0.004848 0.257424
0.074557 -0.004818 0.255906
0.075482 -0.004799 0.254989
0.076491 -0.004786 0.254381
0.077300 -0.004761 0.253139
0.078221 -0.004744 0.252292
0.078987 -0.004717 0.250980
0.079973 -0.004705 0.250396
0.080939 -0.004692 0.249767
0.081608 -0.004662 0.248250
0.082105 -0.004624 0.246261
0.081684 -0.004535 0.241609
0.082030 -0.004492 0.239322
0.082245 -0.004442 0.236717
0.082549 -0.004398 0.234433
0.082698 -0.004347 0.231770
0.083815 -0.004348 0.231853
0.084673 -0.004336 0.231226
0.085324 -0.004313 0.230052
0.086156 -0.004300 0.229388
0.086950 -0.004286 0.228634
0.087763 -0.004273 0.227948
0.088304 -0.004247 0.226574
0.088720 -0.004216 0.224914
0.089446 -0.004200 0.224066
0.090237 -0.004187 0.223394
0.090934 -0.004171 0.222503
0.091442 -0.004146 0.221169
0.092042 -0.004126 0.220081
0.092769 -0.004112 0.219311
0.093463 -0.004097 0.218476
0.094142 -0.004081 0.217619
0.094918 -0.004071 0.216998
0.095630 -0.004057 0.216238
0.096446 -0.004049 0.215720
0.097141 -0.004035 0.214937
0.097775 -0.004019 0.214032
0.098459 -0.004006 0.213245
0.099049 -0.003989 0.212264
0.099603 -0.003971 0.211221
0.099941 -0.003945 0.209735
0.100522 -0.003929 0.208778
0.101033 -0.003910 0.207686
0.101562 -0.003893 0.206645
0.101997 -0.003872 0.205423
0.102692 -0.003862 0.204734
0.103355 -0.003850 0.203987
0.103911 -0.003835 0.203032
0.104491 -0.003821 0.202133
0.105246 -0.003814 0.201574
-0.721391 -0.020519 1.471120
-0.725585 -0.020835 1.494525
-0.720667 -0.020894 1.499386
-0.721236 -0.021114 1.515817
-0.715793 -0.021161 1.519764
-0.705879 -0.021076 1.514145
-0.695482 -0.020974 1.507313
-0.685669 -0.020889 1.501566
-0.676910 -0.020834 1.497981
-0.668135 -0.020777 1.494240
-0.659221 -0.020715 1.490061
-0.652985 -0.020737 1.491871
-0.645274 -0.020712 1.490274
-0.637334 -0.020679 1.488067
-0.629898 -0.020662 1.486968
-0.622776 -0.020655 1.486562
-0.614241 -0.020601 1.482702
-0.605298 -0.020532 1.477728
-0.594965 -0.020413 1.469181
-0.585457 -0.020321 1.462470
-0.575269 -0.020202 1.453858
-0.565550 -0.020098 1.446221
-0.556065 -0.019999 1.438986
-0.547643 -0.019937 1.434339
-0.538854 -0.019860 1.428589
-0.530056 -0.019780 1.422656
-0.520817 -0.019682 1.415362
-0.510154 -0.019527 1.403952
-0.498618 -0.019335 1.389804
-0.487139 -0.019139 1.375444
-0.470644 -0.018739 1.346346
-0.458277 -0.018494 1.328435
-0.442583 -0.018107 1.300260
-0.437219 -0.018137 1.302073
-0.336452 -0.014568 1.044863
-0.329708 -0.014487 1.038739
-0.323925 -0.014447 1.035509
-0.320882 -0.014530 1.041079
-0.315422 -0.014504 1.038860
-0.310218 -0.014490 1.037434
-0.305079 -0.014478 1.036196
-0.299804 -0.014459 1.034454
-0.294535 -0.014440 1.032685
-0.288466 -0.014381 1.028019
-0.282147 -0.014307 1.022303
-0.275810 -0.014229 1.016337
-0.269605 -0.014156 1.010672
-0.262195 -0.014016 1.000224
-0.256610 -0.013970 0.996505
-0.249091 -0.013815 0.985018
-0.242137 -0.013686 0.975390
-0.056229 -0.003514 0.249902
-0.054808 -0.003500 0.248740
-0.053449 -0.003488 0.247820
-0.052281 -0.003489 0.247772
-0.051400 -0.003510 0.249122
-0.050046 -0.003498 0.248196
-0.048739 -0.003490 0.247469
-0.046792 -0.003434 0.243381
-0.045750 -0.003443 0.243928
-0.044665 -0.003449 0.244271
-0.043261 -0.003431 0.242853
-0.042116 -0.003432 0.242854
-0.040899 -0.003428 0.242439
-0.039783 -0.003432 0.242625
-0.037108 -0.003298 0.233044
-0.036046 -0.003303 0.233319
-0.034898 -0.003301 0.233043
-0.033570 -0.003280 0.231522
-0.032020 -0.003236 0.228322
-0.030182 -0.003159 0.222783
-0.028975 -0.003145 0.221680
-0.027989 -0.003154 0.222250
-0.027133 -0.003179 0.223949
-0.026262 -0.003205 0.225670
-0.025453 -0.003240 0.228111
-0.024459 -0.003255 0.229047
-0.023453 -0.003269 0.229958
-0.022421 -0.003281 0.230708
-0.021372 -0.003291 0.231363
-0.020303 -0.003299 0.231869
-0.019215 -0.003305 0.232213
-0.018135 -0.003313 0.232729
-0.017093 -0.003330 0.233826
-0.016027 -0.003344 0.234766
-0.014935 -0.003354 0.235435
-0.013833 -0.003364 0.236058
-0.012715 -0.003371 0.236513
-0.011622 -0.003387 0.237578
-0.010555 -0.003415 0.239496
-0.009437 -0.003431 0.240581
-0.008282 -0.003436 0.240939
-0.007127 -0.003444 0.241418
-0.005967 -0.003451 0.241930
-0.004790 -0.003450 0.241820
-0.003630 -0.003464 0.242778
-0.002460 -0.003479 0.243771
-0.001279 -0.003491 0.244620
-0.000090 -0.003498 0.245089
0.001103 -0.003502 0.245354
0.002299 -0.003507 0.245702
0.003498 -0.003511 0.245966
0.004704 -0.003518 0.246487
0.005926 -0.003532 0.247470
0.007152 -0.003543 0.248252
0.008370 -0.003548 0.248586
0.009605 -0.003557 0.249270
0.010846 -0.003567 0.249956
0.012053 -0.003564 0.249801
0.013269 -0.003565 0.249866
0.014514 -0.003572 0.250403
0.015730 -0.003572 0.250419
0.016966 -0.003576 0.250736
0.018212 -0.003581 0.251150
0.019454 -0.003585 0.251483
0.020720 -0.003593 0.252058
0.022337 -0.003657 0.256625
0.023458 -0.003638 0.255312
0.024584 -0.003621 0.254197
0.025933 -0.003637 0.255390
0.027204 -0.003642 0.255745
0.029129 -0.003729 0.261962
0.030291 -0.003716 0.261102
0.031489 -0.003708 0.260611
0.032708 -0.003703 0.260326
0.034008 -0.003707 0.260701
0.035444 -0.003725 0.262062
0.036780 -0.003732 0.262623
0.038031 -0.003730 0.262567
0.039377 -0.003737 0.263157
0.040915 -0.003762 0.264961
0.042212 -0.003763 0.265147
0.043516 -0.003765 0.265380
0.044902 -0.003774 0.266087
0.046312 -0.003784 0.266905
0.047673 -0.003790 0.267409
0.049046 -0.003796 0.267958
0.050760 -0.003828 0.270302
0.052402 -0.003853 0.272166
0.054019 -0.003875 0.273817
0.055498 -0.003886 0.274712
0.056755 -0.003882 0.274500
0.058053 -0.003880 0.274500
0.059430 -0.003884 0.274865
0.060728 -0.003883 0.274866
0.062030 -0.003881 0.274891
0.063314 -0.003879 0.274841
0.064597 -0.003877 0.274789
0.065826 -0.003872 0.274523
0.066844 -0.003855 0.273404
0.065720 -0.003717 0.263739
0.066721 -0.003703 0.262806
0.067791 -0.003692 0.262173
0.068850 -0.003682 0.261525
0.069783 -0.003665 0.260433
0.070765 -0.003652 0.259558
0.071748 -0.003639 0.258723
0.072691 -0.003624 0.257773
0.073708 -0.003614 0.257113
0.074486 -0.003592 0.255657
0.075393 -0.003577 0.254683
0.076366 -0.003566 0.253961
0.077223 -0.003550 0.252882
0.078187 -0.003539 0.252178
0.079017 -0.003522 0.251073
0.079851 -0.003507 0.250013
0.080723 -0.003493 0.249099
0.081386 -0.003471 0.247574
0.082045 -0.003449 0.246078
0.082304 -0.003411 0.243440
0.081936 -0.003349 0.239045
0.081645 -0.003292 0.234989
0.082458 -0.003280 0.234172
0.083023 -0.003258 0.232681
0.083622 -0.003239 0.231320
0.084521 -0.003231 0.230810
0.085314 -0.003220 0.230025
0.085945 -0.003203 0.228825
0.086855 -0.003196 0.228385
0.087604 -0.003184 0.227534
0.088271 -0.003170 0.226491
0.088926 -0.003155 0.225437
0.089570 -0.003140 0.224376
0.090308 -0.003129 0.223569
0.091038 -0.003118 0.222756
0.091629 -0.003102 0.221620
0.092250 -0.003088 0.220578
0.092878 -0.003074 0.219571
0.093633 -0.003065 0.218876
0.094340 -0.003055 0.218079
0.095089 -0.003046 0.217390
0.095916 -0.003039 0.216886
0.096597 -0.003028 0.216058
0.097310 -0.003019 0.215313
0.098050 -0.003011 0.214635
0.098683 -0.002999 0.213732
0.099179 -0.002984 0.212546
0.099586 -0.002966 0.211189
0.100165 -0.002953 0.210210
0.100528 -0.002935 0.208795
0.101100 -0.002923 0.207829
0.101665 -0.002911 0.206857
0.102123 -0.002896 0.205681
0.102646 -0.002884 0.204647
0.103182 -0.002872 0.203650
0.104054 -0.002869 0.203316
0.104637 -0.002859 0.202420
0.105269 -0.002850 0.201624
-0.720794 -0.013561 1.469923
-0.722114 -0.013715 1.487394
-0.723013 -0.013863 1.504283
-0.720199 -0.013943 1.513653
-0.713332 -0.013945 1.514553
-0.707489 -0.013968 1.517611
-0.697907 -0.013917 1.512580
-0.687797 -0.013854 1.506236
-0.679009 -0.013816 1.502636
-0.671102 -0.013797 1.500885
-0.662867 -0.013769 1.498310
-0.655088 -0.013752 1.496681
-0.649141 -0.013772 1.499210
-0.641504 -0.013757 1.497809
-0.633713 -0.013739 1.495979
-0.627425 -0.013752 1.497662
-0.618434 -0.013707 1.492825
-0.609721 -0.013667 1.488528
-0.599720 -0.013596 1.480924
-0.589067 -0.013510 1.471487
-0.579308 -0.013442 1.464065
-0.569369 -0.013368 1.455984
-0.559840 -0.013302 1.448749
-0.552684 -0.013292 1.447535
-0.543370 -0.013229 1.440554
-0.536243 -0.013219 1.439254
-0.527076 -0.013157 1.432364
-0.518625 -0.013112 1.427256
-0.509313 -0.013044 1.419607
-0.497353 -0.012905 1.404271
-0.486394 -0.012789 1.391390
-0.471898 -0.012576 1.367908
-0.462722 -0.012501 1.359414
-0.457114 -0.012521 1.361309
-0.336868 -0.009630 1.046141
-0.330038 -0.009574 1.039765
-0.323700 -0.009531 1.034778
-0.320632 -0.009585 1.040253
-0.315515 -0.009578 1.039153
-0.309916 -0.009556 1.036410
-0.305106 -0.009558 1.036271
-0.300114 -0.009554 1.035506
-0.294583 -0.009533 1.032839
-0.288961 -0.009508 1.029766
-0.282999 -0.009471 1.025371
-0.276973 -0.009431 1.020604
-0.270362 -0.009369 1.013489
-0.263128 -0.009282 1.003765
-0.256378 -0.009211 0.995584
-0.250234 -0.009158 0.989518
-0.242909 -0.009060 0.978484
-0.056357 -0.002324 0.250463
-0.055323 -0.002331 0.251069
-0.054105 -0.002330 0.250856
-0.052965 -0.002332 0.251010
-0.051962 -0.002341 0.251840
-0.050633 -0.002335 0.251099
-0.049380 -0.002332 0.250716
-0.048063 -0.002327 0.249988
-0.046438 -0.002305 0.247591
-0.044641 -0.002274 0.244135
-0.043240 -0.002262 0.242725
-0.041645 -0.002239 0.240129
-0.040059 -0.002215 0.237453
-0.038503 -0.002191 0.234814
-0.037084 -0.002174 0.232882
-0.035987 -0.002175 0.232927
-0.034792 -0.002170 0.232331
-0.033532 -0.002161 0.231254
-0.031713 -0.002114 0.226127
-0.030326 -0.002093 0.223839
-0.029082 -0.002081 0.222491
-0.028128 -0.002090 0.223350
-0.027154 -0.002098 0.224117
-0.026082 -0.002099 0.224121
-0.025170 -0.002113 0.225570
-0.024446 -0.002145 0.228915
-0.023434 -0.002154 0.229760
-0.022448 -0.002166 0.230977
-0.021406 -0.002173 0.231721
-0.020320 -0.002177 0.232053
-0.019267 -0.002185 0.232833
-0.018191 -0.002191 0.233438
-0.017133 -0.002201 0.234367
-0.016042 -0.002207 0.234972
-0.014944 -0.002213 0.235569
-0.013851 -0.002221 0.236349
-0.012737 -0.002226 0.236906
-0.011601 -0.002229 0.237137
-0.010486 -0.002237 0.237918
-0.009353 -0.002242 0.238434
-0.008243 -0.002255 0.239799
-0.007097 -0.002261 0.240385
-0.005947 -0.002268 0.241082
-0.004781 -0.002270 0.241343
-0.003620 -0.002278 0.242117
-0.002455 -0.002289 0.243249
-0.001276 -0.002296 0.243948
-0.000090 -0.002306 0.245068
0.001102 -0.002308 0.245260
0.002297 -0.002310 0.245484
0.003498 -0.002315 0.246015
0.004705 -0.002320 0.246542
0.005932 -0.002331 0.247721
0.007150 -0.002336 0.248194
0.008366 -0.002338 0.248469
0.009591 -0.002342 0.248906
0.010824 -0.002347 0.249444
0.012052 -0.002350 0.249776
0.013269 -0.002350 0.249848
0.014498 -0.002353 0.250123
0.015722 -0.002354 0.250291
0.016958 -0.002357 0.250617
0.018227 -0.002363 0.251351
0.019534 -0.002374 0.252509
0.020815 -0.002380 0.253212
0.022203 -0.002397 0.255078
0.023468 -0.002400 0.255412
0.024611 -0.002390 0.254468
0.025895 -0.002395 0.255008
0.027950 -0.002467 0.262752
0.029213 -0.002466 0.262712
0.030241 -0.002446 0.260659
0.031431 -0.002441 0.260118
0.032660 -0.002438 0.259940
0.034020 -0.002446 0.260787
0.035285 -0.002446 0.260878
0.036741 -0.002459 0.262336
0.038055 -0.002462 0.262721
0.039464 -0.002470 0.263730
0.040855 -0.002477 0.264566
0.042185 -0.002480 0.264975
0.043520 -0.002484 0.265396
0.044899 -0.002489 0.266062
0.046363 -0.002499 0.267191
0.047654 -0.002499 0.267292
0.048987 -0.002501 0.267630
0.050811 -0.002528 0.270566
0.052308 -0.002537 0.271669
0.054141 -0.002562 0.274430
0.055439 -0.002561 0.274414
0.056744 -0.002560 0.274442
0.058066 -0.002561 0.274554
0.059416 -0.002562 0.274796
0.060726 -0.002562 0.274855
0.062009 -0.002560 0.274793
0.063284 -0.002558 0.274705
0.064548 -0.002556 0.274577
0.065764 -0.002552 0.274261
0.066302 -0.002523 0.271183
0.066013 -0.002464 0.264910
0.066681 -0.002442 0.262644
0.067788 -0.002436 0.262156
0.068808 -0.002428 0.261363
0.069716 -0.002417 0.260180
0.070744 -0.002409 0.259478
0.071708 -0.002400 0.258575
0.072713 -0.002393 0.257848
0.073730 -0.002386 0.257188
0.074610 -0.002375 0.256081
0.075465 -0.002364 0.254925
0.076458 -0.002357 0.254265
0.077332 -0.002347 0.253237
0.078220 -0.002337 0.252285
0.079150 -0.002329 0.251494
0.080007 -0.002320 0.250499
0.080887 -0.002311 0.249601
0.081636 -0.002299 0.248331
0.082259 -0.002283 0.246719
0.082372 -0.002254 0.243642
0.082234 -0.002220 0.239913
0.082216 -0.002189 0.236631
0.082841 -0.002176 0.235259
0.083511 -0.002165 0.234047
0.084128 -0.002152 0.232718
0.084527 -0.002134 0.230826
0.085280 -0.002126 0.229932
0.086078 -0.002119 0.229178
0.086393 -0.002100 0.227169
0.087223 -0.002095 0.226544
0.088166 -0.002092 0.226221
0.088842 -0.002083 0.225223
0.089576 -0.002075 0.224393
0.090389 -0.002069 0.223769
0.091132 -0.002062 0.222988
0.091864 -0.002055 0.222190
0.092574 -0.002048 0.221355
0.093141 -0.002038 0.220192
0.093733 -0.002028 0.219110
0.094535 -0.002023 0.218531
0.095269 -0.002017 0.217804
0.095996 -0.002011 0.217069
0.096701 -0.002004 0.216294
0.097375 -0.001997 0.215460
0.098193 -0.001993 0.214950
0.098808 -0.001985 0.214005
0.099447 -0.001978 0.213124
0.099991 -0.001969 0.212049
0.100381 -0.001957 0.210666
0.100897 -0.001948 0.209564
0.101467 -0.001940 0.208585
0.101965 -0.001931 0.207472
0.102300 -0.001919 0.206042
0.102853 -0.001912 0.205063
0.103319 -0.001903 0.203924
0.104046 -0.001898 0.203305
0.104632 -0.001892 0.202415
0.105076 -0.001883 0.201258
-0.733011 -0.006732 1.494848
-0.730256 -0.006769 1.504177
-0.723288 -0.006768 1.504866
-0.725580 -0.006853 1.524974
-0.720170 -0.006868 1.529082
-0.712822 -0.006864 1.529063
-0.702019 -0.006826 1.521501
-0.692354 -0.006799 1.516225
-0.683814 -0.006782 1.513278
-0.674794 -0.006761 1.509150
-0.667429 -0.006756 1.508629
-0.659421 -0.006744 1.506588
-0.653005 -0.006748 1.508138
-0.646133 -0.006748 1.508621
-0.638363 -0.006739 1.506960
-0.630785 -0.006731 1.505686
-0.623158 -0.006723 1.504232
-0.612899 -0.006686 1.496288
-0.603349 -0.006656 1.489886
-0.593863 -0.006627 1.483468
-0.582849 -0.006579 1.473014
-0.573937 -0.006554 1.467666
-0.565746 -0.006537 1.464033
-0.557983 -0.006525 1.461414
-0.549077 -0.006499 1.455683
-0.542179 -0.006497 1.455184
-0.533865 -0.006477 1.450812
-0.525124 -0.006452 1.445137
-0.516279 -0.006425 1.439021
-0.505117 -0.006368 1.426191
-0.494033 -0.006310 1.413240
-0.479977 -0.006213 1.391321
-0.464191 -0.006090 1.363724
-0.453320 -0.006030 1.350006
-0.336506 -0.004670 1.045012
-0.329704 -0.004642 1.038707
-0.323993 -0.004630 1.035707
-0.320053 -0.004642 1.038369
-0.315140 -0.004641 1.037911
-0.310062 -0.004638 1.036891
-0.304770 -0.004631 1.035121
-0.299990 -0.004632 1.035070
-0.294751 -0.004626 1.033419
-0.289006 -0.004611 1.029918
-0.283405 -0.004599 1.026834
-0.277311 -0.004578 1.021841
-0.271254 -0.004556 1.016825
-0.263650 -0.004508 1.005748
-0.257215 -0.004478 0.998824
-0.251556 -0.004461 0.994735
-0.245060 -0.004429 0.987138
-0.054462 -0.001136 0.252508
-0.053333 -0.001137 0.252748
-0.052441 -0.001144 0.254158
-0.051029 -0.001139 0.253060
-0.049256 -0.001126 0.250082
-0.047855 -0.001121 0.248902
-0.046371 -0.001114 0.247229
-0.044925 -0.001108 0.245684
-0.043289 -0.001096 0.242998
-0.041755 -0.001086 0.240765
-0.040932 -0.001095 0.242627
-0.038212 -0.001052 0.233037
-0.036915 -0.001047 0.231819
-0.035817 -0.001047 0.231821
-0.034793 -0.001050 0.232332
-0.033307 -0.001038 0.229699
-0.032007 -0.001032 0.228223
-0.030817 -0.001029 0.227463
-0.029011 -0.001004 0.221941
-0.027965 -0.001005 0.222048
-0.027100 -0.001013 0.223671
-0.026164 -0.001018 0.224824
-0.025249 -0.001025 0.226272
-0.024333 -0.001032 0.227854
-0.023415 -0.001041 0.229568
-0.022323 -0.001041 0.229684
-0.021407 -0.001051 0.231724
-0.020336 -0.001053 0.232228
-0.019278 -0.001057 0.232958
-0.018179 -0.001059 0.233281
-0.017099 -0.001062 0.233905
-0.016034 -0.001066 0.234847
-0.014940 -0.001069 0.235501
-0.013826 -0.001072 0.235923
-0.012703 -0.001073 0.236268
-0.011582 -0.001076 0.236746
-0.010440 -0.001076 0.236874
-0.009306 -0.001078 0.237241
-0.008184 -0.001082 0.238077
-0.007095 -0.001093 0.240331
-0.005944 -0.001096 0.240979
-0.004776 -0.001096 0.241057
-0.003614 -0.001099 0.241731
-0.002446 -0.001102 0.242384
-0.001274 -0.001107 0.243497
-0.000090 -0.001112 0.244546
0.001103 -0.001116 0.245356
0.002301 -0.001119 0.245918
0.003500 -0.001120 0.246163
0.004712 -0.001123 0.246909
0.005923 -0.001125 0.247347
0.007151 -0.001129 0.248228
0.008370 -0.001131 0.248576
0.009590 -0.001132 0.248875
0.010820 -0.001134 0.249363
0.012039 -0.001135 0.249510
0.013259 -0.001135 0.249667
0.014495 -0.001137 0.250075
0.015717 -0.001137 0.250200
0.016970 -0.001140 0.250781
0.018246 -0.001144 0.251618
0.019548 -0.001148 0.252684
0.020858 -0.001153 0.253731
0.022184 -0.001158 0.254849
0.023402 -0.001157 0.254688
0.024606 -0.001156 0.254411
0.025910 -0.001159 0.255155
0.027993 -0.001195 0.263149
0.029231 -0.001193 0.262874
0.030138 -0.001179 0.259766
0.031432 -0.001180 0.260126
0.032768 -0.001183 0.260797
0.034001 -0.001182 0.260639
0.035412 -0.001187 0.261810
0.036749 -0.001190 0.262391
0.038017 -0.001190 0.262460
0.039305 -0.001190 0.262661
0.040786 -0.001196 0.264114
0.042144 -0.001199 0.264711
0.043520 -0.001202 0.265392
0.044952 -0.001206 0.266371
0.046354 -0.001209 0.267136
0.047665 -0.001210 0.267350
0.049070 -0.001213 0.268081
0.050858 -0.001225 0.270817
0.052503 -0.001233 0.272679
0.054112 -0.001240 0.274277
0.055403 -0.001239 0.274235
0.056793 -0.001241 0.274678
0.058114 -0.001241 0.274779
0.059442 -0.001241 0.274914
0.060785 -0.001242 0.275115
0.062094 -0.001242 0.275165
0.063349 -0.001240 0.274983
0.064611 -0.001240 0.274840
0.065752 -0.001236 0.274207
0.064951 -0.001197 0.265655
0.065823 -0.001190 0.264146
0.066647 -0.001183 0.262507
0.067768 -0.001181 0.262078
0.068874 -0.001178 0.261609
0.069785 -0.001173 0.260435
0.070798 -0.001169 0.259677
0.071836 -0.001166 0.259034
0.072841 -0.001162 0.258298
0.073761 -0.001158 0.257294
0.074720 -0.001154 0.256455
0.075563 -0.001148 0.255254
0.076498 -0.001144 0.254397
0.077340 -0.001139 0.253259
0.078238 -0.001134 0.252341
0.079213 -0.001131 0.251692
0.079900 -0.001124 0.250162
0.080713 -0.001119 0.249065
0.081594 -0.001115 0.248204
0.082250 -0.001109 0.246690
0.082133 -0.001092 0.242932
0.081565 -0.001069 0.237961
0.081816 -0.001058 0.235478
0.082704 -0.001055 0.234870
0.083345 -0.001050 0.233580
0.083913 -0.001043 0.232123
0.084578 -0.001038 0.230965
0.085299 -0.001034 0.229984
0.086061 -0.001030 0.229133
0.086571 -0.001023 0.227638
0.087311 -0.001020 0.226774
0.088246 -0.001018 0.226426
0.088791 -0.001012 0.225096
0.089503 -0.001009 0.224210
0.090253 -0.001005 0.223433
0.091172 -0.001004 0.223085
0.091880 -0.001001 0.222231
0.092468 -0.000996 0.221101
0.093078 -0.000991 0.220045
0.093885 -0.000989 0.219467
0.094407 -0.000984 0.218237
0.095193 -0.000982 0.217632
0.095954 -0.000979 0.216975
0.096662 -0.000976 0.216208
0.097283 -0.000973 0.215257
0.098026 -0.000970 0.214587
0.098650 -0.000967 0.213664
0.099389 -0.000964 0.213000
0.100004 -0.000961 0.212078
0.100472 -0.000956 0.210858
0.100993 -0.000952 0.209766
0.101515 -0.000948 0.208687
0.102183 -0.000945 0.207916
0.102619 -0.000940 0.206686
0.103075 -0.000936 0.205508
0.103708 -0.000933 0.204695
0.104258 -0.000929 0.203723
0.104803 -0.000926 0.202747
0.105437 -0.000923 0.201952
-0.724814 0.000323 1.478139
-0.728573 0.000330 1.500718
-0.725909 0.000335 1.510328
-0.723656 0.000340 1.520937
-0.723024 0.000345 1.535149
-0.716250 0.000348 1.536423
-0.706921 0.000349 1.532131
-0.697937 0.000351 1.528456
-0.689523 0.000353 1.525916
-0.681520 0.000354 1.524197
-0.673573 0.000356 1.522523
-0.664696 0.000358 1.518645
-0.657606 0.000360 1.518770
-0.651080 0.000362 1.520177
-0.643533 0.000364 1.519168
-0.633705 0.000365 1.512659
-0.625906 0.000367 1.510869
-0.617089 0.000368 1.506522
-0.606916 0.000368 1.498699
-0.596832 0.000368 1.490890
-0.588223 0.000369 1.486600
-0.579112 0.000370 1.480902
-0.569298 0.000370 1.473229
-0.561810 0.000371 1.471441
-0.554375 0.000373 1.469733
-0.546041 0.000374 1.465552
-0.539020 0.000375 1.464822
-0.530368 0.000376 1.459573
-0.520649 0.000376 1.451201
-0.511304 0.000375 1.443661
-0.499297 0.000373 1.428298
-0.485940 0.000370 1.408607
-0.471080 0.000365 1.383963
-0.458976 0.000362 1.366851
-0.453322 0.000364 1.368737
-0.337980 0.000282 1.049591
-0.330690 0.000281 1.041816
-0.323586 0.000280 1.034409
-0.320185 0.000283 1.038796
-0.315199 0.000284 1.038103
-0.309784 0.000284 1.035963
-0.304827 0.000285 1.035315
-0.299689 0.000286 1.034033
-0.294506 0.000287 1.032558
-0.288891 0.000287 1.029509
-0.283150 0.000287 1.025911
-0.277035 0.000287 1.020822
-0.270716 0.000286 1.014809
-0.263998 0.000285 1.007075
-0.259607 0.000286 1.008112
-0.252170 0.000284 0.997160
-0.247819 0.000286 0.998250
-0.053768 0.000075 0.254811
-0.052625 0.000075 0.255050
-0.051095 0.000075 0.253385
-0.049796 0.000075 0.252823
-0.048420 0.000075 0.251841
-0.046665 0.000074 0.248794
-0.044733 0.000073 0.244633
-0.043319 0.000073 0.243163
-0.041882 0.000072 0.241493
-0.040176 0.000072 0.238143
-0.039150 0.000072 0.238755
-0.037081 0.000070 0.232859
-0.036023 0.000071 0.233159
-0.034837 0.000071 0.232623
-0.033197 0.000070 0.228936
-0.032052 0.000070 0.228542
-0.030375 0.000068 0.224195
-0.029142 0.000068 0.222940
-0.027976 0.000068 0.222133
-0.027133 0.000069 0.223937
-0.026171 0.000069 0.224875
-0.025186 0.000070 0.225707
-0.024233 0.000070 0.226915
-0.023422 0.000071 0.229635
-0.022421 0.000071 0.230691
-0.021363 0.000072 0.231241
-0.020290 0.000072 0.231703
-0.019261 0.000072 0.232761
-0.018187 0.000073 0.233374
-0.017120 0.000073 0.234184
-0.016038 0.000073 0.234911
-0.014939 0.000074 0.235484
-0.013839 0.000074 0.236149
-0.012721 0.000074 0.236599
-0.011589 0.000074 0.236889
-0.010459 0.000074 0.237290
-0.009324 0.000075 0.237697
-0.008222 0.000075 0.239163
-0.007097 0.000075 0.240386
-0.005944 0.000076 0.240969
-0.004774 0.000076 0.240963
-0.003607 0.000076 0.241252
-0.002446 0.000076 0.242405
-0.001274 0.000077 0.243458
-0.000090 0.000077 0.244863
0.001103 0.000077 0.245542
0.002303 0.000077 0.246149
0.003505 0.000077 0.246491
0.004718 0.000078 0.247230
0.005933 0.000078 0.247764
0.007162 0.000078 0.248616
0.008378 0.000078 0.248815
0.009591 0.000078 0.248902
0.010820 0.000078 0.249365
0.012046 0.000078 0.249648
0.013256 0.000078 0.249605
0.014480 0.000078 0.249807
0.015713 0.000078 0.250145
0.016975 0.000078 0.250863
0.018273 0.000079 0.251986
0.019545 0.000079 0.252642
0.020832 0.000079 0.253409
0.022086 0.000079 0.253725
0.023364 0.000079 0.254280
0.024604 0.000079 0.254390
0.025899 0.000079 0.255042
0.027886 0.000081 0.262149
0.029172 0.000081 0.262338
0.030190 0.000080 0.260220
0.031372 0.000080 0.259631
0.032638 0.000080 0.259760
0.033918 0.000080 0.260000
0.035171 0.000080 0.260031
0.036630 0.000080 0.261537
0.037881 0.000080 0.261519
0.039198 0.000080 0.261948
0.040682 0.000080 0.263437
0.042119 0.000080 0.264553
0.043555 0.000080 0.265603
0.044941 0.000080 0.266311
0.046342 0.000080 0.267065
0.047625 0.000080 0.267126
0.048972 0.000080 0.267544
0.051327 0.000082 0.273312
0.052614 0.000081 0.273254
0.054142 0.000082 0.274431
0.055454 0.000081 0.274487
0.056823 0.000081 0.274823
0.058133 0.000081 0.274868
0.059484 0.000081 0.275107
0.060764 0.000081 0.275020
0.062069 0.000080 0.275057
0.063376 0.000080 0.275100
0.064613 0.000080 0.274850
0.065646 0.000079 0.273765
0.065330 0.000077 0.267208
0.065606 0.000076 0.263275
0.066518 0.000075 0.261997
0.067745 0.000075 0.261990
0.068784 0.000074 0.261268
0.069770 0.000074 0.260379
0.070754 0.000073 0.259513
0.071774 0.000073 0.258812
0.072782 0.000072 0.258091
0.073745 0.000072 0.257240
0.074723 0.000071 0.256466
0.075594 0.000071 0.255360
0.076552 0.000070 0.254577
0.077374 0.000070 0.253373
0.078331 0.000069 0.252641
0.079255 0.000069 0.251826
0.080030 0.000068 0.250571
0.080844 0.000067 0.249469
0.081583 0.000067 0.248169
0.082441 0.000066 0.247264
0.082897 0.000065 0.245195
0.082322 0.000064 0.240169
0.081545 0.000062 0.234698
0.082307 0.000061 0.233742
0.083266 0.000061 0.233361
0.083983 0.000060 0.232317
0.084525 0.000060 0.230820
0.085414 0.000059 0.230294
0.086018 0.000059 0.229020
0.086637 0.000058 0.227812
0.087389 0.000057 0.226976
0.088178 0.000057 0.226252
0.089010 0.000057 0.225650
0.089827 0.000056 0.225021
0.090664 0.000056 0.224454
0.091497 0.000055 0.223881
0.092364 0.000055 0.223401
0.092992 0.000054 0.222354
0.093430 0.000053 0.220879
0.093971 0.000053 0.219668
0.094732 0.000052 0.218989
0.095537 0.000052 0.218417
0.096194 0.000051 0.217517
0.096866 0.000051 0.216664
0.097609 0.000050 0.215980
0.098273 0.000050 0.215127
0.098859 0.000049 0.214118
0.099472 0.000049 0.213179
0.099922 0.000048 0.211906
0.100439 0.000047 0.210790
0.100962 0.000047 0.209703
0.101523 0.000046 0.208704
0.102010 0.000046 0.207566
0.102605 0.000045 0.206659
0.102946 0.000044 0.205252
0.103611 0.000044 0.204503
0.104333 0.000043 0.203870
0.104853 0.000043 0.202847
0.105372 0.000042 0.201829
-0.720222 0.007256 1.468778
-0.726478 0.007393 1.496404
-0.726098 0.007463 1.510722
-0.718841 0.007464 1.510820
-0.717634 0.007529 1.523707
-0.714478 0.007573 1.532626
-0.706331 0.007566 1.530857
-0.698695 0.007563 1.530122
-0.691810 0.007569 1.530983
-0.686440 0.007591 1.535205
-0.677355 0.007573 1.531075
-0.669968 0.007573 1.530696
-0.663216 0.007580 1.531732
-0.655601 0.007577 1.530738
-0.647716 0.007571 1.529050
-0.639513 0.007561 1.526530
-0.630272 0.007539 1.521413
-0.622039 0.007528 1.518612
-0.612176 0.007496 1.511694
-0.602438 0.007465 1.504899
-0.593045 0.007438 1.498793
-0.583565 0.007409 1.492295
-0.574278 0.007382 1.486121
-0.566220 0.007370 1.482997
-0.557915 0.007354 1.479125
-0.550343 0.007348 1.477106
-0.541871 0.007329 1.472579
-0.532529 0.007298 1.465526
-0.523952 0.007276 1.460416
-0.513018 0.007221 1.448509
-0.501719 0.007159 1.435234
-0.487290 0.007050 1.412530
-0.470745 0.006906 1.382989
-0.464102 0.006906 1.382124
-0.448546 0.006771 1.354323
-0.442929 0.006784 1.356171
-0.337035 0.005239 1.046662
-0.330403 0.005214 1.040916
-0.323630 0.005185 1.034554
-0.319677 0.005201 1.037156
-0.315012 0.005206 1.037498
-0.309799 0.005202 1.036020
-0.304387 0.005195 1.033830
-0.299668 0.005199 1.033969
-0.294396 0.005193 1.032183
-0.288696 0.005180 1.028821
-0.283091 0.005168 1.025702
-0.277451 0.005154 1.022365
-0.271243 0.005130 1.016792
-0.266068 0.005124 1.014980
-0.258871 0.005078 1.005263
-0.254499 0.005087 1.006379
-0.052508 0.001295 0.254485
-0.051118 0.001291 0.253504
-0.049726 0.001286 0.252472
-0.048230 0.001279 0.250854
-0.046922 0.001276 0.250168
-0.045059 0.001258 0.246420
-0.043352 0.001243 0.243355
