ply
format ascii 1.0
element vertex 1745
property float x
property float y
property float z
end_header
-0.089427 0.122316 0.623358
-0.085198 0.120542 0.614122
-0.082632 0.121079 0.616668
-0.025427 0.049647 0.252349
-0.024235 0.049681 0.252460
-0.022716 0.049010 0.248991
-0.021347 0.048609 0.246895
-0.020090 0.048431 0.245934
-0.019671 0.050376 0.255755
-0.018158 0.049594 0.251729
-0.016920 0.049502 0.251213
-0.014194 0.044711 0.226859
-0.013014 0.044400 0.225237
-0.011963 0.044508 0.225750
-0.010878 0.044505 0.225697
-0.009776 0.044418 0.225221
-0.008902 0.045480 0.230573
-0.007864 0.045879 0.232568
-0.006765 0.046003 0.233171
-0.005651 0.046058 0.233426
-0.004547 0.046228 0.234264
-0.003433 0.046393 0.235080
-0.002310 0.046517 0.235689
-0.001181 0.046692 0.236563
-0.000044 0.046753 0.236859
0.001098 0.046914 0.237668
0.002251 0.047134 0.238777
0.003412 0.047313 0.239681
0.004590 0.047574 0.241001
0.005771 0.047760 0.241944
0.006952 0.047877 0.242544
0.008130 0.047948 0.242907
0.009321 0.048066 0.243518
0.010535 0.048262 0.244521
0.011800 0.048632 0.246413
0.013019 0.048760 0.247078
0.014228 0.048831 0.247459
0.015448 0.048925 0.247957
0.016721 0.049162 0.249187
0.017975 0.049316 0.249995
0.019245 0.049492 0.250920
0.020505 0.049622 0.251610
0.021782 0.049777 0.252433
0.023085 0.049970 0.253449
0.024276 0.049914 0.253210
0.025518 0.049964 0.253506
0.026875 0.050224 0.254870
0.028194 0.050394 0.255780
0.029460 0.050458 0.256152
0.030823 0.050675 0.257309
0.032156 0.050830 0.258147
0.033434 0.050889 0.258505
0.034777 0.051039 0.259323
0.036096 0.051143 0.259914
0.037400 0.051222 0.260376
0.038712 0.051305 0.260861
0.039990 0.051340 0.261101
0.041295 0.051405 0.261498
0.042611 0.051480 0.261947
0.044092 0.051745 0.263363
0.045405 0.051802 0.263725
0.046755 0.051898 0.264284
0.048050 0.051929 0.264513
0.049473 0.052093 0.265422
0.050786 0.052137 0.265716
0.052090 0.052168 0.265952
0.053366 0.052172 0.266042
0.054630 0.052162 0.266069
0.055917 0.052176 0.266212
0.057238 0.052219 0.266508
0.058457 0.052170 0.266330
0.059625 0.052078 0.265934
0.060901 0.052082 0.266028
0.062499 0.052355 0.267498
0.063854 0.052418 0.267892
0.064959 0.052278 0.267245
0.065974 0.052072 0.266263
0.066652 0.051612 0.263983
0.067687 0.051441 0.263176
0.067485 0.050353 0.257672
0.067873 0.049736 0.254579
0.068657 0.049426 0.253055
0.069469 0.049147 0.251682
0.070300 0.048890 0.250425
0.071180 0.048675 0.249380
0.072097 0.048492 0.248493
0.073027 0.048323 0.247681
0.073940 0.048150 0.246838
0.074857 0.047983 0.246030
0.075837 0.047862 0.245450
0.076800 0.047734 0.244835
0.077663 0.047547 0.243917
0.078602 0.047413 0.243262
0.079477 0.047244 0.242429
0.080268 0.047032 0.241365
0.081114 0.046856 0.240488
0.081794 0.046591 0.239148
0.082479 0.046336 0.237858
0.083193 0.046104 0.236679
0.084032 0.045946 0.235881
0.084815 0.045763 0.234944
0.085404 0.045480 0.233497
0.085875 0.045143 0.231765
0.086560 0.044926 0.230641
0.087406 0.044796 0.229964
0.088129 0.044608 0.228982
0.088694 0.044345 0.227611
0.089529 0.044221 0.226953
0.089932 0.043890 0.225220
0.090401 0.043598 0.223689
0.091000 0.043376 0.222506
0.091439 0.043082 0.220955
0.092250 0.042969 0.220324
0.092585 0.042639 0.218574
0.092837 0.042278 0.216666
0.093193 0.041972 0.215030
0.093640 0.041714 0.213633
0.094081 0.041458 0.212244
0.094634 0.041257 0.211126
0.095225 0.041076 0.210108
0.095570 0.040794 0.208568
0.095686 0.040421 0.206556
0.096421 0.040314 0.205901
0.097169 0.040215 0.205274
0.097751 0.040050 0.204305
0.098237 0.039849 0.203147
0.098963 0.039748 0.202492
0.099847 0.039712 0.202160
0.099964 0.039375 0.200287
0.100483 0.039201 0.199235
0.101100 0.039068 0.198385
0.102011 0.039050 0.198111
0.102516 0.038878 0.197047
0.102739 0.038604 0.195455
-1.019801 0.383586 1.910980
-1.011523 0.383892 1.914375
-1.006800 0.385566 1.924503
-1.005520 0.388601 1.941354
-1.031681 0.402395 2.011938
-1.025529 0.403727 2.020180
-1.023677 0.406791 2.037025
-1.025800 0.411509 2.062091
-1.017380 0.412048 2.066151
-0.910179 0.372203 1.867504
-0.893511 0.368962 1.852316
-0.885583 0.369302 1.855027
-0.879439 0.370400 1.861485
-0.871867 0.370913 1.864941
-1.476384 0.647680 3.260468
-1.475029 0.653885 3.292823
-1.452084 0.650549 3.277043
-1.415958 0.641173 3.230723
-1.393053 0.637646 3.213763
-1.389377 0.642940 3.241176
-0.946918 0.448020 2.259391
-0.938161 0.448912 2.264226
-0.927001 0.448661 2.263246
-0.918611 0.449761 2.269023
-0.705748 0.366835 1.850994
-0.699021 0.367872 1.856184
-0.680024 0.362397 1.828478
-0.320383 0.204310 1.028801
-0.313935 0.203273 1.023332
-0.309713 0.203667 1.025059
-0.305032 0.203768 1.025298
-0.300017 0.203646 1.024404
-0.295046 0.203549 1.023633
-0.290134 0.203491 1.023046
-0.285158 0.203386 1.022215
-0.280110 0.203225 1.021096
-0.275220 0.203174 1.020528
-0.270631 0.203349 1.021082
-0.264197 0.202118 1.014577
-0.259764 0.202401 1.015665
-0.155487 0.136270 0.682421
-0.149028 0.133384 0.667734
-0.145449 0.133006 0.665608
-0.141796 0.132542 0.663055
-0.136592 0.130575 0.652986
-0.131868 0.128986 0.644809
-0.128226 0.128405 0.641681
-0.124545 0.127756 0.638214
-0.121315 0.127548 0.636952
-0.118401 0.127671 0.637342
-0.115435 0.127743 0.637480
-0.112705 0.128088 0.638978
-0.109703 0.128133 0.638987
-0.106675 0.128150 0.638855
-0.103628 0.128145 0.638613
-0.100687 0.128275 0.639051
-0.097660 0.128299 0.638962
-0.094310 0.127889 0.636711
-0.091332 0.127971 0.636918
-0.088106 0.127700 0.635369
-0.087093 0.130732 0.650254
-0.026611 0.053228 0.264234
-0.024979 0.052456 0.260337
-0.023678 0.052335 0.259672
-0.022299 0.052019 0.258046
-0.021036 0.051952 0.257652
-0.019642 0.051534 0.255526
-0.018132 0.050733 0.251503
-0.016895 0.050639 0.250988
-0.015820 0.051055 0.252999
-0.013180 0.046068 0.228246
-0.011872 0.045253 0.224171
-0.010800 0.045267 0.224207
-0.009851 0.045856 0.227091
-0.009541 0.049939 0.247278
-0.008288 0.049548 0.245309
-0.006792 0.047324 0.234270
-0.005650 0.047184 0.233552
-0.004536 0.047263 0.233924
-0.003423 0.047412 0.234644
-0.002303 0.047551 0.235314
-0.001173 0.047581 0.235448
-0.000042 0.047803 0.236532
0.001095 0.047822 0.236618
0.002252 0.048254 0.238751
0.003405 0.048337 0.239159
0.004584 0.048650 0.240702
0.005758 0.048797 0.241434
0.006931 0.048886 0.241880
0.008118 0.049029 0.242595
0.009296 0.049094 0.242924
0.010501 0.049272 0.243815
0.011717 0.049457 0.244746
0.013017 0.049932 0.247114
0.014209 0.049946 0.247203
0.015434 0.050065 0.247816
0.016686 0.050249 0.248753
0.017955 0.050456 0.249806
0.019192 0.050553 0.250313
0.020443 0.050671 0.250935
0.021716 0.050828 0.251748
0.023086 0.051186 0.253557
0.024305 0.051187 0.253600
0.025526 0.051193 0.253675
0.026804 0.051307 0.254284
0.028114 0.051471 0.255141
0.029343 0.051477 0.255218
0.030688 0.051680 0.256276
0.031986 0.051788 0.256868
0.033417 0.052098 0.258458
0.034719 0.052191 0.258979
0.036054 0.052324 0.259697
0.037361 0.052411 0.260186
0.038661 0.052482 0.260598
0.039968 0.052558 0.261040
0.041222 0.052561 0.261118
0.042660 0.052792 0.262333
0.044082 0.052990 0.263383
0.045361 0.053009 0.263548
0.046662 0.053054 0.263838
0.048021 0.053159 0.264430
0.049469 0.053355 0.265476
0.050828 0.053448 0.266010
0.051999 0.053343 0.265559
0.053401 0.053474 0.266286
0.055084 0.053875 0.268355
0.056741 0.054231 0.270203
0.058164 0.054354 0.270888
0.059216 0.054132 0.269854
0.060310 0.053956 0.269052
0.061495 0.053868 0.268684
0.062566 0.053686 0.267848
0.063683 0.053549 0.267235
0.064808 0.053425 0.266682
0.065729 0.053140 0.265329
0.066583 0.052812 0.263762
0.067316 0.052403 0.261782
0.067847 0.051854 0.259104
0.068046 0.051076 0.255275
0.068770 0.050712 0.253516
0.069560 0.050408 0.252053
0.070182 0.049995 0.250042
0.071149 0.049837 0.249308
0.072114 0.049683 0.248586
0.073004 0.049483 0.247635
0.073941 0.049321 0.246870
0.074822 0.049128 0.245945
0.075729 0.048956 0.245128
0.076617 0.048778 0.244275
0.077564 0.048642 0.243627
0.078407 0.048446 0.242679
0.079312 0.048294 0.241943
0.080120 0.048087 0.240933
0.081081 0.047977 0.240404
0.081747 0.047697 0.239022
0.082361 0.047395 0.237524
0.083001 0.047117 0.236141
0.083791 0.046929 0.235207
0.084514 0.046710 0.234111
0.085284 0.046522 0.233169
0.085672 0.046133 0.231214
0.086598 0.046039 0.230737
0.087361 0.045863 0.229838
0.087901 0.045575 0.228378
0.088755 0.045455 0.227754
0.089110 0.045086 0.225876
0.089571 0.044778 0.224301
0.090228 0.044574 0.223242
0.090777 0.044322 0.221940
0.091419 0.044121 0.220885
0.091696 0.043750 0.218976
0.092118 0.043456 0.217445
0.092745 0.043265 0.216421
0.093298 0.043042 0.215239
0.093538 0.042682 0.213364
0.094231 0.042535 0.212544
0.094771 0.042322 0.211392
0.095376 0.042142 0.210400
0.096118 0.042026 0.209719
0.096299 0.041670 0.207832
0.096473 0.041317 0.205960
0.097249 0.041227 0.205390
0.097806 0.041048 0.204366
0.098420 0.040895 0.203468
0.098969 0.040718 0.202446
0.099624 0.040588 0.201645
0.100193 0.040426 0.200679
0.100582 0.040195 0.199364
0.101223 0.040068 0.198556
0.102147 0.040054 0.198302
0.102629 0.039869 0.197187
0.103051 0.039664 0.195969
-1.017227 0.391725 1.905425
-1.012336 0.393346 1.915209
-1.004863 0.393984 1.920123
-1.002213 0.396542 1.934318
-1.018706 0.406792 1.985996
-1.025858 0.413468 2.020208
-1.039358 0.422853 2.067626
-1.028190 0.422285 2.066321
-1.028393 0.426422 2.087964
-0.901947 0.377615 1.850151
-0.886471 0.374767 1.837286
-0.879166 0.375352 1.841173
-0.875924 0.377700 1.853655
-0.859618 0.374406 1.838376
-1.475448 0.662675 3.257878
-1.444147 0.655431 3.223404
-1.451131 0.665595 3.274443
-1.383058 0.641181 3.155261
-1.392107 0.652378 3.211215
-0.944819 0.457666 2.254203
-0.938142 0.459587 2.264025
-0.926692 0.459186 2.262360
-0.917900 0.460109 2.267162
-0.705182 0.375264 1.849519
-0.688278 0.370839 1.827684
-0.680720 0.371403 1.830398
-0.321828 0.210116 1.033596
-0.314563 0.208528 1.025541
-0.308903 0.207970 1.022550
-0.305164 0.208709 1.025924
-0.300104 0.208554 1.024892
-0.295130 0.208454 1.024124
-0.289991 0.208233 1.022751
-0.285138 0.208213 1.022362
-0.280041 0.208011 1.021069
-0.274894 0.207765 1.019553
-0.270059 0.207750 1.019168
-0.261944 0.205165 1.006174
-0.155307 0.139353 0.681840
-0.150029 0.137478 0.672433
-0.147145 0.137761 0.673590
-0.141205 0.135133 0.660511
-0.137146 0.134227 0.655855
-0.132553 0.132743 0.648382
-0.128969 0.132225 0.645628
-0.125352 0.131646 0.642579
-0.122228 0.131569 0.641982
-0.119145 0.131534 0.641593
-0.116130 0.131573 0.641565
-0.113655 0.132244 0.644615
-0.110611 0.132271 0.644533
-0.107707 0.132473 0.645299
-0.104709 0.132567 0.645547
-0.101715 0.132672 0.645846
-0.098852 0.132960 0.647040
-0.095993 0.133273 0.648354
-0.093219 0.133728 0.650367
-0.090037 0.133609 0.649590
-0.086975 0.133667 0.649673
-0.083833 0.133601 0.649158
-0.082606 0.136699 0.664020
-0.026573 0.054421 0.263994
-0.024975 0.053700 0.260432
-0.023733 0.053710 0.260420
-0.022406 0.053516 0.259421
-0.021083 0.053312 0.258374
-0.019691 0.052897 0.256307
-0.018357 0.052591 0.254772
-0.017022 0.052240 0.253023
-0.015796 0.052197 0.252767
-0.014453 0.051726 0.250445
-0.012084 0.047164 0.228316
-0.011911 0.051120 0.247433
-0.010728 0.051138 0.247483
-0.009604 0.051477 0.249091
-0.008368 0.051224 0.247835
-0.007128 0.050861 0.246049
-0.005779 0.049425 0.239076
-0.004544 0.048499 0.234576
-0.003413 0.048430 0.234223
-0.002294 0.048542 0.234747
-0.001172 0.048748 0.235731
-0.000040 0.048893 0.236421
0.001100 0.049116 0.237491
0.002252 0.049361 0.238670
0.003396 0.049315 0.238441
0.004566 0.049583 0.239739
0.005739 0.049769 0.240640
0.006919 0.049947 0.241502
0.008104 0.050095 0.242224
0.009297 0.050255 0.243009
0.010510 0.050473 0.244071
0.011776 0.050877 0.246042
0.012979 0.050958 0.246449
0.014196 0.051076 0.247042
0.015416 0.051187 0.247601
0.016708 0.051503 0.249152
0.017976 0.051708 0.250170
0.019262 0.051936 0.251304
0.020486 0.051980 0.251552
0.021726 0.052057 0.251958
0.023010 0.052225 0.252805
0.024263 0.052309 0.253254
0.025474 0.052299 0.253244
0.026746 0.052409 0.253822
0.028020 0.052513 0.254373
0.029317 0.052650 0.255080
0.030617 0.052781 0.255768
0.031977 0.053002 0.256888
0.033329 0.053192 0.257862
0.034680 0.053369 0.258774
0.035959 0.053424 0.259100
0.037278 0.053535 0.259694
0.038555 0.053579 0.259968
0.039888 0.053696 0.260598
0.041169 0.053738 0.260865
0.042360 0.053664 0.260567
0.043811 0.053912 0.261841
0.045163 0.054030 0.262479
0.046503 0.054127 0.263017
0.047823 0.054196 0.263420
0.049414 0.054561 0.265261
0.050576 0.054444 0.264765
0.051991 0.054601 0.265594
0.053757 0.055109 0.268136
0.055758 0.055827 0.271706
0.057364 0.056128 0.273243
0.058604 0.056065 0.273006
0.059519 0.055700 0.271300
0.060738 0.055629 0.271026
0.061564 0.055208 0.269047
0.062652 0.055035 0.268273
0.063682 0.054820 0.267290
0.064607 0.054523 0.265912
0.065310 0.054054 0.263691
0.066081 0.053658 0.261825
0.067258 0.053601 0.261605
0.068022 0.053222 0.259821
0.068294 0.052479 0.256249
0.068796 0.051935 0.253651
0.069624 0.051652 0.252325
0.070531 0.051436 0.251323
0.071273 0.051109 0.249778
0.072039 0.050810 0.248362
0.073070 0.050704 0.247892
0.073901 0.050465 0.246765
0.074787 0.050270 0.245855
0.075659 0.050073 0.244927
0.076598 0.049924 0.244235
0.077452 0.049725 0.243296
0.078306 0.049533 0.242385
0.079159 0.049345 0.241492
0.079999 0.049155 0.240584
0.080638 0.048847 0.239101
0.081440 0.048647 0.238134
0.082035 0.048329 0.236593
0.082683 0.048051 0.235240
0.083379 0.047808 0.234056
0.084424 0.047768 0.233862
0.085148 0.047551 0.232794
0.085753 0.047273 0.231428
0.086491 0.047074 0.230444
0.087218 0.046875 0.229453
0.087815 0.046612 0.228145
0.088187 0.046237 0.226284
0.088935 0.046066 0.225416
0.089149 0.045626 0.223227
0.089919 0.045476 0.222456
0.090541 0.045257 0.221339
0.091202 0.045062 0.220335
0.091831 0.044855 0.219268
0.092308 0.044580 0.217863
0.092809 0.044323 0.216538
0.093045 0.043946 0.214621
0.093513 0.043685 0.213271
0.093999 0.043438 0.211981
0.094626 0.043261 0.211027
0.095324 0.043120 0.210241
0.095831 0.042896 0.209045
0.096280 0.042651 0.207742
0.096806 0.042445 0.206619
0.097453 0.042296 0.205768
0.098160 0.042175 0.205048
0.098759 0.042011 0.204109
0.099366 0.041853 0.203194
0.099953 0.041690 0.202248
0.100526 0.041524 0.201279
0.101152 0.041383 0.200422
0.101611 0.041177 0.199243
0.102325 0.041077 0.198569
0.102971 0.040952 0.197765
0.103268 0.040692 0.196300
-1.013253 0.399267 1.897222
-1.008632 0.401018 1.907469
-0.999017 0.400798 1.908252
-0.991728 0.401516 1.913410
-1.018198 0.416042 1.984340
-1.052428 0.434039 2.071867
-1.043915 0.434581 2.076056
-1.023957 0.430324 2.057216
-1.027829 0.436096 2.086243
-0.907300 0.388687 1.860643
-0.887534 0.383940 1.839033
-0.878730 0.383887 1.839828
-0.875060 0.386100 1.851416
-0.854953 0.381031 1.828018
-1.443201 0.670229 3.220784
-1.382120 0.655642 3.152699
-0.943815 0.467808 2.251611
-0.936503 0.469449 2.259898
-0.928100 0.470575 2.265651
-0.917480 0.470591 2.266004
-0.695425 0.378676 1.823928
-0.677851 0.373712 1.800014
-0.314817 0.213549 1.026533
-0.309604 0.213289 1.025043
-0.305035 0.213472 1.025670
-0.300122 0.213416 1.025141
-0.295120 0.213294 1.024287
-0.289981 0.213067 1.022922
-0.284981 0.212937 1.022012
-0.280564 0.213246 1.023201
-0.275585 0.213131 1.022351
-0.270552 0.212969 1.021272
-0.266098 0.213265 1.022380
-0.155124 0.142427 0.681246
-0.149472 0.140152 0.670144
-0.145770 0.139648 0.667508
-0.141621 0.138684 0.662674
-0.137196 0.137399 0.656316
-0.132729 0.136012 0.649468
-0.129184 0.135526 0.646930
-0.125895 0.135292 0.645594
-0.122663 0.135110 0.644506
-0.119756 0.135285 0.645124
-0.116930 0.135563 0.646238
-0.114552 0.136390 0.649961
-0.111585 0.136542 0.650470
-0.108841 0.136983 0.652359
-0.105919 0.137220 0.653278
-0.102708 0.137086 0.652428
-0.099928 0.137536 0.654364
-0.097089 0.137932 0.656042
-0.094431 0.138620 0.659113
-0.091601 0.139094 0.661168
-0.088576 0.139297 0.661933
-0.085592 0.139580 0.663086
-0.082491 0.139688 0.663412
-0.079908 0.140718 0.668114
-0.077428 0.142020 0.674115
-0.026535 0.055609 0.263750
-0.024916 0.054822 0.259956
-0.023549 0.054535 0.258533
-0.022210 0.054285 0.257289
-0.020949 0.054208 0.256868
-0.019658 0.054039 0.256015
-0.018373 0.053867 0.255148
-0.017125 0.053785 0.254710
-0.015828 0.053524 0.253426
-0.014510 0.053144 0.251587
-0.013187 0.052672 0.249310
-0.011868 0.052127 0.246693
-0.010720 0.052297 0.247463
-0.009520 0.052223 0.247081
-0.008304 0.052030 0.246134
-0.007115 0.051969 0.245818
-0.005893 0.051590 0.244002
-0.004650 0.050798 0.240235
-0.003462 0.050297 0.237844
-0.002299 0.049811 0.235530
-0.001163 0.049575 0.234401
-0.000038 0.049808 0.235493
0.001102 0.050219 0.237428
0.002245 0.050303 0.237817
0.003394 0.050402 0.238282
0.004541 0.050441 0.238465
0.005727 0.050802 0.240170
0.006907 0.050999 0.241105
0.008085 0.051125 0.241709
0.009275 0.051288 0.242489
0.010477 0.051471 0.243366
0.011708 0.051749 0.244694
0.012938 0.051971 0.245758
0.014172 0.052167 0.246706
0.015365 0.052197 0.246868
0.016645 0.052495 0.248301
0.017891 0.052652 0.249071
0.019159 0.052853 0.250052
0.020403 0.052965 0.250612
0.021671 0.053123 0.251394
0.022954 0.053302 0.252276
0.024216 0.053414 0.252844
0.025415 0.053385 0.252747
0.026688 0.053505 0.253358
0.027983 0.053657 0.254121
0.029260 0.053764 0.254675
0.030521 0.053833 0.255048
0.031867 0.054042 0.256090
0.033304 0.054382 0.257754
0.034612 0.054497 0.258353
0.035896 0.054566 0.258736
0.037177 0.054626 0.259077
0.038528 0.054781 0.259871
0.039796 0.054813 0.260080
0.041098 0.054889 0.260500
0.042425 0.054990 0.261046
0.043699 0.055021 0.261254
0.044993 0.055074 0.261571
0.046220 0.055044 0.261491
0.047539 0.055122 0.261931
0.049000 0.055357 0.263112
0.050879 0.056041 0.266430
0.053068 0.057024 0.271172
0.054559 0.057227 0.272209
0.055842 0.057208 0.272190
0.057037 0.057102 0.271756
0.058230 0.056998 0.271331
0.059563 0.057033 0.271567
0.060294 0.056503 0.269111
0.061327 0.056271 0.268076
0.062185 0.055891 0.266333
0.063358 0.055805 0.265986
0.064516 0.055709 0.265594
0.065146 0.055168 0.263082
0.065987 0.054825 0.261505
0.067077 0.054696 0.260950
0.066985 0.053626 0.255906
0.067784 0.053295 0.254381
0.068766 0.053116 0.253584
0.069600 0.052832 0.252279
0.070460 0.052576 0.251108
0.071193 0.052236 0.249531
0.072043 0.051992 0.248411
0.072980 0.051817 0.247618
0.073916 0.051646 0.246846
0.074808 0.051451 0.245950
0.075698 0.051260 0.245075
0.076576 0.051067 0.244187
0.077356 0.050816 0.243015
0.078177 0.050598 0.242001
0.079214 0.050524 0.241674
0.079972 0.050277 0.240514
0.080663 0.049996 0.239185
0.081142 0.049593 0.237270
0.081628 0.049205 0.235424
0.082576 0.049102 0.234937
0.083384 0.048920 0.234069
0.084191 0.048742 0.233217
0.085063 0.048605 0.232558
0.085673 0.048324 0.231205
0.086246 0.048030 0.229783
0.087084 0.047889 0.229091
0.087417 0.047477 0.227098
0.087749 0.047075 0.225145
0.088411 0.046857 0.224070
0.089045 0.046629 0.222945
0.089438 0.046283 0.221244
0.090281 0.046174 0.220678
0.090908 0.045959 0.219596
0.091589 0.045775 0.218662
0.092217 0.045570 0.217616
0.092637 0.045267 0.216100
0.092948 0.044918 0.214361
0.093467 0.044677 0.213127
0.094258 0.044569 0.212523
0.094568 0.044238 0.210854
0.095223 0.044074 0.209972
0.095828 0.043890 0.208990
0.096300 0.043650 0.207734
0.096848 0.043449 0.206656
0.097435 0.043270 0.205673
0.098186 0.043165 0.205043
0.098831 0.043017 0.204195
0.099371 0.042827 0.203140
0.100025 0.042688 0.202325
0.100510 0.042481 0.201175
0.101156 0.042345 0.200356
0.101737 0.042185 0.199413
0.102366 0.042047 0.198568
0.103169 0.041983 0.198063
0.103677 0.041801 0.196990
-1.011608 0.407676 1.893353
-1.004434 0.408423 1.898774
-1.002764 0.411443 1.914678
-0.991074 0.410369 1.911450
-0.989743 0.413604 1.928210
-1.056079 0.445441 2.078361
-1.047523 0.445992 2.082568
-1.031618 0.443395 2.071979
-1.023083 0.443946 2.076009
-1.014572 0.444518 2.080059
-0.894889 0.395917 1.853789
-0.879657 0.393024 1.841316
-0.876886 0.395696 1.854847
-0.864695 0.394129 1.848445
-0.857144 0.394666 1.851844
-1.374658 0.639465 3.001811
-1.362399 0.640352 3.007205
-1.343632 0.638167 2.998075
-1.328818 0.637833 2.997546
-1.304792 0.633023 2.975886
-1.292630 0.633927 2.980997
-1.269806 0.629565 2.961257
-1.257691 0.630474 2.966229
-0.947094 0.480099 2.259220
-0.935968 0.479842 2.258420
-0.928776 0.481618 2.267139
-0.920171 0.482695 2.272511
-0.314500 0.218181 1.025656
-0.308692 0.217493 1.022189
-0.305328 0.218533 1.026834
-0.300030 0.218199 1.025015
-0.294834 0.217930 1.023491
-0.289969 0.217901 1.023087
-0.285272 0.217999 1.023272
-0.280677 0.218180 1.023839
-0.275584 0.217974 1.022578
-0.270622 0.217866 1.021775
-0.152730 0.143416 0.670937
-0.148854 0.142746 0.667583
-0.145057 0.142125 0.664460
-0.141520 0.141736 0.662423
-0.137302 0.140632 0.657046
-0.133284 0.139687 0.652413
-0.129922 0.139401 0.650860
-0.126491 0.139024 0.648887
-0.123481 0.139103 0.649043
-0.120466 0.139181 0.649194
-0.117803 0.139681 0.651313
-0.115273 0.140369 0.654307
-0.112502 0.140796 0.656082
-0.109880 0.141437 0.658858
-0.106735 0.141422 0.658581
-0.103713 0.141576 0.659092
-0.100895 0.142027 0.660983
-0.097925 0.142285 0.661983
-0.095203 0.142934 0.664803
-0.092506 0.143666 0.668008
-0.089512 0.143972 0.669235
-0.086495 0.144265 0.670404
-0.083499 0.144614 0.671838
-0.080564 0.145103 0.673926
-0.077317 0.145047 0.673483
-0.073690 0.144242 0.669574
-0.071587 0.146482 0.679796
-0.023697 0.056129 0.260300
-0.022466 0.056164 0.260402
-0.021033 0.055666 0.258039
-0.019623 0.055175 0.255711
-0.018250 0.054726 0.253578
-0.016951 0.054452 0.252263
-0.015672 0.054205 0.251071
-0.014450 0.054132 0.250690
-0.013088 0.053475 0.247608
-0.011818 0.053097 0.245820
-0.010586 0.052829 0.244546
-0.009389 0.052688 0.243864
-0.008201 0.052565 0.243262
-0.006995 0.052267 0.241857
-0.005816 0.052093 0.241028
-0.004643 0.051897 0.240099
-0.003478 0.051702 0.239178
-0.002314 0.051336 0.237470
-0.001170 0.051121 0.236460
-0.000036 0.050842 0.235159
0.001101 0.051206 0.236832
0.002243 0.051331 0.237406
0.003388 0.051422 0.237823
0.004538 0.051528 0.238308
0.005710 0.051784 0.239496
0.006889 0.052002 0.240508
0.008065 0.052140 0.241152
0.009250 0.052298 0.241892
0.010455 0.052518 0.242918
0.011678 0.052777 0.244131
0.012895 0.052963 0.245006
0.014080 0.052997 0.245183
0.015312 0.053189 0.246091
0.016543 0.053351 0.246863
0.017846 0.053705 0.248527
0.019064 0.053777 0.248887
0.020346 0.054010 0.249999
0.021582 0.054102 0.250454
0.022917 0.054419 0.251956
0.024169 0.054515 0.252437
0.025407 0.054575 0.252755
0.026636 0.054609 0.252953
0.027914 0.054735 0.253582
0.029202 0.054870 0.254254
0.030685 0.055346 0.256505
0.031975 0.055450 0.257038
0.033258 0.055536 0.257488
0.034537 0.055609 0.257879
0.035774 0.055611 0.257941
0.037058 0.055683 0.258329
0.038411 0.055851 0.259167
0.039749 0.055987 0.259854
0.041053 0.056069 0.260294
0.042326 0.056104 0.260520
0.043627 0.056174 0.260905
0.044842 0.056132 0.260772
0.046100 0.056145 0.260894
0.047398 0.056204 0.261232
0.049009 0.056620 0.263234
0.050270 0.056623 0.263313
0.053629 0.058931 0.274111
0.054927 0.058917 0.274117
0.056089 0.058762 0.273465
0.057255 0.058618 0.272864
0.058462 0.058522 0.272481
0.059780 0.058538 0.272624
0.060690 0.058162 0.270943
0.060957 0.057199 0.266520
0.061969 0.056960 0.265471
0.062961 0.056712 0.264380
0.064069 0.056576 0.263810
0.064876 0.056185 0.262045
0.065727 0.055846 0.260526
0.066838 0.055736 0.260069
0.067821 0.055526 0.259146
0.067951 0.054637 0.255052
0.068627 0.054210 0.253113
0.069360 0.053843 0.251446
0.070450 0.053760 0.251109
0.071081 0.053336 0.249175
0.071933 0.053089 0.248064
0.072949 0.052968 0.247541
0.073799 0.052733 0.246481
0.074712 0.052549 0.245660
0.075669 0.052402 0.245006
0.076500 0.052173 0.243967
0.077194 0.051859 0.242526
0.077939 0.051588 0.241282
0.078591 0.051264 0.239789
0.079200 0.050921 0.238206
0.080239 0.050861 0.237938
0.080695 0.050438 0.235969
0.081741 0.050390 0.235756
0.082316 0.050057 0.234201
0.083060 0.049834 0.233160
0.084078 0.049780 0.232901
0.084747 0.049523 0.231691
0.085367 0.049243 0.230371
0.085901 0.048923 0.228857
0.086808 0.048820 0.228353
0.087596 0.048653 0.227549
0.088201 0.048390 0.226288
0.088036 0.047716 0.223099
0.088834 0.047574 0.222396
0.089453 0.047340 0.221259
0.089934 0.047040 0.219803
0.090778 0.046934 0.219254
0.091489 0.046762 0.218391
0.091919 0.046452 0.216878
0.092407 0.046179 0.215528
0.092783 0.045856 0.213942
0.093393 0.045654 0.212916
0.094075 0.045491 0.212067
0.094757 0.045332 0.211227
0.095387 0.045151 0.210283
0.096127 0.045026 0.209589
0.096647 0.044801 0.208428
0.097239 0.044614 0.207432
0.097671 0.044358 0.206111
0.098410 0.044245 0.205447
0.099050 0.044090 0.204582
0.099598 0.043898 0.203535
0.100057 0.043670 0.202318
0.100510 0.043444 0.201101
0.101138 0.043298 0.200244
0.101645 0.043103 0.199154
0.102381 0.043007 0.198516
0.103115 0.042913 0.197871
0.103709 0.042763 0.196962
-1.012592 0.417140 1.894374
-1.008712 0.419276 1.906069
-1.000074 0.419457 1.908782
-0.991875 0.419826 1.912266
-0.992318 0.423894 1.932523
-1.050000 0.452717 2.065678
-1.031824 0.449069 2.050674
-1.031054 0.452998 2.070190
-1.027882 0.455938 2.085117
-1.019318 0.456520 2.089190
-0.890381 0.402675 1.843950
-0.876722 0.400416 1.834699
-0.868657 0.400692 1.836993
-0.863744 0.402443 1.845986
-0.841815 0.396220 1.818332
-1.359456 0.646444 2.968013
-1.339962 0.643800 2.957119
-1.323763 0.642699 2.953218
-1.313247 0.644364 2.961935
-1.294284 0.641876 2.951473
-1.275214 0.639280 2.940423
-1.249365 0.633192 2.913217
-1.237430 0.634100 2.918109
-0.944809 0.489582 2.253537
-0.940762 0.493014 2.269778
-0.926744 0.491241 2.261998
-0.918111 0.492315 2.267271
-0.914099 0.495920 2.284155
-0.314339 0.222915 1.025285
-0.308555 0.222228 1.021901
-0.305033 0.223173 1.026015
-0.299835 0.222903 1.024532
-0.294842 0.222779 1.023712
-0.290057 0.222811 1.023599
-0.285216 0.222801 1.023285
-0.281162 0.223415 1.025832
-0.275956 0.223119 1.024191
-0.270722 0.222790 1.022394
-0.152593 0.146473 0.670540
-0.149607 0.146658 0.671172
-0.147371 0.147602 0.675276
-0.141372 0.144736 0.661948
-0.137869 0.144352 0.659982
-0.134050 0.143613 0.656388
-0.130920 0.143595 0.656092
-0.127752 0.143532 0.655594
-0.124493 0.143362 0.654607
-0.121664 0.143692 0.655901
-0.118937 0.144162 0.657836
-0.116369 0.144856 0.660793
-0.113566 0.145288 0.662551
-0.110675 0.145629 0.663896
-0.107794 0.146004 0.665400
-0.104889 0.146368 0.666853
-0.101726 0.146382 0.666716
-0.099106 0.147206 0.670264
-0.096229 0.147689 0.672266
-0.093453 0.148367 0.675154
-0.090667 0.149077 0.678191
-0.087547 0.149269 0.678875
-0.084542 0.149680 0.680556
-0.081570 0.150186 0.682673
-0.078332 0.150222 0.682659
-0.074995 0.150066 0.681772
-0.071481 0.149525 0.679144
-0.031488 0.080472 0.365170
-0.030035 0.081265 0.368687
-0.020040 0.057604 0.261288
-0.018800 0.057634 0.261374
-0.017558 0.057662 0.261454
-0.015680 0.055446 0.251362
-0.014308 0.054800 0.248389
-0.012977 0.054207 0.245665
-0.011719 0.053830 0.243919
-0.010548 0.053818 0.243831
-0.009372 0.053770 0.243580
-0.008168 0.053530 0.242466
-0.007014 0.053585 0.242688
-0.005779 0.052932 0.239707
-0.004622 0.052833 0.239235
-0.003465 0.052687 0.238555
-0.002304 0.052290 0.236744
-0.001155 0.051681 0.233971
-0.000033 0.051550 0.233368
0.001095 0.051984 0.235323
0.002233 0.052194 0.236267
0.003379 0.052387 0.237136
0.004517 0.052392 0.237160
0.005677 0.052599 0.238098
0.006854 0.052870 0.239328
0.008043 0.053139 0.240551
0.009237 0.053369 0.241599
0.010412 0.053452 0.241984
0.011617 0.053654 0.242913
0.012829 0.053849 0.243811
0.014066 0.054110 0.245012
0.015220 0.054032 0.244679
0.016477 0.054308 0.245948
0.017786 0.054706 0.247777
0.019071 0.054983 0.249057
0.020344 0.055197 0.250058
0.021598 0.055336 0.250718
0.022863 0.055489 0.251447
0.024112 0.055587 0.251928
0.025363 0.055683 0.252401
0.026602 0.055743 0.252710
0.027862 0.055841 0.253197
0.029250 0.056176 0.254759
0.030606 0.056425 0.255938
0.031871 0.056494 0.256296
0.033221 0.056702 0.257290
0.034472 0.056732 0.257478
0.035754 0.056809 0.257878
0.037052 0.056905 0.258370
0.038371 0.057028 0.258983
0.039688 0.057139 0.259542
0.040994 0.057227 0.260002
0.042198 0.057173 0.259813
0.043493 0.057241 0.260182
0.044724 0.057223 0.260160
0.045964 0.057217 0.260198
0.047209 0.057219 0.260266
0.048326 0.057068 0.259643
0.050259 0.057865 0.263331
0.053561 0.060160 0.273842
0.054930 0.060226 0.274207
0.056046 0.060017 0.273326
0.057028 0.059679 0.271850
0.058432 0.059786 0.272407
0.059548 0.059602 0.271632
0.060547 0.059311 0.270369
0.061214 0.058712 0.267703
0.061921 0.058176 0.265321
0.062960 0.057967 0.264430
0.063852 0.057633 0.262969
0.064699 0.057273 0.261383
0.065743 0.057097 0.260638
0.066445 0.056636 0.258588
0.067021 0.056086 0.256134
0.067725 0.055662 0.254247
0.068457 0.055274 0.252525
0.069317 0.055002 0.251331
0.070325 0.054854 0.250700
0.071171 0.054586 0.249522
0.072068 0.054367 0.248561
0.072977 0.054163 0.247667
0.073867 0.053951 0.246736
0.074789 0.053769 0.245938
0.075633 0.053538 0.244910
0.076487 0.053320 0.243943
0.077283 0.053069 0.242821
0.077900 0.052705 0.241176
0.078833 0.052561 0.240539
0.079071 0.051965 0.237828
0.079922 0.051783 0.237005
0.080717 0.051570 0.236039
0.081480 0.051343 0.235005
0.082145 0.051061 0.233717
0.082758 0.050754 0.232311
0.083600 0.050594 0.231572
0.084472 0.050456 0.230932
0.084959 0.050095 0.229262
0.085744 0.049916 0.228426
0.086683 0.049830 0.228010
0.086160 0.048917 0.223801
0.087075 0.048832 0.223381
0.087937 0.048719 0.222829
0.088566 0.048482 0.221702
0.089342 0.048330 0.220958
0.090032 0.048135 0.220015
0.090664 0.047914 0.218946
0.091421 0.047764 0.218196
0.092093 0.047573 0.217254
0.092581 0.047291 0.215894
0.092498 0.046728 0.213244
0.093133 0.046536 0.212279
0.093817 0.046372 0.211439
0.094559 0.046240 0.210737
0.095196 0.046060 0.209810
0.095974 0.045951 0.209201
0.096611 0.045777 0.208291
0.097179 0.045575 0.207243
0.097784 0.045394 0.206287
0.098624 0.045325 0.205829
0.099177 0.045126 0.204775
0.099828 0.044975 0.203934
0.100380 0.044783 0.202897
0.100690 0.044487 0.201383
0.101262 0.044312 0.200409
0.101829 0.044138 0.199430
0.102574 0.044044 0.198803
0.103317 0.043951 0.198170
0.103909 0.043795 0.197247
-1.014591 0.427049 1.897261
-1.009326 0.428651 1.906406
-0.999813 0.428463 1.907494
-0.991649 0.428854 1.911071
-1.005940 0.439054 1.958308
-1.049444 0.462313 2.063834
-1.044132 0.464303 2.074416
-1.032867 0.463659 2.073143
-1.029032 0.466370 2.086792
-1.020445 0.466959 2.090873
-0.894224 0.413204 1.851381
-0.879972 0.410636 1.841002
-0.874791 0.412293 1.849491
-0.866106 0.412315 1.850586
-0.852990 0.410206 1.842050
-1.351392 0.656577 2.949773
-1.336113 0.655904 2.948032
-1.319184 0.654397 2.942451
-1.304620 0.654045 2.941964
-1.289787 0.653549 2.940742
-1.269583 0.650292 2.927005
-1.248510 0.646513 2.910827
-0.947522 0.501660 2.259756
-0.938239 0.502380 2.263466
-0.926522 0.501799 2.261258
-0.919216 0.503621 2.269827
-0.913364 0.506293 2.282172
-0.312767 0.226623 1.020311
-0.307884 0.226565 1.019839
-0.304208 0.227408 1.023412
-0.299206 0.227271 1.022563
-0.294439 0.227312 1.022505
-0.289635 0.227325 1.022313
-0.285055 0.227516 1.022916
-0.280848 0.228017 1.024904
-0.275806 0.227847 1.023865
-0.269959 0.226993 1.019750
-0.149180 0.149420 0.669467
-0.146999 0.150432 0.673786
-0.143106 0.149698 0.670289
-0.138326 0.147982 0.662396
-0.135109 0.147896 0.661803
-0.131734 0.147631 0.660406
-0.129053 0.148149 0.662513
-0.126156 0.148439 0.663602
-0.123276 0.148764 0.664842
-0.120789 0.149593 0.668339
-0.118056 0.150155 0.670638
-0.115074 0.150421 0.671621
-0.112273 0.150947 0.673760
-0.109325 0.151300 0.675129
-0.106307 0.151575 0.676153
-0.103211 0.151753 0.676747
-0.100233 0.152122 0.678191
-0.097295 0.152577 0.680022
-0.094330 0.153020 0.681801
-0.091280 0.153353 0.683095
-0.088058 0.153412 0.683167
-0.085022 0.153810 0.684755
-0.081731 0.153762 0.684360
-0.078417 0.153664 0.683747
-0.075032 0.153412 0.682452
-0.071654 0.153153 0.681135
-0.068449 0.153258 0.681440
-0.035885 0.084358 0.374998
-0.033699 0.083379 0.370567
-0.031439 0.082102 0.364811
-0.029988 0.082910 0.368324
-0.028709 0.084324 0.374532
-0.026945 0.084408 0.374830
-0.023391 0.084521 0.375200
-0.014285 0.055908 0.248144
-0.012937 0.055223 0.245063
-0.011692 0.054881 0.243513
-0.010459 0.054532 0.241931
-0.009265 0.054323 0.240969
-0.008063 0.054006 0.239536
-0.006888 0.053788 0.238544
-0.005734 0.053677 0.238030
-0.004583 0.053560 0.237487
-0.003436 0.053414 0.236822
-0.002280 0.052934 0.234679
-0.001151 0.052699 0.233621
-0.000031 0.052572 0.233048
0.001091 0.052775 0.233939
0.002220 0.052967 0.234782
0.003360 0.053198 0.235806
0.004507 0.053394 0.236671
0.005682 0.053770 0.238339
0.006831 0.053821 0.238566
0.008013 0.054078 0.239712
0.009210 0.054355 0.240946
0.010394 0.054506 0.241627
0.011577 0.054623 0.242158
0.012777 0.054785 0.242893
0.013948 0.054811 0.243022
0.015224 0.055211 0.244819
0.016369 0.055117 0.244420
0.017728 0.055702 0.247039
0.018929 0.055753 0.247292
0.020273 0.056192 0.249269
0.021475 0.056211 0.249382
0.022760 0.056432 0.250397
0.024010 0.056550 0.250954
0.025287 0.056715 0.251723
0.026530 0.056794 0.252116
0.027731 0.056779 0.252088
0.029019 0.056937 0.252833
0.030353 0.057169 0.253905
0.031874 0.057721 0.256405
0.033044 0.057620 0.256004
0.034301 0.057671 0.256281
0.035587 0.057767 0.256756
0.036975 0.058017 0.257919
0.038362 0.058248 0.259002
0.039607 0.058257 0.259095
0.040985 0.058454 0.260029
0.042249 0.058481 0.260208
0.043449 0.058421 0.259996
0.044775 0.058528 0.260535
0.045878 0.058347 0.259786
0.047081 0.058299 0.259633
0.048671 0.058720 0.261569
0.050022 0.058838 0.262158
0.053303 0.061167 0.272596
0.054646 0.061212 0.272861
0.055716 0.060957 0.271790
0.056895 0.060829 0.271284
0.057898 0.060524 0.269988
0.058914 0.060245 0.268804
0.059882 0.059930 0.267461
0.060897 0.059674 0.266379
0.061839 0.059358 0.265030
0.062700 0.058978 0.263393
0.063723 0.058764 0.262493
0.064781 0.058588 0.261764
0.065483 0.058104 0.259657
0.065734 0.057245 0.255870
0.066547 0.056897 0.254365
0.067560 0.056729 0.253667
0.068500 0.056507 0.252723
0.069463 0.056313 0.251897
0.070413 0.056113 0.251048
0.071107 0.055720 0.249330
0.072100 0.055570 0.248699
0.072981 0.055340 0.247709
0.073838 0.055099 0.246665
0.074866 0.054992 0.246216
0.075739 0.054775 0.245276
0.076509 0.054492 0.244034
0.077307 0.054237 0.242914
0.078053 0.053953 0.241665
0.078566 0.053519 0.239735
0.079022 0.053059 0.237687
0.080073 0.053005 0.237459
0.080853 0.052777 0.236442
0.081271 0.052321 0.234403
0.081946 0.052041 0.233148
0.082558 0.051729 0.231746
0.083388 0.051560 0.230978
0.084178 0.051371 0.230118
0.084966 0.051186 0.229272
0.085711 0.050979 0.228324
0.086625 0.050877 0.227842
0.087353 0.050670 0.226883
0.088065 0.050457 0.225897
0.087638 0.049606 0.222047
0.088283 0.049375 0.220966
0.089222 0.049312 0.220633
0.089377 0.048821 0.218384
0.090138 0.048670 0.217645
0.091014 0.048582 0.217187
0.091543 0.048314 0.215918
0.092251 0.048145 0.215084
0.092740 0.047867 0.213758
0.093269 0.047615 0.212543
0.094121 0.047532 0.212076
0.094850 0.047389 0.211335
0.095430 0.047175 0.210273
0.096090 0.047005 0.209398
0.096681 0.046804 0.208383
0.097164 0.046556 0.207149
0.097815 0.046394 0.206287
0.098548 0.046272 0.205602
0.099097 0.046067 0.204538
0.099847 0.045959 0.203897
0.100538 0.045826 0.203138
0.100705 0.045459 0.201334
0.101156 0.045226 0.200114
0.102064 0.045200 0.199803
0.102838 0.045115 0.199224
0.103398 0.044939 0.198231
0.104165 0.044855 0.197635
-1.013651 0.435731 1.894616
-1.006423 0.436512 1.900069
-0.997894 0.436739 1.903013
-0.989863 0.437190 1.906842
-0.983552 0.438416 1.913967
-1.055515 0.474881 2.074989
-1.058136 0.480541 2.101477
-1.048116 0.480515 2.103025
-1.029747 0.476623 2.087555
-1.021141 0.477219 2.091642
-0.892559 0.421209 1.847382
-0.877459 0.418175 1.835225
-0.867983 0.417787 1.834605
-0.863587 0.419862 1.844735
-0.847084 0.416033 1.828858
-1.352563 0.671127 2.951663
-1.340451 0.672033 2.956977
-1.315670 0.666540 2.934031
-1.309220 0.670315 2.951793
-1.289675 0.667395 2.939982
-1.265391 0.661934 2.916877
-1.243230 0.657476 2.898096
-0.935329 0.511477 2.256202
-0.923409 0.510753 2.253444
-0.921800 0.515782 2.276018
-0.908634 0.514387 2.270190
-0.312649 0.231358 1.020071
-0.307359 0.230993 1.018259
-0.304445 0.232429 1.024378
-0.299191 0.232097 1.022690
-0.294239 0.231992 1.021997
-0.289400 0.231974 1.021679
-0.284915 0.232244 1.022620
-0.281012 0.233007 1.025721
-0.275632 0.232550 1.023447
-0.270524 0.232310 1.022122
-0.149589 0.153020 0.671509
-0.147520 0.154180 0.676394
-0.144031 0.153873 0.674843
-0.139432 0.152342 0.667919
-0.136040 0.152087 0.666596
-0.133327 0.152598 0.668629
-0.130071 0.152497 0.667980
-0.127229 0.152889 0.669491
-0.124196 0.153066 0.670058
-0.121335 0.153471 0.671623
-0.118702 0.154192 0.674573
-0.115840 0.154648 0.676364
-0.113021 0.155190 0.678528
-0.110215 0.155782 0.680915
-0.107145 0.156026 0.681777
-0.104137 0.156377 0.683114
-0.101058 0.156642 0.684073
-0.097998 0.156956 0.685247
-0.095056 0.157485 0.687368
-0.091844 0.157590 0.687633
-0.088797 0.157997 0.689225
-0.085536 0.158040 0.689230
-0.082167 0.157878 0.688346
-0.079184 0.158477 0.690780
-0.075375 0.157401 0.685920
-0.071441 0.155957 0.679465
-0.068245 0.156063 0.679769
-0.035913 0.086225 0.375489
-0.033904 0.085679 0.373029
-0.032091 0.085594 0.372581
-0.030542 0.086244 0.375334
-0.028664 0.085991 0.374156
-0.026902 0.086075 0.374454
-0.025279 0.086647 0.376871
-0.023353 0.086190 0.374822
-0.009249 0.055395 0.240726
-0.008098 0.055408 0.240758
-0.006900 0.055045 0.239155
-0.005741 0.054904 0.238517
-0.004605 0.054988 0.238861
-0.003394 0.053916 0.234185
-0.002274 0.053960 0.234361
-0.001151 0.053936 0.234245
-0.000028 0.053642 0.232958
0.001096 0.054044 0.234693
0.002218 0.053992 0.234460
0.003345 0.054037 0.234652
0.004498 0.054382 0.236147
0.005781 0.055842 0.242489
0.006922 0.055676 0.241772
0.008018 0.055241 0.239887
0.009240 0.055675 0.241780
0.010404 0.055705 0.241917
0.011569 0.055732 0.242049
0.012748 0.055815 0.242422
0.013935 0.055914 0.242868
0.015192 0.056259 0.244386
0.016366 0.056269 0.244449
0.017555 0.056324 0.244714
0.018869 0.056750 0.246587
0.020130 0.056974 0.247589
0.021390 0.057171 0.248478
0.022636 0.057310 0.249111
0.023934 0.057562 0.250243
0.025154 0.057611 0.250491
0.026448 0.057817 0.251422
0.027690 0.057896 0.251807
0.028977 0.058058 0.252553
0.030278 0.058235 0.253364
0.031646 0.058521 0.254653
0.032996 0.058754 0.255714
0.034285 0.058865 0.256247
0.035585 0.058987 0.256829
0.036936 0.059182 0.257728
0.038282 0.059358 0.258544
0.039738 0.059686 0.260029
0.041112 0.059876 0.260912
0.042422 0.059965 0.261354
0.043581 0.059839 0.260864
0.044880 0.059909 0.261224
0.046141 0.059926 0.261355
0.047333 0.059854 0.261100
0.048606 0.059884 0.261293
0.049944 0.059992 0.261821
0.052388 0.061390 0.267986
0.054540 0.062389 0.272405
0.055632 0.062155 0.271448
0.056521 0.061710 0.269567
0.057825 0.061729 0.269711
0.058755 0.061356 0.268142
0.059912 0.061231 0.267655
0.060842 0.060884 0.266197
0.061791 0.060569 0.264878
0.062472 0.060010 0.262491
0.063593 0.059887 0.262007
0.064651 0.059711 0.261292
0.065314 0.059183 0.259034
0.065989 0.058685 0.256904
0.066702 0.058239 0.255000
0.067602 0.057969 0.253866
0.068394 0.057617 0.252372
0.069170 0.057264 0.250868
0.070102 0.057051 0.249974
0.071104 0.056900 0.249353
0.071897 0.056589 0.248030
0.072736 0.056324 0.246902
0.073688 0.056154 0.246188
0.074715 0.056045 0.245739
0.075615 0.055846 0.244894
0.076513 0.055651 0.244064
0.077157 0.055280 0.242457
0.078021 0.055075 0.241577
0.078756 0.054786 0.240324
0.079177 0.054291 0.238162
0.079642 0.053839 0.236187
0.080137 0.053419 0.234349
0.081099 0.053318 0.233907
0.081840 0.053077 0.232843
0.082556 0.052825 0.231734
0.083371 0.052643 0.230924
0.084108 0.052418 0.229918
0.084915 0.052241 0.229122
0.085633 0.052014 0.228102
0.086401 0.051822 0.227233
0.086911 0.051483 0.225714
0.087487 0.051191 0.224394
0.087862 0.050789 0.222589
0.088573 0.050589 0.221665
0.089492 0.050510 0.221269
0.089954 0.050180 0.219761
0.090393 0.049843 0.218224
0.090937 0.049571 0.216965
0.091622 0.049382 0.216064
0.092170 0.049124 0.214852
0.092689 0.048856 0.213595
0.093519 0.048756 0.213065
0.094265 0.048615 0.212349
0.094931 0.048436 0.211462
0.095705 0.048315 0.210821
0.096369 0.048142 0.209946
0.096895 0.047904 0.208782
0.097637 0.047776 0.208092
0.098180 0.047555 0.206988
0.098612 0.047285 0.205663
0.099210 0.047099 0.204698
0.099926 0.046972 0.203980
0.100537 0.046799 0.203055
0.100886 0.046508 0.201611
0.101196 0.046205 0.200107
0.101904 0.046087 0.199399
0.102988 0.046140 0.199419
0.103442 0.045913 0.198217
0.104120 0.045788 0.197448
-1.011399 0.443821 1.889489
-1.002977 0.444081 1.892680
-0.994712 0.444416 1.896094
-0.987242 0.445116 1.900976
-0.979724 0.445808 1.905732
-1.057301 0.485595 2.077681
-1.046697 0.485250 2.077976
-1.041655 0.487502 2.089307
-1.030960 0.487126 2.089295
-1.022330 0.487729 2.093391
-0.890470 0.428978 1.842483
-0.879099 0.427685 1.838111
-0.868504 0.426747 1.835189
-0.864480 0.429053 1.846151
-0.851510 0.426920 1.837951
-1.359944 0.688848 2.967068
-1.347749 0.689769 2.972414
-1.312464 0.678768 2.926271
-1.293966 0.676308 2.916830
-1.288008 0.680419 2.935648
-1.254823 0.670081 2.892028
-1.234918 0.666686 2.878272
-0.933177 0.520932 2.250748
-0.919790 0.519351 2.244379
-0.915649 0.523014 2.260622
-0.906132 0.523657 2.263756
-0.670670 0.433404 1.874484
-0.654410 0.428527 1.853315
-0.312275 0.235897 1.018995
-0.307700 0.236067 1.019539
-0.303838 0.236800 1.022499
-0.298932 0.236728 1.021978
-0.294148 0.236753 1.021866
-0.289342 0.236761 1.021670
-0.284428 0.236680 1.021078
-0.280535 0.237459 1.024195
-0.275210 0.237033 1.022101
-0.269069 0.235877 1.016856
-0.149073 0.155672 0.669404
-0.147122 0.156969 0.674783
-0.145595 0.158788 0.682397
-0.140484 0.156691 0.673182
-0.137463 0.156882 0.673801
-0.134352 0.156978 0.674009
-0.131695 0.157621 0.676567
-0.128751 0.157945 0.677752
-0.125432 0.157813 0.676982
-0.122528 0.158212 0.678489
-0.119693 0.158723 0.680475
-0.116999 0.159454 0.683407
-0.114045 0.159863 0.684960
-0.111297 0.160594 0.687889
-0.108213 0.160869 0.688866
-0.105097 0.161113 0.689716
-0.102151 0.161641 0.691781
-0.099107 0.162045 0.693315
-0.096114 0.162563 0.695340
-0.093052 0.162996 0.697004
-0.089770 0.163064 0.697109
-0.086554 0.163261 0.697769
-0.083140 0.163084 0.696836
-0.079903 0.163257 0.697403
-0.076257 0.162570 0.694300
-0.072524 0.161630 0.690123
-0.069279 0.161739 0.690430
-0.036321 0.089029 0.379962
-0.034211 0.088263 0.376611
-0.032443 0.088343 0.376873
-0.030770 0.088709 0.378360
-0.028998 0.088815 0.378737
-0.027268 0.089073 0.379767
-0.025465 0.089115 0.379882
-0.023813 0.089729 0.382435
-0.012014 0.083934 0.357442
-0.005790 0.056554 0.240794
-0.004638 0.056565 0.240817
-0.003486 0.056573 0.240834
-0.002260 0.054791 0.233233
-0.001148 0.055010 0.234153
-0.000026 0.055032 0.234235
0.001095 0.055025 0.234193
0.002217 0.055023 0.234178
0.003347 0.055170 0.234799
0.004480 0.055262 0.235191
0.005856 0.057725 0.245672
0.007003 0.057482 0.244642
0.008159 0.057365 0.244149
0.009267 0.056989 0.242553
0.010425 0.056966 0.242468
0.011588 0.056974 0.242512
0.012735 0.056908 0.242245
0.013923 0.057017 0.242725
0.015101 0.057076 0.242995
0.016295 0.057181 0.243462
0.017517 0.057364 0.244264
0.018769 0.057615 0.245358
0.019988 0.057740 0.245916
0.021215 0.057875 0.246520
0.022504 0.058156 0.247745
0.023891 0.058649 0.249879
0.025159 0.058816 0.250624
0.026452 0.059022 0.251539
0.027679 0.059072 0.251791
0.028943 0.059191 0.252339
0.030195 0.059278 0.252753
0.031435 0.059335 0.253037
0.032676 0.059389 0.253315
0.033942 0.059485 0.253770
0.035237 0.059622 0.254400
0.037249 0.060922 0.259998
0.038959 0.061660 0.263201
0.040347 0.061858 0.264097
0.041815 0.062163 0.265454
0.043003 0.062047 0.265014
0.044007 0.061679 0.263497
0.045055 0.061391 0.262323
0.046087 0.061098 0.261126
0.047462 0.061262 0.261885
0.048717 0.061266 0.261961
0.051781 0.063489 0.271526
0.053306 0.063763 0.272756
0.054471 0.063602 0.272128
0.055584 0.063390 0.271280
0.056734 0.063229 0.270651
0.057711 0.062886 0.269243
0.058774 0.062650 0.268289
0.059704 0.062286 0.266787
0.060662 0.061965 0.265469
0.061692 0.061728 0.264512
0.062569 0.061352 0.262953
0.063378 0.060925 0.261175
0.064307 0.060626 0.259949
0.065264 0.060366 0.258883
0.066037 0.059948 0.257138
0.066883 0.059610 0.255737
0.067675 0.059236 0.254179
0.068490 0.058897 0.252764
0.069363 0.058617 0.251603
0.070299 0.058399 0.250709
0.071232 0.058186 0.249829
0.072041 0.057880 0.248552
0.072927 0.057645 0.247574
0.073833 0.057433 0.246695
0.074897 0.057349 0.246360
0.075762 0.057117 0.245387
0.076444 0.056756 0.243859
0.077025 0.056332 0.242056
0.077767 0.056037 0.240801
0.078499 0.055742 0.239548
0.078623 0.055031 0.236501
0.079571 0.054909 0.235980
0.080408 0.054714 0.235143
0.081051 0.054394 0.233768
0.081896 0.054217 0.233000
0.082591 0.053946 0.231825
0.082991 0.053492 0.229862
0.083628 0.053202 0.228594
0.084629 0.053146 0.228334
0.085276 0.052873 0.227133
0.086044 0.052681 0.226277
0.086822 0.052499 0.225461
0.087234 0.052103 0.223720
0.087792 0.051803 0.222386
0.088512 0.051604 0.221482
0.089380 0.051496 0.220960
0.089942 0.051215 0.219695
0.090498 0.050938 0.218440
0.091159 0.050725 0.217455
0.091798 0.050506 0.216435
0.092607 0.050383 0.215824
0.093007 0.050042 0.214278
0.093528 0.049774 0.213034
0.094204 0.049593 0.212156
0.095016 0.049487 0.211592
0.095640 0.049286 0.210618
0.096253 0.049083 0.209631
0.097188 0.049047 0.209346
0.097733 0.048817 0.208227
0.098332 0.048619 0.207235
0.099031 0.048473 0.206460
0.099571 0.048253 0.205364
0.100231 0.048095 0.204523
0.100993 0.047988 0.203891
0.101265 0.047653 0.202281
0.101613 0.047359 0.200840
0.102139 0.047154 0.199765
0.103229 0.047210 0.199788
0.103839 0.047047 0.198876
0.104308 0.046824 0.197699
-1.009621 0.452084 1.885215
-1.002940 0.453128 1.891693
-0.992739 0.452587 1.891452
-0.985501 0.453400 1.896776
-0.979185 0.454657 1.903869
-1.061947 0.497683 2.085953
-1.053272 0.498264 2.090208
-1.044777 0.498943 2.094783
-1.025016 0.494203 2.076504
-1.015659 0.494436 2.079021
-0.892085 0.438527 1.845222
-0.879334 0.436530 1.838030
-0.867300 0.434853 1.832105
-0.863536 0.437331 1.843619
-0.852022 0.435895 1.838570
-1.347218 0.696329 2.938568
-1.335119 0.697251 2.943866
-1.316747 0.694882 2.935171
-1.291054 0.688558 2.909664
-1.290907 0.695869 2.941687
-1.269849 0.691945 2.926135
-1.257798 0.692896 2.931111
-0.947634 0.533744 2.259142
-0.932080 0.530939 2.247818
-0.920322 0.530257 2.245421
-0.916914 0.534426 2.263513
-0.903409 0.532739 2.256753
-0.690517 0.443680 1.880588
-0.682234 0.444043 1.882134
-0.670035 0.441832 1.872742
-0.666057 0.445056 1.886353
-0.314560 0.242474 1.026591
-0.307292 0.240568 1.018339
-0.303542 0.241399 1.021664
-0.298995 0.241613 1.022365
-0.293836 0.241331 1.020961
-0.289029 0.241333 1.020752
-0.284439 0.241521 1.021318
-0.280260 0.242070 1.023401
-0.275189 0.241854 1.022244
-0.269133 0.240750 1.017325
-0.152184 0.162166 0.683584
-0.147947 0.161074 0.678784
-0.147809 0.164495 0.692999
-0.142041 0.161664 0.680870
-0.138161 0.160901 0.677457
-0.135173 0.161164 0.678367
-0.132433 0.161744 0.680605
-0.129709 0.162371 0.683045
-0.126406 0.162289 0.682497
-0.123596 0.162852 0.684665
-0.120871 0.163560 0.687442
-0.117940 0.164022 0.689181
-0.115009 0.164510 0.691034
-0.112027 0.164952 0.692690
-0.109006 0.165360 0.694210
-0.105866 0.165610 0.695061
-0.102786 0.165972 0.696389
-0.099782 0.166485 0.698354
-0.096684 0.166871 0.699784
-0.093508 0.167147 0.700754
-0.090283 0.167351 0.701430
-0.086989 0.167439 0.701618
-0.083436 0.167014 0.699663
-0.080338 0.167504 0.701546
-0.076613 0.166674 0.697901
-0.072555 0.165010 0.690775
-0.069308 0.165120 0.691082
-0.035637 0.089141 0.373003
-0.033879 0.089198 0.373162
-0.032081 0.089148 0.372876
-0.030369 0.089348 0.373642
-0.028480 0.089019 0.372194
-0.026736 0.089127 0.372579
-0.025424 0.090796 0.379487
-0.023773 0.091421 0.382037
-0.017597 0.087922 0.367252
-0.015266 0.084727 0.353859
-0.013570 0.084705 0.353726
-0.011992 0.085515 0.357068
-0.010368 0.086209 0.359928
