ply
format ascii 1.0
element vertex 1680
property float x
property float y
property float z
end_header
-1.654465 -0.406186 3.173986
-1.638825 -0.406019 3.174972
-1.628104 -0.407080 3.185422
-1.618240 -0.408377 3.197603
-1.602406 -0.408178 3.197946
-1.590738 -0.409048 3.206535
-1.579412 -0.410023 3.215836
-1.561389 -0.409262 3.211406
-1.549033 -0.409986 3.218516
-1.540220 -0.411673 3.233071
-1.526712 -0.412126 3.237835
-1.515337 -0.413170 3.247144
-1.503883 -0.414214 3.256352
-1.487221 -0.413830 3.254239
-1.475016 -0.414692 3.261823
-1.462516 -0.415489 3.268802
-1.449502 -0.416156 3.274665
-1.436884 -0.416952 3.281460
-1.423907 -0.417661 3.287480
-1.413287 -0.419085 3.299041
-1.401193 -0.420098 3.307294
-1.390130 -0.421447 3.318110
-1.379183 -0.422863 3.329371
-1.366858 -0.423884 3.337451
-1.353862 -0.424719 3.343986
-1.341226 -0.425688 3.351506
-1.327292 -0.426264 3.355859
-1.316989 -0.428034 3.369545
-1.305228 -0.429368 3.379729
-1.287033 -0.428592 3.373241
-1.277151 -0.430600 3.388602
-1.265637 -0.432103 3.399917
-1.233612 -0.437741 3.442395
-1.222469 -0.439554 3.455903
-1.203973 -0.438735 3.448679
-1.189713 -0.439460 3.453532
-1.172319 -0.439032 3.449274
-1.152169 -0.437545 3.436662
-0.318814 -0.132215 1.036528
-0.313947 -0.132225 1.036245
-0.305412 -0.130667 1.023664
-0.299564 -0.130226 1.019840
-0.291321 -0.128713 1.007613
-0.282153 -0.126735 0.991748
-0.273320 -0.124843 0.976560
-0.265227 -0.123229 0.963558
-0.257312 -0.121644 0.950779
-0.250485 -0.120525 0.941655
-0.242776 -0.118934 0.928841
-0.235517 -0.117509 0.917328
-0.228199 -0.116001 0.905174
-0.220801 -0.114393 0.892251
-0.214719 -0.113417 0.884264
-0.209637 -0.112942 0.880181
-0.203780 -0.112022 0.872629
-0.053665 -0.033606 0.261102
-0.052489 -0.033650 0.261335
-0.051004 -0.033493 0.260005
-0.049572 -0.033365 0.258898
-0.047991 -0.033127 0.256940
-0.046334 -0.032823 0.254474
-0.044915 -0.032675 0.253222
-0.043409 -0.032454 0.251407
-0.041911 -0.032227 0.249546
-0.040451 -0.032017 0.247819
-0.039034 -0.031829 0.246266
-0.037683 -0.031685 0.245053
-0.036319 -0.031521 0.243686
-0.034690 -0.031108 0.240401
-0.033571 -0.031139 0.240555
-0.030224 -0.029034 0.224204
-0.029189 -0.029074 0.224437
-0.028254 -0.029223 0.225506
-0.027227 -0.029283 0.225894
-0.026246 -0.029401 0.226725
-0.025255 -0.029517 0.227544
-0.024250 -0.029626 0.228310
-0.023354 -0.029886 0.230242
-0.022261 -0.029906 0.230330
-0.021308 -0.030127 0.231966
-0.020260 -0.030232 0.232707
-0.019206 -0.030337 0.233456
-0.018149 -0.030451 0.234275
-0.017105 -0.030605 0.235403
-0.015987 -0.030639 0.235610
-0.014906 -0.030754 0.236436
-0.013813 -0.030861 0.237212
-0.012705 -0.030951 0.237856
-0.011592 -0.031047 0.238548
-0.010481 -0.031167 0.239434
-0.009356 -0.031274 0.240215
-0.008240 -0.031446 0.241500
-0.007081 -0.031479 0.241725
-0.005927 -0.031555 0.242275
-0.004773 -0.031672 0.243151
-0.003616 -0.031839 0.244412
-0.002439 -0.031903 0.244887
-0.001258 -0.031988 0.245521
-0.000071 -0.032056 0.246028
0.001122 -0.032130 0.246590
0.002318 -0.032183 0.246990
0.003520 -0.032245 0.247463
0.004730 -0.032331 0.248119
0.005966 -0.032526 0.249622
0.007187 -0.032585 0.250079
0.008402 -0.032606 0.250254
0.009641 -0.032701 0.250996
0.010885 -0.032789 0.251693
0.012146 -0.032906 0.252612
0.013412 -0.033014 0.253463
0.014692 -0.033137 0.254432
0.015945 -0.033182 0.254807
0.017178 -0.033183 0.254854
0.018446 -0.033246 0.255374
0.019728 -0.033326 0.256027
0.021068 -0.033489 0.257320
0.022344 -0.033537 0.257734
0.023623 -0.033583 0.258143
0.024895 -0.033616 0.258445
0.026202 -0.033691 0.259074
0.027507 -0.033756 0.259639
0.028836 -0.033844 0.260373
0.030035 -0.033778 0.259927
0.031323 -0.033813 0.260267
0.032788 -0.034029 0.261996
0.034256 -0.034232 0.263631
0.035898 -0.034589 0.266455
0.037448 -0.034835 0.268424
0.038904 -0.034981 0.269624
0.040231 -0.035004 0.269886
0.041576 -0.035041 0.270254
0.042955 -0.035103 0.270817
0.044328 -0.035157 0.271320
0.045690 -0.035200 0.271739
0.047026 -0.035221 0.271990
0.048429 -0.035289 0.272605
0.049900 -0.035402 0.273570
0.051306 -0.035464 0.274144
0.052681 -0.035502 0.274536
0.054064 -0.035543 0.274951
0.055423 -0.035568 0.275236
0.056821 -0.035615 0.275700
0.058133 -0.035608 0.275739
0.059453 -0.035605 0.275820
0.060785 -0.035610 0.275953
0.061997 -0.035546 0.275555
0.062963 -0.035346 0.274106
0.062505 -0.034372 0.266642
0.063379 -0.034154 0.265045
0.064275 -0.033956 0.263603
0.065336 -0.033852 0.262884
0.066013 -0.033556 0.260677
0.066866 -0.033359 0.259236
0.067890 -0.033253 0.258499
0.068827 -0.033109 0.257464
0.069789 -0.032981 0.256556
0.070761 -0.032863 0.255720
0.071667 -0.032719 0.254677
0.072612 -0.032597 0.253804
0.073403 -0.032411 0.252434
0.074141 -0.032207 0.250923
0.074928 -0.032032 0.249626
0.075798 -0.031896 0.248640
0.076582 -0.031730 0.247409
0.077350 -0.031562 0.246161
0.077988 -0.031346 0.244540
0.078238 -0.030983 0.241765
0.078631 -0.030687 0.239508
0.079563 -0.030606 0.238928
0.080293 -0.030451 0.237765
0.080957 -0.030276 0.236441
0.081669 -0.030123 0.235288
0.082312 -0.029950 0.233967
0.082998 -0.029796 0.232798
0.083699 -0.029651 0.231698
0.084502 -0.029546 0.230903
0.085228 -0.029418 0.229919
0.086132 -0.029353 0.229429
0.086935 -0.029255 0.228679
0.087601 -0.029115 0.227591
0.088590 -0.029084 0.227352
0.089189 -0.028928 0.226126
0.089892 -0.028808 0.225183
0.090678 -0.028717 0.224465
0.091396 -0.028608 0.223591
0.092082 -0.028490 0.222654
0.092677 -0.028348 0.221515
0.093050 -0.028142 0.219872
0.093656 -0.028010 0.218804
0.094277 -0.027885 0.217786
0.094937 -0.027775 0.216874
0.095516 -0.027643 0.215792
0.095776 -0.027423 0.214012
0.095947 -0.027182 0.212066
0.096599 -0.027082 0.211208
0.096936 -0.026896 0.209675
0.097306 -0.026722 0.208237
0.097804 -0.026587 0.207093
0.098178 -0.026422 0.205704
0.098776 -0.026319 0.204797
0.099299 -0.026198 0.203744
0.099551 -0.026010 0.202154
0.099906 -0.025851 0.200792
0.100018 -0.025633 0.198963
0.100558 -0.025528 0.198003
0.101088 -0.025422 0.197030
0.101451 -0.025277 0.195744
0.102084 -0.025201 0.194985
-1.662211 -0.389421 3.158433
-1.654729 -0.391175 3.175058
-1.643874 -0.392156 3.185292
-1.628071 -0.391965 3.185868
-1.617005 -0.392921 3.195646
-1.605115 -0.393694 3.203810
-1.594808 -0.394875 3.215170
-1.580280 -0.395022 3.218009
-1.565108 -0.395011 3.219432
-1.553109 -0.395809 3.227338
-1.537869 -0.395788 3.228461
-1.525669 -0.396558 3.235925
-1.511134 -0.396731 3.238414
-1.497782 -0.397222 3.243394
-1.484650 -0.397781 3.248842
-1.475652 -0.399472 3.263435
-1.458234 -0.398896 3.259414
-1.447339 -0.400111 3.269937
-1.436206 -0.401286 3.280047
-1.422085 -0.401643 3.283383
-1.412487 -0.403300 3.297261
-1.401753 -0.404666 3.308682
-1.389936 -0.405746 3.317691
-1.378747 -0.407037 3.328340
-1.364823 -0.407541 3.332478
-1.353287 -0.408779 3.342541
-1.339820 -0.409456 3.347947
-1.324998 -0.409730 3.349990
-1.313293 -0.410987 3.359996
-1.298463 -0.411285 3.362096
-1.286130 -0.412391 3.370738
-1.270685 -0.412515 3.371287
-1.259869 -0.414164 3.384241
-1.223537 -0.418047 3.414031
-1.217090 -0.421371 3.440424
-1.192573 -0.418446 3.415732
-1.182274 -0.420497 3.431621
-1.165813 -0.420385 3.429796
-1.152879 -0.421558 3.438421
-0.323904 -0.127384 1.037375
-0.318471 -0.127168 1.035264
-0.312879 -0.126882 1.032570
-0.306229 -0.126151 1.026245
-0.300329 -0.125710 1.022281
-0.292684 -0.124513 1.012162
-0.283799 -0.122740 0.997363
-0.274475 -0.120714 0.980512
-0.265834 -0.118924 0.965587
-0.257973 -0.117427 0.953041
-0.249744 -0.115706 0.938685
-0.242462 -0.114369 0.927455
-0.234566 -0.112688 0.913438
-0.226954 -0.111083 0.900042
-0.221160 -0.110323 0.893507
-0.214605 -0.109147 0.883597
-0.208691 -0.108256 0.876007
-0.204058 -0.108007 0.873612
-0.200191 -0.108163 0.874487
-0.054422 -0.032814 0.264715
-0.052975 -0.032700 0.263681
-0.051364 -0.032477 0.261769
-0.049540 -0.032105 0.258657
-0.047911 -0.031843 0.256438
-0.046399 -0.031648 0.254757
-0.044953 -0.031488 0.253361
-0.043586 -0.031376 0.252355
-0.042128 -0.031191 0.250762
-0.040784 -0.031081 0.249779
-0.038863 -0.030512 0.245107
-0.037555 -0.030404 0.244139
-0.036116 -0.030180 0.242243
-0.034701 -0.029961 0.240394
-0.033581 -0.029992 0.240549
-0.030237 -0.027966 0.224223
-0.029237 -0.028040 0.224732
-0.028252 -0.028135 0.225410
-0.027304 -0.028274 0.226447
-0.026315 -0.028382 0.227234
-0.025258 -0.028423 0.227485
-0.024258 -0.028534 0.228302
-0.023265 -0.028665 0.229278
-0.022371 -0.028937 0.231384
-0.021335 -0.029044 0.232175
-0.020286 -0.029144 0.232910
-0.019223 -0.029235 0.233574
-0.018191 -0.029386 0.234720
-0.017133 -0.029514 0.235684
-0.015998 -0.029520 0.235672
-0.014890 -0.029578 0.236086
-0.013810 -0.029706 0.237060
-0.012708 -0.029806 0.237807
-0.011575 -0.029847 0.238089
-0.010450 -0.029919 0.238622
-0.009330 -0.030025 0.239431
-0.008209 -0.030159 0.240467
-0.007062 -0.030222 0.240938
-0.005911 -0.030299 0.241518
-0.004763 -0.030423 0.242481
-0.003611 -0.030602 0.243884
-0.002439 -0.030690 0.244570
-0.001259 -0.030774 0.245222
-0.000072 -0.030832 0.245668
0.001120 -0.030931 0.246451
0.002320 -0.031028 0.247220
0.003526 -0.031116 0.247914
0.004740 -0.031207 0.248640
0.005961 -0.031297 0.249364
0.007187 -0.031381 0.250040
0.008412 -0.031438 0.250503
0.009630 -0.031455 0.250654
0.010867 -0.031525 0.251231
0.012102 -0.031575 0.251650
0.013447 -0.031876 0.254075
0.014693 -0.031912 0.254389
0.015948 -0.031959 0.254793
0.017195 -0.031986 0.255038
0.018444 -0.032011 0.255278
0.019704 -0.032052 0.255643
0.020994 -0.032134 0.256348
0.022275 -0.032193 0.256861
0.023574 -0.032272 0.257541
0.024882 -0.032353 0.258243
0.026216 -0.032459 0.259144
0.027520 -0.032520 0.259689
0.028831 -0.032584 0.260257
0.030399 -0.032920 0.263008
0.031349 -0.032586 0.260410
0.033108 -0.033088 0.264487
0.034477 -0.033176 0.265260
0.035910 -0.033317 0.266468
0.037308 -0.033417 0.267347
0.038768 -0.033565 0.268608
0.040152 -0.033639 0.269281
0.041524 -0.033699 0.269845
0.042952 -0.033799 0.270731
0.044340 -0.033863 0.271329
0.045709 -0.033908 0.271783
0.047101 -0.033968 0.272356
0.048463 -0.034003 0.272730
0.049886 -0.034079 0.273428
0.051363 -0.034187 0.274388
0.052738 -0.034222 0.274770
0.054108 -0.034253 0.275112
0.055445 -0.034262 0.275285
0.056825 -0.034296 0.275659
0.058103 -0.034269 0.275541
0.059410 -0.034259 0.275560
0.060789 -0.034291 0.275917
0.061911 -0.034180 0.275116
0.062853 -0.033975 0.273572
0.063240 -0.033485 0.269723
0.063429 -0.032913 0.265205
0.064282 -0.032700 0.263585
0.065327 -0.032591 0.262802
0.066353 -0.032478 0.261975
0.067203 -0.032283 0.260498
0.068256 -0.032192 0.259849
0.069082 -0.031998 0.258376
0.069907 -0.031812 0.256954
0.070790 -0.031657 0.255787
0.071695 -0.031517 0.254740
0.072481 -0.031331 0.253313
0.073132 -0.031093 0.251466
0.074001 -0.030954 0.250418
0.074888 -0.030827 0.249463
0.075628 -0.030644 0.248057
0.076412 -0.030485 0.246832
0.077143 -0.030309 0.245475
0.077894 -0.030147 0.244221
0.078355 -0.029879 0.242107
0.078619 -0.029544 0.239450
0.079585 -0.029479 0.238977
0.080377 -0.029352 0.237996
0.081095 -0.029203 0.236828
0.081751 -0.029035 0.235509
0.082474 -0.028895 0.234415
0.083272 -0.028785 0.233556
0.084033 -0.028665 0.232615
0.084809 -0.028554 0.231735
0.085636 -0.028462 0.231012
0.086384 -0.028347 0.230094
0.087222 -0.028263 0.229431
0.088002 -0.028163 0.228630
0.088772 -0.028063 0.227819
0.089465 -0.027940 0.226825
0.090050 -0.027788 0.225582
0.090786 -0.027685 0.224735
0.091489 -0.027574 0.223823
0.092152 -0.027454 0.222829
0.092778 -0.027326 0.221766
0.093404 -0.027201 0.220719
0.094216 -0.027132 0.220123
0.094903 -0.027029 0.219247
0.095561 -0.026920 0.218315
0.095386 -0.026582 0.215514
0.095717 -0.026390 0.213898
0.096186 -0.026239 0.212614
0.096526 -0.026058 0.211069
0.096959 -0.025904 0.209748
0.097452 -0.025770 0.208574
0.097906 -0.025628 0.207335
0.098306 -0.025475 0.205997
0.098730 -0.025331 0.204730
0.099108 -0.025178 0.203383
0.099385 -0.025003 0.201849
0.099804 -0.024867 0.200620
0.100254 -0.024740 0.199467
0.100274 -0.024512 0.197480
0.100785 -0.024406 0.196478
0.101406 -0.024328 0.195696
0.101825 -0.024205 0.194532
-1.668988 -0.375940 3.171877
-1.657892 -0.376818 3.181666
-1.641280 -0.376448 3.180776
-1.628517 -0.376962 3.187225
-1.613884 -0.377049 3.189937
-1.602797 -0.377974 3.199616
-1.593041 -0.379235 3.212016
-1.578594 -0.379392 3.214958
-1.565837 -0.379963 3.221290
-1.552536 -0.380412 3.226480
-1.539187 -0.380859 3.231538
-1.523693 -0.380779 3.232019
-1.512537 -0.381793 3.241682
-1.497828 -0.381922 3.243731
-1.485485 -0.382663 3.250883
-1.472616 -0.383284 3.256914
-1.459623 -0.383885 3.262687
-1.447962 -0.384853 3.271492
-1.432461 -0.384811 3.271616
-1.419651 -0.385499 3.277867
-1.409856 -0.387030 3.291199
-1.401093 -0.388882 3.307181
-1.390875 -0.390368 3.319967
-1.377689 -0.391045 3.325796
-1.365984 -0.392163 3.335304
-1.353176 -0.392987 3.342237
-1.341075 -0.394039 3.351028
-1.325787 -0.394168 3.351909
-1.313112 -0.395087 3.359436
-1.298761 -0.395518 3.362748
-1.288225 -0.397137 3.376089
-1.276379 -0.398388 3.386235
-1.262635 -0.399070 3.391489
-1.222121 -0.401463 3.409833
-1.209803 -0.402698 3.419557
-1.189644 -0.401323 3.407054
-1.182961 -0.404518 3.433305
-1.147106 -0.397689 3.374433
-0.342555 -0.122143 1.035799
-0.338235 -0.122345 1.037194
-0.336022 -0.123327 1.045185
-0.332314 -0.123781 1.048687
-0.324109 -0.122549 1.037894
-0.319843 -0.122791 1.039582
-0.314287 -0.122538 1.037067
-0.308278 -0.122097 1.032958
-0.301675 -0.121404 1.026705
-0.293744 -0.120145 1.015664
-0.285138 -0.118563 1.001902
-0.275889 -0.116657 0.985395
-0.266961 -0.114822 0.969507
-0.258637 -0.113188 0.955318
-0.250610 -0.111629 0.941763
-0.242357 -0.109910 0.926873
-0.235555 -0.108799 0.917107
-0.228190 -0.107380 0.904761
-0.221656 -0.106306 0.895321
-0.214511 -0.104891 0.883017
-0.208530 -0.104000 0.875135
-0.204879 -0.104259 0.876930
-0.198912 -0.103326 0.868697
-0.054465 -0.031573 0.264857
-0.052461 -0.031133 0.261054
-0.050907 -0.030946 0.259368
-0.049618 -0.030915 0.258994
-0.048176 -0.030784 0.257783
-0.046494 -0.030489 0.255205
-0.045318 -0.030519 0.255346
-0.043926 -0.030401 0.254248
-0.042356 -0.030149 0.252041
-0.040922 -0.029983 0.250548
-0.039767 -0.030017 0.250730
-0.033806 -0.026313 0.219701
-0.032619 -0.026206 0.218717
-0.032179 -0.026711 0.222852
-0.031248 -0.026830 0.223758
-0.030114 -0.026778 0.223236
-0.029169 -0.026895 0.224134
-0.028206 -0.027005 0.224962
-0.027249 -0.027128 0.225913
-0.026254 -0.027224 0.226630
-0.025328 -0.027401 0.228031
-0.024280 -0.027457 0.228423
-0.023262 -0.027555 0.229166
-0.022287 -0.027715 0.230429
-0.021333 -0.027920 0.232059
-0.020281 -0.028011 0.232757
-0.019216 -0.028096 0.233395
-0.018155 -0.028196 0.234169
-0.017142 -0.028389 0.235712
-0.016012 -0.028404 0.235779
-0.014913 -0.028478 0.236337
-0.013818 -0.028574 0.237084
-0.012719 -0.028678 0.237905
-0.011576 -0.028695 0.238000
-0.010453 -0.028770 0.238581
-0.009328 -0.028858 0.239270
-0.008194 -0.028938 0.239896
-0.007061 -0.029048 0.240781
-0.005918 -0.029158 0.241660
-0.004774 -0.029312 0.242914
-0.003618 -0.029467 0.244175
-0.002439 -0.029492 0.244365
-0.001257 -0.029518 0.244564
-0.000074 -0.029647 0.245619
0.001118 -0.029731 0.246304
0.002318 -0.029827 0.247094
0.003522 -0.029890 0.247615
0.004733 -0.029969 0.248265
0.005954 -0.030065 0.249068
0.007176 -0.030130 0.249616
0.008396 -0.030172 0.249975
0.009623 -0.030224 0.250413
0.010853 -0.030273 0.250844
0.012088 -0.030326 0.251299
0.013339 -0.030404 0.251975
0.014557 -0.030401 0.251972
0.015821 -0.030485 0.252704
0.017093 -0.030572 0.253460
0.018401 -0.030708 0.254626
0.019679 -0.030780 0.255260
0.020985 -0.030884 0.256171
0.022305 -0.030996 0.257144
0.023593 -0.031054 0.257676
0.024833 -0.031046 0.257666
0.026190 -0.031178 0.258812
0.027522 -0.031270 0.259635
0.029247 -0.031780 0.263935
0.030416 -0.031669 0.263080
0.031655 -0.031637 0.262880
0.033018 -0.031727 0.263697
0.034350 -0.031781 0.264219
0.035777 -0.031915 0.265411
0.037259 -0.032089 0.266933
0.038732 -0.032242 0.268291
0.040128 -0.032324 0.269051
0.041523 -0.032400 0.269771
0.042983 -0.032520 0.270857
0.044361 -0.032573 0.271387
0.045726 -0.032614 0.271819
0.047107 -0.032663 0.272322
0.048482 -0.032706 0.272773
0.049870 -0.032756 0.273281
0.051294 -0.032825 0.273953
0.052791 -0.032936 0.274981
0.054155 -0.032962 0.275293
0.055470 -0.032957 0.275348
0.056842 -0.032985 0.275683
0.058141 -0.032970 0.275663
0.059401 -0.032935 0.275465
0.060743 -0.032945 0.275654
0.061963 -0.032891 0.275296
0.062983 -0.032734 0.274086
0.062552 -0.031845 0.266741
0.063332 -0.031596 0.264750
0.064286 -0.031442 0.263555
0.065400 -0.031371 0.263051
0.066371 -0.031234 0.262000
0.067318 -0.031092 0.260901
0.068284 -0.030964 0.259916
0.069113 -0.030779 0.258454
0.069947 -0.030603 0.257062
0.070864 -0.030469 0.256018
0.071883 -0.030382 0.255374
0.072581 -0.030165 0.253629
0.073371 -0.029993 0.252257
0.074069 -0.029789 0.250618
0.074835 -0.029618 0.249259
0.075767 -0.029518 0.248485
0.076345 -0.029285 0.246590
0.077134 -0.029138 0.245421
0.077378 -0.028793 0.242580
0.077921 -0.028568 0.240743
0.078781 -0.028464 0.239924
0.079652 -0.028367 0.239158
0.080453 -0.028248 0.238207
0.081239 -0.028127 0.237233
0.081951 -0.027984 0.236071
0.082575 -0.027816 0.234687
0.083330 -0.027695 0.233707
0.084089 -0.027579 0.232761
0.084846 -0.027465 0.231827
0.085448 -0.027305 0.230497
0.086514 -0.027295 0.230434
0.087274 -0.027190 0.229563
0.087977 -0.027071 0.228563
0.088832 -0.027000 0.227970
0.089534 -0.026885 0.227002
0.090110 -0.026735 0.225734
0.090852 -0.026637 0.224902
0.091547 -0.026529 0.223970
0.092138 -0.026393 0.222803
0.092837 -0.026290 0.221914
0.093354 -0.026139 0.220609
0.094041 -0.026038 0.219724
0.094650 -0.025919 0.218674
0.095309 -0.025815 0.217753
0.095943 -0.025707 0.216787
0.096281 -0.025523 0.215176
0.096792 -0.025388 0.213973
0.097039 -0.025187 0.212209
0.097266 -0.024985 0.210433
0.097746 -0.024852 0.209226
0.098340 -0.024750 0.208279
0.098761 -0.024607 0.206978
0.099211 -0.024474 0.205754
0.099743 -0.024363 0.204715
0.099788 -0.024137 0.202697
0.099900 -0.023932 0.200846
0.099667 -0.023648 0.198334
0.100113 -0.023530 0.197198
0.100692 -0.023444 0.196334
0.101084 -0.023317 0.195114
0.101644 -0.023231 0.194227
-1.704061 -0.365183 3.207788
-1.669483 -0.360979 3.173354
-1.658395 -0.361824 3.183144
-1.654342 -0.364234 3.206579
-1.632982 -0.362844 3.196424
-1.622354 -0.363835 3.207113
-1.606910 -0.363754 3.208239
-1.596423 -0.364806 3.219222
-1.581800 -0.364923 3.221852
-1.565320 -0.364611 3.220566
-1.552430 -0.365138 3.226574
-1.541700 -0.366188 3.237107
-1.525956 -0.366057 3.237088
-1.513113 -0.366627 3.243164
-0.621461 -0.152110 1.345943
-0.612601 -0.151480 1.340719
-0.605060 -0.151168 1.338256
-0.599726 -0.151406 1.340628
-0.586622 -0.149667 1.325454
-1.433066 -0.369539 3.273112
-1.420261 -0.370202 3.279365
-1.404542 -0.370112 3.278864
-1.398199 -0.372519 3.300399
-1.391999 -0.375019 3.322677
-1.376499 -0.375042 3.322933
-1.364300 -0.375975 3.331178
-1.354380 -0.377565 3.345175
-1.342940 -0.378765 3.355632
-1.327357 -0.378811 3.355803
-1.314738 -0.379714 3.363498
-1.299760 -0.379951 3.365216
-1.286299 -0.380642 3.370901
-1.275837 -0.382250 3.384635
-1.262941 -0.383160 3.392129
-1.221147 -0.385056 3.406875
-1.209682 -0.386511 3.418952
-1.194899 -0.386930 3.421821
-1.176314 -0.386114 3.413710
-1.162186 -0.386758 3.418473
-0.348114 -0.117474 1.038027
-0.342294 -0.117155 1.034899
-0.336661 -0.116892 1.032254
-0.335734 -0.118279 1.044165
-0.329194 -0.117701 1.038715
-0.323695 -0.117483 1.036434
-0.318981 -0.117548 1.036642
-0.314026 -0.117525 1.036058
-0.308230 -0.117182 1.032646
-0.302072 -0.116688 1.027898
-0.294786 -0.115735 1.019106
-0.285689 -0.114027 1.003672
-0.276921 -0.112396 0.988914
-0.268074 -0.110676 0.973380
-0.258994 -0.108798 0.956467
-0.249814 -0.106811 0.938599
-0.241681 -0.105207 0.924110
-0.233980 -0.103736 0.910795
-0.227978 -0.102977 0.903739
-0.221213 -0.101837 0.893347
-0.214445 -0.100652 0.882562
-0.209984 -0.100524 0.881050
-0.204702 -0.099990 0.875978
-0.200827 -0.100135 0.876858
-0.056480 -0.030715 0.268480
-0.054732 -0.030455 0.266086
-0.052851 -0.030107 0.262929
-0.051179 -0.029863 0.260687
-0.049989 -0.029896 0.260858
-0.048871 -0.029975 0.261432
-0.047252 -0.029742 0.259290
-0.044947 -0.029054 0.253184
-0.043962 -0.029204 0.254382
-0.038541 -0.026333 0.229274
-0.037272 -0.026213 0.228133
-0.034712 -0.025150 0.218794
-0.033653 -0.025142 0.218638
-0.032561 -0.025109 0.218260
-0.031675 -0.025238 0.219292
-0.030815 -0.025397 0.220588
-0.030004 -0.025609 0.222349
-0.029146 -0.025795 0.223883
-0.028207 -0.025922 0.224896
-0.027245 -0.026036 0.225806
-0.026302 -0.026178 0.226964
-0.025342 -0.026316 0.228081
-0.024283 -0.026359 0.228376
-0.023280 -0.026469 0.229256
-0.022283 -0.026597 0.230300
-0.021342 -0.026809 0.232066
-0.020320 -0.026938 0.233119
-0.019305 -0.027092 0.234387
-0.018213 -0.027150 0.234822
-0.017123 -0.027219 0.235362
-0.016041 -0.027312 0.236107
-0.014928 -0.027361 0.236482
-0.013796 -0.027382 0.236609
-0.012728 -0.027545 0.237973
-0.011588 -0.027570 0.238146
-0.010459 -0.027627 0.238597
-0.009329 -0.027699 0.239174
-0.008186 -0.027747 0.239557
-0.007054 -0.027851 0.240418
-0.005915 -0.027968 0.241405
-0.004800 -0.028279 0.244058
-0.003623 -0.028311 0.244314
-0.002442 -0.028334 0.244492
-0.001261 -0.028396 0.245014
-0.000075 -0.028445 0.245422
0.001119 -0.028581 0.246589
0.002317 -0.028637 0.247065
0.003526 -0.028732 0.247883
0.004735 -0.028784 0.248331
0.005959 -0.028890 0.249244
0.007184 -0.028960 0.249859
0.008399 -0.028978 0.250029
0.009621 -0.029011 0.250329
0.010856 -0.029070 0.250850
0.012078 -0.029088 0.251027
0.013357 -0.029227 0.252250
0.014622 -0.029313 0.253026
0.015878 -0.029371 0.253553
0.017116 -0.029388 0.253739
0.018367 -0.029424 0.254091
0.019659 -0.029518 0.254937
0.021011 -0.029684 0.256416
0.022277 -0.029718 0.256756
0.023575 -0.029787 0.257408
0.024877 -0.029855 0.258048
0.026187 -0.029926 0.258718
0.027585 -0.030086 0.260161
0.029084 -0.030337 0.262396
0.030419 -0.030404 0.263042
0.031626 -0.030342 0.262576
0.032921 -0.030366 0.262854
0.034298 -0.030461 0.263747
0.035747 -0.030611 0.265121
0.037287 -0.030826 0.267060
0.038681 -0.030910 0.267870
0.040050 -0.030969 0.268464
0.041430 -0.031032 0.269102
0.043146 -0.031336 0.271821
0.044482 -0.031354 0.272068
0.045885 -0.031416 0.272698
0.047193 -0.031412 0.272761
0.048531 -0.031428 0.272988
0.049860 -0.031436 0.273161
0.051325 -0.031528 0.274057
0.052712 -0.031569 0.274512
0.054133 -0.031628 0.275121
0.055452 -0.031626 0.275203
0.056809 -0.031644 0.275463
0.058109 -0.031631 0.275452
0.059439 -0.031635 0.275587
0.060723 -0.031614 0.275505
0.061949 -0.031565 0.275178
0.063017 -0.031439 0.274180
0.063064 -0.030819 0.268874
0.063492 -0.030406 0.265370
0.064486 -0.030276 0.264327
0.065583 -0.030197 0.263739
0.066522 -0.030051 0.262556
0.067398 -0.029882 0.261168
0.068332 -0.029744 0.260055
0.069165 -0.029568 0.258609
0.070139 -0.029458 0.257731
0.070999 -0.029303 0.256470
0.071902 -0.029172 0.255405
0.072788 -0.029039 0.254317
0.073693 -0.028917 0.253332
0.074327 -0.028694 0.251461
0.075190 -0.028566 0.250412
0.075671 -0.028299 0.248143
0.076345 -0.028111 0.246565
0.076329 -0.027678 0.242838
0.077250 -0.027594 0.242157
0.077908 -0.027419 0.240684
0.078802 -0.027331 0.239967
0.079604 -0.027214 0.238997
0.080488 -0.027128 0.238291
0.081320 -0.027027 0.237453
0.082057 -0.026898 0.236364
0.082868 -0.026796 0.235509
0.083646 -0.026686 0.234583
0.084277 -0.026533 0.233271
0.085111 -0.026447 0.232543
0.085762 -0.026307 0.231339
0.086548 -0.026212 0.230520
0.087438 -0.026150 0.229992
0.088110 -0.026025 0.228904
0.088926 -0.025945 0.228210
0.089638 -0.025837 0.227264
0.090185 -0.025685 0.225924
0.090850 -0.025569 0.224900
0.091618 -0.025485 0.224149
0.092324 -0.025386 0.223259
0.092930 -0.025262 0.222145
0.093540 -0.025142 0.221059
0.094157 -0.025026 0.220007
0.094932 -0.024954 0.219337
0.095740 -0.024893 0.218751
0.096367 -0.024786 0.217761
0.097037 -0.024692 0.216881
0.096831 -0.024380 0.214076
0.096897 -0.024142 0.211918
0.097092 -0.023941 0.210077
0.097777 -0.023864 0.209315
0.098458 -0.023787 0.208551
0.098825 -0.023636 0.207137
0.099140 -0.023476 0.205634
0.099392 -0.023305 0.204022
0.099604 -0.023128 0.202352
0.099922 -0.022978 0.200920
0.099993 -0.022775 0.199013
0.100367 -0.022644 0.197732
0.100743 -0.022516 0.196468
0.101222 -0.022414 0.195416
0.101630 -0.022297 0.194237
-1.704536 -0.350033 3.209224
-1.669959 -0.346006 3.174771
-1.652426 -0.345469 3.172170
-1.647637 -0.347611 3.194044
-1.630687 -0.347204 3.192369
-1.619443 -0.348017 3.201773
-1.603400 -0.347804 3.201618
-1.593513 -0.348935 3.213720
-1.581878 -0.349702 3.222354
-1.572272 -0.350937 3.235190
-1.557729 -0.351084 3.237886
-1.544683 -0.351575 3.243646
-1.531781 -0.352109 3.249700
-0.628265 -0.145871 1.346702
-0.620607 -0.145557 1.344181
-0.611442 -0.144880 1.338260
-0.601258 -0.143944 1.329914
-0.592249 -0.143274 1.323973
-0.581580 -0.142183 1.314113
-1.392605 -0.351640 3.251060
-1.390089 -0.354890 3.281298
-1.386190 -0.357855 3.308832
-1.377782 -0.359711 3.326031
-1.363744 -0.360124 3.329803
-1.353060 -0.361442 3.341876
-1.342775 -0.362899 3.355162
-1.330417 -0.363824 3.363458
-1.317055 -0.364494 3.369326
-1.303884 -0.365234 3.375776
-1.293836 -0.366879 3.390515
-1.281913 -0.368026 3.400595
-1.267939 -0.368607 3.405374
-1.225789 -0.370373 3.419586
-1.211091 -0.370795 3.422675
-1.195859 -0.371063 3.424293
-1.176718 -0.370110 3.414587
-1.162593 -0.370730 3.419355
-0.348307 -0.112628 1.038499
-0.342042 -0.112178 1.034031
-0.337047 -0.112136 1.033323
-0.333930 -0.112728 1.038437
-0.328767 -0.112637 1.037242
-0.324068 -0.112704 1.037499
-0.319041 -0.112658 1.036700
-0.313884 -0.112564 1.035451
-0.308444 -0.112364 1.033217
-0.302794 -0.112079 1.030206
-0.296204 -0.111432 1.023855
-0.288293 -0.110258 1.012661
-0.279538 -0.108717 0.998099
-0.270682 -0.107083 0.982686
-0.260970 -0.105047 0.963597
-0.250319 -0.102554 0.940326
-0.240439 -0.100292 0.919194
-0.233906 -0.099369 0.910337
-0.226613 -0.098082 0.898153
-0.220011 -0.097051 0.888317
-0.214112 -0.096296 0.881010
-0.209910 -0.096289 0.880555
-0.205731 -0.096293 0.880192
-0.056521 -0.029453 0.268613
-0.054238 -0.028918 0.263620
-0.052764 -0.028800 0.262427
-0.051537 -0.028815 0.262442
-0.050388 -0.028875 0.262871
-0.049018 -0.028808 0.262150
-0.043457 -0.026210 0.238402
-0.041756 -0.025863 0.235140
-0.040113 -0.025534 0.232048
-0.038723 -0.025351 0.230289
-0.037424 -0.025220 0.228998
-0.035057 -0.024338 0.220901
-0.033455 -0.023950 0.217289
-0.032563 -0.024061 0.218210
-0.031736 -0.024229 0.219645
-0.030885 -0.024390 0.221019
-0.029967 -0.024508 0.221999
-0.029099 -0.024677 0.223446
-0.028226 -0.024854 0.224974
-0.027395 -0.025084 0.226975
-0.026431 -0.025207 0.228004
-0.025411 -0.025284 0.228624
-0.024380 -0.025357 0.229208
-0.023334 -0.025420 0.229708
-0.022338 -0.025547 0.230783
-0.021344 -0.025691 0.232014
-0.020369 -0.025873 0.233591
-0.019315 -0.025971 0.234413
-0.018274 -0.026102 0.235526
-0.017185 -0.026174 0.236119
-0.016077 -0.026228 0.236551
-0.014946 -0.026248 0.236681
-0.013839 -0.026319 0.237263
-0.012755 -0.026448 0.238380
-0.011596 -0.026433 0.238201
-0.010463 -0.026480 0.238584
-0.009338 -0.026565 0.239310
-0.008193 -0.026606 0.239646
-0.007056 -0.026691 0.240377
-0.005933 -0.026874 0.241993
-0.004775 -0.026948 0.242630
-0.003627 -0.027150 0.244430
-0.002443 -0.027152 0.244426
-0.001261 -0.027185 0.244712
-0.000076 -0.027282 0.245567
0.001116 -0.027344 0.246120
0.002320 -0.027490 0.247427
0.003527 -0.027551 0.247973
0.004741 -0.027628 0.248668
0.005957 -0.027680 0.249135
0.007176 -0.027726 0.249559
0.008392 -0.027749 0.249779
0.009618 -0.027794 0.250196
0.010840 -0.027818 0.250435
0.012065 -0.027845 0.250702
0.013306 -0.027900 0.251220
0.014557 -0.027966 0.251838
0.015836 -0.028070 0.252811
0.017068 -0.028083 0.252965
0.018336 -0.028149 0.253592
0.019592 -0.028189 0.253999
0.020931 -0.028337 0.255374
0.022205 -0.028385 0.255861
0.023495 -0.028447 0.256471
0.024805 -0.028526 0.257237
0.026186 -0.028676 0.258645
0.027493 -0.028734 0.259226
0.028814 -0.028801 0.259898
0.030146 -0.028873 0.260610
0.031513 -0.028972 0.261573
0.032918 -0.029096 0.262762
0.034308 -0.029198 0.263759
0.035807 -0.029382 0.265501
0.037330 -0.029573 0.267309
0.038652 -0.029597 0.267602
0.039945 -0.029598 0.267693
0.041460 -0.029758 0.269231
0.043234 -0.030089 0.272313
0.044617 -0.030135 0.272825
0.045917 -0.030125 0.272826
0.047320 -0.030181 0.273429
0.048619 -0.030170 0.273424
0.050003 -0.030211 0.273887
0.051337 -0.030219 0.274065
0.052782 -0.030291 0.274816
0.054141 -0.030312 0.275104
0.055471 -0.030315 0.275237
0.056815 -0.030326 0.275438
0.058105 -0.030309 0.275382
0.059412 -0.030300 0.275408
0.060718 -0.030292 0.275431
0.061956 -0.030251 0.275161
0.063051 -0.030142 0.274279
0.062642 -0.029334 0.267026
0.063575 -0.029175 0.265674
0.064453 -0.028997 0.264149
0.065552 -0.028923 0.263571
0.066533 -0.028801 0.262557
0.067488 -0.028672 0.261477
0.068350 -0.028509 0.260085
0.069239 -0.028364 0.258847
0.070063 -0.028197 0.257414
0.071037 -0.028095 0.256572
0.072010 -0.027996 0.255757
0.072892 -0.027866 0.254651
0.073717 -0.027719 0.253384
0.074524 -0.027569 0.252098
0.075359 -0.027435 0.250946
0.076184 -0.027301 0.249798
0.076769 -0.027087 0.247907
0.076513 -0.026587 0.243400
0.077077 -0.026382 0.241593
0.077954 -0.026289 0.240803
0.078820 -0.026196 0.240003
0.079608 -0.026079 0.238990
0.080539 -0.026012 0.238427
0.081433 -0.025935 0.237770
0.082198 -0.025819 0.236756
0.082993 -0.025716 0.235852
0.083760 -0.025607 0.234890
0.084551 -0.025508 0.234019
0.085365 -0.025419 0.233229
0.086220 -0.025344 0.232567
0.086940 -0.025231 0.231558
0.087626 -0.025112 0.230481
0.088381 -0.025015 0.229606
0.089153 -0.024925 0.228792
0.089871 -0.024823 0.227856
0.090373 -0.024664 0.226395
0.091013 -0.024546 0.225306
0.091782 -0.024465 0.224554
0.092391 -0.024344 0.223425
0.093019 -0.024231 0.222363
0.093682 -0.024129 0.221402
0.094228 -0.023999 0.220183
0.094941 -0.023915 0.219367
0.095856 -0.023882 0.219027
0.096238 -0.023719 0.217482
0.096382 -0.023502 0.215432
0.096575 -0.023301 0.213527
0.096892 -0.023133 0.211924
0.097316 -0.022995 0.210580
0.097817 -0.022877 0.209421
0.098370 -0.022773 0.208386
0.098791 -0.022642 0.207088
0.099020 -0.022469 0.205408
0.099396 -0.022333 0.204056
0.099641 -0.022170 0.202454
0.099939 -0.022023 0.200982
0.100505 -0.021936 0.200064
0.100146 -0.021651 0.197327
0.100633 -0.021553 0.196287
0.101178 -0.021469 0.195367
0.101648 -0.021370 0.194309
-1.679808 -0.329925 3.163177
-1.668004 -0.330542 3.171537
-1.652513 -0.330433 3.172798
-1.641089 -0.331143 3.181787
-1.631055 -0.332150 3.193503
-1.615556 -0.332053 3.194478
-1.601433 -0.332240 3.198059
-1.593827 -0.333795 3.214699
-1.584620 -0.335043 3.228263
-1.573214 -0.335845 3.237432
-1.560418 -0.336364 3.243757
-1.550308 -0.337478 3.255719
-0.635223 -0.139655 1.347736
-0.624380 -0.138651 1.338462
-0.619233 -0.138905 1.341285
-0.604884 -0.137079 1.323977
-0.589807 -0.135049 1.304648
-0.571985 -0.132341 1.278727
-0.581804 -0.136039 1.314665
-1.396139 -0.337167 3.259365
-1.383110 -0.337717 3.264859
-1.386933 -0.342441 3.310623
-1.375040 -0.343348 3.319408
-1.366790 -0.345196 3.337218
-1.351529 -0.345296 3.338053
-1.340257 -0.346429 3.348809
-1.328986 -0.347591 3.359761
-1.315353 -0.348155 3.364873
-1.301749 -0.348741 3.370128
-1.291217 -0.350175 3.383512
-1.277239 -0.350699 3.388039
-1.263126 -0.351199 3.392270
-1.220042 -0.352565 3.403319
-1.206825 -0.353380 3.410367
-1.193504 -0.354187 3.417278
-1.175079 -0.353481 3.409543
-1.160982 -0.354075 3.414308
-0.347985 -0.107618 1.037443
-0.343293 -0.107679 1.037707
-0.337230 -0.107306 1.033775
-0.334198 -0.107900 1.039155
-0.329584 -0.107994 1.039699
-0.323868 -0.107724 1.036732
-0.319358 -0.107853 1.037599
-0.314348 -0.107815 1.036842
-0.308832 -0.107599 1.034377
-0.303356 -0.107391 1.031971
-0.296819 -0.106795 1.025829
-0.289069 -0.105735 1.015234
-0.280665 -0.104395 1.001962
-0.272098 -0.102949 0.987664
-0.263334 -0.101376 0.972161
-0.259134 -0.101536 0.973273
-0.242099 -0.096581 0.925374
-0.233963 -0.095059 0.910389
-0.227481 -0.094164 0.901423
-0.219992 -0.092810 0.888067
-0.214475 -0.092252 0.882330
-0.207994 -0.091249 0.872338
-0.205870 -0.092155 0.880603
-0.056561 -0.028188 0.268740
-0.055152 -0.028123 0.268000
-0.053748 -0.028058 0.267257
-0.051191 -0.027373 0.260617
-0.045991 -0.025206 0.239872
-0.044409 -0.024961 0.237441
-0.043128 -0.024877 0.236539
-0.041657 -0.024676 0.234522
-0.040067 -0.024392 0.231719
-0.038639 -0.024193 0.229730
-0.037108 -0.023916 0.227003
-0.034817 -0.023117 0.219328
-0.033552 -0.022971 0.217854
-0.032676 -0.023091 0.218906
-0.031845 -0.023252 0.220339
-0.030973 -0.023392 0.221583
-0.030033 -0.023490 0.222424
-0.029049 -0.023560 0.222999
-0.028095 -0.023659 0.223856
-0.027314 -0.023918 0.226229
-0.026522 -0.024189 0.228711
-0.025476 -0.024242 0.229132
-0.024431 -0.024301 0.229611
-0.023404 -0.024384 0.230318
-0.022357 -0.024453 0.230902
-0.021339 -0.024563 0.231871
-0.020323 -0.024689 0.232992
-0.019276 -0.024788 0.233858
-0.018209 -0.024873 0.234605
-0.017136 -0.024960 0.235367
-0.016080 -0.025087 0.236501
-0.014960 -0.025125 0.236810
-0.013845 -0.025179 0.237261
-0.012739 -0.025261 0.237985
-0.011614 -0.025317 0.238471
-0.010479 -0.025362 0.238855
-0.009343 -0.025415 0.239316
-0.008206 -0.025482 0.239907
-0.007061 -0.025541 0.240434
-0.005933 -0.025699 0.241892
-0.004785 -0.025825 0.243044
-0.003619 -0.025900 0.243728
-0.002448 -0.026000 0.244651
-0.001264 -0.026023 0.244854
-0.000078 -0.026089 0.245457
0.001117 -0.026204 0.246528
0.002317 -0.026270 0.247151
0.003526 -0.026354 0.247932
0.004739 -0.026416 0.248517
0.005955 -0.026467 0.249008
0.007172 -0.026505 0.249368
0.008389 -0.026531 0.249625
0.009604 -0.026547 0.249792
0.010831 -0.026586 0.250179
0.012059 -0.026621 0.250525
0.013302 -0.026679 0.251102
0.014570 -0.026772 0.252005
0.015788 -0.026768 0.251993
0.017045 -0.026824 0.252564
0.018302 -0.026873 0.253063
0.019626 -0.027009 0.254381
0.020902 -0.027066 0.254966
0.022218 -0.027165 0.255948
0.023484 -0.027195 0.256284
0.024885 -0.027373 0.258010
0.026144 -0.027383 0.258167
0.027509 -0.027499 0.259318
0.028785 -0.027519 0.259571
0.030148 -0.027617 0.260563
0.031582 -0.027770 0.262076
0.032986 -0.027886 0.263241
0.034347 -0.027958 0.264000
0.035678 -0.028001 0.264484
0.037110 -0.028118 0.265671
0.038389 -0.028115 0.265724
0.039851 -0.028242 0.267006
0.041054 -0.028182 0.266530
0.043070 -0.028669 0.271217
0.044437 -0.028706 0.271666
0.045800 -0.028739 0.272073
0.046996 -0.028669 0.271500
0.048371 -0.028708 0.271970
0.049813 -0.028784 0.272788
0.051328 -0.028898 0.273960
0.052729 -0.028942 0.274486
0.054134 -0.028987 0.275012
0.055544 -0.029033 0.275545
0.056817 -0.029006 0.275393
0.058101 -0.028986 0.275310
0.059422 -0.028985 0.275401
0.060691 -0.028959 0.275260
0.061934 -0.028922 0.275014
0.063064 -0.028835 0.274289
0.062584 -0.028031 0.266737
0.063520 -0.027879 0.265398
0.064383 -0.027703 0.263819
0.065478 -0.027631 0.263232
0.066418 -0.027498 0.262062
0.067402 -0.027388 0.261106
0.068221 -0.027216 0.259559
0.069127 -0.027084 0.258393
0.070105 -0.026984 0.257534
0.071109 -0.026898 0.256798
0.072059 -0.026794 0.255897
0.072982 -0.026685 0.254934
0.073915 -0.026582 0.254034
0.074801 -0.026466 0.253008
0.075454 -0.026272 0.251235
0.075328 -0.025818 0.246965
0.075466 -0.025467 0.243676
0.076596 -0.025456 0.243641
0.077421 -0.025345 0.242650
0.078088 -0.025187 0.241197
0.078825 -0.025056 0.239999
0.079727 -0.024980 0.239330
0.080574 -0.024889 0.238514
0.081419 -0.024800 0.237712
0.082290 -0.024722 0.237006
0.083076 -0.024620 0.236074
0.083929 -0.024541 0.235353
0.084856 -0.024485 0.234852
0.085603 -0.024379 0.233871
0.086482 -0.024313 0.233267
0.087360 -0.024248 0.232669
0.087861 -0.024082 0.231095
0.088402 -0.023931 0.229657
0.089115 -0.023829 0.228693
0.089791 -0.023720 0.227652
0.090289 -0.023568 0.226186
0.090911 -0.023450 0.225056
0.091712 -0.023381 0.224386
0.092302 -0.023261 0.223214
0.093142 -0.023205 0.222662
0.093748 -0.023094 0.221564
0.094277 -0.022966 0.220305
0.094831 -0.022846 0.219124
0.095520 -0.022762 0.218270
0.096207 -0.022679 0.217426
0.096716 -0.022556 0.216193
0.096852 -0.022349 0.214153
0.097292 -0.022217 0.212817
0.097672 -0.022073 0.211367
0.098255 -0.021978 0.210378
0.098660 -0.021846 0.209022
0.099186 -0.021742 0.207939
0.099448 -0.021584 0.206321
0.099654 -0.021416 0.204611
0.099980 -0.021277 0.203169
0.100062 -0.021089 0.201256
0.099967 -0.020868 0.199020
0.100100 -0.020699 0.197266
0.100952 -0.020680 0.196941
0.101273 -0.020553 0.195582
0.101744 -0.020459 0.194525
-1.693722 -0.317504 3.189861
-1.680930 -0.317929 3.196578
-1.659112 -0.316639 3.185903
-1.645735 -0.316952 3.191209
-1.627437 -0.316315 3.186810
-1.620733 -0.317941 3.205084
-1.608891 -0.318580 3.213300
-1.599150 -0.319652 3.225764
-1.590671 -0.320999 3.240898
-1.577636 -0.321444 3.246818
-1.565673 -0.322120 3.254948
-1.552747 -0.322608 3.261086
-0.641650 -0.134640 1.361465
-0.624132 -0.132281 1.338016
-0.617488 -0.132202 1.337581
-0.606798 -0.131247 1.328233
-0.588548 -0.128620 1.301920
-0.575514 -0.127090 1.286665
-0.555867 -0.124051 1.256097
-0.536745 -0.121067 1.226028
-0.528466 -0.120490 1.220307
-0.517670 -0.119320 1.208548
-1.383653 -0.322453 3.266172
-1.369326 -0.322686 3.268607
-1.372287 -0.327044 3.312756
-1.361917 -0.328289 3.325294
-1.350383 -0.329280 3.335179
-1.338908 -0.330308 3.345377
-1.328364 -0.331594 3.358108
-1.316880 -0.332673 3.368680
-1.303914 -0.333400 3.375615
-1.289446 -0.333757 3.378735
-1.276910 -0.334629 3.387011
-1.263799 -0.335371 3.393906
-1.217979 -0.335926 3.397339
-1.202518 -0.336069 3.397953
-1.190042 -0.337062 3.407105
-1.175996 -0.337631 3.411922
-0.347273 -0.102502 1.035223
-0.342644 -0.102576 1.035646
-0.337526 -0.102504 1.034576
-0.333508 -0.102769 1.036899
-0.328881 -0.102851 1.037365
-0.323920 -0.102829 1.036778
-0.319074 -0.102845 1.036548
-0.313965 -0.102774 1.035449
-0.308669 -0.102640 1.033692
-0.303072 -0.102399 1.030864
-0.296661 -0.101872 1.025137
-0.289609 -0.101103 1.016980
-0.281645 -0.099984 1.005308
-0.273142 -0.098632 0.991298
-0.263163 -0.096691 0.971374
-0.234106 -0.090780 0.910788
-0.225877 -0.089237 0.894904
-0.220181 -0.088655 0.888667
-0.212819 -0.087366 0.875349
-0.208476 -0.087290 0.874188
-0.052022 -0.024743 0.247117
-0.050753 -0.024700 0.246568
-0.049230 -0.024528 0.244737
-0.047321 -0.024150 0.240856
-0.045273 -0.023681 0.236071
-0.044090 -0.023651 0.235674
-0.042670 -0.023490 0.233966
-0.041373 -0.023390 0.232867
-0.039909 -0.023187 0.230745
-0.038694 -0.023122 0.229993
-0.036055 -0.022177 0.220500
-0.034591 -0.021919 0.217847
-0.033589 -0.021948 0.218038
-0.032639 -0.022013 0.218597
-0.031862 -0.022203 0.220396
-0.030996 -0.022342 0.221682
-0.030049 -0.022431 0.222478
-0.029119 -0.022539 0.223465
-0.028572 -0.022963 0.227591
-0.027552 -0.023026 0.228131
-0.026519 -0.023083 0.228616
-0.025485 -0.023144 0.229143
-0.024489 -0.023247 0.230084
-0.023413 -0.023280 0.230331
-0.022335 -0.023314 0.230597
-0.021335 -0.023438 0.231752
-0.020364 -0.023609 0.233380
-0.019318 -0.023708 0.234290
-0.018236 -0.023773 0.234871
-0.017144 -0.023832 0.235392
-0.016051 -0.023899 0.235992
-0.014955 -0.023969 0.236637
-0.013824 -0.023992 0.236810
-0.012737 -0.024103 0.237855
-0.011616 -0.024166 0.238432
-0.010494 -0.024239 0.239113
-0.009352 -0.024278 0.239455
-0.008219 -0.024356 0.240182
-0.007068 -0.024396 0.240552
-0.005970 -0.024676 0.243278
-0.004792 -0.024677 0.243266
-0.003632 -0.024799 0.244437
-0.002450 -0.024827 0.244695
-0.001267 -0.024885 0.245258
-0.000079 -0.024920 0.245589
0.001115 -0.025000 0.246368
0.002321 -0.025127 0.247609
0.003529 -0.025179 0.248120
0.004740 -0.025225 0.248574
0.005953 -0.025257 0.248896
0.007175 -0.025313 0.249457
0.008391 -0.025333 0.249660
0.009612 -0.025361 0.249951
0.010838 -0.025393 0.250288
0.012062 -0.025415 0.250526
0.013303 -0.025466 0.251055
0.014574 -0.025562 0.252029
0.015818 -0.025598 0.252423
0.017063 -0.025630 0.252767
0.018338 -0.025700 0.253502
0.019556 -0.025687 0.253419
0.020888 -0.025816 0.254734
0.022192 -0.025898 0.255591
0.023477 -0.025949 0.256150
0.024823 -0.026061 0.257304
0.026152 -0.026144 0.258183
0.027459 -0.026199 0.258787
0.028768 -0.026250 0.259356
0.030106 -0.026323 0.260144
0.031549 -0.026478 0.261746
0.032891 -0.026539 0.262422
0.034207 -0.026576 0.262864
0.035660 -0.026712 0.264288
0.037083 -0.026817 0.265413
0.038431 -0.026864 0.265955
0.039906 -0.026993 0.267316
0.041315 -0.027070 0.268168
0.042684 -0.027117 0.268729
0.044074 -0.027175 0.269390
0.045331 -0.027149 0.269227
0.046756 -0.027223 0.270057
0.048286 -0.027352 0.271435
0.049984 -0.027567 0.273670
0.051354 -0.027595 0.274042
0.052738 -0.027629 0.274478
0.054084 -0.027641 0.274704
0.055489 -0.027682 0.275219
0.056819 -0.027685 0.275352
0.058086 -0.027658 0.275185
0.059414 -0.027660 0.275314
0.060740 -0.027662 0.275432
0.061987 -0.027628 0.275199
0.063115 -0.027543 0.274462
0.063435 -0.027117 0.270318
0.063900 -0.026768 0.266941
0.064533 -0.026503 0.264392
0.065358 -0.026324 0.262710
0.066371 -0.026227 0.261837
0.067356 -0.026122 0.260889
0.068369 -0.026032 0.260083
0.069255 -0.025898 0.258834
0.070231 -0.025801 0.257963
0.071233 -0.025717 0.257213
0.072130 -0.025599 0.256120
0.073058 -0.025495 0.255168
0.073961 -0.025386 0.254163
0.074797 -0.025259 0.252965
0.075546 -0.025106 0.251516
0.076045 -0.024876 0.249292
0.076769 -0.024726 0.247861
0.076167 -0.024160 0.242253
0.077025 -0.024067 0.241388
0.077949 -0.023997 0.240750
0.078801 -0.023907 0.239910
0.079670 -0.023825 0.239142
0.080544 -0.023746 0.238410
0.081391 -0.023662 0.237616
0.082219 -0.023575 0.236789
0.082975 -0.023470 0.235776
0.083841 -0.023398 0.235095
0.084544 -0.023283 0.233980
0.085404 -0.023214 0.233319
0.086507 -0.023212 0.233326
0.087160 -0.023091 0.232131
0.087840 -0.022980 0.231036
0.088519 -0.022871 0.229957
0.089376 -0.022810 0.229360
0.090072 -0.022711 0.228364
0.090717 -0.022600 0.227257
0.091161 -0.022444 0.225676
0.091829 -0.022345 0.224676
0.092502 -0.022250 0.223704
0.093156 -0.022152 0.222703
0.093581 -0.022003 0.221177
0.094314 -0.021928 0.220399
0.094987 -0.021842 0.219494
0.095436 -0.021706 0.218089
0.096213 -0.021647 0.217450
0.096625 -0.021508 0.216001
0.096943 -0.021352 0.214370
0.097390 -0.021226 0.213046
0.097761 -0.021087 0.211578
0.098138 -0.020952 0.210144
0.098585 -0.020835 0.208881
0.099128 -0.020740 0.207838
0.099527 -0.020617 0.206506
0.099818 -0.020474 0.204970
0.099281 -0.020166 0.201774
0.099879 -0.020092 0.200915
0.100304 -0.019985 0.199719
0.100658 -0.019866 0.198394
0.101226 -0.019791 0.197504
0.101678 -0.019696 0.196396
0.102040 -0.019584 0.195124
-1.694138 -0.302425 3.191104
-1.663707 -0.299653 3.164256
-1.651156 -0.300081 3.171037
-1.629197 -0.298791 3.159528
-1.628780 -0.301466 3.189809
-1.620872 -0.302791 3.205709
-1.609804 -0.303546 3.215452
-1.601466 -0.304835 3.230744
-1.591292 -0.305796 3.242454
-1.578262 -0.306222 3.248376
-1.565386 -0.306687 3.254601
-0.654032 -0.129399 1.373698
-0.641853 -0.128253 1.361985
-0.628910 -0.126931 1.348338
-0.622360 -0.126884 1.348206
-0.609931 -0.125627 1.335153
-0.594323 -0.123681 1.314748
-0.579418 -0.121843 1.295439
-0.562486 -0.119536 1.271092
-0.544780 -0.117012 1.244413
-0.531929 -0.115489 1.228326
-0.523156 -0.114827 1.221372
-0.515269 -0.114347 1.216323
-1.369848 -0.307396 3.269862
-1.348717 -0.306080 3.255848
-1.362452 -0.312737 3.326573
-1.346456 -0.312645 3.325433
-1.339607 -0.314700 3.347059
-1.326709 -0.315367 3.353842
-1.316445 -0.316683 3.367469
-1.304692 -0.317669 3.377515
-1.290771 -0.318146 3.382076
-1.276321 -0.318502 3.385298
-1.262550 -0.319040 3.390383
-1.218536 -0.320030 3.398674
-1.203481 -0.320276 3.400437
-1.191288 -0.321301 3.410416
-1.175795 -0.321452 3.411068
-1.161703 -0.321996 3.415842
-0.347749 -0.097741 1.036549
-0.343473 -0.097913 1.038052
-0.337318 -0.097548 1.033836
-0.333444 -0.097841 1.036591
-0.329265 -0.098053 1.038462
-0.323795 -0.097880 1.036261
-0.318969 -0.097900 1.036086
-0.313852 -0.097830 1.034950
-0.308571 -0.097706 1.033234
-0.302996 -0.097484 1.030469
-0.296615 -0.096991 1.024838
-0.290150 -0.096453 1.018734
-0.282459 -0.095483 1.008067
-0.274321 -0.094326 0.995430
-0.265960 -0.093051 0.981545
-0.261722 -0.093199 0.982670
-0.231010 -0.085300 0.898590
-0.223480 -0.084072 0.885255
-0.217998 -0.083583 0.879699
-0.210206 -0.082171 0.864447
-0.205726 -0.082024 0.862498
-0.056545 -0.023980 0.251802
-0.055359 -0.023985 0.251746
-0.053691 -0.023779 0.249458
-0.052055 -0.023576 0.247224
-0.050562 -0.023431 0.245585
-0.049171 -0.023328 0.244389
-0.047294 -0.022983 0.240666
-0.045161 -0.022494 0.235435
-0.043898 -0.022424 0.234597
-0.042637 -0.022351 0.233732
-0.041322 -0.022245 0.232520
-0.040030 -0.022146 0.231387
-0.038838 -0.022099 0.230793
-0.036174 -0.021187 0.221172
-0.034791 -0.020993 0.219051
-0.033686 -0.020959 0.218609
-0.032733 -0.021021 0.219161
-0.031947 -0.021198 0.220919
-0.030911 -0.021216 0.221014
-0.030120 -0.021409 0.222942
-0.029136 -0.021474 0.223532
-0.028401 -0.021735 0.226163
-0.027598 -0.021962 0.228444
-0.026679 -0.022113 0.229929
-0.025579 -0.022119 0.229918
-0.024538 -0.022180 0.230470
-0.023496 -0.022245 0.231076
-0.022417 -0.022281 0.231372
-0.021359 -0.022343 0.231945
-0.020369 -0.022486 0.233364
-0.019309 -0.022564 0.234108
-0.018237 -0.022637 0.234794
-0.017160 -0.022714 0.235535
-0.016051 -0.022755 0.235902
-0.014934 -0.022792 0.236231
-0.013830 -0.022856 0.236843
-0.012735 -0.022946 0.237728
-0.011643 -0.023062 0.238889
-0.010506 -0.023104 0.239274
-0.009378 -0.023181 0.240029
-0.008236 -0.023236 0.240570
-0.007085 -0.023283 0.241024
-0.005939 -0.023370 0.241889
-0.004797 -0.023516 0.243376
-0.003625 -0.023564 0.243852
-0.002453 -0.023661 0.244832
-0.001267 -0.023667 0.244878
-0.000080 -0.023746 0.245686
0.001114 -0.023801 0.246241
0.002320 -0.023922 0.247493
0.003527 -0.023972 0.248003
0.004736 -0.024003 0.248321
0.005950 -0.024043 0.248742
0.007171 -0.024093 0.249269
0.008386 -0.024110 0.249454
0.009606 -0.024136 0.249744
0.010835 -0.024176 0.250170
0.012055 -0.024189 0.250336
0.013311 -0.024267 0.251164
0.014554 -0.024308 0.251620
0.015799 -0.024347 0.252056
0.017055 -0.024396 0.252597
0.018320 -0.024450 0.253202
0.019568 -0.024477 0.253516
0.020850 -0.024539 0.254209
0.022148 -0.024613 0.255026
0.023493 -0.024728 0.256265
0.024785 -0.024779 0.256851
0.026122 -0.024868 0.257831
0.027418 -0.024911 0.258339
0.028728 -0.024963 0.258941
0.030061 -0.025028 0.259691
0.031448 -0.025133 0.260846
0.032941 -0.025311 0.262765
0.034309 -0.025382 0.263584
0.035696 -0.025462 0.264495
0.036973 -0.025462 0.264571
0.038431 -0.025581 0.265895
0.039788 -0.025628 0.266463
0.041328 -0.025786 0.268194
0.042687 -0.025825 0.268692
0.044048 -0.025862 0.269175
0.045303 -0.025837 0.269010
0.046596 -0.025835 0.269078
0.048313 -0.026061 0.271531
0.050195 -0.026362 0.274766
0.051411 -0.026307 0.274295
0.052734 -0.026308 0.274407
0.054146 -0.026352 0.274969
0.055459 -0.026347 0.275020
0.056790 -0.026350 0.275162
0.058076 -0.026333 0.275089
0.059381 -0.026325 0.275112
0.060693 -0.026321 0.275172
0.061963 -0.026299 0.275049
0.063087 -0.026217 0.274296
0.063401 -0.025809 0.270130
0.064022 -0.025539 0.267413
0.064398 -0.025184 0.263797
0.065446 -0.025101 0.263025
0.066546 -0.025041 0.262490
0.067491 -0.024925 0.261374
0.068298 -0.024763 0.259779
0.069298 -0.024676 0.258960
0.070254 -0.024577 0.258011
0.071171 -0.024468 0.256956
0.072146 -0.024382 0.256144
0.073161 -0.024312 0.255498
0.074145 -0.024235 0.254769
0.074870 -0.024076 0.253187
0.075122 -0.023773 0.250078
0.074721 -0.023276 0.244925
0.075216 -0.023069 0.242823
0.076261 -0.023035 0.242531
0.077265 -0.022989 0.242118
0.077972 -0.022858 0.240801
0.078849 -0.022780 0.240038
0.079719 -0.022701 0.239272
0.080470 -0.022592 0.238176
0.081336 -0.022518 0.237443
0.082262 -0.022461 0.236900
0.083108 -0.022385 0.236142
0.083778 -0.022264 0.234907
0.084478 -0.022154 0.233787
0.085288 -0.022076 0.232994
0.086207 -0.022027 0.232510
0.087078 -0.021968 0.231908
0.087687 -0.021845 0.230626
0.088341 -0.021735 0.229492
0.089180 -0.021674 0.228855
