ply
format ascii 1.0
element vertex 1745
property float x
property float y
property float z
end_header
-0.145716 0.145944 0.667691
-0.141224 0.144584 0.661255
-0.137447 0.143911 0.657965
-0.133620 0.143153 0.654287
-0.130620 0.143265 0.654586
-0.128070 0.143890 0.657229
-0.125453 0.144468 0.659654
-0.122816 0.145053 0.662113
-0.120173 0.145661 0.664675
-0.117414 0.146157 0.666725
-0.114472 0.146447 0.667837
-0.111313 0.146469 0.667726
-0.108206 0.146562 0.667942
-0.105320 0.146969 0.669590
-0.102409 0.147366 0.671195
-0.099397 0.147638 0.672233
-0.096472 0.148063 0.673969
-0.093819 0.148948 0.677800
-0.091017 0.149652 0.680807
-0.087918 0.149902 0.681755
-0.084864 0.150251 0.683152
-0.081984 0.150948 0.686137
-0.079023 0.151549 0.688685
-0.075177 0.150430 0.683427
-0.071670 0.149919 0.680937
-0.029804 0.080642 0.365861
-0.018314 0.056146 0.254624
-0.017105 0.056173 0.254702
-0.015586 0.055112 0.249847
-0.014136 0.054140 0.245399
-0.012884 0.053819 0.243906
-0.011701 0.053746 0.243538
-0.010531 0.053730 0.243433
-0.009363 0.053718 0.243347
-0.008177 0.053589 0.242732
-0.006985 0.053370 0.241712
-0.005715 0.052343 0.237039
-0.004558 0.052110 0.235962
-0.003418 0.051972 0.235318
-0.002279 0.051721 0.234167
-0.001152 0.051543 0.233349
-0.000033 0.051410 0.232736
0.001090 0.051724 0.234146
0.002221 0.051918 0.235018
0.003354 0.052003 0.235399
0.004499 0.052192 0.236253
0.005633 0.052194 0.236262
0.006849 0.052828 0.239136
0.008009 0.052916 0.239540
0.009203 0.053177 0.240729
0.010368 0.053224 0.240954
0.011570 0.053439 0.241940
0.012781 0.053651 0.242912
0.014000 0.053855 0.243854
0.015213 0.054007 0.244565
0.016441 0.054188 0.245406
0.017744 0.054577 0.247191
0.019003 0.054789 0.248180
0.020233 0.054896 0.248695
0.021482 0.055040 0.249378
0.022702 0.055098 0.249674
0.023941 0.055193 0.250142
0.025224 0.055378 0.251018
0.026459 0.055443 0.251350
0.027755 0.055626 0.252221
0.029056 0.055803 0.253069
0.030407 0.056058 0.254272
0.031676 0.056148 0.254727
0.033007 0.056337 0.255632
0.034276 0.056410 0.256015
0.035563 0.056505 0.256499
0.036855 0.056604 0.257001
0.038214 0.056794 0.257918
0.039480 0.056839 0.258183
0.040779 0.056927 0.258639
0.042039 0.056957 0.258834
0.043270 0.056947 0.258846
0.044547 0.056997 0.259133
0.045781 0.056990 0.259164
0.046984 0.056945 0.259022
0.048217 0.056939 0.259056
0.050690 0.058361 0.265588
0.053111 0.059654 0.271539
0.054356 0.059597 0.271344
0.055539 0.059475 0.270854
0.056715 0.059351 0.270359
0.057877 0.059219 0.269820
0.059137 0.059191 0.269758
0.060208 0.058978 0.268853
0.060972 0.058480 0.266648
0.061876 0.058134 0.265128
0.062726 0.057752 0.263448
0.063660 0.057461 0.262180
0.064509 0.057104 0.260614
0.065265 0.056682 0.258744
0.066073 0.056319 0.257140
0.067121 0.056170 0.256516
0.067804 0.055727 0.254542
0.068343 0.055182 0.252104
0.069142 0.054863 0.250694
0.070007 0.054606 0.249568
0.070983 0.054443 0.248865
0.071502 0.053939 0.246606
0.072278 0.053644 0.245295
0.073211 0.053472 0.244546
0.074023 0.053219 0.243419
0.074867 0.052996 0.242431
0.075741 0.052800 0.241565
0.076439 0.052490 0.240169
0.077183 0.052220 0.238957
0.078084 0.052062 0.238254
0.078987 0.051910 0.237573
0.079772 0.051685 0.236560
0.080625 0.051511 0.235771
0.081284 0.051219 0.234440
0.081936 0.050931 0.233121
0.082666 0.050698 0.232053
0.083220 0.050364 0.230519
0.084323 0.050367 0.230524
0.084890 0.050054 0.229077
0.085414 0.049724 0.227546
0.086262 0.049588 0.226903
0.087010 0.049399 0.226009
0.087429 0.049030 0.224287
0.087868 0.048681 0.222653
0.088458 0.048423 0.221430
0.088967 0.048127 0.220030
0.089576 0.047891 0.218900
0.089694 0.047401 0.216604
0.090527 0.047296 0.216061
0.091008 0.047012 0.214694
0.091095 0.046532 0.212429
0.091767 0.046359 0.211559
0.092534 0.046237 0.210915
0.093125 0.046030 0.209880
0.093768 0.045853 0.208976
0.094508 0.045727 0.208295
0.095154 0.045559 0.207415
0.095738 0.045364 0.206410
0.096047 0.045044 0.204830
0.096810 0.044942 0.204231
0.097550 0.044831 0.203587
0.097919 0.044553 0.202178
0.098566 0.044406 0.201356
0.099217 0.044264 0.200545
0.099764 0.044078 0.199533
0.100293 0.043888 0.198490
0.101114 0.043829 0.198030
0.102103 0.043842 0.197889
0.102705 0.043690 0.196995
0.103538 0.043639 0.196543
-1.011453 0.425728 1.891393
-1.003209 0.426054 1.894853
-0.994324 0.426110 1.897022
-0.987952 0.427255 1.903946
-0.980464 0.427934 1.908711
-1.037497 0.457050 2.040339
-1.029065 0.457603 2.044481
-1.041659 0.467606 2.090790
-1.025849 0.464927 2.080337
-1.017158 0.465455 2.084138
-0.889540 0.411039 1.841682
-0.874081 0.407887 1.828678
-0.866387 0.408332 1.831724
-0.860836 0.409806 1.839327
-0.849696 0.408623 1.834938
-0.939150 0.497227 2.239790
-0.933958 0.500088 2.253139
-0.921958 0.499327 2.250120
-0.912404 0.499889 2.253007
-0.905953 0.502184 2.263654
-0.895861 0.502492 2.265295
-0.687724 0.415371 1.872975
-0.662895 0.405566 1.828713
-0.667562 0.413787 1.865698
-0.662726 0.416258 1.876724
-0.331944 0.236880 1.066696
-0.317745 0.230230 1.036550
-0.310929 0.228807 1.029927
-0.305754 0.228564 1.028613
-0.300703 0.228409 1.027682
-0.295534 0.228157 1.026306
-0.290148 0.227727 1.024122
-0.284889 0.227384 1.022323
-0.279782 0.227152 1.021014
-0.275239 0.227379 1.021760
-0.269470 0.226582 1.017903
-0.259076 0.221798 0.996132
-0.156993 0.153975 0.690086
-0.151018 0.151261 0.677715
-0.145854 0.149260 0.668539
-0.142350 0.148907 0.666746
-0.138519 0.148188 0.663319
-0.134887 0.147654 0.660720
-0.131666 0.147554 0.660064
-0.129075 0.148174 0.662626
-0.126465 0.148802 0.665223
-0.123608 0.149164 0.666632
-0.120846 0.149664 0.668656
-0.118069 0.150171 0.670713
-0.115080 0.150430 0.671658
-0.112193 0.150839 0.673279
-0.109174 0.151091 0.674198
-0.106170 0.151380 0.675281
-0.103337 0.151938 0.677570
-0.100322 0.152257 0.678792
-0.097274 0.152545 0.679878
-0.094560 0.153393 0.683464
-0.091629 0.153939 0.685704
-0.088490 0.154164 0.686516
-0.085385 0.154467 0.687679
-0.082047 0.154355 0.686998
-0.078979 0.154765 0.688645
-0.075585 0.154543 0.687484
-0.071422 0.152657 0.678931
-0.068228 0.152762 0.679236
-0.035675 0.083863 0.372799
-0.033920 0.083925 0.372993
-0.031136 0.081310 0.361292
-0.029758 0.082274 0.365501
-0.028026 0.082319 0.365627
-0.025719 0.086309 0.383206
-0.014169 0.055454 0.246128
-0.012997 0.055476 0.246188
-0.011735 0.055087 0.244423
-0.010495 0.054721 0.242767
-0.009261 0.054302 0.240876
-0.007977 0.053427 0.236971
-0.006834 0.053365 0.236670
-0.005731 0.053652 0.237918
-0.004579 0.053511 0.237271
-0.003412 0.053047 0.235195
-0.002263 0.052520 0.232844
-0.001140 0.052218 0.231490
-0.000031 0.052296 0.231825
0.001085 0.052521 0.232816
0.002213 0.052793 0.234015
0.003345 0.052949 0.234700
0.004491 0.053200 0.235813
0.005654 0.053506 0.237169
0.006826 0.053778 0.238377
0.008009 0.054046 0.239569
0.009176 0.054153 0.240052
0.010360 0.054327 0.240835
0.011551 0.054498 0.241605
0.012748 0.054663 0.242351
0.013941 0.054785 0.242908
0.015154 0.054958 0.243696
0.016338 0.055011 0.243953
0.017648 0.055453 0.245934
0.018744 0.055207 0.244869
0.020134 0.055807 0.247558
0.021321 0.055807 0.247589
0.022583 0.055994 0.248451
0.023854 0.056181 0.249317
0.025122 0.056345 0.250081
0.026387 0.056489 0.250759
0.027647 0.056607 0.251325
0.028943 0.056788 0.252170
0.030267 0.057007 0.253186
0.031715 0.057433 0.255124
0.032873 0.057320 0.254672
0.034195 0.057493 0.255488
0.035459 0.057560 0.255838
0.036801 0.057744 0.256706
0.038128 0.057893 0.257425
0.039413 0.057971 0.257826
0.040680 0.058018 0.258089
0.041938 0.058050 0.258290
0.043223 0.058117 0.258646
0.044500 0.058170 0.258939
0.045684 0.058101 0.258691
0.046902 0.058077 0.258645
0.048183 0.058131 0.258944
0.049670 0.058425 0.260317
0.052945 0.060756 0.270765
0.054330 0.060858 0.271286
0.055426 0.060639 0.270373
0.056548 0.060458 0.269629
0.057801 0.060423 0.269535
0.058841 0.060171 0.268472
0.059997 0.060044 0.267971
0.061027 0.059801 0.266948
0.061987 0.059500 0.265663
0.062370 0.058668 0.262008
0.063478 0.058538 0.261482
0.064366 0.058213 0.260090
0.065230 0.057880 0.258654
0.065604 0.057131 0.255362
0.066564 0.056911 0.254432
0.067606 0.056768 0.253842
0.068145 0.056214 0.251413
0.069003 0.055940 0.250229
0.069910 0.055712 0.249256
0.070787 0.055469 0.248208
0.071681 0.055247 0.247253
0.072571 0.055029 0.246316
0.073442 0.054804 0.245343
0.074338 0.054604 0.244478
0.075370 0.054509 0.244081
0.076166 0.054248 0.242940
0.076786 0.053871 0.241276
0.077505 0.053574 0.239967
0.078392 0.053400 0.239204
0.078941 0.053004 0.237445
0.079745 0.052788 0.236487
0.080650 0.052644 0.235847
0.081328 0.052358 0.234567
0.082008 0.052081 0.233325
0.082480 0.051680 0.231526
0.083126 0.051398 0.230254
0.083926 0.051217 0.229430
0.084736 0.051047 0.228650
0.085488 0.050846 0.227731
0.086182 0.050617 0.226678
0.087008 0.050469 0.225985
0.087648 0.050219 0.224828
0.087968 0.049793 0.222883
0.088636 0.049572 0.221849
0.088891 0.049129 0.219815
0.089325 0.048793 0.218257
0.089689 0.048427 0.216561
0.090264 0.048182 0.215398
0.090857 0.047952 0.214299
0.091322 0.047660 0.212919
0.091975 0.047472 0.211994
0.092596 0.047271 0.211011
0.093193 0.047063 0.209985
0.093901 0.046914 0.209219
0.094577 0.046753 0.208394
0.095227 0.046582 0.207516
0.095898 0.046425 0.206695
0.096225 0.046106 0.205147
0.096702 0.045865 0.203938
0.097401 0.045733 0.203207
0.097913 0.045517 0.202094
0.098417 0.045301 0.200978
0.099218 0.045225 0.200470
0.099762 0.045034 0.199448
0.100352 0.044867 0.198525
0.101238 0.044834 0.198187
0.101980 0.044739 0.197562
0.102719 0.044644 0.196929
0.103616 0.044619 0.196595
-1.011493 0.434803 1.890583
-1.005947 0.436306 1.899170
-0.998060 0.436812 1.903330
-0.987976 0.436356 1.903207
-0.981947 0.437700 1.910843
-0.980226 0.441008 1.926982
-1.051337 0.477454 2.087976
-1.042705 0.478034 2.092168
-1.032577 0.477933 2.093292
-1.021228 0.477260 2.091821
-0.887492 0.418818 1.836893
-0.873420 0.416250 1.826777
-0.862165 0.414987 1.822309
-0.857547 0.416926 1.831833
-0.847760 0.416365 1.830317
-0.950648 0.514023 2.266937
-0.933969 0.510733 2.252922
-0.920583 0.509190 2.246549
-0.916379 0.512748 2.262631
-0.905459 0.512589 2.262257
-0.892465 0.511238 2.256570
-0.705653 0.429767 1.897529
-0.687106 0.423827 1.871307
-0.672170 0.419991 1.854336
-0.666507 0.421923 1.862805
-0.664245 0.426089 1.881103
-0.331599 0.241668 1.065729
-0.321130 0.237634 1.047742
-0.311609 0.234187 1.032339
-0.306048 0.233652 1.029770
-0.300849 0.233383 1.028357
-0.295145 0.232706 1.025144
-0.290069 0.232510 1.024041
-0.284844 0.232186 1.022366
-0.279663 0.231888 1.020798
-0.275252 0.232229 1.022035
-0.269508 0.231437 1.018282
-0.265058 0.231749 1.019378
-0.228014 0.206873 0.909449
-0.221660 0.204970 0.900826
-0.156798 0.157057 0.689435
-0.150367 0.153816 0.675005
-0.146098 0.152693 0.669873
-0.143468 0.153272 0.672207
-0.139778 0.152719 0.669576
-0.135735 0.151746 0.665102
-0.132788 0.151981 0.665926
-0.130110 0.152544 0.668184
-0.127330 0.153011 0.670026
-0.124607 0.153573 0.672276
-0.121667 0.153889 0.673456
-0.119002 0.154582 0.676279
-0.116007 0.154871 0.677338
-0.113116 0.155321 0.679101
-0.110213 0.155779 0.680903
-0.107302 0.156254 0.682776
-0.104232 0.156520 0.683738
-0.101351 0.157097 0.686060
-0.098441 0.157664 0.688340
-0.095595 0.158378 0.691265
-0.092620 0.158922 0.693445
-0.089554 0.159345 0.695103
-0.086286 0.159426 0.695274
-0.082818 0.159129 0.693798
-0.079676 0.159461 0.695072
-0.076163 0.159047 0.693093
-0.072908 0.159159 0.693417
-0.035618 0.085517 0.372405
-0.033232 0.083981 0.365633
-0.031385 0.083710 0.364377
-0.029969 0.084629 0.368302
-0.027925 0.083775 0.364516
-0.027791 0.088919 0.386825
-0.025678 0.088014 0.382820
-0.023858 0.088054 0.382929
-0.020346 0.088708 0.385651
-0.011745 0.056315 0.244790
-0.010577 0.056334 0.244839
-0.009158 0.054854 0.238376
-0.007997 0.054718 0.237756
-0.006868 0.054785 0.238025
-0.005695 0.054468 0.236621
-0.004529 0.054073 0.234887
-0.003374 0.053601 0.232820
-0.002259 0.053599 0.232796
-0.001143 0.053584 0.232716
-0.000028 0.053502 0.232350
0.001088 0.053639 0.232934
0.002202 0.053599 0.232754
0.003330 0.053798 0.233613
0.004497 0.054373 0.236108
0.005679 0.054860 0.238226
0.006819 0.054847 0.238172
0.007995 0.055085 0.239211
0.009181 0.055323 0.240248
0.010361 0.055475 0.240921
0.011539 0.055587 0.241419
0.012724 0.055708 0.241958
0.013914 0.055832 0.242511
0.015095 0.055899 0.242822
0.016302 0.056049 0.243496
0.017514 0.056191 0.244136
0.018871 0.056754 0.246605
0.020074 0.056814 0.246896
0.021275 0.056862 0.247132
0.022540 0.057066 0.248054
0.023782 0.057196 0.248650
0.025055 0.057384 0.249502
0.026305 0.057503 0.250057
0.027570 0.057644 0.250709
0.028879 0.057861 0.251698
0.030224 0.058130 0.252907
0.031572 0.058384 0.254057
0.032836 0.058468 0.254472
0.034100 0.058548 0.254865
0.035420 0.058713 0.255634
0.036708 0.058818 0.256141
0.038032 0.058970 0.256857
0.039456 0.059264 0.258189
0.040744 0.059341 0.258579
0.041993 0.059358 0.258709
0.043172 0.059279 0.258420
0.044449 0.059333 0.258715
0.045714 0.059371 0.258934
0.046890 0.059292 0.258652
0.048167 0.059343 0.258931
0.049492 0.059450 0.259455
0.052826 0.061904 0.270228
0.054002 0.061773 0.269719
0.055072 0.061529 0.268716
0.056444 0.061627 0.269202
0.057543 0.061428 0.268395
0.058601 0.061196 0.267440
0.059746 0.061062 0.266914
0.060798 0.060840 0.266004
0.061715 0.060495 0.264552
0.062368 0.059910 0.262052
0.063350 0.059658 0.261006
0.064483 0.059555 0.260611
0.065263 0.059136 0.258829
0.065867 0.058577 0.256433
0.066542 0.058099 0.254390
0.067206 0.057630 0.252380
0.067975 0.057264 0.250825
0.068916 0.057054 0.249947
0.069901 0.056887 0.249256
0.070687 0.056566 0.247890
0.071595 0.056351 0.246987
0.072522 0.056158 0.246175
0.073310 0.055866 0.244925
0.074340 0.055764 0.244506
0.075212 0.055548 0.243588
0.075982 0.055265 0.242368
0.076816 0.055036 0.241385
0.077422 0.054652 0.239720
0.078172 0.054380 0.238542
0.078778 0.054017 0.236960
0.079581 0.053797 0.236004
0.080448 0.053627 0.235259
0.081192 0.053380 0.234176
0.081757 0.053023 0.232607
0.082452 0.052759 0.231444
0.083112 0.052480 0.230207
0.083834 0.052247 0.229168
0.084490 0.051979 0.227973
0.085269 0.051793 0.227133
0.086001 0.051582 0.226182
0.086654 0.051331 0.225046
0.086278 0.050483 0.221293
0.086389 0.049937 0.218858
0.087625 0.050047 0.219291
0.088385 0.049886 0.218533
0.088644 0.049449 0.216560
0.089303 0.049242 0.215592
0.090083 0.049106 0.214929
0.090630 0.048847 0.213723
0.091199 0.048606 0.212589
0.091958 0.048471 0.211911
0.092779 0.048370 0.211378
0.093305 0.048120 0.210185
0.093914 0.047917 0.209196
0.094710 0.047813 0.208629
0.095380 0.047648 0.207791
0.095892 0.047408 0.206619
0.096426 0.047184 0.205511
0.096823 0.046898 0.204126
0.097460 0.046733 0.203260
0.097921 0.046487 0.202037
0.098388 0.046249 0.200841
0.099172 0.046163 0.200298
0.099856 0.046033 0.199553
0.100438 0.045859 0.198609
0.101191 0.045765 0.198005
0.102085 0.045736 0.197672
0.102935 0.045688 0.197246
0.103767 0.045633 0.196781
-1.010972 0.443634 1.888692
-1.003889 0.444485 1.894402
-0.997088 0.445478 1.900624
-0.987836 0.445384 1.902119
-0.980422 0.446126 1.907092
-0.974940 0.447768 1.915833
-1.052027 0.487721 2.088558
-1.043375 0.488307 2.092757
-1.032303 0.487761 2.092016
-1.017278 0.485319 2.083048
-1.008684 0.485927 2.087081
-0.875948 0.426152 1.831522
-0.865857 0.425447 1.829598
-0.857849 0.425761 1.831990
-0.850394 0.426360 1.835542
-0.842848 0.426925 1.838889
-0.945580 0.521935 2.254560
-0.935698 0.522339 2.256830
-0.924742 0.522147 2.256461
-0.913685 0.521892 2.255772
-0.905969 0.523563 2.263350
-0.894965 0.523351 2.262739
-0.705019 0.438327 1.895805
-0.690597 0.434856 1.880816
-0.680616 0.434128 1.877659
-0.672364 0.434499 1.879219
-0.662638 0.433915 1.876616
-0.331249 0.246444 1.064744
-0.318759 0.240795 1.040154
-0.311404 0.238909 1.031814
-0.306296 0.238715 1.030770
-0.300199 0.237731 1.026310
-0.295147 0.237557 1.025336
-0.290000 0.237299 1.023991
-0.284988 0.237145 1.023087
-0.280572 0.237490 1.024329
-0.275480 0.237266 1.023106
-0.270193 0.236862 1.021104
-0.227740 0.210931 0.908586
-0.220014 0.207689 0.894374
-0.216067 0.207956 0.895273
-0.156600 0.160129 0.688773
-0.151102 0.157790 0.678514
-0.147544 0.157419 0.676717
-0.145118 0.158267 0.680160
-0.140781 0.157022 0.674606
-0.137037 0.156396 0.671713
-0.134088 0.156670 0.672686
-0.131242 0.157080 0.674242
-0.128366 0.157473 0.675724
-0.125600 0.158025 0.677891
-0.122755 0.158505 0.679747
-0.120118 0.159287 0.682893
-0.117483 0.160114 0.686236
-0.114459 0.160444 0.687448
-0.111497 0.160882 0.689123
-0.108609 0.161457 0.691386
-0.105362 0.161518 0.691450
-0.102563 0.162292 0.694567
-0.099610 0.162868 0.696835
-0.096619 0.163417 0.698992
-0.093695 0.164123 0.701824
-0.090480 0.164354 0.702624
-0.087160 0.164403 0.702653
-0.083614 0.164014 0.700812
-0.080308 0.164085 0.700939
-0.076672 0.163455 0.698080
-0.072516 0.161612 0.690047
-0.069272 0.161721 0.690355
-0.035732 0.087585 0.373798
-0.033912 0.087491 0.373316
-0.032048 0.087268 0.372289
-0.030302 0.087360 0.372605
-0.028575 0.087519 0.373212
-0.027746 0.090635 0.386430
-0.025686 0.089887 0.383171
-0.023565 0.088793 0.378446
-0.022183 0.090537 0.385818
-0.020312 0.090419 0.385256
-0.008100 0.056591 0.240999
-0.006949 0.056605 0.241032
-0.005778 0.056431 0.240268
-0.004604 0.056143 0.239022
-0.003359 0.054503 0.232022
-0.002242 0.054367 0.231429
-0.001137 0.054512 0.232033
-0.000026 0.054569 0.232261
0.001083 0.054405 0.231558
0.002198 0.054549 0.232163
0.003318 0.054680 0.232716
0.004598 0.056726 0.241421
0.005778 0.056952 0.242384
0.006914 0.056745 0.241503
0.008048 0.056587 0.240836
0.009191 0.056517 0.240546
0.010357 0.056593 0.240879
0.011511 0.056592 0.240886
0.012678 0.056653 0.241159
0.013878 0.056835 0.241949
0.015066 0.056945 0.242437
0.016266 0.057079 0.243026
0.017498 0.057300 0.243990
0.018729 0.057491 0.244827
0.019949 0.057629 0.245442
0.021206 0.057852 0.246419
0.022491 0.058122 0.247601
0.023738 0.058273 0.248277
0.025012 0.058470 0.249153
0.026304 0.058693 0.250137
0.027590 0.058882 0.250982
0.028858 0.059016 0.251595
0.030089 0.059069 0.251862
0.031381 0.059233 0.252605
0.032606 0.059262 0.252772
0.033834 0.059295 0.252958
0.035121 0.059425 0.253560
0.036715 0.060048 0.256270
0.038082 0.060272 0.257274
0.039489 0.060543 0.258482
0.041246 0.061318 0.261845
0.042316 0.061056 0.260780
0.043217 0.060571 0.258763
0.044540 0.060689 0.259322
0.045746 0.060644 0.259188
0.046874 0.060502 0.258636
0.048082 0.060468 0.258547
0.050123 0.061457 0.262834
0.052607 0.062927 0.269181
0.054113 0.063185 0.270344
0.055186 0.062937 0.269342
0.056208 0.062643 0.268142
0.057410 0.062558 0.267839
0.058398 0.062250 0.266577
0.059450 0.062021 0.265652
0.060650 0.061952 0.265417
0.061667 0.061703 0.264403
0.062372 0.061159 0.262125
0.063203 0.060756 0.260454
0.064091 0.060423 0.259078
0.065078 0.060194 0.258145
0.065571 0.059525 0.255323
0.066416 0.059193 0.253949
0.067300 0.058909 0.252772
0.068040 0.058509 0.251102
0.068881 0.058210 0.249857
0.069642 0.057853 0.248365
0.070775 0.057812 0.248227
0.071579 0.057509 0.246960
0.072383 0.057215 0.245728
0.073230 0.056964 0.244681
0.074047 0.056697 0.243561
0.075022 0.056559 0.242991
0.075919 0.056366 0.242183
0.076739 0.056123 0.241157
0.077688 0.055979 0.240554
0.078486 0.055733 0.239510
0.078519 0.054958 0.236188
0.079311 0.054729 0.235209
0.080012 0.054444 0.233986
0.080924 0.054309 0.233401
0.081579 0.054007 0.232097
0.082257 0.053728 0.230889
0.082769 0.053350 0.229248
0.083435 0.053078 0.228065
0.084273 0.052923 0.227375
0.085013 0.052710 0.226434
0.085584 0.052399 0.225067
0.086395 0.052241 0.224352
0.086718 0.051795 0.222397
0.087041 0.051360 0.220484
0.087744 0.051157 0.219561
0.088421 0.050944 0.218591
0.088651 0.050481 0.216543
0.089121 0.050163 0.215116
0.089818 0.049979 0.214257
0.090500 0.049791 0.213375
0.091199 0.049617 0.212544
0.091785 0.049385 0.211464
0.092528 0.049242 0.210755
0.093206 0.049068 0.209909
0.093804 0.048855 0.208893
0.094543 0.048720 0.208201
0.095308 0.048602 0.207572
0.095844 0.048369 0.206451
0.096280 0.048092 0.205132
0.096851 0.047886 0.204114
0.097628 0.047786 0.203537
0.098073 0.047527 0.202274
0.098513 0.047270 0.201015
0.099434 0.047247 0.200743
0.099922 0.047021 0.199598
0.100655 0.046913 0.198947
0.101336 0.046783 0.198194
0.102211 0.046744 0.197819
0.103169 0.046744 0.197593
0.103986 0.046679 0.197089
-1.010369 0.452418 1.886611
-1.002615 0.452981 1.891078
-0.994466 0.453375 1.894743
-0.985992 0.453626 1.897720
-0.978178 0.454189 1.901911
-0.971317 0.455209 1.907932
-1.053312 0.498283 2.090288
-1.044635 0.498875 2.094497
-1.033808 0.498442 2.094315
-1.023992 0.498492 2.096077
-1.015327 0.499110 2.100141
-0.874163 0.433963 1.827222
-0.864513 0.433456 1.826219
-0.855836 0.433432 1.827182
-0.849629 0.434670 1.833405
-0.838191 0.433231 1.828273
-0.950742 0.535494 2.266550
-0.935011 0.532608 2.254885
-0.922138 0.531303 2.249851
-0.916368 0.534108 2.262167
-0.905145 0.533763 2.261090
-0.892526 0.532577 2.256398
-0.695096 0.440978 1.869091
-0.694851 0.446465 1.892393
-0.677238 0.440791 1.868352
-0.669447 0.441444 1.871098
-0.662003 0.442347 1.874871
-0.318949 0.245857 1.040913
-0.311171 0.243605 1.031193
-0.306181 0.243497 1.030545
-0.300122 0.242523 1.026219
-0.294837 0.242153 1.024441
-0.289811 0.241987 1.023516
-0.284528 0.241597 1.021636
-0.280087 0.241920 1.022767
-0.275155 0.241824 1.022117
-0.269584 0.241154 1.019033
-0.265128 0.241474 1.020126
-0.223502 0.215290 0.908791
-0.214536 0.210700 0.889172
-0.210600 0.210966 0.890049
-0.152174 0.162155 0.683536
-0.147349 0.160423 0.676038
-0.146437 0.162969 0.686568
-0.142029 0.161651 0.680816
-0.138198 0.160944 0.677638
-0.135146 0.161132 0.678230
-0.132312 0.161596 0.679984
-0.129256 0.161805 0.680663
-0.126295 0.162147 0.681901
-0.123444 0.162652 0.683825
-0.120832 0.163508 0.687223
-0.117978 0.164075 0.689405
-0.115184 0.164760 0.692085
-0.112500 0.165648 0.695615
-0.109600 0.166263 0.697998
-0.106628 0.166802 0.700065
-0.103466 0.167070 0.700998
-0.100562 0.167787 0.703812
-0.097742 0.168698 0.707444
-0.094277 0.168520 0.706512
-0.091004 0.168688 0.707032
-0.087616 0.168644 0.706669
-0.083796 0.167736 0.702688
-0.080334 0.167495 0.701509
-0.076563 0.166564 0.697442
-0.072635 0.165192 0.691537
-0.069384 0.165302 0.691844
-0.035769 0.089471 0.374386
-0.033724 0.088788 0.371446
-0.031755 0.088242 0.369088
-0.030108 0.088580 0.370427
-0.028429 0.088859 0.371526
-0.026743 0.089151 0.372678
-0.025080 0.089570 0.374364
-0.023470 0.090252 0.377154
-0.021753 0.090609 0.378585
-0.020040 0.091045 0.380350
-0.018229 0.091077 0.380433
-0.010442 0.086825 0.362499
-0.008719 0.086928 0.362897
-0.003351 0.055529 0.231779
-0.002212 0.054773 0.228607
-0.001129 0.055356 0.231029
-0.000024 0.055505 0.231639
0.001083 0.055395 0.231171
0.002195 0.055542 0.231776
0.003309 0.055609 0.232054
0.004622 0.058146 0.242637
0.005788 0.058194 0.242837
0.006936 0.058071 0.242328
0.008083 0.057974 0.241925
0.009219 0.057833 0.241346
0.010379 0.057857 0.241455
0.011524 0.057798 0.241218
0.012665 0.057735 0.240970
0.013844 0.057840 0.241421
0.015002 0.057846 0.241465
0.016204 0.058012 0.242178
0.017442 0.058273 0.243289
0.018624 0.058329 0.243544
0.019908 0.058675 0.245015
0.021169 0.058920 0.246065
0.022420 0.059114 0.246906
0.023652 0.059239 0.247458
0.024876 0.059333 0.247888
0.026152 0.059536 0.248768
0.027458 0.059788 0.249861
0.028723 0.059933 0.250502
0.030001 0.060092 0.251209
0.031214 0.060113 0.251338
0.032527 0.060318 0.252240
0.033831 0.060493 0.253016
0.035692 0.061618 0.257767
0.037361 0.062346 0.260862
0.038763 0.062596 0.261960
0.042012 0.065720 0.275085
0.043776 0.066401 0.277991
0.045143 0.066458 0.278285
0.043292 0.061909 0.259289
0.044799 0.062282 0.260907
0.045688 0.061799 0.258936
0.047049 0.061963 0.259679
0.048516 0.062254 0.260951
0.050969 0.063764 0.267338
0.052874 0.064532 0.270617
0.053943 0.064266 0.269560
0.054962 0.063956 0.268314
0.056302 0.064024 0.268656
0.057338 0.063751 0.267569
0.058364 0.063478 0.266479
0.059365 0.063191 0.265330
0.060349 0.062898 0.264153
0.061461 0.062747 0.263574
0.062180 0.062211 0.261371
0.062955 0.061748 0.259479
0.064085 0.061646 0.259097
0.064940 0.061287 0.257640
0.065736 0.060888 0.256007
0.066367 0.060353 0.253800
0.067354 0.060155 0.253011
0.068195 0.059836 0.251710
0.068943 0.059447 0.250113
0.069738 0.059111 0.248737
0.070643 0.058879 0.247795
0.071516 0.058627 0.246766
0.072279 0.058296 0.245401
0.073208 0.058106 0.244627
0.074353 0.058090 0.244587
0.075127 0.057791 0.243347
0.075925 0.057518 0.242217
0.076687 0.057226 0.241004
0.077416 0.056919 0.239722
0.078197 0.056658 0.238634
0.078815 0.056288 0.237082
0.079522 0.055992 0.235836
0.080322 0.055768 0.234891
0.081001 0.055467 0.233618
0.081795 0.055252 0.232704
0.082374 0.054899 0.231207
0.082735 0.054413 0.229143
0.083240 0.054032 0.227519
0.084151 0.053922 0.227028
0.085062 0.053814 0.226546
0.085881 0.053651 0.225827
0.086567 0.053411 0.224775
0.087122 0.053096 0.223406
0.087127 0.052457 0.220671
0.087840 0.052255 0.219769
0.088630 0.052104 0.219073
0.088771 0.051578 0.216798
0.089249 0.051258 0.215386
0.089985 0.051092 0.214613
0.090702 0.050918 0.213805
0.091041 0.050539 0.212128
0.091929 0.050469 0.211744
0.092745 0.050362 0.211197
0.093430 0.050187 0.210358
0.094239 0.050081 0.209803
0.094892 0.049896 0.208908
0.095522 0.049702 0.207973
0.096213 0.049544 0.207179
0.096806 0.049339 0.206182
0.097451 0.049164 0.205305
0.097972 0.048931 0.204176
0.098374 0.048644 0.202815
0.098873 0.048409 0.201667
0.099562 0.048272 0.200914
0.100375 0.048196 0.200412
0.100861 0.047966 0.199261
0.101497 0.047811 0.198411
0.102241 0.047710 0.197776
0.103132 0.047678 0.197418
0.103821 0.047555 0.196669
-1.008921 0.460807 1.882921
-1.002105 0.461808 1.889165
-0.995712 0.463024 1.896200
-0.984293 0.461903 1.893570
-0.977335 0.462875 1.899424
-0.971271 0.464293 1.907025
-1.055408 0.509262 2.093590
-1.046698 0.509859 2.097813
-1.034750 0.508875 2.095439
-1.022907 0.507925 2.093107
-1.014237 0.508547 2.097171
-0.877522 0.444345 1.833648
-0.863924 0.441825 1.824412
-0.856451 0.442419 1.827959
-0.850307 0.443719 1.834360
-0.836820 0.441175 1.824804
-0.965421 0.554639 2.301199
-0.935907 0.543783 2.256739
-0.920262 0.540829 2.244997
-0.910279 0.541172 2.246885
-0.904159 0.543847 2.258406
-0.890623 0.542072 2.251394
-0.720002 0.460101 1.911747
-0.703736 0.455390 1.892276
-0.695832 0.456040 1.895040
-0.679110 0.450852 1.873514
-0.670019 0.450660 1.872717
-0.663684 0.452343 1.879673
-0.654483 0.452091 1.878562
-0.318600 0.250502 1.039912
-0.311932 0.249086 1.033859
-0.305857 0.248107 1.029609
-0.299579 0.246928 1.024527
-0.294629 0.246825 1.023894
-0.289432 0.246506 1.022362
-0.284461 0.246374 1.021592
-0.279132 0.245921 1.019487
-0.273913 0.245551 1.017720
-0.268298 0.244806 1.014393
-0.258763 0.240394 0.995867
-0.223223 0.219325 0.907894
-0.216190 0.216574 0.896268
-0.207386 0.211904 0.876707
-0.152352 0.165595 0.684546
-0.148190 0.164569 0.680113
-0.146835 0.166683 0.688654
-0.142894 0.165891 0.685187
-0.139076 0.165209 0.682176
-0.136107 0.165527 0.683291
-0.133577 0.166408 0.686730
-0.130444 0.166562 0.687171
-0.127619 0.167128 0.689306
-0.124684 0.167577 0.690959
-0.121986 0.168376 0.694057
-0.119195 0.169088 0.696795
-0.116245 0.169610 0.698747
-0.113415 0.170341 0.701565
-0.110548 0.171060 0.704332
-0.107571 0.171649 0.706562
-0.104408 0.171969 0.707689
-0.101402 0.172580 0.710011
-0.098712 0.173788 0.714795
-0.095202 0.173587 0.713784
-0.091756 0.173491 0.713208
-0.087986 0.172753 0.709996
-0.084120 0.171761 0.705749
-0.080651 0.171532 0.704637
-0.076739 0.170297 0.699401
-0.072925 0.169180 0.694659
-0.069661 0.169293 0.694966
-0.035800 0.091348 0.374914
-0.033778 0.090718 0.372250
-0.031618 0.089627 0.367700
-0.030315 0.090981 0.373185
-0.028498 0.090864 0.372634
-0.026568 0.090351 0.370465
-0.025039 0.091222 0.373973
-0.023166 0.090880 0.372512
-0.021499 0.091356 0.374402
-0.019739 0.091487 0.374886
-0.017797 0.090715 0.371671
-0.015649 0.088610 0.363000
-0.013976 0.089002 0.364561
-0.012229 0.088968 0.364382
-0.010422 0.088423 0.362113
-0.008701 0.088528 0.362511
-0.007014 0.089110 0.364861
-0.003510 0.088766 0.363404
-0.001761 0.088209 0.361101
-0.000021 0.057062 0.233585
0.001090 0.056736 0.232242
0.002206 0.056860 0.232741
0.003298 0.056485 0.231200
0.004644 0.059557 0.243775
0.005798 0.059433 0.243265
0.006907 0.058960 0.241330
0.008046 0.058840 0.240844
0.009199 0.058842 0.240859
0.010347 0.058815 0.240756
0.011505 0.058842 0.240879
0.012635 0.058737 0.240461
0.013801 0.058801 0.240737
0.014969 0.058865 0.241017
0.016126 0.058876 0.241080
0.017323 0.059022 0.241700
0.018528 0.059179 0.242363
0.019779 0.059451 0.243502
0.021537 0.061134 0.250424
0.022763 0.061208 0.250755
0.023993 0.061286 0.251106
0.025162 0.061207 0.250818
0.026389 0.061271 0.251112
0.027570 0.061226 0.250964
0.028754 0.061191 0.250856
0.029952 0.061186 0.250877
0.031129 0.061143 0.250739
0.032405 0.061287 0.251375
0.033798 0.061638 0.252855
0.035515 0.062533 0.256571
0.040439 0.068825 0.282440
0.041743 0.068749 0.282181
0.042967 0.068551 0.281419
0.044181 0.068349 0.280643
0.045350 0.068091 0.279641
0.046499 0.067820 0.278582
0.047681 0.067610 0.277773
0.048547 0.066973 0.275215
0.049458 0.066433 0.273048
0.050680 0.066326 0.272667
0.051707 0.065976 0.271283
0.052795 0.065718 0.270279
0.053940 0.065543 0.269615
0.054935 0.065197 0.268246
0.056119 0.065087 0.267849
0.057252 0.064924 0.267229
0.058220 0.064583 0.265883
0.059219 0.064292 0.264736
0.060384 0.064189 0.264363
0.061451 0.063988 0.263586
0.062210 0.063480 0.261545
0.063063 0.063087 0.259972
0.063745 0.062542 0.257772
0.064918 0.062488 0.257598
0.065800 0.062163 0.256299
0.066419 0.061605 0.254042
0.067440 0.061433 0.253372
0.068248 0.061076 0.251939
0.068999 0.060681 0.250348
0.069758 0.060308 0.248841
0.070803 0.060189 0.248382
0.071819 0.060050 0.247838
0.072703 0.059806 0.246860
0.073540 0.059533 0.245756
0.074330 0.059231 0.244530
0.075231 0.059024 0.243698
0.075822 0.058585 0.241901
0.076696 0.058374 0.241042
0.077577 0.058175 0.240230
0.078330 0.057886 0.239045
0.079067 0.057595 0.237844
0.079601 0.057165 0.236067
0.080470 0.056985 0.235321
0.081181 0.056699 0.234132
0.082018 0.056508 0.233331
0.082467 0.056058 0.231458
0.082712 0.055483 0.229067
0.082648 0.054718 0.225886
0.083826 0.054785 0.226134
0.085080 0.054899 0.226573
0.085689 0.054599 0.225297
0.086408 0.054376 0.224335
0.086536 0.053791 0.221874
0.087326 0.053626 0.221143
0.088185 0.053507 0.220598
0.088673 0.053169 0.219141
0.089324 0.052935 0.218110
0.089974 0.052705 0.217091
0.090883 0.052631 0.216709
0.091490 0.052385 0.215613
0.092137 0.052168 0.214631
0.092908 0.052025 0.213945
0.093747 0.051922 0.213422
0.094326 0.051679 0.212314
0.094752 0.051359 0.210882
0.095172 0.051042 0.209460
0.095910 0.050900 0.208748
0.096442 0.050653 0.207599
0.097144 0.050499 0.206826
0.097721 0.050284 0.205796
0.098356 0.050103 0.204895
0.098950 0.049905 0.203917
0.099448 0.049662 0.202751
0.099921 0.049412 0.201548
0.100726 0.049330 0.201019
0.101346 0.049159 0.200121
0.101866 0.048943 0.199031
0.102717 0.048889 0.198590
0.103435 0.048773 0.197888
0.104168 0.048666 0.197213
-1.007446 0.469158 1.879143
-0.998927 0.469372 1.882188
-0.992192 0.470436 1.888546
-0.982571 0.470138 1.889345
-0.974486 0.470577 1.893009
-0.967553 0.471587 1.898882
-1.055434 0.519262 2.092749
-1.046709 0.519863 2.096978
-1.034874 0.518918 2.094873
-1.024907 0.518899 2.096419
-1.016206 0.519528 2.100495
-0.876179 0.452366 1.830221
-0.865046 0.451075 1.826191
-0.857209 0.451495 1.829013
-0.849609 0.452050 1.832321
-0.836943 0.449893 1.824569
-0.964641 0.565060 2.298971
-0.939154 0.556371 2.264233
-0.918909 0.550625 2.241396
-0.908367 0.550627 2.241895
-0.896191 0.549627 2.238263
-0.889091 0.551753 2.247308
-0.719342 0.468695 1.909907
-0.705953 0.465785 1.898173
-0.698015 0.466443 1.900945
-0.678190 0.459072 1.870957
-0.669536 0.459168 1.871370
-0.663034 0.460763 1.877857
-0.653297 0.460123 1.875205
-0.316552 0.253774 1.033354
-0.309142 0.251701 1.024751
-0.304071 0.251497 1.023747
-0.299522 0.251725 1.024493
-0.294005 0.251134 1.021894
-0.288859 0.250845 1.020517
-0.284025 0.250822 1.020217
-0.278803 0.250450 1.018487
-0.274041 0.250485 1.018405
-0.268491 0.249789 1.015344
-0.259764 0.246059 0.999945
-0.255376 0.246377 1.000996
-0.215915 0.220544 0.895366
-0.207407 0.216085 0.877037
-0.153972 0.170641 0.692034
-0.149523 0.169309 0.686445
-0.148717 0.172133 0.697704
-0.144093 0.170568 0.691167
-0.140487 0.170162 0.689329
-0.137481 0.170481 0.690428
-0.134730 0.171140 0.692907
-0.132351 0.172316 0.697471
-0.129470 0.172882 0.699568
-0.126803 0.173771 0.702970
-0.124380 0.175052 0.707953
-0.121488 0.175727 0.710486
-0.118574 0.176406 0.713037
-0.115389 0.176710 0.714072
-0.112402 0.177346 0.716447
-0.109496 0.178154 0.719518
-0.106193 0.178348 0.720110
-0.102835 0.178459 0.720371
-0.099916 0.179366 0.723845
-0.096351 0.179136 0.722734
-0.092385 0.178116 0.718440
-0.088716 0.177613 0.716239
-0.084697 0.176341 0.710941
-0.080922 0.175493 0.707356
-0.077034 0.174317 0.702455
-0.073067 0.172846 0.696373
-0.069796 0.172960 0.696681
-0.035535 0.092456 0.372335
-0.033642 0.092133 0.370958
-0.031860 0.092092 0.370721
-0.030174 0.092343 0.371658
-0.028385 0.092290 0.371380
-0.026642 0.092390 0.371715
-0.025011 0.092919 0.373782
-0.023175 0.092709 0.372878
-0.021386 0.092670 0.372663
-0.019720 0.093205 0.374763
-0.017880 0.092944 0.373663
-0.015952 0.092118 0.370294
-0.014071 0.091389 0.367321
-0.012343 0.091586 0.368074
-0.010549 0.091279 0.366803
-0.008762 0.090928 0.365359
-0.006999 0.090714 0.364466
-0.005247 0.090540 0.363743
-0.003501 0.090364 0.363010
-0.001754 0.089796 0.360709
-0.000030 0.090545 0.363701
0.001704 0.090248 0.362492
0.003424 0.089894 0.361063
0.005792 0.060502 0.243001
0.006943 0.060406 0.242616
0.008037 0.059909 0.240624
0.009149 0.059655 0.239609
0.010259 0.059446 0.238777
0.011437 0.059627 0.239516
0.012563 0.059534 0.239152
0.013782 0.059860 0.240477
0.014876 0.059633 0.239583
0.016043 0.059711 0.239914
0.017338 0.060223 0.241989
0.018480 0.060172 0.241807
0.020741 0.063557 0.255433
0.021953 0.063527 0.255339
0.023138 0.063427 0.254968
0.024376 0.063476 0.255197
0.025444 0.063099 0.253710
0.026448 0.062603 0.251750
0.027552 0.062378 0.250880
0.028748 0.062371 0.250888
0.029868 0.062204 0.250254
0.031077 0.062229 0.250396
0.032395 0.062463 0.251377
0.033529 0.062339 0.250918
0.035336 0.063431 0.255357
0.040530 0.070326 0.283165
0.041888 0.070334 0.283247
0.043178 0.070232 0.282888
0.044382 0.070000 0.282007
0.045252 0.069270 0.279119
0.046402 0.068998 0.278076
0.047631 0.068857 0.277559
0.048760 0.068581 0.276503
0.050058 0.068551 0.276434
0.050580 0.067488 0.272200
0.051708 0.067265 0.271357
0.052765 0.066965 0.270198
0.053903 0.066777 0.269494
0.054995 0.066543 0.268604
0.056054 0.066282 0.267601
0.057118 0.066036 0.266663
0.058206 0.065829 0.265877
0.059151 0.065472 0.264485
0.060133 0.065171 0.263318
0.061311 0.065090 0.263038
0.062234 0.064746 0.261698
0.062810 0.064062 0.258978
0.063788 0.063806 0.257989
0.064742 0.063537 0.256942
0.065559 0.063146 0.255402
0.066356 0.062749 0.253838
0.067189 0.062400 0.252464
0.068157 0.062187 0.251635
0.069002 0.061871 0.250391
0.069918 0.061627 0.249436
0.070750 0.061320 0.248222
0.071682 0.061107 0.247389
0.072574 0.060868 0.246444
0.073392 0.060575 0.245280
0.074422 0.060463 0.244848
0.075131 0.060099 0.243389
0.075809 0.059720 0.241868
0.076656 0.059484 0.240924
0.077517 0.059266 0.240048
0.078360 0.059041 0.239139
0.079165 0.058793 0.238137
0.079841 0.058459 0.236778
0.080651 0.058230 0.235844
0.081422 0.057979 0.234820
0.082075 0.057653 0.233484
0.082646 0.057278 0.231947
0.083391 0.057033 0.230931
0.084029 0.056721 0.229643
0.084695 0.056435 0.228456
0.085436 0.056207 0.227497
0.086252 0.056033 0.226751
0.086977 0.055805 0.225784
0.087583 0.055506 0.224527
0.088081 0.055147 0.223021
0.088845 0.054962 0.222212
0.089554 0.054747 0.221278
0.090299 0.054559 0.220448
0.091004 0.054351 0.219531
0.091401 0.053966 0.217896
0.091761 0.053569 0.216203
0.092107 0.053171 0.214505
0.092989 0.053089 0.214076
0.093795 0.052965 0.213470
0.094329 0.052692 0.212258
0.094933 0.052464 0.211219
0.095503 0.052221 0.210118
0.096169 0.052036 0.209241
0.096831 0.051852 0.208361
0.097418 0.051633 0.207332
0.098061 0.051446 0.206430
0.098709 0.051267 0.205546
0.099414 0.051120 0.204784
0.099834 0.050830 0.203447
0.100314 0.050577 0.202246
0.100893 0.050378 0.201253
0.101390 0.050142 0.200106
0.101982 0.049957 0.199153
0.102786 0.049879 0.198615
0.103453 0.049736 0.197809
0.104093 0.049582 0.196953
-1.005741 0.477374 1.874903
-0.997500 0.477718 1.878478
-0.989127 0.478004 1.881728
-0.981229 0.478528 1.885817
-0.972795 0.478797 1.888813
-0.965046 0.479413 1.893084
-1.058322 0.530699 2.097545
-1.049558 0.531306 2.101791
-1.035444 0.529191 2.095173
-1.022957 0.527875 2.091616
-1.014258 0.528506 2.095690
-0.878360 0.462215 1.834125
-0.865888 0.460200 1.827350
-0.856613 0.459860 1.827154
-0.849667 0.460777 1.831885
-0.838564 0.459435 1.827572
-0.830999 0.460024 1.830876
-0.962982 0.574939 2.294624
-0.940019 0.567596 2.265961
-0.918366 0.560886 2.239748
-0.909073 0.561655 2.243344
-0.896246 0.560234 2.238136
-0.886849 0.560949 2.241406
-0.877523 0.561727 2.244879
-0.713777 0.474016 1.895030
-0.699436 0.470363 1.880573
-0.692390 0.471585 1.885571
-0.679630 0.468897 1.874897
-0.670604 0.468749 1.874345
-0.662030 0.468917 1.875028
-0.653042 0.468792 1.874507
-0.316198 0.258369 1.032323
-0.309989 0.257248 1.027692
-0.304116 0.256375 1.024042
-0.298544 0.255732 1.021302
-0.293322 0.255372 1.019686
-0.288111 0.255010 1.018050
-0.283059 0.254779 1.016930
-0.278375 0.254878 1.017118
-0.273399 0.254709 1.016227
-0.266550 0.252756 1.008217
-0.258842 0.249904 0.996617
-0.248420 0.244278 0.973955
-0.240999 0.241448 0.962441
-0.210139 0.223147 0.888833
-0.156433 0.176706 0.703305
-0.152133 0.175581 0.698643
-0.149455 0.176319 0.701393
-0.146575 0.176847 0.703304
-0.142704 0.176176 0.700445
-0.139407 0.176199 0.700344
-0.136812 0.177132 0.703861
-0.134186 0.178070 0.707398
-0.131161 0.178514 0.708967
-0.128206 0.179079 0.711018
-0.125785 0.180441 0.716232
-0.122909 0.181207 0.719079
-0.119922 0.181849 0.721434
-0.116958 0.182565 0.724082
-0.113845 0.183085 0.725952
-0.110926 0.183960 0.729230
-0.107699 0.184364 0.730645
-0.104186 0.184289 0.730163
-0.100693 0.184246 0.729805
-0.097001 0.183821 0.727946
-0.093133 0.183021 0.724598
-0.089156 0.181936 0.720134
-0.084984 0.180352 0.713697
-0.080826 0.178668 0.706870
-0.076764 0.177059 0.700346
-0.072956 0.175916 0.695676
-0.069689 0.176031 0.695982
-0.035209 0.093378 0.369118
-0.033425 0.093308 0.368768
-0.031571 0.093021 0.367564
-0.029818 0.093018 0.367481
-0.028136 0.093250 0.368334
-0.026424 0.093405 0.368884
-0.024688 0.093494 0.369174
-0.023020 0.093876 0.370625
-0.021324 0.094194 0.371826
-0.019515 0.094030 0.371124
-0.017805 0.094352 0.372348
-0.016030 0.094370 0.372369
-0.014202 0.094037 0.371014
-0.012398 0.093793 0.370012
-0.010594 0.093465 0.368681
-0.008830 0.093434 0.368525
-0.007016 0.092733 0.365730
-0.005261 0.092598 0.365169
-0.003519 0.092680 0.365469
-0.001762 0.092139 0.363318
-0.000026 0.092139 0.363301
0.001705 0.091836 0.362093
0.003423 0.091477 0.360666
0.005235 0.093037 0.366808
0.010444 0.092579 0.365000
0.010319 0.060922 0.240206
0.011465 0.060907 0.240158
0.012496 0.060342 0.237942
0.013444 0.059502 0.234642
0.014901 0.060869 0.240049
0.016022 0.060769 0.239672
0.017279 0.061161 0.241234
0.018533 0.061496 0.242579
0.024429 0.076284 0.300939
0.025855 0.076248 0.300829
0.027280 0.076210 0.300713
0.028582 0.075851 0.299331
0.029874 0.075499 0.297976
0.030854 0.074427 0.293783
0.027412 0.063245 0.249680
0.028501 0.063017 0.248812
0.029675 0.062984 0.248717
0.030930 0.063120 0.249295
0.032161 0.063198 0.249639
0.033680 0.063817 0.252126
0.035267 0.064518 0.254937
0.040412 0.071463 0.282427
0.041985 0.071846 0.283990
0.043273 0.071734 0.283597
0.044395 0.071360 0.282171
0.045366 0.070775 0.279907
0.046347 0.070237 0.277830
0.047590 0.070114 0.277397
0.048806 0.069959 0.276836
0.049914 0.069663 0.275713
0.050900 0.069216 0.273997
0.051587 0.068393 0.270791
0.052843 0.068347 0.270661
0.053966 0.068136 0.269875
0.054926 0.067733 0.268332
0.056007 0.067495 0.267437
0.057145 0.067333 0.266846
0.058099 0.066967 0.265444
0.059093 0.066661 0.264282
0.060098 0.066381 0.263217
0.061161 0.066174 0.262442
0.062153 0.065901 0.261404
0.062936 0.065420 0.259542
0.063683 0.064922 0.257608
0.064670 0.064682 0.256695
0.065637 0.064432 0.255741
0.066376 0.063971 0.253950
0.067242 0.063646 0.252696
0.068180 0.063400 0.251751
0.069053 0.063103 0.250605
0.069946 0.062833 0.249562
0.070771 0.062514 0.248320
0.071512 0.062131 0.246822
0.072299 0.061799 0.245527
0.073010 0.061415 0.244020
0.074086 0.061344 0.243756
0.075048 0.061183 0.243130
0.075784 0.060845 0.241797
0.076663 0.060631 0.240953
0.077543 0.060423 0.240132
0.078378 0.060186 0.239193
0.079179 0.059931 0.238177
0.080063 0.059746 0.237433
0.080732 0.059406 0.236075
0.081565 0.059195 0.235224
0.082347 0.058953 0.234245
0.082442 0.058233 0.231361
0.083176 0.057976 0.230317
0.083818 0.057664 0.229046
0.084631 0.057474 0.228260
0.085367 0.057238 0.227285
0.086189 0.057066 0.226557
0.086954 0.056860 0.225692
0.087605 0.056585 0.224550
0.088221 0.056295 0.223340
0.088626 0.055878 0.221625
0.089547 0.055793 0.221218
0.090231 0.055564 0.220236
0.090901 0.055331 0.219234
0.091666 0.055161 0.218475
0.092007 0.054742 0.216728
0.092681 0.054529 0.215786
0.093387 0.054338 0.214930
0.094292 0.054267 0.214538
0.094997 0.054083 0.213695
0.095546 0.053815 0.212513
0.096349 0.053694 0.211906
0.096858 0.053414 0.210664
0.097351 0.053131 0.209402
0.097896 0.052881 0.208265
0.098394 0.052611 0.207044
0.098952 0.052379 0.205963
0.099570 0.052182 0.205013
0.100198 0.051995 0.204093
0.100545 0.051666 0.202612
0.101207 0.051505 0.201777
0.101669 0.051245 0.200550
0.102154 0.051002 0.199378
0.102912 0.050898 0.198743
0.103508 0.050717 0.197796
0.104118 0.050545 0.196877
-1.004270 0.485673 1.871063
-0.996351 0.486174 1.875255
-0.987370 0.486161 1.877365
-0.979709 0.486805 1.881913
-0.972395 0.487634 1.887091
-0.963173 0.487514 1.888502
-1.056028 0.539544 2.092032
-1.047266 0.540152 2.096275
-1.034973 0.538934 2.093331
-1.024666 0.538736 2.094260
-1.015937 0.539373 2.098344
-0.880349 0.472006 1.837597
-0.867585 0.469805 1.830285
-0.859265 0.469990 1.832195
-0.844653 0.466704 1.820494
-0.837606 0.467572 1.824930
-0.829540 0.467884 1.827134
-0.957527 0.582473 2.281207
-0.941356 0.579133 2.268801
-0.918037 0.571267 2.238597
-0.908735 0.572044 2.242191
-0.896171 0.570761 2.237662
-0.887144 0.571728 2.241895
-0.875710 0.571148 2.240012
-0.720450 0.487479 1.912625
-0.701679 0.480779 1.886507
-0.690690 0.479307 1.880868
-0.681397 0.478991 1.879724
-0.672901 0.479234 1.880741
-0.664163 0.479308 1.881064
-0.655229 0.479241 1.880803
-0.306821 0.259427 1.017316
-0.300503 0.258112 1.012012
-0.298366 0.260405 1.020841
-0.292586 0.259542 1.017286
-0.287873 0.259611 1.017378
-0.283285 0.259798 1.017923
-0.278532 0.259838 1.017882
-0.273341 0.259464 1.016211
-0.267209 0.258167 1.010921
-0.260409 0.256166 1.002871
-0.251409 0.251887 0.985898
-0.241836 0.246862 0.966011
-0.237574 0.247170 0.966990
-0.213306 0.230788 0.902468
-0.156222 0.179802 0.702567
-0.152677 0.179538 0.701355
-0.151707 0.182357 0.712183
-0.147506 0.181333 0.707996
-0.143443 0.180435 0.704308
-0.140545 0.180994 0.706302
-0.137996 0.182041 0.710202
-0.135580 0.183321 0.715007
-0.133071 0.184537 0.719555
-0.129959 0.184959 0.721013
-0.126307 0.184615 0.719480
-0.123887 0.186103 0.725089
-0.120873 0.186757 0.727448
-0.117561 0.186977 0.728118
-0.114479 0.187586 0.730302
-0.111095 0.187725 0.730653
-0.107880 0.188168 0.732194
-0.104495 0.188332 0.732651
-0.100849 0.188022 0.731266
-0.097010 0.187318 0.728352
-0.093250 0.186719 0.725852
-0.089286 0.185652 0.721534
-0.084915 0.183619 0.713468
-0.081253 0.183015 0.710963
-0.077171 0.181370 0.704420
-0.073025 0.179418 0.696690
-0.069754 0.179534 0.696995
-0.034468 0.093146 0.361545
-0.032971 0.093783 0.363947
-0.031067 0.093273 0.361899
-0.029421 0.093522 0.362799
-0.027864 0.094101 0.364981
-0.026145 0.094177 0.365212
-0.024559 0.094774 0.367471
-0.022927 0.095272 0.369345
-0.021205 0.095452 0.369989
-0.019477 0.095634 0.370642
-0.017799 0.096119 0.372475
-0.016066 0.096385 0.373457
-0.014288 0.096418 0.373543
-0.012505 0.096416 0.373498
-0.010733 0.096512 0.373834
-0.008938 0.096407 0.373393
-0.007119 0.095920 0.371477
-0.005346 0.095943 0.371537
-0.003560 0.095638 0.370335
-0.001786 0.095354 0.369212
-0.000022 0.095333 0.369115
0.001736 0.095019 0.367884
0.003487 0.094851 0.367225
0.005230 0.094640 0.366398
0.006961 0.094365 0.365328
0.008735 0.094669 0.366506
0.010432 0.094174 0.364592
0.012237 0.094656 0.366460
0.014888 0.080567 0.311943
0.012767 0.062798 0.243154
0.013926 0.062785 0.243120
0.015104 0.062852 0.243394
0.016237 0.062734 0.242953
0.017394 0.062717 0.242907
0.018686 0.063163 0.244654
0.024490 0.077905 0.301780
0.025756 0.077376 0.299764
0.027161 0.077298 0.299493
0.028542 0.077162 0.298999
0.029831 0.076804 0.297646
0.030810 0.075714 0.293459
0.032575 0.076567 0.296803
0.033829 0.076199 0.295418
0.029885 0.064619 0.250555
0.031168 0.064798 0.251288
0.032656 0.065376 0.253566
0.034084 0.065794 0.255228
0.035399 0.065975 0.255969
0.040020 0.072097 0.279767
0.041953 0.073139 0.283857
0.043157 0.072884 0.282917
0.044132 0.072270 0.280582
0.045422 0.072193 0.280330
0.046528 0.071835 0.278991
0.047646 0.071515 0.277798
0.048863 0.071357 0.277233
0.049902 0.070955 0.275721
0.050961 0.070600 0.274394
0.051749 0.069897 0.271712
0.052757 0.069518 0.270287
0.053898 0.069329 0.269601
0.055010 0.069112 0.268805
0.055938 0.068678 0.267164
0.056965 0.068383 0.266065
0.058024 0.068138 0.265158
0.058978 0.067783 0.263822
0.060013 0.067533 0.262896
0.061069 0.067317 0.262098
0.061942 0.066912 0.260564
0.062938 0.066652 0.259594
0.063742 0.066204 0.257887
0.064598 0.065826 0.256452
0.065596 0.065603 0.255621
0.066422 0.065219 0.254158
0.067072 0.064679 0.252090
0.068060 0.064479 0.251339
0.069050 0.064287 0.250619
0.069987 0.064053 0.249736
0.070800 0.063715 0.248442
0.071588 0.063366 0.247103
0.072505 0.063141 0.246245
0.073409 0.062912 0.245368
0.074234 0.062623 0.244256
0.074982 0.062280 0.242926
0.075809 0.062010 0.241883
0.076673 0.061779 0.240987
0.077398 0.061445 0.239685
0.078194 0.061175 0.238631
0.079015 0.060933 0.237681
0.079640 0.060548 0.236171
0.080468 0.060326 0.235294
0.081339 0.060142 0.234559
0.082094 0.059878 0.233512
0.082917 0.059670 0.232675
0.083828 0.059530 0.232102
0.084211 0.059024 0.230095
0.084774 0.058655 0.228621
0.085663 0.058518 0.228045
0.086451 0.058316 0.227214
0.087164 0.058070 0.226203
0.087920 0.057857 0.225318
0.088596 0.057598 0.224247
0.089355 0.057398 0.223405
0.090010 0.057137 0.222316
0.090672 0.056886 0.221264
0.091282 0.056609 0.220103
0.091843 0.056307 0.218843
0.092631 0.056151 0.218139
0.093180 0.055854 0.216888
0.093792 0.055602 0.215800
0.094593 0.055465 0.215157
0.095299 0.055276 0.214303
0.095943 0.055056 0.213324
0.096486 0.054783 0.212132
0.096892 0.054439 0.210658
0.097426 0.054173 0.209481
0.098021 0.053945 0.208446
0.098650 0.053741 0.207494
0.099200 0.053498 0.206385
0.099878 0.053329 0.205551
0.100320 0.053038 0.204242
0.100789 0.052766 0.203000
0.101269 0.052506 0.201793
0.101957 0.052358 0.201007
0.102517 0.052146 0.199972
0.103097 0.051949 0.198981
0.103786 0.051810 0.198205
0.104405 0.051639 0.197294
-1.004302 0.494687 1.869983
-0.995589 0.494803 1.872723
-0.987318 0.495142 1.876208
-0.979259 0.495596 1.880028
-0.971334 0.496126 1.884049
-0.963113 0.496514 1.887438
-1.057635 0.550376 2.094208
-1.048844 0.550988 2.098464
-1.034557 0.548698 2.091566
-1.024592 0.548677 2.093221
-1.015848 0.549317 2.097311
-0.892464 0.487366 1.862166
-0.863028 0.475995 1.820000
-0.852745 0.475065 1.817653
-0.843271 0.474572 1.816905
-0.837783 0.476335 1.824735
-0.830202 0.476932 1.828040
-0.971971 0.602214 2.315167
-0.943522 0.591219 2.273609
-0.917734 0.581659 2.237484
