ply
format ascii 1.0
element vertex 1687
property float x
property float y
property float z
end_header
-0.027429 -0.053673 0.229807
-0.026399 -0.053807 0.230322
-0.025354 -0.053919 0.230749
-0.024331 -0.054092 0.231435
-0.023324 -0.054318 0.232349
-0.022284 -0.054487 0.233019
-0.021282 -0.054772 0.234191
-0.020212 -0.054903 0.234702
-0.019140 -0.055045 0.235259
-0.018121 -0.055365 0.236583
-0.017067 -0.055613 0.237598
-0.015965 -0.055731 0.238063
-0.014895 -0.055986 0.239111
-0.013815 -0.056246 0.240185
-0.012683 -0.056320 0.240465
-0.011573 -0.056518 0.241276
-0.010458 -0.056730 0.242149
-0.009335 -0.056950 0.243056
-0.008205 -0.057180 0.244012
-0.007058 -0.057347 0.244697
-0.005919 -0.057665 0.246034
-0.004746 -0.057728 0.246279
-0.003580 -0.057945 0.247187
-0.002404 -0.058129 0.247953
-0.001218 -0.058237 0.248402
-0.000028 -0.058393 0.249055
0.001168 -0.058558 0.249750
0.002377 -0.058867 0.251061
0.003594 -0.059099 0.252047
0.004809 -0.059177 0.252375
0.006029 -0.059284 0.252831
0.007258 -0.059431 0.253459
0.008519 -0.059755 0.254847
0.009738 -0.059737 0.254776
0.010987 -0.059888 0.255432
0.012261 -0.060136 0.256502
0.013542 -0.060363 0.257482
0.014847 -0.060655 0.258745
0.016122 -0.060787 0.259328
0.017406 -0.060930 0.259958
0.018703 -0.061098 0.260698
0.020008 -0.061270 0.261461
0.021304 -0.061395 0.262019
0.022584 -0.061461 0.262334
0.023856 -0.061501 0.262535
0.025166 -0.061627 0.263107
0.026425 -0.061624 0.263130
0.028080 -0.062504 0.266927
0.029393 -0.062578 0.267280
0.030187 -0.061586 0.263088
0.032046 -0.062761 0.268147
0.033323 -0.062746 0.268132
0.034647 -0.062820 0.268493
0.035962 -0.062873 0.268768
0.037295 -0.062953 0.269159
0.038567 -0.062926 0.269094
0.039818 -0.062869 0.268902
0.041116 -0.062887 0.269033
0.042343 -0.062799 0.268711
0.043311 -0.062343 0.266812
0.044149 -0.061731 0.264250
0.044949 -0.061101 0.261607
0.045842 -0.060629 0.259642
0.047040 -0.060574 0.259459
0.048272 -0.060565 0.259477
0.049296 -0.060300 0.258399
0.050409 -0.060156 0.257837
0.051585 -0.060092 0.257619
0.052680 -0.059939 0.257019
0.053679 -0.059685 0.255984
0.054828 -0.059606 0.255701
0.055934 -0.059485 0.255234
0.056938 -0.059263 0.254334
0.057756 -0.058860 0.252659
0.058708 -0.058608 0.251627
0.059851 -0.058552 0.251439
0.060850 -0.058360 0.250666
0.061834 -0.058163 0.249866
0.062874 -0.058023 0.249311
0.063825 -0.057809 0.248438
0.064601 -0.057446 0.246923
0.065570 -0.057266 0.246188
0.066507 -0.057063 0.245359
0.067284 -0.056733 0.243977
0.067892 -0.056274 0.242040
0.068092 -0.055498 0.238734
0.068522 -0.054932 0.236331
0.069265 -0.054631 0.235064
0.070151 -0.054450 0.234311
0.070247 -0.053671 0.230984
0.069745 -0.052467 0.225821
0.070674 -0.052358 0.225373
0.071071 -0.051866 0.223268
0.071162 -0.051168 0.220275
0.071279 -0.050508 0.217441
0.071733 -0.050102 0.215702
0.071884 -0.049499 0.213110
0.072317 -0.049105 0.211411
0.072907 -0.048826 0.210207
0.073792 -0.048750 0.209870
0.074372 -0.048477 0.208685
0.074826 -0.048131 0.207179
0.075453 -0.047902 0.206178
0.076061 -0.047669 0.205150
0.076764 -0.047499 0.204394
0.077497 -0.047352 0.203730
0.078217 -0.047201 0.203045
0.078899 -0.047031 0.202276
0.079570 -0.046859 0.201492
0.080284 -0.046715 0.200826
0.081033 -0.046596 0.200259
0.081823 -0.046502 0.199798
0.082610 -0.046408 0.199332
0.083351 -0.046292 0.198763
0.084182 -0.046227 0.198412
0.084881 -0.046092 0.197752
0.085649 -0.045997 0.197260
0.086367 -0.045877 0.196656
0.087072 -0.045754 0.196028
0.087767 -0.045627 0.195384
0.088054 -0.045294 0.193846
0.088932 -0.045268 0.193618
0.089531 -0.045102 0.192786
0.089989 -0.044870 0.191663
0.090776 -0.044804 0.191244
0.091371 -0.044645 0.190425
0.091666 -0.044345 0.188994
0.092018 -0.044078 0.187697
0.092335 -0.043800 0.186347
0.092687 -0.043543 0.185080
0.093379 -0.043450 0.184501
0.093954 -0.043304 0.183691
0.094623 -0.043203 0.183067
0.095281 -0.043100 0.182420
0.095931 -0.042995 0.181756
-1.673618 -0.718268 3.127074
-1.664583 -0.720797 3.141552
-1.651455 -0.721586 3.148293
-1.636630 -0.721642 3.151680
-1.625288 -0.723249 3.161698
-1.620165 -0.727680 3.183935
-1.615328 -0.732325 3.206997
-1.607208 -0.735556 3.223756
-1.607495 -0.742735 3.257712
-1.602194 -0.747446 3.280748
-1.601408 -0.754377 3.313435
-1.580346 -0.774734 3.410861
-0.048736 -0.058424 0.256361
-0.047572 -0.058488 0.256565
-0.041612 -0.052505 0.230250
-0.040368 -0.052311 0.229326
-0.039425 -0.052504 0.230107
-0.038421 -0.052628 0.230578
-0.037368 -0.052688 0.230774
-0.035990 -0.052280 0.228923
-0.034620 -0.051860 0.227017
-0.033074 -0.051140 0.223801
-0.031825 -0.050845 0.222448
-0.031155 -0.051489 0.225203
-0.030194 -0.051681 0.225979
-0.029228 -0.051876 0.226772
-0.028398 -0.052339 0.228736
-0.027431 -0.052577 0.229716
-0.026404 -0.052712 0.230249
-0.025362 -0.052830 0.230707
-0.024342 -0.053007 0.231428
-0.023335 -0.053230 0.232347
-0.022350 -0.053527 0.233588
-0.021294 -0.053678 0.234198
-0.020218 -0.053790 0.234636
-0.019157 -0.053961 0.235336
-0.018097 -0.054153 0.236128
-0.017076 -0.054499 0.237590
-0.015994 -0.054685 0.238360
-0.014924 -0.054940 0.239433
-0.013832 -0.055152 0.240318
-0.012692 -0.055198 0.240479
-0.011575 -0.055360 0.241154
-0.010487 -0.055709 0.242639
-0.009341 -0.055802 0.243016
-0.008213 -0.056046 0.244047
-0.007068 -0.056236 0.244850
-0.005915 -0.056424 0.245645
-0.004752 -0.056597 0.246378
-0.003580 -0.056719 0.246887
-0.002408 -0.056977 0.247996
-0.001223 -0.057153 0.248746
-0.000031 -0.057381 0.249725
0.001169 -0.057532 0.250376
0.002376 -0.057689 0.251050
0.003582 -0.057736 0.251253
0.004803 -0.057934 0.252112
0.006021 -0.058023 0.252499
0.007304 -0.058600 0.255010
0.008528 -0.058612 0.255069
0.009759 -0.058661 0.255290
0.011010 -0.058803 0.255916
0.012264 -0.058932 0.256493
0.013554 -0.059194 0.257645
0.014828 -0.059349 0.258338
0.016118 -0.059540 0.259188
0.017406 -0.059696 0.259891
0.018706 -0.059866 0.260657
0.020010 -0.060031 0.261400
0.021305 -0.060150 0.261947
0.022608 -0.060276 0.262526
0.023908 -0.060381 0.263015
0.025207 -0.060474 0.263456
0.026516 -0.060579 0.263952
0.028026 -0.061115 0.266325
0.029449 -0.061420 0.267696
0.030758 -0.061474 0.267977
0.032041 -0.061473 0.268017
0.033371 -0.061559 0.268439
0.034709 -0.061651 0.268887
0.036020 -0.061692 0.269114
0.037331 -0.061730 0.269333
0.038605 -0.061705 0.269278
0.039881 -0.061685 0.269243
0.041162 -0.061675 0.269253
0.042341 -0.061516 0.268613
0.043432 -0.061243 0.267477
0.044394 -0.060808 0.265634
0.045062 -0.060006 0.262189
0.045958 -0.059544 0.260225
0.047100 -0.059415 0.259719
0.048275 -0.059333 0.259419
0.049387 -0.059181 0.258811
0.050504 -0.059040 0.258255
0.051565 -0.058844 0.257453
0.052268 -0.058257 0.254942
0.053420 -0.058186 0.254688
0.054732 -0.058289 0.255195
0.055805 -0.058138 0.254589
0.056728 -0.057840 0.253342
0.057965 -0.057868 0.253520
0.058849 -0.057551 0.252182
0.059920 -0.057424 0.251679
0.060963 -0.057277 0.251087
0.061897 -0.057034 0.250071
0.062894 -0.056858 0.249348
0.063843 -0.056645 0.248464
0.064771 -0.056422 0.247532
0.065599 -0.056122 0.246258
0.066432 -0.055837 0.245049
0.067339 -0.055621 0.244145
0.068045 -0.055250 0.242554
0.067873 -0.054191 0.237939
0.068403 -0.053717 0.235894
0.069002 -0.053313 0.234149
0.069895 -0.053144 0.233436
0.070373 -0.052671 0.231382
0.070845 -0.052206 0.229366
0.070648 -0.051272 0.225279
0.071609 -0.051192 0.224947
0.071044 -0.050040 0.219900
0.071428 -0.049581 0.217891
0.072193 -0.049394 0.217081
0.072155 -0.048672 0.213911
0.072351 -0.048125 0.211509
0.072897 -0.047823 0.210180
0.073756 -0.047732 0.209776
0.074492 -0.047565 0.209030
0.074977 -0.047243 0.207606
0.075652 -0.047049 0.206735
0.076308 -0.046847 0.205828
0.076823 -0.046566 0.204568
0.077603 -0.046449 0.204028
0.078320 -0.046299 0.203336
0.079012 -0.046137 0.202588
0.079709 -0.045983 0.201869
0.080331 -0.045789 0.200972
0.081022 -0.045638 0.200262
0.081697 -0.045483 0.199524
0.082428 -0.045361 0.198929
0.083160 -0.045243 0.198346
0.083856 -0.045108 0.197683
0.084629 -0.045017 0.197208
0.085381 -0.044917 0.196688
0.086071 -0.044787 0.196031
0.086841 -0.044701 0.195561
0.087627 -0.044625 0.195125
0.088271 -0.044479 0.194381
0.088976 -0.044366 0.193775
0.089676 -0.044253 0.193161
0.090266 -0.044089 0.192318
0.090844 -0.043922 0.191456
0.091441 -0.043768 0.190642
0.091949 -0.043574 0.189650
0.092264 -0.043294 0.188277
0.092353 -0.042914 0.186461
0.092653 -0.042639 0.185094
0.093236 -0.042498 0.184303
0.093828 -0.042363 0.183533
0.094511 -0.042272 0.182942
0.095146 -0.042161 0.182256
0.095725 -0.042027 0.181464
-1.674385 -0.703596 3.129998
-1.663473 -0.705280 3.140894
-1.641071 -0.702080 3.129871
-1.639413 -0.707778 3.158367
-1.630202 -0.710292 3.172535
-1.612646 -0.709182 3.170381
-1.606949 -0.713317 3.191540
-1.599963 -0.716954 3.210356
-1.593655 -0.720968 3.230752
-1.603127 -0.732268 3.283714
-1.576003 -0.726910 3.261867
-1.562605 -0.727841 3.268099
-1.555129 -0.746455 3.357264
-1.541370 -0.747453 3.363382
-0.045804 -0.052451 0.235056
-0.044195 -0.051873 0.232390
-0.042818 -0.051542 0.230839
-0.041849 -0.051700 0.231474
-0.040746 -0.051695 0.231380
-0.039707 -0.051774 0.231663
-0.038627 -0.051803 0.231722
-0.037556 -0.051845 0.231838
-0.036346 -0.051694 0.231093
-0.034939 -0.051243 0.229010
-0.033559 -0.050804 0.226983
-0.032097 -0.050208 0.224255
-0.031244 -0.050555 0.225742
-0.030282 -0.050745 0.226529
-0.029323 -0.050956 0.227406
-0.028433 -0.051307 0.228910
-0.027426 -0.051466 0.229561
-0.026433 -0.051664 0.230387
-0.025378 -0.051756 0.230738
-0.024382 -0.051980 0.231681
-0.023370 -0.052192 0.232571
-0.022387 -0.052492 0.233853
-0.021317 -0.052609 0.234325
-0.020232 -0.052699 0.234675
-0.019188 -0.052914 0.235584
-0.018164 -0.053214 0.236873
-0.017231 -0.053839 0.239608
-0.016032 -0.053662 0.238780
-0.014934 -0.053823 0.239454
-0.013855 -0.054083 0.240569
-0.012736 -0.054224 0.241162
-0.011627 -0.054438 0.242076
-0.010480 -0.054501 0.242326
-0.009348 -0.054665 0.243024
-0.008206 -0.054820 0.243681
-0.007072 -0.055080 0.244812
-0.005926 -0.055330 0.245898
-0.004757 -0.055445 0.246390
-0.003585 -0.055585 0.246994
-0.002412 -0.055841 0.248112
-0.001225 -0.055967 0.248657
-0.000033 -0.056054 0.249031
0.001163 -0.056154 0.249469
0.002372 -0.056452 0.250784
0.003587 -0.056647 0.251645
0.004803 -0.056745 0.252081
0.006020 -0.056824 0.252429
0.007257 -0.057028 0.253338
0.008493 -0.057170 0.253976
0.009738 -0.057329 0.254689
0.011006 -0.057569 0.255766
0.012271 -0.057746 0.256566
0.013580 -0.058082 0.258074
0.014862 -0.058255 0.258862
0.016156 -0.058443 0.259720
0.017441 -0.058575 0.260325
0.018722 -0.058676 0.260799
0.020023 -0.058824 0.261486
0.021320 -0.058941 0.262038
0.022616 -0.059047 0.262537
0.023922 -0.059162 0.263086
0.025226 -0.059262 0.263567
0.026550 -0.059397 0.264201
0.027956 -0.059694 0.265565
0.029426 -0.060097 0.267401
0.030733 -0.060147 0.267665
0.032050 -0.060212 0.268001
0.033349 -0.060239 0.268169
0.034673 -0.060308 0.268525
0.036023 -0.060415 0.269054
0.037373 -0.060515 0.269551
0.038647 -0.060488 0.269485
0.039923 -0.060467 0.269446
0.041231 -0.060493 0.269620
0.042457 -0.060401 0.269267
0.043651 -0.060271 0.268745
0.044822 -0.060117 0.268119
0.045349 -0.059132 0.263783
0.046128 -0.058520 0.261110
0.047183 -0.058280 0.260101
0.048407 -0.058257 0.260057
0.049542 -0.058130 0.259551
0.050371 -0.057659 0.257507
0.051127 -0.057130 0.255203
0.052291 -0.057070 0.254993
0.053633 -0.057203 0.255644
0.054614 -0.056952 0.254584
0.055764 -0.056885 0.254341
0.056829 -0.056736 0.253734
0.057765 -0.056468 0.252590
0.058847 -0.056351 0.252121
0.059996 -0.056299 0.251947
0.060918 -0.056042 0.250849
0.061975 -0.055917 0.250341
0.063049 -0.055811 0.249920
0.064021 -0.055621 0.249118
0.064706 -0.055192 0.247243
0.065713 -0.055049 0.246650
0.066575 -0.054791 0.245537
0.067555 -0.054637 0.244893
0.068264 -0.054274 0.243307
0.068362 -0.053445 0.239626
0.068224 -0.052461 0.235251
0.068694 -0.051969 0.233078
0.069352 -0.051633 0.231601
0.070055 -0.051340 0.230317
0.070334 -0.050750 0.227695
0.070625 -0.050187 0.225190
0.070769 -0.049538 0.222295
0.071086 -0.049027 0.220019
0.071803 -0.048803 0.219027
0.072503 -0.048574 0.218010
0.072156 -0.047659 0.213912
0.072367 -0.047133 0.211556
0.073063 -0.046934 0.210662
0.073874 -0.046812 0.210114
0.074409 -0.046522 0.208803
0.075092 -0.046330 0.207933
0.075694 -0.046094 0.206859
0.076200 -0.045806 0.205551
0.076885 -0.045632 0.204748
0.077536 -0.045442 0.203869
0.078297 -0.045321 0.203294
0.078941 -0.045135 0.202428
0.079631 -0.044981 0.201696
0.080355 -0.044848 0.201058
0.080975 -0.044662 0.200175
0.081662 -0.044516 0.199468
0.082358 -0.044378 0.198794
0.082934 -0.044180 0.197843
0.083667 -0.044069 0.197276
0.084399 -0.043960 0.196715
0.085059 -0.043815 0.195989
0.085780 -0.043706 0.195414
0.086616 -0.043657 0.195103
0.087365 -0.043565 0.194594
0.087952 -0.043395 0.193732
0.088655 -0.043285 0.193133
0.089476 -0.043235 0.192791
0.090030 -0.043058 0.191878
0.090628 -0.042905 0.191066
0.091186 -0.042736 0.190178
0.091789 -0.042592 0.189391
0.092420 -0.042464 0.188668
0.092652 -0.042156 0.187141
0.092989 -0.041902 0.185845
0.093565 -0.041759 0.185036
0.094150 -0.041623 0.184247
0.094741 -0.041492 0.183475
0.095395 -0.041391 0.182825
0.095984 -0.041263 0.182051
-1.679292 -0.690614 3.140608
-1.665203 -0.690962 3.145544
-1.652675 -0.691971 3.153332
-1.638887 -0.692467 3.158633
-1.625206 -0.693018 3.164038
-1.614440 -0.694835 3.175086
-1.600073 -0.695123 3.179011
-1.587801 -0.696335 3.187031
-1.594553 -0.705994 3.233615
-1.576562 -0.704780 3.230293
-1.563615 -0.705820 3.237174
-1.556760 -0.709658 3.256777
-1.551044 -0.714098 3.279044
-1.541905 -0.717036 3.294316
-1.528422 -0.717994 3.300384
-1.517401 -0.720140 3.311812
-1.503853 -0.721121 3.317773
-1.482989 -0.718577 3.307414
-1.469459 -0.719571 3.313232
-1.456348 -0.720796 3.320014
-1.442758 -0.721807 3.325722
-1.420435 -0.718424 3.311087
-1.403058 -0.717497 3.307672
-1.392083 -0.719859 3.319336
-1.369509 -0.716210 3.303195
-0.049353 -0.052741 0.241580
-0.047623 -0.052102 0.238575
-0.045863 -0.051398 0.235277
-0.044429 -0.051033 0.233533
-0.043300 -0.051010 0.233352
-0.042211 -0.051034 0.233387
-0.041072 -0.050996 0.233141
-0.040020 -0.051069 0.233399
-0.038963 -0.051138 0.233642
-0.037928 -0.051240 0.234039
-0.036683 -0.051058 0.233135
-0.035345 -0.050730 0.231568
-0.033242 -0.049249 0.224741
-0.032188 -0.049274 0.224788
-0.031212 -0.049424 0.225411
-0.030308 -0.049703 0.226618
-0.029278 -0.049790 0.226953
-0.028288 -0.049953 0.227631
-0.027409 -0.050334 0.229309
-0.026429 -0.050553 0.230245
-0.025418 -0.050729 0.230988
-0.024380 -0.050865 0.231549
-0.023443 -0.051234 0.233175
-0.022379 -0.051349 0.233641
-0.021367 -0.051602 0.234741
-0.020267 -0.051660 0.234954
-0.019198 -0.051807 0.235572
-0.018144 -0.052016 0.236476
-0.017289 -0.052861 0.240273
-0.016045 -0.052552 0.238824
-0.014915 -0.052600 0.239000
-0.013864 -0.052956 0.240578
-0.012732 -0.053041 0.240926
-0.011609 -0.053185 0.241542
-0.010487 -0.053362 0.242314
-0.009345 -0.053476 0.242799
-0.008224 -0.053749 0.244009
-0.007073 -0.053891 0.244630
-0.005920 -0.054076 0.245442
-0.004760 -0.054268 0.246293
-0.003593 -0.054476 0.247219
-0.002415 -0.054652 0.248001
-0.001229 -0.054826 0.248776
-0.000036 -0.054930 0.249234
0.001164 -0.055094 0.249971
0.002369 -0.055233 0.250596
0.003583 -0.055416 0.251421
0.004805 -0.055589 0.252200
0.006031 -0.055737 0.252874
0.007254 -0.055812 0.253219
0.008505 -0.056046 0.254287
0.009762 -0.056259 0.255261
0.011010 -0.056374 0.255791
0.012261 -0.056481 0.256292
0.013527 -0.056631 0.256986
0.014823 -0.056874 0.258110
0.016184 -0.057306 0.260090
0.017453 -0.057375 0.260428
0.018735 -0.057474 0.260905
0.020028 -0.057592 0.261465
0.021327 -0.057711 0.262037
0.022635 -0.057841 0.262661
0.023936 -0.057942 0.263153
0.025230 -0.058015 0.263522
0.026590 -0.058225 0.264518
0.028037 -0.058598 0.266251
0.029462 -0.058894 0.267639
0.030768 -0.058938 0.267885
0.032067 -0.058965 0.268058
0.033387 -0.059027 0.268387
0.034720 -0.059107 0.268804
0.036025 -0.059134 0.268976
0.037385 -0.059248 0.269549
0.038686 -0.059263 0.269674
0.039996 -0.059290 0.269852
0.041305 -0.059314 0.270022
0.042573 -0.059280 0.269924
0.043827 -0.059228 0.269748
0.045023 -0.059103 0.269238
0.046072 -0.058798 0.267913
0.046454 -0.057681 0.262883
0.047097 -0.056938 0.259558
0.048307 -0.056902 0.259452
0.049244 -0.056553 0.257924
0.050363 -0.056425 0.257401
0.051513 -0.056337 0.257060
0.052713 -0.056307 0.256986
0.053812 -0.056173 0.256431
0.054864 -0.055997 0.255688
0.055973 -0.055885 0.255237
0.056983 -0.055680 0.254364
0.057877 -0.055374 0.253024
0.058905 -0.055206 0.252314
0.059921 -0.055034 0.251583
0.060983 -0.054909 0.251069
0.061928 -0.054686 0.250104
0.062806 -0.054413 0.248910
0.063699 -0.054164 0.247820
0.064693 -0.054007 0.247154
0.065488 -0.053693 0.245767
0.066176 -0.053304 0.244033
0.067163 -0.053165 0.243440
0.067960 -0.052883 0.242191
0.068562 -0.052461 0.240297
0.068866 -0.051828 0.237439
0.068928 -0.051037 0.233847
0.069772 -0.050841 0.232983
0.070382 -0.050483 0.231372
0.070060 -0.049478 0.226792
0.070510 -0.049040 0.224809
0.070934 -0.048597 0.222802
0.071305 -0.048132 0.220687
0.071047 -0.047261 0.216713
0.071842 -0.047107 0.216015
0.071983 -0.046533 0.213394
0.072413 -0.046160 0.211690
0.072924 -0.045848 0.210262
0.073512 -0.045592 0.209086
0.074671 -0.045692 0.209542
0.075029 -0.045306 0.207763
0.075602 -0.045059 0.206617
0.076432 -0.044968 0.206186
0.077003 -0.044730 0.205075
0.077676 -0.044556 0.204254
0.078422 -0.044427 0.203637
0.079115 -0.044272 0.202894
0.079723 -0.044075 0.201952
0.080345 -0.043889 0.201059
0.080953 -0.043699 0.200147
0.081612 -0.043542 0.199376
0.082295 -0.043401 0.198673
0.083013 -0.043281 0.198067
0.083670 -0.043133 0.197320
0.084341 -0.042994 0.196617
0.085167 -0.042938 0.196280
0.085911 -0.042841 0.195756
0.086688 -0.042763 0.195310
0.087490 -0.042699 0.194922
0.088116 -0.042551 0.194145
0.088733 -0.042401 0.193356
0.089494 -0.042323 0.192886
0.090016 -0.042135 0.191907
0.090459 -0.041914 0.190771
0.091301 -0.041880 0.190483
0.091743 -0.041665 0.189364
0.092248 -0.041483 0.188386
0.092679 -0.041271 0.187269
0.093171 -0.041090 0.186283
0.093618 -0.040894 0.185219
0.094160 -0.040742 0.184349
0.094957 -0.040702 0.183979
0.095491 -0.040551 0.183097
0.096172 -0.040464 0.182499
-1.693002 -0.681087 3.167646
-1.679818 -0.681845 3.174495
-1.653465 -0.677222 3.156119
-1.646114 -0.680371 3.173793
-1.630894 -0.680296 3.176294
-1.612685 -0.678961 3.172763
-1.598938 -0.679499 3.177836
-1.589589 -0.681934 3.191655
-1.581772 -0.685080 3.208691
-1.577459 -0.689820 3.233083
-1.558516 -0.688193 3.227520
-1.552222 -0.692176 3.248147
-1.544554 -0.695619 3.266145
-1.529278 -0.695672 3.268113
-1.519170 -0.698101 3.281139
-1.510930 -0.701448 3.298381
-1.498061 -0.702694 3.305645
-1.480611 -0.701796 3.302718
-1.467560 -0.702986 3.309518
-1.459389 -0.706565 3.327473
-1.440828 -0.705137 3.321759
-1.423463 -0.704270 3.318588
-1.412691 -0.706683 3.330785
-1.395247 -0.705776 3.327248
-1.381613 -0.706798 3.332716
-0.050836 -0.051935 0.243188
-0.049416 -0.051656 0.241802
-0.048107 -0.051484 0.240917
-0.046128 -0.050568 0.236554
-0.045003 -0.050566 0.236467
-0.043852 -0.050533 0.236236
-0.042612 -0.050394 0.235512
-0.041380 -0.050258 0.234799
-0.040368 -0.050387 0.235330
-0.039384 -0.050562 0.236070
-0.038052 -0.050286 0.234708
-0.036609 -0.049842 0.232565
-0.034700 -0.048717 0.227245
-0.033210 -0.048127 0.224426
-0.032228 -0.048257 0.224965
-0.031310 -0.048497 0.226018
-0.030385 -0.048742 0.227092
-0.029349 -0.048820 0.227393
-0.028378 -0.049018 0.228249
-0.027423 -0.049259 0.229311
-0.026424 -0.049438 0.230085
-0.025422 -0.049628 0.230908
-0.024438 -0.049871 0.231980
-0.023429 -0.050085 0.232920
-0.022480 -0.050453 0.234576
-0.021423 -0.050607 0.235238
-0.020343 -0.050720 0.235709
-0.019254 -0.050822 0.236135
-0.018166 -0.050940 0.236636
-0.017075 -0.051065 0.237168
-0.015990 -0.051225 0.237866
-0.014889 -0.051360 0.238450
-0.013845 -0.051726 0.240108
-0.012718 -0.051819 0.240501
-0.011611 -0.052026 0.241428
-0.010491 -0.052210 0.242249
-0.009361 -0.052388 0.243042
-0.008219 -0.052535 0.243694
-0.007066 -0.052654 0.244220
-0.005908 -0.052772 0.244742
-0.004754 -0.052989 0.245728
-0.003573 -0.052960 0.245571
-0.002417 -0.053454 0.247847
-0.001230 -0.053580 0.248417
-0.000038 -0.053761 0.249241
0.001160 -0.053822 0.249519
0.002370 -0.054106 0.250824
0.003578 -0.054160 0.251073
0.004794 -0.054282 0.251636
0.006010 -0.054356 0.251979
0.007267 -0.054708 0.253615
0.008523 -0.054954 0.254760
0.009801 -0.055265 0.256215
0.011034 -0.055278 0.256282
0.012272 -0.055311 0.256451
0.013553 -0.055516 0.257420
0.014837 -0.055697 0.258274
0.016175 -0.056035 0.259866
0.017470 -0.056187 0.260592
0.018752 -0.056282 0.261061
0.020027 -0.056342 0.261366
0.021350 -0.056524 0.262244
0.022655 -0.056638 0.262806
0.023934 -0.056682 0.263045
0.025220 -0.056735 0.263332
0.026638 -0.057066 0.264908
0.028023 -0.057299 0.266030
0.029465 -0.057624 0.267583
0.030792 -0.057704 0.268003
0.032084 -0.057717 0.268110
0.033427 -0.057816 0.268620
0.034766 -0.057901 0.269071
0.036100 -0.057972 0.269452
0.037430 -0.058032 0.269786
0.038725 -0.058035 0.269860
0.040027 -0.058048 0.269976
0.041349 -0.058087 0.270220
0.042626 -0.058065 0.270175
0.043899 -0.058038 0.270112
0.045156 -0.057990 0.269953
0.045954 -0.057374 0.267147
0.046518 -0.056506 0.263169
0.047363 -0.056016 0.260947
0.048432 -0.055809 0.260048
0.049619 -0.055746 0.259817
0.050723 -0.055594 0.259171
0.051916 -0.055545 0.259007
0.052845 -0.055221 0.257560
0.053796 -0.054936 0.256292
0.054914 -0.054830 0.255859
0.055973 -0.054670 0.255175
0.056922 -0.054413 0.254037
0.057837 -0.054134 0.252793
0.058915 -0.054015 0.252301
0.059907 -0.053825 0.251472
0.060959 -0.053695 0.250920
0.061954 -0.053521 0.250163
0.062940 -0.053344 0.249394
0.063865 -0.053125 0.248423
0.064653 -0.052801 0.246960
0.065462 -0.052505 0.245629
0.066362 -0.052292 0.244680
0.067140 -0.051991 0.243320
0.068031 -0.051788 0.242411
0.068492 -0.051268 0.240020
0.068614 -0.050516 0.236541
0.069074 -0.050033 0.234318
0.069769 -0.049733 0.232948
0.070555 -0.049507 0.231919
0.070399 -0.048636 0.227869
0.071094 -0.048371 0.226655
0.070155 -0.047018 0.220341
0.070592 -0.046615 0.218469
0.070957 -0.046175 0.216427
0.071842 -0.046083 0.216008
0.072468 -0.045828 0.214828
0.072955 -0.045494 0.213270
0.073311 -0.045089 0.211376
0.073745 -0.044742 0.209751
0.074292 -0.044472 0.208483
0.075084 -0.044354 0.207921
0.075915 -0.044261 0.207479
0.076411 -0.043979 0.206141
0.077162 -0.043847 0.205509
0.077760 -0.043634 0.204488
0.078434 -0.043468 0.203684
0.079113 -0.043309 0.202908
0.079712 -0.043110 0.201943
0.080333 -0.042928 0.201052
0.080805 -0.042671 0.199806
0.081461 -0.042517 0.199035
0.082146 -0.042380 0.198344
0.082841 -0.042252 0.197687
0.083472 -0.042095 0.196887
0.084213 -0.041996 0.196355
0.085052 -0.041947 0.196055
0.085742 -0.041827 0.195413
0.086456 -0.041721 0.194832
0.087305 -0.041682 0.194556
0.087925 -0.041535 0.193772
0.088572 -0.041404 0.193057
0.089284 -0.041306 0.192487
0.089921 -0.041175 0.191761
0.090443 -0.040995 0.190798
0.091039 -0.040852 0.190000
0.091734 -0.040755 0.189411
0.092281 -0.040596 0.188523
0.092782 -0.040419 0.187547
0.093271 -0.040240 0.186557
0.093787 -0.040077 0.185628
0.094376 -0.039947 0.184852
0.095088 -0.039872 0.184315
0.095766 -0.039783 0.183710
0.096341 -0.039654 0.182907
-1.688352 -0.664094 3.160286
-1.676009 -0.665152 3.168585
-1.653315 -0.662084 3.157063
-1.642732 -0.663855 3.168457
-1.629573 -0.664610 3.174855
-1.613271 -0.664085 3.175000
-1.599364 -0.664546 3.179719
-1.587953 -0.666064 3.189363
-1.577296 -0.667931 3.200558
-1.567168 -0.670060 3.212897
-1.556807 -0.672132 3.224844
-1.546393 -0.674222 3.236769
-1.535550 -0.676165 3.247882
-1.523660 -0.677682 3.256845
-1.511314 -0.679026 3.264867
-1.503828 -0.682604 3.283533
-1.490844 -0.683736 3.290334
-1.478551 -0.685213 3.298697
-1.463176 -0.685278 3.300166
-1.451669 -0.687176 3.310365
-1.440549 -0.689300 3.321570
-1.422764 -0.688248 3.317374
-1.405324 -0.687342 3.313791
-1.394287 -0.689583 3.325294
-1.380986 -0.690744 3.331505
-1.363583 -0.689855 3.327754
-0.052399 -0.051177 0.245104
-0.050898 -0.050840 0.243406
-0.049775 -0.050872 0.243480
-0.048474 -0.050719 0.242666
-0.047291 -0.050686 0.242427
-0.046169 -0.050718 0.242501
-0.044996 -0.050695 0.242311
-0.043662 -0.050485 0.241226
-0.042966 -0.051020 0.243704
-0.041691 -0.050879 0.242949
-0.039661 -0.049782 0.237636
-0.038625 -0.049905 0.238147
-0.036034 -0.047965 0.228815
-0.034218 -0.046969 0.223996
-0.033297 -0.047176 0.224915
-0.032300 -0.047286 0.225368
-0.031409 -0.047564 0.226627
-0.030462 -0.047774 0.227561
-0.029433 -0.047867 0.227937
-0.028406 -0.047971 0.228370
-0.027426 -0.048165 0.229229
-0.026412 -0.048313 0.229873
-0.025454 -0.048580 0.231081
-0.024423 -0.048727 0.231719
-0.023586 -0.049293 0.234354
-0.022488 -0.049343 0.234538
-0.021432 -0.049496 0.235210
-0.020342 -0.049582 0.235562
-0.019274 -0.049737 0.236248
-0.018213 -0.049928 0.237105
-0.017125 -0.050069 0.237729
-0.016049 -0.050266 0.238618
-0.014970 -0.050479 0.239590
-0.013864 -0.050634 0.240282
-0.012756 -0.050810 0.241080
-0.011626 -0.050921 0.241569
-0.010489 -0.051030 0.242051
-0.009351 -0.051153 0.242603
-0.008217 -0.051336 0.243441
-0.007065 -0.051459 0.243997
-0.005920 -0.051680 0.245022
-0.004749 -0.051733 0.245248
-0.003595 -0.052073 0.246840
-0.002418 -0.052253 0.247675
-0.001235 -0.052486 0.248768
-0.000040 -0.052514 0.248889
0.001161 -0.052795 0.250208
0.002367 -0.052890 0.250651
0.003577 -0.052980 0.251076
0.004791 -0.053069 0.251497
0.006006 -0.053132 0.251796
0.007226 -0.053209 0.252165
0.008467 -0.053393 0.253043
0.009741 -0.053715 0.254577
0.011035 -0.054067 0.256256
0.012298 -0.054205 0.256928
0.013579 -0.054392 0.257828
0.014880 -0.054623 0.258941
0.016188 -0.054842 0.260005
0.017471 -0.054947 0.260525
0.018761 -0.055062 0.261098
0.020053 -0.055167 0.261629
0.021360 -0.055297 0.262278
0.022664 -0.055407 0.262829
0.023973 -0.055515 0.263380
0.025317 -0.055689 0.264246
0.026690 -0.055910 0.265334
0.028037 -0.056056 0.266070
0.029415 -0.056249 0.267034
0.030755 -0.056357 0.267595
0.032103 -0.056469 0.268178
0.033460 -0.056588 0.268795
0.034823 -0.056709 0.269422
0.036126 -0.056727 0.269560
0.037458 -0.056786 0.269899
0.038800 -0.056857 0.270295
0.040125 -0.056898 0.270548
0.041442 -0.056927 0.270749
0.042739 -0.056926 0.270809
0.044017 -0.056901 0.270750
0.045292 -0.056874 0.270688
0.046358 -0.056593 0.269414
0.046719 -0.055490 0.264228
0.047744 -0.055213 0.262972
0.048432 -0.054569 0.259973
0.049748 -0.054649 0.260418
0.050802 -0.054444 0.259506
0.051845 -0.054236 0.258581
0.052868 -0.054018 0.257606
0.053957 -0.053877 0.256996
0.054971 -0.053668 0.256064
0.056009 -0.053491 0.255282
0.056961 -0.053240 0.254149
0.057926 -0.053012 0.253125
0.058862 -0.052768 0.252021
0.059940 -0.052658 0.251555
0.060938 -0.052483 0.250781
0.061841 -0.052236 0.249656
0.062890 -0.052118 0.249152
0.063771 -0.051868 0.248013
0.064584 -0.051573 0.246654
0.065344 -0.051246 0.245144
0.066250 -0.051043 0.244227
0.067228 -0.050903 0.243604
0.068121 -0.050704 0.242697
0.068540 -0.050163 0.240156
0.068859 -0.049570 0.237355
0.068926 -0.048816 0.233788
0.069503 -0.048442 0.232034
0.070130 -0.048115 0.230499
0.070627 -0.047709 0.228586
0.071060 -0.047273 0.226526
0.070997 -0.046525 0.222971
0.070594 -0.045580 0.218460
0.071342 -0.045394 0.217593
0.072238 -0.045307 0.217190
0.072357 -0.044741 0.214490
0.073095 -0.044569 0.213675
0.073402 -0.044142 0.211635
0.074095 -0.043955 0.210746
0.074687 -0.043715 0.209592
0.075424 -0.043565 0.208868
0.075870 -0.043252 0.207362
0.076491 -0.043046 0.206365
0.077126 -0.042853 0.205424
0.077667 -0.042613 0.204257
0.078332 -0.042447 0.203435
0.079017 -0.042295 0.202680
0.079579 -0.042081 0.201624
0.080295 -0.041954 0.200977
0.080982 -0.041814 0.200268
0.081551 -0.041618 0.199280
0.082273 -0.041502 0.198677
0.082949 -0.041367 0.197975
0.083556 -0.041201 0.197117
0.084245 -0.041078 0.196465
0.084940 -0.040961 0.195834
0.085628 -0.040843 0.195193
0.086333 -0.040736 0.194597
0.087119 -0.040669 0.194186
0.087832 -0.040569 0.193614
0.088344 -0.040380 0.192609
0.089118 -0.040312 0.192181
0.089883 -0.040243 0.191735
0.090341 -0.040039 0.190639
0.091136 -0.039986 0.190260
0.091787 -0.039872 0.189582
0.092333 -0.039715 0.188693
0.093120 -0.039664 0.188298
0.093644 -0.039503 0.187374
0.094033 -0.039289 0.186189
0.094714 -0.039199 0.185590
0.095549 -0.039174 0.185286
0.096067 -0.039021 0.184369
0.096675 -0.038907 0.183626
-1.678492 -0.645183 3.143113
-1.676769 -0.650301 3.171264
-1.656191 -0.648133 3.163742
-1.640923 -0.648024 3.166103
-1.627742 -0.648746 3.172377
-1.616603 -0.650303 3.182601
-1.603408 -0.651055 3.188757
-1.585816 -0.650020 3.186021
-1.573253 -0.651047 3.193260
-1.562075 -0.652674 3.203319
-1.550939 -0.654350 3.213510
-1.539071 -0.655748 3.222224
-1.529774 -0.658281 3.236406
-1.518830 -0.660150 3.247218
-1.508241 -0.662213 3.258888
-1.498622 -0.664750 3.272787
-1.487616 -0.666718 3.283793
-1.475691 -0.668312 3.292859
-1.461375 -0.668846 3.296605
-1.448029 -0.669842 3.302529
-1.433841 -0.670465 3.306527
-1.419042 -0.670814 3.309083
-1.403057 -0.670604 3.308794
-1.389101 -0.671371 3.313238
-1.374232 -0.671710 3.315485
-1.357778 -0.671273 3.313824
-0.058483 -0.052335 0.256675
-0.057341 -0.052403 0.256918
-0.055074 -0.051423 0.252032
-0.052462 -0.050071 0.245319
-0.051142 -0.049918 0.244488
-0.050014 -0.049951 0.244565
-0.048833 -0.049930 0.244382
-0.047663 -0.049920 0.244248
-0.046553 -0.049974 0.244430
-0.045460 -0.050050 0.244720
-0.044390 -0.050155 0.245152
-0.043159 -0.050080 0.244704
-0.042055 -0.050152 0.244976
-0.040142 -0.049236 0.240421
-0.038127 -0.048137 0.234979
-0.035247 -0.045847 0.223724
-0.034113 -0.045756 0.223213
-0.033203 -0.045970 0.224183
-0.032415 -0.046371 0.226071
-0.031437 -0.046520 0.226727
-0.030453 -0.046670 0.227391
-0.029471 -0.046835 0.228127
-0.028443 -0.046936 0.228557
-0.027425 -0.047063 0.229109
-0.026420 -0.047223 0.229826
-0.025491 -0.047540 0.231305
-0.024659 -0.048074 0.233844
-0.023648 -0.048294 0.234854
-0.022511 -0.048265 0.234655
-0.021434 -0.048368 0.235103
-0.020365 -0.048504 0.235710
-0.019270 -0.048589 0.236067
-0.018181 -0.048701 0.236563
-0.017096 -0.048838 0.237181
-0.016020 -0.049024 0.238040
-0.014889 -0.049058 0.238160
-0.013871 -0.049500 0.240263
-0.012724 -0.049520 0.240320
-0.011607 -0.049675 0.241036
-0.010492 -0.049872 0.241959
-0.009348 -0.049962 0.242360
-0.008253 -0.050378 0.244350
-0.007080 -0.050378 0.244323
-0.005934 -0.050602 0.245384
-0.004766 -0.050717 0.245919
-0.003597 -0.050888 0.246728
-0.002421 -0.051078 0.247633
-0.001236 -0.051274 0.248565
-0.000043 -0.051474 0.249523
0.001161 -0.051665 0.250443
0.002368 -0.051744 0.250819
0.003579 -0.051840 0.251279
0.004794 -0.051920 0.251666
0.006028 -0.052135 0.252708
0.007285 -0.052438 0.254181
0.008531 -0.052588 0.254917
0.009804 -0.052846 0.256174
0.011075 -0.053039 0.257124
0.012339 -0.053161 0.257730
0.013571 -0.053133 0.257612
0.014847 -0.053269 0.258292
0.016163 -0.053517 0.259514
0.017493 -0.053773 0.260781
0.018753 -0.053793 0.260908
0.020030 -0.053856 0.261242
0.021324 -0.053954 0.261752
0.022620 -0.054046 0.262233
0.023981 -0.054275 0.263384
0.025231 -0.054242 0.263262
0.026623 -0.054503 0.264573
0.028093 -0.054895 0.266517
0.029489 -0.055113 0.267622
0.030809 -0.055175 0.267972
0.032115 -0.055208 0.268186
0.033446 -0.055282 0.268597
0.034804 -0.055392 0.269188
0.036136 -0.055454 0.269544
0.037440 -0.055471 0.269686
0.038796 -0.055560 0.270177
0.040115 -0.055593 0.270400
0.041489 -0.055697 0.270967
0.042806 -0.055721 0.271147
0.044055 -0.055657 0.270902
0.045357 -0.055662 0.270993
0.046519 -0.055499 0.270268
0.047154 -0.054734 0.266609
0.047408 -0.053579 0.261046
0.048539 -0.053448 0.260475
0.049585 -0.053233 0.259495
0.050817 -0.053222 0.259509
0.052034 -0.053198 0.259456
0.052925 -0.052848 0.257820
0.053975 -0.052670 0.257015
0.055037 -0.052511 0.256304
0.056031 -0.052295 0.255319
0.057001 -0.052067 0.254272
0.057957 -0.051836 0.253205
0.058905 -0.051606 0.252148
0.059994 -0.051508 0.251728
0.060949 -0.051300 0.250776
0.061910 -0.051106 0.249887
0.062836 -0.050890 0.248891
0.063631 -0.050578 0.247422
0.064515 -0.050346 0.246346
0.065496 -0.050198 0.245674
0.066402 -0.049998 0.244750
0.066806 -0.049434 0.242037
0.067124 -0.048826 0.239110
0.067645 -0.048383 0.236989
0.068280 -0.048036 0.235329
0.068865 -0.047664 0.233553
0.069254 -0.047172 0.231180
0.070186 -0.047059 0.230661
0.070827 -0.046757 0.229214
0.071323 -0.046369 0.227346
0.070229 -0.044976 0.220541
0.070729 -0.044629 0.218864
0.070835 -0.044047 0.216034
0.071121 -0.043592 0.213820
0.072412 -0.043757 0.214646
0.073040 -0.043523 0.213508
0.073501 -0.043196 0.211917
0.073861 -0.042820 0.210077
0.074843 -0.042810 0.210029
0.075437 -0.042581 0.208906
0.076127 -0.042412 0.208070
0.076563 -0.042107 0.206565
0.077235 -0.041938 0.205723
0.077844 -0.041739 0.204733
0.078311 -0.041470 0.203392
0.078858 -0.041250 0.202286
0.079616 -0.041144 0.201737
0.080334 -0.041020 0.201093
0.080987 -0.040866 0.200300
0.081716 -0.040753 0.199706
0.082440 -0.040641 0.199109
0.083164 -0.040531 0.198515
0.083558 -0.040265 0.197153
0.084285 -0.040163 0.196591
0.084997 -0.040057 0.196000
0.085674 -0.039936 0.195334
0.086380 -0.039831 0.194742
0.086999 -0.039689 0.193960
0.087618 -0.039550 0.193187
0.088206 -0.039400 0.192355
0.088895 -0.039298 0.191751
0.089568 -0.039190 0.191115
0.090134 -0.039039 0.190257
0.090953 -0.038999 0.189935
0.091750 -0.038950 0.189567
0.092361 -0.038825 0.188813
0.093096 -0.038753 0.188315
0.093714 -0.038634 0.187581
0.094130 -0.038435 0.186451
0.094719 -0.038310 0.185671
0.095652 -0.038325 0.185564
0.096216 -0.038193 0.184734
0.096763 -0.038057 0.183877
-1.680643 -0.630958 3.148375
-1.677393 -0.635385 3.173636
-1.657768 -0.633635 3.167895
-1.643137 -0.633779 3.171468
-1.633094 -0.635713 3.183856
-1.617852 -0.635641 3.186062
-1.600821 -0.634860 3.184567
-1.586882 -0.635301 3.189072
-1.572542 -0.635590 3.192683
-1.559076 -0.636241 3.197993
-1.550203 -0.638799 3.212770
-1.537458 -0.639797 3.219590
-1.526898 -0.641733 3.231024
-1.517843 -0.644348 3.245774
-1.506717 -0.646128 3.256221
-1.496253 -0.648233 3.268203
-1.485758 -0.650368 3.280242
-1.472550 -0.651349 3.286361
-1.457946 -0.651727 3.289342
-1.445690 -0.653175 3.297629
-1.432390 -0.654177 3.303580
-1.419304 -0.655301 3.310053
-1.406593 -0.656626 3.317457
-1.392172 -0.657174 3.320850
-1.379738 -0.658683 3.329018
-1.366133 -0.659663 3.334431
-0.058833 -0.050373 0.252963
-0.057711 -0.050439 0.253208
-0.056171 -0.050136 0.251598
-0.054104 -0.049339 0.247513
-0.052904 -0.049314 0.247306
-0.051920 -0.049496 0.248129
-0.050719 -0.049473 0.247928
-0.049469 -0.049400 0.247477
-0.048377 -0.049485 0.247819
-0.047434 -0.049732 0.248969
-0.045992 -0.049453 0.247488
-0.044743 -0.049375 0.247011
-0.043672 -0.049492 0.247515
-0.042261 -0.049221 0.246074
-0.041133 -0.049273 0.246254
-0.036405 -0.044890 0.224271
-0.035118 -0.044613 0.222814
-0.034115 -0.044691 0.223131
-0.033182 -0.044868 0.223947
-0.032323 -0.045160 0.225330
-0.031456 -0.045461 0.226763
-0.030522 -0.045683 0.227802
-0.029564 -0.045886 0.228746
-0.028523 -0.045970 0.229096
-0.027539 -0.046154 0.229950
-0.026534 -0.046319 0.230705
-0.025504 -0.046453 0.231311
-0.024498 -0.046643 0.232198
-0.023555 -0.046980 0.233812
-0.022533 -0.047183 0.234767
-0.021443 -0.047257 0.235080
-0.020361 -0.047360 0.235538
-0.019299 -0.047525 0.236302
-0.018230 -0.047690 0.237072
-0.017115 -0.047750 0.237322
-0.016027 -0.047897 0.238005
-0.014924 -0.048022 0.238582
-0.013861 -0.048304 0.239940
-0.012772 -0.048543 0.241090
-0.011612 -0.048529 0.240982
-0.010495 -0.048714 0.241864
-0.009365 -0.048875 0.242631
-0.008226 -0.049030 0.243372
-0.007084 -0.049216 0.244266
-0.005925 -0.049333 0.244824
-0.004761 -0.049463 0.245447
-0.003590 -0.049579 0.246002
-0.002420 -0.049825 0.247206
-0.001240 -0.050135 0.248727
-0.000045 -0.050326 0.249664
0.001156 -0.050374 0.249892
0.002363 -0.050479 0.250407
0.003575 -0.050605 0.251023
0.004787 -0.050660 0.251299
0.005999 -0.050694 0.251467
0.007219 -0.050769 0.251843
0.008437 -0.050810 0.252055
0.009810 -0.051657 0.256266
0.011107 -0.051962 0.257792
0.012351 -0.051982 0.257905
0.013592 -0.051986 0.257944
0.014851 -0.052052 0.258292
0.016182 -0.052339 0.259737
0.017412 -0.052282 0.259484
0.018753 -0.052545 0.260818
0.020025 -0.052593 0.261088
0.021288 -0.052612 0.261215
0.022623 -0.052799 0.262177
0.023991 -0.053038 0.263404
0.025438 -0.053419 0.265337
0.026880 -0.053752 0.267036
0.028140 -0.053709 0.266866
0.029491 -0.053837 0.267549
0.030882 -0.054021 0.268514
0.032189 -0.054052 0.268720
0.033554 -0.054171 0.269370
0.034887 -0.054235 0.269742
0.036195 -0.054255 0.269899
0.037520 -0.054298 0.270173
0.038861 -0.054360 0.270544
0.040196 -0.054410 0.270857
0.041531 -0.054458 0.271157
0.042851 -0.054483 0.271347
0.044127 -0.054452 0.271262
0.045426 -0.054451 0.271324
0.046633 -0.054343 0.270852
0.046450 -0.052664 0.262552
0.047484 -0.052417 0.261390
0.048594 -0.052265 0.260700
0.049782 -0.052201 0.260450
0.050909 -0.052079 0.259911
0.051939 -0.051866 0.258913
0.052886 -0.051582 0.257562
0.054035 -0.051503 0.257236
0.055090 -0.051340 0.256491
0.056080 -0.051124 0.255482
0.057062 -0.050910 0.254481
0.057998 -0.050666 0.253327
0.058878 -0.050384 0.251980
0.059852 -0.050191 0.251082
0.060907 -0.050073 0.250553
0.061840 -0.049860 0.249552
0.062694 -0.049594 0.248279
0.063642 -0.049410 0.247417
0.064476 -0.049146 0.246156
0.065268 -0.048860 0.244777
0.066190 -0.048679 0.243927
0.066776 -0.048262 0.241891
0.067231 -0.047766 0.239456
0.067526 -0.047175 0.236540
0.068218 -0.046876 0.235088
0.068518 -0.046321 0.232349
0.069182 -0.046027 0.230912
0.069955 -0.045812 0.229876
0.070726 -0.045604 0.228865
0.071173 -0.045195 0.226848
0.071219 -0.044549 0.223633
0.070332 -0.043346 0.217620
0.071357 -0.043339 0.217611
0.071842 -0.043010 0.215978
0.072688 -0.042902 0.215456
0.073439 -0.042742 0.214666
0.073757 -0.042338 0.212649
0.074362 -0.042108 0.211500
0.074743 -0.041758 0.209748
0.075423 -0.041583 0.208868
0.076258 -0.041497 0.208432
0.076670 -0.041185 0.206859
0.077387 -0.041043 0.206136
0.078058 -0.040881 0.205306
0.078573 -0.040641 0.204085
0.079239 -0.040485 0.203277
0.079763 -0.040261 0.202124
0.080477 -0.040137 0.201470
0.081155 -0.039998 0.200736
0.081847 -0.039869 0.200049
0.082465 -0.039708 0.199192
0.083003 -0.039512 0.198158
0.083427 -0.039267 0.196872
0.084167 -0.039174 0.196347
0.084912 -0.039086 0.195837
0.085606 -0.038976 0.195215
0.086244 -0.038844 0.194474
0.086985 -0.038760 0.193969
0.087637 -0.038639 0.193273
0.088275 -0.038514 0.192552
0.088929 -0.038398 0.191871
0.089680 -0.038326 0.191403
0.090329 -0.038213 0.190720
0.091030 -0.038124 0.190150
0.091741 -0.038041 0.189605
0.092492 -0.037975 0.189140
0.093165 -0.037879 0.188516
0.093735 -0.037744 0.187688
0.094252 -0.037590 0.186761
0.094793 -0.037448 0.185888
0.095624 -0.037423 0.185582
0.096285 -0.037331 0.184942
0.096863 -0.037210 0.184145
-1.687105 -0.618275 3.161672
-1.669851 -0.617440 3.160508
-1.660239 -0.619442 3.173714
-1.647687 -0.620374 3.181302
-1.627786 -0.618532 3.174510
-1.615919 -0.619737 3.183215
-1.600071 -0.619424 3.183988
-1.587698 -0.620465 3.191585
-1.573439 -0.620781 3.195334
-1.560945 -0.621808 3.202615
-1.548953 -0.623057 3.210926
-1.538299 -0.624875 3.222059
-1.528229 -0.626969 3.234511
-1.517237 -0.628724 3.245111
-1.507160 -0.630899 3.257773
-1.493910 -0.631777 3.263640
-1.481032 -0.632832 3.270325
-1.468257 -0.633955 3.277260
-1.453604 -0.634283 3.279990
-1.439918 -0.635045 3.284869
-1.428697 -0.636923 3.295432
-1.415787 -0.638082 3.302188
-1.401797 -0.638774 3.306445
-1.388340 -0.639728 3.311972
-1.375491 -0.640988 3.319001
-1.363044 -0.642466 3.327083
-0.058675 -0.049038 0.252207
-0.057340 -0.048919 0.251507
-0.056182 -0.048948 0.251570
-0.054965 -0.048927 0.251374
-0.053975 -0.049111 0.252232
-0.052806 -0.049137 0.252276
-0.051630 -0.049159 0.252296
-0.050785 -0.049503 0.253975
-0.049373 -0.049298 0.252834
-0.048228 -0.049356 0.253043
-0.046048 -0.048331 0.247700
-0.044798 -0.048255 0.247222
-0.043240 -0.047832 0.244973
-0.042076 -0.047835 0.244904
-0.037937 -0.044360 0.227033
-0.036284 -0.043672 0.223438
-0.035116 -0.043544 0.222710
-0.034197 -0.043728 0.223575
-0.033264 -0.043903 0.224400
-0.032308 -0.044060 0.225131
-0.031522 -0.044468 0.227142
-0.030627 -0.044745 0.228487
-0.029589 -0.044827 0.228835
-0.028659 -0.045084 0.230081
-0.027595 -0.045143 0.230315
-0.026616 -0.045351 0.231312
-0.025568 -0.045455 0.231779
-0.024537 -0.045601 0.232459
-0.023535 -0.045816 0.233492
-0.022510 -0.046006 0.234403
-0.021454 -0.046149 0.235077
-0.020346 -0.046192 0.235241
-0.019280 -0.046340 0.235937
-0.018205 -0.046483 0.236615
-0.017195 -0.046823 0.238297
-0.016051 -0.046819 0.238229
-0.014969 -0.047011 0.239162
-0.013882 -0.047217 0.240166
-0.012759 -0.047329 0.240693
-0.011627 -0.047424 0.241142
-0.010492 -0.047528 0.241635
-0.009363 -0.047689 0.242420
-0.008226 -0.047849 0.243203
-0.007085 -0.048038 0.244132
-0.005933 -0.048204 0.244950
-0.004761 -0.048257 0.245200
-0.003593 -0.048403 0.245922
-0.002423 -0.048657 0.247193
-0.001245 -0.049050 0.249175
-0.000047 -0.049134 0.249586
0.001154 -0.049169 0.249754
0.002361 -0.049284 0.250335
0.003569 -0.049342 0.250627
0.004781 -0.049407 0.250956
0.005997 -0.049481 0.251332
0.007210 -0.049508 0.251472
0.008427 -0.049552 0.251705
0.009797 -0.050374 0.255888
0.011072 -0.050574 0.256917
0.012340 -0.050705 0.257600
0.013559 -0.050630 0.257238
0.014839 -0.050775 0.257993
0.016151 -0.051001 0.259166
0.017456 -0.051171 0.260058
0.018715 -0.051195 0.260210
0.020000 -0.051280 0.260674
0.021286 -0.051360 0.261115
0.022592 -0.051475 0.261733
0.023970 -0.051734 0.263091
0.025207 -0.051676 0.262838
0.026559 -0.051849 0.263760
0.028076 -0.052314 0.266172
0.029455 -0.052493 0.267134
0.030808 -0.052610 0.267783
0.032190 -0.052768 0.268638
0.033504 -0.052806 0.268886
0.034887 -0.052944 0.269648
0.036248 -0.053042 0.270205
0.037527 -0.053015 0.270131
0.038874 -0.053084 0.270546
0.040220 -0.053147 0.270931
0.041576 -0.053219 0.271364
0.042864 -0.053202 0.271345
0.044102 -0.053126 0.271025
0.045474 -0.053212 0.271529
0.046654 -0.053073 0.270895
0.047449 -0.052516 0.268121
0.047703 -0.051406 0.262521
0.048492 -0.050914 0.260080
0.049766 -0.050943 0.260298
0.051013 -0.050944 0.260373
0.051947 -0.050639 0.258884
0.052896 -0.050363 0.257546
0.053968 -0.050214 0.256852
0.055087 -0.050115 0.256413
0.056112 -0.049936 0.255567
0.057055 -0.049693 0.254393
0.058007 -0.049467 0.253305
0.058959 -0.049252 0.252271
0.060019 -0.049133 0.251728
0.061021 -0.048971 0.250967
0.061969 -0.048774 0.250021
0.062947 -0.048608 0.249234
0.063750 -0.048315 0.247792
0.064411 -0.047927 0.245863
0.065291 -0.047713 0.244822
0.066068 -0.047433 0.243441
0.066406 -0.046852 0.240513
0.067272 -0.046657 0.239568
0.067875 -0.046289 0.237728
0.068752 -0.046118 0.236895
0.068823 -0.045419 0.233354
0.069426 -0.045089 0.231699
0.069992 -0.044745 0.229973
0.070686 -0.044493 0.228714
0.071386 -0.044251 0.227507
0.071574 -0.043704 0.224728
0.070842 -0.042620 0.219183
0.071075 -0.042140 0.216737
0.072125 -0.042151 0.216815
0.072800 -0.041945 0.215776
0.073299 -0.041645 0.214250
0.073742 -0.041321 0.212600
0.074359 -0.041103 0.211487
0.074894 -0.040846 0.210171
0.075519 -0.040644 0.209135
0.076167 -0.040459 0.208183
0.076719 -0.040229 0.206994
0.077500 -0.040124 0.206443
0.078181 -0.039970 0.205637
0.078580 -0.039677 0.204113
0.079238 -0.039520 0.203288
0.079982 -0.039410 0.202694
0.080572 -0.039227 0.201725
0.081284 -0.039108 0.201075
0.082012 -0.038998 0.200472
0.082619 -0.038834 0.199587
0.083067 -0.038600 0.198336
0.083491 -0.038361 0.197050
0.084279 -0.038292 0.196636
0.085015 -0.038201 0.196105
0.085551 -0.038023 0.195122
0.086104 -0.037857 0.194194
0.086765 -0.037741 0.193516
0.087388 -0.037611 0.192763
0.088035 -0.037494 0.192070
0.088741 -0.037404 0.191510
0.089574 -0.037369 0.191223
0.090297 -0.037290 0.190702
0.091028 -0.037215 0.190199
0.091889 -0.037194 0.189965
0.092541 -0.037090 0.189297
0.093222 -0.037000 0.188692
0.093934 -0.036923 0.188149
0.094416 -0.036758 0.187151
0.094989 -0.036632 0.186339
0.095769 -0.036587 0.185933
0.096436 -0.036500 0.185307
0.096988 -0.036371 0.184460
-1.678264 -0.600007 3.146245
-1.667158 -0.601381 3.156507
-1.654737 -0.602303 3.164247
-1.637588 -0.601505 3.162806
-1.625075 -0.602412 3.170183
-1.612833 -0.603438 3.178053
-1.600090 -0.604295 3.184903
-1.587317 -0.605157 3.191653
-1.574215 -0.605910 3.197703
-1.562028 -0.607033 3.205591
-1.549437 -0.608021 3.212645
-1.538249 -0.609584 3.222631
-1.526471 -0.610943 3.231429
-1.513784 -0.611964 3.238327
-1.503827 -0.614119 3.251133
-1.490689 -0.615008 3.257130
-1.477833 -0.616033 3.263751
-1.465704 -0.617386 3.272015
-1.452293 -0.618223 3.277448
-1.441073 -0.620021 3.287887
-1.427671 -0.620910 3.293414
-1.415118 -0.622192 3.300938
-1.402423 -0.623440 3.308196
-1.389528 -0.624626 3.315047
-1.379635 -0.627205 3.329206
-1.364005 -0.627205 3.329601
-1.350259 -0.628082 3.334574
-0.058795 -0.047936 0.252650
-0.057756 -0.048068 0.253258
-0.056776 -0.048256 0.254155
-0.055564 -0.048251 0.254036
-0.054347 -0.048240 0.253888
-0.053370 -0.048447 0.254888
-0.052235 -0.048517 0.255165
-0.050971 -0.048468 0.254815
-0.049820 -0.048527 0.255031
-0.042107 -0.042038 0.220849
-0.039563 -0.040508 0.212739
-0.038738 -0.040706 0.213699
-0.038612 -0.041667 0.218670
-0.042128 -0.046722 0.245110
-0.036818 -0.041997 0.220246
-0.036094 -0.042380 0.222179
-0.035208 -0.042590 0.223206
-0.034273 -0.042752 0.223977
-0.033280 -0.042850 0.224416
-0.032330 -0.043010 0.225184
-0.031413 -0.043229 0.226255
-0.030510 -0.043482 0.227512
-0.029613 -0.043763 0.228913
-0.028554 -0.043818 0.229129
-0.027634 -0.044099 0.230531
-0.026649 -0.044295 0.231489
-0.025575 -0.044354 0.231730
-0.024621 -0.044636 0.233143
-0.023620 -0.044855 0.234223
-0.022550 -0.044959 0.234706
-0.021446 -0.045003 0.234877
-0.020400 -0.045180 0.235744
-0.019308 -0.045269 0.236157
-0.018330 -0.045653 0.238108
-0.017231 -0.045769 0.238662
-0.016108 -0.045831 0.238938
-0.014979 -0.045887 0.239184
-0.013920 -0.046184 0.240687
-0.012757 -0.046159 0.240517
-0.011611 -0.046194 0.240662
-0.010497 -0.046379 0.241588
-0.009370 -0.046548 0.242435
-0.008247 -0.046790 0.243664
-0.007109 -0.047004 0.244747
-0.005948 -0.047133 0.245397
-0.004778 -0.047229 0.245872
-0.003606 -0.047363 0.246548
-0.002428 -0.047508 0.247287
-0.001243 -0.047703 0.248285
-0.000049 -0.047830 0.248935
0.001153 -0.048014 0.249882
0.002362 -0.048154 0.250604
0.003576 -0.048260 0.251155
0.004798 -0.048393 0.251846
0.006021 -0.048486 0.252328
0.007248 -0.048572 0.252781
0.008549 -0.049057 0.255314
0.009824 -0.049288 0.256526
0.011085 -0.049406 0.257151
0.012345 -0.049494 0.257628
0.013589 -0.049511 0.257733
0.014875 -0.049664 0.258554
0.016180 -0.049850 0.259545
0.017467 -0.049959 0.260140
0.018731 -0.049992 0.260346
0.020022 -0.050087 0.260873
0.021316 -0.050180 0.261393
0.022589 -0.050215 0.261611
0.023941 -0.050413 0.262680
0.025305 -0.050614 0.263775
0.026650 -0.050759 0.264575
0.028018 -0.050934 0.265531
0.029452 -0.051209 0.267014
0.030842 -0.051385 0.267988
0.032187 -0.051477 0.268523
0.033503 -0.051517 0.268787
0.034876 -0.051638 0.269476
0.036244 -0.051744 0.270089
0.037508 -0.051697 0.269909
0.038890 -0.051813 0.270576
0.040238 -0.051876 0.270971
0.041577 -0.051924 0.271288
0.042904 -0.051955 0.271518
0.044185 -0.051929 0.271455
0.045484 -0.051926 0.271510
0.046746 -0.051881 0.271347
0.047665 -0.051469 0.269265
0.047743 -0.050195 0.262667
0.048576 -0.049758 0.260453
0.049618 -0.049553 0.259450
0.050870 -0.049562 0.259571
0.051754 -0.049221 0.257855
0.052688 -0.048942 0.256465
0.053913 -0.048939 0.256524
0.055000 -0.048815 0.255946
0.056005 -0.048624 0.255015
0.057118 -0.048534 0.254615
0.058155 -0.048384 0.253897
0.059137 -0.048195 0.252973
0.060041 -0.047952 0.251767
0.061108 -0.047845 0.251272
0.062056 -0.047652 0.250324
0.062976 -0.047444 0.249300
0.063745 -0.047133 0.247727
0.064490 -0.046816 0.246121
0.065496 -0.046695 0.245547
