ply
format ascii 1.0
element vertex 1690
property float x
property float y
property float z
end_header
0.080627 -0.053928 0.198925
0.081417 -0.053822 0.198454
0.082262 -0.053755 0.198118
0.083045 -0.053649 0.197636
0.083843 -0.053555 0.197192
0.084537 -0.053397 0.196509
0.085097 -0.053159 0.195525
0.085914 -0.053085 0.195138
0.086602 -0.052934 0.194460
0.087243 -0.052757 0.193683
0.087929 -0.052611 0.193013
0.088723 -0.052532 0.192580
0.089432 -0.052405 0.191966
0.089968 -0.052180 0.190984
0.090605 -0.052018 0.190227
0.091200 -0.051835 0.189386
0.091860 -0.051692 0.188684
0.092406 -0.051488 0.187752
0.092836 -0.051224 0.186595
0.093419 -0.051050 0.185754
0.094140 -0.050952 0.185186
0.094904 -0.050880 0.184700
0.095445 -0.050691 0.183779
0.096235 -0.050636 0.183336
0.097078 -0.050609 0.182986
-1.686098 -0.844511 3.136176
-1.656764 -0.837263 3.113220
-1.651474 -0.842144 3.135182
-1.635593 -0.841667 3.137042
-1.646028 -0.854848 3.189698
-0.033683 -0.058909 0.221622
-0.032441 -0.058565 0.220278
-0.031137 -0.058082 0.218410
-0.030053 -0.057992 0.218018
-0.031975 -0.063902 0.240185
-0.030894 -0.064028 0.240603
-0.028584 -0.061517 0.231116
-0.027092 -0.060636 0.227757
-0.025959 -0.060518 0.227266
-0.025073 -0.060992 0.229000
-0.024074 -0.061221 0.229815
-0.023120 -0.061593 0.231163
-0.022137 -0.061919 0.232344
-0.021058 -0.061999 0.232599
-0.019987 -0.062111 0.232981
-0.018947 -0.062339 0.233795
-0.017864 -0.062447 0.234161
-0.016915 -0.063067 0.236449
-0.015906 -0.063538 0.238178
-0.014804 -0.063681 0.238680
-0.013682 -0.063753 0.238914
-0.012577 -0.063930 0.239548
-0.011480 -0.064181 0.240459
-0.010375 -0.064439 0.241397
-0.009238 -0.064545 0.241765
-0.008105 -0.064705 0.242341
-0.006976 -0.064957 0.243263
-0.005838 -0.065215 0.244206
-0.004686 -0.065414 0.244932
-0.003525 -0.065559 0.245459
-0.002362 -0.065797 0.246334
-0.001192 -0.066129 0.247562
-0.000010 -0.066245 0.247985
0.001178 -0.066419 0.248626
0.002371 -0.066574 0.249202
0.003575 -0.066833 0.250166
0.004789 -0.067102 0.251169
0.006016 -0.067408 0.252310
0.007261 -0.067784 0.253720
0.008484 -0.067872 0.254049
0.009716 -0.067999 0.254530
0.010961 -0.068177 0.255205
0.012206 -0.068324 0.255763
0.013482 -0.068598 0.256798
0.014796 -0.069005 0.258335
0.016095 -0.069282 0.259384
0.017333 -0.069277 0.259384
0.018603 -0.069394 0.259841
0.019885 -0.069536 0.260391
0.021124 -0.069519 0.260350
0.022436 -0.069731 0.261167
0.023743 -0.069907 0.261850
0.025005 -0.069940 0.262000
0.026299 -0.070054 0.262455
0.027622 -0.070230 0.263145
0.028940 -0.070380 0.263738
0.030239 -0.070472 0.264114
0.031552 -0.070588 0.264583
0.032912 -0.070796 0.265400
0.034197 -0.070834 0.265578
0.035434 -0.070772 0.265383
0.036675 -0.070725 0.265242
0.037935 -0.070714 0.265241
0.039134 -0.070594 0.264831
0.040133 -0.070131 0.263136
0.040952 -0.069391 0.260400
0.041888 -0.068889 0.258555
0.042950 -0.068615 0.257568
0.044181 -0.068618 0.257623
0.045332 -0.068501 0.257226
0.046418 -0.068296 0.256497
0.047528 -0.068134 0.255930
0.048701 -0.068068 0.255726
0.049847 -0.067970 0.255397
0.050982 -0.067861 0.255029
0.052103 -0.067738 0.254606
0.053207 -0.067600 0.254130
0.054354 -0.067521 0.253871
0.055439 -0.067370 0.253345
0.056566 -0.067275 0.253026
0.057655 -0.067141 0.252557
0.058648 -0.066902 0.251697
0.059495 -0.066510 0.250254
0.060245 -0.066025 0.248466
0.061041 -0.065610 0.246935
0.062082 -0.065469 0.246435
0.062969 -0.065173 0.245349
0.063791 -0.064822 0.244055
0.064673 -0.064543 0.243032
0.065468 -0.064190 0.241723
0.066387 -0.063966 0.240904
0.067122 -0.063578 0.239458
0.067739 -0.063092 0.237645
0.068252 -0.062526 0.235529
0.069210 -0.062380 0.234990
0.069285 -0.061455 0.231513
0.069450 -0.060637 0.228441
0.070354 -0.060480 0.227853
0.071094 -0.060190 0.226759
0.071368 -0.059518 0.224227
0.071463 -0.058720 0.221215
0.071170 -0.057631 0.217104
0.071945 -0.057425 0.216316
0.072422 -0.056990 0.214664
0.072117 -0.055961 0.210771
0.072662 -0.055610 0.209428
0.073542 -0.055523 0.209072
0.073921 -0.055063 0.207315
0.074265 -0.054590 0.205501
0.074897 -0.054339 0.204520
0.075242 -0.053888 0.202784
0.076032 -0.053764 0.202272
0.076683 -0.053545 0.201401
0.077393 -0.053373 0.200699
0.078159 -0.053243 0.200154
0.078891 -0.053093 0.199528
0.079746 -0.053029 0.199220
0.080502 -0.052901 0.198667
0.081417 -0.052878 0.198506
0.082343 -0.052865 0.198371
0.083054 -0.052714 0.197718
0.083858 -0.052625 0.197292
0.084709 -0.052567 0.196974
0.085347 -0.052380 0.196167
0.086042 -0.052232 0.195499
0.086807 -0.052129 0.194994
0.087425 -0.051940 0.194164
0.088051 -0.051761 0.193362
0.088782 -0.051646 0.192794
0.089415 -0.051476 0.192017
0.090064 -0.051320 0.191280
0.090583 -0.051093 0.190275
0.091190 -0.050920 0.189462
0.091734 -0.050715 0.188525
0.092163 -0.050452 0.187364
0.092797 -0.050305 0.186625
0.093362 -0.050123 0.185751
0.094055 -0.050014 0.185134
0.094786 -0.049926 0.184590
0.095490 -0.049826 0.183991
0.096141 -0.049700 0.183286
0.096972 -0.049668 0.182919
-1.686897 -0.829789 3.139674
-1.672719 -0.830195 3.145142
-1.670182 -0.836441 3.172585
-1.657155 -0.837499 3.180217
-1.646919 -0.840002 3.193181
-0.036259 -0.058617 0.224573
-0.034756 -0.057887 0.221720
-0.033734 -0.057940 0.221869
-0.032543 -0.057695 0.220879
-0.031132 -0.057032 0.218286
-0.030179 -0.057190 0.218841
-0.030235 -0.059340 0.227012
-0.029305 -0.059644 0.228123
-0.028325 -0.059862 0.228908
-0.027150 -0.059673 0.228135
-0.026098 -0.059749 0.228374
-0.025108 -0.059979 0.229204
-0.024077 -0.060126 0.229721
-0.023135 -0.060522 0.231188
-0.022066 -0.060610 0.231476
-0.021186 -0.061253 0.233888
-0.020047 -0.061176 0.233551
-0.019150 -0.061875 0.236178
-0.018018 -0.061849 0.236041
-0.016864 -0.061746 0.235609
-0.015895 -0.062350 0.237876
-0.014835 -0.062663 0.239033
-0.013716 -0.062758 0.239362
-0.012590 -0.062836 0.239627
-0.011477 -0.063000 0.240224
-0.010358 -0.063168 0.240836
-0.009245 -0.063418 0.241760
-0.008106 -0.063539 0.242195
-0.006977 -0.063781 0.243095
-0.005834 -0.063980 0.243833
-0.004692 -0.064279 0.244954
-0.003534 -0.064504 0.245794
-0.002368 -0.064724 0.246616
-0.001194 -0.064906 0.247298
-0.000012 -0.065101 0.248029
0.001176 -0.065314 0.248828
0.002374 -0.065547 0.249710
0.003578 -0.065746 0.250463
0.004793 -0.066003 0.251437
0.006031 -0.066397 0.252938
0.007257 -0.066558 0.253551
0.008492 -0.066736 0.254233
0.009735 -0.066929 0.254972
0.010976 -0.067070 0.255516
0.012208 -0.067128 0.255748
0.013521 -0.067578 0.257473
0.014830 -0.067940 0.258866
0.016077 -0.067981 0.259035
0.017338 -0.068071 0.259396
0.018605 -0.068169 0.259788
0.019870 -0.068252 0.260124
0.021152 -0.068377 0.260622
0.022443 -0.068517 0.261179
0.023732 -0.068634 0.261653
0.025046 -0.068808 0.262344
0.026350 -0.068942 0.262884
0.027680 -0.069127 0.263622
0.028963 -0.069184 0.263869
0.030329 -0.069424 0.264819
0.031664 -0.069580 0.265448
0.032992 -0.069707 0.265970
0.034287 -0.069758 0.266202
0.035552 -0.069745 0.266195
0.036813 -0.069727 0.266165
0.038085 -0.069728 0.266210
0.039278 -0.069591 0.265727
0.040191 -0.068982 0.263443
0.040972 -0.068188 0.260456
0.041981 -0.067812 0.259060
0.043029 -0.067517 0.257976
0.044215 -0.067449 0.257760
0.045377 -0.067348 0.257420
0.046459 -0.067138 0.256658
0.047538 -0.066935 0.255926
0.048705 -0.066861 0.255687
0.049849 -0.066761 0.255349
0.050973 -0.066639 0.254928
0.052090 -0.066514 0.254492
0.053213 -0.066403 0.254107
0.054331 -0.066289 0.253714
0.055490 -0.066230 0.253530
0.056601 -0.066117 0.253138
0.057770 -0.066075 0.253016
0.058734 -0.065805 0.252023
0.059582 -0.065418 0.250578
0.060482 -0.065104 0.249409
0.061344 -0.064760 0.248127
0.062157 -0.064379 0.246699
0.063085 -0.064128 0.245771
0.063946 -0.063821 0.244621
0.064822 -0.063538 0.243566
0.065569 -0.063141 0.242071
0.066492 -0.062925 0.241265
0.067003 -0.062332 0.239015
0.067921 -0.062132 0.238265
0.068195 -0.061359 0.235319
0.068956 -0.061041 0.234114
0.069299 -0.060370 0.231551
0.069904 -0.059945 0.229928
0.070162 -0.059239 0.227229
0.070889 -0.058945 0.226103
0.071433 -0.058509 0.224433
0.071337 -0.057571 0.220830
0.071678 -0.057006 0.218658
0.072100 -0.056522 0.216792
0.072238 -0.055831 0.214131
0.071876 -0.054779 0.210079
0.072740 -0.054676 0.209668
0.073367 -0.054401 0.208592
0.074000 -0.054139 0.207558
0.074538 -0.053814 0.206283
0.074817 -0.053312 0.204328
0.075546 -0.053141 0.203633
0.076181 -0.052908 0.202700
0.076791 -0.052664 0.201719
0.077491 -0.052487 0.200991
0.078233 -0.052342 0.200382
0.078896 -0.052149 0.199582
0.079710 -0.052059 0.199175
0.080607 -0.052024 0.198973
0.081756 -0.052151 0.199385
0.082402 -0.051958 0.198565
0.083186 -0.051855 0.198088
0.084219 -0.051909 0.198200
0.084953 -0.051778 0.197605
0.085524 -0.051552 0.196640
0.086298 -0.051453 0.196151
0.087099 -0.051370 0.195722
0.087620 -0.051127 0.194674
0.088209 -0.050928 0.193785
0.088903 -0.050793 0.193138
0.089487 -0.050599 0.192256
0.089926 -0.050327 0.191075
0.090602 -0.050192 0.190407
0.090960 -0.049885 0.189079
0.091666 -0.049774 0.188485
0.092202 -0.049573 0.187545
0.092541 -0.049271 0.186215
0.093163 -0.049124 0.185464
0.093780 -0.048977 0.184704
0.094436 -0.048854 0.184024
0.095170 -0.048772 0.183493
0.095764 -0.048621 0.182691
0.096587 -0.048588 0.182321
-1.658002 -0.800713 3.087801
-1.673539 -0.815466 3.148558
-1.654372 -0.813425 3.144353
-1.637427 -0.812449 3.144089
-1.647807 -0.825139 3.196596
-0.037345 -0.057578 0.224664
-0.036314 -0.057633 0.224819
-0.034512 -0.056431 0.220075
-0.033543 -0.056559 0.220520
-0.032645 -0.056817 0.221471
-0.031556 -0.056751 0.221157
-0.030610 -0.056946 0.221865
-0.029719 -0.057261 0.223038
-0.028946 -0.057835 0.225220
-0.028085 -0.058271 0.226866
-0.027135 -0.058549 0.227898
-0.026108 -0.058678 0.228351
-0.025075 -0.058802 0.228784
-0.024075 -0.059021 0.229586
-0.023130 -0.059404 0.231027
-0.022150 -0.059727 0.232237
-0.021115 -0.059928 0.232976
-0.020056 -0.060081 0.233528
-0.018978 -0.060195 0.233927
-0.017953 -0.060497 0.235058
-0.016957 -0.060947 0.236770
-0.015911 -0.061267 0.237975
-0.014814 -0.061425 0.238553
-0.013711 -0.061584 0.239133
-0.012592 -0.061690 0.239513
-0.011470 -0.061805 0.239928
-0.010379 -0.062131 0.241166
-0.009257 -0.062326 0.241895
-0.008131 -0.062551 0.242744
-0.007000 -0.062803 0.243695
-0.005856 -0.063017 0.244506
-0.004699 -0.063177 0.245105
-0.003544 -0.063451 0.246150
-0.002375 -0.063647 0.246896
-0.001199 -0.063865 0.247730
-0.000015 -0.064082 0.248559
0.001174 -0.064164 0.248867
0.002372 -0.064372 0.249664
0.003578 -0.064608 0.250575
0.004797 -0.064882 0.251637
0.006019 -0.065096 0.252464
0.007271 -0.065497 0.254019
0.008506 -0.065652 0.254624
0.009750 -0.065834 0.255335
0.010985 -0.065919 0.255673
0.012260 -0.066200 0.256772
0.013494 -0.066229 0.256898
0.014849 -0.066801 0.259127
0.016084 -0.066786 0.259086
0.017345 -0.066869 0.259425
0.018629 -0.067025 0.260051
0.019867 -0.067008 0.260005
0.021149 -0.067130 0.260504
0.022448 -0.067293 0.261163
0.023752 -0.067448 0.261790
0.025076 -0.067645 0.262584
0.026360 -0.067720 0.262904
0.027707 -0.067942 0.263797
0.029060 -0.068158 0.264669
0.030405 -0.068338 0.265404
0.031710 -0.068417 0.265748
0.033024 -0.068509 0.266144
0.034292 -0.068503 0.266161
0.035589 -0.068553 0.266394
0.036849 -0.068529 0.266344
0.038073 -0.068442 0.266049
0.039250 -0.068281 0.265464
0.040165 -0.067686 0.263197
0.041062 -0.067099 0.260957
0.042079 -0.066736 0.259591
0.043144 -0.066468 0.258594
0.044248 -0.066274 0.257884
0.045421 -0.066190 0.257601
0.046551 -0.066050 0.257103
0.047633 -0.065850 0.256371
0.048793 -0.065766 0.256090
0.049989 -0.065733 0.256004
0.051123 -0.065622 0.255619
0.052241 -0.065496 0.255174
0.053382 -0.065404 0.254859
0.054474 -0.065257 0.254333
0.055582 -0.065136 0.253901
0.056652 -0.064975 0.253318
0.057704 -0.064801 0.252683
0.058751 -0.064629 0.252050
0.059727 -0.064387 0.251147
0.060695 -0.064147 0.250249
0.061481 -0.063726 0.248645
0.062305 -0.063360 0.247251
0.063158 -0.063037 0.246024
0.064053 -0.062767 0.245003
0.064807 -0.062370 0.243484
0.065808 -0.062221 0.242931
0.066395 -0.061692 0.240892
0.067234 -0.061412 0.239821
0.067467 -0.060596 0.236658
0.068005 -0.060077 0.234648
0.068845 -0.059836 0.233725
0.069241 -0.059224 0.231350
0.069307 -0.058354 0.227959
0.069820 -0.057880 0.226118
0.070727 -0.057742 0.225586
0.070181 -0.056440 0.220501
0.070844 -0.056134 0.219307
0.071413 -0.055764 0.217856
0.071927 -0.055362 0.216280
0.071976 -0.054618 0.213363
0.072357 -0.054144 0.211499
0.073080 -0.053934 0.210663
0.074052 -0.053912 0.210558
0.074453 -0.053480 0.208849
0.075642 -0.053618 0.209358
0.076241 -0.053340 0.208242
0.075274 -0.051987 0.202926
0.075962 -0.051797 0.202145
0.076705 -0.051649 0.201525
0.077467 -0.051517 0.200963
0.078229 -0.051389 0.200409
0.078964 -0.051245 0.199795
0.079722 -0.051121 0.199247
0.080753 -0.051172 0.199379
0.081730 -0.051187 0.199369
0.082584 -0.051126 0.199055
0.083392 -0.051039 0.198633
0.084291 -0.051009 0.198426
0.085165 -0.050964 0.198158
0.085740 -0.050743 0.197198
0.086457 -0.050610 0.196577
0.087205 -0.050498 0.196029
0.087746 -0.050270 0.195025
0.088325 -0.050068 0.194115
0.088802 -0.049813 0.192996
0.089552 -0.049715 0.192475
0.090101 -0.049508 0.191530
0.090366 -0.049152 0.189997
0.091004 -0.049002 0.189261
0.091493 -0.048777 0.188222
0.091933 -0.048530 0.187093
0.092400 -0.048302 0.186032
0.092997 -0.048145 0.185237
0.093625 -0.048008 0.184508
0.094371 -0.047933 0.184009
0.094988 -0.047794 0.183258
0.095641 -0.047676 0.182575
0.096438 -0.047631 0.182164
-1.662548 -0.788007 3.098113
-1.658130 -0.792962 3.121356
-1.655547 -0.798894 3.148322
-1.637133 -0.797226 3.145191
-1.634758 -0.803411 3.172899
-0.038459 -0.056577 0.224913
-0.037276 -0.056402 0.224158
-0.035971 -0.056027 0.222608
-0.034231 -0.054929 0.218190
-0.033376 -0.055229 0.219324
-0.032429 -0.055391 0.219910
-0.031482 -0.055563 0.220540
-0.030773 -0.056184 0.222948
-0.029874 -0.056487 0.224096
-0.028948 -0.056761 0.225128
-0.028049 -0.057112 0.226467
-0.027165 -0.057522 0.228041
-0.026146 -0.057668 0.228568
-0.025178 -0.057944 0.229612
-0.024136 -0.058067 0.230050
-0.023176 -0.058410 0.231358
-0.022218 -0.058792 0.232824
-0.021142 -0.058886 0.233152
-0.020088 -0.059054 0.233773
-0.019039 -0.059260 0.234545
-0.017963 -0.059399 0.235051
-0.016934 -0.059725 0.236304
-0.015891 -0.060046 0.237532
-0.014846 -0.060404 0.238914
-0.013732 -0.060521 0.239340
-0.012619 -0.060662 0.239863
-0.011510 -0.060858 0.240607
-0.010373 -0.060929 0.240861
-0.009276 -0.061278 0.242211
-0.008140 -0.061441 0.242830
-0.006995 -0.061577 0.243344
-0.005851 -0.061774 0.244099
-0.004697 -0.061937 0.244722
-0.003540 -0.062165 0.245605
-0.002380 -0.062522 0.247001
-0.001203 -0.062728 0.247800
-0.000018 -0.062867 0.248339
0.001173 -0.063044 0.249026
0.002377 -0.063381 0.250352
0.003583 -0.063544 0.250991
0.004803 -0.063806 0.252021
0.006025 -0.063976 0.252694
0.007263 -0.064241 0.253739
0.008509 -0.064479 0.254686
0.009758 -0.064687 0.255509
0.011016 -0.064892 0.256329
0.012274 -0.065063 0.257015
0.013519 -0.065135 0.257311
0.014774 -0.065244 0.257756
0.016071 -0.065506 0.258806
0.017362 -0.065706 0.259615
0.018622 -0.065769 0.259885
0.019906 -0.065906 0.260447
0.021209 -0.066083 0.261172
0.022493 -0.066184 0.261598
0.023783 -0.066294 0.262060
0.025097 -0.066453 0.262721
0.026406 -0.066588 0.263284
0.027726 -0.066734 0.263895
0.029076 -0.066937 0.264732
0.030397 -0.067060 0.265254
0.031746 -0.067231 0.265969
0.033103 -0.067406 0.266702
0.034417 -0.067483 0.267046
0.035660 -0.067420 0.266840
0.036940 -0.067429 0.266920
0.038220 -0.067439 0.267002
0.039354 -0.067197 0.266090
0.040332 -0.066713 0.264218
0.041477 -0.066525 0.263519
0.042310 -0.065863 0.260943
0.043223 -0.065361 0.259000
0.044172 -0.064937 0.257370
0.045538 -0.065135 0.258200
0.046594 -0.064889 0.257276
0.047696 -0.064719 0.256647
0.048899 -0.064690 0.256581
0.050041 -0.064586 0.256214
0.051179 -0.064479 0.255839
0.052338 -0.064404 0.255588
0.053431 -0.064253 0.255037
0.054537 -0.064125 0.254573
0.055627 -0.063982 0.254052
0.056742 -0.063875 0.253671
0.057812 -0.063722 0.253109
0.058700 -0.063379 0.251790
0.059509 -0.062965 0.250187
0.060445 -0.062701 0.249176
0.061429 -0.062495 0.248397
0.062412 -0.062294 0.247639
0.063296 -0.062006 0.246530
0.064167 -0.061714 0.245404
0.065049 -0.061445 0.244365
0.065958 -0.061209 0.243458
0.066583 -0.060722 0.241548
0.067167 -0.060215 0.239558
0.067627 -0.059616 0.237199
0.068028 -0.058985 0.234710
0.068603 -0.058523 0.232890
0.069285 -0.058165 0.231484
0.069726 -0.057619 0.229325
0.070348 -0.057238 0.227818
0.070068 -0.056145 0.223479
0.069614 -0.054948 0.218718
0.070375 -0.054730 0.217853
0.071084 -0.054480 0.216856
0.071507 -0.054020 0.215021
0.071835 -0.053502 0.212953
0.072431 -0.053196 0.211725
0.073262 -0.053068 0.211202
0.073702 -0.052664 0.209576
0.073874 -0.052082 0.207240
0.074719 -0.051984 0.206824
0.074994 -0.051497 0.204859
0.075455 -0.051147 0.203437
0.076033 -0.050886 0.202360
0.076671 -0.050671 0.201464
0.077403 -0.050522 0.200829
0.078102 -0.050356 0.200119
0.078652 -0.050098 0.199042
0.079376 -0.049956 0.198421
0.080391 -0.049999 0.198527
0.081939 -0.050368 0.199925
0.082923 -0.050386 0.199921
0.083519 -0.050170 0.198985
0.084372 -0.050112 0.198669
0.085120 -0.049994 0.198110
0.085869 -0.049879 0.197555
0.086527 -0.049714 0.196798
0.087160 -0.049538 0.195993
0.087753 -0.049344 0.195109
0.088115 -0.049024 0.193724
0.088794 -0.048886 0.193052
0.089446 -0.048737 0.192325
0.089988 -0.048531 0.191370
0.090444 -0.048283 0.190243
0.090870 -0.048025 0.189069
0.091431 -0.047842 0.188185
0.091748 -0.047536 0.186810
0.092411 -0.047414 0.186150
0.093040 -0.047276 0.185423
0.093420 -0.047016 0.184207
0.094161 -0.046941 0.183706
0.094710 -0.046772 0.182832
0.095214 -0.046585 0.181874
0.096037 -0.046555 0.181524
-1.668975 -0.776095 3.111877
-1.664364 -0.780893 3.134822
-1.656380 -0.784182 3.151581
-1.642216 -0.784580 3.156568
-1.635631 -0.788640 3.176153
-1.634050 -0.795212 3.205739
-1.620666 -0.796110 3.212331
-0.042726 -0.056926 0.230771
-0.041547 -0.056810 0.230238
-0.039800 -0.055890 0.226448
-0.038514 -0.055585 0.225151
-0.037461 -0.055608 0.225181
-0.036098 -0.055158 0.223300
-0.034518 -0.054341 0.219931
-0.033582 -0.054517 0.220585
-0.032601 -0.054630 0.220986
-0.031754 -0.054982 0.222351
-0.030954 -0.055441 0.224153
-0.029994 -0.055640 0.224899
-0.029041 -0.055864 0.225751
-0.028127 -0.056184 0.226990
-0.027216 -0.056537 0.228359
-0.026195 -0.056678 0.228879
-0.025162 -0.056808 0.229352
-0.024191 -0.057096 0.230463
-0.023260 -0.057510 0.232083
-0.022154 -0.057510 0.232037
-0.021180 -0.057870 0.233441
-0.020134 -0.058065 0.234183
-0.019055 -0.058181 0.234605
-0.018042 -0.058528 0.235961
-0.016931 -0.058577 0.236119
-0.015872 -0.058832 0.237108
-0.014812 -0.059119 0.238227
-0.013735 -0.059379 0.239239
-0.012622 -0.059520 0.239773
-0.011501 -0.059645 0.240244
-0.010379 -0.059794 0.240812
-0.009255 -0.059967 0.241483
-0.008125 -0.060151 0.242198
-0.006997 -0.060408 0.243208
-0.005857 -0.060637 0.244106
-0.004699 -0.060759 0.244576
-0.003541 -0.060955 0.245347
-0.002379 -0.061246 0.246505
-0.001206 -0.061568 0.247786
-0.000020 -0.061782 0.248635
0.001172 -0.061919 0.249178
0.002379 -0.062318 0.250778
0.003586 -0.062439 0.251260
0.004799 -0.062580 0.251822
0.006021 -0.062759 0.252543
0.007262 -0.063041 0.253676
0.008495 -0.063179 0.254238
0.009742 -0.063375 0.255032
0.011001 -0.063598 0.255937
0.012267 -0.063813 0.256812
0.013528 -0.063960 0.257420
0.014799 -0.064132 0.258123
0.016069 -0.064268 0.258688
0.017344 -0.064407 0.259266
0.018614 -0.064507 0.259690
0.019872 -0.064557 0.259915
0.021146 -0.064650 0.260314
0.022436 -0.064777 0.260854
0.023786 -0.065056 0.262007
0.025101 -0.065217 0.262684
0.026420 -0.065370 0.263333
0.027781 -0.065609 0.264332
0.029111 -0.065759 0.264972
0.030430 -0.065871 0.265463
0.031764 -0.066004 0.266039
0.033132 -0.066197 0.266856
0.034371 -0.066126 0.266611
0.035726 -0.066275 0.267258
0.036980 -0.066233 0.267132
0.038213 -0.066157 0.266872
0.039473 -0.066132 0.266816
0.040571 -0.065845 0.265708
0.041614 -0.065488 0.264314
0.042564 -0.065012 0.262441
0.043451 -0.064468 0.260295
0.044453 -0.064120 0.258940
0.045563 -0.063942 0.258270
0.046759 -0.063892 0.258116
0.047848 -0.063703 0.257401
0.048949 -0.063537 0.256781
0.050103 -0.063447 0.256469
0.051204 -0.063296 0.255905
0.052280 -0.063120 0.255246
0.053377 -0.062979 0.254722
0.054430 -0.062793 0.254018
0.055505 -0.062639 0.253442
0.056501 -0.062405 0.252542
0.057607 -0.062300 0.252163
0.058659 -0.062140 0.251563
0.059561 -0.061833 0.250362
0.060522 -0.061597 0.249451
0.061531 -0.061418 0.248767
0.062515 -0.061222 0.248013
0.063405 -0.060941 0.246916
0.064306 -0.060682 0.245902
0.065053 -0.060290 0.244349
0.065939 -0.060038 0.243358
0.066695 -0.059677 0.241929
0.067263 -0.059164 0.239877
0.067857 -0.058691 0.237983
0.068326 -0.058126 0.235719
0.068801 -0.057585 0.233546
0.069545 -0.057282 0.232337
0.068528 -0.055561 0.225374
0.069176 -0.055223 0.224015
0.069637 -0.054748 0.222097
0.070116 -0.054301 0.220292
0.070668 -0.053922 0.218761
0.071307 -0.053620 0.217536
0.071520 -0.053010 0.215062
0.072151 -0.052724 0.213896
0.072527 -0.052262 0.212012
0.072924 -0.051827 0.210238
0.073343 -0.051419 0.208567
0.073912 -0.051126 0.207362
0.074580 -0.050908 0.206456
0.074955 -0.050499 0.204771
0.075573 -0.050262 0.203779
0.076153 -0.050005 0.202706
0.076828 -0.049817 0.201903
0.077494 -0.049627 0.201094
0.078265 -0.049509 0.200568
0.078824 -0.049260 0.199511
0.079529 -0.049108 0.198839
0.080682 -0.049233 0.199285
0.081697 -0.049272 0.199375
0.082491 -0.049178 0.198924
0.083202 -0.049038 0.198279
0.084143 -0.049034 0.198183
0.084941 -0.048948 0.197748
0.085666 -0.048822 0.197144
0.086335 -0.048668 0.196422
0.087117 -0.048579 0.195959
0.087675 -0.048370 0.195000
0.088184 -0.048137 0.193945
0.088673 -0.047899 0.192859
0.089222 -0.047698 0.191917
0.089687 -0.047456 0.190807
0.090262 -0.047277 0.189941
0.090605 -0.046981 0.188600
0.091158 -0.046799 0.187708
0.091810 -0.046671 0.187026
0.092138 -0.046382 0.185692
0.092707 -0.046218 0.184854
0.093330 -0.046085 0.184128
0.093928 -0.045942 0.183354
0.094538 -0.045807 0.182605
0.095248 -0.045722 0.182049
0.095990 -0.045655 0.181550
-1.670083 -0.761644 3.115665
-1.652266 -0.760277 3.113693
-1.649885 -0.766054 3.140829
-1.636446 -0.766756 3.147024
-1.627607 -0.769647 3.162063
-1.624331 -0.775248 3.188115
-1.621575 -0.781205 3.215529
-1.608194 -0.782109 3.222023
-0.043903 -0.055933 0.231188
-0.042786 -0.055905 0.231009
-0.040942 -0.054902 0.226802
-0.039688 -0.054657 0.225726
-0.038550 -0.054562 0.225268
-0.037423 -0.054478 0.224862
-0.036368 -0.054497 0.224878
-0.035149 -0.054265 0.223859
-0.033753 -0.053735 0.221613
-0.032716 -0.053763 0.221669
-0.031836 -0.054057 0.222823
-0.031068 -0.054570 0.224879
-0.030028 -0.054626 0.225049
-0.029078 -0.054853 0.225928
-0.028409 -0.055650 0.229156
-0.027282 -0.055576 0.228795
-0.026282 -0.055766 0.229525
-0.025286 -0.055983 0.230361
-0.024250 -0.056127 0.230906
-0.023266 -0.056410 0.232015
-0.022184 -0.056472 0.232224
-0.021167 -0.056716 0.233179
-0.020114 -0.056883 0.233818
-0.019051 -0.057043 0.234431
-0.017995 -0.057240 0.235199
-0.016949 -0.057502 0.236234
-0.015895 -0.057772 0.237304
-0.014842 -0.058087 0.238559
-0.013724 -0.058177 0.238891
-0.012619 -0.058347 0.239554
-0.011527 -0.058617 0.240630
-0.010408 -0.058796 0.241333
-0.009292 -0.059034 0.242280
-0.008161 -0.059236 0.243086
-0.007016 -0.059381 0.243655
-0.005871 -0.059593 0.244502
-0.004705 -0.059631 0.244636
-0.003545 -0.059816 0.245379
-0.002380 -0.060041 0.246284
-0.001211 -0.060519 0.248229
-0.000023 -0.060591 0.248516
0.001175 -0.061061 0.250435
0.002372 -0.061003 0.250186
0.003582 -0.061214 0.251047
0.004798 -0.061392 0.251777
0.006016 -0.061524 0.252316
0.007247 -0.061722 0.253131
0.008511 -0.062095 0.254663
0.009752 -0.062236 0.255250
0.010994 -0.062349 0.255720
0.012252 -0.062519 0.256430
0.013537 -0.062784 0.257528
0.014726 -0.062597 0.256776
0.016094 -0.063141 0.259028
0.017349 -0.063196 0.259272
0.018638 -0.063356 0.259952
0.019885 -0.063363 0.260004
0.021178 -0.063508 0.260626
0.022519 -0.063773 0.261740
0.023815 -0.063889 0.262244
0.025123 -0.064024 0.262834
0.026469 -0.064238 0.263746
0.027811 -0.064423 0.264539
0.029131 -0.064543 0.265071
0.030510 -0.064778 0.266075
0.031831 -0.064875 0.266514
0.033181 -0.065024 0.267167
0.034547 -0.065189 0.267888
0.035776 -0.065095 0.267548
0.037058 -0.065100 0.267615
0.038333 -0.065092 0.267631
0.039571 -0.065024 0.267400
0.040758 -0.064879 0.266851
0.041852 -0.064599 0.265752
0.042662 -0.063910 0.262967
0.043437 -0.063210 0.260136
0.044467 -0.062909 0.258947
0.045615 -0.062786 0.258495
0.046796 -0.062715 0.258253
0.047951 -0.062614 0.257888
0.049030 -0.062420 0.257141
0.050115 -0.062244 0.256466
0.051284 -0.062177 0.256242
0.052369 -0.062014 0.255622
0.053294 -0.061673 0.254267
0.054369 -0.061517 0.253675
0.055437 -0.061361 0.253080
0.056499 -0.061204 0.252483
0.057493 -0.060982 0.251614
0.058478 -0.060759 0.250743
0.059569 -0.060653 0.250349
0.060498 -0.060389 0.249307
0.061461 -0.060170 0.248445
0.062544 -0.060073 0.248089
0.063476 -0.059838 0.247156
0.064404 -0.059607 0.246244
0.065194 -0.059259 0.244843
0.066017 -0.058954 0.243617
0.066750 -0.058579 0.242103
0.067301 -0.058060 0.239989
0.067890 -0.057590 0.238076
0.068228 -0.056927 0.235360
0.068511 -0.056240 0.232543
0.069011 -0.055751 0.230541
0.069345 -0.055144 0.228050
0.070060 -0.054854 0.226866
0.070471 -0.054339 0.224749
0.070929 -0.053874 0.222837
0.070710 -0.052917 0.218886
0.071229 -0.052532 0.217297
0.071527 -0.051997 0.215085
0.071942 -0.051560 0.213278
0.072000 -0.050885 0.210477
0.072597 -0.050603 0.209302
0.073483 -0.050527 0.208978
0.073998 -0.050202 0.207616
0.074391 -0.049803 0.205949
0.074804 -0.049428 0.204375
0.075542 -0.049275 0.203715
0.076168 -0.049054 0.202768
0.076909 -0.048911 0.202142
0.077574 -0.048723 0.201329
0.078288 -0.048571 0.200657
0.079001 -0.048422 0.199993
0.079751 -0.048299 0.199430
0.080650 -0.048268 0.199244
0.081580 -0.048255 0.199130
0.082385 -0.048171 0.198711
0.083225 -0.048108 0.198379
0.084035 -0.048030 0.197976
0.084847 -0.047954 0.197579
0.085607 -0.047850 0.197062
0.086176 -0.047644 0.196115
0.086935 -0.047546 0.195609
0.087663 -0.047433 0.195035
0.088071 -0.047152 0.193762
0.088636 -0.046958 0.192847
0.089121 -0.046728 0.191771
0.089824 -0.046615 0.191172
0.090269 -0.046372 0.190033
0.090772 -0.046163 0.189028
0.091276 -0.045959 0.188034
0.091743 -0.045740 0.186975
0.092383 -0.045611 0.186275
0.092728 -0.045340 0.184988
0.093154 -0.045113 0.183875
0.093812 -0.045003 0.183227
0.094516 -0.044916 0.182666
0.095016 -0.044734 0.181713
0.095796 -0.044687 0.181294
-1.668308 -0.745884 3.114012
-1.652204 -0.745310 3.115172
-1.648248 -0.750256 3.139257
-1.635801 -0.751393 3.147273
-1.625489 -0.753542 3.159382
-1.614769 -0.755540 3.170728
-1.604398 -0.757742 3.182795
-1.600774 -0.763203 3.208438
-1.586714 -0.763747 3.213289
-1.575300 -0.765587 3.223469
-1.566880 -0.768934 3.239877
-1.549995 -0.768152 3.238768
-1.546155 -0.773885 3.265018
-1.532691 -0.774869 3.271127
-1.514288 -0.773351 3.266555
-1.500832 -0.774355 3.272521
-1.479532 -0.779385 3.296920
-1.466303 -0.780607 3.303507
-1.459355 -0.785237 3.324420
-1.445664 -0.786300 3.330146
-0.047019 -0.055932 0.235879
-0.045953 -0.055994 0.236074
-0.043963 -0.054907 0.231422
-0.042290 -0.054170 0.228250
-0.041173 -0.054125 0.227996
-0.040115 -0.054156 0.228062
-0.038949 -0.054041 0.227512
-0.038010 -0.054243 0.228297
-0.036717 -0.053937 0.226944
-0.035398 -0.053573 0.225350
-0.034022 -0.053097 0.223285
-0.032749 -0.052757 0.221796
-0.031825 -0.052974 0.222649
-0.031137 -0.053614 0.225275
-0.030187 -0.053832 0.226134
-0.029271 -0.054129 0.227321
-0.028294 -0.054331 0.228114
-0.027310 -0.054537 0.228923
-0.026275 -0.054654 0.229358
-0.025269 -0.054843 0.230097
-0.024266 -0.055056 0.230937
-0.023246 -0.055249 0.231695
-0.022252 -0.055527 0.232813
-0.021151 -0.055554 0.232876
-0.020111 -0.055752 0.233657
-0.019071 -0.055975 0.234545
-0.018020 -0.056188 0.235397
-0.016996 -0.056523 0.236757
-0.015912 -0.056689 0.237410
-0.014813 -0.056824 0.237938
-0.013711 -0.056971 0.238518
-0.012588 -0.057051 0.238817
-0.011511 -0.057374 0.240135
-0.010415 -0.057662 0.241309
-0.009312 -0.057984 0.242625
-0.008169 -0.058110 0.243128
-0.007025 -0.058266 0.243756
-0.005873 -0.058412 0.244341
-0.004714 -0.058543 0.244871
-0.003551 -0.058687 0.245455
-0.002384 -0.058904 0.246343
-0.001212 -0.059241 0.247740
-0.000026 -0.059548 0.249013
0.001172 -0.059811 0.250103
0.002378 -0.060022 0.250978
0.003588 -0.060153 0.251521
0.004798 -0.060227 0.251828
0.006017 -0.060347 0.252330
0.007236 -0.060436 0.252704
0.008480 -0.060673 0.253697
0.009748 -0.061004 0.255087
0.011025 -0.061311 0.256380
0.012271 -0.061402 0.256776
0.013556 -0.061652 0.257833
0.014817 -0.061756 0.258286
0.016081 -0.061862 0.258747
0.017361 -0.062005 0.259363
0.018633 -0.062104 0.259803
0.019895 -0.062159 0.260056
0.021180 -0.062277 0.260576
0.022519 -0.062528 0.261657
0.023849 -0.062731 0.262537
0.025130 -0.062790 0.262815
0.026455 -0.062948 0.263514
0.027807 -0.063154 0.264412
0.029237 -0.063512 0.265948
0.030388 -0.063258 0.264928
0.031825 -0.063596 0.266382
0.033168 -0.063727 0.266976
0.034529 -0.063881 0.267666
0.035870 -0.063990 0.268169
0.037118 -0.063930 0.267965
0.038386 -0.063907 0.267919
0.039689 -0.063941 0.268113
0.040895 -0.063823 0.267668
0.042069 -0.063663 0.267047
0.043151 -0.063378 0.265904
0.043703 -0.062353 0.261656
0.044672 -0.061962 0.260068
0.045659 -0.061618 0.258678
0.046844 -0.061551 0.258452
0.047999 -0.061449 0.258075
0.049069 -0.061247 0.257280
0.050170 -0.061092 0.256683
0.051208 -0.060869 0.255798
0.052226 -0.060633 0.254864
0.053297 -0.060468 0.254223
0.054350 -0.060291 0.253528
0.055485 -0.060210 0.253241
0.056480 -0.059984 0.252342
0.057479 -0.059772 0.251501
0.058403 -0.059492 0.250369
0.059561 -0.059456 0.250268
0.060509 -0.059217 0.249308
0.061460 -0.058989 0.248395
0.062549 -0.058900 0.248065
0.063439 -0.058631 0.246973
0.064433 -0.058465 0.246316
0.065257 -0.058154 0.245047
0.066276 -0.058025 0.244540
0.067070 -0.057706 0.243233
0.067671 -0.057236 0.241282
0.067741 -0.056338 0.237530
0.068241 -0.055822 0.235384
0.068609 -0.055217 0.232857
0.069210 -0.054815 0.231186
0.069569 -0.054238 0.228772
0.069736 -0.053530 0.225806
0.069981 -0.052903 0.223177
0.070388 -0.052415 0.221131
0.070619 -0.051813 0.218600
0.071071 -0.051388 0.216812
0.071737 -0.051127 0.215717
0.072241 -0.050760 0.214169
0.072594 -0.050299 0.212218
0.073095 -0.049951 0.210745
0.073143 -0.049308 0.208020
0.073937 -0.049177 0.207456
0.074291 -0.048762 0.205686
0.075039 -0.048611 0.205032
0.075613 -0.048355 0.203925
0.076265 -0.048153 0.203047
0.077004 -0.048011 0.202414
0.077652 -0.047816 0.201555
0.078353 -0.047658 0.200850
0.079087 -0.047524 0.200239
0.079882 -0.047430 0.199791
0.080669 -0.047333 0.199325
0.081477 -0.047250 0.198917
0.082364 -0.047215 0.198702
0.083105 -0.047097 0.198136
0.083893 -0.047008 0.197687
0.084794 -0.046984 0.197505
0.085325 -0.046758 0.196465
0.086038 -0.046635 0.195855
0.086910 -0.046601 0.195611
0.087204 -0.046260 0.194073
0.087524 -0.045940 0.192621
0.088308 -0.045868 0.192200
0.088988 -0.045744 0.191554
0.089525 -0.045549 0.190608
0.090133 -0.045394 0.189821
0.090744 -0.045244 0.189046
0.091492 -0.045164 0.188559
0.091893 -0.044917 0.187363
0.092319 -0.044686 0.186232
0.092959 -0.044562 0.185539
0.093352 -0.044323 0.184359
0.094056 -0.044235 0.183799
0.094867 -0.044199 0.183444
0.095323 -0.043999 0.182401
0.095883 -0.043850 0.181563
-1.678557 -0.735426 3.134752
-1.658556 -0.733181 3.128691
-1.649063 -0.735584 3.142300
-1.635578 -0.736234 3.148276
-1.624979 -0.738208 3.159770
-1.613483 -0.739808 3.169529
-1.600412 -0.740710 3.176159
-1.589750 -0.742756 3.187565
-1.587635 -0.748874 3.216333
-1.569859 -0.747652 3.213461
-1.553016 -0.746855 3.212281
-1.542298 -0.749018 3.223710
-1.533308 -0.752072 3.238867
-1.511274 -0.748727 3.226342
-1.501462 -0.751431 3.239766
-1.494910 -0.755839 3.260445
-1.485640 -0.758952 3.275440
-1.472177 -0.759965 3.281278
-1.464070 -0.763795 3.299184
-1.438323 -0.758407 3.277166
-1.426643 -0.760400 3.286942
-1.417663 -0.763893 3.303113
-0.048298 -0.054992 0.236653
-0.046758 -0.054504 0.234485
-0.045407 -0.054218 0.233188
-0.044226 -0.054126 0.232720
-0.043113 -0.054115 0.232604
-0.041905 -0.053981 0.231958
-0.040899 -0.054107 0.232431
-0.039779 -0.054084 0.232266
-0.038657 -0.054059 0.232090
-0.037995 -0.054694 0.234747
-0.035219 -0.052231 0.224115
-0.034167 -0.052253 0.224143
-0.032907 -0.051945 0.222762
-0.031903 -0.052038 0.223097
-0.031186 -0.052620 0.225531
-0.030205 -0.052782 0.226164
-0.029258 -0.053017 0.227114
-0.028335 -0.053317 0.228341
-0.027342 -0.053503 0.229081
-0.026362 -0.053730 0.229996
-0.025313 -0.053833 0.230380
-0.024305 -0.054035 0.231190
-0.023300 -0.054263 0.232114
-0.022255 -0.054418 0.232724
-0.021176 -0.054500 0.233026
-0.020155 -0.054749 0.234041
-0.019089 -0.054897 0.234630
-0.018123 -0.055369 0.236602
-0.017018 -0.055454 0.236922
-0.015922 -0.055582 0.237427
-0.014830 -0.055743 0.238074
-0.013737 -0.055927 0.238822
-0.012625 -0.056060 0.239353
-0.011538 -0.056345 0.240538
-0.010435 -0.056606 0.241619
-0.009296 -0.056709 0.242029
-0.008173 -0.056956 0.243057
-0.007017 -0.057019 0.243298
-0.005876 -0.057245 0.244238
-0.004718 -0.057390 0.244838
-0.003555 -0.057542 0.245465
-0.002385 -0.057688 0.246072
-0.001211 -0.057909 0.247003
-0.000028 -0.058148 0.248009
0.001166 -0.058442 0.249256
0.002371 -0.058718 0.250423
0.003587 -0.058976 0.251520
0.004796 -0.059021 0.251711
0.006015 -0.059148 0.252253
0.007237 -0.059255 0.252708
0.008487 -0.059528 0.253878
0.009734 -0.059711 0.254665
0.010981 -0.059856 0.255296
0.012263 -0.060146 0.256544
0.013558 -0.060438 0.257802
0.014840 -0.060626 0.258624
0.016096 -0.060689 0.258911
0.017371 -0.060808 0.259440
0.018645 -0.060907 0.259887
0.019922 -0.061007 0.260337
0.021205 -0.061109 0.260802
0.022478 -0.061173 0.261104
0.023823 -0.061415 0.262167
0.025136 -0.061554 0.262795
0.026435 -0.061648 0.263234
0.027940 -0.062191 0.265589
0.029154 -0.062068 0.265103
0.030593 -0.062415 0.266629
0.031945 -0.062561 0.267296
0.033259 -0.062627 0.267622
0.034553 -0.062650 0.267767
0.035893 -0.062753 0.268255
0.037207 -0.062803 0.268517
0.038448 -0.062732 0.268266
0.039720 -0.062714 0.268239
0.040979 -0.062677 0.268135
0.042170 -0.062541 0.267608
0.043251 -0.062256 0.266443
0.044063 -0.061611 0.263735
0.044711 -0.060777 0.260220
0.045647 -0.060370 0.258534
0.046795 -0.060258 0.258107
0.048078 -0.060321 0.258433
0.049103 -0.060064 0.257388
0.050091 -0.059777 0.256210
0.051141 -0.059575 0.255400
0.052275 -0.059478 0.255040
0.053357 -0.059328 0.254451
0.054448 -0.059193 0.253928
0.055542 -0.059068 0.253445
0.056626 -0.058938 0.252941
0.057650 -0.058752 0.252195
0.058494 -0.058394 0.250710
0.059615 -0.058321 0.250447
0.060514 -0.058039 0.249284
0.061453 -0.057805 0.248326
0.062582 -0.057754 0.248155
0.063557 -0.057566 0.247392
0.064397 -0.057265 0.246143
0.065251 -0.056987 0.244991
0.065866 -0.056514 0.242995
0.066820 -0.056342 0.242295
0.067431 -0.055892 0.240398
0.067614 -0.055108 0.237059
0.067981 -0.054498 0.234464
0.068801 -0.054264 0.233487
0.069420 -0.053883 0.231872
0.069509 -0.053107 0.228559
0.069420 -0.052222 0.224768
0.070143 -0.051965 0.223680
0.070451 -0.051414 0.221321
0.070628 -0.050783 0.218620
0.070831 -0.050190 0.216077
0.071322 -0.049815 0.214466
0.071922 -0.049525 0.213222
0.072406 -0.049165 0.211671
0.072774 -0.048737 0.209822
0.073273 -0.048407 0.208396
0.074006 -0.048238 0.207658
0.074513 -0.047929 0.206311
0.075103 -0.047680 0.205222
0.075775 -0.047489 0.204377
0.076466 -0.047315 0.203600
0.077162 -0.047148 0.202852
0.077835 -0.046971 0.202056
0.078504 -0.046796 0.201265
0.079248 -0.046669 0.200676
0.080019 -0.046561 0.200164
0.080796 -0.046459 0.199673
0.081627 -0.046390 0.199318
0.082323 -0.046247 0.198640
0.083120 -0.046164 0.198213
0.083842 -0.046040 0.197611
0.084557 -0.045916 0.196997
0.085207 -0.045760 0.196242
0.085875 -0.045616 0.195535
0.086636 -0.045524 0.195046
0.087250 -0.045358 0.194232
0.087831 -0.045179 0.193354
0.088422 -0.045008 0.192509
0.089046 -0.044858 0.191742
0.089585 -0.044668 0.190803
0.090228 -0.044533 0.190091
0.090795 -0.044364 0.189225
0.091332 -0.044184 0.188305
0.091996 -0.044068 0.187652
0.092285 -0.043776 0.186245
0.092814 -0.043603 0.185333
0.093402 -0.043460 0.184547
0.094071 -0.043357 0.183919
0.094847 -0.043306 0.183501
0.095434 -0.043170 0.182713
0.096111 -0.043076 0.182099
-1.679332 -0.720720 3.137751
-1.666184 -0.721491 3.144576
-1.645387 -0.718935 3.136726
-1.637965 -0.722230 3.154251
-1.623320 -0.722373 3.157869
-1.610151 -0.723182 3.164254
-1.603135 -0.726797 3.182788
-1.588154 -0.726836 3.185536
-1.575959 -0.728164 3.193802
-1.569544 -0.732214 3.213893
-1.552874 -0.731514 3.213015
-1.537805 -0.731562 3.215296
-1.528752 -0.734503 3.230176
-1.511085 -0.733323 3.226823
-1.499514 -0.735107 3.236401
-1.492209 -0.739043 3.255350
-1.480862 -0.741038 3.265657
-1.471374 -0.744016 3.280198
-1.467973 -0.750168 3.308648
-1.445752 -0.746732 3.294714
-1.429296 -0.746232 3.293633
-1.417914 -0.748400 3.304234
-0.051501 -0.054889 0.241217
-0.050232 -0.054752 0.240540
-0.048361 -0.053936 0.236883
-0.046952 -0.053609 0.235377
-0.045838 -0.053612 0.235319
-0.044722 -0.053612 0.235244
-0.043651 -0.053668 0.235421
-0.042437 -0.053547 0.234816
-0.041457 -0.053721 0.235509
-0.040600 -0.054070 0.236969
-0.039400 -0.053969 0.236454
-0.038258 -0.053943 0.236273
-0.035472 -0.051528 0.225628
-0.034086 -0.051060 0.223516
-0.032942 -0.050935 0.222904
-0.031927 -0.051008 0.223162
-0.031045 -0.051308 0.224410
-0.030261 -0.051795 0.226480
-0.029250 -0.051916 0.226947
-0.028433 -0.052404 0.229021
-0.027416 -0.052547 0.229588
-0.026374 -0.052652 0.229989
-0.025360 -0.052826 0.230693
-0.024342 -0.053007 0.231426
-0.023321 -0.053197 0.232202
-0.022276 -0.053350 0.232818
-0.021220 -0.053491 0.233381
-0.020161 -0.053640 0.233983
-0.019097 -0.053792 0.234601
-0.018061 -0.054045 0.235658
-0.017047 -0.054405 0.237181
-0.015928 -0.054456 0.237364
-0.014838 -0.054625 0.238060
-0.013733 -0.054757 0.238598
-0.012629 -0.054923 0.239283
-0.011541 -0.055195 0.240434
-0.010454 -0.055537 0.241891
-0.009306 -0.055596 0.242117
-0.008177 -0.055806 0.243005
-0.007033 -0.055961 0.243653
-0.005888 -0.056169 0.244533
-0.004730 -0.056325 0.245193
-0.003561 -0.056424 0.245604
-0.002387 -0.056495 0.245896
-0.001214 -0.056731 0.246912
-0.000031 -0.056884 0.247565
0.001169 -0.057532 0.250377
0.002374 -0.057634 0.250810
0.003577 -0.057657 0.250905
0.004796 -0.057850 0.251747
0.006016 -0.057973 0.252282
0.007248 -0.058152 0.253060
0.008496 -0.058388 0.254093
0.009725 -0.058454 0.254390
0.010968 -0.058580 0.254949
0.012230 -0.058770 0.255786
0.013547 -0.059166 0.257524
0.014811 -0.059280 0.258040
0.016115 -0.059529 0.259140
0.017393 -0.059651 0.259696
0.018668 -0.059745 0.260130
0.019952 -0.059857 0.260644
0.021218 -0.059903 0.260872
0.022542 -0.060099 0.261755
0.023849 -0.060231 0.262362
0.025174 -0.060395 0.263112
0.026482 -0.060503 0.263620
0.027898 -0.060834 0.265103
0.029251 -0.061009 0.265905
0.030628 -0.061214 0.266842
0.031935 -0.061269 0.267126
0.033256 -0.061345 0.267507
0.034600 -0.061458 0.268046
0.035931 -0.061540 0.268454
0.037218 -0.061543 0.268517
0.038491 -0.061522 0.268479
0.039769 -0.061512 0.268486
0.041035 -0.061484 0.268418
0.042276 -0.061421 0.268202
0.043372 -0.061158 0.267106
0.044363 -0.060766 0.265452
0.044896 -0.059785 0.261224
0.045789 -0.059324 0.259267
0.046864 -0.059118 0.258420
0.048035 -0.059039 0.258133
0.049041 -0.058766 0.256998
0.050042 -0.058501 0.255897
0.051148 -0.058368 0.255370
0.052319 -0.058314 0.255191
0.053382 -0.058145 0.254508
0.054433 -0.057971 0.253801
0.055507 -0.057828 0.253232
0.056535 -0.057643 0.252479
0.057650 -0.057554 0.252143
0.058539 -0.057247 0.250853
0.059551 -0.057071 0.250132
0.060605 -0.056940 0.249610
0.061541 -0.056706 0.248634
0.062540 -0.056537 0.247944
0.063529 -0.056367 0.247242
0.064519 -0.056203 0.246571
0.065391 -0.055944 0.245479
0.066268 -0.055699 0.244444
0.066788 -0.055166 0.242148
0.067716 -0.054983 0.241382
0.068030 -0.054316 0.238491
0.068724 -0.053970 0.237003
0.068415 -0.052859 0.232155
0.069001 -0.052464 0.230450
0.069487 -0.052007 0.228467
0.070150 -0.051695 0.227118
0.070093 -0.050869 0.223510
0.070541 -0.050428 0.221591
0.070258 -0.049487 0.217467
0.070771 -0.049125 0.215888
0.071788 -0.049118 0.215864
0.071807 -0.048438 0.212880
0.072071 -0.047939 0.210692
0.072432 -0.047518 0.208840
0.073318 -0.047449 0.208530
0.074042 -0.047277 0.207768
0.074577 -0.046991 0.206498
0.075178 -0.046754 0.205440
0.075815 -0.046545 0.204499
0.076521 -0.046383 0.203764
0.077226 -0.046224 0.203038
0.077940 -0.046074 0.202350
0.078660 -0.045932 0.201687
0.079414 -0.045812 0.201121
0.080214 -0.045722 0.200681
0.080881 -0.045559 0.199914
0.081544 -0.045398 0.199150
0.082369 -0.045329 0.198788
0.082902 -0.045103 0.197730
0.083585 -0.044962 0.197044
0.084292 -0.044838 0.196424
0.084993 -0.044713 0.195794
0.085773 -0.044632 0.195351
0.086485 -0.044518 0.194758
0.087248 -0.044432 0.194282
0.087897 -0.044290 0.193556
0.088568 -0.044163 0.192887
0.089276 -0.044056 0.192300
0.089853 -0.043887 0.191437
0.090396 -0.043706 0.190512
0.091026 -0.043569 0.189778
0.091527 -0.043374 0.188781
0.092001 -0.043171 0.187739
0.092310 -0.042894 0.186374
0.092904 -0.042754 0.185596
0.093363 -0.042556 0.184555
0.093930 -0.042409 0.183732
0.094856 -0.042426 0.183609
0.095382 -0.042265 0.182708
0.095918 -0.042112 0.181830
-1.683620 -0.707477 3.147261
-1.658703 -0.703258 3.131887
-1.644938 -0.703735 3.137246
-1.638786 -0.707508 3.157160
-1.621812 -0.706636 3.156207
-1.609006 -0.707582 3.163225
-1.596074 -0.708490 3.169942
-1.585257 -0.710364 3.180848
-1.573795 -0.711983 3.190490
-1.561070 -0.713058 3.197569
-1.551016 -0.715385 3.210151
-1.540436 -0.717515 3.221733
-1.527410 -0.718537 3.228231
-1.521527 -0.722974 3.249968
-1.508203 -0.723931 3.255960
-1.496061 -0.725481 3.264513
-1.481006 -0.725637 3.266690
-1.476061 -0.730802 3.291321
-1.462575 -0.731804 3.297114
-1.444460 -0.730487 3.292357
-1.429122 -0.730563 3.293777
-1.414303 -0.730908 3.296321
-0.054872 -0.054827 0.246158
-0.053656 -0.054775 0.245851
-0.051567 -0.053810 0.241446
-0.050057 -0.053420 0.239623
-0.048796 -0.053283 0.238933
-0.047605 -0.053218 0.238567
-0.046498 -0.053246 0.238618
-0.045292 -0.053160 0.238158
-0.044199 -0.053206 0.238288
-0.043088 -0.053231 0.238327
-0.041956 -0.053231 0.238255
-0.040783 -0.053178 0.237943
-0.039768 -0.053332 0.238562
-0.038672 -0.053386 0.238730
-0.035062 -0.049867 0.222925
-0.034041 -0.049926 0.223124
-0.033042 -0.050021 0.223485
-0.032043 -0.050123 0.223876
-0.031181 -0.050453 0.225288
-0.030268 -0.050723 0.226427
-0.029355 -0.051012 0.227656
-0.028365 -0.051183 0.228361
-0.027404 -0.051424 0.229375
-0.026392 -0.051586 0.230038
-0.025335 -0.051669 0.230351
-0.024348 -0.051907 0.231358
-0.023306 -0.052048 0.231930
-0.022306 -0.052303 0.233011
-0.021251 -0.052446 0.233597
-0.020179 -0.052561 0.234061
-0.019138 -0.052775 0.234965
-0.018120 -0.053086 0.236301
-0.017085 -0.053381 0.237571
-0.015965 -0.053439 0.237788
-0.014886 -0.053651 0.238687
-0.013791 -0.053832 0.239456
-0.012661 -0.053905 0.239740
-0.011588 -0.054256 0.241269
-0.010441 -0.054298 0.241424
-0.009318 -0.054494 0.242263
-0.008183 -0.054666 0.243001
-0.007037 -0.054808 0.243604
-0.005888 -0.054973 0.244314
-0.004729 -0.055115 0.244922
-0.003568 -0.055311 0.245774
-0.002396 -0.055474 0.246484
-0.001216 -0.055552 0.246816
-0.000033 -0.055720 0.247547
0.001160 -0.056021 0.248879
0.002369 -0.056374 0.250437
0.003575 -0.056455 0.250794
0.004783 -0.056515 0.251058
0.006001 -0.056649 0.251655
0.007228 -0.056802 0.252338
0.008463 -0.056969 0.253086
0.009693 -0.057060 0.253498
0.010942 -0.057233 0.254273
0.012201 -0.057418 0.255108
0.013576 -0.058063 0.257993
0.014867 -0.058275 0.258952
0.016159 -0.058455 0.259770
0.017423 -0.058513 0.260052
0.018712 -0.058645 0.260663
0.019967 -0.058660 0.260758
0.021250 -0.058749 0.261183
0.022531 -0.058823 0.261542
0.023909 -0.059131 0.262946
0.025218 -0.059244 0.263483
0.026511 -0.059311 0.263821
0.027886 -0.059545 0.264902
0.029280 -0.059799 0.266075
0.030641 -0.059968 0.266870
0.032066 -0.060243 0.268139
0.033332 -0.060208 0.268032
0.034627 -0.060227 0.268166
0.035988 -0.060355 0.268788
0.037304 -0.060402 0.269050
0.038568 -0.060364 0.268936
0.039843 -0.060344 0.268901
0.041133 -0.060349 0.268977
0.042396 -0.060315 0.268884
0.043622 -0.060231 0.268569
0.044485 -0.059665 0.266101
0.045064 -0.058760 0.262123
0.045875 -0.058199 0.259679
0.046963 -0.058009 0.258889
0.047996 -0.057763 0.257853
0.049063 -0.057569 0.257045
0.050172 -0.057432 0.256491
0.051316 -0.057341 0.256145
0.052410 -0.057200 0.255572
0.053472 -0.057031 0.254876
0.054504 -0.056838 0.254071
0.055532 -0.056649 0.253285
0.056609 -0.056517 0.252752
0.057561 -0.056269 0.251701
0.058515 -0.056033 0.250698
0.059639 -0.055965 0.250450
0.060545 -0.055699 0.249313
0.061519 -0.055505 0.248498
0.062480 -0.055307 0.247663
0.063553 -0.055214 0.247296
0.064480 -0.054999 0.246381
0.065430 -0.054811 0.245586
0.065819 -0.054169 0.242751
0.066937 -0.054137 0.242653
0.067858 -0.053951 0.241860
0.068615 -0.053643 0.240514
0.067437 -0.051856 0.232537
0.068000 -0.051445 0.230726
0.068697 -0.051146 0.229416
0.069694 -0.051076 0.229129
0.069878 -0.050422 0.226222
0.070474 -0.050080 0.224710
0.071109 -0.049776 0.223364
0.071511 -0.049320 0.221337
0.070912 -0.048197 0.216308
0.071201 -0.047701 0.214094
0.071700 -0.047357 0.212558
0.072301 -0.047090 0.211363
0.072581 -0.046624 0.209273
0.073230 -0.046404 0.208282
0.073939 -0.046228 0.207484
0.074578 -0.046013 0.206510
0.075210 -0.045799 0.205537
0.075852 -0.045597 0.204611
0.076508 -0.045408 0.203742
0.077216 -0.045255 0.203028
0.077970 -0.045132 0.202446
0.078630 -0.044958 0.201633
0.079397 -0.044848 0.201102
0.080061 -0.044684 0.200324
0.080732 -0.044528 0.199574
0.081547 -0.044453 0.199187
0.082116 -0.044248 0.198210
0.082732 -0.044073 0.197362
0.083506 -0.043984 0.196896
0.084163 -0.043837 0.196164
0.084816 -0.043690 0.195430
0.085520 -0.043573 0.194822
0.086352 -0.043523 0.194506
0.087084 -0.043424 0.193967
0.087668 -0.043255 0.193107
0.088216 -0.043071 0.192176
0.088986 -0.042998 0.191735
0.089663 -0.042882 0.191095
0.090219 -0.042711 0.190203
0.090612 -0.042467 0.188980
0.091351 -0.042389 0.188488
0.092013 -0.042277 0.187837
0.092407 -0.042045 0.186646
0.092979 -0.041897 0.185825
0.093541 -0.041748 0.184987
0.094119 -0.041609 0.184188
0.094755 -0.041498 0.183501
0.095430 -0.041406 0.182892
0.096033 -0.041284 0.182143
-1.688931 -0.694578 3.158635
-1.663429 -0.690227 3.142194
-1.645993 -0.689174 3.140583
-1.643550 -0.694437 3.167619
-1.626090 -0.693395 3.165760
-1.610798 -0.693268 3.167923
-1.598324 -0.694363 3.175535
-1.587025 -0.695995 3.185475
-1.574233 -0.696998 3.192408
-1.564262 -0.699282 3.205091
-1.553840 -0.701407 3.216936
-1.540496 -0.702244 3.222753
-1.531900 -0.705284 3.238573
-1.518972 -0.706371 3.245318
-1.505301 -0.707133 3.250458
-1.493883 -0.708979 3.260483
-1.480148 -0.709753 3.265475
-1.468881 -0.711741 3.275950
-1.458002 -0.713961 3.287400
-1.443544 -0.714458 3.290823
-1.424228 -0.712536 3.283008
-1.408696 -0.712487 3.283723
-1.399032 -0.715438 3.298180
-0.057842 -0.054257 0.248991
-0.056736 -0.054326 0.249231
-0.054939 -0.053722 0.246386
-0.053181 -0.053132 0.243601
-0.051731 -0.052830 0.242138
-0.050465 -0.052705 0.241492
-0.049220 -0.052598 0.240925
-0.048274 -0.052814 0.241834
-0.046960 -0.052627 0.240903
-0.045771 -0.052576 0.240590
-0.045307 -0.053374 0.244167
-0.044034 -0.053237 0.243463
-0.042315 -0.052539 0.240195
-0.041054 -0.052387 0.239427
-0.039957 -0.052442 0.239600
-0.036002 -0.048639 0.222158
-0.035001 -0.048717 0.222447
-0.034033 -0.048847 0.222972
-0.033108 -0.049050 0.223835
-0.032135 -0.049193 0.224419
-0.031151 -0.049328 0.224972
-0.030302 -0.049694 0.226574
-0.029288 -0.049808 0.227031
-0.028317 -0.050004 0.227864
-0.027349 -0.050224 0.228806
-0.026328 -0.050359 0.229360
-0.025378 -0.050648 0.230620
-0.024320 -0.050740 0.230979
