ply
format ascii 1.0
element vertex 1744
property float x
property float y
property float z
end_header
-0.276000 0.064356 1.035424
-0.271124 0.064367 1.035086
-0.266281 0.064386 1.034878
-0.260955 0.064287 1.032767
-0.255570 0.064169 1.030357
-0.249790 0.063945 1.026247
-0.243605 0.063607 1.020302
-0.236723 0.063069 1.011163
-0.229455 0.062404 0.999992
-0.222202 0.061714 0.988446
-0.214976 0.061003 0.976555
-0.208450 0.060463 0.967422
-0.198845 0.058985 0.943301
-0.191650 0.058170 0.929797
-0.184108 0.057208 0.913971
-0.176887 0.056302 0.899048
-0.169240 0.055212 0.881201
-0.164287 0.054967 0.876869
-0.157481 0.054073 0.862187
-0.101532 0.044133 0.701092
-0.098264 0.044181 0.701555
-0.031826 0.015366 0.243799
-0.030681 0.015381 0.243944
-0.029375 0.015314 0.242773
-0.028184 0.015303 0.242509
-0.026866 0.015219 0.241098
-0.025514 0.015108 0.239251
-0.024238 0.015033 0.237978
-0.022929 0.014930 0.236265
-0.021305 0.014599 0.230958
-0.019967 0.014439 0.228358
-0.018723 0.014333 0.226599
-0.017594 0.014306 0.226113
-0.016494 0.014301 0.225977
-0.015286 0.014196 0.224250
-0.014079 0.014074 0.222279
-0.012953 0.014021 0.221389
-0.011863 0.014001 0.221014
-0.010788 0.013996 0.220890
-0.009316 0.013418 0.211736
-0.008211 0.013291 0.209699
-0.007214 0.013328 0.210237
-0.006272 0.013496 0.212866
-0.005285 0.013615 0.214703
-0.004289 0.013760 0.216978
-0.003239 0.013776 0.217203
-0.002193 0.013826 0.217980
-0.001141 0.013904 0.219184
-0.000077 0.014015 0.220927
0.001004 0.014140 0.222882
0.002100 0.014227 0.224248
0.003194 0.014249 0.224601
0.004295 0.014284 0.225151
0.005419 0.014365 0.226429
0.006526 0.014381 0.226702
0.007677 0.014474 0.228180
0.008811 0.014516 0.228859
0.009958 0.014569 0.229706
0.011104 0.014608 0.230350
0.012265 0.014659 0.231177
0.013423 0.014698 0.231818
0.014571 0.014720 0.232202
0.015743 0.014762 0.232895
0.016944 0.014824 0.233911
0.018110 0.014848 0.234345
0.019308 0.014895 0.235126
0.020451 0.014896 0.235196
0.021650 0.014936 0.235881
0.022851 0.014973 0.236522
0.024083 0.015026 0.237412
0.025344 0.015091 0.238510
0.026542 0.015115 0.238948
0.027727 0.015129 0.239244
0.029038 0.015209 0.240571
0.030289 0.015251 0.241322
0.031504 0.015274 0.241756
0.032824 0.015343 0.242933
0.034083 0.015381 0.243610
0.035291 0.015393 0.243891
0.036529 0.015418 0.244360
0.037703 0.015414 0.244397
0.038871 0.015409 0.244398
0.040111 0.015431 0.244847
0.041336 0.015447 0.245190
0.042603 0.015476 0.245755
0.043865 0.015503 0.246276
0.045134 0.015530 0.246809
0.046466 0.015578 0.247659
0.047795 0.015621 0.248455
0.049120 0.015662 0.249201
0.050312 0.015658 0.249254
0.051540 0.015667 0.249491
0.052913 0.015717 0.250405
0.054411 0.015802 0.251862
0.056512 0.016054 0.255990
0.057345 0.015943 0.254329
0.058564 0.015942 0.254415
0.059857 0.015960 0.254820
0.061170 0.015983 0.255294
0.062591 0.016033 0.256197
0.064176 0.016122 0.257727
0.066000 0.016266 0.260145
0.066955 0.016195 0.259115
0.068270 0.016212 0.259494
0.069806 0.016279 0.260685
0.071316 0.016339 0.261743
0.072545 0.016333 0.261756
0.073872 0.016349 0.262116
0.075293 0.016385 0.262793
0.076757 0.016429 0.263599
0.078656 0.016563 0.265851
0.080629 0.016708 0.268278
0.082134 0.016753 0.269098
0.083364 0.016741 0.269008
0.084573 0.016725 0.268851
0.085953 0.016744 0.269236
0.087089 0.016715 0.268856
0.088339 0.016708 0.268833
0.089679 0.016718 0.269080
0.090920 0.016710 0.269025
0.091966 0.016667 0.268401
0.091860 0.016419 0.264477
0.092000 0.016220 0.261351
0.092508 0.016092 0.259337
0.093175 0.015994 0.257816
0.094063 0.015935 0.256932
0.094693 0.015836 0.255370
0.095740 0.015807 0.254958
0.096457 0.015726 0.253681
0.097466 0.015693 0.253192
0.098397 0.015649 0.252511
0.099244 0.015593 0.251627
0.100179 0.015551 0.250980
0.101051 0.015501 0.250186
0.101813 0.015436 0.249139
0.102536 0.015366 0.248013
0.103067 0.015269 0.246450
0.103512 0.015162 0.244711
0.103927 0.015053 0.242933
0.104710 0.014999 0.242041
0.104719 0.014836 0.239390
0.105239 0.014749 0.237947
0.105755 0.014662 0.236516
0.106494 0.014609 0.235603
0.106967 0.014520 0.234119
0.107671 0.014464 0.233157
0.108549 0.014432 0.232578
0.109312 0.014386 0.231761
0.110081 0.014342 0.230962
0.110717 0.014281 0.229893
0.111333 0.014219 0.228795
0.111845 0.014144 0.227495
0.112585 0.014100 0.226670
0.113288 0.014052 0.225778
0.114042 0.014012 0.224992
0.114832 0.013976 0.224278
0.115827 0.013966 0.223963
0.116726 0.013944 0.223456
-1.645699 0.206702 3.102330
-1.630767 0.206672 3.103961
-1.603482 0.205061 3.081708
-1.590434 0.205258 3.086479
-1.589388 0.207022 3.114701
-1.545319 0.203163 3.058181
-1.558014 0.206763 3.113836
-1.543398 0.206774 3.115330
-1.521077 0.205742 3.101005
-1.525254 0.208309 3.140821
-1.530898 0.211129 3.184367
-1.525883 0.212520 3.206275
-1.527639 0.214892 3.242883
-1.535134 0.218126 3.292438
-0.696090 0.099916 1.508441
-0.697614 0.101166 1.527573
-0.685842 0.100494 1.517637
-0.680156 0.100710 1.521053
-0.676335 0.101209 1.528714
-0.668118 0.101054 1.526453
-0.660098 0.100925 1.524556
-0.651700 0.100735 1.521696
-0.642407 0.100401 1.516620
-0.635051 0.100366 1.516022
-0.626368 0.100118 1.512172
-0.616533 0.099678 1.505392
-0.606475 0.099191 1.497873
-0.597794 0.098920 1.493593
-0.588317 0.098510 1.487174
-0.578928 0.098104 1.480804
-0.571084 0.097954 1.478259
-0.562160 0.097613 1.472802
-0.554295 0.097449 1.469998
-0.546622 0.097315 1.467628
-0.537504 0.096918 1.461253
-0.529072 0.096635 1.456589
-0.519684 0.096168 1.449129
-0.509837 0.095602 1.440167
-0.499971 0.095017 1.430903
-0.490238 0.094442 1.421774
-0.478475 0.093455 1.406423
-0.465432 0.092186 1.386834
-0.454188 0.091243 1.372133
-0.442870 0.090257 1.356786
-0.437217 0.090413 1.358608
-0.423310 0.088842 1.334462
-0.404311 0.086139 1.293319
-0.394650 0.085372 1.281270
-0.386618 0.084940 1.274230
-0.373878 0.083442 1.251221
-0.300192 0.069191 1.036580
-0.294766 0.069070 1.034303
-0.289700 0.069032 1.033247
-0.285904 0.069300 1.036769
-0.280883 0.069276 1.035906
-0.275911 0.069263 1.035211
-0.271042 0.069275 1.034897
-0.266238 0.069305 1.034839
-0.261012 0.069225 1.033124
-0.255562 0.069081 1.030459
-0.249795 0.068843 1.026404
-0.244080 0.068611 1.022434
-0.236803 0.067921 1.011647
-0.229273 0.067129 0.999344
-0.221645 0.066273 0.986110
-0.214741 0.065602 0.975633
-0.206864 0.064597 0.960206
-0.198484 0.063386 0.941733
-0.189312 0.061860 0.918600
-0.182436 0.061030 0.905820
-0.176703 0.060551 0.898262
-0.168582 0.059209 0.877921
-0.163165 0.058772 0.871027
-0.156655 0.057909 0.857817
-0.104824 0.047475 0.700983
-0.101565 0.047527 0.701459
-0.031765 0.016511 0.243384
-0.030500 0.016461 0.242554
-0.029161 0.016366 0.241052
-0.027957 0.016342 0.240608
-0.026702 0.016285 0.239679
-0.025386 0.016183 0.238095
-0.024181 0.016146 0.237472
-0.022810 0.015990 0.235091
-0.021445 0.015820 0.232525
-0.020045 0.015606 0.229297
-0.018951 0.015618 0.229409
-0.017668 0.015467 0.227123
-0.016476 0.015380 0.225788
-0.015310 0.015307 0.224658
-0.014087 0.015161 0.222465
-0.012950 0.015092 0.221392
-0.011811 0.015007 0.220107
-0.010632 0.014851 0.217763
-0.009386 0.014554 0.213380
-0.008254 0.014386 0.210868
-0.007238 0.014397 0.210999
-0.006295 0.014583 0.213704
-0.005272 0.014621 0.214225
-0.004265 0.014732 0.215833
-0.003232 0.014798 0.216779
-0.002178 0.014787 0.216588
-0.001141 0.014980 0.219408
-0.000076 0.015035 0.220203
0.002104 0.015344 0.224717
0.003194 0.015339 0.224637
0.004300 0.015392 0.225411
0.005416 0.015452 0.226304
0.006520 0.015465 0.226498
0.007641 0.015508 0.227145
0.008795 0.015598 0.228478
0.009939 0.015652 0.229286
0.011110 0.015734 0.230506
0.012235 0.015741 0.230643
0.013376 0.015767 0.231043
0.014536 0.015808 0.231683
0.015692 0.015840 0.232182
0.016902 0.015918 0.233364
0.018150 0.016020 0.234902
0.019291 0.016020 0.234956
0.020490 0.016067 0.235690
0.021624 0.016059 0.235634
0.022890 0.016146 0.236966
0.024087 0.016179 0.237499
0.025318 0.016229 0.238307
0.026518 0.016256 0.238768
0.027655 0.016244 0.238659
0.028868 0.016277 0.239201
0.030184 0.016362 0.240528
0.031452 0.016416 0.241396
0.032717 0.016464 0.242181
0.033982 0.016509 0.242921
0.035216 0.016536 0.243408
0.036434 0.016554 0.243762
0.037605 0.016551 0.243803
0.038790 0.016553 0.243925
0.040052 0.016588 0.244524
0.041351 0.016635 0.245316
0.042562 0.016645 0.245559
0.043794 0.016662 0.245910
0.045069 0.016695 0.246490
0.046403 0.016747 0.247359
0.047707 0.016786 0.248035
0.049081 0.016847 0.249039
0.050136 0.016798 0.248416
0.051388 0.016816 0.248785
0.052772 0.016875 0.249770
0.054274 0.016969 0.251257
0.056264 0.017207 0.254899
0.057492 0.017208 0.255014
0.058670 0.017193 0.254909
0.059897 0.017194 0.255021
0.061124 0.017194 0.255133
0.062672 0.017283 0.256557
0.063943 0.017293 0.256820
0.065351 0.017339 0.257613
0.066802 0.017395 0.258548
0.068262 0.017451 0.259491
0.069620 0.017479 0.260017
0.071078 0.017531 0.260895
0.072536 0.017581 0.261748
0.073781 0.017579 0.261815
0.075078 0.017589 0.262065
0.076496 0.017626 0.262726
0.079174 0.017948 0.267622
0.080808 0.018027 0.268893
0.082164 0.018042 0.269216
0.083359 0.018022 0.269010
0.084558 0.018003 0.268824
0.085896 0.018014 0.269075
0.087190 0.018016 0.269185
0.088337 0.017987 0.268843
0.089644 0.017992 0.268991
0.090890 0.017984 0.268952
0.092110 0.017971 0.268837
0.091251 0.017559 0.262736
0.092018 0.017466 0.261414
0.092280 0.017281 0.258711
0.093051 0.017196 0.257481
0.093915 0.017129 0.256536
0.094771 0.017063 0.255590
0.095686 0.017008 0.254821
0.096426 0.016925 0.253606
0.097295 0.016866 0.252752
0.098262 0.016825 0.252168
0.099161 0.016773 0.251421
0.100070 0.016725 0.250710
0.100897 0.016663 0.249807
0.101729 0.016605 0.248933
0.102523 0.016541 0.247981
0.103223 0.016464 0.246820
0.102608 0.016181 0.242572
0.102860 0.016040 0.240437
0.103507 0.015962 0.239257
0.103949 0.015855 0.237626
0.104625 0.015786 0.236553
0.105239 0.015709 0.235357
0.106005 0.015656 0.234513
0.106956 0.015631 0.234087
0.107622 0.015565 0.233042
0.108397 0.015517 0.232243
0.109263 0.015482 0.231645
0.110004 0.015430 0.230787
0.110740 0.015378 0.229927
0.111301 0.015304 0.228715
0.112180 0.015274 0.228162
0.113057 0.015245 0.227605
0.113555 0.015165 0.226293
0.114327 0.015123 0.225537
0.115180 0.015093 0.224939
0.115953 0.015052 0.224185
0.116754 0.015017 0.223489
-1.655365 0.222723 3.120266
-1.642916 0.223039 3.126816
-1.616071 0.221388 3.105650
-1.603719 0.221711 3.112023
-1.564246 0.220294 3.095430
-1.557687 0.221439 3.112990
-1.543068 0.221449 3.114485
-1.532230 0.222007 3.123578
-1.532187 0.224155 3.154945
-1.535379 0.226823 3.193546
-1.528554 0.228049 3.211759
-1.525605 0.229884 3.238451
-1.532149 0.233200 3.285932
-1.519148 0.233579 3.291936
-0.696207 0.108149 1.524457
-0.688010 0.107988 1.522406
-0.679238 0.107733 1.518979
-0.675427 0.108267 1.526646
-0.668854 0.108366 1.528124
-0.661070 0.108268 1.526796
-0.652504 0.108038 1.523573
-0.643390 0.107712 1.518948
-0.636051 0.107679 1.518422
-0.627699 0.107471 1.515405
-0.617905 0.107009 1.508765
-0.609539 0.106787 1.505469
-0.600005 0.106352 1.499152
-0.591293 0.106054 1.494739
-0.581656 0.105581 1.487829
-0.573229 0.105319 1.483861
-0.564504 0.104995 1.478999
-0.556254 0.104753 1.475256
-0.548605 0.104618 1.473019
-0.539760 0.104250 1.467456
-0.531251 0.103937 1.462666
-0.522863 0.103641 1.458076
-0.513419 0.103124 1.450371
-0.503642 0.102526 1.441502
-0.494223 0.101985 1.433426
-0.483656 0.101189 1.421753
-0.471004 0.099928 1.403541
-0.460263 0.099042 1.390592
-0.448760 0.097964 1.374944
-0.435745 0.096520 1.354148
-0.423151 0.095127 1.334079
-0.411501 0.093908 1.316442
-0.399220 0.092505 1.296232
-0.391302 0.092085 1.289796
-0.382015 0.091324 1.278583
-0.376596 0.091479 1.280178
-0.300072 0.074083 1.036277
-0.294591 0.073940 1.033806
-0.289144 0.073801 1.031383
-0.285409 0.074102 1.035100
-0.280603 0.074130 1.035001
-0.275432 0.074061 1.033545
-0.270638 0.074093 1.033489
-0.265807 0.074116 1.033303
-0.260629 0.074041 1.031750
-0.255294 0.073917 1.029519
-0.249597 0.073682 1.025738
-0.243843 0.073420 1.021586
-0.237291 0.072903 1.013884
-0.230540 0.072301 1.005016
-0.222297 0.071197 0.989166
-0.214275 0.070116 0.973670
-0.207297 0.069337 0.962372
-0.202992 0.069437 0.963282
-0.189221 0.066229 0.918314
-0.181553 0.065055 0.901590
-0.176457 0.064767 0.897165
-0.170142 0.064007 0.886206
-0.163716 0.063165 0.874124
-0.159737 0.063248 0.874854
-0.113161 0.051577 0.711761
-0.104501 0.049114 0.677474
-0.101892 0.049429 0.681512
-0.099179 0.049712 0.685120
-0.031865 0.017741 0.244202
-0.030426 0.017589 0.242014
-0.029182 0.017543 0.241280
-0.027935 0.017491 0.240473
-0.026705 0.017445 0.239761
-0.025391 0.017338 0.238201
-0.024140 0.017266 0.237126
-0.022859 0.017164 0.235646
-0.021608 0.017075 0.234352
-0.020234 0.016874 0.231518
-0.018949 0.016727 0.229440
-0.017551 0.016457 0.225671
-0.016544 0.016542 0.226772
-0.015315 0.016401 0.224791
-0.014039 0.016185 0.221770
-0.012870 0.016066 0.220084
-0.011745 0.015985 0.218930
-0.010541 0.015770 0.215950
-0.009274 0.015405 0.210903
-0.008250 0.015401 0.210815
-0.007217 0.015378 0.210471
-0.006242 0.015491 0.211977
-0.005241 0.015572 0.213059
-0.004264 0.015780 0.215879
-0.002202 0.016020 0.219134
-0.001150 0.016179 0.221287
-0.000077 0.016457 0.225082
0.001012 0.016410 0.224428
0.003192 0.016416 0.224497
0.004289 0.016441 0.224845
0.005407 0.016522 0.225960
0.006509 0.016535 0.226147
0.007635 0.016596 0.226985
0.008769 0.016656 0.227829
0.009917 0.016728 0.228831
0.011063 0.016780 0.229562
0.012230 0.016853 0.230586
0.013374 0.016884 0.231038
0.014509 0.016900 0.231293
0.015667 0.016938 0.231850
0.016872 0.017019 0.232996
0.018062 0.017075 0.233802
0.019265 0.017136 0.234688
0.020398 0.017131 0.234665
0.021676 0.017243 0.236249
0.022897 0.017299 0.237077
0.024112 0.017346 0.237786
0.025307 0.017375 0.238244
0.026491 0.017395 0.238573
0.027678 0.017414 0.238901
0.028884 0.017443 0.239375
0.030160 0.017511 0.240380
0.031447 0.017580 0.241396
0.032719 0.017635 0.242235
0.033978 0.017680 0.242935
0.035216 0.017712 0.243449
0.036413 0.017721 0.243668
0.037588 0.017719 0.243727
0.038797 0.017734 0.244013
0.039983 0.017736 0.244142
0.041195 0.017750 0.244425
0.042472 0.017791 0.245074
0.043682 0.017801 0.245320
0.045080 0.017886 0.246587
0.046401 0.017937 0.247385
0.047703 0.017978 0.248048
0.049010 0.018019 0.248714
0.050153 0.017998 0.248536
0.051444 0.018031 0.249094
0.052856 0.018104 0.250202
0.054527 0.018260 0.252464
0.056378 0.018468 0.255450
0.057539 0.018446 0.255256
0.058629 0.018403 0.254763
0.059916 0.018422 0.255131
0.061359 0.018487 0.256145
0.062697 0.018519 0.256690
0.063907 0.018512 0.256704
0.065293 0.018556 0.257415
0.066667 0.018594 0.258055
0.068169 0.018666 0.259164
0.069597 0.018716 0.259958
0.071014 0.018761 0.260689
0.072461 0.018812 0.261502
0.073822 0.018840 0.261986
0.075286 0.018892 0.262817
0.076574 0.018899 0.263017
0.079440 0.019289 0.268545
0.080575 0.019253 0.268142
0.082002 0.019287 0.268708
0.083151 0.019256 0.268361
0.084457 0.019261 0.268523
0.085752 0.019263 0.268643
0.087045 0.019265 0.268757
0.088277 0.019253 0.268677
0.089450 0.019230 0.268424
0.090736 0.019230 0.268512
0.091659 0.019155 0.267535
0.091360 0.018830 0.263063
0.091535 0.018610 0.260054
0.092197 0.018494 0.258489
0.093201 0.018449 0.257908
0.094023 0.018369 0.256840
0.094905 0.018302 0.255961
0.095841 0.018248 0.255241
0.096705 0.018181 0.254346
0.097550 0.018113 0.253421
0.098284 0.018026 0.252230
0.099121 0.017959 0.251323
0.099903 0.017885 0.250295
0.100560 0.017790 0.248975
0.101226 0.017698 0.247703
0.101770 0.017588 0.246159
0.102653 0.017538 0.245458
0.102548 0.017322 0.242428
0.103142 0.017228 0.241092
0.103880 0.017160 0.240115
0.104155 0.017018 0.238093
0.104395 0.016872 0.236026
0.104970 0.016784 0.234748
0.105987 0.016767 0.234466
0.106783 0.016716 0.233699
0.107512 0.016656 0.232794
0.108357 0.016615 0.232147
0.109069 0.016554 0.231222
0.109867 0.016508 0.230488
0.110681 0.016464 0.229792
0.111049 0.016356 0.228183
0.111910 0.016322 0.227597
0.112644 0.016270 0.226757
0.113186 0.016192 0.225541
0.114080 0.016165 0.225029
0.114813 0.016116 0.224203
0.115637 0.016080 0.223554
0.116606 0.016065 0.223183
-1.642586 0.237818 3.125900
-1.599813 0.233730 3.074138
-1.572478 0.231843 3.051150
-1.563903 0.234886 3.094530
-1.551471 0.235215 3.100359
-1.551266 0.237423 3.130838
-1.546010 0.238892 3.151488
-1.544228 0.240932 3.179571
-1.538274 0.242354 3.199414
-1.530818 0.243566 3.216377
-1.523239 0.244781 3.233302
-1.521829 0.247023 3.263689
-1.520435 0.249313 3.294625
-0.692092 0.114655 1.515408
-0.682620 0.114263 1.510447
-0.672559 0.113763 1.504017
-0.672956 0.115040 1.521040
-0.664707 0.114850 1.518636
-0.658274 0.114974 1.520331
-0.652436 0.115205 1.523416
-0.643630 0.114912 1.519521
-0.636350 0.114887 1.519148
-0.629117 0.114871 1.518845
-0.620568 0.114611 1.515292
-0.611491 0.114247 1.510322
-0.602852 0.113956 1.506302
-0.594253 0.113667 1.502263
-0.583827 0.113016 1.493429
-0.575855 0.112831 1.490715
-0.567713 0.112607 1.487466
-0.559199 0.112303 1.483134
-0.551221 0.112101 1.480114
-0.543122 0.111868 1.476672
-0.534364 0.111492 1.471318
-0.526238 0.111239 1.467574
-0.516773 0.110693 1.459939
-0.506493 0.109955 1.449758
-0.496998 0.109370 1.441577
-0.486554 0.108557 1.430377
-0.474630 0.107386 1.414456
-0.462418 0.106115 1.397219
-0.450792 0.104945 1.381288
-0.440346 0.104018 1.368569
-0.427032 0.102376 1.346438
-0.414384 0.100847 1.325792
-0.401594 0.099236 1.304071
-0.393684 0.098799 1.297780
-0.382846 0.097602 1.281503
-0.377414 0.097766 1.283101
-0.299171 0.078767 1.033286
-0.294554 0.078841 1.033797
-0.289106 0.078692 1.031373
-0.285138 0.078948 1.034244
-0.280485 0.079020 1.034700
-0.275311 0.078945 1.033227
-0.270544 0.078986 1.033270
-0.265751 0.079021 1.033228
-0.260471 0.078910 1.031273
-0.255072 0.078758 1.028779
-0.249395 0.078512 1.025063
-0.243649 0.078234 1.020933
-0.237182 0.077709 1.013575
-0.230157 0.076975 1.003508
-0.221816 0.075761 0.987188
-0.214190 0.074743 0.973449
-0.207635 0.074062 0.964106
-0.198465 0.072397 0.941964
-0.194239 0.072500 0.942836
-0.179045 0.068416 0.889294
-0.173038 0.067730 0.879944
-0.167242 0.067094 0.871263
-0.163629 0.067324 0.873830
-0.113098 0.054972 0.711517
-0.105717 0.052986 0.685507
-0.102374 0.052961 0.684883
-0.101194 0.054091 0.699199
-0.033907 0.019415 0.250753
-0.031990 0.018994 0.245215
-0.030436 0.018764 0.242154
-0.029114 0.018665 0.240781
-0.028036 0.018720 0.241403
-0.026581 0.018517 0.238705
-0.025107 0.018283 0.235596
-0.023944 0.018263 0.235261
-0.022697 0.018174 0.234038
-0.021298 0.017947 0.231045
-0.020066 0.017845 0.229660
-0.018897 0.017790 0.228878
-0.017788 0.017788 0.228787
-0.016467 0.017558 0.225775
-0.015267 0.017436 0.224145
-0.014108 0.017344 0.222912
-0.012823 0.017070 0.219343
-0.011754 0.017060 0.219163
-0.010494 0.016744 0.215063
-0.009390 0.016634 0.213612
-0.008356 0.016637 0.213607
-0.007339 0.016677 0.214091
-0.006294 0.016658 0.213815
-0.005266 0.016687 0.214151
-0.004239 0.016733 0.214717
-0.001139 0.017101 0.219384
-0.000076 0.017341 0.222455
0.003190 0.017490 0.224352
0.004300 0.017576 0.225458
0.005415 0.017642 0.226308
0.006515 0.017647 0.226378
0.007630 0.017684 0.226865
0.008750 0.017722 0.227377
0.009899 0.017804 0.228440
0.011036 0.017850 0.229054
0.012214 0.017946 0.230317
0.013370 0.017998 0.231015
0.014578 0.018107 0.232439
0.015711 0.018113 0.232550
0.016884 0.018160 0.233202
0.018031 0.018176 0.233445
0.019271 0.018278 0.234806
0.020476 0.018337 0.235606
0.021454 0.018198 0.233872
0.022890 0.018441 0.237054
0.024084 0.018476 0.237552
0.025329 0.018544 0.238489
0.026500 0.018555 0.238694
0.027660 0.018557 0.238792
0.028900 0.018611 0.239549
0.030138 0.018659 0.240245
0.031374 0.018703 0.240880
0.032583 0.018727 0.241273
0.033962 0.018844 0.242864
0.035168 0.018861 0.243161
0.036351 0.018865 0.243292
0.037551 0.018877 0.243531
0.038730 0.018878 0.243634
0.039913 0.018880 0.243755
0.041138 0.018902 0.244132
0.042326 0.018906 0.244273
0.043595 0.018945 0.244872
0.044830 0.018968 0.245261
0.046388 0.019122 0.247355
0.047668 0.019157 0.247909
0.049043 0.019228 0.248919
0.050244 0.019228 0.249029
0.051417 0.019218 0.248998
0.052729 0.019259 0.249636
0.054557 0.019483 0.252639
0.055967 0.019551 0.253625
0.057488 0.019653 0.255065
0.058491 0.019578 0.254195
0.059664 0.019562 0.254092
0.061185 0.019659 0.255453
0.062842 0.019794 0.257317
0.064136 0.019812 0.257658
0.065460 0.019838 0.258106
0.066844 0.019881 0.258772
0.068125 0.019893 0.259027
0.069414 0.019906 0.259305
0.070906 0.019976 0.260319
0.072594 0.020098 0.262010
0.073993 0.020137 0.262621
0.075330 0.020158 0.262997
0.076681 0.020182 0.263409
0.079202 0.020508 0.267765
0.080631 0.020546 0.268351
0.081955 0.020556 0.268578
0.083287 0.020568 0.268822
0.084501 0.020550 0.268684
0.085881 0.020573 0.269067
0.087142 0.020567 0.269073
0.088308 0.020539 0.268791
0.089500 0.020518 0.268593
0.090703 0.020500 0.268428
0.091706 0.020438 0.267685
0.092317 0.020291 0.265833
0.091358 0.019808 0.259564
0.092312 0.019747 0.258823
0.093214 0.019677 0.257955
0.094040 0.019592 0.256897
0.094777 0.019492 0.255624
0.095746 0.019441 0.254995
0.096681 0.019384 0.254290
0.097437 0.019294 0.253134
0.098244 0.019215 0.252132
0.099088 0.019146 0.251241
0.100050 0.019101 0.250663
0.100952 0.019045 0.249947
0.101528 0.018930 0.248443
0.102481 0.018887 0.247879
0.103262 0.018814 0.246912
0.101245 0.018238 0.239344
0.101770 0.018128 0.237882
0.103090 0.018161 0.238285
0.103606 0.018052 0.236831
0.104263 0.017971 0.235721
0.104876 0.017883 0.234531
0.105784 0.017847 0.234010
0.106611 0.017798 0.233312
0.107326 0.017732 0.232381
0.108223 0.017697 0.231849
0.109061 0.017653 0.231194
0.109839 0.017600 0.230414
0.110661 0.017555 0.229735
0.111363 0.017492 0.228811
0.112005 0.017422 0.227773
0.112819 0.017378 0.227090
0.113637 0.017337 0.226419
0.114165 0.017252 0.225177
0.114941 0.017206 0.224431
0.115819 0.017176 0.223884
0.116605 0.017133 0.223157
-1.624530 0.249865 3.091229
-1.608366 0.249627 3.090283
-1.604064 0.251241 3.112161
-1.565322 0.254506 3.158993
-1.548824 0.254243 3.157029
-1.542736 0.255700 3.176316
-1.535676 0.257023 3.193844
-1.532782 0.259077 3.220350
-1.524494 0.260251 3.235830
-1.520267 0.262148 3.260215
-1.520017 0.264777 3.293611
-1.519738 0.267455 3.327530
-0.679881 0.120896 1.504350
-0.672219 0.120790 1.503227
-0.669748 0.121626 1.513769
-0.666202 0.122281 1.522037
-0.659066 0.122285 1.522154
-0.653533 0.122589 1.525976
-0.647712 0.122846 1.529164
-0.640684 0.122877 1.529507
-0.632886 0.122759 1.527965
-0.625216 0.122664 1.526666
-0.615763 0.122212 1.520904
-0.606928 0.121874 1.516523
-0.597147 0.121336 1.509623
-0.588572 0.121033 1.505616
-0.579481 0.120615 1.500158
-0.571061 0.120328 1.496301
-0.563054 0.120122 1.493426
-0.554483 0.119789 1.488945
-0.546210 0.119513 1.485149
-0.537412 0.119113 1.479795
-0.527973 0.118558 1.472504
-0.518535 0.117989 1.465012
-0.508636 0.117299 1.455996
-0.498922 0.116633 1.447265
-0.488639 0.115813 1.436619
-0.477799 0.114837 1.424017
-0.466757 0.113783 1.410449
-0.455849 0.112732 1.396908
-0.444539 0.111549 1.381729
-0.433045 0.110284 1.365531
-0.421145 0.108877 1.347561
-0.405904 0.106548 1.318206
-0.394310 0.105120 1.299987
-0.383447 0.103843 1.283659
-0.378004 0.104018 1.285258
-0.298896 0.083595 1.032458
-0.294321 0.083686 1.033111
-0.289081 0.083586 1.031417
-0.284851 0.083781 1.033342
-0.280235 0.083867 1.033918
-0.275357 0.083876 1.033547
-0.270284 0.083825 1.032428
-0.265400 0.083832 1.032016
-0.260270 0.083760 1.030631
-0.254851 0.083590 1.028045
-0.249127 0.083312 1.024123
-0.243581 0.083083 1.020814
-0.237357 0.082609 1.014492
-0.230336 0.081832 1.004462
-0.222127 0.080592 0.988747
-0.214089 0.079360 0.973160
-0.206803 0.078359 0.960415
-0.202506 0.078472 0.961321
-0.178910 0.072622 0.888796
-0.171611 0.071355 0.872857
-0.165093 0.070357 0.860241
-0.115596 0.057934 0.706367
-0.112337 0.058002 0.706887
-0.107675 0.057328 0.698360
-0.104110 0.057213 0.696657
-0.101134 0.057425 0.698942
-0.097877 0.057487 0.699400
-0.033886 0.020611 0.250660
-0.032031 0.020202 0.245587
-0.030414 0.019918 0.242036
-0.029183 0.019874 0.241405
-0.028013 0.019869 0.241261
-0.026810 0.019840 0.240821
-0.025350 0.019609 0.237936
-0.024115 0.019539 0.237003
-0.022879 0.019461 0.235975
-0.021679 0.019406 0.235244
-0.020559 0.019423 0.235369
-0.019329 0.019330 0.234171
-0.018034 0.019157 0.232017
-0.016842 0.019077 0.230988
-0.015678 0.019020 0.230242
-0.014556 0.019011 0.230067
-0.013445 0.019014 0.230052
-0.012293 0.018955 0.229289
-0.010935 0.018534 0.224157
-0.009806 0.018454 0.223145
-0.008735 0.018474 0.223350
-0.007622 0.018400 0.222422
-0.006355 0.017870 0.215987
-0.005298 0.017835 0.215529
-0.003251 0.018075 0.218387
-0.002182 0.017994 0.217388
-0.001143 0.018240 0.220348
-0.000074 0.018299 0.221048
0.001014 0.018593 0.224595
0.002094 0.018503 0.223499
0.003190 0.018570 0.224310
0.004298 0.018656 0.225342
0.005407 0.018711 0.226017
0.006513 0.018738 0.226347
0.007628 0.018779 0.226850
0.008773 0.018873 0.228011
0.009909 0.018930 0.228719
0.011062 0.019004 0.229625
0.012209 0.019055 0.230276
0.013375 0.019124 0.231135
0.014552 0.019198 0.232063
0.015682 0.019203 0.232159
0.016834 0.019232 0.232551
0.018025 0.019300 0.233413
0.019208 0.019351 0.234075
0.020316 0.019326 0.233816
0.021593 0.019455 0.235432
0.022830 0.019537 0.236474
0.024101 0.019639 0.237770
0.025262 0.019646 0.237914
0.026484 0.019698 0.238601
0.027641 0.019698 0.238677
0.028857 0.019739 0.239242
0.030053 0.019764 0.239616
0.031293 0.019815 0.240302
0.032546 0.019870 0.241047
0.033874 0.019965 0.242280
0.035112 0.020003 0.242822
0.036296 0.020008 0.242968
0.037469 0.020008 0.243046
0.038657 0.020014 0.243215
0.039832 0.020015 0.243307
0.041011 0.020016 0.243417
0.042277 0.020060 0.244036
0.043616 0.020134 0.245035
0.045523 0.020460 0.249096
0.046521 0.020370 0.248105
0.047696 0.020361 0.248093
0.048690 0.020277 0.247169
0.049724 0.020213 0.246487
0.051402 0.020408 0.248969
0.052943 0.020541 0.250689
0.054232 0.020572 0.251174
0.055596 0.020630 0.251978
0.056955 0.020683 0.252736
0.058133 0.020670 0.252676
0.059622 0.020765 0.253951
0.061215 0.020893 0.255611
0.062739 0.020992 0.256930
0.063972 0.020991 0.257030
0.065296 0.021020 0.257491
0.066588 0.021038 0.257812
0.068009 0.021095 0.258616
0.069242 0.021093 0.258691
0.070623 0.021135 0.259312
0.072023 0.021181 0.259978
0.073872 0.021356 0.262218
0.075268 0.021396 0.262807
0.076474 0.021381 0.262724
0.079112 0.021761 0.267486
0.080563 0.021807 0.268151
0.081815 0.021799 0.268142
0.083211 0.021828 0.268598
0.084485 0.021826 0.268655
0.085715 0.021812 0.268569
0.087123 0.021843 0.269035
0.088423 0.021847 0.269160
0.089451 0.021784 0.268463
0.090773 0.021793 0.268654
0.091688 0.021706 0.267648
0.092158 0.021518 0.265390
0.091097 0.020981 0.258835
0.091889 0.020881 0.257650
0.093037 0.020862 0.257476
0.093895 0.020780 0.256511
0.094890 0.020730 0.255936
0.095821 0.020668 0.255204
0.096712 0.020598 0.254380
0.097516 0.020512 0.253343
0.098140 0.020390 0.251868
0.098856 0.020291 0.250658
0.099212 0.020120 0.248567
0.100234 0.020088 0.248171
0.101105 0.020025 0.247407
0.101657 0.019903 0.245887
0.102700 0.019877 0.245565
0.102562 0.019626 0.242454
0.102455 0.019387 0.239479
0.102685 0.019216 0.237344
0.103499 0.019157 0.236581
0.104259 0.019089 0.235706
0.104889 0.018999 0.234551
0.105633 0.018932 0.233666
0.106490 0.018886 0.233038
0.107345 0.018840 0.232410
0.108169 0.018790 0.231720
0.108993 0.018741 0.231034
0.109697 0.018672 0.230102
0.110479 0.018618 0.229341
0.111030 0.018527 0.228109
0.111673 0.018452 0.227079
0.112521 0.018413 0.226472
0.113154 0.018339 0.225436
0.113970 0.018296 0.224770
0.114813 0.018258 0.224157
0.115410 0.018182 0.223067
0.116350 0.018161 0.222643
-1.564923 0.269369 3.157959
-1.551868 0.269688 3.163020
-1.544210 0.270961 3.179157
-1.541468 0.273129 3.205708
-1.531791 0.274099 3.218104
-1.524651 0.275547 3.236013
-1.519370 0.277363 3.258157
-1.516160 0.279599 3.285136
-1.519289 0.283061 3.326444
-1.506094 0.283522 3.332400
-0.660504 0.125648 1.477000
-0.663657 0.127589 1.499975
-0.658311 0.127920 1.503991
-0.656319 0.128918 1.515799
-0.652751 0.129625 1.524145
-0.647403 0.129990 1.528438
-0.642492 0.130451 1.533835
-0.634547 0.130300 1.531992
-0.627038 0.130237 1.531141
-0.618375 0.129929 1.527387
-0.609583 0.129587 1.523196
-0.600372 0.129146 1.517820
-0.591764 0.128826 1.513833
-0.582923 0.128447 1.509125
-0.574522 0.128157 1.505433
-0.565264 0.127666 1.499359
-0.556384 0.127249 1.494129
-0.547860 0.126904 1.489720
-0.538648 0.126388 1.483290
-0.529517 0.125878 1.476905
-0.520731 0.125437 1.471318
-0.511585 0.124898 1.464545
-0.501824 0.124190 1.455796
-0.493201 0.123749 1.450150
-0.482758 0.122832 1.438919
-0.471772 0.121749 1.425734
-0.461462 0.120812 1.414244
-0.449383 0.119377 1.396924
-0.436918 0.117795 1.377887
-0.423062 0.115785 1.353839
-0.412620 0.114662 1.340165
-0.402485 0.113590 1.327092
-0.388098 0.111266 1.299386
-0.382587 0.111452 1.301003
-0.298143 0.088274 1.029992
-0.293984 0.088491 1.032062
-0.288632 0.088350 1.029954
-0.284373 0.088544 1.031751
-0.279856 0.088664 1.032669
-0.274984 0.088673 1.032297
-0.270020 0.088653 1.031573
-0.264914 0.088584 1.030286
-0.259838 0.088523 1.029085
-0.254447 0.088350 1.026581
-0.248839 0.088094 1.023110
-0.243280 0.087846 1.019728
-0.236996 0.087319 1.013127
-0.229921 0.086474 1.002831
-0.221297 0.084998 0.985228
-0.214182 0.084050 0.973767
-0.207077 0.083064 0.961874
-0.197979 0.081215 0.940010
-0.113921 0.060442 0.696298
-0.111311 0.060842 0.700596
-0.105770 0.059616 0.686171
-0.103258 0.060072 0.691128
-0.101069 0.060753 0.698670
-0.031446 0.021802 0.250318
-0.030269 0.021822 0.250461
-0.028919 0.021715 0.249137
-0.027600 0.021622 0.247981
-0.026471 0.021677 0.248529
-0.025178 0.021597 0.247522
-0.023965 0.021580 0.247245
-0.021969 0.020820 0.238462
-0.020781 0.020784 0.237977
-0.019528 0.020674 0.236648
-0.018172 0.020435 0.233858
-0.016974 0.020355 0.232869
-0.015654 0.020105 0.229956
-0.014539 0.020102 0.229870
-0.013327 0.019953 0.228115
-0.012222 0.019951 0.228037
-0.010906 0.019570 0.223637
-0.009884 0.019692 0.224990
-0.008656 0.019382 0.221412
-0.007454 0.019052 0.217606
-0.006391 0.019026 0.217277
-0.005299 0.018886 0.215657
-0.001148 0.019398 0.221423
-0.000074 0.019497 0.222544
0.001010 0.019582 0.223503
0.002106 0.019699 0.224833
0.003170 0.019532 0.222922
0.004277 0.019648 0.224250
0.005403 0.019789 0.225866
0.006531 0.019889 0.227007
0.007655 0.019947 0.227692
0.008778 0.019988 0.228173
0.009918 0.020056 0.228966
0.011042 0.020079 0.229247
0.012236 0.020215 0.230832
0.013363 0.020226 0.230987
0.014573 0.020351 0.232438
0.015697 0.020346 0.232421
0.016837 0.020362 0.232643
0.018025 0.020430 0.233457
0.019191 0.020466 0.233917
0.020373 0.020515 0.234521
0.021579 0.020581 0.235321
0.022793 0.020648 0.236143
0.024045 0.020741 0.237266
0.025259 0.020794 0.237928
0.026442 0.020818 0.238270
0.027631 0.020844 0.238636
0.028832 0.020878 0.239087
0.030073 0.020935 0.239819
0.031276 0.020964 0.240224
0.032505 0.021007 0.240789
0.033806 0.021093 0.241846
0.035066 0.021147 0.242551
0.036230 0.021142 0.242576
0.037401 0.021141 0.242648
0.038585 0.021148 0.242810
0.039732 0.021134 0.242739
0.040959 0.021162 0.243154
0.042292 0.021242 0.244167
0.044768 0.021876 0.251549
0.045723 0.021753 0.250233
0.046560 0.021582 0.248356
0.047589 0.021506 0.247579
0.048833 0.021528 0.247938
0.050150 0.021581 0.248642
0.052257 0.021963 0.253149
0.054966 0.022575 0.260309
0.055980 0.022479 0.259309
0.055863 0.021943 0.253228
0.057035 0.021926 0.253131
0.058161 0.021892 0.252838
0.059447 0.021918 0.253242
0.060506 0.021861 0.252687
0.062339 0.022080 0.255325
0.063705 0.022129 0.255993
0.065209 0.022223 0.257183
0.066521 0.022249 0.257588
0.067952 0.022313 0.258434
0.069259 0.022335 0.258788
0.070757 0.022416 0.259834
0.072232 0.022488 0.260763
0.073964 0.022635 0.262574
0.075241 0.022641 0.262741
0.076858 0.022748 0.264072
0.079030 0.023012 0.267237
0.080478 0.023061 0.267894
0.081738 0.023054 0.267913
0.082979 0.023043 0.267873
0.084332 0.023063 0.268191
0.085634 0.023068 0.268337
0.086935 0.023073 0.268475
0.088204 0.023070 0.268512
0.089461 0.023063 0.268512
0.090596 0.023026 0.268146
0.091559 0.022946 0.267288
0.091060 0.022507 0.262241
0.091307 0.022262 0.259445
0.092010 0.022134 0.258001
0.092923 0.022058 0.257170
0.093988 0.022020 0.256775
0.094974 0.021965 0.256173
0.095814 0.021878 0.255192
0.096717 0.021807 0.254398
0.097543 0.021720 0.253420
0.098402 0.021644 0.252546
0.099250 0.021566 0.251660
0.099974 0.021464 0.250480
0.100814 0.021388 0.249607
0.101569 0.021297 0.248544
0.101909 0.021122 0.246494
0.101961 0.020891 0.243797
0.102601 0.020785 0.242544
0.102909 0.020615 0.240537
0.103326 0.020470 0.238818
0.103594 0.020299 0.236790
0.104353 0.020227 0.235911
0.104857 0.020108 0.234471
0.105641 0.020044 0.233672
0.106549 0.020004 0.233154
0.107255 0.019928 0.232203
0.108198 0.019897 0.231768
0.109024 0.019846 0.231085
0.109723 0.019772 0.230141
0.110478 0.019710 0.229320
0.110904 0.019591 0.227833
0.111574 0.019517 0.226859
0.112435 0.019478 0.226278
0.113058 0.019398 0.225224
0.113773 0.019336 0.224359
0.114566 0.019287 0.223650
0.115199 0.019213 0.222634
0.116037 0.019174 0.222017
-1.571471 0.285488 3.170925
-1.558884 0.285921 3.177093
-1.548884 0.286842 3.188567
-1.537463 0.287516 3.197186
-1.530537 0.289051 3.215291
-1.525433 0.290965 3.237512
-1.516911 0.292259 3.252740
-1.511575 0.294200 3.275072
-1.508224 0.296570 3.302107
-1.499267 0.297876 3.317199
-1.486093 0.298363 3.323078
-0.654244 0.132749 1.478674
-0.657587 0.134860 1.502316
-0.655261 0.135842 1.513342
-0.651148 0.136471 1.520396
-0.647300 0.137170 1.528198
-0.642131 0.137602 1.532982
-0.636153 0.137868 1.535886
-0.628071 0.137679 1.533688
-0.621335 0.137784 1.534731
-0.612244 0.137363 1.529884
-0.603451 0.137000 1.525650
-0.595339 0.136785 1.523033
-0.585525 0.136168 1.515922
-0.576422 0.135704 1.510479
-0.567604 0.135296 1.505638
-0.557172 0.134488 1.496326
-0.548668 0.134131 1.492002
-0.539307 0.133552 1.485195
-0.530191 0.133020 1.478884
-0.521302 0.132532 1.473039
-0.512919 0.132160 1.468474
-0.503957 0.131627 1.462101
-0.494423 0.130927 1.453867
-0.485570 0.130391 1.447432
-0.475023 0.129379 1.435693
-0.463157 0.127972 1.419576
-0.452537 0.126874 1.406872
-0.437294 0.124427 1.379219
-0.421885 0.121859 1.350223
-0.412040 0.120843 1.338437
-0.401379 0.119553 1.323604
-0.395780 0.119753 1.325270
-0.297552 0.092979 1.028084
-0.293558 0.093257 1.030710
-0.288520 0.093207 1.029702
-0.283882 0.093287 1.030120
-0.279649 0.093506 1.032063
-0.274674 0.093479 1.031291
-0.269740 0.093466 1.030669
-0.264754 0.093434 1.029831
-0.259505 0.093306 1.027937
-0.254276 0.093181 1.026068
-0.248440 0.092824 1.021651
-0.242279 0.092329 1.015713
-0.236355 0.091906 1.010574
-0.229178 0.090968 0.999776
-0.221330 0.089719 0.985568
-0.214598 0.088877 0.975849
-0.208137 0.088113 0.966991
-0.200728 0.086903 0.953258
-0.030205 0.022982 0.249997
-0.028691 0.022737 0.247235
-0.027424 0.022675 0.246474
-0.026170 0.022618 0.245771
-0.025017 0.022647 0.246003
-0.023664 0.022489 0.244213
-0.022396 0.022400 0.243171
-0.021138 0.022312 0.242137
-0.019835 0.022163 0.240449
-0.018398 0.021836 0.236843
-0.016820 0.021287 0.230827
-0.015632 0.021190 0.229718
-0.014457 0.021096 0.228645
-0.013338 0.021075 0.228363
-0.012214 0.021044 0.227973
-0.011021 0.020873 0.226083
-0.009805 0.020619 0.223284
-0.008635 0.020408 0.220961
-0.007476 0.020168 0.218330
-0.006414 0.020153 0.218145
-0.002153 0.019852 0.214793
-0.001142 0.020381 0.220497
0.003196 0.020775 0.224740
0.004303 0.020857 0.225630
0.005410 0.020908 0.226179
0.006518 0.020944 0.226579
0.007652 0.021041 0.227638
0.008788 0.021117 0.228475
0.009921 0.021169 0.229060
0.011079 0.021261 0.230071
0.012186 0.021245 0.229929
0.013324 0.021282 0.230357
0.014549 0.021441 0.232103
0.015711 0.021491 0.232687
0.016850 0.021505 0.232870
0.018069 0.021613 0.234083
0.019217 0.021628 0.234292
0.020378 0.021654 0.234625
0.021548 0.021688 0.235035
0.022672 0.021674 0.234944
0.023994 0.021842 0.236814
0.025199 0.021892 0.237420
0.026426 0.021957 0.238179
0.027590 0.021965 0.238335
0.028844 0.022042 0.239235
0.030053 0.022079 0.239715
0.031273 0.022122 0.240251
0.032490 0.022159 0.240731
0.033709 0.022196 0.241201
0.034958 0.022249 0.241857
0.036121 0.022245 0.241893
0.037261 0.022228 0.241795
0.038427 0.022227 0.241867
0.039664 0.022265 0.242372
0.040858 0.022278 0.242602
0.042263 0.022403 0.244048
0.044250 0.022820 0.248687
0.045300 0.022745 0.247962
0.046408 0.022702 0.247594
0.047569 0.022687 0.247523
0.048578 0.022601 0.246685
0.050325 0.022855 0.249555
0.053826 0.023875 0.260795
0.055214 0.023933 0.261531
0.055980 0.023724 0.259352
0.056816 0.023553 0.257592
0.057241 0.023223 0.254083
0.058529 0.023250 0.254479
0.059527 0.023162 0.253624
0.060767 0.023170 0.253814
0.062426 0.023335 0.255721
0.063867 0.023413 0.256682
0.065132 0.023425 0.256913
0.066303 0.023403 0.256776
0.067704 0.023462 0.257525
0.069285 0.023580 0.258918
0.070716 0.023643 0.259714
0.072390 0.023785 0.261365
0.073664 0.023792 0.261540
0.075153 0.023867 0.262463
0.076666 0.023947 0.263439
0.078409 0.024095 0.265166
0.080322 0.024290 0.267402
0.081581 0.024284 0.267427
0.083078 0.024348 0.268218
0.084414 0.024364 0.268474
0.085803 0.024394 0.268891
0.087070 0.024389 0.268915
0.088403 0.024402 0.269139
0.089572 0.024370 0.268863
0.090659 0.024318 0.268352
0.091559 0.024217 0.267307
0.091131 0.023772 0.262462
0.091094 0.023440 0.258855
0.091990 0.023354 0.257958
0.093136 0.023333 0.257773
0.093984 0.023239 0.256775
0.094863 0.023154 0.255881
0.095672 0.023055 0.254823
0.096522 0.022968 0.253893
0.097191 0.022841 0.252512
0.098068 0.022765 0.251694
0.098761 0.022648 0.250424
0.099659 0.022581 0.249693
0.100451 0.022492 0.248709
0.100896 0.022328 0.246897
0.101468 0.022195 0.245425
0.102283 0.022118 0.244564
0.103183 0.022061 0.243915
0.102219 0.021611 0.238918
0.102384 0.021407 0.236636
0.103073 0.021316 0.235593
0.104027 0.021281 0.235164
0.104779 0.021205 0.234286
0.105480 0.021122 0.233306
0.106347 0.021072 0.232701
0.107169 0.021015 0.232003
0.108000 0.020961 0.231329
0.108949 0.020931 0.230911
0.109564 0.020837 0.229789
0.110305 0.020770 0.228943
0.110998 0.020694 0.228005
0.111666 0.020616 0.227025
0.112393 0.020549 0.226171
0.113007 0.020464 0.225098
0.113729 0.020399 0.224247
0.114462 0.020338 0.223421
0.115146 0.020268 0.222503
0.115945 0.020221 0.221811
-1.562287 0.301592 3.183781
-1.553300 0.302765 3.197431
-1.555014 0.306067 3.233471
-1.544802 0.307064 3.245066
-1.534129 0.307989 3.255792
-1.528392 0.309933 3.277201
-1.519804 0.311332 3.292763
-1.514481 0.313437 3.315684
-1.501094 0.313898 3.321137
-1.494739 0.315855 3.342325
-0.647495 0.138277 1.463391
-0.650165 0.140338 1.485337
-0.655340 0.142991 1.513510
-0.651307 0.143670 1.520760
-0.647426 0.144399 1.528494
-0.644251 0.145303 1.538050
-0.639692 0.145913 1.544447
-0.632775 0.145992 1.545197
-0.626439 0.146208 1.547370
-0.618333 0.146012 1.545141
-0.609215 0.145569 1.540271
-0.600489 0.145210 1.536262
-0.591139 0.144690 1.530518
-0.581695 0.144134 1.524365
-0.571874 0.143469 1.517041
-0.561904 0.142750 1.509117
-0.552741 0.142220 1.503170
-0.543188 0.141574 1.495980
-0.533952 0.140996 1.489479
-0.524970 0.140469 1.483512
-0.515768 0.139869 1.476748
-0.507433 0.139491 1.472310
-0.497680 0.138707 1.463574
-0.488596 0.138090 1.456586
-0.477329 0.136830 1.442803
-0.468146 0.136140 1.435016
-0.454395 0.134081 1.412801
-0.438415 0.131294 1.382911
-0.432612 0.131516 1.384717
-0.407784 0.125872 1.324771
-0.404694 0.126867 1.334703
-0.390915 0.124489 1.309149
-0.385360 0.124696 1.310776
-0.296854 0.097629 1.025817
-0.292571 0.097821 1.027390
-0.287925 0.097897 1.027729
-0.283312 0.097986 1.028211
-0.278882 0.098143 1.029393
-0.274259 0.098236 1.029900
-0.269245 0.098191 1.028949
-0.264107 0.098098 1.027491
-0.258956 0.097995 1.025940
-0.253576 0.097802 1.023429
-0.248060 0.097546 1.020274
-0.242126 0.097113 1.015261
-0.235687 0.096456 1.007912
-0.228899 0.095626 0.998757
-0.221701 0.094586 0.987417
-0.214916 0.093680 0.977495
-0.208722 0.092998 0.969909
-0.204382 0.093129 0.970820
-0.030040 0.024057 0.248707
-0.028655 0.023900 0.246999
-0.027305 0.023761 0.245476
-0.026061 0.023706 0.244825
-0.024891 0.023716 0.244845
-0.023313 0.023319 0.240670
-0.021786 0.022934 0.236619
-0.020630 0.022919 0.236396
-0.019453 0.022877 0.235891
-0.018223 0.022764 0.234665
-0.016889 0.022497 0.231849
-0.015542 0.022174 0.228468
-0.014420 0.022147 0.228132
-0.013308 0.022133 0.227942
-0.012210 0.022141 0.227968
-0.010817 0.021563 0.221982
-0.009696 0.021460 0.220882
-0.008557 0.021286 0.219048
-0.007496 0.021285 0.219005
-0.006414 0.021216 0.218264
0.004299 0.021929 0.225465
0.005406 0.021986 0.226051
0.006517 0.022037 0.226582
0.007629 0.022074 0.226979
0.008765 0.022165 0.227926
0.009932 0.022303 0.229363
0.011048 0.022310 0.229460
0.012264 0.022500 0.231441
0.013372 0.022477 0.231230
0.014527 0.022530 0.231809
0.015692 0.022589 0.232452
0.016827 0.022600 0.232602
0.018002 0.022661 0.233263
0.019178 0.022715 0.233867
0.020294 0.022695 0.233708
0.021461 0.022732 0.234140
0.022693 0.022831 0.235206
0.023952 0.022946 0.236446
0.025171 0.023014 0.237209
0.026332 0.023025 0.237381
0.027571 0.023100 0.238223
0.028830 0.023186 0.239172
0.030104 0.023276 0.240175
0.031294 0.023297 0.240460
0.032462 0.023301 0.240579
0.033641 0.023312 0.240770
0.034840 0.023336 0.241087
0.035993 0.023328 0.241093
0.037111 0.023299 0.240870
0.038349 0.023344 0.241425
0.039543 0.023361 0.241685
0.040786 0.023405 0.242224
0.042316 0.023607 0.244404
0.044106 0.023938 0.247929
0.045592 0.024092 0.249611
0.046597 0.023990 0.248652
0.047519 0.023851 0.247306
0.048907 0.023948 0.248406
0.051258 0.024499 0.254227
0.054810 0.025586 0.265613
0.055618 0.025372 0.263490
0.055703 0.024844 0.258115
0.056174 0.024508 0.254725
0.057067 0.024367 0.253357
0.058126 0.024300 0.252767
0.059307 0.024286 0.252725
0.060497 0.024277 0.252727
0.061662 0.024258 0.252630
0.063228 0.024394 0.254149
0.064977 0.024595 0.256342
0.066341 0.024645 0.256960
0.067786 0.024722 0.257871
0.069392 0.024855 0.259351
0.071057 0.025003 0.261002
0.072294 0.024999 0.261051
0.073473 0.024975 0.260896
0.074908 0.025037 0.261638
0.076597 0.025181 0.263234
0.079033 0.025561 0.267305
0.080393 0.025587 0.267665
0.081614 0.025568 0.267561
0.082943 0.025584 0.267808
0.084394 0.025636 0.268437
0.085675 0.025635 0.268511
0.086922 0.025625 0.268480
0.088302 0.025653 0.268853
0.089571 0.025649 0.268882
0.090692 0.025603 0.268469
0.091525 0.025478 0.267224
0.092001 0.025258 0.264983
0.090754 0.024578 0.257903
0.091801 0.024529 0.257441
0.092826 0.024475 0.256925
0.093716 0.024388 0.256054
0.094713 0.024330 0.255487
0.095581 0.024242 0.254589
0.096409 0.024145 0.253602
0.097089 0.024014 0.252252
0.097678 0.023864 0.250696
0.098330 0.023733 0.249333
0.098814 0.023565 0.247577
0.099347 0.023412 0.245978
0.100169 0.023330 0.245117
0.100782 0.023202 0.243766
0.101058 0.023000 0.241631
0.101520 0.022844 0.239980
0.102211 0.022743 0.238894
0.102331 0.022519 0.236506
0.102922 0.022402 0.235239
0.103710 0.022329 0.234439
0.104564 0.022273 0.233795
0.105345 0.022202 0.232996
0.106199 0.022148 0.232363
0.107023 0.022088 0.231671
0.107753 0.022011 0.230784
0.108580 0.021955 0.230111
0.109214 0.021861 0.229037
0.110054 0.021810 0.228402
0.110804 0.021742 0.227585
0.111470 0.021660 0.226604
0.112235 0.021597 0.225829
0.112570 0.021455 0.224202
0.113223 0.021374 0.223222
0.113966 0.021312 0.222423
0.114622 0.021235 0.221460
0.115434 0.021189 0.220803
-1.578693 0.319964 3.216949
-1.565910 0.320451 3.223142
-1.561697 0.322718 3.247142
-1.539156 0.321206 3.233000
-1.532964 0.323108 3.253131
-1.535330 0.326872 3.291908
-1.530298 0.329121 3.315344
-1.521176 0.330528 3.330207
-1.515066 0.332624 3.351933
-1.494210 0.331494 3.341046
-1.480914 0.332035 3.346907
-0.647941 0.146835 1.480230
-0.651721 0.149295 1.505133
-0.649780 0.150483 1.517186
-0.648339 0.151816 1.530649
-0.646705 0.153133 1.543917
-0.640685 0.153429 1.546860
-0.635918 0.154035 1.552898
-0.628376 0.153976 1.552186
-0.620117 0.153737 1.549639
-0.611534 0.153412 1.546183
-0.601924 0.152817 1.539989
-0.592439 0.152241 1.533947
-0.584046 0.151934 1.530598
-0.573852 0.151146 1.522368
-0.564437 0.150545 1.516005
-0.554918 0.149901 1.509182
-0.545920 0.149383 1.503605
-0.536631 0.148770 1.497059
-0.527628 0.148222 1.491137
-0.518642 0.147663 1.485097
-0.508996 0.146899 1.476972
-0.499228 0.146078 1.468262
-0.490336 0.145494 1.461915
-0.477969 0.143847 1.444883
-0.461066 0.140768 1.413462
-0.455164 0.141006 1.415350
-0.407568 0.132079 1.324234
-0.396417 0.130469 1.307576
-0.390883 0.130686 1.309219
-0.295847 0.102150 1.022482
-0.292031 0.102510 1.025647
-0.287427 0.102601 1.026109
-0.282833 0.102698 1.026634
-0.278441 0.102874 1.027931
-0.273737 0.102939 1.028114
-0.269072 0.103021 1.028464
-0.263836 0.102883 1.026616
-0.258728 0.102791 1.025223
-0.253262 0.102551 1.022352
-0.247642 0.102238 1.018750
-0.241290 0.101604 1.011954
-0.235309 0.101104 1.006493
-0.228975 0.100428 0.999290
-0.221331 0.099137 0.985976
-0.215960 0.098829 0.982451
-0.210470 0.098453 0.978247
-0.030034 0.025251 0.248732
-0.028659 0.025096 0.247110
-0.027422 0.025053 0.246601
-0.026202 0.025023 0.246221
-0.025026 0.025034 0.246246
-0.023543 0.024724 0.243122
-0.021848 0.024147 0.237371
-0.020633 0.024066 0.236510
-0.019541 0.024128 0.237047
-0.017794 0.023337 0.229218
-0.016656 0.023294 0.228730
-0.015499 0.023216 0.227916
-0.014450 0.023301 0.228689
-0.013282 0.023193 0.227577
-0.011942 0.022736 0.223053
-0.010893 0.022799 0.223623
-0.009783 0.022735 0.222959
-0.008583 0.022418 0.219815
-0.007491 0.022333 0.218944
-0.006398 0.022218 0.217786
-0.005268 0.021906 0.214705
-0.004171 0.021607 0.211752
0.002112 0.023005 0.225371
0.003203 0.022993 0.225252
0.004303 0.023039 0.225701
0.005399 0.023046 0.225774
0.006504 0.023085 0.226161
0.007622 0.023152 0.226827
0.008757 0.023244 0.227742
0.009917 0.023378 0.229074
0.011088 0.023506 0.230352
0.012207 0.023511 0.230421
0.013361 0.023576 0.231087
0.014518 0.023636 0.231707
0.015692 0.023714 0.232506
0.016838 0.023741 0.232806
0.018003 0.023789 0.233325
0.019175 0.023842 0.233887
0.020342 0.023882 0.234322
0.021514 0.023923 0.234775
0.022690 0.023964 0.235230
0.023860 0.023996 0.235598
0.025059 0.024052 0.236203
0.026283 0.024126 0.236995
0.027574 0.024254 0.238310
0.028831 0.024341 0.239234
0.030086 0.024421 0.240088
0.031289 0.024454 0.240480
0.032430 0.024437 0.240393
0.033624 0.024461 0.240697
0.034790 0.024463 0.240796
0.035962 0.024469 0.240935
0.037142 0.024480 0.241125
0.038246 0.024441 0.240826
0.039550 0.024529 0.241781
0.040734 0.024540 0.241969
0.042001 0.024598 0.242635
0.044698 0.025468 0.251311
0.045736 0.025372 0.250452
0.046626 0.025201 0.248855
0.047816 0.025196 0.248904
0.048958 0.025167 0.248713
0.051225 0.025704 0.254114
0.054879 0.026895 0.265996
0.056084 0.026859 0.265749
0.055681 0.026072 0.258058
0.056132 0.025710 0.254579
0.056247 0.025213 0.249757
0.056948 0.024994 0.247687
0.058081 0.024970 0.247541
0.059574 0.025098 0.248912
0.062129 0.025660 0.254583
0.063590 0.025757 0.255647
0.065205 0.025911 0.257280
0.066333 0.025870 0.256969
0.067736 0.025935 0.257717
0.069277 0.026050 0.258960
0.070755 0.026138 0.259929
0.072340 0.026261 0.261251
0.073584 0.026259 0.261323
0.074976 0.026309 0.261909
0.076562 0.026423 0.263144
0.078688 0.026718 0.266166
0.080235 0.026809 0.267170
0.081541 0.026819 0.267349
0.082710 0.026783 0.267082
0.084206 0.026854 0.267864
0.085747 0.026936 0.268763
0.086907 0.026897 0.268457
0.088139 0.026882 0.268380
0.089315 0.026850 0.268134
0.090437 0.026803 0.267732
0.091120 0.026629 0.266059
0.091640 0.026413 0.263961
0.090745 0.025801 0.257893
0.091512 0.025671 0.256645
0.092198 0.025522 0.255201
0.093205 0.025464 0.254669
0.093917 0.025329 0.253350
0.094714 0.025219 0.252289
0.095713 0.025166 0.251780
0.096578 0.025078 0.250931
0.097396 0.024981 0.249976
0.098049 0.024845 0.248624
0.098861 0.024751 0.247695
0.099370 0.024585 0.246035
