ply
format ascii 1.0
element vertex 1709
property float x
property float y
property float z
end_header
-0.741080 -0.034692 1.481575
-0.738724 -0.034907 1.491525
-0.734337 -0.035030 1.497468
-0.728744 -0.035097 1.500983
-0.722144 -0.035117 1.502412
-0.714355 -0.035078 1.501311
-0.705885 -0.035005 1.498688
-0.696598 -0.034890 1.494203
-0.688199 -0.034818 1.491496
-0.678360 -0.034671 1.485530
-0.668268 -0.034507 1.478832
-0.658197 -0.034342 1.471992
-0.649190 -0.034229 1.467371
-0.640976 -0.034156 1.464419
-0.632211 -0.034052 1.460091
-0.623900 -0.033970 1.456692
-0.616076 -0.033914 1.454335
-0.606275 -0.033746 1.447171
-0.597382 -0.033626 1.442008
-0.588479 -0.033503 1.436671
-0.579390 -0.033366 1.430728
-0.569461 -0.033177 1.422522
-0.559805 -0.033000 1.414789
-0.550269 -0.032826 1.407158
-0.537785 -0.032469 1.391697
-0.527721 -0.032252 1.382180
-0.513763 -0.031789 1.362091
-0.372096 -0.023914 1.024036
-0.364422 -0.023727 1.015784
-0.359588 -0.023723 1.015328
-0.355301 -0.023755 1.016420
-0.351499 -0.023820 1.018942
-0.346721 -0.023821 1.018660
-0.342255 -0.023843 1.019299
-0.337600 -0.023853 1.019381
-0.332765 -0.023850 1.018915
-0.327187 -0.023793 1.016129
-0.321596 -0.023734 1.013223
-0.315750 -0.023654 1.009420
-0.310528 -0.023618 1.007530
-0.303987 -0.023480 1.001244
-0.298967 -0.023457 0.999858
-0.291002 -0.023198 0.988432
-0.286806 -0.023237 0.989657
-0.066639 -0.005776 0.245572
-0.065528 -0.005781 0.245662
-0.064466 -0.005790 0.245943
-0.062286 -0.005804 0.246322
-0.061211 -0.005813 0.246591
-0.059626 -0.005773 0.244779
-0.057756 -0.005704 0.241710
-0.056269 -0.005670 0.240158
-0.054566 -0.005612 0.237608
-0.053330 -0.005601 0.237036
-0.051483 -0.005524 0.233666
-0.050421 -0.005530 0.233800
-0.049163 -0.005514 0.233018
-0.047944 -0.005502 0.232392
-0.045753 -0.005375 0.226921
-0.044508 -0.005356 0.226005
-0.043034 -0.005307 0.223856
-0.041933 -0.005304 0.223598
-0.040075 -0.005202 0.219190
-0.038873 -0.005182 0.218242
-0.037135 -0.005087 0.214156
-0.036535 -0.005147 0.216592
-0.035878 -0.005203 0.218832
-0.034985 -0.005226 0.219734
-0.034065 -0.005247 0.220515
-0.033177 -0.005275 0.221575
-0.032284 -0.005303 0.222682
-0.031502 -0.005352 0.224659
-0.030634 -0.005390 0.226146
-0.027613 -0.005439 0.227944
-0.026596 -0.005456 0.228571
-0.025634 -0.005487 0.229762
-0.024495 -0.005480 0.229404
-0.022523 -0.005540 0.231778
-0.021461 -0.005556 0.232355
-0.020382 -0.005568 0.232794
-0.019268 -0.005572 0.232890
-0.018192 -0.005588 0.233488
-0.017150 -0.005617 0.234641
-0.016057 -0.005632 0.235225
-0.014963 -0.005650 0.235905
-0.013853 -0.005664 0.236422
-0.012779 -0.005696 0.237728
-0.011650 -0.005708 0.238197
-0.010515 -0.005720 0.238628
-0.009377 -0.005732 0.239102
-0.008237 -0.005746 0.239657
-0.007090 -0.005761 0.240216
-0.005939 -0.005776 0.240809
-0.004779 -0.005788 0.241289
-0.003623 -0.005814 0.242364
-0.002455 -0.005839 0.243384
-0.001272 -0.005839 0.243366
-0.000089 -0.005848 0.243740
0.001097 -0.005858 0.244129
0.002281 -0.005849 0.243754
0.003463 -0.005844 0.243553
0.004658 -0.005857 0.244094
0.005853 -0.005865 0.244419
0.007051 -0.005873 0.244783
0.008244 -0.005875 0.244869
0.009455 -0.005888 0.245409
0.010674 -0.005902 0.246009
0.012054 -0.005993 0.249856
0.013319 -0.006016 0.250822
0.014394 -0.005956 0.248369
0.015649 -0.005974 0.249152
0.016999 -0.006023 0.251239
0.018420 -0.006090 0.254041
0.019815 -0.006139 0.256166
0.021072 -0.006143 0.256363
0.022237 -0.006121 0.255496
0.023454 -0.006115 0.255295
0.024832 -0.006149 0.256781
0.026127 -0.006160 0.257318
0.027518 -0.006193 0.258722
0.028893 -0.006218 0.259868
0.030163 -0.006220 0.260020
0.031519 -0.006239 0.260880
0.032758 -0.006234 0.260754
0.034113 -0.006251 0.261526
0.035443 -0.006262 0.262074
0.036907 -0.006295 0.263549
0.038305 -0.006315 0.264480
0.040008 -0.006383 0.267391
0.041548 -0.006421 0.269078
0.042990 -0.006442 0.270061
0.044430 -0.006462 0.270973
0.045744 -0.006462 0.271100
0.047093 -0.006468 0.271428
0.048423 -0.006470 0.271636
0.049739 -0.006471 0.271763
0.051054 -0.006471 0.271891
0.052328 -0.006467 0.271798
0.053641 -0.006467 0.271920
0.054966 -0.006469 0.272101
0.055906 -0.006426 0.270416
0.055734 -0.006261 0.263552
0.056500 -0.006205 0.261334
0.057342 -0.006161 0.259558
0.058512 -0.006153 0.259315
0.059580 -0.006134 0.258645
0.060605 -0.006112 0.257824
0.061681 -0.006096 0.257253
0.062703 -0.006076 0.256483
0.063685 -0.006052 0.255588
0.064732 -0.006035 0.254982
0.065721 -0.006014 0.254180
0.066605 -0.005984 0.253011
0.067476 -0.005954 0.251837
0.068419 -0.005931 0.250967
0.069157 -0.005892 0.249390
0.069732 -0.005840 0.247292
0.070362 -0.005795 0.245454
0.071047 -0.005755 0.243865
0.071789 -0.005722 0.242520
0.071938 -0.005643 0.239245
0.071787 -0.005543 0.235088
0.072551 -0.005516 0.234010
0.073570 -0.005508 0.233774
0.074240 -0.005476 0.232451
0.075052 -0.005454 0.231605
0.075442 -0.005403 0.229497
0.075958 -0.005362 0.227829
0.076706 -0.005339 0.226888
0.077692 -0.005333 0.226670
0.078094 -0.005287 0.224774
0.078730 -0.005258 0.223590
0.079323 -0.005227 0.222316
0.080122 -0.005210 0.221641
0.081004 -0.005199 0.221208
0.081828 -0.005185 0.220627
0.082539 -0.005164 0.219759
0.083343 -0.005149 0.219153
0.084293 -0.005144 0.218936
0.085008 -0.005124 0.218119
0.085375 -0.005084 0.216434
0.085781 -0.005048 0.214885
0.086349 -0.005022 0.213767
0.086900 -0.004995 0.212629
0.087641 -0.004980 0.211975
0.088343 -0.004963 0.211235
0.088980 -0.004943 0.210353
0.089698 -0.004927 0.209673
0.090296 -0.004906 0.208728
0.090900 -0.004885 0.207810
0.091444 -0.004862 0.206769
0.091874 -0.004833 0.205490
0.092536 -0.004817 0.204746
0.092876 -0.004784 0.203304
0.093155 -0.004749 0.201753
0.093575 -0.004722 0.200530
0.094038 -0.004698 0.199416
0.094600 -0.004679 0.198524
0.095026 -0.004653 0.197358
0.095540 -0.004633 0.196391
0.096128 -0.004616 0.195583
0.096703 -0.004600 0.194755
0.097319 -0.004585 0.194017
0.097907 -0.004569 0.193227
0.098685 -0.004563 0.192815
0.099398 -0.004554 0.192275
0.100111 -0.004544 0.191732
-0.753413 -0.026663 1.420992
-0.747919 -0.026704 1.424251
-0.751072 -0.027056 1.444120
-0.742772 -0.026999 1.442065
-0.748037 -0.027439 1.466488
-0.738487 -0.027338 1.461988
-0.737202 -0.027545 1.473855
-0.735679 -0.027746 1.485409
-0.731301 -0.027843 1.491307
-0.726210 -0.027914 1.495792
-0.720458 -0.027961 1.498930
-0.712920 -0.027939 1.498319
-0.706590 -0.027965 1.500207
-0.697974 -0.027900 1.497173
-0.690314 -0.027872 1.496098
-0.681258 -0.027786 1.491891
-0.672573 -0.027715 1.488371
-0.663487 -0.027625 1.483836
-0.653482 -0.027495 1.477081
-0.645587 -0.027452 1.474962
-0.637324 -0.027392 1.471906
-0.628176 -0.027293 1.466681
-0.620132 -0.027240 1.463911
-0.610937 -0.027134 1.458299
-0.600790 -0.026984 1.450232
-0.589974 -0.026800 1.440318
-0.578943 -0.026602 1.429619
-0.568710 -0.026436 1.420641
-0.563019 -0.026481 1.422905
-0.372132 -0.019080 1.024124
-0.364086 -0.018912 1.014832
-0.359748 -0.018934 1.015763
-0.355957 -0.018985 1.018280
-0.350588 -0.018953 1.016283
-0.346336 -0.018982 1.017511
-0.341703 -0.018990 1.017635
-0.337115 -0.019001 1.017897
-0.332552 -0.019013 1.018240
-0.327135 -0.018977 1.015946
-0.321494 -0.018926 1.012879
-0.315701 -0.018865 1.009239
-0.310696 -0.018850 1.008049
-0.305800 -0.018841 1.007188
-0.301550 -0.018872 1.008469
-0.061249 -0.004639 0.246735
-0.059977 -0.004632 0.246210
-0.057759 -0.004549 0.241712
-0.056294 -0.004524 0.240255
-0.054347 -0.004458 0.236645
-0.052767 -0.004420 0.234524
-0.051388 -0.004398 0.233224
-0.050393 -0.004408 0.233658
-0.049132 -0.004395 0.232860
-0.047675 -0.004363 0.231076
-0.046200 -0.004329 0.229130
-0.044977 -0.004316 0.228374
-0.043701 -0.004298 0.227313
-0.041698 -0.004206 0.222330
-0.040325 -0.004174 0.220545
-0.038301 -0.004071 0.215014
-0.037032 -0.004045 0.213548
-0.036170 -0.004064 0.214415
-0.035568 -0.004113 0.216928
-0.034928 -0.004161 0.219361
-0.034046 -0.004182 0.220382
-0.033076 -0.004193 0.220886
-0.032453 -0.004251 0.223833
-0.031550 -0.004275 0.224984
-0.029592 -0.004305 0.226413
-0.026590 -0.004350 0.228508
-0.024566 -0.004382 0.230059
-0.023520 -0.004395 0.230623
-0.022516 -0.004417 0.231699
-0.021412 -0.004420 0.231805
-0.020316 -0.004426 0.232029
-0.019253 -0.004440 0.232691
-0.018155 -0.004446 0.232991
-0.016049 -0.004489 0.235092
-0.014942 -0.004499 0.235560
-0.013872 -0.004522 0.236729
-0.012745 -0.004530 0.237089
-0.011642 -0.004549 0.238009
-0.010504 -0.004556 0.238349
-0.009387 -0.004575 0.239324
-0.008238 -0.004583 0.239670
-0.007085 -0.004590 0.240031
-0.005944 -0.004609 0.240991
-0.004788 -0.004624 0.241738
-0.003632 -0.004648 0.242971
-0.002459 -0.004663 0.243751
-0.001273 -0.004658 0.243440
-0.000090 -0.004669 0.244011
0.001098 -0.004673 0.244216
0.002286 -0.004674 0.244246
0.003475 -0.004676 0.244365
0.004663 -0.004675 0.244331
0.005866 -0.004687 0.244955
0.007077 -0.004701 0.245672
0.008277 -0.004704 0.245839
0.009499 -0.004717 0.246536
0.010710 -0.004722 0.246832
0.012054 -0.004779 0.249839
0.013353 -0.004809 0.251455
0.014361 -0.004739 0.247780
0.015627 -0.004757 0.248800
0.016902 -0.004776 0.249807
0.018346 -0.004837 0.253016
0.019721 -0.004873 0.254944
0.020947 -0.004869 0.254829
0.022076 -0.004846 0.253638
0.023427 -0.004871 0.254990
0.024938 -0.004924 0.257865
0.026241 -0.004934 0.258433
0.027524 -0.004939 0.258770
0.028854 -0.004952 0.259503
0.030176 -0.004962 0.260116
0.031457 -0.004965 0.260349
0.032832 -0.004983 0.261330
0.034166 -0.004992 0.261919
0.035483 -0.004999 0.262362
0.036866 -0.005015 0.263241
0.038225 -0.005026 0.263916
0.039859 -0.005071 0.266387
0.041558 -0.005122 0.269132
0.043081 -0.005148 0.270617
0.044431 -0.005153 0.270966
0.045732 -0.005152 0.271017
0.047098 -0.005158 0.271441
0.048455 -0.005163 0.271804
0.049723 -0.005159 0.271664
0.051004 -0.005156 0.271612
0.052290 -0.005153 0.271590
0.053560 -0.005150 0.271500
0.054755 -0.005139 0.271044
0.055697 -0.005106 0.269394
0.055469 -0.004969 0.262291
0.056112 -0.004915 0.259529
0.057159 -0.004898 0.258721
0.058375 -0.004896 0.258702
0.059476 -0.004884 0.258185
0.060542 -0.004870 0.257546
0.061614 -0.004857 0.256962
0.062684 -0.004844 0.256396
0.063681 -0.004827 0.255562
0.064702 -0.004812 0.254859
0.065651 -0.004792 0.253903
0.066507 -0.004766 0.252633
0.067183 -0.004729 0.250736
0.068196 -0.004716 0.250143
0.069079 -0.004694 0.249103
0.069863 -0.004667 0.247748
0.070657 -0.004642 0.246477
0.071325 -0.004609 0.244813
0.071193 -0.004526 0.240501
0.071473 -0.004472 0.237694
0.071930 -0.004430 0.235553
0.072501 -0.004397 0.233846
0.073187 -0.004371 0.232553
0.073994 -0.004353 0.231678
0.074737 -0.004333 0.230630
0.075516 -0.004314 0.229720
0.076350 -0.004300 0.229001
0.076831 -0.004266 0.227254
0.077489 -0.004243 0.226075
0.078083 -0.004217 0.224738
0.078752 -0.004196 0.223650
0.079273 -0.004167 0.222173
0.080228 -0.004162 0.221931
0.081032 -0.004149 0.221283
0.081638 -0.004127 0.220114
0.082442 -0.004115 0.219498
0.083366 -0.004109 0.219211
0.084134 -0.004096 0.218523
0.084857 -0.004081 0.217730
0.085383 -0.004057 0.216455
0.085892 -0.004033 0.215162
0.086327 -0.004006 0.213713
0.086624 -0.003973 0.211956
0.087328 -0.003959 0.211217
0.088253 -0.003956 0.211021
0.088808 -0.003936 0.209946
0.089457 -0.003921 0.209113
0.090306 -0.003915 0.208752
0.090820 -0.003895 0.207629
0.091416 -0.003878 0.206707
0.091865 -0.003856 0.205473
0.092457 -0.003840 0.204573
0.092860 -0.003817 0.203273
0.093088 -0.003787 0.201612
0.093638 -0.003771 0.200669
0.094284 -0.003759 0.199941
0.094617 -0.003735 0.198564
0.094990 -0.003713 0.197288
0.095512 -0.003697 0.196336
0.096235 -0.003689 0.195805
0.096759 -0.003673 0.194873
0.097496 -0.003666 0.194376
0.098256 -0.003660 0.193922
0.099073 -0.003656 0.193580
0.099621 -0.003643 0.192712
0.100181 -0.003630 0.191874
-0.747355 -0.019764 1.409603
-0.747950 -0.019955 1.424345
-0.738596 -0.019881 1.420165
-0.733956 -0.019934 1.424980
-0.733667 -0.020108 1.438344
-0.731751 -0.020239 1.448681
-0.734603 -0.020507 1.468685
-0.733009 -0.020654 1.480044
-0.733099 -0.020852 1.494997
-0.729841 -0.020958 1.503293
-0.722542 -0.020948 1.503286
-0.720197 -0.021084 1.513633
-0.713107 -0.021082 1.514060
-0.703201 -0.020996 1.508401
-0.694789 -0.020953 1.505810
-0.684242 -0.020845 1.498440
-0.675428 -0.020788 1.494702
-0.667374 -0.020753 1.492537
-0.657337 -0.020656 1.485803
-0.648860 -0.020606 1.482445
-0.640693 -0.020565 1.479692
-0.630640 -0.020462 1.472439
-0.623459 -0.020451 1.471769
-0.611720 -0.020289 1.460171
-0.600695 -0.020147 1.450003
-0.593631 -0.020136 1.449247
-0.585410 -0.020085 1.445587
-0.579630 -0.020119 1.447914
-0.366620 -0.014033 1.008944
-0.362901 -0.014072 1.011519
-0.356673 -0.014013 1.007071
-0.353661 -0.014081 1.011700
-0.349858 -0.014119 1.014155
-0.345236 -0.014124 1.014264
-0.340906 -0.014142 1.015247
-0.336469 -0.014156 1.015928
-0.332255 -0.014179 1.017316
-0.327153 -0.014165 1.015985
-0.322505 -0.014171 1.016046
-0.316958 -0.014136 1.013239
-0.311483 -0.014104 1.010584
-0.307232 -0.014128 1.011884
-0.062924 -0.003490 0.248830
-0.061297 -0.003465 0.246922
-0.059675 -0.003439 0.244965
-0.057846 -0.003400 0.242068
-0.055935 -0.003354 0.238715
-0.054294 -0.003323 0.236409
-0.052741 -0.003296 0.234399
-0.051380 -0.003281 0.233179
-0.050050 -0.003266 0.232062
-0.048949 -0.003267 0.231982
-0.047500 -0.003243 0.230218
-0.046290 -0.003236 0.229568
-0.044884 -0.003214 0.227893
-0.042916 -0.003149 0.223220
-0.041688 -0.003137 0.222272
-0.040255 -0.003109 0.220150
-0.038748 -0.003073 0.217516
-0.036990 -0.003015 0.213296
-0.036236 -0.003037 0.214799
-0.035559 -0.003068 0.216866
-0.034660 -0.003080 0.217666
-0.034014 -0.003117 0.220161
-0.033531 -0.003171 0.223919
-0.032569 -0.003183 0.224617
-0.031588 -0.003193 0.225243
-0.030674 -0.003211 0.226414
-0.029699 -0.003223 0.227218
-0.027652 -0.003240 0.228232
-0.026649 -0.003252 0.228997
-0.025681 -0.003270 0.230155
-0.024615 -0.003276 0.230500
-0.023548 -0.003282 0.230888
-0.022508 -0.003293 0.231601
-0.021440 -0.003301 0.232090
-0.020355 -0.003307 0.232456
-0.019265 -0.003313 0.232815
-0.018191 -0.003323 0.233444
-0.017106 -0.003332 0.234011
-0.016038 -0.003346 0.234923
-0.014947 -0.003357 0.235623
-0.013859 -0.003370 0.236492
-0.012759 -0.003383 0.237329
-0.011645 -0.003393 0.238046
-0.010535 -0.003408 0.239035
-0.009397 -0.003416 0.239567
-0.008263 -0.003429 0.240384
-0.007111 -0.003436 0.240878
-0.005957 -0.003446 0.241517
-0.004788 -0.003449 0.241733
-0.003639 -0.003474 0.243425
-0.002466 -0.003487 0.244377
-0.001280 -0.003494 0.244796
-0.000090 -0.003493 0.244711
0.001100 -0.003494 0.244818
0.002287 -0.003489 0.244449
0.003475 -0.003488 0.244373
0.004668 -0.003492 0.244627
0.005856 -0.003490 0.244539
0.007046 -0.003491 0.244596
0.008256 -0.003499 0.245194
0.009467 -0.003506 0.245690
0.010856 -0.003570 0.250190
0.012103 -0.003579 0.250841
0.013320 -0.003578 0.250814
0.014458 -0.003559 0.249451
0.015613 -0.003545 0.248559
0.016900 -0.003562 0.249766
0.018486 -0.003635 0.254928
0.019803 -0.003650 0.255985
0.021027 -0.003646 0.255800
0.022318 -0.003654 0.256400
0.023280 -0.003610 0.253376
0.024903 -0.003668 0.257497
0.026220 -0.003678 0.258213
0.027540 -0.003687 0.258906
0.028769 -0.003683 0.258724
0.030102 -0.003693 0.259468
0.031468 -0.003705 0.260433
0.032775 -0.003710 0.260859
0.034076 -0.003714 0.261223
0.035411 -0.003722 0.261818
0.036834 -0.003738 0.263007
0.038303 -0.003757 0.264443
0.039755 -0.003773 0.265683
0.041519 -0.003817 0.268870
0.042998 -0.003833 0.270087
0.044417 -0.003843 0.270870
0.045728 -0.003843 0.270981
0.047097 -0.003848 0.271426
0.048430 -0.003850 0.271652
0.049700 -0.003847 0.271529
0.050989 -0.003845 0.271523
0.052276 -0.003844 0.271512
0.053554 -0.003842 0.271460
0.054774 -0.003836 0.271130
0.055749 -0.003813 0.269635
0.055112 -0.003684 0.260592
0.056081 -0.003665 0.259378
0.057137 -0.003653 0.258612
0.058376 -0.003653 0.258696
0.059410 -0.003640 0.257890
0.060476 -0.003630 0.257259
0.061538 -0.003620 0.256638
0.062593 -0.003610 0.256019
0.063536 -0.003594 0.254975
0.064551 -0.003582 0.254256
0.065516 -0.003568 0.253376
0.066226 -0.003542 0.251560
0.067176 -0.003528 0.250702
0.068170 -0.003518 0.250043
0.069008 -0.003500 0.248840
0.069834 -0.003482 0.247642
0.070753 -0.003469 0.246807
0.071594 -0.003453 0.245731
0.072193 -0.003425 0.243874
0.072221 -0.003372 0.240176
0.072002 -0.003310 0.235784
0.072601 -0.003286 0.234164
0.073422 -0.003273 0.233297
0.074030 -0.003251 0.231786
0.074563 -0.003226 0.230089
0.075353 -0.003213 0.229221
0.076107 -0.003199 0.228270
0.076708 -0.003179 0.226889
0.077521 -0.003169 0.226165
0.077787 -0.003136 0.223885
0.078641 -0.003128 0.223331
0.079262 -0.003111 0.222140
0.079945 -0.003096 0.221148
0.080597 -0.003081 0.220094
0.081344 -0.003070 0.219322
0.082094 -0.003059 0.218570
0.083019 -0.003055 0.218299
0.083691 -0.003042 0.217372
0.084651 -0.003040 0.217202
0.085242 -0.003024 0.216098
0.085771 -0.003007 0.214860
0.086184 -0.002986 0.213359
0.086628 -0.002967 0.211967
0.087433 -0.002960 0.211473
0.088161 -0.002951 0.210802
0.088899 -0.002943 0.210164
0.089491 -0.002929 0.209194
0.090177 -0.002920 0.208455
0.090704 -0.002905 0.207365
0.091257 -0.002892 0.206352
0.091669 -0.002874 0.205036
0.092355 -0.002865 0.204350
0.092972 -0.002855 0.203519
0.093240 -0.002834 0.201944
0.093697 -0.002819 0.200799
0.094320 -0.002809 0.200020
0.094804 -0.002795 0.198959
0.095114 -0.002777 0.197549
0.095772 -0.002769 0.196875
0.096281 -0.002757 0.195904
0.096841 -0.002747 0.195043
0.097569 -0.002741 0.194525
0.098163 -0.002732 0.193744
0.098829 -0.002725 0.193108
0.099527 -0.002719 0.192534
0.100256 -0.002715 0.192023
-0.749411 -0.013468 1.455009
-0.743659 -0.013485 1.457957
-0.739568 -0.013533 1.464179
-0.733692 -0.013549 1.466884
-0.737016 -0.013737 1.488154
-0.736747 -0.013861 1.502456
-0.734445 -0.013949 1.512792
-0.731062 -0.014018 1.521029
-0.728128 -0.014097 1.530317
-0.721409 -0.014103 1.531702
-0.710921 -0.014036 1.524974
-0.701680 -0.013992 1.520758
-0.691530 -0.013929 1.514411
-0.681248 -0.013862 1.507592
-0.671741 -0.013810 1.502313
-0.661339 -0.013738 1.494856
-0.651675 -0.013680 1.488885
-0.643302 -0.013648 1.485723
-0.633499 -0.013585 1.479118
-0.626275 -0.013577 1.478420
-0.614668 -0.013473 1.467211
-0.600911 -0.013319 1.450527
-0.595131 -0.013340 1.452908
-0.366639 -0.009269 1.008992
-0.361101 -0.009248 1.006495
-0.357939 -0.009288 1.010638
-0.352232 -0.009262 1.007604
-0.348951 -0.009300 1.011516
-0.345293 -0.009328 1.014423
-0.339907 -0.009311 1.012261
-0.335892 -0.009331 1.014176
-0.331389 -0.009338 1.014654
-0.325613 -0.009308 1.011188
-0.321852 -0.009337 1.013975
-0.316288 -0.009313 1.011085
-0.308991 -0.009237 1.002487
-0.062929 -0.002303 0.248843
-0.061325 -0.002287 0.247028
-0.060059 -0.002284 0.246533
-0.058504 -0.002269 0.244820
-0.057071 -0.002258 0.243558
-0.054462 -0.002199 0.237134
-0.053182 -0.002193 0.236350
-0.051338 -0.002163 0.232984
-0.050187 -0.002161 0.232691
-0.048242 -0.002124 0.228627
-0.047098 -0.002122 0.228265
-0.045674 -0.002106 0.226505
-0.044340 -0.002094 0.225127
-0.042966 -0.002080 0.223478
-0.041767 -0.002073 0.222686
-0.040290 -0.002052 0.220338
-0.038849 -0.002032 0.218079
-0.037155 -0.001997 0.214242
-0.036233 -0.002003 0.214777
-0.035673 -0.002030 0.217553
-0.034600 -0.002028 0.217281
-0.033788 -0.002042 0.218694
-0.033026 -0.002060 0.220535
-0.032527 -0.002096 0.224323
-0.031569 -0.002104 0.225099
-0.030681 -0.002118 0.226462
-0.029668 -0.002123 0.226971
-0.027630 -0.002135 0.228047
-0.026575 -0.002139 0.228356
-0.025648 -0.002153 0.229853
-0.024542 -0.002154 0.229808
-0.023526 -0.002162 0.230667
-0.022488 -0.002170 0.231382
-0.021442 -0.002177 0.232103
-0.020355 -0.002181 0.232448
-0.019259 -0.002184 0.232738
-0.018178 -0.002190 0.233271
-0.017164 -0.002205 0.234789
-0.016064 -0.002210 0.235295
-0.014961 -0.002215 0.235826
-0.013881 -0.002226 0.236867
-0.012758 -0.002230 0.237302
-0.011634 -0.002235 0.237808
-0.010514 -0.002243 0.238546
-0.009380 -0.002248 0.239123
-0.008238 -0.002254 0.239636
-0.007087 -0.002258 0.240068
-0.005951 -0.002269 0.241244
-0.004784 -0.002272 0.241509
-0.003627 -0.002282 0.242563
-0.002459 -0.002293 0.243701
-0.001275 -0.002294 0.243782
-0.000090 -0.002299 0.244350
0.001099 -0.002302 0.244565
0.002287 -0.002301 0.244449
0.003480 -0.002303 0.244694
0.004672 -0.002304 0.244824
0.005859 -0.002303 0.244688
0.007057 -0.002305 0.244961
0.008264 -0.002310 0.245432
0.009461 -0.002310 0.245527
0.010713 -0.002323 0.246890
0.012036 -0.002347 0.249444
0.013271 -0.002351 0.249885
0.014413 -0.002339 0.248666
0.015639 -0.002342 0.248970
0.017326 -0.002408 0.256055
0.018815 -0.002440 0.259468
0.019924 -0.002421 0.257541
0.021051 -0.002407 0.256080
0.022050 -0.002381 0.253322
0.023445 -0.002397 0.255164
0.024841 -0.002413 0.256842
0.026171 -0.002421 0.257727
0.027393 -0.002418 0.257521
0.028693 -0.002422 0.258034
0.030057 -0.002431 0.259075
0.031397 -0.002438 0.259836
0.032701 -0.002441 0.260269
0.034004 -0.002444 0.260664
0.035357 -0.002451 0.261411
0.036865 -0.002467 0.263218
0.038100 -0.002465 0.263034
0.039916 -0.002499 0.266749
0.041499 -0.002516 0.268731
0.043066 -0.002532 0.270504
0.044365 -0.002532 0.270552
0.045688 -0.002533 0.270736
0.047071 -0.002537 0.271269
0.048376 -0.002537 0.271344
0.049642 -0.002535 0.271209
0.050953 -0.002535 0.271327
0.052263 -0.002535 0.271437
0.053531 -0.002533 0.271335
0.054698 -0.002527 0.270748
0.055826 -0.002519 0.270002
0.054886 -0.002420 0.259519
0.056037 -0.002416 0.259168
0.057109 -0.002409 0.258484
0.058255 -0.002405 0.258155
0.059379 -0.002400 0.257754
0.060416 -0.002393 0.257002
0.061459 -0.002385 0.256306
0.062524 -0.002379 0.255733
0.063448 -0.002368 0.254616
0.064456 -0.002360 0.253878
0.065284 -0.002346 0.252473
0.066195 -0.002336 0.251436
0.067102 -0.002326 0.250422
0.068159 -0.002321 0.249997
0.069102 -0.002313 0.249176
0.069948 -0.002302 0.248044
0.070914 -0.002295 0.247363
0.071649 -0.002281 0.245916
0.072061 -0.002257 0.243425
0.072242 -0.002227 0.240244
0.072344 -0.002195 0.236901
0.072674 -0.002172 0.234397
0.073653 -0.002168 0.234027
0.074211 -0.002152 0.232351
0.074509 -0.002129 0.229921
0.075139 -0.002116 0.228569
0.076127 -0.002113 0.228326
0.076593 -0.002096 0.226549
0.077363 -0.002088 0.225703
0.078170 -0.002081 0.224984
0.078872 -0.002072 0.223988
0.079327 -0.002056 0.222321
0.079750 -0.002040 0.220608
0.080497 -0.002033 0.219821
0.081401 -0.002029 0.219473
0.082168 -0.002023 0.218768
0.082884 -0.002015 0.217944
0.083698 -0.002010 0.217389
0.084601 -0.002007 0.217074
0.085219 -0.001998 0.216040
0.085905 -0.001990 0.215196
0.086526 -0.001981 0.214208
0.087135 -0.001972 0.213208
0.087689 -0.001962 0.212093
0.088326 -0.001954 0.211196
0.089006 -0.001947 0.210418
0.089701 -0.001941 0.209685
0.090289 -0.001932 0.208715
0.090832 -0.001923 0.207658
0.091415 -0.001915 0.206709
0.091956 -0.001906 0.205681
0.092659 -0.001901 0.205024
0.093161 -0.001891 0.203934
0.093613 -0.001881 0.202753
0.094002 -0.001870 0.201454
0.094541 -0.001862 0.200492
0.094998 -0.001852 0.199368
0.095569 -0.001845 0.198498
0.095969 -0.001835 0.197284
0.096576 -0.001829 0.196507
0.097126 -0.001822 0.195620
0.097529 -0.001813 0.194450
0.098117 -0.001807 0.193656
0.098678 -0.001800 0.192816
0.099182 -0.001793 0.191872
0.099846 -0.001789 0.191240
-0.745352 -0.006603 1.461291
-0.739582 -0.006610 1.464220
-0.750147 -0.006765 1.499799
-0.754602 -0.006867 1.523677
-0.748598 -0.006875 1.526636
-0.744896 -0.006905 1.534332
-0.739811 -0.006922 1.539244
-0.737237 -0.006964 1.549473
-0.731241 -0.006973 1.552587
-0.719580 -0.006929 1.543557
-0.708266 -0.006887 1.535041
-0.696732 -0.006842 1.525812
-0.685478 -0.006799 1.516959
-0.675739 -0.006770 1.511261
-0.663503 -0.006716 1.499756
-0.654437 -0.006693 1.495201
-0.644388 -0.006659 1.488238
-0.632754 -0.006609 1.477383
-0.621839 -0.006564 1.467953
-0.602202 -0.006426 1.437458
-0.600927 -0.006483 1.450567
-0.361112 -0.004494 1.006524
-0.354691 -0.004471 1.001464
-0.353159 -0.004511 1.010252
-0.348178 -0.004507 1.009273
-0.344795 -0.004524 1.012957
-0.340701 -0.004532 1.014623
-0.334732 -0.004515 1.010672
-0.331128 -0.004530 1.013850
-0.325699 -0.004520 1.011450
-0.321250 -0.004523 1.012074
-0.313884 -0.004485 1.003393
-0.309675 -0.004492 1.004700
-0.062994 -0.001117 0.249097
-0.061324 -0.001108 0.247020
-0.059951 -0.001104 0.246090
-0.058457 -0.001098 0.244619
-0.056891 -0.001090 0.242789
-0.054739 -0.001071 0.238335
-0.053123 -0.001061 0.236088
-0.051145 -0.001043 0.232107
-0.049552 -0.001033 0.229745
-0.048074 -0.001025 0.227827
-0.047116 -0.001028 0.228350
-0.045893 -0.001025 0.227589
-0.044304 -0.001013 0.224939
-0.042876 -0.001005 0.223003
-0.041795 -0.001004 0.222829
-0.040505 -0.000999 0.221510
-0.038414 -0.000972 0.215634
-0.037137 -0.000966 0.214132
-0.036258 -0.000970 0.214920
-0.035435 -0.000976 0.216099
-0.034571 -0.000980 0.217101
-0.034032 -0.000995 0.220270
-0.033050 -0.000997 0.220696
-0.032364 -0.001009 0.223199
-0.031677 -0.001021 0.225865
-0.030785 -0.001028 0.227225
-0.029730 -0.001029 0.227442
-0.028677 -0.001031 0.227704
-0.027679 -0.001034 0.228446
-0.026638 -0.001037 0.228891
-0.025648 -0.001041 0.229845
-0.024591 -0.001043 0.230267
-0.023561 -0.001047 0.231006
-0.022508 -0.001050 0.231588
-0.021431 -0.001052 0.231979
-0.020358 -0.001055 0.232484
-0.019284 -0.001057 0.233035
-0.018228 -0.001062 0.233908
-0.017107 -0.001062 0.234010
-0.016050 -0.001067 0.235087
-0.014951 -0.001070 0.235662
-0.013851 -0.001073 0.236347
-0.012730 -0.001076 0.236772
-0.011609 -0.001078 0.237292
-0.010474 -0.001080 0.237646
-0.009345 -0.001083 0.238229
-0.008223 -0.001087 0.239208
-0.007088 -0.001091 0.240072
-0.005942 -0.001095 0.240895
-0.004786 -0.001098 0.241564
-0.003626 -0.001103 0.242474
-0.002455 -0.001106 0.243237
-0.001275 -0.001108 0.243677
-0.000090 -0.001109 0.243854
0.001097 -0.001110 0.244153
0.002286 -0.001111 0.244273
0.003476 -0.001112 0.244462
0.004662 -0.001111 0.244302
0.005859 -0.001113 0.244688
0.007060 -0.001115 0.245048
0.008265 -0.001116 0.245447
0.009500 -0.001121 0.246551
0.010742 -0.001126 0.247546
0.011957 -0.001127 0.247804
0.013172 -0.001128 0.248033
0.014385 -0.001128 0.248176
0.015593 -0.001129 0.248238
0.017261 -0.001160 0.255088
0.019002 -0.001191 0.262034
0.020112 -0.001182 0.259978
0.020774 -0.001148 0.252704
0.021964 -0.001146 0.252328
0.023307 -0.001152 0.253663
0.024665 -0.001158 0.255017
0.026128 -0.001168 0.257297
0.027463 -0.001172 0.258176
0.028669 -0.001170 0.257814
0.030025 -0.001175 0.258792
0.031396 -0.001179 0.259827
0.032671 -0.001180 0.260025
0.034134 -0.001187 0.261653
0.035455 -0.001189 0.262128
0.036712 -0.001188 0.262124
0.038117 -0.001193 0.263148
0.039573 -0.001198 0.264453
0.041651 -0.001222 0.269716
0.043058 -0.001225 0.270454
0.044373 -0.001225 0.270596
0.045688 -0.001226 0.270734
0.047035 -0.001227 0.271059
0.048373 -0.001228 0.271326
0.049657 -0.001227 0.271284
0.050946 -0.001227 0.271284
0.052275 -0.001227 0.271496
0.053586 -0.001228 0.271613
0.054699 -0.001223 0.270751
0.055713 -0.001217 0.269451
0.054925 -0.001173 0.259701
0.055979 -0.001169 0.258900
0.057113 -0.001167 0.258499
0.058233 -0.001164 0.258056
0.059342 -0.001162 0.257591
0.060383 -0.001158 0.256857
0.061419 -0.001155 0.256136
0.062513 -0.001153 0.255683
0.063464 -0.001148 0.254678
0.064488 -0.001144 0.254001
0.065297 -0.001137 0.252521
0.066273 -0.001134 0.251732
0.067282 -0.001131 0.251092
0.068214 -0.001126 0.250199
0.069188 -0.001123 0.249486
0.070068 -0.001118 0.248467
0.071126 -0.001116 0.248103
0.072012 -0.001112 0.247160
0.072993 -0.001109 0.246571
0.072056 -0.001078 0.239625
0.072360 -0.001065 0.236952
0.072545 -0.001052 0.233978
0.073395 -0.001048 0.233207
0.073864 -0.001039 0.231264
0.074242 -0.001030 0.229096
0.075172 -0.001028 0.228669
0.076024 -0.001025 0.228019
0.076576 -0.001018 0.226496
0.077272 -0.001013 0.225436
0.078313 -0.001013 0.225395
0.078966 -0.001008 0.224253
0.079210 -0.000998 0.221994
0.079737 -0.000991 0.220572
0.080666 -0.000990 0.220281
0.081410 -0.000987 0.219498
0.082196 -0.000984 0.218842
0.082931 -0.000980 0.218067
0.083635 -0.000977 0.217226
0.084465 -0.000975 0.216724
0.084517 -0.000964 0.214260
0.085515 -0.000964 0.214220
0.086470 -0.000963 0.214070
0.086873 -0.000957 0.212567
0.087584 -0.000954 0.211838
0.088327 -0.000951 0.211201
0.088979 -0.000948 0.210355
0.089643 -0.000945 0.209551
0.090294 -0.000941 0.208729
0.090832 -0.000937 0.207661
0.091363 -0.000932 0.206594
0.091953 -0.000929 0.205675
0.092546 -0.000925 0.204776
0.093086 -0.000921 0.203772
0.093780 -0.000919 0.203117
0.094222 -0.000914 0.201928
0.094869 -0.000911 0.201189
0.095252 -0.000906 0.199903
0.095824 -0.000903 0.199029
0.096649 -0.000902 0.198683
0.096567 -0.000893 0.196490
0.097061 -0.000889 0.195492
0.097412 -0.000884 0.194217
0.097872 -0.000880 0.193175
0.098345 -0.000877 0.192168
0.098899 -0.000874 0.191327
0.099636 -0.000873 0.190841
-0.752061 0.000353 1.580636
-0.745836 0.000356 1.583583
-0.731717 0.000355 1.569599
-0.714578 0.000353 1.548728
-0.703149 0.000353 1.539871
-0.690732 0.000353 1.528592
-0.679617 0.000353 1.519942
-0.667120 0.000353 1.507936
-0.656855 0.000353 1.500731
-0.646251 0.000354 1.492546
-0.631256 0.000351 1.473891
-0.614468 0.000348 1.450557
-0.608705 0.000351 1.452985
-0.354693 0.000260 1.001472
-0.350522 0.000262 1.002710
-0.347740 0.000265 1.008002
-0.342335 0.000265 1.005730
-0.336823 0.000266 1.003074
-0.335060 0.000269 1.011663
-0.325652 0.000267 0.997082
-0.325701 0.000272 1.011459
-0.063244 0.000071 0.250089
-0.061275 0.000071 0.246825
-0.059766 0.000070 0.245331
-0.058400 0.000070 0.244379
-0.056957 0.000070 0.243067
-0.054515 0.000069 0.237359
-0.052967 0.000068 0.235395
-0.051470 0.000068 0.233581
-0.050267 0.000068 0.233057
-0.048351 0.000067 0.229141
-0.047000 0.000067 0.227787
-0.046060 0.000067 0.228415
-0.044842 0.000067 0.227671
-0.043104 0.000067 0.224191
-0.041804 0.000066 0.222876
-0.040359 0.000066 0.220712
-0.038658 0.000065 0.217004
-0.037285 0.000064 0.214985
-0.036267 0.000065 0.214971
-0.035485 0.000065 0.216403
-0.034598 0.000066 0.217268
-0.033777 0.000066 0.218620
-0.033239 0.000067 0.221956
-0.032339 0.000068 0.223023
-0.030699 0.000069 0.226590
-0.029612 0.000069 0.226539
-0.027649 0.000070 0.228201
-0.025695 0.000071 0.230266
-0.023573 0.000071 0.231116
-0.022484 0.000072 0.231340
-0.021434 0.000072 0.232017
-0.020327 0.000072 0.232125
-0.019299 0.000072 0.233214
-0.018274 0.000073 0.234488
-0.017249 0.000074 0.235948
-0.016091 0.000074 0.235677
-0.014973 0.000074 0.236009
-0.013866 0.000074 0.236599
-0.012739 0.000074 0.236939
-0.011622 0.000074 0.237567
-0.010496 0.000075 0.238143
-0.009375 0.000075 0.238979
-0.008248 0.000075 0.239933
-0.007111 0.000076 0.240870
-0.005956 0.000076 0.241449
-0.004789 0.000076 0.241750
-0.003624 0.000076 0.242383
-0.002457 0.000076 0.243423
-0.001274 0.000077 0.243550
-0.000090 0.000077 0.243868
0.001098 0.000077 0.244262
0.002284 0.000077 0.244070
0.003473 0.000077 0.244206
0.004663 0.000077 0.244343
0.005848 0.000077 0.244199
0.007057 0.000077 0.244943
0.008314 0.000078 0.246917
0.009508 0.000077 0.246760
0.010726 0.000078 0.247193
0.011960 0.000078 0.247879
0.013159 0.000078 0.247785
0.014401 0.000078 0.248446
0.015922 0.000079 0.253474
0.017256 0.000080 0.255006
0.018813 0.000081 0.259438
0.020098 0.000081 0.259796
0.021210 0.000080 0.258016
0.022304 0.000080 0.256235
0.023450 0.000079 0.255215
0.024756 0.000079 0.255962
0.026071 0.000080 0.256734
0.027288 0.000079 0.256523
0.028588 0.000079 0.257088
0.029944 0.000080 0.258098
0.031285 0.000080 0.258906
0.032629 0.000080 0.259691
0.034018 0.000080 0.260767
0.035387 0.000080 0.261626
0.037033 0.000081 0.264415
0.038030 0.000080 0.262546
0.039795 0.000081 0.265938
0.041573 0.000082 0.269207
0.043091 0.000082 0.270659
0.044429 0.000082 0.270932
0.045681 0.000082 0.270690
0.047064 0.000082 0.271227
0.048428 0.000082 0.271632
0.049682 0.000081 0.271422
0.050998 0.000081 0.271562
0.052283 0.000081 0.271534
0.053573 0.000081 0.271547
0.054692 0.000080 0.270714
0.055511 0.000079 0.268476
0.055156 0.000077 0.260793
0.056162 0.000076 0.259744
0.057113 0.000076 0.258500
0.058250 0.000075 0.258130
0.059297 0.000075 0.257394
0.060369 0.000074 0.256797
0.061352 0.000074 0.255857
0.062370 0.000073 0.255100
0.063415 0.000073 0.254482
0.064381 0.000073 0.253583
0.065324 0.000072 0.252627
0.066355 0.000072 0.252041
0.067304 0.000071 0.251174
0.068259 0.000071 0.250362
0.069293 0.000070 0.249863
0.070319 0.000070 0.249358
0.071309 0.000069 0.248742
0.072220 0.000069 0.247876
0.072225 0.000067 0.243978
0.072380 0.000066 0.240703
0.072319 0.000065 0.236819
0.072817 0.000064 0.234857
0.073021 0.000063 0.232020
0.073772 0.000063 0.230975
0.074197 0.000062 0.228957
0.075123 0.000061 0.228520
0.076009 0.000061 0.227974
0.076681 0.000060 0.226808
0.077378 0.000060 0.225745
0.077878 0.000059 0.224146
0.078516 0.000058 0.222975
0.079379 0.000058 0.222467
0.079846 0.000057 0.220874
0.080545 0.000057 0.219951
0.081485 0.000056 0.219700
0.082156 0.000056 0.218737
0.082839 0.000055 0.217825
0.083623 0.000055 0.217196
0.084414 0.000055 0.216594
0.085213 0.000054 0.216026
0.085934 0.000054 0.215269
0.086680 0.000053 0.214589
0.087337 0.000053 0.213702
0.088057 0.000052 0.212984
0.088656 0.000052 0.211987
0.089292 0.000051 0.211095
0.089936 0.000051 0.210235
0.090482 0.000050 0.209165
0.091091 0.000049 0.208253
0.091592 0.000049 0.207111
0.092021 0.000048 0.205829
0.092318 0.000048 0.204273
0.093010 0.000047 0.203608
0.093531 0.000047 0.202579
0.093832 0.000046 0.201092
0.094208 0.000045 0.199788
0.094609 0.000045 0.198555
0.094994 0.000044 0.197306
0.095239 0.000043 0.195786
0.096006 0.000043 0.195350
0.096458 0.000042 0.194277
0.096939 0.000042 0.193276
0.097629 0.000041 0.192696
0.097983 0.000041 0.191462
0.098492 0.000040 0.190541
0.099260 0.000040 0.190121
-0.758186 0.007954 1.609808
-0.751845 0.007970 1.612779
-0.731599 0.007836 1.585621
-0.713717 0.007726 1.563020
-0.700507 0.007664 1.550228
-0.689312 0.007623 1.541628
-0.674108 0.007536 1.523737
-0.665092 0.007518 1.519555
-0.655468 0.007491 1.513837
-0.643746 0.007440 1.503059
-0.637782 0.007455 1.505599
-0.063046 0.001260 0.249308
-0.061441 0.001252 0.247493
-0.060096 0.001249 0.246687
-0.058681 0.001244 0.245559
-0.057380 0.001241 0.244876
-0.054295 0.001199 0.236405
-0.053347 0.001203 0.237085
-0.051727 0.001192 0.234749
-0.050390 0.001187 0.233632
-0.048879 0.001178 0.231644
-0.047313 0.001167 0.229309
-0.045745 0.001155 0.226854
-0.044369 0.001148 0.225270
-0.043045 0.001141 0.223889
-0.041878 0.001139 0.223276
-0.040647 0.001135 0.222288
-0.038670 0.001109 0.217072
-0.037420 0.001103 0.215767
-0.036284 0.001100 0.215077
-0.035480 0.001107 0.216374
-0.034557 0.001111 0.217010
-0.033678 0.001117 0.217984
-0.032991 0.001129 0.220300
-0.032520 0.001150 0.224274
-0.031562 0.001155 0.225047
-0.030647 0.001161 0.226207
-0.029667 0.001166 0.226962
-0.028556 0.001165 0.226742
-0.027595 0.001171 0.227752
-0.026564 0.001174 0.228261
-0.024544 0.001183 0.229831
-0.023528 0.001188 0.230678
-0.022541 0.001195 0.231933
-0.021440 0.001196 0.232086
-0.020387 0.001201 0.232811
-0.019319 0.001204 0.233465
-0.018235 0.001208 0.233994
-0.017195 0.001214 0.235219
-0.016099 0.001218 0.235798
-0.014980 0.001220 0.236120
-0.013869 0.001223 0.236649
-0.012758 0.001226 0.237293
-0.011627 0.001229 0.237661
-0.010506 0.001232 0.238362
-0.009376 0.001236 0.239020
-0.008246 0.001241 0.239871
-0.007100 0.001244 0.240477
-0.005953 0.001249 0.241313
-0.004792 0.001252 0.241896
-0.003626 0.001255 0.242517
-0.002453 0.001258 0.243059
-0.001273 0.001260 0.243379
-0.000090 0.001262 0.243749
0.001097 0.001264 0.244075
0.002285 0.001264 0.244245
0.003472 0.001264 0.244183
0.004666 0.001266 0.244481
0.005864 0.001268 0.244862
0.007041 0.001265 0.244410
0.008240 0.001267 0.244735
0.009489 0.001274 0.246251
0.010717 0.001278 0.246987
0.011951 0.001282 0.247683
0.013166 0.001283 0.247916
0.014381 0.001283 0.248108
0.015622 0.001286 0.248695
0.017270 0.001320 0.255216
0.018946 0.001351 0.261273
0.020105 0.001343 0.259888
0.021156 0.001330 0.257356
0.022190 0.001317 0.254923
0.023362 0.001313 0.254255
0.024679 0.001317 0.255170
0.025958 0.001319 0.255621
0.027414 0.001329 0.257711
0.028647 0.001329 0.257626
0.029891 0.001328 0.257642
0.031214 0.001331 0.258324
0.032570 0.001335 0.259219
0.034321 0.001355 0.263091
0.035524 0.001352 0.262646
0.036678 0.001347 0.261881
0.038033 0.001350 0.262572
0.040205 0.001381 0.268678
0.041616 0.001384 0.269491
0.043095 0.001390 0.270690
0.044428 0.001391 0.270930
0.045740 0.001390 0.271047
0.047127 0.001393 0.271592
0.048491 0.001394 0.271987
0.049752 0.001392 0.271806
0.051047 0.001391 0.271824
0.052360 0.001391 0.271941
0.053615 0.001390 0.271762
0.054693 0.001384 0.270720
0.054932 0.001357 0.265680
0.055480 0.001339 0.262326
0.056177 0.001326 0.259815
0.057283 0.001322 0.259267
0.058585 0.001323 0.259617
0.059337 0.001312 0.257569
0.060292 0.001305 0.256474
0.061345 0.001301 0.255831
0.062378 0.001297 0.255135
0.063394 0.001293 0.254400
0.064403 0.001288 0.253668
0.065421 0.001284 0.253003
0.066443 0.001280 0.252379
0.067428 0.001275 0.251640
0.068385 0.001271 0.250825
0.069355 0.001266 0.250091
0.070333 0.001262 0.249408
0.071394 0.001259 0.249040
0.072283 0.001254 0.248094
0.073166 0.001248 0.247160
0.072015 0.001209 0.239491
0.072402 0.001196 0.237094
0.072138 0.001173 0.232670
0.073058 0.001170 0.232136
0.073642 0.001161 0.230570
0.073943 0.001149 0.228173
0.074976 0.001147 0.228075
0.076008 0.001146 0.227973
0.076499 0.001137 0.226270
0.077150 0.001131 0.225083
0.077644 0.001122 0.223473
0.078507 0.001119 0.222952
0.079395 0.001116 0.222513
0.080061 0.001110 0.221468
0.080782 0.001105 0.220601
0.081597 0.001102 0.220003
0.082509 0.001100 0.219678
0.083215 0.001095 0.218815
0.083954 0.001091 0.218056
0.084778 0.001088 0.217529
0.085527 0.001084 0.216823
0.086223 0.001079 0.215994
0.086938 0.001075 0.215228
0.087701 0.001072 0.214593
0.088335 0.001067 0.213657
0.088841 0.001060 0.212430
0.089418 0.001055 0.211394
0.089984 0.001049 0.210348
0.090573 0.001044 0.209375
0.091110 0.001039 0.208298
0.091666 0.001033 0.207281
0.092149 0.001027 0.206115
0.092822 0.001024 0.205389
0.093387 0.001019 0.204433
0.093942 0.001014 0.203469
0.094127 0.001005 0.201725
0.094541 0.000999 0.200494
0.094809 0.000992 0.198975
0.094946 0.000983 0.197208
0.095525 0.000979 0.196375
0.095913 0.000973 0.195160
0.096427 0.000968 0.194216
0.097056 0.000965 0.193509
0.097542 0.000960 0.192525
0.097938 0.000955 0.191374
0.098140 0.000947 0.189859
0.098732 0.000944 0.189110
-0.906604 0.017031 1.760229
-0.912078 0.017296 1.788169
-0.898442 0.017199 1.778737
-0.875063 0.016912 1.749554
-0.875432 0.017083 1.767661
-0.843844 0.016791 1.738154
-0.819405 0.016467 1.704857
-0.821966 0.016685 1.727561
-0.790093 0.016366 1.694827
-0.731578 0.015311 1.585576
-0.722227 0.015273 1.581657
-0.715988 0.015301 1.584491
-0.689291 0.014887 1.541584
-0.674324 0.014721 1.524229
-0.664257 0.014659 1.517651
-0.646679 0.014428 1.493544
-0.646245 0.014578 1.508899
-0.063043 0.002449 0.249300
-0.061372 0.002430 0.247223
-0.059769 0.002413 0.245350
-0.058487 0.002409 0.244749
-0.057051 0.002398 0.243478
-0.054903 0.002356 0.239057
-0.052897 0.002318 0.235089
-0.051254 0.002295 0.232606
-0.049985 0.002288 0.231760
-0.048502 0.002270 0.229864
-0.046636 0.002234 0.226028
-0.045353 0.002224 0.224916
-0.044325 0.002227 0.225052
-0.043269 0.002228 0.225059
-0.041899 0.002213 0.223391
-0.040428 0.002191 0.221096
-0.038632 0.002151 0.216865
-0.037194 0.002128 0.214470
-0.036187 0.002129 0.214507
-0.035307 0.002139 0.215325
-0.034809 0.002172 0.218597
-0.033992 0.002188 0.220019
-0.033206 0.002206 0.221746
-0.032279 0.002216 0.222616
-0.031462 0.002234 0.224343
-0.030715 0.002259 0.226715
-0.029684 0.002263 0.227099
-0.027645 0.002276 0.228179
-0.026629 0.002284 0.228827
-0.025726 0.002302 0.230551
-0.024610 0.002302 0.230451
-0.023570 0.002309 0.231097
-0.022583 0.002323 0.232363
-0.021449 0.002322 0.232182
-0.019335 0.002338 0.233656
-0.018265 0.002346 0.234389
-0.017186 0.002354 0.235105
-0.016062 0.002356 0.235271
-0.014967 0.002364 0.235934
-0.013847 0.002368 0.236289
-0.012741 0.002375 0.236985
-0.011619 0.002381 0.237510
-0.010496 0.002388 0.238136
-0.009367 0.002395 0.238797
-0.008233 0.002402 0.239494
-0.007100 0.002413 0.240517
-0.005948 0.002420 0.241125
-0.004787 0.002425 0.241668
-0.003621 0.002431 0.242181
-0.002448 0.002435 0.242621
-0.001270 0.002438 0.242858
-0.000090 0.002442 0.243213
0.001094 0.002444 0.243448
0.002280 0.002446 0.243631
0.003473 0.002452 0.244222
0.004659 0.002451 0.244124
0.005850 0.002453 0.244317
0.007064 0.002461 0.245191
0.008255 0.002461 0.245161
0.009465 0.002466 0.245646
0.010688 0.002472 0.246322
0.011919 0.002479 0.247021
0.013189 0.002492 0.248355
0.014387 0.002490 0.248215
0.015598 0.002491 0.248323
0.016849 0.002497 0.249013
0.018553 0.002565 0.255851
0.019917 0.002581 0.257462
0.021137 0.002577 0.257138
0.022227 0.002558 0.255353
0.023432 0.002555 0.255031
0.024680 0.002555 0.255189
0.026108 0.002574 0.257107
0.027399 0.002578 0.257579
0.028616 0.002575 0.257349
0.029861 0.002574 0.257389
0.031208 0.002582 0.258280
0.032815 0.002610 0.261177
0.034277 0.002625 0.262762
0.035553 0.002625 0.262867
0.036725 0.002618 0.262222
0.038039 0.002621 0.262619
0.039457 0.002630 0.263684
0.041670 0.002691 0.269846
0.043113 0.002699 0.270806
0.044483 0.002702 0.271271
0.045741 0.002699 0.271059
0.047138 0.002704 0.271663
0.048445 0.002703 0.271734
0.049726 0.002702 0.271672
0.051022 0.002700 0.271695
0.052320 0.002700 0.271737
0.053591 0.002697 0.271644
0.054649 0.002685 0.270510
0.055071 0.002642 0.266356
0.055499 0.002602 0.262421
0.056362 0.002583 0.260678
0.057269 0.002567 0.259209
0.058224 0.002554 0.258022
0.059341 0.002549 0.257592
0.060374 0.002540 0.256824
0.061332 0.002528 0.255781
0.062434 0.002523 0.255369
0.063463 0.002515 0.254680
0.064475 0.002506 0.253959
0.065489 0.002498 0.253271
0.066508 0.002491 0.252628
0.067583 0.002485 0.252223
0.068615 0.002479 0.251675
0.069632 0.002472 0.251092
0.070616 0.002464 0.250416
0.071702 0.002460 0.250118
0.072732 0.002454 0.249638
0.073586 0.002442 0.248580
0.072437 0.002366 0.240897
0.072764 0.002339 0.238280
0.072800 0.002304 0.234805
0.072847 0.002270 0.231470
0.073887 0.002268 0.231341
0.074635 0.002256 0.230313
0.075297 0.002243 0.229052
0.076271 0.002239 0.228763
0.077039 0.002230 0.227872
0.077661 0.002216 0.226574
0.078114 0.002198 0.224827
0.079287 0.002201 0.225168
0.079980 0.002190 0.224154
0.080397 0.002172 0.222400
0.081428 0.002171 0.222365
0.082102 0.002161 0.221366
0.082770 0.002150 0.220374
0.083331 0.002137 0.219121
0.084041 0.002129 0.218283
0.084907 0.002124 0.217861
0.085558 0.002114 0.216903
0.086211 0.002105 0.215965
0.086994 0.002098 0.215369
0.087664 0.002090 0.214505
0.088366 0.002082 0.213733
0.088932 0.002071 0.212648
0.089493 0.002060 0.211571
0.090029 0.002049 0.210454
0.090706 0.002041 0.209682
0.091238 0.002031 0.208590
0.091648 0.002017 0.207240
0.092238 0.002008 0.206315
0.092879 0.002001 0.205514
0.093498 0.001993 0.204676
0.094125 0.001985 0.203865
0.094478 0.001972 0.202478
0.094538 0.001953 0.200489
0.095108 0.001944 0.199603
0.094966 0.001922 0.197247
0.095292 0.001909 0.195895
0.095903 0.001902 0.195140
0.096351 0.001892 0.194062
0.096855 0.001884 0.193109
0.097111 0.001871 0.191674
0.097584 0.001862 0.190681
0.097931 0.001851 0.189454
0.098365 0.001841 0.188407
-0.951846 0.026383 1.830237
-0.920297 0.025745 1.786797
-0.912043 0.025753 1.788085
-0.898407 0.025608 1.778653
-0.892414 0.025679 1.784231
-0.875396 0.025432 1.767578
-0.859457 0.025211 1.752711
-0.843809 0.024995 1.738072
-0.830755 0.024851 1.728465
-0.821930 0.024833 1.727480
-0.816765 0.024926 1.734180
-0.790058 0.024356 1.694747
-0.783379 0.024399 1.697845
-0.770620 0.024251 1.687635
-0.061582 0.003623 0.248075
-0.059935 0.003595 0.246036
-0.058782 0.003596 0.245995
-0.057518 0.003591 0.245477
-0.055891 0.003562 0.243367
-0.053689 0.003494 0.238615
-0.051826 0.003446 0.235211
-0.050148 0.003409 0.232520
-0.048839 0.003395 0.231469
-0.047493 0.003378 0.230190
-0.046050 0.003354 0.228380
-0.044712 0.003336 0.227024
-0.043115 0.003297 0.224262
-0.042052 0.003298 0.224215
-0.040917 0.003293 0.223779
-0.038811 0.003208 0.217874
-0.037581 0.003193 0.216709
-0.036186 0.003162 0.214507
-0.035175 0.003164 0.214526
-0.034686 0.003214 0.217835
-0.033950 0.003244 0.219755
-0.033276 0.003282 0.222221
-0.032254 0.003287 0.222455
-0.031277 0.003297 0.223032
-0.030403 0.003319 0.224419
-0.029572 0.003348 0.226252
-0.026536 0.003378 0.228034
-0.025607 0.003401 0.229495
-0.024685 0.003428 0.231165
-0.023632 0.003437 0.231718
-0.022575 0.003447 0.232297
-0.021492 0.003453 0.232658
-0.020412 0.003462 0.233122
-0.019327 0.003469 0.233572
-0.018249 0.003480 0.234193
-0.017180 0.003493 0.235026
-0.016089 0.003504 0.235679
-0.014985 0.003513 0.236230
-0.013858 0.003518 0.236496
-0.012722 0.003521 0.236640
-0.011602 0.003529 0.237169
-0.010492 0.003544 0.238078
-0.009376 0.003559 0.239051
-0.008242 0.003570 0.239795
-0.007098 0.003581 0.240458
-0.005952 0.003594 0.241312
-0.004790 0.003602 0.241830
-0.003618 0.003605 0.242019
-0.002449 0.003616 0.242691
-0.001271 0.003620 0.242942
-0.000090 0.003624 0.243234
0.001095 0.003631 0.243678
0.002282 0.003634 0.243848
0.003472 0.003639 0.244180
0.004661 0.003639 0.244243
0.005854 0.003643 0.244483
0.007052 0.003647 0.244786
0.008245 0.003648 0.244879
0.009453 0.003655 0.245336
0.010696 0.003672 0.246499
0.011945 0.003688 0.247586
0.013206 0.003704 0.248681
0.014428 0.003707 0.248929
0.015690 0.003719 0.249798
0.016974 0.003734 0.250855
0.018224 0.003741 0.251333
0.019478 0.003747 0.251795
0.020759 0.003757 0.252549
0.022135 0.003782 0.254310
0.023433 0.003792 0.255049
0.024691 0.003795 0.255303
0.025982 0.003803 0.255881
0.027232 0.003804 0.256014
0.028526 0.003810 0.256550
0.029929 0.003830 0.257983
0.031213 0.003834 0.258333
0.032555 0.003845 0.259122
0.034128 0.003881 0.261627
0.035456 0.003887 0.262154
0.036697 0.003884 0.262034
0.037975 0.003885 0.262187
0.039393 0.003899 0.263269
0.041609 0.003989 0.269461
0.043089 0.004005 0.270667
0.044464 0.004011 0.271165
0.045764 0.004010 0.271205
0.047175 0.004018 0.271883
0.048467 0.004016 0.271870
0.049732 0.004012 0.271712
0.051038 0.004011 0.271790
0.052310 0.004008 0.271695
0.053531 0.004001 0.271350
0.054627 0.003985 0.270408
0.055096 0.003926 0.266482
0.055619 0.003872 0.262996
0.056066 0.003816 0.259317
0.056981 0.003794 0.257913
0.058248 0.003795 0.258138
0.059299 0.003783 0.257415
0.060329 0.003770 0.256641
0.061421 0.003761 0.256157
0.062380 0.003744 0.255155
0.063470 0.003736 0.254718
0.064502 0.003725 0.254068
0.065494 0.003712 0.253296
0.066437 0.003696 0.252367
0.067486 0.003687 0.251865
0.068487 0.003676 0.251209
0.069436 0.003662 0.250393
0.070388 0.003649 0.249613
0.071394 0.003639 0.249049
0.072343 0.003626 0.248307
0.073066 0.003603 0.246829
0.072476 0.003517 0.241029
0.072835 0.003479 0.238517
0.072316 0.003401 0.233248
0.072826 0.003372 0.231405
0.073469 0.003351 0.230034
0.074220 0.003335 0.229036
0.075090 0.003325 0.228425
0.075961 0.003315 0.227836
0.076796 0.003304 0.227153
0.077567 0.003290 0.226303
0.078053 0.003265 0.224656
0.078664 0.003246 0.223404
0.079652 0.003242 0.223237
0.080342 0.003227 0.222250
0.081052 0.003213 0.221341
0.082018 0.003209 0.221142
0.082820 0.003199 0.220509
0.083577 0.003188 0.219770
0.084290 0.003175 0.218931
0.084930 0.003159 0.217923
0.085687 0.003149 0.217231
0.086378 0.003136 0.216384
0.087061 0.003123 0.215534
0.087743 0.003111 0.214699
0.088473 0.003100 0.213991
0.088924 0.003080 0.212631
0.089512 0.003065 0.211617
0.090029 0.003048 0.210456
0.090643 0.003035 0.209538
0.091207 0.003020 0.208521
0.091982 0.003013 0.207995
0.092427 0.002995 0.206736
0.093229 0.002988 0.206289
0.093638 0.002970 0.204981
0.094282 0.002959 0.204204
0.094843 0.002946 0.203258
0.094964 0.002919 0.201390
0.094636 0.002880 0.198610
0.095000 0.002862 0.197316
0.095390 0.002845 0.196095
0.095847 0.002830 0.195023
0.096270 0.002815 0.193896
0.096463 0.002793 0.192324
0.096838 0.002777 0.191133
0.097494 0.002770 0.190503
