ply
format ascii 1.0
element vertex 1703
property float x
property float y
property float z
end_header
0.036980 -0.008863 0.264104
0.038397 -0.008895 0.265150
0.039813 -0.008925 0.266127
0.041020 -0.008907 0.265692
0.042840 -0.009020 0.269147
0.044357 -0.009064 0.270563
0.045803 -0.009091 0.271482
0.047259 -0.009119 0.272416
0.048693 -0.009141 0.273182
0.049832 -0.009109 0.272308
0.051379 -0.009150 0.273650
0.052778 -0.009164 0.274172
0.054150 -0.009172 0.274534
0.055464 -0.009171 0.274595
0.056710 -0.009158 0.274331
0.057946 -0.009145 0.274042
0.058860 -0.009082 0.272278
0.058811 -0.008877 0.266237
0.059444 -0.008782 0.263475
0.060154 -0.008701 0.261163
0.061308 -0.008687 0.260841
0.062468 -0.008674 0.260557
0.063524 -0.008647 0.259868
0.064532 -0.008615 0.259009
0.065623 -0.008596 0.258517
0.066653 -0.008569 0.257806
0.067334 -0.008499 0.255803
0.068226 -0.008457 0.254656
0.069183 -0.008425 0.253790
0.070049 -0.008384 0.252627
0.070914 -0.008343 0.251502
0.071650 -0.008289 0.249965
0.072539 -0.008254 0.249001
0.073500 -0.008229 0.248315
0.074266 -0.008182 0.247004
0.074753 -0.008107 0.244816
0.074079 -0.007911 0.238954
0.074768 -0.007863 0.237594
0.075483 -0.007820 0.236355
0.076322 -0.007790 0.235536
0.077042 -0.007750 0.234378
0.077367 -0.007671 0.232065
0.078092 -0.007634 0.230998
0.078907 -0.007607 0.230223
0.079630 -0.007571 0.229201
0.080347 -0.007536 0.228189
0.080775 -0.007475 0.226391
0.081572 -0.007450 0.225658
0.082366 -0.007425 0.224932
0.083256 -0.007409 0.224482
0.083906 -0.007372 0.223401
0.084716 -0.007350 0.222766
0.085585 -0.007334 0.222293
0.086215 -0.007298 0.221217
0.086946 -0.007271 0.220420
0.087534 -0.007233 0.219277
0.088218 -0.007204 0.218394
0.088731 -0.007162 0.217110
0.089306 -0.007125 0.215998
0.090100 -0.007107 0.215434
0.090737 -0.007077 0.214502
0.091360 -0.007047 0.213555
0.092012 -0.007019 0.212690
0.092596 -0.006987 0.211682
0.093166 -0.006955 0.210658
0.093787 -0.006927 0.209764
0.094378 -0.006897 0.208813
0.094842 -0.006859 0.207599
0.095330 -0.006823 0.206456
0.095576 -0.006771 0.204809
0.095807 -0.006719 0.203156
0.096130 -0.006674 0.201723
0.096754 -0.006651 0.200936
0.097157 -0.006614 0.199702
0.097668 -0.006584 0.198703
0.098215 -0.006557 0.197787
0.098726 -0.006529 0.196807
0.099238 -0.006501 0.195840
0.100120 -0.006498 0.195604
0.100644 -0.006471 0.194668
0.101326 -0.006456 0.194041
-0.750918 -0.040364 1.429869
-0.745247 -0.040419 1.432831
-0.734601 -0.040204 1.426117
-0.737496 -0.040732 1.445742
-0.734501 -0.040942 1.454021
-0.732452 -0.041209 1.464286
-0.730103 -0.041464 1.474083
-0.725173 -0.041576 1.478747
-0.722618 -0.041828 1.488332
-0.719030 -0.042025 1.495904
-0.713077 -0.042086 1.498599
-0.705016 -0.042022 1.496818
-0.697635 -0.041999 1.496404
-0.689549 -0.041932 1.494402
-0.680315 -0.041793 1.489793
-0.671967 -0.041707 1.487002
-0.664760 -0.041690 1.486658
-0.656760 -0.041623 1.484470
-0.649074 -0.041575 1.482912
-0.641365 -0.041524 1.481226
-0.632711 -0.041411 1.477262
-0.625525 -0.041392 1.476637
-0.615563 -0.041187 1.469342
-0.605487 -0.040970 1.461573
-0.596069 -0.040793 1.455206
-0.584652 -0.040474 1.443727
-0.572298 -0.040082 1.429617
-0.561523 -0.039792 1.419142
-0.555826 -0.039860 1.421381
-0.540359 -0.039220 1.398373
-0.534723 -0.039287 1.400536
-0.515787 -0.038367 1.367473
-0.505508 -0.038075 1.356813
-0.505259 -0.038541 1.373130
-0.364386 -0.028901 1.028895
-0.357615 -0.028745 1.023060
-0.352358 -0.028708 1.021454
-0.348053 -0.028749 1.022598
-0.343381 -0.028760 1.022678
-0.338916 -0.028790 1.023381
-0.333820 -0.028766 1.022173
-0.329056 -0.028770 1.021962
-0.323848 -0.028735 1.020350
-0.318544 -0.028691 1.018383
-0.313741 -0.028691 1.017991
-0.308453 -0.028646 1.015989
-0.302370 -0.028524 1.011274
-0.298089 -0.028572 1.012543
-0.059632 -0.007081 0.249577
-0.058150 -0.007045 0.248200
-0.056821 -0.007027 0.247441
-0.055554 -0.007016 0.246933
-0.054121 -0.006983 0.245655
-0.052308 -0.006899 0.242566
-0.050629 -0.006828 0.239980
-0.049198 -0.006789 0.238482
-0.048001 -0.006781 0.238086
-0.046927 -0.006791 0.238303
-0.044006 -0.006526 0.228928
-0.042812 -0.006512 0.228300
-0.041678 -0.006505 0.227972
-0.040452 -0.006484 0.227118
-0.039131 -0.006446 0.225682
-0.037619 -0.006373 0.223035
-0.036317 -0.006333 0.221528
-0.034370 -0.006174 0.215886
-0.033312 -0.006170 0.215657
-0.032933 -0.006297 0.219966
-0.032127 -0.006346 0.221610
-0.031316 -0.006399 0.223345
-0.030529 -0.006460 0.225386
-0.029629 -0.006501 0.226725
-0.028628 -0.006522 0.227367
-0.027596 -0.006537 0.227820
-0.026546 -0.006549 0.228162
-0.025499 -0.006563 0.228572
-0.024465 -0.006582 0.229149
-0.023543 -0.006635 0.230890
-0.022569 -0.006677 0.232277
-0.021425 -0.006670 0.231978
-0.020363 -0.006690 0.232597
-0.019313 -0.006717 0.233457
-0.018210 -0.006727 0.233743
-0.017150 -0.006755 0.234662
-0.016060 -0.006775 0.235301
-0.015024 -0.006823 0.236894
-0.013917 -0.006843 0.237551
-0.012798 -0.006861 0.238121
-0.011666 -0.006874 0.238542
-0.010529 -0.006888 0.238953
-0.009391 -0.006904 0.239488
-0.008251 -0.006923 0.240111
-0.007107 -0.006944 0.240806
-0.005962 -0.006974 0.241802
-0.004790 -0.006977 0.241894
-0.003631 -0.007009 0.242972
-0.002466 -0.007054 0.244515
-0.001281 -0.007075 0.245211
-0.000090 -0.007082 0.245453
0.001105 -0.007091 0.245749
0.002299 -0.007090 0.245706
0.003498 -0.007097 0.245962
0.004697 -0.007103 0.246165
0.005891 -0.007099 0.246029
0.007099 -0.007110 0.246434
0.008304 -0.007117 0.246658
0.009524 -0.007132 0.247219
0.010758 -0.007153 0.247959
0.011977 -0.007161 0.248262
0.013217 -0.007179 0.248910
0.014464 -0.007198 0.249591
0.015883 -0.007292 0.252904
0.017092 -0.007284 0.252641
0.018272 -0.007265 0.252018
0.019562 -0.007289 0.252918
0.021106 -0.007400 0.256800
0.022524 -0.007456 0.258812
0.023626 -0.007407 0.257178
0.024877 -0.007408 0.257264
0.025915 -0.007348 0.255245
0.027172 -0.007353 0.255487
0.029104 -0.007532 0.261777
0.030381 -0.007534 0.261918
0.031695 -0.007545 0.262351
0.032957 -0.007543 0.262351
0.034274 -0.007553 0.262783
0.035647 -0.007574 0.263600
0.036953 -0.007580 0.263898
0.038519 -0.007637 0.265974
0.039777 -0.007631 0.265864
0.041086 -0.007636 0.266107
0.042615 -0.007679 0.267716
0.044281 -0.007744 0.270082
0.045836 -0.007787 0.271660
0.047281 -0.007808 0.272524
0.048587 -0.007807 0.272570
0.049874 -0.007802 0.272517
0.051236 -0.007809 0.272871
0.052639 -0.007822 0.273428
0.054010 -0.007830 0.273807
0.055477 -0.007851 0.274645
0.056621 -0.007826 0.273889
0.057834 -0.007812 0.273496
0.058947 -0.007785 0.272664
0.057831 -0.007471 0.261784
0.058879 -0.007445 0.260954
0.059998 -0.007428 0.260472
0.061242 -0.007427 0.260548
0.062299 -0.007404 0.259842
0.063375 -0.007384 0.259244
0.064440 -0.007363 0.258627
0.065480 -0.007341 0.257941
0.066563 -0.007324 0.257449
0.067428 -0.007284 0.256147
0.068180 -0.007234 0.254472
0.069126 -0.007206 0.253571
0.070050 -0.007176 0.252620
0.070931 -0.007143 0.251552
0.071726 -0.007103 0.250218
0.072510 -0.007062 0.248893
0.073293 -0.007024 0.247608
0.074139 -0.006992 0.246573
0.073944 -0.006864 0.242160
0.074565 -0.006816 0.240513
0.074689 -0.006723 0.237334
0.075280 -0.006676 0.235714
0.076095 -0.006649 0.234828
0.076882 -0.006620 0.233884
0.077407 -0.006570 0.232179
0.078102 -0.006536 0.231024
0.078923 -0.006513 0.230265
0.079615 -0.006480 0.229154
0.080246 -0.006443 0.227898
0.080921 -0.006411 0.226797
0.081651 -0.006383 0.225872
0.082433 -0.006361 0.225113
0.083216 -0.006339 0.224373
0.084077 -0.006324 0.223855
0.084840 -0.006301 0.223089
0.085597 -0.006279 0.222324
0.086499 -0.006268 0.221946
0.086847 -0.006218 0.220166
0.087264 -0.006173 0.218600
0.088010 -0.006153 0.217878
0.088699 -0.006129 0.217031
0.089159 -0.006090 0.215645
0.089873 -0.006069 0.214891
0.090622 -0.006051 0.214232
0.091214 -0.006023 0.213217
0.091843 -0.005998 0.212302
0.092581 -0.005981 0.211650
0.093155 -0.005953 0.210636
0.093765 -0.005929 0.209718
0.094284 -0.005899 0.208609
0.094745 -0.005866 0.207391
0.095211 -0.005834 0.206203
0.095557 -0.005796 0.204774
0.095909 -0.005759 0.203380
0.096341 -0.005727 0.202173
0.096871 -0.005702 0.201186
0.097466 -0.005681 0.200343
0.097949 -0.005653 0.199282
0.098497 -0.005631 0.198363
0.099004 -0.005606 0.197370
0.099615 -0.005587 0.196592
0.100433 -0.005581 0.196224
0.101033 -0.005562 0.195430
0.101866 -0.005557 0.195085
-0.739752 -0.033088 1.408656
-0.734166 -0.033133 1.411574
-0.724419 -0.032989 1.406394
-0.729157 -0.033509 1.429438
-0.730618 -0.033886 1.446376
-0.735281 -0.034420 1.469981
-0.729482 -0.034471 1.472866
-0.726365 -0.034650 1.481211
-0.727429 -0.035034 1.498274
-0.720313 -0.035028 1.498602
-0.714232 -0.035072 1.501053
-0.708344 -0.035127 1.503908
-0.700465 -0.035084 1.502498
-0.693435 -0.035083 1.502844
-0.684607 -0.034990 1.499212
-0.674906 -0.034850 1.493522
-0.667471 -0.034826 1.492733
-0.660660 -0.034834 1.493295
-0.652020 -0.034745 1.489651
-0.645806 -0.034784 1.491489
-0.636410 -0.034652 1.485902
-0.627832 -0.034561 1.482087
-0.617890 -0.034393 1.474896
-0.606497 -0.034139 1.464010
-0.597523 -0.034018 1.458752
-0.578375 -0.033308 1.428221
-0.572655 -0.033363 1.430500
-0.570208 -0.033613 1.441080
-0.364431 -0.024042 1.029004
-0.356902 -0.023862 1.020999
-0.351441 -0.023816 1.018774
-0.346509 -0.023806 1.018037
-0.342715 -0.023875 1.020668
-0.338110 -0.023889 1.020922
-0.333343 -0.023892 1.020686
-0.328499 -0.023889 1.020205
-0.323295 -0.023859 1.018577
-0.318148 -0.023833 1.017087
-0.313633 -0.023854 1.017607
-0.308133 -0.023800 1.014903
-0.301581 -0.023662 1.008601
-0.060008 -0.005926 0.251135
-0.058265 -0.005871 0.248680
-0.056810 -0.005843 0.247381
-0.055498 -0.005829 0.246672
-0.053980 -0.005792 0.245002
-0.052377 -0.005745 0.242870
-0.050737 -0.005691 0.240476
-0.048658 -0.005584 0.235855
-0.047323 -0.005560 0.234711
-0.046001 -0.005536 0.233587
-0.043997 -0.005426 0.228867
-0.042806 -0.005414 0.228252
-0.041541 -0.005392 0.227208
-0.040311 -0.005373 0.226311
-0.039003 -0.005343 0.224925
-0.037660 -0.005305 0.223260
-0.036339 -0.005269 0.221645
-0.034278 -0.005121 0.215290
-0.033280 -0.005126 0.215437
-0.032502 -0.005167 0.217070
-0.031859 -0.005233 0.219750
-0.031264 -0.005312 0.222961
-0.030479 -0.005363 0.225004
-0.029597 -0.005400 0.226465
-0.028630 -0.005423 0.227368
-0.027572 -0.005431 0.227604
-0.026508 -0.005438 0.227817
-0.025502 -0.005458 0.228573
-0.024461 -0.005473 0.229093
-0.022510 -0.005537 0.231651
-0.021459 -0.005555 0.232326
-0.020397 -0.005572 0.232970
-0.019268 -0.005572 0.232889
-0.018192 -0.005588 0.233485
-0.017124 -0.005608 0.234286
-0.016043 -0.005627 0.235025
-0.014968 -0.005652 0.235987
-0.013881 -0.005675 0.236916
-0.012804 -0.005707 0.238194
-0.011667 -0.005717 0.238535
-0.010535 -0.005730 0.239066
-0.009397 -0.005744 0.239600
-0.008263 -0.005765 0.240414
-0.007106 -0.005774 0.240760
-0.005961 -0.005797 0.241720
-0.004797 -0.005810 0.242224
-0.003625 -0.005817 0.242495
-0.002456 -0.005840 0.243443
-0.001276 -0.005857 0.244112
-0.000090 -0.005866 0.244489
0.001102 -0.005884 0.245209
0.002300 -0.005897 0.245762
0.003486 -0.005882 0.245140
0.004689 -0.005896 0.245715
0.005900 -0.005912 0.246388
0.007078 -0.005896 0.245708
0.008281 -0.005901 0.245947
0.009514 -0.005925 0.246947
0.010820 -0.005982 0.249372
0.012019 -0.005976 0.249123
0.013205 -0.005964 0.248666
0.014518 -0.006008 0.250509
0.015836 -0.006046 0.252139
0.017122 -0.006067 0.253065
0.018270 -0.006040 0.251977
0.019561 -0.006061 0.252882
0.021512 -0.006271 0.261723
0.022711 -0.006252 0.260945
0.023617 -0.006157 0.257069
0.024819 -0.006146 0.256652
0.026077 -0.006149 0.256830
0.027409 -0.006168 0.257694
0.028948 -0.006230 0.260365
0.030220 -0.006232 0.260511
0.031515 -0.006238 0.260848
0.032916 -0.006264 0.262005
0.034293 -0.006284 0.262911
0.035634 -0.006296 0.263491
0.036917 -0.006297 0.263623
0.038272 -0.006310 0.264253
0.039670 -0.006329 0.265135
0.041098 -0.006351 0.266163
0.042607 -0.006385 0.267651
0.044350 -0.006450 0.270487
0.045873 -0.006480 0.271864
0.047306 -0.006497 0.272656
0.048592 -0.006493 0.272581
0.049910 -0.006493 0.272697
0.051248 -0.006496 0.272922
0.052604 -0.006501 0.273232
0.053979 -0.006508 0.273633
0.055382 -0.006518 0.274161
0.056595 -0.006505 0.273748
0.057722 -0.006484 0.272954
0.058779 -0.006456 0.271875
0.059978 -0.006444 0.271492
0.058906 -0.006194 0.261065
0.060045 -0.006182 0.260664
0.061204 -0.006173 0.260374
0.062280 -0.006156 0.259751
0.063369 -0.006140 0.259208
0.064376 -0.006118 0.258360
0.065430 -0.006101 0.257733
0.066497 -0.006085 0.257181
0.067319 -0.006048 0.255724
0.068224 -0.006020 0.254626
0.069115 -0.005992 0.253522
0.069994 -0.005963 0.252411
0.070747 -0.005925 0.250891
0.071585 -0.005896 0.249718
0.072441 -0.005868 0.248650
0.073382 -0.005849 0.247902
0.074191 -0.005819 0.246738
0.074577 -0.005758 0.244224
0.074713 -0.005680 0.240985
0.074985 -0.005614 0.238271
0.075475 -0.005567 0.236319
0.076267 -0.005542 0.235354
0.076904 -0.005508 0.233945
0.077333 -0.005459 0.231953
0.077908 -0.005423 0.230444
0.078598 -0.005395 0.229312
0.079277 -0.005367 0.228178
0.080008 -0.005343 0.227218
0.080739 -0.005320 0.226283
0.081294 -0.005287 0.224884
0.082077 -0.005268 0.224137
0.083140 -0.005268 0.224165
0.083711 -0.005237 0.222879
0.084481 -0.005219 0.222145
0.085512 -0.005218 0.222102
0.086241 -0.005198 0.221281
0.086709 -0.005164 0.219816
0.087146 -0.005128 0.218305
0.087993 -0.005117 0.217839
0.088642 -0.005095 0.216893
0.089257 -0.005072 0.215882
0.089862 -0.005048 0.214866
0.090618 -0.005034 0.214226
0.091297 -0.005015 0.213412
0.091878 -0.004992 0.212384
0.092568 -0.004975 0.211623
0.093173 -0.004954 0.210679
0.093715 -0.004930 0.209609
0.094378 -0.004912 0.208820
0.094799 -0.004883 0.207512
0.095206 -0.004854 0.206195
0.095686 -0.004829 0.205055
0.096016 -0.004797 0.203611
0.096588 -0.004777 0.202695
0.097104 -0.004755 0.201675
0.097650 -0.004735 0.200727
0.098361 -0.004724 0.200125
0.098895 -0.004704 0.199170
0.099216 -0.004674 0.197800
0.099646 -0.004651 0.196660
0.100534 -0.004648 0.196429
0.100955 -0.004625 0.195285
0.101606 -0.004612 0.194596
-0.731110 -0.026104 1.392243
-0.727382 -0.026203 1.398571
-0.724460 -0.026334 1.406513
-0.727402 -0.027694 1.483355
-0.721557 -0.027735 1.486207
-0.721071 -0.027985 1.500205
-0.718347 -0.028152 1.509725
-0.712789 -0.028210 1.513368
-0.705905 -0.028217 1.514186
-0.698341 -0.028196 1.513494
-0.690405 -0.028160 1.511924
-0.680292 -0.028033 1.505454
-0.672787 -0.028012 1.504633
-0.665537 -0.028002 1.504329
-0.658467 -0.028000 1.504388
-0.650618 -0.027963 1.502610
-0.641179 -0.027858 1.497040
-0.632327 -0.027775 1.492700
-0.620682 -0.027567 1.481561
-0.608336 -0.027323 1.468448
-0.597112 -0.027124 1.457746
-0.591293 -0.027169 1.460115
-0.356108 -0.018994 1.018711
-0.350516 -0.018950 1.016075
-0.346382 -0.018984 1.017645
-0.342424 -0.019030 1.019782
-0.337516 -0.019023 1.019107
-0.333118 -0.019046 1.019976
-0.328265 -0.019042 1.019453
-0.322764 -0.019001 1.016881
-0.316792 -0.018930 1.012726
-0.311348 -0.018889 1.010167
-0.307847 -0.018967 1.013933
-0.303569 -0.018999 1.015221
-0.059832 -0.004712 0.250387
-0.058275 -0.004683 0.248712
-0.056729 -0.004653 0.247019
-0.055265 -0.004629 0.245624
-0.053812 -0.004605 0.244229
-0.052574 -0.004599 0.243771
-0.051216 -0.004581 0.242736
-0.049142 -0.004498 0.238189
-0.047373 -0.004438 0.234949
-0.045690 -0.004385 0.231995
-0.043991 -0.004327 0.228822
-0.042815 -0.004319 0.228287
-0.041703 -0.004317 0.228084
-0.040267 -0.004280 0.226055
-0.039010 -0.004261 0.224952
-0.037692 -0.004234 0.223436
-0.036142 -0.004179 0.220429
-0.034501 -0.004110 0.216679
-0.033307 -0.004091 0.215599
-0.032775 -0.004155 0.218882
-0.032029 -0.004195 0.220906
-0.031358 -0.004249 0.223618
-0.030462 -0.004274 0.224866
-0.029456 -0.004285 0.225368
-0.028525 -0.004309 0.226521
-0.027578 -0.004332 0.227633
-0.026519 -0.004338 0.227896
-0.025487 -0.004350 0.228426
-0.024471 -0.004366 0.229168
-0.023455 -0.004383 0.229990
-0.022519 -0.004417 0.231730
-0.021429 -0.004423 0.231986
-0.020356 -0.004434 0.232479
-0.019281 -0.004446 0.233023
-0.018166 -0.004449 0.233139
-0.017138 -0.004476 0.234467
-0.016031 -0.004484 0.234827
-0.014948 -0.004501 0.235649
-0.013890 -0.004528 0.237047
-0.012805 -0.004551 0.238194
-0.011674 -0.004561 0.238652
-0.010532 -0.004568 0.238984
-0.009399 -0.004581 0.239635
-0.008257 -0.004593 0.240216
-0.007108 -0.004605 0.240783
-0.005958 -0.004620 0.241563
-0.004799 -0.004634 0.242290
-0.003629 -0.004644 0.242776
-0.002458 -0.004660 0.243595
-0.001279 -0.004680 0.244614
-0.000090 -0.004700 0.245649
0.001105 -0.004703 0.245795
0.002302 -0.004707 0.245967
0.003502 -0.004713 0.246292
0.004700 -0.004713 0.246279
0.005907 -0.004720 0.246692
0.007105 -0.004719 0.246650
0.008311 -0.004723 0.246849
0.009567 -0.004750 0.248298
0.010819 -0.004770 0.249344
0.012059 -0.004781 0.249949
0.013271 -0.004780 0.249906
0.014507 -0.004787 0.250305
0.015771 -0.004801 0.251082
0.017028 -0.004812 0.251670
0.018245 -0.004810 0.251624
0.019852 -0.004905 0.256628
0.021630 -0.005028 0.263145
0.022854 -0.005016 0.262576
0.023317 -0.004848 0.253785
0.024571 -0.004852 0.254069
0.025921 -0.004874 0.255280
0.027921 -0.005010 0.262498
0.029089 -0.004992 0.261616
0.030350 -0.004991 0.261618
0.031582 -0.004985 0.261385
0.032889 -0.004991 0.261777
0.034259 -0.005006 0.262633
0.035580 -0.005013 0.263074
0.036914 -0.005021 0.263585
0.038272 -0.005032 0.264238
0.039568 -0.005034 0.264443
0.040934 -0.005045 0.265090
0.042811 -0.005116 0.268923
0.044418 -0.005151 0.270888
0.045845 -0.005165 0.271685
0.047218 -0.005171 0.272133
0.048629 -0.005182 0.272777
0.049910 -0.005178 0.272688
0.051200 -0.005176 0.272654
0.052561 -0.005180 0.273001
0.053935 -0.005186 0.273400
0.055255 -0.005186 0.273517
0.056473 -0.005177 0.273146
0.057676 -0.005167 0.272725
0.058913 -0.005160 0.272484
0.058002 -0.004970 0.262536
0.058867 -0.004937 0.260880
0.059970 -0.004924 0.260329
0.061209 -0.004924 0.260385
0.062185 -0.004902 0.259347
0.063281 -0.004891 0.258840
0.064307 -0.004874 0.258073
0.065341 -0.004859 0.257375
0.066425 -0.004848 0.256898
0.067228 -0.004818 0.255370
0.068071 -0.004791 0.254049
0.069012 -0.004772 0.253134
0.069880 -0.004749 0.251993
0.070663 -0.004721 0.250588
0.071524 -0.004699 0.249499
0.072472 -0.004683 0.248749
0.073466 -0.004671 0.248180
0.074424 -0.004656 0.247506
0.074587 -0.004594 0.244252
0.075020 -0.004549 0.241970
0.074680 -0.004460 0.237297
0.075371 -0.004434 0.235989
0.076335 -0.004425 0.235559
0.077092 -0.004404 0.234514
0.077702 -0.004376 0.233056
0.077874 -0.004324 0.230340
0.078728 -0.004311 0.229687
0.079191 -0.004277 0.227927
0.080018 -0.004263 0.227244
0.080765 -0.004246 0.226353
0.081561 -0.004231 0.225620
0.082364 -0.004218 0.224920
0.082852 -0.004188 0.223388
0.083781 -0.004182 0.223065
0.084573 -0.004169 0.222384
0.085311 -0.004153 0.221580
0.086275 -0.004149 0.221370
0.086761 -0.004123 0.219949
0.087384 -0.004103 0.218901
0.088019 -0.004084 0.217902
0.088707 -0.004068 0.217051
0.089206 -0.004045 0.215761
0.089994 -0.004034 0.215184
0.090638 -0.004017 0.214273
0.091236 -0.003999 0.213272
0.091979 -0.003988 0.212620
0.092576 -0.003970 0.211643
0.093136 -0.003951 0.210598
0.093754 -0.003936 0.209698
0.094325 -0.003918 0.208708
0.094770 -0.003896 0.207454
0.095298 -0.003877 0.206399
0.095687 -0.003854 0.205061
0.096180 -0.003835 0.203962
0.096410 -0.003806 0.202326
0.096975 -0.003790 0.201411
0.097517 -0.003774 0.200460
0.098263 -0.003766 0.199931
0.098876 -0.003754 0.199138
0.099312 -0.003735 0.197996
0.100064 -0.003728 0.197490
0.100752 -0.003718 0.196859
0.101201 -0.003701 0.195769
0.101869 -0.003691 0.195106
-0.760224 -0.020283 1.447719
-0.764714 -0.020584 1.470383
-0.732816 -0.021453 1.540154
-0.726749 -0.021485 1.543026
-0.715831 -0.021373 1.535493
-0.707727 -0.021344 1.533850
-0.696798 -0.021228 1.525937
-0.686987 -0.021144 1.520282
-0.678101 -0.021087 1.516528
-0.668751 -0.021015 1.511602
-0.661128 -0.020995 1.510475
-0.652487 -0.020943 1.506932
-0.641541 -0.020816 1.497891
-0.633211 -0.020771 1.494789
-0.619677 -0.020553 1.479165
-0.608291 -0.020401 1.468339
-0.599034 -0.020319 1.462436
-0.356136 -0.014180 1.018780
-0.350626 -0.014150 1.016380
-0.345076 -0.014118 1.013795
-0.342452 -0.014206 1.019851
-0.337121 -0.014183 1.017897
-0.331531 -0.014148 1.015099
-0.327650 -0.014187 1.017526
-0.322425 -0.014167 1.015793
-0.318126 -0.014189 1.016971
-0.313014 -0.014174 1.015550
-0.307766 -0.014152 1.013645
-0.060265 -0.003542 0.252192
-0.058266 -0.003494 0.248666
-0.056954 -0.003486 0.247988
-0.055412 -0.003463 0.246268
-0.054045 -0.003451 0.245276
-0.052206 -0.003407 0.242056
-0.050722 -0.003385 0.240386
-0.049272 -0.003365 0.238810
-0.048028 -0.003357 0.238188
-0.046128 -0.003303 0.234208
-0.044008 -0.003229 0.228902
-0.042742 -0.003216 0.227889
-0.041595 -0.003212 0.227481
-0.040345 -0.003199 0.226482
-0.039115 -0.003188 0.225550
-0.037857 -0.003173 0.224410
-0.036429 -0.003143 0.222170
-0.034456 -0.003062 0.216385
-0.033370 -0.003058 0.215996
-0.033106 -0.003131 0.221076
-0.032051 -0.003132 0.221045
-0.031227 -0.003156 0.222674
-0.030410 -0.003183 0.224471
-0.029463 -0.003197 0.225409
-0.028563 -0.003219 0.226807
-0.027555 -0.003229 0.227432
-0.026596 -0.003246 0.228544
-0.025549 -0.003253 0.228971
-0.024502 -0.003261 0.229448
-0.023490 -0.003274 0.230319
-0.022461 -0.003286 0.231116
-0.021431 -0.003300 0.231994
-0.020357 -0.003308 0.232478
-0.019264 -0.003313 0.232803
-0.018181 -0.003322 0.233321
-0.017101 -0.003331 0.233947
-0.016033 -0.003345 0.234854
-0.014984 -0.003365 0.236204
-0.013906 -0.003382 0.237305
-0.012792 -0.003391 0.237947
-0.011673 -0.003402 0.238616
-0.010528 -0.003406 0.238874
-0.009401 -0.003418 0.239663
-0.008289 -0.003439 0.241147
-0.007135 -0.003448 0.241705
-0.005976 -0.003456 0.242274
-0.004805 -0.003461 0.242565
-0.003635 -0.003470 0.243155
-0.002466 -0.003488 0.244423
-0.001285 -0.003505 0.245615
-0.000091 -0.003513 0.246142
0.001107 -0.003516 0.246337
0.002304 -0.003515 0.246257
0.003503 -0.003516 0.246353
0.004705 -0.003519 0.246531
0.005901 -0.003517 0.246411
0.007098 -0.003517 0.246399
0.008299 -0.003518 0.246491
0.009509 -0.003522 0.246779
0.010837 -0.003564 0.249754
0.012050 -0.003564 0.249749
0.013245 -0.003558 0.249401
0.014505 -0.003570 0.250263
0.015757 -0.003578 0.250856
0.017020 -0.003587 0.251530
0.018287 -0.003596 0.252190
0.019620 -0.003616 0.253625
0.021737 -0.003769 0.264435
0.022790 -0.003732 0.261831
0.023611 -0.003662 0.256983
0.024962 -0.003677 0.258099
0.026177 -0.003672 0.257790
0.027447 -0.003674 0.258035
0.028857 -0.003694 0.259518
0.030219 -0.003707 0.260476
0.031415 -0.003699 0.259991
0.032699 -0.003702 0.260260
0.034075 -0.003714 0.261218
0.035604 -0.003742 0.263244
0.036942 -0.003749 0.263777
0.038275 -0.003754 0.264246
0.039542 -0.003753 0.264259
0.040928 -0.003763 0.265045
0.042804 -0.003816 0.268868
0.044421 -0.003843 0.270894
0.045888 -0.003857 0.271932
0.047207 -0.003857 0.272061
0.048593 -0.003863 0.272567
0.049858 -0.003859 0.272395
0.051200 -0.003861 0.272648
0.052542 -0.003863 0.272889
0.053800 -0.003859 0.272707
0.055194 -0.003865 0.273210
0.056492 -0.003864 0.273230
0.057296 -0.003830 0.270917
0.058133 -0.003799 0.268870
0.057752 -0.003692 0.261398
0.058729 -0.003675 0.260260
0.059821 -0.003665 0.259677
0.060975 -0.003660 0.259384
0.062085 -0.003652 0.258922
0.063149 -0.003642 0.258295
0.064084 -0.003625 0.257174
0.065138 -0.003615 0.256571
0.066168 -0.003604 0.255896
0.067104 -0.003588 0.254893
0.067886 -0.003566 0.253354
0.068897 -0.003555 0.252707
0.069807 -0.003540 0.251723
0.070674 -0.003523 0.250620
0.071652 -0.003513 0.249943
0.072602 -0.003501 0.249191
0.073574 -0.003491 0.248540
0.074508 -0.003479 0.247782
0.074670 -0.003432 0.244523
0.074842 -0.003387 0.241391
0.075326 -0.003358 0.239346
0.075828 -0.003330 0.237417
0.076419 -0.003307 0.235818
0.076964 -0.003282 0.234121
0.077374 -0.003253 0.232068
0.077690 -0.003220 0.229795
0.078474 -0.003207 0.228944
0.078935 -0.003182 0.227188
0.079712 -0.003170 0.226372
0.080639 -0.003165 0.225999
0.081236 -0.003146 0.224718
0.081941 -0.003133 0.223764
0.082738 -0.003123 0.223079
0.083654 -0.003117 0.222725
0.084515 -0.003110 0.222231
0.085269 -0.003100 0.221471
0.086174 -0.003094 0.221109
0.086884 -0.003083 0.220260
0.087308 -0.003061 0.218711
0.087765 -0.003041 0.217274
0.088510 -0.003031 0.216570
0.089171 -0.003019 0.215677
0.089668 -0.003002 0.214404
0.090474 -0.002995 0.213888
0.091199 -0.002985 0.213187
0.091872 -0.002975 0.212375
0.092585 -0.002965 0.211666
0.093262 -0.002955 0.210884
0.093979 -0.002946 0.210203
0.094499 -0.002932 0.209093
0.095028 -0.002918 0.208020
0.095431 -0.002900 0.206689
0.095758 -0.002881 0.205215
0.096353 -0.002870 0.204333
0.096942 -0.002858 0.203445
0.097295 -0.002841 0.202080
0.097795 -0.002828 0.201035
0.098331 -0.002816 0.200074
0.099050 -0.002809 0.199493
0.099448 -0.002794 0.198272
0.099830 -0.002779 0.197033
0.100393 -0.002768 0.196164
0.100904 -0.002757 0.195199
0.101592 -0.002751 0.194581
-0.734410 -0.014358 1.559306
-0.728268 -0.014378 1.562184
-0.716363 -0.014285 1.552580
-0.702992 -0.014160 1.539512
-0.694061 -0.014123 1.535946
-0.684392 -0.014070 1.530607
-0.673774 -0.013996 1.522965
-0.663587 -0.013930 1.516099
-0.654503 -0.013886 1.511593
-0.644726 -0.013826 1.505332
-0.633909 -0.013743 1.496441
-0.627979 -0.013765 1.498984
-0.612606 -0.013578 1.478758
-0.606713 -0.013599 1.481185
-0.350646 -0.009345 1.016428
-0.345928 -0.009346 1.016288
-0.341687 -0.009360 1.017562
-0.335475 -0.009319 1.012918
-0.330219 -0.009305 1.011072
-0.326610 -0.009337 1.014287
-0.318841 -0.009249 1.004489
-0.318145 -0.009368 1.017021
-0.059972 -0.002326 0.250961
-0.058555 -0.002317 0.249891
-0.057065 -0.002304 0.248468
-0.055518 -0.002289 0.246734
-0.053422 -0.002251 0.242444
-0.051997 -0.002239 0.241083
-0.050860 -0.002239 0.241034
-0.049379 -0.002224 0.239319
-0.047304 -0.002181 0.234590
-0.045886 -0.002167 0.232977
-0.043770 -0.002119 0.227661
-0.042824 -0.002126 0.228323
-0.041665 -0.002122 0.227859
-0.040479 -0.002117 0.227225
-0.039128 -0.002103 0.225616
-0.037877 -0.002094 0.224522
-0.036081 -0.002053 0.220042
-0.034685 -0.002033 0.217817
-0.033367 -0.002017 0.215968
-0.032328 -0.002017 0.215879
-0.032040 -0.002065 0.220966
-0.031192 -0.002079 0.222417
-0.030386 -0.002097 0.224284
-0.029449 -0.002108 0.225295
-0.028512 -0.002119 0.226394
-0.027542 -0.002128 0.227317
-0.026516 -0.002134 0.227847
-0.025497 -0.002141 0.228495
-0.024471 -0.002147 0.229149
-0.023461 -0.002156 0.230026
-0.022468 -0.002168 0.231175
-0.021420 -0.002175 0.231870
-0.020353 -0.002181 0.232434
-0.019265 -0.002185 0.232816
-0.018177 -0.002190 0.233250
-0.017125 -0.002200 0.234258
-0.016039 -0.002206 0.234920
-0.014927 -0.002210 0.235301
-0.013909 -0.002230 0.237337
-0.012788 -0.002235 0.237848
-0.011656 -0.002240 0.238254
-0.010527 -0.002245 0.238843
-0.009387 -0.002250 0.239298
-0.008254 -0.002258 0.240125
-0.007106 -0.002264 0.240716
-0.005960 -0.002273 0.241623
-0.004798 -0.002278 0.242192
-0.003638 -0.002289 0.243325
-0.002463 -0.002297 0.244085
-0.001282 -0.002306 0.245037
-0.000091 -0.002314 0.245880
0.001105 -0.002313 0.245780
0.002302 -0.002316 0.246069
0.003503 -0.002319 0.246361
0.004698 -0.002317 0.246162
0.005905 -0.002321 0.246578
0.007107 -0.002321 0.246678
0.008292 -0.002317 0.246270
0.009514 -0.002323 0.246912
0.010798 -0.002341 0.248855
0.012048 -0.002349 0.249699
0.013260 -0.002349 0.249685
0.014478 -0.002350 0.249790
0.015750 -0.002358 0.250732
0.017018 -0.002365 0.251505
0.018262 -0.002368 0.251845
0.020301 -0.002467 0.262417
0.021622 -0.002472 0.263028
0.022868 -0.002469 0.262714
0.024103 -0.002465 0.262323
0.024807 -0.002410 0.256497
0.026085 -0.002413 0.256875
0.027405 -0.002419 0.257630
0.028806 -0.002432 0.259058
0.030048 -0.002431 0.258995
0.031340 -0.002434 0.259370
0.032642 -0.002437 0.259794
0.033822 -0.002431 0.259266
0.035546 -0.002464 0.262808
0.036973 -0.002474 0.263994
0.038108 -0.002465 0.263085
0.039481 -0.002471 0.263842
0.040842 -0.002477 0.264477
0.043078 -0.002533 0.270584
0.044500 -0.002540 0.271373
0.045912 -0.002545 0.272064
0.047249 -0.002546 0.272295
0.048567 -0.002547 0.272415
0.049869 -0.002546 0.272448
0.051219 -0.002548 0.272739
0.052509 -0.002547 0.272716
0.053838 -0.002548 0.272894
0.055204 -0.002550 0.273252
0.056412 -0.002545 0.272836
0.057130 -0.002519 0.270129
0.057446 -0.002477 0.265685
0.058108 -0.002451 0.263005
0.058757 -0.002426 0.260381
0.059880 -0.002421 0.259926
0.061053 -0.002418 0.259709
0.062084 -0.002410 0.258914
0.063157 -0.002403 0.258322
0.064147 -0.002394 0.257423
0.065218 -0.002388 0.256879
0.066149 -0.002378 0.255817
0.067068 -0.002367 0.254754
0.067976 -0.002356 0.253685
0.068970 -0.002349 0.252974
0.069991 -0.002343 0.252384
0.070913 -0.002333 0.251465
0.071861 -0.002325 0.250669
0.072873 -0.002320 0.250119
0.073789 -0.002311 0.249262
0.074697 -0.002303 0.248410
0.074894 -0.002273 0.245251
0.075179 -0.002246 0.242476
0.075453 -0.002221 0.239745
0.075428 -0.002187 0.236161
0.076265 -0.002179 0.235338
0.076836 -0.002164 0.233729
0.077281 -0.002145 0.231789
0.077835 -0.002130 0.230220
0.078585 -0.002121 0.229269
0.079358 -0.002113 0.228404
0.079993 -0.002101 0.227171
0.080662 -0.002091 0.226063
0.081197 -0.002077 0.224611
0.081782 -0.002065 0.223330
0.082647 -0.002060 0.222834
0.083639 -0.002059 0.222684
0.084256 -0.002048 0.221550
0.085104 -0.002044 0.221042
0.086096 -0.002043 0.220911
0.086668 -0.002032 0.219712
0.087340 -0.002023 0.218790
0.088021 -0.002015 0.217908
0.088629 -0.002006 0.216862
0.089285 -0.001998 0.215952
0.089948 -0.001990 0.215074
0.090573 -0.001981 0.214122
0.091347 -0.001976 0.213532
0.092093 -0.001971 0.212887
0.092606 -0.001961 0.211716
0.093317 -0.001955 0.211010
0.093955 -0.001947 0.210151
0.094577 -0.001940 0.209268
0.095140 -0.001931 0.208268
0.095602 -0.001921 0.207062
0.096034 -0.001910 0.205808
0.096508 -0.001901 0.204663
0.096981 -0.001891 0.203531
0.097532 -0.001883 0.202574
0.098006 -0.001874 0.201471
0.098429 -0.001864 0.200277
0.098966 -0.001857 0.199325
0.099472 -0.001849 0.198323
0.099835 -0.001838 0.197048
0.100329 -0.001831 0.196042
0.100793 -0.001822 0.194989
0.101317 -0.001815 0.194058
-0.730431 -0.007033 1.566836
-0.724257 -0.007042 1.569699
-0.707403 -0.006946 1.549181
-0.702397 -0.006967 1.554402
-0.685770 -0.006871 1.533696
-0.672249 -0.006804 1.519524
-0.668475 -0.006836 1.527274
-0.657897 -0.006799 1.519438
-0.646858 -0.006756 1.510313
-0.639491 -0.006751 1.509623
-0.633494 -0.006760 1.512150
-0.059975 -0.001127 0.250969
-0.058552 -0.001122 0.249875
-0.057320 -0.001121 0.249574
-0.055608 -0.001111 0.247130
-0.053900 -0.001100 0.244611
-0.052228 -0.001089 0.242152
-0.050955 -0.001086 0.241481
-0.049658 -0.001083 0.240671
-0.048180 -0.001076 0.238930
-0.046045 -0.001053 0.233778
-0.044638 -0.001046 0.232171
-0.042775 -0.001028 0.228053
-0.041525 -0.001024 0.227090
-0.040487 -0.001025 0.227271
-0.039167 -0.001019 0.225838
-0.038224 -0.001022 0.226571
-0.036233 -0.000997 0.220962
-0.034614 -0.000982 0.217371
-0.033506 -0.000980 0.216869
-0.032625 -0.000984 0.217856
-0.031908 -0.000995 0.220047
-0.031085 -0.001002 0.221648
-0.030451 -0.001017 0.224757
-0.029446 -0.001019 0.225272
-0.028478 -0.001023 0.226124
-0.027488 -0.001027 0.226871
-0.026524 -0.001032 0.227912
-0.025460 -0.001034 0.228158
-0.024494 -0.001039 0.229361
-0.023508 -0.001045 0.230484
-0.022428 -0.001046 0.230761
-0.021397 -0.001050 0.231617
-0.020342 -0.001054 0.232295
-0.019269 -0.001056 0.232858
-0.018177 -0.001058 0.233244
-0.017100 -0.001062 0.233919
-0.016065 -0.001068 0.235301
-0.014975 -0.001072 0.236040
-0.013877 -0.001075 0.236783
-0.012759 -0.001078 0.237321
-0.011628 -0.001080 0.237676
-0.010495 -0.001082 0.238106
-0.009357 -0.001084 0.238533
-0.008226 -0.001088 0.239283
-0.007093 -0.001092 0.240267
-0.005952 -0.001097 0.241291
-0.004790 -0.001099 0.241774
-0.003632 -0.001104 0.242878
-0.002459 -0.001108 0.243686
-0.001279 -0.001112 0.244524
-0.000091 -0.001116 0.245413
0.001104 -0.001118 0.245721
0.002302 -0.001119 0.245997
0.003500 -0.001120 0.246128
0.004700 -0.001120 0.246294
0.005902 -0.001121 0.246478
0.007106 -0.001122 0.246642
0.008302 -0.001121 0.246568
0.009516 -0.001123 0.246956
0.010756 -0.001127 0.247889
0.012034 -0.001134 0.249406
0.013227 -0.001132 0.249051
0.014478 -0.001136 0.249785
0.015729 -0.001138 0.250399
0.017008 -0.001143 0.251351
0.018263 -0.001145 0.251853
0.019638 -0.001154 0.253850
0.021345 -0.001180 0.259658
0.022841 -0.001192 0.262403
0.023530 -0.001163 0.256084
0.024746 -0.001162 0.255860
0.025991 -0.001162 0.255948
0.027267 -0.001164 0.256329
0.028614 -0.001168 0.257325
0.030153 -0.001180 0.259895
0.031476 -0.001182 0.260487
0.032735 -0.001182 0.260538
0.034136 -0.001187 0.261674
0.035523 -0.001191 0.262633
0.036846 -0.001193 0.263084
0.038358 -0.001200 0.264810
0.039466 -0.001195 0.263739
0.040866 -0.001199 0.264634
0.042962 -0.001222 0.269850
0.044519 -0.001229 0.271487
0.045957 -0.001233 0.272327
0.047255 -0.001232 0.272330
0.048603 -0.001233 0.272613
0.049926 -0.001234 0.272755
0.051253 -0.001234 0.272917
0.052568 -0.001234 0.273018
0.053884 -0.001234 0.273123
0.055218 -0.001235 0.273320
0.056503 -0.001234 0.273275
0.057361 -0.001225 0.271218
0.058100 -0.001213 0.268710
0.057771 -0.001180 0.261477
0.058862 -0.001177 0.260845
0.059881 -0.001173 0.259930
0.061048 -0.001171 0.259688
0.062112 -0.001168 0.259028
0.063115 -0.001164 0.258146
0.064079 -0.001159 0.257148
0.065006 -0.001154 0.256043
0.066046 -0.001151 0.255417
0.067100 -0.001148 0.254872
0.068004 -0.001143 0.253788
0.069003 -0.001139 0.253092
0.070011 -0.001136 0.252455
0.070941 -0.001132 0.251561
0.071868 -0.001128 0.250692
0.072858 -0.001125 0.250064
0.073815 -0.001121 0.249350
0.074452 -0.001113 0.247591
0.075172 -0.001107 0.246161
0.075178 -0.001090 0.242472
0.075853 -0.001083 0.241016
0.075715 -0.001066 0.237060
0.075836 -0.001052 0.234014
0.076380 -0.001044 0.232344
0.077079 -0.001039 0.231181
0.077756 -0.001033 0.229988
0.078465 -0.001029 0.228917
0.079017 -0.001022 0.227422
0.079768 -0.001018 0.226532
0.080462 -0.001013 0.225500
0.081201 -0.001009 0.224621
0.082090 -0.001007 0.224170
0.082795 -0.001003 0.223232
0.083715 -0.001002 0.222887
0.084406 -0.000998 0.221944
0.085366 -0.000997 0.221721
0.086317 -0.000996 0.221477
0.086743 -0.000989 0.219903
0.087530 -0.000986 0.219267
0.088219 -0.000983 0.218398
0.088850 -0.000979 0.217403
0.089410 -0.000974 0.216255
0.090083 -0.000970 0.215398
0.090778 -0.000967 0.214607
0.091374 -0.000963 0.213597
0.092081 -0.000960 0.212859
0.092683 -0.000956 0.211893
0.093303 -0.000952 0.210979
0.093921 -0.000949 0.210076
0.094571 -0.000946 0.209257
0.095104 -0.000941 0.208190
0.095641 -0.000937 0.207148
0.096108 -0.000932 0.205970
0.096627 -0.000928 0.204917
0.096996 -0.000923 0.203563
0.097495 -0.000919 0.202499
0.097903 -0.000914 0.201262
0.098145 -0.000908 0.199700
0.098654 -0.000904 0.198700
0.098958 -0.000898 0.197300
0.099542 -0.000895 0.196472
0.100154 -0.000893 0.195702
0.100587 -0.000889 0.194593
0.101176 -0.000886 0.193790
-0.936190 0.000361 1.765835
-0.944164 0.000371 1.798066
-0.706081 0.000361 1.562560
-0.699913 0.000364 1.565332
-0.682228 0.000361 1.542086
-0.674366 0.000363 1.540738
-0.666994 0.000365 1.540453
-0.655153 0.000365 1.529687
-0.651798 0.000369 1.538681
-0.058704 0.000072 0.250523
-0.057256 0.000072 0.249294
-0.056018 0.000072 0.248955
-0.054606 0.000072 0.247813
-0.053063 0.000072 0.246023
-0.051015 0.000071 0.241762
-0.049598 0.000071 0.240381
-0.048143 0.000070 0.238745
-0.046767 0.000070 0.237444
-0.045295 0.000070 0.235588
-0.043821 0.000070 0.233633
-0.041956 0.000068 0.229444
-0.040903 0.000069 0.229602
-0.039692 0.000069 0.228864
-0.038122 0.000068 0.225967
-0.036496 0.000067 0.222571
-0.034670 0.000066 0.217721
-0.033484 0.000066 0.216721
-0.032918 0.000067 0.219811
-0.031963 0.000067 0.220431
-0.031226 0.000068 0.222649
-0.030337 0.000068 0.223915
-0.029419 0.000069 0.225062
-0.028447 0.000069 0.225878
-0.027527 0.000070 0.227189
-0.026514 0.000070 0.227828
-0.025500 0.000070 0.228517
-0.024475 0.000071 0.229176
-0.023479 0.000071 0.230203
-0.022442 0.000071 0.230910
-0.021371 0.000072 0.231332
-0.020320 0.000072 0.232042
-0.019255 0.000072 0.232685
-0.018189 0.000073 0.233404
-0.017235 0.000073 0.235756
-0.016090 0.000074 0.235660
-0.014979 0.000074 0.236109
-0.013885 0.000074 0.236927
-0.012767 0.000074 0.237454
-0.011636 0.000074 0.237845
-0.010503 0.000075 0.238286
-0.009364 0.000075 0.238720
-0.008240 0.000075 0.239684
-0.007113 0.000076 0.240928
-0.005961 0.000076 0.241667
-0.004798 0.000076 0.242192
-0.003631 0.000076 0.242839
-0.002462 0.000077 0.243974
-0.001279 0.000077 0.244580
-0.000091 0.000077 0.245343
0.001104 0.000077 0.245652
0.002303 0.000077 0.246085
0.003502 0.000077 0.246245
0.004705 0.000077 0.246540
0.005907 0.000077 0.246691
0.007113 0.000078 0.246915
0.008319 0.000078 0.247069
0.009522 0.000078 0.247112
0.010740 0.000078 0.247520
0.011971 0.000078 0.248102
0.013243 0.000078 0.249355
0.014446 0.000078 0.249231
0.015779 0.000079 0.251189
0.017017 0.000079 0.251484
0.018267 0.000079 0.251899
0.019578 0.000079 0.253073
0.020983 0.000079 0.255247
0.022258 0.000080 0.255709
0.023473 0.000079 0.255468
0.024762 0.000079 0.256021
0.026047 0.000079 0.256503
0.027320 0.000079 0.256831
0.028644 0.000080 0.257591
0.029994 0.000080 0.258526
0.031429 0.000080 0.260101
0.032665 0.000080 0.259975
0.033974 0.000080 0.260431
0.035378 0.000080 0.261559
0.036998 0.000081 0.264169
0.038021 0.000080 0.262487
0.039455 0.000080 0.263662
0.040789 0.000080 0.264131
0.043151 0.000082 0.271036
0.044550 0.000082 0.271675
0.045990 0.000082 0.272525
0.047260 0.000082 0.272356
0.048626 0.000082 0.272740
0.049960 0.000082 0.272939
0.051306 0.000082 0.273198
0.052629 0.000081 0.273334
0.053946 0.000081 0.273435
0.055276 0.000081 0.273604
0.056575 0.000081 0.273622
0.057536 0.000080 0.272043
0.058212 0.000079 0.269225
0.058664 0.000078 0.265516
0.058760 0.000076 0.260390
0.059820 0.000076 0.259666
0.060945 0.000075 0.259248
0.061983 0.000075 0.258487
0.062968 0.000074 0.257547
0.064052 0.000074 0.257037
0.065028 0.000073 0.256129
0.066047 0.000073 0.255420
0.067109 0.000072 0.254908
0.068087 0.000072 0.254099
0.069114 0.000071 0.253501
0.070177 0.000071 0.253053
0.071126 0.000071 0.252219
0.072130 0.000070 0.251604
0.073080 0.000070 0.250829
0.074079 0.000069 0.250240
0.074764 0.000068 0.248631
0.075480 0.000068 0.247169
0.075427 0.000066 0.243273
0.075868 0.000066 0.241063
0.075262 0.000064 0.235640
0.075898 0.000063 0.234206
0.076433 0.000062 0.232503
0.077539 0.000062 0.232562
0.078085 0.000061 0.230960
0.078836 0.000061 0.230000
0.079443 0.000060 0.228649
0.079762 0.000059 0.226515
0.080621 0.000059 0.225948
0.081439 0.000059 0.225280
0.082114 0.000058 0.224236
0.083046 0.000058 0.223911
0.083835 0.000057 0.223207
0.084493 0.000057 0.222175
0.085344 0.000056 0.221665
0.086058 0.000056 0.220812
0.086846 0.000055 0.220166
0.087533 0.000055 0.219275
0.088252 0.000054 0.218482
0.088812 0.000054 0.217311
0.089704 0.000053 0.216969
0.090293 0.000053 0.215901
0.090622 0.000052 0.214241
0.091226 0.000051 0.213252
0.092073 0.000051 0.212841
0.092716 0.000050 0.211969
0.093373 0.000050 0.211139
0.094006 0.000049 0.210268
0.094522 0.000049 0.209149
0.095114 0.000048 0.208214
0.095645 0.000048 0.207157
0.096066 0.000047 0.205880
0.096467 0.000046 0.204580
0.097056 0.000046 0.203690
0.097389 0.000045 0.202280
0.097817 0.000045 0.201086
0.098255 0.000044 0.199926
0.098602 0.000043 0.198595
0.098990 0.000043 0.197365
0.099680 0.000042 0.196745
0.100028 0.000042 0.195458
0.100483 0.000041 0.194392
0.101171 0.000041 0.193781
-0.956663 0.008925 1.804451
-0.944154 0.008891 1.798049
-0.943106 0.008965 1.813459
-0.928218 0.008908 1.802202
-0.923344 0.008946 1.810263
-0.919696 0.008997 1.820822
-0.894544 0.008837 1.788509
-0.900671 0.008985 1.818628
-0.884875 0.008915 1.804563
-0.874093 0.008895 1.800463
-0.872129 0.008965 1.814555
-0.866604 0.008999 1.821380
-0.856609 0.008987 1.818785
-0.846207 0.008970 1.815196
-0.840788 0.009006 1.822270
-0.692596 0.007743 1.565526
-0.686406 0.007758 1.568250
-0.674831 0.007713 1.558558
-0.666014 0.007698 1.555050
-0.656896 0.007679 1.550721
-0.059923 0.001270 0.250755
-0.058599 0.001268 0.250080
-0.057248 0.001264 0.249264
-0.056077 0.001265 0.249218
-0.054340 0.001252 0.246607
-0.052190 0.001230 0.241978
-0.050741 0.001223 0.240469
-0.049518 0.001221 0.239994
-0.048297 0.001220 0.239512
-0.046572 0.001205 0.236454
-0.045068 0.001195 0.234409
-0.043964 0.001196 0.234397
-0.042456 0.001185 0.232184
-0.040908 0.001173 0.229635
-0.039834 0.001174 0.229685
-0.038758 0.001175 0.229742
-0.037701 0.001177 0.229918
-0.034724 0.001116 0.218060
-0.033676 0.001117 0.217969
-0.032731 0.001120 0.218569
-0.032093 0.001135 0.221330
-0.031127 0.001139 0.221947
-0.030410 0.001152 0.224456
-0.029433 0.001157 0.225171
-0.028447 0.001161 0.225881
-0.027451 0.001165 0.226565
-0.026453 0.001169 0.227304
-0.025419 0.001172 0.227793
-0.024420 0.001177 0.228666
-0.023452 0.001184 0.229939
-0.022451 0.001190 0.230999
-0.021384 0.001193 0.231475
-0.020316 0.001196 0.232008
-0.019267 0.001201 0.232828
-0.018198 0.001205 0.233515
-0.017148 0.001211 0.234577
-0.016101 0.001218 0.235827
-0.014988 0.001220 0.236259
-0.013875 0.001223 0.236765
-0.012773 0.001228 0.237579
-0.011636 0.001230 0.237861
-0.010506 0.001232 0.238357
-0.009372 0.001236 0.238928
-0.008233 0.001239 0.239491
-0.007090 0.001242 0.240153
-0.005950 0.001248 0.241226
-0.004787 0.001250 0.241643
-0.003645 0.001262 0.243780
-0.002460 0.001262 0.243779
-0.001280 0.001266 0.244602
-0.000090 0.001269 0.245174
0.001103 0.001270 0.245400
0.002299 0.001272 0.245739
0.003500 0.001274 0.246146
0.004699 0.001275 0.246231
0.005909 0.001277 0.246747
0.007118 0.001279 0.247065
0.008317 0.001278 0.246995
0.009541 0.001282 0.247616
0.010763 0.001284 0.248050
0.012007 0.001288 0.248843
0.013255 0.001291 0.249595
0.014464 0.001291 0.249547
0.015702 0.001293 0.249973
0.017053 0.001303 0.252012
0.018298 0.001304 0.252338
0.019580 0.001308 0.253099
0.020890 0.001313 0.254124
0.022262 0.001321 0.255757
0.023508 0.001321 0.255849
0.024780 0.001323 0.256209
0.026053 0.001324 0.256565
0.027338 0.001326 0.256994
0.028669 0.001330 0.257817
0.030104 0.001338 0.259475
0.031428 0.001340 0.260091
0.032763 0.001343 0.260762
0.034167 0.001349 0.261911
0.035505 0.001351 0.262503
0.036810 0.001352 0.262824
0.038162 0.001355 0.263458
0.039400 0.001353 0.263299
0.040717 0.001355 0.263669
0.043243 0.001395 0.271617
0.044602 0.001396 0.271993
0.046050 0.001400 0.272880
0.047284 0.001397 0.272499
0.048662 0.001399 0.272947
0.050012 0.001399 0.273226
0.051354 0.001400 0.273456
0.052650 0.001399 0.273447
0.053935 0.001398 0.273386
0.055289 0.001399 0.273674
0.056566 0.001397 0.273582
0.057641 0.001391 0.272545
0.058257 0.001375 0.269434
0.057937 0.001337 0.262229
0.058983 0.001332 0.261381
0.059917 0.001325 0.260087
0.061108 0.001323 0.259943
0.062104 0.001317 0.258996
0.063144 0.001313 0.258267
0.064084 0.001307 0.257171
0.065088 0.001302 0.256369
0.066120 0.001298 0.255708
0.067085 0.001292 0.254818
0.068087 0.001288 0.254098
0.069127 0.001284 0.253547
0.070151 0.001281 0.252960
0.071151 0.001277 0.252307
0.072052 0.001271 0.251336
0.072960 0.001266 0.250416
0.073921 0.001261 0.249711
0.074513 0.001251 0.247797
0.074947 0.001238 0.245428
0.074639 0.001214 0.240734
0.074922 0.001200 0.238061
0.075429 0.001189 0.236165
0.075463 0.001172 0.232865
0.076547 0.001171 0.232851
0.077286 0.001166 0.231805
0.077989 0.001159 0.230677
0.078758 0.001154 0.229774
0.079408 0.001147 0.228550
0.080165 0.001142 0.227662
0.080932 0.001138 0.226819
0.081571 0.001131 0.225646
0.082164 0.001124 0.224375
0.083078 0.001122 0.223996
0.083958 0.001119 0.223534
0.084520 0.001112 0.222247
0.085610 0.001112 0.222358
0.086408 0.001109 0.221711
0.086854 0.001101 0.220186
0.087733 0.001098 0.219778
0.088400 0.001093 0.218849
0.089100 0.001089 0.218018
0.089839 0.001085 0.217296
0.090366 0.001078 0.216078
0.090800 0.001071 0.214661
0.091379 0.001066 0.213610
0.092064 0.001061 0.212822
0.092650 0.001056 0.211818
0.093307 0.001052 0.210991
0.093983 0.001048 0.210216
0.094471 0.001042 0.209037
0.094972 0.001036 0.207902
0.095541 0.001031 0.206932
0.096119 0.001026 0.205994
0.096631 0.001021 0.204926
0.097052 0.001015 0.203684
0.097394 0.001008 0.202291
0.097838 0.001002 0.201129
0.098338 0.000997 0.200095
0.098647 0.000990 0.198688
0.099119 0.000985 0.197622
0.099433 0.000979 0.196257
0.099937 0.000974 0.195280
0.100419 0.000969 0.194268
0.100892 0.000965 0.193247
-0.980734 0.017921 1.849843
-0.959023 0.017686 1.826356
-0.943084 0.017553 1.813408
-0.942423 0.017704 1.829774
-0.931506 0.017664 1.826259
-0.919673 0.017605 1.820771
-0.912677 0.017639 1.824758
-0.900929 0.017580 1.819144
-0.895595 0.017647 1.826420
-0.887808 0.017666 1.828712
-0.878147 0.017648 1.827075
-0.874849 0.017758 1.838707
-0.861593 0.017666 1.829367
-0.848939 0.017585 1.821056
-0.840764 0.017596 1.822219
-0.687876 0.015180 1.571613
-0.681655 0.015208 1.574322
-0.679841 0.015336 1.587340
-0.673542 0.015365 1.590023
-0.062434 0.002472 0.251501
-0.061334 0.002477 0.251772
-0.059920 0.002468 0.250747
-0.058585 0.002462 0.250023
-0.057086 0.002449 0.248563
-0.056052 0.002456 0.249112
-0.054810 0.002454 0.248745
-0.053020 0.002427 0.245829
-0.050719 0.002374 0.240370
-0.049355 0.002364 0.239207
-0.047989 0.002353 0.237990
-0.046731 0.002348 0.237272
-0.044812 0.002308 0.233084
-0.043105 0.002277 0.229823
-0.041564 0.002253 0.227310
-0.040460 0.002252 0.227125
-0.039491 0.002259 0.227716
-0.036557 0.002151 0.216699
-0.035718 0.002164 0.217831
-0.034797 0.002172 0.218524
-0.033631 0.002164 0.217680
-0.032958 0.002189 0.220086
-0.031876 0.002188 0.219840
-0.031297 0.002222 0.223163
-0.030355 0.002232 0.224059
-0.029379 0.002240 0.224767
-0.028361 0.002246 0.225200
-0.027391 0.002255 0.226075
-0.026463 0.002269 0.227394
-0.025431 0.002275 0.227905
-0.024411 0.002283 0.228586
-0.023547 0.002307 0.230870
-0.022492 0.002313 0.231431
-0.021400 0.002316 0.231661
-0.020353 0.002325 0.232433
-0.019290 0.002333 0.233113
-0.018235 0.002342 0.234009
-0.017139 0.002348 0.234457
-0.016041 0.002353 0.234962
-0.014969 0.002364 0.235958
-0.013857 0.002369 0.236456
-0.012750 0.002377 0.237161
-0.011621 0.002382 0.237563
-0.010491 0.002387 0.238029
-0.009350 0.002391 0.238370
-0.008209 0.002396 0.238807
-0.007099 0.002413 0.240477
-0.005949 0.002420 0.241168
-0.004793 0.002428 0.241964
-0.003633 0.002439 0.243011
-0.002462 0.002449 0.243967
-0.001279 0.002454 0.244458
-0.000090 0.002458 0.244886
0.001102 0.002462 0.245280
0.002300 0.002467 0.245761
0.003500 0.002471 0.246103
0.004704 0.002474 0.246481
0.005904 0.002475 0.246566
0.007113 0.002479 0.246913
0.008327 0.002482 0.247300
0.009527 0.002482 0.247261
0.010734 0.002483 0.247383
0.012007 0.002497 0.248854
0.013304 0.002514 0.250515
0.014519 0.002513 0.250495
0.015786 0.002521 0.251306
0.017036 0.002525 0.251764
0.018359 0.002538 0.253179
0.019635 0.002544 0.253818
0.020975 0.002557 0.255157
0.022255 0.002562 0.255679
0.023526 0.002565 0.256055
0.024815 0.002569 0.256580
0.026063 0.002569 0.256662
0.027352 0.002573 0.257136
0.028664 0.002579 0.257782
0.029955 0.002582 0.258201
0.031447 0.002602 0.260254
0.032813 0.002610 0.261160
0.034191 0.002619 0.262101
0.035520 0.002623 0.262623
0.036827 0.002625 0.262955
0.038098 0.002625 0.263021
0.039439 0.002629 0.263563
0.040712 0.002629 0.263644
0.043145 0.002701 0.271005
0.044609 0.002710 0.272039
0.046048 0.002717 0.272878
0.047334 0.002715 0.272794
0.048675 0.002716 0.273025
0.050022 0.002718 0.273286
0.051376 0.002719 0.273583
0.052654 0.002717 0.273472
0.053938 0.002715 0.273402
0.055256 0.002715 0.273516
0.056560 0.002714 0.273557
0.057703 0.002705 0.272845
0.058548 0.002683 0.270785
0.058333 0.002615 0.264028
0.058851 0.002582 0.260803
0.059932 0.002574 0.260156
0.061216 0.002575 0.260409
0.062114 0.002560 0.259043
0.063067 0.002548 0.257957
0.064179 0.002543 0.257556
0.065128 0.002532 0.256531
0.066057 0.002520 0.255467
0.067155 0.002515 0.255086
0.068198 0.002508 0.254518
0.069229 0.002501 0.253928
0.070275 0.002495 0.253412
0.071324 0.002489 0.252924
