ply
format ascii 1.0
element vertex 1744
property float x
property float y
property float z
end_header
0.041989 0.066990 0.275014
0.043127 0.066718 0.273949
0.044227 0.066405 0.272716
0.045252 0.066001 0.271111
0.046325 0.065687 0.269873
0.047469 0.065486 0.269104
0.048591 0.065269 0.268264
0.049671 0.065006 0.267238
0.050652 0.064630 0.265750
0.051383 0.063962 0.263055
0.052419 0.063695 0.262010
0.053459 0.063446 0.261042
0.054396 0.063089 0.259625
0.055476 0.062909 0.258936
0.056538 0.062718 0.258203
0.057492 0.062417 0.257016
0.058521 0.062209 0.256208
0.059593 0.062054 0.255618
0.060597 0.061835 0.254766
0.061430 0.061454 0.253243
0.062364 0.061187 0.252187
0.063183 0.060818 0.250712
0.064227 0.060676 0.250170
0.064951 0.060243 0.248424
0.065810 0.059947 0.247246
0.066772 0.059755 0.246490
0.067607 0.059457 0.245298
0.068482 0.059204 0.244288
0.069409 0.059004 0.243490
0.070079 0.058595 0.241835
0.070926 0.058345 0.240827
0.071765 0.058096 0.239826
0.072568 0.057827 0.238733
0.073394 0.057584 0.237748
0.074234 0.057358 0.236833
0.075175 0.057217 0.236262
0.076021 0.057008 0.235410
0.076955 0.056870 0.234849
0.077864 0.056719 0.234225
0.078605 0.056450 0.233115
0.079511 0.056306 0.232516
0.080089 0.055937 0.230984
0.081069 0.055854 0.230631
0.081489 0.055393 0.228714
0.081881 0.054926 0.226765
0.082902 0.054886 0.226579
0.083650 0.054670 0.225658
0.084329 0.054414 0.224571
0.084770 0.054014 0.222881
0.085636 0.053890 0.222330
0.085644 0.053236 0.219588
0.086465 0.053097 0.218963
0.087379 0.053018 0.218581
0.087961 0.052742 0.217380
0.088620 0.052517 0.216391
0.089365 0.052349 0.215624
0.090157 0.052210 0.214977
0.090877 0.052034 0.214169
0.091578 0.051852 0.213329
0.092218 0.051639 0.212357
0.092935 0.051473 0.211574
0.093659 0.051314 0.210813
0.094161 0.051038 0.209567
0.094619 0.050745 0.208242
0.094900 0.050364 0.206550
0.095718 0.050272 0.206040
0.096419 0.050122 0.205283
0.096899 0.049861 0.204063
0.097607 0.049722 0.203335
0.097991 0.049421 0.201940
0.098712 0.049295 0.201252
0.099251 0.049081 0.200196
0.099792 0.048872 0.199154
0.100340 0.048671 0.198134
0.100771 0.048417 0.196892
0.101675 0.048393 0.196576
0.102328 0.048251 0.195770
0.102830 0.048041 0.194680
-0.943977 0.447575 1.796774
-0.933048 0.446443 1.794120
-0.924039 0.446216 1.795012
-0.909804 0.443439 1.785544
-0.903190 0.444360 1.790874
-1.042181 0.554511 2.247633
-1.014558 0.545369 2.211776
-1.001309 0.543843 2.206710
-0.990998 0.543898 2.207983
-0.982528 0.544976 2.213341
-0.972818 0.545382 2.215902
-0.819666 0.474812 1.931219
-0.782166 0.458171 1.864089
-0.768212 0.455103 1.852105
-0.758475 0.454490 1.850067
-0.750041 0.454654 1.851139
-0.743292 0.455855 1.856392
-0.733689 0.455313 1.854506
-0.723402 0.454330 1.850778
-0.344127 0.245687 1.001244
-0.341025 0.246849 1.005924
-0.338840 0.248717 1.013467
-0.330964 0.246401 1.003946
-0.327756 0.247545 1.008508
-0.322702 0.247307 1.007428
-0.317879 0.247241 1.007035
-0.312759 0.246940 1.005672
-0.306636 0.245825 1.000984
-0.299979 0.244241 0.994377
-0.293399 0.242670 0.987817
-0.286086 0.240433 0.978537
-0.276876 0.236502 0.962357
-0.268435 0.233109 0.948361
-0.261741 0.231143 0.940173
-0.249798 0.224395 0.912529
-0.239560 0.218969 0.890266
-0.232773 0.216559 0.880270
-0.226460 0.214512 0.871746
-0.220588 0.212814 0.864637
-0.215940 0.212257 0.862159
-0.210094 0.210476 0.854712
-0.206317 0.210740 0.855566
-0.164838 0.182683 0.740871
-0.159757 0.180897 0.733425
-0.156358 0.180978 0.733555
-0.153007 0.181119 0.733924
-0.149493 0.181070 0.733521
-0.146139 0.181217 0.733909
-0.142820 0.181416 0.734512
-0.139515 0.181643 0.735222
-0.136179 0.181841 0.735820
-0.132885 0.182106 0.736687
-0.129388 0.182100 0.736458
-0.125711 0.181835 0.735184
-0.121951 0.181430 0.733343
-0.117296 0.179632 0.725876
-0.112396 0.177337 0.716408
-0.107721 0.175266 0.707856
-0.101881 0.171105 0.690868
-0.096861 0.168091 0.678518
-0.093716 0.168234 0.678924
-0.049306 0.091669 0.369845
-0.047348 0.091286 0.368207
-0.045402 0.090896 0.366547
-0.043950 0.091505 0.368911
-0.042568 0.092317 0.372098
-0.040780 0.092280 0.371865
-0.039043 0.092359 0.372103
-0.038785 0.096113 0.387144
-0.036856 0.095894 0.386180
-0.035030 0.095932 0.386254
-0.033573 0.097044 0.390653
-0.031657 0.096880 0.389919
-0.029763 0.096771 0.389412
-0.027957 0.096949 0.390057
-0.026092 0.096933 0.389931
-0.024194 0.096788 0.389282
-0.022300 0.096631 0.388592
-0.020397 0.096408 0.387641
-0.018488 0.096103 0.386363
-0.016547 0.095554 0.384107
-0.014656 0.095184 0.382575
-0.012866 0.095470 0.383682
-0.011017 0.095330 0.383081
-0.009125 0.094694 0.380490
-0.007330 0.095004 0.381703
-0.005550 0.095773 0.384765
-0.003681 0.095011 0.381679
-0.001837 0.094020 0.377676
-0.000026 0.078847 0.316714
0.001475 0.078123 0.313793
0.002968 0.077904 0.312905
0.004465 0.077913 0.312933
0.005948 0.077731 0.312200
0.007424 0.077556 0.311494
0.008894 0.077376 0.310774
0.010342 0.077092 0.309641
0.011787 0.076853 0.308688
0.013237 0.076699 0.308078
0.014648 0.076371 0.306773
0.016040 0.076014 0.305356
0.017456 0.075817 0.304582
0.018811 0.075409 0.302964
0.020167 0.075061 0.301586
0.021547 0.074843 0.300735
0.022970 0.074793 0.300563
0.024335 0.074567 0.299685
0.025662 0.074260 0.298481
0.026884 0.073697 0.296250
0.028014 0.072950 0.293283
0.029196 0.072403 0.291120
0.030463 0.072107 0.289971
0.031728 0.071832 0.288903
0.033040 0.071681 0.288339
0.034248 0.071327 0.286958
0.035415 0.070916 0.285350
0.036563 0.070500 0.283722
0.037705 0.070103 0.282171
0.038967 0.069948 0.281594
0.039946 0.069313 0.279086
0.040857 0.068603 0.276276
0.041844 0.068062 0.274148
0.043028 0.067864 0.273401
0.044148 0.067580 0.272308
0.045157 0.067148 0.270619
0.046279 0.066902 0.269681
0.047404 0.066674 0.268813
0.048556 0.066494 0.268139
0.049625 0.066214 0.267064
0.050544 0.065752 0.265252
0.051400 0.065232 0.263205
0.052456 0.064985 0.262262
0.053516 0.064754 0.261380
0.054388 0.064312 0.259647
0.055388 0.064037 0.258588
0.056480 0.063878 0.257995
0.057509 0.063655 0.257144
0.058590 0.063499 0.256562
0.059591 0.063264 0.255659
0.060495 0.062937 0.254386
0.061534 0.062760 0.253715
0.062440 0.062458 0.252538
0.063072 0.061898 0.250315
0.063772 0.061424 0.248437
0.064808 0.061285 0.247914
0.065836 0.061144 0.247381
0.066706 0.060863 0.246281
0.067653 0.060661 0.245494
0.068510 0.060387 0.244416
0.069441 0.060185 0.243628
0.070419 0.060030 0.243028
0.071162 0.059683 0.241649
0.071755 0.059223 0.239808
0.072722 0.059082 0.239255
0.073535 0.058822 0.238218
0.074397 0.058608 0.237364
0.075343 0.058465 0.236797
0.076157 0.058226 0.235835
0.077062 0.058063 0.235177
0.077966 0.057903 0.234530
0.078799 0.057696 0.233688
0.079542 0.057429 0.232600
0.080520 0.057337 0.232220
0.081311 0.057116 0.231309
0.081460 0.056456 0.228620
0.082162 0.056192 0.227527
0.083001 0.056027 0.226833
0.083787 0.055830 0.226007
0.084507 0.055596 0.225023
0.085149 0.055316 0.223851
0.085664 0.054962 0.222375
0.086234 0.054651 0.221069
0.086811 0.054352 0.219806
0.087734 0.054274 0.219432
0.088419 0.054053 0.218474
0.089059 0.053809 0.217419
0.089658 0.053547 0.216284
0.090397 0.053373 0.215501
0.091050 0.053153 0.214526
0.091671 0.052920 0.213492
0.092321 0.052707 0.212536
0.092877 0.052447 0.211381
0.093440 0.052196 0.210258
0.094101 0.052004 0.209369
0.094774 0.051822 0.208514
0.095308 0.051570 0.207366
0.095982 0.051397 0.206534
0.096613 0.051205 0.205617
0.097200 0.050995 0.204617
0.097818 0.050804 0.203690
0.098228 0.050510 0.202341
0.098715 0.050261 0.201167
0.099401 0.050117 0.200406
0.099920 0.049892 0.199313
0.100481 0.049693 0.198311
0.101073 0.049512 0.197377
0.101795 0.049398 0.196699
0.102474 0.049265 0.195937
0.103200 0.049157 0.195263
-0.945438 0.456891 1.798614
-0.934509 0.455743 1.796026
-0.924073 0.454817 1.794213
-0.914105 0.454106 1.793155
-0.905283 0.453957 1.794230
-1.041466 0.564790 2.245404
-1.014976 0.556088 2.212045
-1.000569 0.553895 2.204476
-0.990635 0.554158 2.206605
-0.984466 0.556555 2.217166
-0.973058 0.556010 2.215940
-0.777984 0.464488 1.853806
-0.768038 0.463752 1.851392
-0.759504 0.463862 1.852309
-0.751266 0.464157 1.853918
-0.743248 0.464597 1.856063
-0.734719 0.464724 1.856917
-0.723494 0.463129 1.850842
-0.793402 0.593582 2.373182
-0.779314 0.591359 2.364124
-0.328399 0.252802 1.010560
-0.322042 0.251550 1.005453
-0.316598 0.250983 1.003075
-0.312454 0.251446 1.004801
-0.305726 0.249811 0.998132
-0.299240 0.248328 0.992057
-0.292607 0.246672 0.985287
-0.284765 0.243928 0.974163
-0.276600 0.240813 0.961553
-0.269714 0.238727 0.953046
-0.260652 0.234612 0.936432
-0.256578 0.234922 0.937479
-0.241743 0.225217 0.898562
-0.234752 0.222604 0.887943
-0.228856 0.220954 0.881163
-0.223200 0.219479 0.875079
-0.217612 0.218016 0.869041
-0.212149 0.216626 0.863290
-0.205325 0.213765 0.851676
-0.198664 0.210961 0.840294
-0.164618 0.185952 0.740106
-0.159716 0.184332 0.733463
-0.155949 0.183980 0.731867
-0.153095 0.184714 0.734588
-0.149565 0.184646 0.734119
-0.146053 0.184599 0.733732
-0.142802 0.184887 0.734680
-0.139314 0.184876 0.734434
-0.136137 0.185287 0.735865
-0.132904 0.185642 0.737075
-0.129105 0.185203 0.735134
-0.125639 0.185233 0.735055
-0.120802 0.183185 0.726732
-0.117098 0.182784 0.724949
-0.111486 0.179291 0.710910
-0.106385 0.176430 0.699381
-0.099477 0.170289 0.674864
-0.096479 0.170656 0.676148
-0.093346 0.170801 0.676551
-0.049142 0.093126 0.368785
-0.047419 0.093185 0.368930
-0.045803 0.093469 0.369964
-0.044121 0.093635 0.370534
-0.042682 0.094350 0.373281
-0.041237 0.095114 0.376219
-0.039816 0.096007 0.379667
-0.038806 0.098021 0.387551
-0.037086 0.098356 0.388798
-0.035391 0.098795 0.390455
-0.033707 0.099314 0.392429
-0.031906 0.099532 0.393216
-0.030027 0.099517 0.393087
-0.028136 0.099457 0.392785
-0.026305 0.099620 0.393363
-0.024403 0.099513 0.392878
-0.022481 0.099305 0.392000
-0.020579 0.099155 0.391351
-0.018638 0.098766 0.389767
-0.016733 0.098505 0.388687
-0.014796 0.097970 0.386531
-0.012991 0.098277 0.387701
-0.011136 0.098251 0.387561
-0.009240 0.097780 0.385666
-0.007431 0.098221 0.387374
-0.005612 0.098778 0.389541
-0.003751 0.098789 0.389562
-0.001851 0.096762 0.381545
-0.000022 0.080336 0.316762
0.001487 0.080086 0.315763
0.002984 0.079740 0.314392
0.004476 0.079543 0.313606
0.005942 0.079112 0.311903
0.007413 0.078892 0.311035
0.008876 0.078680 0.310200
0.010334 0.078488 0.309451
0.011784 0.078290 0.308677
0.013221 0.078055 0.307758
0.014668 0.077927 0.307266
0.016081 0.077656 0.306212
0.017463 0.077289 0.304782
0.018851 0.077008 0.303694
0.020196 0.076601 0.302112
0.021620 0.076526 0.301838
0.022913 0.076030 0.299908
0.024242 0.075702 0.298642
0.025549 0.075346 0.297268
0.026892 0.075125 0.296428
0.027934 0.074130 0.292538
0.029152 0.073675 0.290778
0.030412 0.073360 0.289573
0.031676 0.073084 0.288519
0.032961 0.072877 0.287744
0.034228 0.072648 0.286881
0.035466 0.072376 0.285851
0.036643 0.072006 0.284433
0.037755 0.071538 0.282631
0.039024 0.071390 0.282092
0.039954 0.070653 0.279226
0.040823 0.069858 0.276132
0.041791 0.069277 0.273885
0.043064 0.069222 0.273715
0.044151 0.068879 0.272407
0.045180 0.068467 0.270829
0.046283 0.068189 0.269778
0.047435 0.067995 0.269061
0.048483 0.067666 0.267812
0.049505 0.067318 0.266485
0.050483 0.066929 0.264997
0.051422 0.066510 0.263386
0.052432 0.066199 0.262204
0.053447 0.065909 0.261106
0.054302 0.065439 0.259292
0.055445 0.065330 0.258910
0.056550 0.065181 0.258367
0.057492 0.064855 0.257121
0.058579 0.064703 0.256563
0.059606 0.064492 0.255770
0.060532 0.064182 0.254588
0.061466 0.063892 0.253479
0.062378 0.063592 0.252328
0.063206 0.063218 0.250886
0.064011 0.062836 0.249407
0.064731 0.062385 0.247654
0.065865 0.062343 0.247522
0.066697 0.062021 0.246276
0.067622 0.061795 0.245411
0.068497 0.061532 0.244394
0.069441 0.061338 0.243650
0.070275 0.061056 0.242552
0.071140 0.060809 0.241592
0.071843 0.060433 0.240120
0.072626 0.060135 0.238952
0.073431 0.059865 0.237892
0.074389 0.059725 0.237346
0.075353 0.059594 0.236834
0.076209 0.059384 0.236001
0.077073 0.059185 0.235212
0.077951 0.059002 0.234484
0.078659 0.058697 0.233268
0.079669 0.058624 0.232965
0.080479 0.058407 0.232091
0.081083 0.058048 0.230649
0.081683 0.057696 0.229230
0.082369 0.057414 0.228083
0.083079 0.057155 0.227025
0.083838 0.056936 0.226122
0.084547 0.056689 0.225102
0.085196 0.056408 0.223947
0.085630 0.055994 0.222256
0.086090 0.055606 0.220665
0.086880 0.055439 0.219944
0.087649 0.055262 0.219181
0.088407 0.055083 0.218403
0.089090 0.054861 0.217452
0.089706 0.054603 0.216352
0.090358 0.054374 0.215358
0.091151 0.054233 0.214711
0.091878 0.054057 0.213917
0.092218 0.053658 0.212239
0.093254 0.053670 0.212176
0.093900 0.053458 0.211226
0.094337 0.053134 0.209824
0.095267 0.053091 0.209527
0.095879 0.052874 0.208534
0.096516 0.052675 0.207605
0.097040 0.052419 0.206445
0.097444 0.052103 0.205045
0.097956 0.051852 0.203889
0.098422 0.051580 0.202649
0.098859 0.051300 0.201366
0.099345 0.051050 0.200194
0.100152 0.050967 0.199672
0.100578 0.050695 0.198398
0.101213 0.050532 0.197542
0.102172 0.050532 0.197314
0.102590 0.050267 0.196043
0.103320 0.050158 0.195369
-0.945284 0.465439 1.797344
-0.934293 0.464238 1.794673
-0.924132 0.463431 1.793428
-0.916065 0.463670 1.796136
-0.904479 0.462115 1.791807
-1.040745 0.575052 2.243133
-1.013749 0.565899 2.208701
-1.000454 0.564284 2.203587
-0.991336 0.565016 2.207564
-0.983843 0.566700 2.215193
-0.973144 0.566554 2.215601
-0.965833 0.568399 2.223731
-0.778847 0.473780 1.855522
-0.766926 0.471821 1.848400
-0.758842 0.472205 1.850406
-0.751318 0.472950 1.853784
-0.742563 0.472930 1.854116
-0.733644 0.472803 1.853986
-0.724645 0.472622 1.853599
-0.792567 0.604151 2.370792
-0.778484 0.601882 2.361741
-0.327282 0.256699 1.007193
-0.322173 0.256403 1.005942
-0.315322 0.254691 0.999125
-0.311205 0.255170 1.000886
-0.305372 0.254234 0.997091
-0.298178 0.252119 0.988659
-0.291054 0.249996 0.980191
-0.284337 0.248161 0.972842
-0.276906 0.245632 0.962769
-0.268478 0.242120 0.948835
-0.261833 0.240125 0.940840
-0.251901 0.234994 0.920560
-0.243697 0.231324 0.906001
-0.237621 0.229580 0.898983
-0.230489 0.226734 0.887644
-0.224784 0.225212 0.881490
-0.218628 0.223172 0.873307
-0.213212 0.221823 0.867829
-0.206274 0.218809 0.855833
-0.199556 0.215912 0.844296
-0.195806 0.216173 0.845107
-0.165087 0.190005 0.742432
-0.160207 0.188392 0.735943
-0.155902 0.187400 0.731876
-0.153253 0.188398 0.735583
-0.149792 0.188421 0.735477
-0.146144 0.188204 0.734438
-0.142856 0.188453 0.735215
-0.139596 0.188751 0.736183
-0.136499 0.189292 0.738096
-0.133248 0.189640 0.739261
-0.129568 0.189381 0.738057
-0.126072 0.189384 0.737875
-0.122022 0.188533 0.734366
-0.116525 0.185329 0.721698
-0.111795 0.183190 0.713185
-0.106885 0.180611 0.702967
-0.100486 0.175271 0.682010
-0.096310 0.173580 0.675261
-0.093181 0.173725 0.675662
-0.049084 0.094776 0.368520
-0.047721 0.095555 0.371460
-0.046222 0.096109 0.373528
-0.044380 0.095967 0.372889
-0.043125 0.097133 0.377338
-0.041925 0.098532 0.382688
-0.040709 0.100021 0.388386
-0.039093 0.100617 0.390622
-0.037369 0.100984 0.391968
-0.035831 0.101920 0.395523
-0.034154 0.102541 0.397858
-0.032247 0.102506 0.397650
-0.030410 0.102699 0.398329
-0.028550 0.102840 0.398808
-0.026684 0.102974 0.399263
-0.024769 0.102930 0.399032
-0.022810 0.102678 0.397999
-0.020874 0.102490 0.397215
-0.018859 0.101842 0.394650
-0.016915 0.101481 0.393204
-0.014919 0.100675 0.390035
-0.013019 0.100379 0.388850
-0.011200 0.100711 0.390095
-0.009283 0.100126 0.387796
-0.007415 0.099911 0.386932
-0.005608 0.100651 0.389768
-0.003716 0.099829 0.386563
-0.001912 0.102084 0.395273
-0.000019 0.081606 0.315964
0.001485 0.081305 0.314788
0.002982 0.081095 0.313964
0.004479 0.081049 0.313783
0.005965 0.080868 0.313075
0.007434 0.080573 0.311934
0.008894 0.080287 0.310827
0.010359 0.080131 0.310229
0.011797 0.079831 0.309071
0.013238 0.079610 0.308228
0.014654 0.079302 0.307047
0.016103 0.079208 0.306695
0.017513 0.078958 0.305743
0.018935 0.078792 0.305121
0.020283 0.078365 0.303489
0.021672 0.078144 0.302654
0.023028 0.077838 0.301496
0.024350 0.077462 0.300065
0.025677 0.077139 0.298843
0.026858 0.076436 0.296153
0.028074 0.075898 0.294098
0.029306 0.075452 0.292407
0.030569 0.075123 0.291167
0.031842 0.074845 0.290128
0.032993 0.074315 0.288113
0.034169 0.073883 0.286476
0.035299 0.073388 0.284597
0.036496 0.073063 0.283382
0.037553 0.072490 0.281204
0.038825 0.072359 0.280737
0.039961 0.071992 0.279360
0.040943 0.071378 0.277026
0.042050 0.071015 0.275662
0.043101 0.070581 0.274025
0.044189 0.070233 0.272721
0.045181 0.069755 0.270912
0.046315 0.069518 0.270039
0.047462 0.069312 0.269288
0.048485 0.068940 0.267893
0.049502 0.068579 0.266539
0.050532 0.068253 0.265319
0.051516 0.067883 0.263928
0.052378 0.067374 0.261997
0.053396 0.067084 0.260919
0.054431 0.066828 0.259969
0.055403 0.066507 0.258767
0.056533 0.066387 0.258344
0.057494 0.066077 0.257184
0.058528 0.065862 0.256390
0.059648 0.065751 0.256000
0.060472 0.065324 0.254380
0.061388 0.065011 0.253201
0.062044 0.064441 0.251019
0.063051 0.064249 0.250308
0.064090 0.064096 0.249748
0.064992 0.063814 0.248686
0.065901 0.063550 0.247687
0.066799 0.063284 0.246681
0.067643 0.062977 0.245512
0.068532 0.062721 0.244542
0.069462 0.062511 0.243747
0.070222 0.062157 0.242387
0.070971 0.061805 0.241034
0.071803 0.061536 0.240000
0.072630 0.061270 0.238977
0.073509 0.061055 0.238151
0.074376 0.060838 0.237310
0.075277 0.060654 0.236599
0.076192 0.060487 0.235949
0.077064 0.060291 0.235182
0.077927 0.060093 0.234407
0.078627 0.059777 0.233165
0.079493 0.059595 0.232441
0.080344 0.059406 0.231690
0.081077 0.059136 0.230618
0.081944 0.058970 0.229946
0.082580 0.058644 0.228646
0.083061 0.058218 0.226954
0.083876 0.058034 0.226200
0.084618 0.057804 0.225264
0.085280 0.057526 0.224137
0.085831 0.057182 0.222744
0.086327 0.056809 0.221237
0.086828 0.056448 0.219773
0.087653 0.056305 0.219149
0.088426 0.056131 0.218403
0.089032 0.055857 0.217260
0.089474 0.055487 0.215743
0.090231 0.055319 0.215002
0.090977 0.055148 0.214245
0.091831 0.055045 0.213746
0.092318 0.054728 0.212408
0.093101 0.054590 0.211763
0.093749 0.054377 0.210819
0.094567 0.054266 0.210264
0.095239 0.054075 0.209389
0.095831 0.053843 0.208351
0.096243 0.053515 0.206936
0.096829 0.053289 0.205910
0.097383 0.053051 0.204830
0.097888 0.052791 0.203657
0.098371 0.052524 0.202451
0.098839 0.052255 0.201227
0.099429 0.052055 0.200261
0.099966 0.051831 0.199197
0.100833 0.051780 0.198791
0.101401 0.051579 0.197795
0.102203 0.051499 0.197256
0.103002 0.051419 0.196708
0.103535 0.051209 0.195650
-0.943436 0.473136 1.792820
-0.933132 0.472251 1.791471
-0.922252 0.471057 1.788848
-0.916947 0.472715 1.796966
-0.906930 0.471952 1.795800
-1.017312 0.578409 2.215758
-1.002540 0.575937 2.207515
-0.992313 0.576051 2.209107
-0.985450 0.578142 2.218211
-0.974500 0.577855 2.218122
-0.965078 0.578477 2.221459
-0.775292 0.480356 1.846691
-0.764937 0.479316 1.843272
-0.757631 0.480186 1.847144
-0.749434 0.480505 1.848854
-0.740470 0.480334 1.848631
-0.731660 0.480260 1.848739
-0.721733 0.479444 1.845943
-0.777647 0.612376 2.359318
-0.330356 0.263912 1.016715
-0.322429 0.261362 1.006812
-0.316040 0.260002 1.001484
-0.312754 0.261192 1.005964
-0.305450 0.259011 0.997450
-0.298670 0.257214 0.990404
-0.291397 0.254930 0.981472
-0.284709 0.253091 0.974250
-0.277592 0.250805 0.965297
-0.269522 0.247567 0.952677
-0.261681 0.244433 0.940454
-0.253893 0.241243 0.928007
-0.243287 0.235216 0.904652
-0.236998 0.233223 0.896806
-0.230929 0.231378 0.889527
-0.224517 0.229114 0.880638
-0.218709 0.227394 0.873835
-0.212842 0.225544 0.866533
-0.207078 0.223735 0.859385
-0.202755 0.223441 0.858054
-0.194363 0.218559 0.839107
-0.190626 0.218817 0.839896
-0.164862 0.193266 0.741640
-0.160151 0.191820 0.735910
-0.155847 0.190808 0.731844
-0.152871 0.191415 0.733985
-0.149502 0.191545 0.734299
-0.146043 0.191564 0.734183
-0.142729 0.191778 0.734816
-0.139279 0.191816 0.734771
-0.135970 0.192056 0.735500
-0.132604 0.192226 0.735963
-0.129031 0.192096 0.735278
-0.125268 0.191670 0.733459
-0.118828 0.187005 0.715428
-0.115592 0.187258 0.716214
-0.110298 0.184092 0.703929
-0.105821 0.182133 0.696265
-0.101022 0.179478 0.685945
-0.096130 0.176474 0.674302
-0.093006 0.176621 0.674701
-0.048920 0.096215 0.367459
-0.047682 0.097250 0.371328
-0.046264 0.097984 0.374044
-0.044364 0.097716 0.372938
-0.043247 0.099220 0.378597
-0.042243 0.101128 0.385792
-0.040932 0.102439 0.390715
-0.039429 0.103371 0.394189
-0.037814 0.104089 0.396850
-0.036078 0.104532 0.398461
-0.034427 0.105286 0.401263
-0.032584 0.105505 0.402027
-0.030713 0.105658 0.402538
-0.028839 0.105817 0.403080
-0.026927 0.105850 0.403141
-0.025067 0.106110 0.404070
-0.023069 0.105782 0.402764
-0.021156 0.105819 0.402850
-0.019014 0.104604 0.398172
-0.017021 0.104031 0.395944
-0.014922 0.102587 0.390403
-0.013094 0.102858 0.391397
-0.011206 0.102675 0.390661
-0.009277 0.101958 0.387898
-0.007466 0.102517 0.389994
-0.005621 0.102827 0.391148
-0.003734 0.102272 0.389010
-0.001905 0.103806 0.394824
-0.000015 0.082873 0.315189
0.001491 0.082923 0.315368
0.002988 0.082687 0.314462
0.004488 0.082648 0.314307
0.005971 0.082395 0.313342
0.007443 0.082119 0.312290
0.008890 0.081708 0.310726
0.010361 0.081602 0.310327
0.011806 0.081343 0.309350
0.013234 0.081037 0.308196
0.014666 0.080815 0.307361
0.016097 0.080628 0.306664
0.017491 0.080302 0.305440
0.018910 0.080131 0.304805
0.020290 0.079829 0.303676
0.021686 0.079631 0.302946
0.023064 0.079392 0.302062
0.024464 0.079250 0.301548
0.025784 0.078882 0.300177
0.026974 0.078175 0.297518
0.028217 0.077687 0.295690
0.029292 0.076801 0.292351
0.030573 0.076513 0.291291
0.031827 0.076186 0.290081
0.033056 0.075826 0.288749
0.034291 0.075511 0.287587
0.035602 0.075379 0.287124
0.036841 0.075110 0.286144
0.037681 0.074077 0.282247
0.038790 0.073625 0.280570
0.040064 0.073505 0.280156
0.041262 0.073259 0.279262
0.042357 0.072851 0.277755
0.043496 0.072540 0.276613
0.044471 0.071982 0.274533
0.045703 0.071861 0.274117
0.046830 0.071586 0.273114
0.047624 0.070830 0.270276
0.048579 0.070347 0.268480
0.049526 0.069877 0.266733
0.050525 0.069502 0.265350
0.051549 0.069179 0.264163
0.052402 0.068648 0.262178
0.053372 0.068291 0.260860
0.054381 0.067998 0.259788
0.055411 0.067744 0.258861
0.056459 0.067523 0.258057
0.057458 0.067254 0.257073
0.058523 0.067071 0.256416
0.059470 0.066763 0.255280
0.060340 0.066383 0.253865
0.061175 0.065981 0.252366
0.062127 0.065717 0.251392
0.063034 0.065417 0.250279
0.063788 0.064971 0.248607
0.064893 0.064894 0.248341
0.065843 0.064666 0.247500
0.066648 0.064306 0.246151
0.067615 0.064113 0.245435
0.068500 0.063850 0.244452
0.069344 0.063557 0.243351
0.070246 0.063326 0.242489
0.071078 0.063041 0.241413
0.071916 0.062770 0.240389
0.072734 0.062490 0.239328
0.073689 0.062335 0.238742
0.074515 0.062077 0.237760
0.075386 0.061864 0.236945
0.076373 0.061750 0.236509
0.077212 0.061522 0.235630
0.078049 0.061299 0.234768
0.078778 0.060998 0.233606
0.079509 0.060707 0.232477
0.080357 0.060513 0.231714
0.081248 0.060355 0.231088
0.082010 0.060107 0.230112
0.082668 0.059791 0.228869
0.083230 0.059414 0.227391
0.083809 0.059058 0.225990
0.084543 0.058820 0.225035
0.085412 0.058679 0.224450
0.086021 0.058366 0.223199
0.086755 0.058145 0.222294
0.087212 0.057745 0.220704
0.088003 0.057574 0.219980
0.088769 0.057390 0.219202
0.089576 0.057236 0.218537
0.090106 0.056911 0.217213
0.090504 0.056511 0.215595
0.091461 0.056465 0.215324
0.092275 0.056333 0.214717
0.092069 0.055588 0.211769
0.093352 0.055748 0.212264
0.093720 0.055364 0.210681
0.094356 0.055145 0.209719
0.095407 0.055171 0.209681
0.095992 0.054929 0.208619
0.096579 0.054694 0.207573
0.097250 0.054510 0.206717
0.097758 0.054239 0.205525
0.098232 0.053955 0.204275
0.098653 0.053648 0.202930
0.099071 0.053345 0.201597
0.099676 0.053148 0.200653
0.100362 0.052997 0.199876
0.100874 0.052758 0.198758
0.101655 0.052663 0.198172
0.102501 0.052603 0.197709
0.103062 0.052399 0.196695
0.103796 0.052286 0.196012
-0.943136 0.481589 1.791201
-0.932293 0.480410 1.788854
-0.923863 0.480464 1.791001
-0.917594 0.481653 1.797297
-0.907178 0.480668 1.795393
-0.903266 0.483144 1.806335
-1.018738 0.589756 2.218122
-1.004202 0.587385 2.210472
-0.996394 0.588942 2.217526
-0.984460 0.588067 2.215351
-0.976918 0.589826 2.223029
-0.969566 0.591739 2.231224
-0.960286 0.592505 2.235030
-0.776364 0.489770 1.848859
-0.764349 0.487660 1.841497
-0.755005 0.487227 1.840413
-0.749904 0.489553 1.849708
-0.739699 0.488563 1.846427
-0.730332 0.488110 1.845131
-0.722367 0.488594 1.847335
-0.328307 0.267047 1.010461
-0.322263 0.265981 1.006361
-0.315490 0.264272 0.999815
-0.312308 0.265566 1.004617
-0.305604 0.263858 0.998051
-0.298448 0.261701 0.989778
-0.291332 0.259511 0.981373
-0.284590 0.257589 0.973969
-0.277904 0.255657 0.966521
-0.270433 0.252924 0.956043
-0.262896 0.250038 0.944977
-0.255195 0.246894 0.932933
-0.246420 0.242582 0.916471
-0.239929 0.240405 0.908075
-0.233353 0.238063 0.899051
-0.226640 0.235491 0.889158
-0.220848 0.233798 0.882582
-0.214339 0.231266 0.872837
-0.208326 0.229181 0.864776
-0.203180 0.227985 0.860073
-0.196370 0.224837 0.848000
-0.192592 0.225100 0.848796
-0.164734 0.196632 0.741275
-0.160224 0.195401 0.736460
-0.156043 0.194528 0.732990
-0.153050 0.195129 0.735076
-0.149635 0.195207 0.735190
-0.145931 0.194903 0.733863
-0.142604 0.195101 0.734423
-0.139165 0.195151 0.734431
-0.135709 0.195179 0.734353
-0.132267 0.195231 0.734364
-0.128583 0.194919 0.733007
-0.124660 0.194216 0.730182
-0.119753 0.191896 0.721283
-0.114858 0.189460 0.711953
-0.110044 0.187016 0.702597
-0.105596 0.185060 0.695079
-0.100078 0.181043 0.679830
-0.096935 0.181196 0.680244
-0.049042 0.098214 0.368544
-0.047544 0.098738 0.370426
-0.046219 0.099676 0.373862
-0.044756 0.100377 0.376410
-0.043106 0.100702 0.377546
-0.042001 0.102384 0.383774
-0.041245 0.105107 0.393900
-0.040343 0.107701 0.403543
-0.038224 0.107140 0.401363
-0.036566 0.107884 0.404073
-0.034958 0.108865 0.407675
-0.032780 0.108084 0.404679
-0.031051 0.108776 0.407203
-0.029172 0.108999 0.407970
-0.027189 0.108840 0.407313
-0.025324 0.109168 0.408479
-0.023386 0.109205 0.408563
-0.021422 0.109120 0.408189
-0.019348 0.108398 0.405437
-0.017341 0.107939 0.403675
-0.015293 0.107080 0.400415
-0.013065 0.104527 0.390829
-0.011297 0.105425 0.394152
-0.009392 0.105147 0.393076
-0.007433 0.103980 0.388684
-0.005922 0.110370 0.412542
-0.004000 0.111687 0.417438
-0.002008 0.111696 0.417449
-0.000012 0.084614 0.316219
0.001494 0.084431 0.315522
0.002997 0.084325 0.315119
0.004503 0.084365 0.315258
0.006000 0.084246 0.314809
0.007466 0.083830 0.313255
0.008914 0.083384 0.311590
0.010364 0.083077 0.310443
0.011822 0.082905 0.309808
0.013277 0.082756 0.309260
0.014721 0.082574 0.308587
0.016149 0.082341 0.307732
0.017570 0.082112 0.306890
0.019014 0.082020 0.306562
0.020394 0.081681 0.305317
0.021686 0.081063 0.303026
0.023051 0.080774 0.301968
0.024447 0.080623 0.301431
0.025697 0.080033 0.299250
0.026922 0.079433 0.297038
0.028199 0.079036 0.295582
0.029420 0.078530 0.293724
0.030750 0.078345 0.293064
0.032004 0.077992 0.291778
0.033136 0.077382 0.289534
0.034115 0.076481 0.286198
0.035280 0.076048 0.284618
0.036572 0.075911 0.284144
0.037705 0.075464 0.282512
0.038861 0.075093 0.281165
0.040080 0.074864 0.280349
0.041273 0.074605 0.279420
0.042444 0.074322 0.278404
0.043533 0.073916 0.276929
0.044524 0.073373 0.274939
0.045539 0.072899 0.273209
0.046567 0.072472 0.271652
0.047638 0.072132 0.270422
0.048564 0.071597 0.268463
0.049612 0.071265 0.267260
0.050576 0.070832 0.265682
0.051617 0.070525 0.264573
0.052485 0.070001 0.262652
0.053524 0.069725 0.261660
0.054624 0.069539 0.261004
0.055610 0.069218 0.259843
0.056558 0.068867 0.258564
0.057434 0.068444 0.257015
0.058377 0.068115 0.255821
0.059358 0.067845 0.254844
0.060448 0.067707 0.254361
0.061308 0.067322 0.252954
0.062163 0.066947 0.251576
0.063154 0.066729 0.250790
0.064082 0.066454 0.249787
0.064931 0.066107 0.248513
0.065717 0.065712 0.247054
0.066735 0.065557 0.246499
0.067674 0.065332 0.245674
0.068547 0.065051 0.244639
0.069379 0.064741 0.243492
0.070234 0.064463 0.242462
0.071049 0.064157 0.241327
0.071856 0.063854 0.240198
0.072646 0.063546 0.239046
0.073571 0.063364 0.238366
0.074513 0.063200 0.237754
0.075350 0.062955 0.236830
0.076294 0.062804 0.236260
0.077233 0.062654 0.235690
0.078050 0.062411 0.234762
0.078641 0.061996 0.233188
0.079497 0.061799 0.232428
0.080466 0.061693 0.232011
0.081111 0.061346 0.230679
0.081822 0.061056 0.229560
0.082758 0.060940 0.229091
0.083380 0.060599 0.227770
0.083993 0.060261 0.226457
0.084552 0.059892 0.225023
0.085339 0.059693 0.224223
0.086006 0.059414 0.223121
0.086646 0.059125 0.221973
0.087079 0.058703 0.220323
0.087796 0.058479 0.219413
0.088486 0.058244 0.218454
0.089252 0.058063 0.217693
0.089931 0.057831 0.216734
0.090509 0.057540 0.215549
0.091331 0.057408 0.214956
0.092174 0.057292 0.214415
0.092657 0.056958 0.213052
0.093353 0.056760 0.212194
0.094115 0.056606 0.211494
0.094784 0.056400 0.210591
0.095432 0.056186 0.209653
0.096181 0.056035 0.208942
0.096828 0.055829 0.208019
0.097378 0.055571 0.206895
0.097783 0.055237 0.205481
0.098020 0.054815 0.203734
0.098646 0.054617 0.202813
0.099302 0.054439 0.201959
0.099684 0.054116 0.200559
0.100400 0.053979 0.199836
0.101075 0.053822 0.199035
0.101615 0.053597 0.197973
0.102687 0.053654 0.197940
0.103383 0.053516 0.197176
0.103962 0.053319 0.196189
-0.944964 0.491144 1.793580
-0.934021 0.489900 1.791120
-0.926098 0.490232 1.794324
-0.920022 0.491556 1.801079
-0.909454 0.490484 1.798961
-0.902727 0.491482 1.804354
-1.022873 0.602730 2.226346
-1.003283 0.597333 2.207715
-0.994063 0.598063 2.211639
-0.983888 0.598227 2.213401
-0.974159 0.598669 2.216121
-0.965920 0.600047 2.222238
-0.945072 0.593537 2.199068
-0.935909 0.594301 2.202778
-0.771692 0.495521 1.837325
-0.764181 0.496265 1.840714
-0.754658 0.495704 1.839214
-0.745731 0.495528 1.839088
-0.739727 0.497312 1.846198
-0.731107 0.497359 1.846814
-0.720823 0.496262 1.843138
-0.332231 0.275069 1.022583
-0.321917 0.270444 1.005335
-0.315939 0.269378 1.001305
-0.313500 0.271344 1.008531
-0.305181 0.268203 0.996763
-0.298198 0.266156 0.989052
-0.290995 0.263844 0.980347
-0.283750 0.261420 0.971219
-0.277368 0.259725 0.964789
-0.270476 0.257487 0.956338
-0.262813 0.254428 0.944828
-0.255691 0.251796 0.934902
-0.247429 0.247930 0.920389
-0.240670 0.245459 0.911054
-0.233657 0.242635 0.900403
-0.227099 0.240188 0.891149
-0.220977 0.238117 0.883292
-0.214688 0.235785 0.874462
-0.208265 0.233211 0.864733
-0.203119 0.231993 0.860031
-0.196992 0.229582 0.850907
-0.193200 0.229849 0.851704
-0.166413 0.202189 0.749040
-0.160694 0.199481 0.738837
-0.156252 0.198273 0.734192
-0.153121 0.198711 0.735641
-0.149734 0.198831 0.735908
-0.146072 0.198583 0.734816
-0.142489 0.198431 0.734077
-0.139139 0.198606 0.734548
-0.135758 0.198745 0.734885
-0.132466 0.199024 0.735737
-0.128745 0.198658 0.734206
-0.124780 0.197882 0.731162
-0.120948 0.197281 0.728768
-0.115914 0.194626 0.718787
-0.110264 0.190746 0.704293
-0.105845 0.188819 0.697011
-0.100989 0.185964 0.686312
-0.095738 0.182166 0.672140
-0.092625 0.182314 0.672536
-0.049172 0.100239 0.369689
-0.047693 0.100824 0.371764
-0.046315 0.101674 0.374815
-0.044950 0.102621 0.378228
-0.043949 0.104512 0.385117
-0.042906 0.106467 0.392240
-0.042560 0.110405 0.406667
-0.040276 0.109452 0.403079
-0.038860 0.110881 0.408266
-0.036663 0.110114 0.405370
-0.035111 0.111306 0.409684
-0.033268 0.111665 0.410935
-0.031308 0.111650 0.410811
-0.029579 0.112511 0.413917
-0.027583 0.112408 0.413474
-0.025713 0.112839 0.414999
-0.023856 0.113410 0.417044
-0.021766 0.112875 0.415021
-0.019646 0.112057 0.411964
-0.017566 0.111321 0.409209
-0.015559 0.110915 0.407673
-0.013856 0.112871 0.414820
-0.011432 0.108631 0.399199
-0.009578 0.109192 0.401227
-0.008020 0.114259 0.419813
-0.006017 0.114245 0.419734
-0.004012 0.114159 0.419390
-0.002012 0.114168 0.419402
-0.000008 0.085834 0.315300
0.001497 0.085903 0.315541
0.002998 0.085771 0.315049
0.004495 0.085651 0.314601
0.005998 0.085667 0.314656
0.007478 0.085422 0.313752
0.008946 0.085145 0.312735
0.010390 0.084747 0.311274
0.011851 0.084570 0.310631
0.013307 0.084402 0.310022
0.014720 0.084020 0.308628
0.016133 0.083708 0.307495
0.017555 0.083489 0.306705
0.018982 0.083327 0.306124
0.020344 0.082921 0.304652
0.021712 0.082594 0.303472
0.023108 0.082408 0.302810
0.024488 0.082188 0.302025
0.025759 0.081647 0.300063
0.026851 0.080626 0.296340
0.028127 0.080231 0.294915
0.029402 0.079872 0.293629
0.030680 0.079552 0.292485
0.031867 0.079036 0.290620
0.033151 0.078792 0.289758
0.034232 0.078103 0.287258
0.035376 0.077606 0.285470
0.036429 0.076954 0.283109
0.037787 0.076971 0.283208
0.038780 0.076266 0.280656
0.039953 0.075954 0.279545
0.041235 0.075858 0.279236
0.042374 0.075516 0.278019
0.043512 0.075193 0.276870
0.044440 0.074536 0.274493
0.045401 0.073970 0.272452
0.046312 0.073356 0.270232
0.047471 0.073157 0.269545
0.048628 0.072967 0.268885
0.049677 0.072627 0.267677
0.050692 0.072256 0.266353
0.051736 0.071943 0.265241
0.052687 0.071520 0.263720
0.053644 0.071123 0.262298
0.054623 0.070773 0.261050
0.055724 0.070594 0.260426
0.056715 0.070286 0.259329
0.057650 0.069922 0.258027
0.058407 0.069363 0.256000
0.059468 0.069179 0.255357
0.060322 0.068768 0.253873
0.061298 0.068508 0.252948
0.062145 0.068118 0.251537
0.063043 0.067796 0.250379
0.064001 0.067550 0.249499
0.064939 0.067292 0.248574
0.065821 0.066986 0.247467
0.066771 0.066760 0.246654
0.067727 0.066546 0.245886
0.068642 0.066300 0.244994
0.069540 0.066046 0.244073
0.070246 0.065622 0.242518
0.070958 0.065216 0.241029
0.071623 0.064780 0.239427
0.072383 0.064443 0.238186
0.073216 0.064180 0.237218
0.074269 0.064115 0.236976
0.075185 0.063935 0.236309
0.076084 0.063747 0.235605
0.077090 0.063651 0.235243
0.077935 0.063428 0.234404
0.078887 0.063297 0.233903
0.079694 0.063055 0.232988
0.080329 0.062684 0.231595
0.081132 0.062454 0.230714
0.081920 0.062218 0.229812
0.082716 0.061994 0.228948
0.083411 0.061702 0.227826
0.084061 0.061383 0.226605
0.084657 0.061035 0.225268
0.085410 0.060806 0.224369
0.085802 0.060329 0.222550
0.086425 0.060024 0.221362
0.086965 0.059670 0.219985
0.087770 0.059503 0.219297
0.088411 0.059231 0.218215
0.089180 0.059050 0.217461
0.089816 0.058785 0.216397
0.090438 0.058518 0.215316
0.091121 0.058296 0.214395
0.091966 0.058181 0.213862
0.092622 0.057950 0.212900
0.093366 0.057779 0.212147
0.093988 0.057536 0.211127
0.094773 0.057398 0.210483
0.095416 0.057177 0.209530
0.096053 0.056958 0.208575
0.096738 0.056770 0.207732
0.097391 0.056569 0.206826
0.097645 0.056141 0.205090
0.098008 0.055785 0.203607
0.098393 0.055447 0.202186
0.098997 0.055239 0.201229
0.099588 0.055027 0.200249
0.100133 0.054794 0.199187
0.100939 0.054707 0.198644
0.101663 0.054577 0.197937
0.102499 0.054510 0.197447
0.103295 0.054423 0.196873
0.103823 0.054197 0.195786
-0.946494 0.500575 1.795351
-0.932832 0.497865 1.787753
-0.924984 0.498238 1.791118
-0.919414 0.499855 1.798877
-0.908434 0.498534 1.795971
-0.894640 0.495630 1.787261
-1.029608 0.617349 2.240184
-1.008065 0.610716 2.217463
-0.998224 0.611109 2.220158
-0.992432 0.614015 2.231918
-0.973968 0.609059 2.215025
-0.970878 0.613715 2.233014
-0.961557 0.614491 2.236830
-0.771042 0.503795 1.835347
-0.763036 0.504221 1.837552
-0.753094 0.503362 1.835026
-0.745442 0.504031 1.838026
-0.736066 0.503538 1.836739
-0.730914 0.505957 1.846030
-0.721903 0.505731 1.845630
-0.331689 0.279443 1.020952
-0.324001 0.276975 1.011892
-0.316857 0.274906 1.004276
-0.314660 0.277131 1.012334
-0.306809 0.274368 1.002161
-0.298748 0.271329 0.990967
-0.290792 0.268291 0.979768
-0.283490 0.265767 0.970440
-0.276596 0.263551 0.962226
-0.269381 0.260949 0.952598
-0.262041 0.258137 0.942194
-0.254643 0.255169 0.931222
-0.246951 0.251798 0.918768
-0.239968 0.249042 0.908561
-0.233265 0.246483 0.899064
-0.226964 0.244262 0.890800
-0.220672 0.241967 0.882262
-0.214337 0.239536 0.873229
-0.207733 0.236703 0.862728
-0.202679 0.235558 0.858376
-0.197062 0.233700 0.851428
-0.190378 0.230472 0.839486
-0.164098 0.202881 0.738826
-0.160283 0.202468 0.737159
-0.156348 0.201881 0.734857
-0.153358 0.202518 0.737007
-0.149747 0.202343 0.736203
-0.146188 0.202235 0.735638
-0.142704 0.202225 0.735432
-0.139157 0.202126 0.734898
-0.135773 0.202262 0.735220
-0.132021 0.201844 0.733531
-0.128321 0.201486 0.732059
-0.124363 0.200691 0.728999
-0.119832 0.198900 0.722325
-0.114468 0.195580 0.710105
-0.109629 0.192984 0.700517
-0.105540 0.191588 0.695289
-0.100234 0.187822 0.681469
-0.097083 0.187978 0.681882
-0.051177 0.102505 0.371752
-0.049603 0.102899 0.373097
-0.047724 0.102665 0.372169
-0.046263 0.103349 0.374569
-0.045690 0.106149 0.384640
-0.044664 0.108085 0.391574
-0.044391 0.112092 0.406010
-0.042489 0.112164 0.406193
-0.040438 0.111829 0.404903
-0.039116 0.113581 0.411171
-0.037159 0.113572 0.411068
-0.035221 0.113626 0.411192
-0.033396 0.114075 0.412746
-0.031506 0.114339 0.413635
-0.029800 0.115354 0.417245
-0.028075 0.116437 0.421099
-0.026083 0.116492 0.421237
-0.024230 0.117227 0.423838
-0.022090 0.116587 0.421472
-0.019971 0.115936 0.419068
-0.017721 0.114301 0.413109
-0.015914 0.115469 0.417286
-0.013829 0.114662 0.414330
-0.012211 0.118117 0.426776
-0.010179 0.118140 0.426823
-0.008145 0.118148 0.426820
-0.006131 0.118530 0.428170
-0.004096 0.118719 0.428827
-0.002051 0.118729 0.428839
-0.000005 0.087195 0.314926
0.001497 0.087177 0.314848
0.002999 0.087191 0.314891
0.004497 0.087112 0.314598
0.005994 0.087057 0.314394
0.007486 0.086969 0.314074
0.008967 0.086801 0.313467
0.010418 0.086429 0.312128
0.011864 0.086120 0.311016
0.013317 0.085921 0.310305
0.014717 0.085451 0.308616
0.016127 0.085122 0.307438
0.017537 0.084847 0.306459
0.018961 0.084676 0.305856
0.020355 0.084406 0.304899
0.021733 0.084108 0.303841
0.023104 0.083822 0.302830
0.024518 0.083720 0.302484
0.025900 0.083522 0.301793
0.027192 0.083069 0.300184
0.028261 0.082017 0.296410
0.029421 0.081315 0.293901
0.030684 0.080949 0.292610
0.031983 0.080704 0.291757
0.033235 0.080368 0.290576
0.034289 0.079598 0.287825
0.035511 0.079261 0.286645
0.036771 0.079032 0.285851
0.037841 0.078425 0.283695
0.038853 0.077744 0.281267
0.040057 0.077478 0.280346
0.041293 0.077290 0.279704
0.042404 0.076887 0.278286
0.043561 0.076590 0.277252
0.044586 0.076085 0.275463
0.045730 0.075806 0.274495
0.046751 0.075344 0.272861
0.047719 0.074822 0.271014
0.048730 0.074396 0.269512
0.049875 0.074190 0.268804
0.050840 0.073732 0.267187
0.051769 0.073246 0.265467
0.052712 0.072803 0.263900
0.053641 0.072362 0.262338
0.054693 0.072103 0.261438
0.055793 0.071916 0.260800
0.056753 0.071562 0.259550
0.057680 0.071181 0.258207
0.058421 0.070592 0.256103
0.059190 0.070060 0.254206
0.060252 0.069888 0.253616
0.061203 0.069598 0.252592
0.062154 0.069318 0.251606
0.063087 0.069030 0.250586
0.064012 0.068743 0.249572
0.064882 0.068408 0.248380
0.065906 0.068245 0.247810
0.066753 0.067908 0.246606
0.067705 0.067688 0.245824
0.068490 0.067310 0.244468
0.069302 0.066971 0.243252
0.070178 0.066704 0.242293
0.071048 0.066440 0.241343
0.071705 0.065988 0.239705
0.072483 0.065660 0.238517
0.073392 0.065459 0.237786
0.074348 0.065305 0.237226
0.075300 0.065152 0.236664
0.076153 0.064920 0.235810
0.077080 0.064756 0.235202
0.078047 0.064630 0.234728
0.078820 0.064349 0.233688
0.079544 0.064037 0.232531
0.080308 0.063765 0.231514
0.081109 0.063529 0.230626
0.081811 0.063222 0.229477
0.082665 0.063040 0.228777
0.083375 0.062754 0.227694
0.083998 0.062410 0.226399
0.084587 0.062050 0.225041
0.085269 0.061768 0.223957
0.085833 0.061406 0.222584
0.086391 0.061050 0.221228
0.087095 0.060805 0.220264
0.087651 0.060462 0.218947
0.088432 0.060282 0.218210
0.089324 0.060180 0.217752
0.089968 0.059915 0.216698
0.090659 0.059687 0.215775
0.091201 0.059368 0.214514
0.092108 0.059290 0.214119
0.092697 0.059012 0.212996
0.093396 0.058809 0.212136
0.094197 0.058673 0.211514
0.094761 0.058395 0.210371
0.095383 0.058158 0.209369
0.096099 0.057982 0.208582
0.096720 0.057753 0.207595
0.097277 0.057491 0.206485
0.097860 0.057250 0.205438
0.098308 0.056934 0.204122
0.098628 0.056552 0.202558
0.098978 0.056195 0.201075
0.099306 0.055831 0.199564
0.100182 0.055780 0.199161
0.100918 0.055653 0.198475
0.101563 0.055478 0.197612
0.102444 0.055434 0.197203
0.103192 0.055320 0.196535
0.103915 0.055194 0.195813
-0.945540 0.508699 1.792367
-0.934489 0.507355 1.789799
-0.924550 0.506596 1.789190
-0.920090 0.508853 1.799145
-0.910937 0.508533 1.799908
-0.902297 0.508497 1.801584
-1.028859 0.627543 2.237695
-1.006561 0.620327 2.213345
-1.000452 0.623040 2.224340
-0.993223 0.625107 2.232958
-0.976570 0.621223 2.220245
-0.971405 0.624643 2.233562
-0.978475 0.636092 2.275546
-0.769015 0.516940 1.851518
-0.755782 0.513875 1.841175
-0.746100 0.513181 1.839276
-0.743058 0.517092 1.853836
-0.731688 0.515232 1.847664
-0.721961 0.514499 1.845484
-0.328916 0.281889 1.012442
-0.323465 0.281289 1.010256
-0.314275 0.277372 0.996142
-0.311943 0.279480 1.003654
-0.306323 0.278662 1.000647
-0.298485 0.275770 0.990180
-0.290728 0.272862 0.979648
-0.282491 0.269403 0.967127
-0.275934 0.267459 0.960039
-0.268809 0.264890 0.950699
-0.261870 0.262422 0.941713
-0.254705 0.259638 0.931590
-0.247580 0.256798 0.921263
-0.240574 0.253983 0.911018
-0.234494 0.252060 0.903971
-0.227297 0.248844 0.892283
-0.220867 0.246363 0.883225
-0.214208 0.243526 0.872894
-0.207230 0.240207 0.860833
-0.202075 0.238913 0.856025
-0.195841 0.236263 0.846360
-0.192066 0.236532 0.847150
-0.165078 0.207617 0.743436
-0.160514 0.206262 0.738426
-0.156475 0.205536 0.735668
-0.153455 0.206147 0.737693
-0.149977 0.206156 0.737562
-0.146167 0.205699 0.735763
-0.142650 0.205643 0.735397
-0.139256 0.205764 0.735665
-0.135691 0.205633 0.735030
-0.131946 0.205217 0.733375
-0.128288 0.204917 0.732137
-0.124291 0.204043 0.728849
-0.119782 0.202255 0.722302
-0.114961 0.199820 0.713445
-0.109627 0.196318 0.700785
-0.105966 0.195688 0.698381
-0.100089 0.190795 0.680767
-0.095504 0.188119 0.671073
-0.051645 0.105234 0.375317
-0.050005 0.105528 0.376289
-0.048138 0.105349 0.375571
-0.046776 0.106303 0.378893
-0.045793 0.108231 0.385689
-0.046163 0.113650 0.404918
-0.044270 0.113725 0.405109
-0.042046 0.112917 0.402156
-0.040827 0.114863 0.409011
-0.039187 0.115759 0.412128
-0.037260 0.115858 0.412407
-0.035468 0.116409 0.414299
-0.033537 0.116543 0.414711
-0.031626 0.116772 0.415458
-0.029875 0.117656 0.418540
-0.028026 0.118256 0.420616
-0.026281 0.119421 0.424698
-0.024228 0.119263 0.424080
-0.022144 0.118912 0.422781
-0.019977 0.117996 0.419473
-0.017765 0.116592 0.414436
-0.015875 0.117207 0.416581
-0.013920 0.117446 0.417388
-0.011873 0.116866 0.415291
-0.010041 0.118596 0.421404
-0.008083 0.119332 0.423985
-0.006076 0.119591 0.424876
-0.004044 0.119389 0.424133
-0.002033 0.119999 0.426279
-0.000001 0.088486 0.314317
0.001501 0.088697 0.315057
0.002995 0.088456 0.314190
0.004486 0.088318 0.313691
0.005989 0.088433 0.314097
0.007474 0.088282 0.313558
0.008952 0.088115 0.312964
0.010411 0.087832 0.311960
0.011861 0.087550 0.310963
0.013308 0.087314 0.310131
0.014751 0.087102 0.309388
0.016175 0.086826 0.308416
0.017592 0.086561 0.307488
0.019003 0.086311 0.306613
0.020425 0.086141 0.306028
0.021781 0.085731 0.304591
0.023140 0.085385 0.303382
0.024548 0.085251 0.302928
0.025912 0.084987 0.302012
0.027195 0.084499 0.300305
0.028400 0.083829 0.297949
0.029452 0.082792 0.294291
0.030805 0.082657 0.293841
0.032083 0.082343 0.292758
0.033309 0.081924 0.291298
0.034457 0.081355 0.289310
0.035631 0.080890 0.287689
0.036781 0.080407 0.286007
0.037927 0.079948 0.284411
0.039020 0.079415 0.282549
0.040120 0.078930 0.280860
0.041313 0.078653 0.279915
0.042488 0.078362 0.278916
0.043580 0.077937 0.277443
0.044688 0.077566 0.276160
0.045691 0.077040 0.274325
0.046759 0.076648 0.272971
0.047761 0.076173 0.271318
0.048795 0.075773 0.269931
0.049925 0.075538 0.269135
0.051020 0.075264 0.268194
0.051846 0.074615 0.265920
0.052805 0.074184 0.264421
0.053708 0.073696 0.262719
0.054626 0.073249 0.261163
0.055553 0.072835 0.259721
0.056534 0.072509 0.258593
0.057651 0.072367 0.258118
0.058639 0.072072 0.257099
0.059480 0.071612 0.255489
0.060373 0.071231 0.254160
0.061359 0.070973 0.253269
0.062223 0.070586 0.251915
0.063152 0.070287 0.250870
0.064110 0.070030 0.249978
0.064969 0.069677 0.248737
0.065908 0.069420 0.247841
0.066850 0.069175 0.246983
0.067706 0.068851 0.245841
0.068705 0.068681 0.245249
0.069475 0.068292 0.243869
0.070304 0.067972 0.242736
0.070993 0.067529 0.241159
0.071675 0.067094 0.239608
0.072511 0.066814 0.238611
0.073399 0.066590 0.237806
0.074442 0.066511 0.237520
0.075329 0.066298 0.236749
0.076247 0.066117 0.236091
0.077145 0.065925 0.235388
0.078063 0.065755 0.234761
0.078984 0.065592 0.234157
0.079667 0.065238 0.232866
0.080470 0.064991 0.231955
0.080987 0.064523 0.230252
0.081768 0.064275 0.229327
0.082578 0.064056 0.228501
0.083263 0.063747 0.227352
0.083974 0.063465 0.226297
0.084622 0.063144 0.225093
0.085276 0.062834 0.223929
0.085832 0.062461 0.222534
0.086481 0.062165 0.221407
0.087052 0.061819 0.220100
0.087704 0.061539 0.219023
0.088280 0.061213 0.217774
0.089088 0.061053 0.217113
0.089955 0.060936 0.216600
0.090654 0.060711 0.215694
0.091374 0.060503 0.214846
0.092102 0.060306 0.214028
0.092763 0.060069 0.213066
0.093476 0.059871 0.212234
0.094227 0.059701 0.211494
0.094898 0.059485 0.210584
0.095564 0.059270 0.209672
0.096166 0.059020 0.208628
0.096840 0.058819 0.207752
0.097450 0.058584 0.206746
0.097901 0.058258 0.205415
0.098254 0.057882 0.203898
0.098692 0.057562 0.202573
0.099129 0.057248 0.201260
0.099554 0.056933 0.199939
0.100087 0.056686 0.198844
0.100858 0.056576 0.198225
0.101537 0.056418 0.197425
0.102329 0.056324 0.196840
0.103103 0.056223 0.196219
0.103922 0.056147 0.195676
-0.945054 0.517062 1.790229
-0.934652 0.516051 1.788940
-0.924550 0.515190 1.788063
-0.920612 0.517779 1.799074
-0.910619 0.516979 1.798228
-0.901567 0.516704 1.799114
-1.009758 0.632852 2.219524
-0.995567 0.630515 2.212671
-0.994564 0.636569 2.235197
-0.981467 0.634929 2.230642
-0.975882 0.638166 2.243154
-0.977670 0.646350 2.273000
-0.958667 0.640817 2.254547
-0.949220 0.641620 2.258313
-0.765539 0.523332 1.842690
-0.758427 0.524420 1.847187
-0.747879 0.523131 1.843261
-0.740846 0.524299 1.847944
-0.734228 0.525792 1.853732
-0.724419 0.525009 1.851449
-0.327491 0.285430 1.008073
-0.318390 0.281574 0.994435
-0.311163 0.279285 0.986317
-0.310095 0.282539 0.997763
-0.305075 0.282237 0.996637
-0.297363 0.279396 0.986535
-0.289338 0.276166 0.975050
-0.280873 0.272406 0.961685
-0.273988 0.270080 0.953373
-0.267693 0.268268 0.946871
-0.260823 0.265809 0.938074
-0.253172 0.262455 0.926117
-0.246881 0.260420 0.918805
-0.241018 0.258770 0.912849
-0.234400 0.256237 0.903771
-0.226872 0.252596 0.890785
-0.219841 0.249381 0.879298
-0.213259 0.246563 0.869206
-0.206579 0.243518 0.858319
-0.199786 0.240217 0.846525
-0.192784 0.236524 0.833350
-0.189065 0.236791 0.834126
-0.165444 0.211612 0.745280
-0.160792 0.210129 0.739906
-0.156889 0.209581 0.737824
-0.153727 0.210020 0.739215
-0.149978 0.209660 0.737790
-0.146294 0.209376 0.736633
-0.142570 0.209019 0.735218
-0.139015 0.208899 0.734637
-0.135604 0.208995 0.734812
-0.131990 0.208775 0.733878
-0.128233 0.208310 0.732084
-0.124189 0.207341 0.728520
-0.119760 0.205655 0.722437
-0.115637 0.204412 0.717913
-0.110600 0.201429 0.707284
-0.105961 0.199008 0.698634
-0.100086 0.194035 0.681031
-0.096938 0.194193 0.681441
-0.052157 0.108086 0.379205
-0.050503 0.108394 0.380206
-0.048429 0.107791 0.378016
-0.047037 0.108716 0.381182
-0.045910 0.110355 0.386855
-0.045001 0.112674 0.394907
-0.044186 0.115444 0.404539
-0.042226 0.115334 0.404080
-0.040871 0.116948 0.409662
-0.039331 0.118167 0.413860
-0.037361 0.118153 0.413739
-0.035670 0.119072 0.416890
-0.033763 0.119335 0.417744
-0.031815 0.119477 0.418177
-0.030190 0.120931 0.423206
-0.028382 0.121807 0.426210
-0.026254 0.121338 0.424513
-0.024334 0.121837 0.426202
