ply
format ascii 1.0
element vertex 1679
property float x
property float y
property float z
end_header
0.067475 -0.033663 0.261597
0.068461 -0.033532 0.260672
0.069420 -0.033394 0.259681
0.070408 -0.033274 0.258832
0.071344 -0.033134 0.257826
0.072195 -0.032960 0.256554
0.072990 -0.032766 0.255125
0.073841 -0.032604 0.253938
0.074180 -0.032225 0.251056
0.074314 -0.031769 0.247581
0.075069 -0.031590 0.246252
0.076059 -0.031513 0.245718
0.077016 -0.031426 0.245098
0.077771 -0.031259 0.243859
0.078353 -0.031029 0.242121
0.079192 -0.030906 0.241215
0.080050 -0.030794 0.240390
0.080834 -0.030657 0.239369
0.081613 -0.030521 0.238356
0.082500 -0.030430 0.237681
0.083328 -0.030319 0.236853
0.084113 -0.030196 0.235925
0.084786 -0.030037 0.234709
0.085645 -0.029946 0.234027
0.086370 -0.029812 0.232998
0.087130 -0.029693 0.232086
0.087914 -0.029585 0.231253
0.088530 -0.029424 0.230003
0.089166 -0.029273 0.228831
0.089850 -0.029142 0.227800
0.090683 -0.029061 0.227165
0.091344 -0.028928 0.226114
0.091955 -0.028783 0.224958
0.092685 -0.028677 0.224112
0.093126 -0.028485 0.222588
0.093729 -0.028347 0.221475
0.094143 -0.028156 0.219941
0.094464 -0.027941 0.218219
0.094379 -0.027612 0.215599
0.094814 -0.027440 0.214205
0.095423 -0.027322 0.213224
0.095897 -0.027168 0.211956
0.096459 -0.027042 0.210901
0.096890 -0.026883 0.209576
0.097318 -0.026726 0.208264
0.097893 -0.026611 0.207281
0.098325 -0.026461 0.206011
0.098819 -0.026330 0.204885
0.099286 -0.026195 0.203719
0.099674 -0.026042 0.202403
0.100140 -0.025911 0.201262
0.100892 -0.025857 0.200702
0.101416 -0.025746 0.199692
0.101954 -0.025640 0.198718
0.102719 -0.025593 0.198189
0.103550 -0.025563 0.197786
-1.703737 -0.395604 3.206005
-1.691862 -0.396368 3.214775
-1.678925 -0.396895 3.221486
-0.709271 -0.169201 1.374337
-0.700255 -0.168589 1.370284
-0.692953 -0.168383 1.369465
-0.685283 -0.168083 1.367825
-0.677494 -0.167748 1.365844
-0.667157 -0.166769 1.358568
-0.652738 -0.164742 1.342684
-0.641875 -0.163581 1.333807
-0.631123 -0.162427 1.324922
-0.619372 -0.160990 1.313681
-0.600856 -0.157748 1.287657
-0.582743 -0.154547 1.261909
-0.565197 -0.151433 1.236813
-0.561007 -0.151870 1.240678
-0.552407 -0.151109 1.234729
-0.539760 -0.149214 1.219465
-0.542700 -0.151634 1.239433
-0.543731 -0.153567 1.255394
-1.391562 -0.397325 3.248416
-1.401647 -0.404635 3.308432
-1.388368 -0.405288 3.313947
-1.375693 -0.406135 3.320966
-1.368137 -0.408531 3.340569
-1.353070 -0.408713 3.342005
-1.340176 -0.409564 3.348835
-1.312412 -0.410711 3.357742
-1.298793 -0.411389 3.362951
-1.290675 -0.413848 3.382648
-1.268824 -0.411911 3.366350
-1.254766 -0.412487 3.370533
-1.243369 -0.413963 3.382017
-1.229517 -0.414651 3.386994
-0.370091 -0.126449 1.032664
-0.364024 -0.126029 1.029009
-0.361052 -0.126685 1.034114
-0.355712 -0.126515 1.032475
-0.350321 -0.126323 1.030637
-0.344994 -0.126149 1.028932
-0.339932 -0.126069 1.027978
-0.334796 -0.125959 1.026768
-0.329246 -0.125687 1.024232
-0.322933 -0.125112 1.019214
-0.316229 -0.124365 1.012794
-0.307986 -0.122982 1.001181
-0.299901 -0.121619 0.989738
-0.292696 -0.120576 0.980893
-0.284918 -0.119260 0.969826
-0.275658 -0.117270 0.953284
-0.271583 -0.117457 0.954430
-0.253758 -0.111603 0.906507
-0.245548 -0.109849 0.891903
-0.237595 -0.108151 0.877756
-0.229996 -0.106556 0.864460
-0.226047 -0.106626 0.864663
-0.221132 -0.106234 0.861125
-0.063366 -0.032228 0.260898
-0.060750 -0.031514 0.255008
-0.059189 -0.031329 0.253400
-0.057574 -0.031107 0.251497
-0.055865 -0.030825 0.249104
-0.054489 -0.030717 0.248126
-0.053451 -0.030799 0.248682
-0.052142 -0.030726 0.247984
-0.050871 -0.030673 0.247441
-0.049586 -0.030608 0.246811
-0.048242 -0.030503 0.245858
-0.046717 -0.030276 0.243919
-0.044973 -0.029891 0.240714
-0.043682 -0.029794 0.239836
-0.042478 -0.029754 0.239410
-0.040901 -0.029443 0.236809
-0.039694 -0.029389 0.236273
-0.038362 -0.029236 0.234948
-0.036473 -0.028636 0.230031
-0.034943 -0.028290 0.227161
-0.033763 -0.028213 0.226461
-0.032744 -0.028272 0.226840
-0.031802 -0.028402 0.227802
-0.030831 -0.028515 0.228624
-0.030181 -0.028946 0.231989
-0.029131 -0.029010 0.232418
-0.028088 -0.029086 0.232951
-0.027018 -0.029141 0.233307
-0.025938 -0.029188 0.233606
-0.024889 -0.029276 0.234238
-0.023851 -0.029387 0.235055
-0.022924 -0.029653 0.237106
-0.021834 -0.029723 0.237598
-0.020786 -0.029863 0.238651
-0.019680 -0.029930 0.239120
-0.018638 -0.030110 0.240498
-0.017539 -0.030215 0.241278
-0.016406 -0.030271 0.241672
-0.015256 -0.030305 0.241884
-0.014134 -0.030403 0.242621
-0.012998 -0.030486 0.243236
-0.011851 -0.030557 0.243755
-0.010691 -0.030608 0.244119
-0.009550 -0.030734 0.245082
-0.008392 -0.030830 0.245815
-0.007223 -0.030915 0.246462
-0.006051 -0.031015 0.247228
-0.004874 -0.031134 0.248150
-0.003690 -0.031266 0.249174
-0.002490 -0.031334 0.249696
-0.001286 -0.031433 0.250470
-0.000074 -0.031468 0.250738
0.001142 -0.031553 0.251402
0.002366 -0.031644 0.252126
0.003606 -0.031820 0.253527
0.004854 -0.031961 0.254647
0.006096 -0.032009 0.255032
0.007341 -0.032056 0.255419
0.008592 -0.032108 0.255847
0.009846 -0.032161 0.256283
0.011094 -0.032184 0.256481
0.012355 -0.032234 0.256903
0.013652 -0.032361 0.257934
0.014947 -0.032464 0.258785
0.016222 -0.032509 0.259179
0.017469 -0.032495 0.259102
0.018761 -0.032562 0.259675
0.020049 -0.032613 0.260120
0.021270 -0.032556 0.259710
0.022556 -0.032599 0.260103
0.023980 -0.032827 0.261974
0.025436 -0.033073 0.263985
0.026826 -0.033214 0.265167
0.028208 -0.033332 0.266176
0.029657 -0.033516 0.267708
0.031154 -0.033737 0.269534
0.032515 -0.033799 0.270097
0.033867 -0.033846 0.270548
0.035250 -0.033920 0.271213
0.036715 -0.034065 0.272446
0.038243 -0.034256 0.274053
0.039900 -0.034545 0.276452
0.041383 -0.034670 0.277535
0.042664 -0.034624 0.277250
0.044029 -0.034647 0.277520
0.045542 -0.034781 0.278686
0.046982 -0.034853 0.279356
0.048388 -0.034897 0.279799
0.049779 -0.034927 0.280137
0.051198 -0.034975 0.280618
0.052628 -0.035029 0.281146
0.053963 -0.035017 0.281154
0.055277 -0.034993 0.281056
0.056609 -0.034981 0.281064
0.057924 -0.034960 0.280992
0.059063 -0.034835 0.280092
0.059845 -0.034510 0.277579
0.059556 -0.033596 0.270318
0.060533 -0.033419 0.268994
0.061703 -0.033354 0.268565
0.062835 -0.033271 0.267995
0.063858 -0.033135 0.266999
0.064847 -0.032987 0.265900
0.065849 -0.032852 0.264899
0.067006 -0.032797 0.264554
0.067934 -0.032634 0.263332
0.068795 -0.032446 0.261899
0.069680 -0.032275 0.260613
0.070552 -0.032105 0.259322
0.071333 -0.031900 0.257749
0.072227 -0.031751 0.256630
0.072960 -0.031538 0.254988
0.073693 -0.031331 0.253395
0.073313 -0.030666 0.248092
0.074131 -0.030516 0.246943
0.075100 -0.030430 0.246324
0.075970 -0.030309 0.245404
0.076953 -0.030235 0.244873
0.077861 -0.030134 0.244117
0.078603 -0.029973 0.242872
0.079162 -0.029748 0.241105
0.080022 -0.029641 0.240288
0.080864 -0.029530 0.239440
0.081652 -0.029403 0.238453
0.082472 -0.029291 0.237587
0.083478 -0.029247 0.237267
0.084356 -0.029160 0.236597
0.085148 -0.029046 0.235702
0.085670 -0.028844 0.234088
0.086488 -0.028745 0.233310
0.087234 -0.028625 0.232357
0.087951 -0.028499 0.231349
0.088635 -0.028366 0.230273
0.089293 -0.028227 0.229155
0.090084 -0.028134 0.228395
0.090752 -0.028005 0.227341
0.091437 -0.027883 0.226348
0.092061 -0.027747 0.225223
0.092637 -0.027599 0.224004
0.093204 -0.027452 0.222784
0.093593 -0.027256 0.221165
0.093947 -0.027055 0.219494
0.094559 -0.026931 0.218451
0.095048 -0.026776 0.217143
0.095655 -0.026657 0.216122
0.095601 -0.026358 0.213639
0.096066 -0.026207 0.212350
0.096514 -0.026054 0.211043
0.096901 -0.025889 0.209622
0.097301 -0.025730 0.208252
0.097850 -0.025613 0.207216
0.098365 -0.025490 0.206122
0.098718 -0.025328 0.204705
0.099235 -0.025211 0.203644
0.099429 -0.025014 0.201939
0.099847 -0.024877 0.200707
0.100525 -0.024807 0.200007
0.101174 -0.024732 0.199252
0.101877 -0.024670 0.198608
0.102687 -0.024636 0.198169
0.103518 -0.024607 0.197766
-1.705055 -0.380653 3.209086
-1.697224 -0.382301 3.225538
-1.684259 -0.382811 3.232267
-0.709500 -0.162732 1.375000
-0.705200 -0.163236 1.380170
-0.701231 -0.163827 1.386024
-0.691800 -0.163141 1.381019
-0.681802 -0.162308 1.374703
-0.672248 -0.161565 1.369098
-0.659363 -0.160000 1.356463
-0.646796 -0.158482 1.344171
-0.635626 -0.157280 1.334503
-0.624749 -0.156128 1.325203
-0.608834 -0.153681 1.304859
-0.596576 -0.152117 1.291959
-0.581007 -0.149668 1.271494
-0.570457 -0.148475 1.261651
-0.559630 -0.147184 1.250937
-0.549498 -0.146051 1.241522
-0.536742 -0.144188 1.225872
-0.533435 -0.144852 1.231660
-0.528506 -0.145084 1.233756
-1.389016 -0.389846 3.315528
-1.360806 -0.386253 3.285040
-1.356545 -0.389453 3.312258
-1.343028 -0.390040 3.317172
-1.333596 -0.391841 3.332340
-1.326039 -0.394243 3.352547
-1.312474 -0.394895 3.357804
-1.298370 -0.395399 3.361736
-1.290726 -0.397908 3.382644
-1.271982 -0.397015 3.374568
-1.257356 -0.397401 3.377308
-1.242560 -0.397744 3.379615
-1.228726 -0.398407 3.384591
-0.368295 -0.120984 1.027578
-0.364007 -0.121164 1.028880
-0.359010 -0.121111 1.028179
-0.354787 -0.121321 1.029698
-0.350325 -0.121454 1.030548
-0.345119 -0.121329 1.029199
-0.339966 -0.121220 1.027970
-0.334797 -0.121102 1.026652
-0.329318 -0.120866 1.024332
-0.323087 -0.120344 1.019569
-0.316154 -0.119541 1.012420
-0.308780 -0.118544 1.003625
-0.300638 -0.117216 0.992027
-0.292605 -0.115890 0.980440
-0.284919 -0.114661 0.969679
-0.274530 -0.112286 0.949228
-0.270473 -0.112465 0.950370
-0.254316 -0.107535 0.908343
-0.245807 -0.105724 0.892685
-0.237789 -0.104065 0.878315
-0.231974 -0.103328 0.871729
-0.224359 -0.101748 0.858041
-0.220037 -0.101631 0.856688
-0.062072 -0.030352 0.255515
-0.061238 -0.030541 0.256996
-0.059933 -0.030499 0.256526
-0.058851 -0.030571 0.257017
-0.057842 -0.030684 0.257858
-0.056121 -0.030417 0.255495
-0.054526 -0.030207 0.253621
-0.052866 -0.029951 0.251365
-0.051068 -0.029604 0.248337
-0.049722 -0.029508 0.247426
-0.048493 -0.029479 0.247069
-0.047015 -0.029293 0.245406
-0.045601 -0.029138 0.244006
-0.043874 -0.028771 0.240821
-0.042351 -0.028520 0.238624
-0.040846 -0.028269 0.236420
-0.039670 -0.028237 0.236056
-0.038422 -0.028151 0.235242
-0.036511 -0.027559 0.230200
-0.034896 -0.027161 0.226783
-0.033808 -0.027161 0.226690
-0.032836 -0.027257 0.227402
-0.031847 -0.027345 0.228046
-0.030888 -0.027466 0.228973
-0.030028 -0.027687 0.230734
-0.029071 -0.027833 0.231860
-0.028015 -0.027891 0.232267
-0.027013 -0.028010 0.233178
-0.025972 -0.028098 0.233832
-0.024892 -0.028149 0.234183
-0.023878 -0.028284 0.235230
-0.022864 -0.028432 0.236390
-0.021875 -0.028629 0.237953
-0.020807 -0.028738 0.238796
-0.019724 -0.028838 0.239561
-0.018621 -0.028920 0.240180
-0.017531 -0.029034 0.241070
-0.016401 -0.029094 0.241507
-0.015281 -0.029182 0.242182
-0.014143 -0.029246 0.242666
-0.013014 -0.029344 0.243429
-0.011847 -0.029367 0.243577
-0.010703 -0.029459 0.244292
-0.009544 -0.029525 0.244800
-0.008386 -0.029617 0.245530
-0.007224 -0.029722 0.246363
-0.006061 -0.029861 0.247486
-0.004888 -0.030008 0.248680
-0.003697 -0.030108 0.249482
-0.002492 -0.030141 0.249742
-0.001286 -0.030189 0.250123
-0.000075 -0.030299 0.251021
0.001142 -0.030353 0.251453
0.002368 -0.030465 0.252375
0.003603 -0.030582 0.253346
0.004841 -0.030651 0.253918
0.006083 -0.030714 0.254442
0.007327 -0.030764 0.254868
0.008579 -0.030828 0.255410
0.009829 -0.030872 0.255786
0.011097 -0.030954 0.256481
0.012363 -0.031014 0.257002
0.013655 -0.031124 0.257943
0.014912 -0.031141 0.258108
0.016194 -0.031204 0.258660
0.017477 -0.031258 0.259150
0.018760 -0.031307 0.259594
0.020045 -0.031351 0.259998
0.021320 -0.031377 0.260258
0.022629 -0.031446 0.260875
0.024003 -0.031594 0.262155
0.025328 -0.031665 0.262803
0.026763 -0.031861 0.264482
0.028151 -0.031984 0.265569
0.029779 -0.032358 0.268736
0.031177 -0.032462 0.269664
0.032524 -0.032506 0.270098
0.033870 -0.032545 0.270501
0.035190 -0.032558 0.270681
0.036553 -0.032608 0.271172
0.037970 -0.032701 0.272025
0.039530 -0.032907 0.273820
0.041115 -0.033119 0.275673
0.042524 -0.033181 0.276273
0.044055 -0.033332 0.277616
0.045612 -0.033492 0.279044
0.047060 -0.033565 0.279748
0.048380 -0.033546 0.279683
0.049756 -0.033566 0.279941
0.051189 -0.033622 0.280507
0.052620 -0.033674 0.281037
0.053946 -0.033657 0.281001
0.055249 -0.033628 0.280853
0.056588 -0.033621 0.280898
0.057910 -0.033604 0.280862
0.058563 -0.033209 0.277661
0.058621 -0.032502 0.271847
0.059413 -0.032224 0.269615
0.060392 -0.032056 0.268315
0.061639 -0.032035 0.268236
0.062747 -0.031944 0.267571
0.063772 -0.031815 0.266589
0.064817 -0.031701 0.265729
0.065875 -0.031598 0.264960
0.066967 -0.031515 0.264352
0.067902 -0.031362 0.263165
0.068852 -0.031222 0.262077
0.069729 -0.031054 0.260756
0.070674 -0.030921 0.259734
0.071701 -0.030829 0.259041
0.072694 -0.030725 0.258254
0.072511 -0.030136 0.253384
0.073132 -0.029895 0.251436
0.073136 -0.029413 0.247462
0.074018 -0.029295 0.246536
0.074995 -0.029217 0.245954
0.075828 -0.029086 0.244919
0.076808 -0.029015 0.244385
0.077771 -0.028939 0.243812
0.078612 -0.028821 0.242877
0.079489 -0.028720 0.242079
0.080380 -0.028626 0.241345
0.081192 -0.028508 0.240394
0.081992 -0.028388 0.239433
0.082769 -0.028264 0.238428
0.083603 -0.028162 0.237612
0.084438 -0.028064 0.236815
0.085306 -0.027978 0.236128
0.086146 -0.027886 0.235379
0.086621 -0.027680 0.233661
0.087440 -0.027587 0.232900
0.088037 -0.027428 0.231571
0.088561 -0.027250 0.230080
0.089324 -0.027149 0.229233
0.089941 -0.027007 0.228032
0.090629 -0.026889 0.227035
0.091305 -0.026770 0.226024
0.091932 -0.026640 0.224912
0.092693 -0.026552 0.224146
0.093208 -0.026395 0.222802
0.093726 -0.026243 0.221489
0.093751 -0.025958 0.219049
0.094185 -0.025791 0.217600
0.094666 -0.025641 0.216284
0.095311 -0.025538 0.215360
0.095687 -0.025365 0.213848
0.096248 -0.025245 0.212771
0.096737 -0.025108 0.211550
0.097124 -0.024948 0.210125
0.097399 -0.024764 0.208485
0.097826 -0.024620 0.207189
0.098348 -0.024504 0.206112
0.098899 -0.024397 0.205107
0.099302 -0.024256 0.203810
0.099679 -0.024111 0.202476
0.100021 -0.023961 0.201089
0.100571 -0.023863 0.200132
0.101301 -0.023809 0.199539
0.102030 -0.023756 0.198942
0.102702 -0.023690 0.198237
0.103487 -0.023652 0.197749
-1.711007 -0.366672 3.220862
-1.698051 -0.367156 3.227656
-0.721827 -0.157486 1.385484
-0.717484 -0.157968 1.390686
-0.709269 -0.157597 1.388333
-0.705453 -0.158207 1.394560
-0.700632 -0.158601 1.398830
-0.687478 -0.157099 1.386313
-0.677687 -0.156343 1.380331
-0.665042 -0.154909 1.368290
-0.652159 -0.153390 1.355449
-0.641447 -0.152358 1.346845
-0.629482 -0.151005 1.335352
-0.616120 -0.149286 1.320574
-0.604755 -0.148021 1.309762
-0.590862 -0.146105 1.293141
-0.580706 -0.145083 1.284391
-0.564751 -0.142576 1.262446
-0.549703 -0.140248 1.242036
-0.540766 -0.139445 1.235106
-0.528592 -0.137782 1.220513
-0.523167 -0.137860 1.221318
-0.522391 -0.139180 1.233086
-0.517956 -0.139543 1.236353
-1.361427 -0.370935 3.286548
-1.333561 -0.367504 3.256124
-1.331621 -0.371221 3.288962
-1.334232 -0.376309 3.333875
-1.314108 -0.379532 3.361886
-1.300490 -0.380164 3.367106
-1.288260 -0.381222 3.376042
-1.275784 -0.382234 3.384495
-1.258502 -0.381813 3.380207
-1.245209 -0.382607 3.386618
-1.231353 -0.383248 3.391608
-0.368825 -0.116299 1.028985
-0.363930 -0.116281 1.028584
-0.360329 -0.116681 1.031870
-0.355152 -0.116575 1.030665
-0.350442 -0.116622 1.030797
-0.345439 -0.116571 1.030051
-0.340296 -0.116471 1.028858
-0.335024 -0.116324 1.027234
-0.329567 -0.116106 1.024985
-0.323510 -0.115669 1.020779
-0.316585 -0.114903 1.013669
-0.309385 -0.114012 1.005454
-0.301472 -0.112827 0.994639
-0.294816 -0.112082 0.987707
-0.286476 -0.110663 0.974830
-0.277766 -0.109053 0.960268
-0.273663 -0.109228 0.961425
-0.252806 -0.102608 0.902797
-0.243220 -0.100415 0.883136
-0.236970 -0.099546 0.875131
-0.231487 -0.098975 0.869739
-0.224886 -0.097896 0.859891
-0.219544 -0.097335 0.854603
-0.063498 -0.029804 0.261331
-0.062349 -0.029848 0.261602
-0.060631 -0.029616 0.259457
-0.059151 -0.029493 0.258266
-0.058090 -0.029579 0.258902
-0.056344 -0.029312 0.256448
-0.054781 -0.029131 0.254749
-0.053241 -0.028954 0.253086
-0.051696 -0.028766 0.251329
-0.049944 -0.028450 0.248464
-0.048029 -0.028025 0.244639
-0.046614 -0.027878 0.243246
-0.045201 -0.027724 0.241800
-0.043900 -0.027632 0.240897
-0.042306 -0.027347 0.238307
-0.040946 -0.027201 0.236931
-0.039702 -0.027126 0.236181
-0.038455 -0.027045 0.235375
-0.036481 -0.026432 0.229947
-0.035008 -0.026155 0.227446
-0.033854 -0.026107 0.226931
-0.032886 -0.026203 0.227680
-0.031884 -0.026278 0.228238
-0.030865 -0.026344 0.228726
-0.030011 -0.026561 0.230525
-0.029030 -0.026678 0.231456
-0.028042 -0.026798 0.232414
-0.027025 -0.026897 0.233199
-0.026003 -0.027002 0.234030
-0.024917 -0.027046 0.234334
-0.023888 -0.027159 0.235240
-0.022854 -0.027279 0.236207
-0.021902 -0.027513 0.238158
-0.020826 -0.027609 0.238920
-0.019765 -0.027737 0.239964
-0.018640 -0.027786 0.240326
-0.017535 -0.027874 0.241025
-0.016437 -0.027986 0.241935
-0.015299 -0.028041 0.242359
-0.014148 -0.028081 0.242650
-0.013007 -0.028149 0.243192
-0.011862 -0.028221 0.243766
-0.010705 -0.028279 0.244227
-0.009556 -0.028374 0.245009
-0.008402 -0.028480 0.245883
-0.007235 -0.028567 0.246606
-0.006059 -0.028650 0.247284
-0.004905 -0.028898 0.249399
-0.003701 -0.028921 0.249575
-0.002497 -0.028971 0.249988
-0.001291 -0.029059 0.250731
-0.000077 -0.029116 0.251212
0.001144 -0.029224 0.252129
0.002372 -0.029313 0.252891
0.003603 -0.029367 0.253357
0.004840 -0.029428 0.253883
0.006085 -0.029501 0.254520
0.007329 -0.029544 0.254901
0.008578 -0.029596 0.255357
0.009826 -0.029629 0.255661
0.011076 -0.029660 0.255948
0.012338 -0.029714 0.256434
0.013640 -0.029846 0.257600
0.014966 -0.030002 0.258972
0.016236 -0.030032 0.259260
0.017470 -0.029995 0.258980
0.018790 -0.030102 0.259941
0.020073 -0.030138 0.260297
0.021350 -0.030163 0.260555
0.022652 -0.030217 0.261075
0.023982 -0.030302 0.261854
0.025427 -0.030515 0.263754
0.026800 -0.030626 0.264773
0.028308 -0.030874 0.266979
0.029697 -0.030976 0.267927
0.031066 -0.031050 0.268635
0.032450 -0.031132 0.269411
0.033864 -0.031236 0.270379
0.035284 -0.031337 0.271332
0.036694 -0.031422 0.272150
0.038178 -0.031562 0.273444
0.039562 -0.031614 0.273973
0.041018 -0.031717 0.274955
0.042398 -0.031757 0.275386
0.043931 -0.031905 0.276764
0.045776 -0.032265 0.279977
0.047261 -0.032358 0.280880
0.048588 -0.032341 0.280822
0.049899 -0.032313 0.280681
0.051259 -0.032319 0.280827
0.052617 -0.032322 0.280957
0.053957 -0.032315 0.280995
0.055276 -0.032296 0.280932
0.056636 -0.032301 0.281078
0.057959 -0.032285 0.281040
0.058661 -0.031932 0.278071
0.059042 -0.031424 0.273744
0.060043 -0.031260 0.272422
0.060501 -0.030827 0.268750
0.061580 -0.030722 0.267931
0.062546 -0.030566 0.266666
0.063839 -0.030573 0.266823
0.064883 -0.030462 0.265953
0.066008 -0.030393 0.265449
0.067022 -0.030276 0.264526
0.068031 -0.030162 0.263621
0.068806 -0.029950 0.261862
0.069720 -0.029805 0.260684
0.070618 -0.029658 0.259489
0.071397 -0.029468 0.257908
0.071594 -0.029047 0.254310
0.072111 -0.028769 0.251955
0.072932 -0.028618 0.250718
0.073626 -0.028424 0.249091
0.074380 -0.028258 0.247715
0.075220 -0.028130 0.246662
0.075978 -0.027976 0.245379
0.076909 -0.027889 0.244683
0.077876 -0.027817 0.244120
0.078642 -0.027677 0.242951
0.079461 -0.027559 0.241976
0.080293 -0.027449 0.241066
0.081201 -0.027368 0.240402
0.082046 -0.027268 0.239575
0.082846 -0.027156 0.238636
0.083712 -0.027069 0.237906
0.084553 -0.026976 0.237126
0.085394 -0.026885 0.236363
0.086269 -0.026807 0.235707
0.086890 -0.026653 0.234380
0.087528 -0.026509 0.233129
0.088262 -0.026396 0.232158
0.088912 -0.026262 0.230989
0.089543 -0.026125 0.229794
0.090126 -0.025978 0.228501
0.090816 -0.025865 0.227505
0.091379 -0.025719 0.226211
0.091981 -0.025587 0.225038
0.092630 -0.025470 0.223999
0.093306 -0.025364 0.223043
0.093752 -0.025199 0.221560
0.094008 -0.024986 0.219659
0.094320 -0.024793 0.217922
0.094849 -0.024661 0.216715
0.095245 -0.024497 0.215226
0.095784 -0.024373 0.214080
0.096384 -0.024267 0.213087
0.096773 -0.024111 0.211647
0.097089 -0.023940 0.210070
0.097364 -0.023763 0.208430
0.097800 -0.023628 0.207157
0.098074 -0.023457 0.205562
0.098497 -0.023324 0.204300
0.098907 -0.023191 0.203026
0.099356 -0.023070 0.201848
0.099989 -0.022993 0.201055
0.100569 -0.022906 0.200159
0.101338 -0.022863 0.199644
0.102093 -0.022818 0.199101
0.102822 -0.022768 0.198505
0.103670 -0.022745 0.198137
-1.711483 -0.351460 3.222305
-0.730398 -0.151334 1.388564
-0.735238 -0.153714 1.411441
-0.722504 -0.152431 1.400619
-0.718174 -0.152913 1.405958
-0.713281 -0.153283 1.410215
-0.705801 -0.153100 1.409320
-0.693633 -0.151886 1.398885
-0.682747 -0.150933 1.390786
-0.670634 -0.149688 1.379931
-0.656690 -0.148006 1.364992
-0.644986 -0.146801 1.354392
-0.632958 -0.145497 1.342831
-0.622162 -0.144454 1.333618
-0.608902 -0.142812 1.318827
-0.596279 -0.141287 1.305072
-0.588771 -0.140955 1.302293
-0.572747 -0.138556 1.280376
-0.558655 -0.136579 1.262313
-0.546223 -0.134970 1.247610
-0.538250 -0.134439 1.242844
-0.531662 -0.134247 1.241173
-0.524512 -0.133908 1.238109
-0.518181 -0.133772 1.236897
-0.513221 -0.133992 1.238939
-1.289574 -0.361226 3.338727
-1.289343 -0.365605 3.378742
-1.274391 -0.365867 3.380642
-1.262118 -0.366914 3.389740
-1.247734 -0.367368 3.393287
-1.233858 -0.367985 3.398290
-0.368672 -0.111394 1.028485
-0.363652 -0.111338 1.027721
-0.359021 -0.111401 1.028041
-0.355139 -0.111701 1.030539
-0.350254 -0.111690 1.030146
-0.345511 -0.111724 1.030166
-0.340511 -0.111676 1.029403
-0.335153 -0.111506 1.027517
-0.329706 -0.111302 1.025300
-0.323522 -0.110840 1.020694
-0.316891 -0.110208 1.014523
-0.309606 -0.109326 1.006042
-0.301144 -0.107995 0.993424
-0.293180 -0.106803 0.982087
-0.285536 -0.105691 0.971487
-0.281398 -0.105862 0.972675
-0.251752 -0.097911 0.898885
-0.242918 -0.096099 0.881892
-0.235939 -0.094972 0.871174
-0.228788 -0.093733 0.859444
-0.222605 -0.092854 0.851016
-0.217943 -0.092588 0.848210
-0.062392 -0.028620 0.261729
-0.061005 -0.028553 0.261000
-0.059245 -0.028306 0.258623
-0.057952 -0.028275 0.258227
-0.056515 -0.028173 0.257171
-0.054879 -0.027963 0.255142
-0.053150 -0.027696 0.252590
-0.051383 -0.027396 0.249747
-0.049907 -0.027241 0.248217
-0.048402 -0.027062 0.246479
-0.046918 -0.026886 0.244768
-0.045218 -0.026575 0.241827
-0.043842 -0.026443 0.240516
-0.042268 -0.026181 0.238028
-0.041014 -0.026107 0.237259
-0.039771 -0.026037 0.236524
-0.038441 -0.025905 0.235218
-0.036645 -0.025441 0.230909
-0.034815 -0.024923 0.226121
-0.033843 -0.025007 0.226790
-0.032872 -0.025097 0.227512
-0.031891 -0.025185 0.228221
-0.030904 -0.025274 0.228945
-0.030019 -0.025457 0.230510
-0.029064 -0.025592 0.231652
-0.028050 -0.025684 0.232404
-0.027161 -0.025903 0.234301
-0.026102 -0.025971 0.234836
-0.025027 -0.026029 0.235286
-0.023930 -0.026070 0.235581
-0.022909 -0.026201 0.236687
-0.021821 -0.026265 0.237197
-0.020878 -0.026521 0.239438
-0.019787 -0.026606 0.240144
-0.018769 -0.026808 0.241901
-0.017609 -0.026821 0.241954
-0.016478 -0.026881 0.242442
-0.015322 -0.026908 0.242624
-0.014183 -0.026972 0.243157
-0.013048 -0.027056 0.243859
-0.011871 -0.027059 0.243845
-0.010733 -0.027164 0.244742
-0.009570 -0.027224 0.245247
-0.008401 -0.027281 0.245726
-0.007236 -0.027372 0.246509
-0.006075 -0.027519 0.247798
-0.004890 -0.027597 0.248482
-0.003710 -0.027770 0.250014
-0.002500 -0.027779 0.250077
-0.001291 -0.027822 0.250448
-0.000078 -0.027929 0.251397
0.001141 -0.027961 0.251674
0.002368 -0.028056 0.252524
0.003603 -0.028147 0.253340
0.004844 -0.028227 0.254061
0.006092 -0.028306 0.254774
0.007334 -0.028334 0.255034
0.008575 -0.028354 0.255229
0.009829 -0.028403 0.255685
0.011077 -0.028426 0.255907
0.012329 -0.028454 0.256186
0.013614 -0.028547 0.257042
0.014910 -0.028644 0.257946
0.016218 -0.028748 0.258920
0.017472 -0.028748 0.258953
0.018769 -0.028814 0.259584
0.020047 -0.028844 0.259897
0.021327 -0.028873 0.260211
0.022645 -0.028948 0.260932
0.023954 -0.029003 0.261482
0.025355 -0.029160 0.262947
0.026775 -0.029321 0.264458
0.028222 -0.029496 0.266105
0.029557 -0.029544 0.266596
0.031026 -0.029716 0.268221
0.032517 -0.029894 0.269901
0.033952 -0.030010 0.271015
0.035256 -0.030005 0.271046
0.036703 -0.030117 0.272145
0.038131 -0.030208 0.273041
0.039518 -0.030260 0.273601
0.040828 -0.030252 0.273610
0.042346 -0.030394 0.274987
0.044096 -0.030689 0.277742
0.045880 -0.030989 0.280550
0.047293 -0.031028 0.281002
0.048670 -0.031042 0.281230
0.049979 -0.031014 0.281068
0.051312 -0.031001 0.281053
0.052661 -0.030999 0.281135
0.053996 -0.030988 0.281138
0.055301 -0.030961 0.280996
0.056614 -0.030940 0.280908
0.057989 -0.030953 0.281131
0.059091 -0.030823 0.280052
0.059071 -0.030126 0.273826
0.060139 -0.030003 0.272808
0.060390 -0.029486 0.268205
0.061524 -0.029412 0.267637
0.062611 -0.029320 0.266895
0.063853 -0.029302 0.266834
0.064936 -0.029214 0.266128
0.065943 -0.029095 0.265144
0.067017 -0.029010 0.264464
0.068069 -0.028919 0.263728
0.069130 -0.028835 0.263054
0.070057 -0.028699 0.261906
0.070474 -0.028362 0.258924
0.071110 -0.028124 0.256834
0.070972 -0.027593 0.252069
0.072256 -0.027623 0.252428
0.072929 -0.027422 0.250675
0.073625 -0.027237 0.249057
0.074269 -0.027038 0.247318
0.075176 -0.026940 0.246491
0.076087 -0.026846 0.245707
0.077003 -0.026757 0.244957
0.077933 -0.026675 0.244276
0.078817 -0.026580 0.243468
0.079490 -0.026418 0.242043
0.080377 -0.026331 0.241298
0.081289 -0.026254 0.240648
0.082126 -0.026155 0.239793
0.083047 -0.026086 0.239201
0.083891 -0.025994 0.238403
0.084701 -0.025895 0.237530
0.085605 -0.025826 0.236936
0.086381 -0.025721 0.236004
0.087073 -0.025594 0.234866
0.087710 -0.025455 0.233609
0.088101 -0.025248 0.231729
0.088656 -0.025093 0.230321
0.089450 -0.025009 0.229554
0.090262 -0.024931 0.228847
0.090978 -0.024829 0.227910
0.091387 -0.024647 0.226232
0.092002 -0.024524 0.225092
0.092471 -0.024365 0.223620
0.093264 -0.024294 0.222948
0.093795 -0.024158 0.221667
0.094084 -0.023963 0.219845
0.094330 -0.023761 0.217958
0.094983 -0.023665 0.217032
0.095503 -0.023538 0.215822
0.095906 -0.023386 0.214369
0.096161 -0.023201 0.212611
0.096586 -0.023060 0.211255
0.097011 -0.022922 0.209919
0.097273 -0.022749 0.208255
0.097670 -0.022611 0.206903
0.098052 -0.022472 0.205539
0.098260 -0.022297 0.203833
0.098752 -0.022189 0.202735
0.099450 -0.022128 0.202067
0.099954 -0.022026 0.201013
0.100556 -0.021947 0.200165
0.101256 -0.021891 0.199515
0.102087 -0.021864 0.199122
0.102862 -0.021826 0.198618
0.103767 -0.021816 0.198359
-0.730641 -0.143503 1.375839
-0.730439 -0.144748 1.388854
-0.737613 -0.147492 1.416206
-0.724592 -0.146210 1.404858
-0.718865 -0.146391 1.407492
-0.715313 -0.147022 1.414405
-0.708120 -0.146910 1.414115
-0.697360 -0.146048 1.406554
-0.687288 -0.145316 1.400177
-0.674548 -0.144001 1.388115
-0.662749 -0.142862 1.377705
-0.652540 -0.142048 1.370364
-0.640105 -0.140728 1.358093
-0.629952 -0.139889 1.350408
-0.619007 -0.138855 1.340796
-0.607221 -0.137609 1.329092
-0.596165 -0.136505 1.318712
-0.586834 -0.135777 1.311923
-0.583868 -0.136521 1.319328
-0.568862 -0.134437 1.299356
-0.534025 -0.127571 1.233118
-0.528822 -0.127710 1.234565
-0.520534 -0.127100 1.228730
-0.511149 -0.126205 1.220119
-0.510212 -0.127400 1.231676
-0.505270 -0.127611 1.233690
-1.301648 -0.348714 3.369869
-1.291030 -0.350125 3.383024
-1.277746 -0.350839 3.389383
-1.264397 -0.351553 3.395684
-1.249396 -0.351821 3.397613
-1.229315 -0.350647 3.385564
-0.367638 -0.106239 1.025529
-0.363669 -0.106489 1.027692
-0.359239 -0.106609 1.028584
-0.354690 -0.106696 1.029149
-0.350381 -0.106859 1.030427
-0.345702 -0.106912 1.030635
-0.340647 -0.106849 1.029708
-0.335278 -0.106684 1.027791
-0.329761 -0.106467 1.025357
-0.323708 -0.106068 1.021162
-0.316964 -0.105427 1.014634
-0.309499 -0.104523 1.005566
-0.301691 -0.103474 0.995095
-0.292965 -0.102071 0.981233
-0.284714 -0.100792 0.968554
-0.276095 -0.099338 0.954204
-0.272020 -0.099498 0.955357
-0.252484 -0.093914 0.901360
-0.243541 -0.092145 0.884010
-0.235690 -0.090734 0.870109
-0.228318 -0.089461 0.857530
-0.222670 -0.088830 0.851112
-0.216173 -0.087831 0.841168
-0.212507 -0.087966 0.842087
-0.061573 -0.027563 0.263379
-0.059398 -0.027141 0.259236
-0.057784 -0.026964 0.257423
-0.056124 -0.026757 0.255331
-0.054821 -0.026715 0.254817
-0.053393 -0.026609 0.253686
-0.051662 -0.026344 0.251042
-0.050093 -0.026150 0.249084
-0.048667 -0.026023 0.247765
-0.046812 -0.025656 0.244155
-0.045030 -0.025310 0.240758
-0.043693 -0.025203 0.239636
-0.042311 -0.025063 0.238203
-0.041145 -0.025048 0.237953
-0.039832 -0.024940 0.236822
-0.038552 -0.024846 0.235833
-0.036471 -0.024216 0.229752
-0.034813 -0.023835 0.226046
-0.033864 -0.023931 0.226861
-0.032970 -0.024073 0.228120
-0.031934 -0.024119 0.228463
-0.031008 -0.024253 0.229646
-0.030008 -0.024337 0.230359
-0.029018 -0.024436 0.231209
-0.028109 -0.024615 0.232813
-0.027213 -0.024820 0.234670
-0.026131 -0.024865 0.235022
-0.025063 -0.024930 0.235551
-0.023987 -0.024991 0.236056
-0.022883 -0.025028 0.236333
-0.021812 -0.025108 0.237018
-0.020795 -0.025261 0.238394
-0.019729 -0.025370 0.239356
-0.018643 -0.025466 0.240191
-0.017483 -0.025466 0.240137
-0.016456 -0.025673 0.242030
-0.015310 -0.025713 0.242353
-0.014164 -0.025759 0.242734
-0.013039 -0.025855 0.243585
-0.011887 -0.025913 0.244089
-0.010735 -0.025982 0.244691
-0.009578 -0.026057 0.245358
-0.008414 -0.026128 0.245985
-0.007243 -0.026201 0.246641
-0.006072 -0.026299 0.247530
-0.004902 -0.026452 0.248950
-0.003704 -0.026512 0.249489
-0.002503 -0.026583 0.250136
-0.001293 -0.026630 0.250561
-0.000079 -0.026725 0.251443
0.001142 -0.026805 0.252182
0.002368 -0.026844 0.252550
0.003604 -0.026933 0.253382
0.004846 -0.027012 0.254128
0.006086 -0.027053 0.254513
0.007327 -0.027077 0.254747
0.008572 -0.027110 0.255076
0.009812 -0.027120 0.255184
0.011058 -0.027143 0.255419
0.012317 -0.027189 0.255876
0.013585 -0.027247 0.256441
0.014958 -0.027485 0.258715
0.016231 -0.027518 0.259061
0.017462 -0.027480 0.258738
0.018750 -0.027532 0.259263
0.020056 -0.027601 0.259957
0.021281 -0.027556 0.259583
0.023287 -0.028472 0.268263
0.024531 -0.028408 0.267714
0.025739 -0.028312 0.266865
0.026781 -0.028050 0.264457
0.028223 -0.028212 0.266047
0.029580 -0.028279 0.266739
0.031034 -0.028429 0.268222
0.032599 -0.028664 0.270519
0.033930 -0.028684 0.270777
0.035359 -0.028782 0.271777
0.036657 -0.028769 0.271740
0.038062 -0.028839 0.272484
0.039432 -0.028879 0.272942
0.040789 -0.028907 0.273292
0.042204 -0.028972 0.273996
0.043998 -0.029286 0.277060
0.045810 -0.029593 0.280062
0.047300 -0.029680 0.280981
0.048614 -0.029656 0.280846
0.049931 -0.029634 0.280742
0.051302 -0.029645 0.280942
0.052638 -0.029635 0.280953
0.053983 -0.029631 0.281014
0.055304 -0.029614 0.280955
0.056653 -0.029612 0.281046
0.057957 -0.029588 0.280923
0.059330 -0.029599 0.281130
0.059050 -0.028803 0.273676
0.059667 -0.028470 0.270614
0.060449 -0.028228 0.268417
0.061642 -0.028185 0.268104
0.062810 -0.028132 0.267699
0.063829 -0.028015 0.266689
0.064884 -0.027919 0.265870
0.065997 -0.027850 0.265320
0.066989 -0.027735 0.264315
0.068001 -0.027631 0.263426
0.068801 -0.027447 0.261766
0.069430 -0.027203 0.259525
0.070570 -0.027163 0.259239
0.070951 -0.026838 0.256227
0.071469 -0.026575 0.253802
0.071816 -0.026258 0.250860
0.072927 -0.026227 0.250641
0.073600 -0.026041 0.248946
0.074309 -0.025874 0.247423
0.075187 -0.025770 0.246502
0.076077 -0.025673 0.245648
0.076927 -0.025566 0.244693
0.077875 -0.025494 0.244073
0.078798 -0.025416 0.243389
0.079697 -0.025333 0.242656
0.080435 -0.025201 0.241454
0.081278 -0.025106 0.240598
0.082176 -0.025031 0.239924
0.083128 -0.024973 0.239421
0.083920 -0.024870 0.238474
0.084620 -0.024743 0.237292
0.085444 -0.024654 0.236480
0.086411 -0.024609 0.236078
0.087146 -0.024500 0.235058
0.087902 -0.024399 0.234114
0.088369 -0.024221 0.232430
0.088825 -0.024045 0.230756
0.089516 -0.023937 0.229721
0.090105 -0.023803 0.228449
0.090821 -0.023706 0.227519
0.091509 -0.023605 0.226536
0.092017 -0.023459 0.225132
0.092543 -0.023322 0.223797
0.093271 -0.023238 0.222972
0.093809 -0.023109 0.221710
0.094003 -0.022899 0.219663
0.094141 -0.022680 0.217531
0.094781 -0.022586 0.216583
0.095255 -0.022454 0.215275
0.095797 -0.022341 0.214138
0.096139 -0.022185 0.212576
0.096619 -0.022063 0.211343
0.096898 -0.021898 0.209692
0.097510 -0.021812 0.208783
0.097778 -0.021650 0.207152
0.098048 -0.021493 0.205552
0.098413 -0.021359 0.204172
0.098900 -0.021254 0.203062
0.099401 -0.021154 0.201993
0.100023 -0.021081 0.201179
0.100440 -0.020967 0.199961
0.101170 -0.020920 0.199375
0.101987 -0.020892 0.198958
0.102782 -0.020859 0.198495
0.103578 -0.020828 0.198032
-0.736151 -0.137998 1.386425
-0.739469 -0.139862 1.406227
-0.736487 -0.140558 1.414237
-0.728120 -0.140229 1.411882
-0.721062 -0.140149 1.411968
-0.715074 -0.140277 1.414095
-0.711231 -0.140832 1.420480
-0.700656 -0.140053 1.413345
-0.690128 -0.139269 1.406095
-0.681101 -0.138775 1.401726
-0.670426 -0.137933 1.393779
-0.660385 -0.137206 1.386943
-0.650125 -0.136418 1.379448
-0.639386 -0.135514 1.370717
-0.629315 -0.134735 1.363200
-0.616294 -0.133301 1.349020
-0.605777 -0.132385 1.340033
-0.597274 -0.131895 1.335312
-0.584083 -0.130348 1.319857
-0.569075 -0.128359 1.299877
-0.556819 -0.126954 1.285778
-0.541149 -0.124732 1.263363
-0.527430 -0.122915 1.245021
-0.509241 -0.120004 1.215567
-0.499380 -0.119013 1.205523
-0.505185 -0.121775 1.233474
-0.500231 -0.121977 1.235471
-1.290599 -0.329996 3.341146
-1.294530 -0.335073 3.392059
-1.278950 -0.335164 3.392422
-1.266064 -0.335972 3.399989
-1.253782 -0.336963 3.409348
-1.231429 -0.335239 3.391176
-0.369060 -0.101789 1.029427
-0.363859 -0.101688 1.028156
-0.359520 -0.101829 1.029311
-0.355639 -0.102105 1.031816
-0.350386 -0.101989 1.030352
-0.345699 -0.102038 1.030531
-0.340601 -0.101965 1.029471
-0.335119 -0.101773 1.027198
-0.329644 -0.101578 1.024883
-0.323274 -0.101097 1.019678
-0.316661 -0.100525 1.013543
-0.309636 -0.099803 1.005888
-0.301976 -0.098850 0.995909
-0.294382 -0.097889 0.985848
-0.286252 -0.096716 0.973652
-0.278809 -0.095741 0.963447
-0.274696 -0.095896 0.964613
-0.251441 -0.089262 0.897500
-0.243302 -0.087857 0.883002
-0.235675 -0.086592 0.869912
-0.228193 -0.085336 0.856921
-0.222478 -0.084707 0.850230
-0.214536 -0.083191 0.834651
-0.206598 -0.081620 0.818522
-0.061245 -0.026166 0.261922
-0.059591 -0.025988 0.260024
-0.057736 -0.025713 0.257156
-0.056174 -0.025560 0.255507
-0.054697 -0.025439 0.254183
-0.053214 -0.025311 0.252781
-0.051570 -0.025097 0.250536
-0.050169 -0.024995 0.249404
-0.048687 -0.024847 0.247810
-0.047008 -0.024588 0.245117
-0.044915 -0.024094 0.240084
-0.043569 -0.023985 0.238893
-0.042418 -0.023981 0.238745
-0.041147 -0.023907 0.237905
-0.039781 -0.023772 0.236457
-0.038374 -0.023603 0.234681
-0.036026 -0.022829 0.226887
-0.034820 -0.022752 0.226028
-0.033842 -0.022824 0.226651
-0.032899 -0.022925 0.227563
-0.032045 -0.023098 0.229185
-0.031095 -0.023211 0.230222
-0.030159 -0.023344 0.231451
-0.029296 -0.023545 0.233357
-0.028275 -0.023631 0.234121
-0.027242 -0.023713 0.234852
-0.026158 -0.023755 0.235192
-0.025097 -0.023824 0.235791
-0.024001 -0.023865 0.236116
-0.022880 -0.023884 0.236233
-0.021825 -0.023977 0.237082
-0.020890 -0.024218 0.239400
-0.019791 -0.024289 0.240027
-0.018674 -0.024344 0.240508
-0.017555 -0.024403 0.241035
-0.016430 -0.024462 0.241559
-0.015318 -0.024551 0.242379
-0.014165 -0.024584 0.242654
-0.013031 -0.024660 0.243350
-0.011890 -0.024735 0.244049
-0.010767 -0.024869 0.245327
-0.009590 -0.024896 0.245545
-0.008427 -0.024974 0.246277
-0.007255 -0.025044 0.246937
-0.006117 -0.025284 0.249272
-0.004906 -0.025265 0.249059
-0.003713 -0.025354 0.249917
-0.002507 -0.025407 0.250417
-0.001297 -0.025467 0.250990
-0.000081 -0.025524 0.251539
0.001142 -0.025605 0.252331
0.002378 -0.025748 0.253734
0.003607 -0.025738 0.253631
0.004841 -0.025763 0.253880
0.006083 -0.025811 0.254351
0.007323 -0.025835 0.254603
0.008568 -0.025866 0.254915
0.009812 -0.025887 0.255143
0.011062 -0.025919 0.255472
0.012317 -0.025954 0.255839
0.013575 -0.025986 0.256187
0.014865 -0.026072 0.257060
0.016250 -0.026296 0.259306
0.017480 -0.026257 0.258951
0.018766 -0.026301 0.259427
0.020083 -0.026379 0.260241
0.021949 -0.027128 0.267674
0.023256 -0.027139 0.267842
0.024349 -0.026913 0.265663
0.025548 -0.026822 0.264821
0.026876 -0.026867 0.265327
0.028235 -0.026939 0.266097
0.029543 -0.026957 0.266341
0.030925 -0.027039 0.267220
0.032387 -0.027181 0.268698
0.033884 -0.027340 0.270349
0.035297 -0.027422 0.271236
0.036740 -0.027521 0.272291
0.038157 -0.027594 0.273098
0.039523 -0.027627 0.273508
0.040873 -0.027647 0.273792
0.042269 -0.027695 0.274359
0.043781 -0.027814 0.275631
0.045776 -0.028224 0.279795
0.047293 -0.028324 0.280884
0.048685 -0.028346 0.281196
0.050003 -0.028325 0.281088
0.051332 -0.028310 0.281046
0.052677 -0.028306 0.281105
0.054034 -0.028308 0.281226
0.055338 -0.028282 0.281074
0.056693 -0.028283 0.281193
0.058032 -0.028276 0.281231
0.059404 -0.028286 0.281432
0.058955 -0.027447 0.273189
0.059872 -0.027266 0.271496
0.060717 -0.027062 0.269560
0.062038 -0.027073 0.269780
0.062715 -0.026809 0.267249
0.063895 -0.026766 0.266920
0.064986 -0.026688 0.266246
0.065987 -0.026577 0.265239
0.066873 -0.026425 0.263818
0.067859 -0.026317 0.262837
0.068797 -0.026195 0.261713
0.069720 -0.026071 0.260571
0.070075 -0.025744 0.257390
0.071612 -0.025854 0.258581
0.070873 -0.025153 0.251654
0.071915 -0.025096 0.251175
0.072490 -0.024882 0.249109
0.073414 -0.024791 0.248287
0.074300 -0.024692 0.247366
0.075134 -0.024578 0.246305
0.076055 -0.024496 0.245554
0.076919 -0.024398 0.244645
0.077950 -0.024356 0.244286
0.078891 -0.024287 0.243659
0.079605 -0.024151 0.242357
0.080286 -0.024009 0.240991
0.081121 -0.023916 0.240118
0.082093 -0.023866 0.239665
0.082986 -0.023795 0.238996
0.083822 -0.023709 0.238181
0.084643 -0.023622 0.237345
0.085269 -0.023483 0.235986
0.086250 -0.023444 0.235629
0.087182 -0.023393 0.235146
0.087688 -0.023231 0.233539
0.088496 -0.023151 0.232761
0.089054 -0.023009 0.231348
0.089723 -0.022899 0.230250
0.090495 -0.022817 0.229435
0.091065 -0.022687 0.228130
0.091553 -0.022540 0.226646
0.091895 -0.022361 0.224837
0.092220 -0.022182 0.223022
0.092974 -0.022109 0.222267
0.093485 -0.021980 0.220949
0.094135 -0.021886 0.219980
0.094201 -0.021661 0.217679
0.094644 -0.021526 0.216281
0.095234 -0.021427 0.215237
0.095547 -0.021268 0.213593
0.096065 -0.021158 0.212428
0.096573 -0.021048 0.211258
0.097046 -0.020933 0.210031
0.097380 -0.020790 0.208522
0.097773 -0.020663 0.207162
0.098173 -0.020540 0.205834
0.098523 -0.020409 0.204423
0.098961 -0.020298 0.203210
0.099463 -0.020203 0.202144
0.100066 -0.020130 0.201290
0.100549 -0.020034 0.200207
0.101384 -0.020009 0.199825
0.102028 -0.019948 0.199070
0.102804 -0.019914 0.198571
0.103604 -0.019884 0.198116
-0.748756 -0.133662 1.410367
-0.743106 -0.133842 1.413336
-0.739619 -0.134418 1.420434
-0.729939 -0.133869 1.415582
-0.725289 -0.134241 1.420408
-0.719361 -0.134382 1.422729
-0.712726 -0.134392 1.423613
-0.705440 -0.134279 1.423132
-0.694174 -0.133398 1.414464
-0.686218 -0.133143 1.412372
-0.676570 -0.132552 1.406661
-0.666343 -0.131835 1.399555
-0.655894 -0.131059 1.391778
-0.645580 -0.130295 1.384077
-0.635125 -0.129487 1.375857
-0.622272 -0.128168 1.362169
-0.613031 -0.127575 1.356135
-0.603143 -0.126832 1.348483
-0.589530 -0.125283 1.332206
-0.579857 -0.124547 1.324536
-0.561629 -0.121937 1.296909
-0.549584 -0.120628 1.283072
-0.544462 -0.120826 1.285235
-0.516059 -0.115804 1.231845
-0.507479 -0.115168 1.225071
-0.505322 -0.115991 1.233797
-0.495097 -0.114961 1.222775
-0.497815 -0.116947 1.243809
-1.295496 -0.315430 3.353708
-1.300070 -0.320438 3.406441
-1.284464 -0.320534 3.406895
-1.269278 -0.320740 3.408449
-1.251005 -0.320161 3.401612
-1.231433 -0.319231 3.390985
-0.368192 -0.096700 1.026940
-0.363559 -0.096752 1.027235
-0.359018 -0.096830 1.027796
-0.354824 -0.097006 1.029371
-0.350018 -0.097016 1.029183
-0.345138 -0.097007 1.028767
-0.340165 -0.096971 1.028055
-0.334847 -0.096834 1.026265
-0.329286 -0.096621 1.023665
-0.323350 -0.096291 1.019809
-0.316872 -0.095787 1.014102
-0.310073 -0.095170 1.007188
-0.302751 -0.094370 0.998342
-0.294238 -0.093168 0.985239
-0.287263 -0.092422 0.976960
-0.278404 -0.091036 0.961917
-0.251582 -0.085045 0.897870
-0.243840 -0.083845 0.884821
-0.236715 -0.082819 0.873614
-0.229302 -0.081654 0.860947
-0.221636 -0.080355 0.846873
-0.215293 -0.079497 0.837452
-0.209097 -0.078662 0.828281
-0.061324 -0.024948 0.262210
-0.059184 -0.024577 0.258196
-0.057415 -0.024349 0.255676
-0.055993 -0.024260 0.254630
-0.054640 -0.024199 0.253867
-0.053064 -0.024033 0.252016
-0.051640 -0.023931 0.250825
-0.050147 -0.023791 0.249242
-0.048599 -0.023617 0.247305
-0.046442 -0.023131 0.242110
-0.044898 -0.022934 0.239941
-0.043650 -0.022882 0.239284
-0.042475 -0.022866 0.239011
-0.041156 -0.022769 0.237896
-0.039869 -0.022686 0.236918
-0.038184 -0.022364 0.233461
-0.036446 -0.021991 0.229470
-0.034812 -0.021660 0.225913
-0.033787 -0.021698 0.226224
-0.032945 -0.021860 0.227823
-0.031830 -0.021846 0.227585
-0.031314 -0.022257 0.231777
-0.030219 -0.022272 0.231841
-0.029310 -0.022431 0.233405
-0.028316 -0.022533 0.234386
-0.027285 -0.022615 0.235149
-0.026198 -0.022655 0.235482
-0.025132 -0.022717 0.236049
-0.024078 -0.022797 0.236805
-0.022944 -0.022806 0.236819
-0.021849 -0.022856 0.237267
-0.020859 -0.023027 0.238978
-0.019782 -0.023116 0.239835
-0.018666 -0.023170 0.240326
-0.017562 -0.023246 0.241052
-0.016456 -0.023329 0.241855
-0.015304 -0.023356 0.242078
-0.014154 -0.023391 0.242386
-0.013058 -0.023529 0.243765
-0.011914 -0.023600 0.244453
-0.010764 -0.023672 0.245157
-0.009609 -0.023751 0.245937
-0.008435 -0.023799 0.246400
-0.007257 -0.023849 0.246880
-0.006088 -0.023955 0.247948
-0.004917 -0.024105 0.249466
-0.003714 -0.024141 0.249815
-0.002509 -0.024200 0.250413
-0.001297 -0.024230 0.250707
-0.000082 -0.024306 0.251479
0.001143 -0.024422 0.252667
0.002376 -0.024502 0.253489
0.003609 -0.024532 0.253798
0.004841 -0.024538 0.253856
0.006083 -0.024582 0.254315
0.007328 -0.024622 0.254740
0.008567 -0.024632 0.254855
0.009817 -0.024667 0.255239
0.011065 -0.024690 0.255495
0.012306 -0.024694 0.255559
0.013576 -0.024749 0.256158
0.014993 -0.025041 0.259210
0.016358 -0.025208 0.260970
0.017544 -0.025096 0.259849
0.018779 -0.025063 0.259550
0.020143 -0.025195 0.260956
0.021347 -0.025124 0.260272
0.023332 -0.025929 0.268659
0.024240 -0.025514 0.264415
0.025508 -0.025501 0.264340
0.026847 -0.025558 0.264986
0.028208 -0.025628 0.265778
0.029574 -0.025697 0.266561
0.030900 -0.025727 0.266939
0.032377 -0.025876 0.268555
0.033896 -0.026044 0.270378
0.035466 -0.026238 0.272475
0.036783 -0.026238 0.272554
0.038134 -0.026261 0.272879
0.039513 -0.026301 0.273381
0.040847 -0.026310 0.273561
0.042279 -0.026379 0.274366
0.043892 -0.026553 0.276274
0.045772 -0.026874 0.279710
0.047270 -0.026959 0.280690
0.048625 -0.026960 0.280795
0.050024 -0.026984 0.281151
0.051361 -0.026974 0.281149
0.052691 -0.026961 0.281121
0.054039 -0.026959 0.281197
0.055344 -0.026934 0.281051
0.056596 -0.026887 0.280658
0.057878 -0.026855 0.280433
0.058939 -0.026724 0.279178
0.059474 -0.026366 0.275543
0.059676 -0.025880 0.270561
0.060416 -0.025642 0.268182
0.061483 -0.025550 0.267323
0.062665 -0.025509 0.266992
0.063747 -0.025429 0.266262
0.064892 -0.025377 0.265820
0.065935 -0.025289 0.264991
0.066931 -0.025185 0.264006
0.067965 -0.025100 0.263210
0.068963 -0.025005 0.262307
0.069996 -0.024925 0.261570
0.070731 -0.024744 0.259763
0.070177 -0.024126 0.253370
0.070710 -0.023897 0.251044
0.071694 -0.023825 0.250375
0.072472 -0.023688 0.249019
0.073266 -0.023561 0.247763
0.074090 -0.023447 0.246643
0.075054 -0.023380 0.246017
0.075972 -0.023301 0.245263
0.076856 -0.023215 0.244423
0.077854 -0.023164 0.243964
0.078826 -0.023108 0.243437
0.079649 -0.023011 0.242474
0.080412 -0.022899 0.241351
0.081266 -0.022815 0.240530
0.082227 -0.022764 0.240042
0.083094 -0.022689 0.239297
0.083891 -0.022596 0.238366
0.084570 -0.022475 0.237130
0.085470 -0.022415 0.236533
0.086370 -0.022356 0.235950
0.086944 -0.022216 0.234497
0.087766 -0.022141 0.233739
0.088397 -0.022021 0.232494
0.088788 -0.021846 0.230653
0.089381 -0.021723 0.229370
0.090214 -0.021661 0.228723
0.090957 -0.021579 0.227860
0.091576 -0.021470 0.226705
0.091985 -0.021314 0.225059
0.092012 -0.021075 0.222522
0.092248 -0.020889 0.220535
0.093181 -0.020863 0.220239
0.093340 -0.020666 0.218130
0.093950 -0.020572 0.217106
0.094521 -0.020472 0.216009
0.095039 -0.020362 0.214808
0.095541 -0.020252 0.213592
0.096182 -0.020173 0.212700
0.096469 -0.020022 0.211046
0.096795 -0.019882 0.209503
0.097225 -0.019767 0.208206
0.097716 -0.019666 0.207058
0.098180 -0.019561 0.205868
0.098569 -0.019444 0.204538
0.099035 -0.019344 0.203386
0.099419 -0.019230 0.202076
0.099936 -0.019144 0.201053
0.100541 -0.019077 0.200217
0.101280 -0.019035 0.199648
0.101953 -0.018983 0.198951
0.102764 -0.018956 0.198522
0.103679 -0.018949 0.198289
-0.747129 -0.126688 1.407495
-0.742715 -0.127067 1.412775
-0.741830 -0.128063 1.424855
-0.731300 -0.127397 1.418384
-0.728241 -0.128032 1.426346
-0.723630 -0.128404 1.431319
-0.715529 -0.128158 1.429349
-0.707254 -0.127876 1.426920
-0.700236 -0.127818 1.426937
-0.691827 -0.127503 1.424029
-0.682121 -0.126940 1.418303
-0.672990 -0.126475 1.413610
-0.661414 -0.125537 1.403577
-0.651393 -0.124878 1.396616
-0.641407 -0.124212 1.389535
-0.630743 -0.123400 1.380773
-0.619471 -0.122452 1.370433
-0.611508 -0.122144 1.367228
-0.598985 -0.120910 1.353609
-0.588992 -0.120166 1.345433
-0.574837 -0.118547 1.327430
-0.561312 -0.117025 1.310468
-0.559097 -0.117853 1.319790
-0.525924 -0.112101 1.255395
-0.515518 -0.111126 1.244472
-0.511795 -0.111587 1.249592
-0.500577 -0.110405 1.236292
-0.498007 -0.111126 1.244266
-0.492999 -0.111313 1.246242
-1.305199 -0.301857 3.378713
-1.291524 -0.302369 3.383918
-1.277560 -0.302824 3.388437
-1.271001 -0.305070 3.412914
-1.250521 -0.303988 3.400114
-1.226663 -0.302047 3.377654
-0.368531 -0.091935 1.027821
-0.363808 -0.091963 1.027871
-0.358999 -0.091969 1.027668
-0.354790 -0.092132 1.029193
-0.350024 -0.092152 1.029117
-0.345208 -0.092160 1.028888
-0.340112 -0.092093 1.027801
-0.334989 -0.092016 1.026600
-0.329529 -0.091843 1.024319
-0.323533 -0.091513 1.020278
-0.317583 -0.091187 1.016268
-0.310616 -0.090555 1.008839
-0.303310 -0.089802 1.000066
-0.294841 -0.088676 0.987137
-0.286517 -0.087558 0.974298
-0.277618 -0.086225 0.959073
-0.253345 -0.081345 0.904036
-0.245095 -0.080049 0.889247
-0.237303 -0.078860 0.875653
-0.229241 -0.077537 0.860587
-0.222713 -0.076695 0.850855
-0.213736 -0.074963 0.831263
-0.210115 -0.075079 0.832175
-0.060936 -0.023546 0.260500
-0.059676 -0.023538 0.260294
-0.057360 -0.023105 0.255380
-0.055909 -0.023009 0.254199
-0.054530 -0.022938 0.253302
-0.052973 -0.022788 0.251532
-0.051470 -0.022655 0.249946
-0.050035 -0.022547 0.248632
-0.048613 -0.022439 0.247326
-0.046212 -0.021862 0.240858
-0.044810 -0.021741 0.239416
-0.043585 -0.021701 0.238873
-0.042526 -0.021745 0.239243
-0.041211 -0.021656 0.238158
-0.039933 -0.021582 0.237243
-0.038618 -0.021483 0.236056
-0.035957 -0.020607 0.226334
-0.034721 -0.020519 0.225270
-0.033696 -0.020553 0.225553
-0.032815 -0.020681 0.226862
-0.032219 -0.021004 0.230306
-0.031231 -0.021085 0.231105
-0.030241 -0.021170 0.231951
-0.029240 -0.021254 0.232781
-0.028248 -0.021351 0.233760
-0.027294 -0.021487 0.235163
-0.026200 -0.021519 0.235431
-0.025130 -0.021575 0.235961
-0.024063 -0.021639 0.236583
-0.022972 -0.021687 0.237035
-0.021878 -0.021736 0.237500
-0.020813 -0.021823 0.238374
-0.019734 -0.021903 0.239181
-0.018657 -0.021996 0.240132
-0.017548 -0.022061 0.240785
-0.016408 -0.022093 0.241076
-0.015304 -0.022182 0.241993
-0.014175 -0.022248 0.242659
-0.013044 -0.022322 0.243415
-0.011912 -0.022410 0.244321
-0.010767 -0.022488 0.245129
-0.009613 -0.022567 0.245954
-0.008455 -0.022655 0.246875
-0.007289 -0.022749 0.247865
-0.006112 -0.022839 0.248810
-0.004919 -0.022902 0.249470
-0.003714 -0.022926 0.249709
-0.002507 -0.022955 0.250004
