ply
format ascii 1.0
element vertex 1745
property float x
property float y
property float z
end_header
0.003589 0.053309 0.252023
0.004804 0.053357 0.252248
0.006038 0.053564 0.253229
0.007263 0.053629 0.253540
0.008514 0.053839 0.254540
0.009803 0.054210 0.256305
0.011077 0.054422 0.257315
0.012372 0.054685 0.258574
0.013644 0.054806 0.259165
0.014920 0.054922 0.259735
0.016194 0.055013 0.260186
0.017522 0.055261 0.261386
0.018808 0.055353 0.261849
0.020181 0.055672 0.263389
0.021488 0.055783 0.263944
0.022860 0.056038 0.265188
0.024173 0.056132 0.265670
0.025529 0.056311 0.266559
0.026829 0.056354 0.266805
0.028163 0.056463 0.267362
0.029511 0.056588 0.268000
0.030873 0.056728 0.268714
0.032202 0.056799 0.269102
0.033596 0.056973 0.269980
0.035085 0.057292 0.271545
0.036556 0.057557 0.272860
0.037812 0.057478 0.272541
0.039058 0.057390 0.272184
0.040466 0.057537 0.272941
0.041770 0.057532 0.272984
0.044628 0.059602 0.282872
0.046059 0.059702 0.283411
0.047383 0.059659 0.283276
0.048511 0.059380 0.282023
0.049685 0.059170 0.281096
0.051181 0.059345 0.281996
0.052164 0.058932 0.280103
0.053030 0.058409 0.277690
0.054165 0.058202 0.276776
0.055270 0.057973 0.275757
0.056356 0.057735 0.274695
0.057411 0.057476 0.273534
0.058234 0.057003 0.271352
0.059458 0.056932 0.271087
0.059978 0.056206 0.267699
0.060614 0.055617 0.264961
0.061426 0.055210 0.263086
0.062754 0.055273 0.263453
0.063502 0.054833 0.261419
0.064308 0.054460 0.259701
0.065292 0.054247 0.258748
0.066333 0.054089 0.258057
0.067393 0.053953 0.257465
0.068391 0.053772 0.256660
0.069286 0.053518 0.255502
0.070318 0.053377 0.254882
0.071012 0.052988 0.253075
0.071877 0.052738 0.251930
0.072775 0.052520 0.250935
0.073637 0.052283 0.249847
0.074449 0.052018 0.248624
0.075219 0.051733 0.247302
0.076029 0.051485 0.246149
0.076784 0.051206 0.244850
0.077537 0.050935 0.243584
0.078597 0.050870 0.243301
0.079255 0.050551 0.241800
0.080050 0.050327 0.240749
0.080947 0.050172 0.240027
0.081805 0.049998 0.239210
0.082504 0.049733 0.237950
0.083352 0.049564 0.237147
0.084140 0.049363 0.236190
0.084929 0.049169 0.235260
0.085731 0.048987 0.234385
0.086508 0.048796 0.233460
0.086738 0.048304 0.231095
0.086826 0.047747 0.228411
0.087530 0.047539 0.227390
0.088218 0.047327 0.226349
0.088764 0.047044 0.224965
0.089269 0.046747 0.223505
0.089784 0.046462 0.222101
0.090414 0.046242 0.221004
0.091105 0.046058 0.220072
0.091699 0.045830 0.218924
0.092439 0.045680 0.218140
0.093090 0.045488 0.217157
0.093758 0.045310 0.216230
0.094542 0.045191 0.215579
0.095219 0.045023 0.214690
0.095928 0.044874 0.213886
0.096713 0.044764 0.213258
0.097379 0.044601 0.212373
0.097934 0.044391 0.211258
0.098562 0.044218 0.210314
0.099206 0.044056 0.209410
0.099621 0.043796 0.208039
0.099862 0.043466 0.206326
0.100229 0.043196 0.204893
0.100851 0.043040 0.203994
0.101333 0.042829 0.202823
0.101823 0.042624 0.201677
0.102371 0.042448 0.200657
0.103091 0.042345 0.199976
0.103801 0.042240 0.199276
0.104384 0.042086 0.198334
-0.968538 0.390319 1.812742
-0.957178 0.389208 1.809440
-0.949898 0.389752 1.813736
-0.942651 0.390319 1.818057
-0.924920 0.386515 1.801923
-1.068638 0.482225 2.260456
-1.037119 0.472720 2.217033
-1.026953 0.472854 2.218714
-1.023708 0.476210 2.235449
-1.008971 0.474235 2.227088
-0.998102 0.474055 2.227087
-0.783342 0.392686 1.847492
-0.771691 0.391184 1.840810
-0.767691 0.393571 1.852379
-0.757134 0.392613 1.848160
-0.749485 0.393158 1.850975
-0.733685 0.389390 1.833439
-0.381587 0.226462 1.066373
-0.364583 0.219251 1.032332
-0.359121 0.218880 1.030486
-0.351952 0.217445 1.023612
-0.347458 0.217645 1.024423
-0.341799 0.217111 1.021766
-0.336488 0.216786 1.020079
-0.331195 0.216464 1.018388
-0.326355 0.216432 1.018055
-0.321741 0.216552 1.018423
-0.316420 0.216192 1.016523
-0.310075 0.215112 1.011225
-0.291847 0.205625 0.966410
-0.282409 0.202129 0.949757
-0.274978 0.199980 0.939429
-0.270939 0.200268 0.940541
-0.254032 0.190896 0.896292
-0.246376 0.188276 0.883753
-0.238200 0.185162 0.868895
-0.179964 0.147511 0.691613
-0.178272 0.148826 0.697568
-0.173445 0.147525 0.691257
-0.169114 0.146603 0.686723
-0.165535 0.146310 0.685134
-0.162440 0.146442 0.685534
-0.159492 0.146714 0.686588
-0.156521 0.146976 0.687590
-0.153796 0.147486 0.689749
-0.150940 0.147889 0.691407
-0.148401 0.148628 0.694632
-0.145484 0.149013 0.696200
-0.142702 0.149557 0.698512
-0.139976 0.150188 0.701225
-0.137173 0.150764 0.703685
-0.134445 0.151455 0.706677
-0.131529 0.151963 0.708814
-0.128406 0.152253 0.709931
-0.125210 0.152470 0.710713
-0.121715 0.152325 0.709806
-0.118329 0.152312 0.709516
-0.114631 0.151885 0.707305
-0.110662 0.151062 0.703251
-0.106843 0.150400 0.699951
-0.102860 0.149456 0.695343
-0.099420 0.149264 0.694245
-0.095493 0.148305 0.689577
-0.091862 0.147752 0.686806
-0.088662 0.147879 0.687199
-0.048316 0.083680 0.388753
-0.045986 0.082825 0.384676
-0.043926 0.082404 0.382621
-0.042122 0.082451 0.382738
-0.040135 0.082124 0.381126
-0.038219 0.081921 0.380089
-0.036359 0.081823 0.379540
-0.034597 0.081949 0.380037
-0.032841 0.082100 0.380656
-0.031197 0.082569 0.382745
-0.029454 0.082816 0.383814
-0.028136 0.084373 0.390949
-0.025999 0.083518 0.386917
-0.024198 0.083694 0.387663
-0.022449 0.084099 0.389470
-0.020476 0.083660 0.387375
-0.018641 0.083754 0.387755
-0.007001 0.052310 0.242057
-0.005842 0.052322 0.242085
-0.004705 0.052594 0.243323
-0.003541 0.052638 0.243507
-0.002374 0.052669 0.243635
-0.001267 0.055367 0.256099
-0.000039 0.055814 0.258153
0.001203 0.055973 0.258879
0.002414 0.055261 0.255579
0.003608 0.054761 0.253266
0.004797 0.054463 0.251885
0.006019 0.054586 0.252452
0.007247 0.054705 0.253006
0.008474 0.054789 0.253401
0.009752 0.055138 0.255027
0.011022 0.055369 0.256106
0.012334 0.055741 0.257840
0.013606 0.055882 0.258511
0.014824 0.055798 0.258139
0.016146 0.056085 0.259488
0.017441 0.056247 0.260264
0.018809 0.056603 0.261936
0.020115 0.056741 0.262608
0.021470 0.056995 0.263813
0.022800 0.057154 0.264586
0.024134 0.057309 0.265338
0.025463 0.057434 0.265959
0.026818 0.057604 0.266785
0.028116 0.057642 0.267002
0.029459 0.057765 0.267619
0.030816 0.057903 0.268309
0.032224 0.058123 0.269374
0.033712 0.058463 0.271003
0.035207 0.058791 0.272577
0.036494 0.058760 0.272489
0.037719 0.058635 0.271966
0.039042 0.058664 0.272158
0.040440 0.058802 0.272857
0.041749 0.058804 0.272931
0.044248 0.060433 0.280554
0.045940 0.060894 0.282762
0.047161 0.060725 0.282041
0.048301 0.060461 0.280885
0.049653 0.060471 0.280998
0.050929 0.060390 0.280692
0.052137 0.060234 0.280035
0.053073 0.059781 0.277995
0.053960 0.059294 0.275802
0.055045 0.059045 0.274710
0.056069 0.058741 0.273367
0.056976 0.058333 0.271534
0.058100 0.058159 0.270794
0.059086 0.057858 0.269458
0.060254 0.057744 0.268995
0.061025 0.057263 0.266818
0.061583 0.056605 0.263815
0.062576 0.056365 0.262760
0.063607 0.056168 0.261905
0.064455 0.055820 0.260344
0.065256 0.055446 0.258659
0.066344 0.055324 0.258149
0.067490 0.055255 0.257881
0.068016 0.054689 0.255297
0.069410 0.054829 0.256000
0.069996 0.054336 0.253753
0.070638 0.053903 0.251778
0.071465 0.053624 0.250520
0.072631 0.053603 0.250468
0.073411 0.053303 0.249108
0.074085 0.052937 0.247437
0.074966 0.052728 0.246497
0.075923 0.052578 0.245828
0.076725 0.052326 0.244684
0.077643 0.052160 0.243935
0.078371 0.051874 0.242620
0.078996 0.051528 0.241023
0.079788 0.051299 0.239973
0.080617 0.051100 0.239058
0.081554 0.050974 0.238481
0.082256 0.050708 0.237241
0.083049 0.050503 0.236288
0.083960 0.050374 0.235686
0.084533 0.050049 0.234161
0.084955 0.049644 0.232259
0.085662 0.049414 0.231168
0.085954 0.048953 0.228996
0.086682 0.048749 0.228021
0.087480 0.048589 0.227245
0.088094 0.048331 0.226012
0.088343 0.047882 0.223878
0.088985 0.047655 0.222774
0.089744 0.047494 0.221977
0.090387 0.047276 0.220910
0.091046 0.047073 0.219902
0.091669 0.046854 0.218821
0.092417 0.046704 0.218054
0.093019 0.046485 0.216955
0.093703 0.046310 0.216063
0.094477 0.046183 0.215387
0.095126 0.045999 0.214437
0.095872 0.045865 0.213713
0.096677 0.045762 0.213127
0.097368 0.045607 0.212297
0.098008 0.045432 0.211362
0.098730 0.045298 0.210612
0.099260 0.045080 0.209464
0.099581 0.044771 0.207892
0.099799 0.044424 0.206130
0.100167 0.044149 0.204698
0.100697 0.043950 0.203611
0.101315 0.043793 0.202712
0.101896 0.043622 0.201744
0.102324 0.043391 0.200483
0.103234 0.043366 0.200170
0.103832 0.043211 0.199248
0.104438 0.043063 0.198346
-0.968454 0.398957 1.811801
-0.958412 0.398369 1.811021
-0.949220 0.398127 1.811719
-0.942404 0.398887 1.816889
-0.922260 0.393967 1.796085
-1.059436 0.488695 2.240444
-1.036660 0.483009 2.215541
-1.023921 0.481933 2.211684
-1.022573 0.486251 2.232517
-1.008327 0.484462 2.225243
-0.995263 0.483209 2.220359
-0.800843 0.405877 1.867373
-0.782767 0.401116 1.845924
-0.778975 0.403650 1.857994
-0.770383 0.403726 1.858705
-0.758941 0.402294 1.852424
-0.751840 0.403156 1.856664
-0.740223 0.401589 1.849673
-0.381244 0.231286 1.065460
-0.369357 0.227057 1.045906
-0.358563 0.223396 1.028948
-0.352563 0.222662 1.025463
-0.347351 0.222412 1.024192
-0.341504 0.221743 1.020977
-0.336338 0.221504 1.019726
-0.331466 0.221454 1.019335
-0.326072 0.221049 1.017296
-0.321769 0.221384 1.018647
-0.315799 0.220563 1.014673
-0.306444 0.217317 0.999534
-0.302173 0.217631 1.000765
-0.283322 0.207289 0.952990
-0.271697 0.201985 0.928387
-0.264927 0.200176 0.919844
-0.260959 0.200459 0.920916
-0.249412 0.194832 0.894828
-0.187763 0.154519 0.709095
-0.181963 0.152465 0.699467
-0.180283 0.153850 0.705615
-0.175548 0.152633 0.699822
-0.170991 0.151525 0.694533
-0.167659 0.151481 0.694118
-0.164422 0.151523 0.694096
-0.161543 0.151904 0.695623
-0.158435 0.152081 0.696213
-0.155586 0.152519 0.697993
-0.152601 0.152841 0.699241
-0.149652 0.153212 0.700716
-0.146559 0.153451 0.701580
-0.143738 0.153992 0.703828
-0.140839 0.154474 0.705800
-0.138020 0.155068 0.708287
-0.135285 0.155790 0.711352
-0.132217 0.156156 0.712793
-0.129198 0.156600 0.714589
-0.126002 0.156848 0.715493
-0.122267 0.156419 0.713313
-0.118600 0.156057 0.711435
-0.115016 0.155786 0.709978
-0.110996 0.154890 0.705679
-0.107142 0.154177 0.702217
-0.103139 0.153196 0.697539
-0.099428 0.152600 0.694618
-0.095507 0.151627 0.689991
-0.091734 0.150831 0.686169
-0.088538 0.150959 0.686561
-0.047960 0.084913 0.386078
-0.045981 0.084660 0.384823
-0.044000 0.084382 0.383457
-0.042123 0.084289 0.382936
-0.040223 0.084139 0.382161
-0.038398 0.084139 0.382070
-0.036409 0.083763 0.380273
-0.034617 0.083823 0.380457
-0.032939 0.084181 0.381999
-0.031196 0.084407 0.382942
-0.029391 0.084482 0.383208
-0.027770 0.085134 0.386090
-0.026028 0.085477 0.387573
-0.024160 0.085433 0.387303
-0.022389 0.085749 0.388672
-0.020521 0.085718 0.388471
-0.018611 0.085490 0.387377
-0.016761 0.085515 0.387439
-0.014909 0.085542 0.387508
-0.005955 0.054542 0.246996
-0.004772 0.054552 0.247020
-0.003675 0.055880 0.253012
-0.002462 0.055886 0.253026
-0.001252 0.056031 0.253667
-0.000036 0.055664 0.251991
0.001175 0.055766 0.252443
0.002393 0.055933 0.253193
0.003589 0.055642 0.251870
0.004789 0.055553 0.251468
0.006000 0.055596 0.251660
0.007215 0.055657 0.251944
0.008452 0.055840 0.252774
0.009709 0.056095 0.253939
0.010970 0.056318 0.254961
0.012249 0.056574 0.256131
0.013530 0.056793 0.257141
0.014788 0.056886 0.257578
0.016033 0.056921 0.257762
0.017357 0.057208 0.259082
0.018708 0.057541 0.260616
0.020086 0.057911 0.262320
0.021363 0.057962 0.262583
0.022684 0.058118 0.263324
0.024005 0.058259 0.263999
0.025366 0.058480 0.265036
0.026724 0.058670 0.265938
0.028107 0.058897 0.267010
0.029552 0.059227 0.268552
0.031083 0.059696 0.270726
0.032449 0.059823 0.271348
0.033797 0.059907 0.271782
0.035132 0.059963 0.272087
0.036414 0.059928 0.271982
0.037728 0.059945 0.272117
0.039025 0.059936 0.272129
0.040327 0.059935 0.272185
0.041607 0.059901 0.272087
0.043146 0.060232 0.273652
0.045518 0.061671 0.280254
0.047088 0.061972 0.281686
0.048100 0.061543 0.279802
0.049291 0.061359 0.279033
0.050455 0.061153 0.278159
0.051592 0.060925 0.277191
0.052779 0.060766 0.276534
0.053879 0.060516 0.275464
0.054946 0.060243 0.274286
0.055838 0.059794 0.272311
0.056917 0.059563 0.271324
0.057931 0.059274 0.270073
0.058923 0.058977 0.268783
0.059795 0.058574 0.267010
0.060762 0.058278 0.265726
0.061562 0.057839 0.263785
0.062605 0.057640 0.262940
0.063519 0.057333 0.261598
0.064466 0.057066 0.260440
0.065449 0.056842 0.259474
0.066379 0.056580 0.258333
0.067410 0.056412 0.257620
0.068389 0.056208 0.256739
0.069212 0.055884 0.255312
0.070212 0.055712 0.254575
0.070857 0.055269 0.252598
0.071572 0.054895 0.250930
0.072063 0.054363 0.248543
0.072931 0.054129 0.247510
0.073972 0.054028 0.247087
0.074878 0.053833 0.246231
0.075646 0.053547 0.244952
0.076344 0.053221 0.243489
0.077307 0.053086 0.242898
0.078170 0.052887 0.242012
0.078813 0.052548 0.240477
0.079509 0.052253 0.239144
0.080433 0.052114 0.238520
0.081254 0.051913 0.237609
0.082027 0.051687 0.236584
0.082862 0.051506 0.235756
0.083693 0.051327 0.234934
0.084166 0.050937 0.233141
0.084745 0.050619 0.231678
0.085447 0.050383 0.230580
0.086056 0.050098 0.229257
0.086590 0.049777 0.227765
0.087175 0.049493 0.226437
0.087791 0.049233 0.225217
0.088272 0.048905 0.223676
0.089049 0.048746 0.222909
0.089716 0.048532 0.221883
0.090339 0.048299 0.220766
0.090955 0.048068 0.219649
0.091638 0.047877 0.218714
0.092278 0.047668 0.217690
0.093056 0.047534 0.217003
0.093672 0.047322 0.215951
0.094358 0.047148 0.215071
0.095059 0.046986 0.214239
0.095761 0.046828 0.213418
0.096512 0.046697 0.212712
0.097256 0.046565 0.211995
0.097977 0.046425 0.211236
0.098660 0.046269 0.210402
0.099152 0.046029 0.209172
0.099790 0.045860 0.208261
0.100183 0.045583 0.206852
0.100712 0.045373 0.205738
0.101244 0.045168 0.204642
0.101819 0.044986 0.203642
0.102390 0.044806 0.202641
0.102905 0.044605 0.201537
0.103483 0.044434 0.200564
0.104154 0.044307 0.199775
0.104828 0.044182 0.198992
-0.967529 0.407240 1.809256
-0.957724 0.406736 1.808940
-0.949961 0.407099 1.812383
-0.942493 0.407596 1.816339
-0.924417 0.403472 1.799604
-1.057652 0.498476 2.236098
-1.035182 0.492804 2.211846
-1.024183 0.492534 2.211745
-1.020267 0.495699 2.227005
-1.006836 0.494260 2.221509
-0.995596 0.493878 2.220686
-0.800257 0.414395 1.865753
-0.791047 0.414170 1.865218
-0.781436 0.413727 1.863656
-0.768309 0.411391 1.853517
-0.760359 0.411806 1.855724
-0.753536 0.412849 1.860713
-0.741825 0.411206 1.853557
-0.369017 0.231779 1.044990
-0.356733 0.227087 1.023756
-0.352685 0.227581 1.025887
-0.347412 0.227287 1.024451
-0.341400 0.226495 1.020756
-0.336314 0.226303 1.019753
-0.331395 0.226220 1.019227
-0.326218 0.225957 1.017874
-0.321091 0.225720 1.016630
-0.314450 0.224395 1.010479
-0.305897 0.221645 0.997897
-0.294982 0.217071 0.977102
-0.285644 0.213532 0.960961
-0.277010 0.210412 0.946709
-0.267767 0.206720 0.929879
-0.257511 0.202111 0.908925
-0.249136 0.198847 0.894021
-0.187549 0.157699 0.708452
-0.181635 0.155499 0.698373
-0.181279 0.158065 0.709695
-0.177151 0.157376 0.706395
-0.173094 0.156724 0.703263
-0.169595 0.156563 0.702330
-0.166778 0.157038 0.704246
-0.163498 0.157087 0.704251
-0.160326 0.157243 0.704736
-0.157137 0.157390 0.705175
-0.154114 0.157713 0.706399
-0.151124 0.158085 0.707844
-0.147909 0.158233 0.708284
-0.145267 0.159016 0.711563
-0.142158 0.159313 0.712665
-0.139428 0.160059 0.715776
-0.136760 0.160916 0.719379
-0.133363 0.160937 0.719245
-0.130456 0.161566 0.721830
-0.127334 0.161955 0.723341
-0.123396 0.161300 0.720193
-0.119461 0.160611 0.716895
-0.115398 0.159705 0.712637
-0.111436 0.158889 0.708780
-0.107626 0.158245 0.705696
-0.103193 0.156614 0.698218
-0.099118 0.155436 0.692765
-0.094684 0.153595 0.684365
-0.091427 0.153600 0.684191
-0.088241 0.153729 0.684580
-0.047977 0.086794 0.386401
-0.045915 0.086380 0.384460
-0.043794 0.085816 0.381851
-0.042155 0.086191 0.383419
-0.040174 0.085868 0.381892
-0.038242 0.085625 0.380720
-0.036517 0.085843 0.381602
-0.034669 0.085779 0.381232
-0.032860 0.085812 0.381296
-0.031325 0.086606 0.384744
-0.029460 0.086530 0.384330
-0.027704 0.086786 0.385393
-0.025918 0.086977 0.386170
-0.024083 0.087020 0.386293
-0.022265 0.087140 0.386764
-0.020396 0.087061 0.386354
-0.018516 0.086915 0.385649
-0.016655 0.086838 0.385254
-0.014784 0.086683 0.384518
-0.012914 0.086492 0.383622
-0.011102 0.086687 0.384450
-0.009323 0.087279 0.387035
-0.007467 0.087252 0.386882
-0.002488 0.057748 0.256020
-0.001261 0.057753 0.256028
-0.000033 0.057085 0.253054
0.001171 0.056657 0.251146
0.002374 0.056648 0.251103
0.003573 0.056566 0.250735
0.004776 0.056573 0.250763
0.005977 0.056563 0.250720
0.007177 0.056541 0.250624
0.008414 0.056780 0.251689
0.009659 0.057006 0.252697
0.010954 0.057441 0.254636
0.012267 0.057876 0.256581
0.013634 0.058462 0.259192
0.014979 0.058863 0.260988
0.016229 0.058857 0.260986
0.017500 0.058925 0.261307
0.018797 0.059063 0.261948
0.020081 0.059145 0.262336
0.021311 0.059069 0.262031
0.022616 0.059196 0.262628
0.023866 0.059174 0.262564
0.025117 0.059157 0.262526
0.026451 0.059327 0.263320
0.028065 0.060081 0.266705
0.032347 0.066231 0.294053
0.033678 0.066078 0.293422
0.035043 0.066002 0.293138
0.036182 0.065522 0.291060
0.037478 0.065351 0.290352
0.036635 0.061596 0.273724
0.037536 0.060931 0.270819
0.038819 0.060911 0.270785
0.040575 0.061608 0.273941
0.042398 0.062361 0.277349
0.044322 0.063212 0.281198
0.045695 0.063251 0.281433
0.046834 0.062972 0.280253
0.048065 0.062830 0.279683
0.049205 0.062578 0.278627
0.050222 0.062188 0.276954
0.051312 0.061907 0.275765
0.052504 0.061758 0.275169
0.053603 0.061510 0.274126
0.054661 0.061229 0.272938
0.055751 0.060995 0.271959
0.056930 0.060867 0.271452
0.057609 0.060222 0.268640
0.058471 0.059792 0.266784
0.059596 0.059643 0.266181
0.060498 0.059282 0.264632
0.061379 0.058917 0.263059
0.062362 0.058660 0.261973
0.063393 0.058459 0.261131
0.064406 0.058249 0.260249
0.065380 0.058012 0.259248
0.066347 0.057778 0.258253
0.067330 0.057566 0.257358
0.068419 0.057451 0.256894
0.069174 0.057064 0.255211
0.069944 0.056703 0.253642
0.070749 0.056381 0.252247
0.071508 0.056034 0.250738
0.072188 0.055638 0.249003
0.072996 0.055351 0.247758
0.073938 0.055174 0.246999
0.074725 0.054888 0.245750
0.075598 0.054673 0.244819
0.076339 0.054371 0.243492
0.077231 0.054183 0.242675
0.078138 0.054012 0.241927
0.078817 0.053690 0.240501
0.079516 0.053390 0.239174
0.080355 0.053192 0.238296
0.081089 0.052931 0.237131
0.081695 0.052594 0.235626
0.082562 0.052432 0.234900
0.083191 0.052126 0.233523
0.083755 0.051787 0.231995
0.084542 0.051593 0.231114
0.085219 0.051338 0.229954
0.085994 0.051147 0.229079
0.086786 0.050971 0.228264
0.087229 0.050598 0.226560
0.087858 0.050339 0.225369
0.088361 0.050016 0.223879
0.088962 0.049755 0.222667
0.089717 0.049585 0.221856
0.090386 0.049373 0.220850
0.090939 0.049102 0.219577
0.091361 0.048767 0.218016
0.092132 0.048625 0.217306
0.092957 0.048514 0.216731
0.093616 0.048319 0.215777
0.094368 0.048176 0.215049
0.095134 0.048043 0.214358
0.095873 0.047899 0.213614
0.096571 0.047739 0.212787
0.097313 0.047603 0.212064
0.098066 0.047475 0.211367
0.098625 0.047257 0.210265
0.099121 0.047013 0.209041
0.099566 0.046750 0.207725
0.100196 0.046578 0.206807
0.100636 0.046323 0.205509
0.101183 0.046120 0.204440
0.101684 0.045901 0.203290
0.102133 0.045663 0.202049
0.102842 0.045544 0.201325
0.103592 0.045446 0.200685
0.104157 0.045269 0.199687
0.104838 0.045145 0.198913
-0.965217 0.414911 1.804089
-0.956849 0.415011 1.806476
-0.948175 0.414979 1.808198
-0.940958 0.415590 1.812632
-0.922221 0.411077 1.794617
-1.055865 0.508221 2.231721
-1.034031 0.502730 2.208827
-1.022262 0.502069 2.207067
-1.016725 0.504488 2.218774
-1.004934 0.503822 2.216842
-0.994242 0.503699 2.217225
-0.985604 0.504625 2.222161
-0.804892 0.425663 1.876285
-0.789022 0.421898 1.860195
-0.780610 0.422082 1.861460
-0.768204 0.420086 1.853065
-0.759688 0.420196 1.853908
-0.753217 0.421453 1.859769
-0.742472 0.420321 1.855040
-0.366215 0.234913 1.037097
-0.357507 0.232422 1.026030
-0.352424 0.232252 1.025192
-0.347138 0.231940 1.023717
-0.341141 0.231139 1.020067
-0.335956 0.230873 1.018764
-0.331324 0.230985 1.019117
-0.326126 0.230700 1.017704
-0.320750 0.230278 1.015677
-0.315725 0.230100 1.014712
-0.307053 0.227218 1.001816
-0.294740 0.221508 0.976450
-0.283836 0.216695 0.955035
-0.275239 0.213516 0.940819
-0.271186 0.213816 0.941927
-0.256581 0.205667 0.905815
-0.247534 0.201774 0.888452
-0.188795 0.162126 0.713325
-0.185678 0.162345 0.714093
-0.183252 0.163187 0.717598
-0.179222 0.162605 0.714839
-0.175608 0.162385 0.713670
-0.172308 0.162454 0.713763
-0.169340 0.162844 0.715267
-0.165229 0.162129 0.711913
-0.162188 0.162456 0.713138
-0.158983 0.162629 0.713681
-0.155199 0.162205 0.711603
-0.152385 0.162798 0.713984
-0.149049 0.162849 0.713985
-0.146349 0.163612 0.717111
-0.143473 0.164210 0.719509
-0.140466 0.164685 0.721367
-0.137859 0.165663 0.725428
-0.134247 0.165453 0.724285
-0.131076 0.165791 0.725540
-0.128240 0.166582 0.728779
-0.123904 0.165415 0.723452
-0.119564 0.164174 0.717811
-0.115737 0.163588 0.715032
-0.111735 0.162709 0.710982
-0.107778 0.161844 0.706996
-0.103366 0.160220 0.699699
-0.099294 0.159031 0.694310
-0.094546 0.156640 0.683677
-0.090957 0.156068 0.680994
-0.087786 0.156199 0.681380
-0.047897 0.088496 0.385940
-0.045549 0.087519 0.381582
-0.043585 0.087231 0.380227
-0.042019 0.087747 0.382382
-0.039975 0.087267 0.380199
-0.038206 0.087369 0.380555
-0.036361 0.087300 0.380168
-0.034698 0.087686 0.381765
-0.033000 0.088019 0.383136
-0.031261 0.088277 0.384181
-0.029473 0.088418 0.384719
-0.027715 0.088676 0.385770
-0.025960 0.088981 0.387027
-0.024060 0.088799 0.386166
-0.022268 0.089018 0.387057
-0.020447 0.089151 0.387576
-0.018583 0.089100 0.387297
-0.016719 0.089046 0.387013
-0.014869 0.089057 0.387012
-0.012994 0.088901 0.386290
-0.011142 0.088881 0.386160
-0.009306 0.089001 0.386643
-0.007452 0.088973 0.386490
-0.005601 0.088970 0.386447
-0.003753 0.089044 0.386740
-0.001892 0.088657 0.385037
-0.000031 0.059062 0.256495
0.001198 0.059064 0.256492
0.002401 0.058432 0.253743
0.003609 0.058314 0.253226
0.004774 0.057718 0.250633
0.005971 0.057683 0.250482
0.007158 0.057575 0.250016
0.008409 0.057939 0.251604
0.009628 0.058016 0.251944
0.010921 0.058475 0.253950
0.012153 0.058545 0.254265
0.014009 0.061333 0.266390
0.015281 0.061314 0.266325
0.016411 0.060774 0.264000
0.017648 0.060676 0.263596
0.018844 0.060460 0.262682
0.020172 0.060668 0.263613
0.021285 0.060244 0.261799
0.022523 0.060199 0.261636
0.023828 0.060329 0.262237
0.025037 0.060215 0.261775
0.026289 0.060211 0.261795
0.028079 0.061381 0.266921
0.032304 0.067542 0.293760
0.033633 0.067386 0.293129
0.034997 0.067309 0.292846
0.036341 0.067203 0.292433
0.037609 0.066967 0.291461
0.038861 0.066721 0.290445
0.039788 0.065955 0.287163
0.041129 0.065901 0.286987
0.041434 0.064245 0.279833
0.043404 0.065192 0.284018
0.044269 0.064475 0.280949
0.045484 0.064292 0.280214
0.046749 0.064189 0.279827
0.047914 0.063960 0.278888
0.049091 0.063756 0.278060
0.050213 0.063495 0.276984
0.051324 0.063233 0.275903
0.052348 0.062880 0.274424
0.053560 0.062764 0.273982
0.054569 0.062421 0.272547
0.055531 0.062042 0.270955
0.056411 0.061591 0.269047
0.057483 0.061364 0.268116
0.058574 0.061168 0.267318
0.059465 0.060774 0.265656
0.060417 0.060458 0.264336
0.061425 0.060210 0.263309
0.062343 0.059886 0.261948
0.063406 0.059712 0.261239
0.064427 0.059504 0.260383
0.065295 0.059166 0.258959
0.066240 0.058909 0.257885
0.067232 0.058702 0.257027
0.068197 0.058479 0.256100
0.068919 0.058060 0.254309
0.069567 0.057593 0.252308
0.070628 0.057478 0.251848
0.071342 0.057090 0.250187
0.071954 0.056634 0.248226
0.072591 0.056212 0.246409
0.073396 0.055931 0.245211
0.074624 0.055977 0.245442
0.075380 0.055672 0.244132
0.076193 0.055419 0.243043
0.077185 0.055300 0.242544
0.077908 0.054995 0.241226
0.078728 0.054767 0.240238
0.079574 0.054563 0.239357
0.080285 0.054274 0.238094
0.081038 0.054020 0.236985
0.081856 0.053816 0.236091
0.082355 0.053411 0.234310
0.083010 0.053116 0.233009
0.083576 0.052773 0.231493
0.084266 0.052516 0.230349
0.085069 0.052335 0.229536
0.085858 0.052150 0.228700
0.086442 0.051847 0.227343
0.087069 0.051577 0.226125
0.087880 0.051420 0.225401
0.088251 0.051014 0.223575
0.088863 0.050755 0.222392
0.089701 0.050629 0.221787
0.090444 0.050453 0.220958
0.090918 0.050133 0.219491
0.091555 0.049908 0.218440
0.092285 0.049739 0.217626
0.093041 0.049588 0.216882
0.093754 0.049417 0.216049
0.094422 0.049227 0.215122
0.095095 0.049043 0.214218
0.095750 0.048854 0.213284
0.096549 0.048741 0.212681
0.097267 0.048590 0.211902
0.098020 0.048460 0.211205
0.098829 0.048360 0.210633
0.099390 0.048141 0.209538
0.099911 0.047908 0.208371
0.100258 0.047597 0.206860
0.100810 0.047387 0.205784
0.101196 0.047105 0.204385
0.101679 0.046873 0.203196
0.102177 0.046653 0.202047
0.102696 0.046446 0.200950
0.103596 0.046413 0.200597
0.104237 0.046266 0.199742
0.104917 0.046138 0.198961
-0.964464 0.423225 1.801805
-0.954658 0.422687 1.801499
-0.945809 0.422567 1.802877
-0.937908 0.422873 1.805982
-0.920172 0.418710 1.789895
-1.065268 0.523429 2.250961
-1.033724 0.513051 2.207583
-1.022086 0.512441 2.206133
-1.011860 0.512534 2.207633
-1.003769 0.513722 2.213776
-0.994530 0.514342 2.217403
-0.984902 0.514771 2.220144
-0.799692 0.431724 1.863874
-0.789254 0.430815 1.860477
-0.780464 0.430795 1.860871
-0.768866 0.429208 1.854443
-0.760051 0.429155 1.854599
-0.752776 0.429982 1.858508
-0.743517 0.429681 1.857501
-0.361315 0.236600 1.023257
-0.355632 0.236021 1.020697
-0.352090 0.236866 1.024279
-0.345899 0.235928 1.020135
-0.341072 0.235907 1.019941
-0.335897 0.235642 1.018675
-0.331041 0.235596 1.018345
-0.326196 0.235557 1.018033
-0.320670 0.235018 1.015547
-0.313993 0.233606 1.009278
-0.306897 0.231834 1.001445
-0.297124 0.227954 0.984498
-0.288444 0.224802 0.970694
-0.279328 0.221204 0.954958
-0.269510 0.216923 0.936275
-0.261677 0.214123 0.923982
-0.252382 0.210013 0.906033
-0.189109 0.168790 0.727459
-0.186897 0.169901 0.732050
-0.182595 0.169118 0.728479
-0.178777 0.168761 0.726740
-0.175428 0.168843 0.726887
-0.170636 0.167511 0.720946
-0.167309 0.167593 0.721088
-0.164260 0.167961 0.722463
-0.160383 0.167482 0.720190
-0.157108 0.167624 0.720584
-0.153660 0.167583 0.720193
-0.150966 0.168382 0.723409
-0.148263 0.169209 0.726742
-0.144757 0.169136 0.726209
-0.142179 0.170170 0.730429
-0.139087 0.170625 0.732163
-0.135562 0.170559 0.731656
-0.132258 0.170775 0.732366
-0.128856 0.170874 0.732569
-0.125106 0.170503 0.730764
-0.120345 0.168695 0.722799
-0.116168 0.167622 0.717990
-0.112259 0.166884 0.714623
-0.108106 0.165726 0.709462
-0.103819 0.164280 0.703075
-0.099357 0.162453 0.695059
-0.094987 0.160657 0.687186
-0.091231 0.159807 0.683366
-0.088050 0.159939 0.683752
-0.047238 0.089102 0.380818
-0.045343 0.088944 0.380046
-0.043631 0.089147 0.380817
-0.041987 0.089512 0.382285
-0.039990 0.089123 0.380533
-0.038158 0.089083 0.380276
-0.037350 0.091550 0.390719
-0.034851 0.089915 0.383659
-0.033106 0.090148 0.384575
-0.031632 0.091192 0.388951
-0.029611 0.090693 0.386749
-0.027734 0.090595 0.386259
-0.025949 0.090809 0.387102
-0.024087 0.090762 0.386835
-0.022274 0.090911 0.387410
-0.020454 0.091054 0.387962
-0.018621 0.091159 0.388354
-0.016768 0.091186 0.388418
-0.014916 0.091221 0.388516
-0.013043 0.091121 0.388048
-0.011169 0.090982 0.387413
-0.009320 0.091035 0.387602
-0.007466 0.091044 0.387608
-0.005594 0.090773 0.386424
-0.003743 0.090759 0.386341
-0.001885 0.090365 0.384640
-0.000043 0.090370 0.384644
0.001485 0.074610 0.317554
0.003014 0.074807 0.318380
0.004541 0.074845 0.318536
0.004782 0.058987 0.251042
0.005998 0.059124 0.251628
0.007211 0.059189 0.251906
0.008428 0.059259 0.252209
0.009628 0.059206 0.251990
0.010853 0.059304 0.252419
0.012104 0.059507 0.253293
0.016446 0.073488 0.312824
0.017875 0.073202 0.311627
0.016567 0.062615 0.266576
0.017740 0.062251 0.265047
0.019015 0.062268 0.265144
0.020100 0.061701 0.262758
0.021126 0.061030 0.259927
0.022331 0.060919 0.259484
0.023740 0.061349 0.261348
0.024998 0.061365 0.261451
0.026467 0.061873 0.263651
0.027946 0.062357 0.265752
0.032317 0.068968 0.293974
0.033549 0.068611 0.292496
0.034797 0.068312 0.291271
0.036225 0.068376 0.291596
0.037310 0.067812 0.289241
0.038596 0.067641 0.288564
0.039719 0.067204 0.286753
0.040938 0.066955 0.285745
0.042159 0.066725 0.284818
0.043336 0.066441 0.283664
0.044558 0.066241 0.282868
0.045594 0.065785 0.280981
0.046635 0.065362 0.279232
0.047851 0.065200 0.278599
0.048980 0.064932 0.277515
0.050100 0.064666 0.276438
0.051246 0.064447 0.275563
0.052328 0.064160 0.274396
0.053465 0.063953 0.273568
0.054539 0.063682 0.272470
0.055465 0.063255 0.270703
0.056436 0.062897 0.269229
0.057323 0.062464 0.267434
0.058284 0.062128 0.266053
0.059390 0.061958 0.265384
0.060470 0.061769 0.264629
0.061388 0.061424 0.263207
0.062351 0.061138 0.262037
0.063349 0.060897 0.261055
0.064343 0.060660 0.260095
0.065296 0.060395 0.259008
0.066192 0.060088 0.257740
0.067284 0.059967 0.257267
0.068336 0.059815 0.256660
0.068852 0.059208 0.254100
0.069195 0.058475 0.250996
0.070140 0.058267 0.250140
0.071287 0.058231 0.250025
0.072005 0.057852 0.248430
0.072855 0.057588 0.247332
0.073628 0.057273 0.246008
0.074472 0.057023 0.244961
0.075479 0.056904 0.244471
0.076299 0.056648 0.243395
0.077045 0.056347 0.242118
0.077944 0.056164 0.241347
0.078656 0.055854 0.240028
0.079359 0.055546 0.238714
0.080281 0.055399 0.238084
0.080848 0.055013 0.236430
0.081401 0.054629 0.234778
0.082191 0.054412 0.233838
0.082670 0.053998 0.232048
0.083358 0.053729 0.230880
0.084123 0.053516 0.229946
0.084886 0.053307 0.229027
0.085629 0.053092 0.228074
0.086387 0.052891 0.227178
0.087019 0.052618 0.225973
0.087485 0.052253 0.224364
0.088143 0.052010 0.223274
0.088910 0.051836 0.222477
0.089777 0.051725 0.221942
0.090421 0.051488 0.220867
0.090905 0.051167 0.219423
0.091349 0.050831 0.217908
0.092198 0.050726 0.217379
0.093133 0.050669 0.217052
0.093814 0.050477 0.216138
0.094573 0.050330 0.215413
0.095319 0.050180 0.214668
0.096013 0.050006 0.213812
0.096591 0.049776 0.212711
0.097351 0.049643 0.212020
0.098127 0.049521 0.211369
0.098843 0.049372 0.210592
0.099452 0.049172 0.209595
0.100012 0.048953 0.208505
0.100534 0.048720 0.207350
0.101022 0.048475 0.206136
0.101609 0.048281 0.205134
0.101940 0.047970 0.203628
0.102376 0.047715 0.202348
0.103131 0.047612 0.201705
0.103881 0.047508 0.201051
0.104394 0.047299 0.199939
0.104977 0.047124 0.198968
-0.962940 0.431181 1.798049
-0.952166 0.430189 1.795924
-0.943790 0.430272 1.798192
-0.934889 0.430115 1.799365
-0.924001 0.429034 1.796573
-1.063674 0.533313 2.246932
-1.034482 0.523906 2.208584
-1.021625 0.522664 2.204555
-1.011848 0.522989 2.207056
-1.004738 0.524713 2.215393
-0.993233 0.524155 2.214023
-0.978259 0.521735 2.204715
-0.803130 0.442429 1.871576
-0.790606 0.440360 1.863379
-0.778640 0.438560 1.856263
-0.770923 0.439139 1.859168
-0.762113 0.439103 1.859419
-0.754277 0.439633 1.862025
-0.746219 0.440044 1.864085
-0.365734 0.244382 1.035802
-0.355402 0.240682 1.020074
-0.348115 0.238972 1.012765
-0.346053 0.240851 1.020650
-0.340453 0.240286 1.018162
-0.335731 0.240333 1.018255
-0.331213 0.240531 1.018971
-0.326216 0.240381 1.018202
-0.321010 0.240070 1.016739
-0.314298 0.238607 1.010385
-0.306784 0.236480 1.001212
-0.298659 0.233809 0.989727
-0.289939 0.230581 0.975878
-0.281183 0.227219 0.961459
-0.277036 0.227533 0.962588
-0.263298 0.219848 0.929878
-0.254979 0.216506 0.915538
-0.189812 0.172877 0.730335
-0.186751 0.173235 0.731658
-0.183436 0.173367 0.732020
-0.179801 0.173195 0.731096
-0.175938 0.172793 0.729200
-0.173228 0.173529 0.732104
-0.170406 0.174181 0.734650
-0.165956 0.173162 0.730144
-0.162588 0.173253 0.730317
-0.160095 0.174300 0.734519
-0.155788 0.173375 0.730409
-0.152735 0.173835 0.732133
-0.150000 0.174688 0.735506
-0.146303 0.174434 0.734220
-0.143254 0.174959 0.736215
-0.139814 0.175022 0.736262
-0.136412 0.175135 0.736522
-0.132969 0.175202 0.736586
-0.129158 0.174775 0.734576
-0.125559 0.174617 0.733702
-0.121158 0.173306 0.727982
-0.116657 0.171769 0.721320
-0.111956 0.169835 0.712997
-0.107927 0.168834 0.708596
-0.103068 0.166428 0.698302
-0.099311 0.165699 0.695053
-0.094471 0.163053 0.683770
-0.091049 0.162750 0.682320
-0.087873 0.162884 0.682704
-0.047234 0.090916 0.380967
-0.044952 0.089980 0.376950
-0.043471 0.090637 0.379608
-0.041781 0.090896 0.380601
-0.039952 0.090863 0.380375
-0.038268 0.091169 0.381574
-0.036608 0.091570 0.383165
-0.034979 0.092092 0.385270
-0.033257 0.092417 0.386551
-0.031531 0.092766 0.387932
-0.029735 0.092942 0.388595
-0.027851 0.092845 0.388122
-0.026018 0.092920 0.388364
-0.024201 0.093063 0.388901
-0.022304 0.092901 0.388162
-0.020489 0.093085 0.388872
-0.018681 0.093338 0.389875
-0.016815 0.093325 0.389768
-0.014940 0.093255 0.389432
-0.013071 0.093205 0.389177
-0.011210 0.093208 0.389149
-0.009335 0.093076 0.388561
-0.007479 0.093114 0.388686
-0.005595 0.092716 0.386996
-0.003742 0.092679 0.386817
-0.001877 0.092010 0.384005
-0.000039 0.090864 0.379200
0.001499 0.076652 0.319880
0.003011 0.076186 0.317927
0.004538 0.076254 0.318202
0.006085 0.076556 0.319460
0.007581 0.076216 0.318040
0.009141 0.076528 0.319344
0.010650 0.076387 0.318762
0.009828 0.061652 0.257280
0.011057 0.061638 0.257233
0.012243 0.061405 0.256273
0.016424 0.074873 0.312496
0.017851 0.074582 0.311301
0.019348 0.074605 0.311422
0.020831 0.074578 0.311333
0.022151 0.074005 0.308971
0.020270 0.063481 0.265056
0.021094 0.062171 0.259613
0.022424 0.062414 0.260660
0.023719 0.062536 0.261201
0.024972 0.062544 0.261266
0.026388 0.062938 0.262948
0.027809 0.063310 0.264537
0.032401 0.070551 0.294840
0.033854 0.070639 0.295254
0.035214 0.070533 0.294856
0.036307 0.069923 0.292355
0.037209 0.069002 0.288553
0.038478 0.068804 0.287775
0.039695 0.068529 0.286677
0.041016 0.068444 0.286378
0.042141 0.068050 0.284783
0.043328 0.067777 0.283697
0.044476 0.067462 0.282434
0.045571 0.067087 0.280921
0.046659 0.066725 0.279459
0.047786 0.066436 0.278305
0.048954 0.066217 0.277446
0.050043 0.065906 0.276204
0.051120 0.065595 0.274959
0.052207 0.065313 0.273832
0.053311 0.065065 0.272853
0.054284 0.064672 0.271264
0.055332 0.064387 0.270122
0.056281 0.063999 0.268554
0.057429 0.063851 0.267990
0.058451 0.063573 0.266879
0.059213 0.063030 0.264651
0.060346 0.062895 0.264140
0.061325 0.062608 0.262990
0.062306 0.062336 0.261897
0.063289 0.062076 0.260856
0.064300 0.061853 0.259969
0.065259 0.061589 0.258908
0.066333 0.061441 0.258333
0.067256 0.061161 0.257201
0.068193 0.060905 0.256164
0.069105 0.060634 0.255066
0.069313 0.059766 0.251455
0.070278 0.059569 0.250665
0.071253 0.059387 0.249933
0.072112 0.059116 0.248823
0.073037 0.058907 0.247974
0.073928 0.058677 0.247032
0.074854 0.058482 0.246238
0.075700 0.058232 0.245204
0.076539 0.057983 0.244175
0.077098 0.057532 0.242294
0.077644 0.057087 0.240429
0.078659 0.056993 0.240043
0.079567 0.056825 0.239344
0.080259 0.056510 0.238020
0.081082 0.056295 0.237113
0.081654 0.055914 0.235503
0.082394 0.055657 0.234410
0.083087 0.055375 0.233210
0.083588 0.054974 0.231506
0.084383 0.054774 0.230643
0.085323 0.054673 0.230191
0.085889 0.054337 0.228747
0.086478 0.054024 0.227396
0.087001 0.053678 0.225900
0.087569 0.053368 0.224552
0.088558 0.053319 0.224296
0.089251 0.053095 0.223298
0.089905 0.052853 0.222222
0.090619 0.052651 0.221312
0.090970 0.052246 0.219540
0.091718 0.052076 0.218746
0.092373 0.051856 0.217744
0.092964 0.051607 0.216609
0.093626 0.051401 0.215653
0.094448 0.051287 0.215075
0.095270 0.051176 0.214500
0.096022 0.051029 0.213774
0.096811 0.050905 0.213133
0.097548 0.050756 0.212383
0.098321 0.050630 0.211717
0.099034 0.050474 0.210926
0.099483 0.050189 0.209584
0.099995 0.049941 0.208392
0.100580 0.049735 0.207363
0.101080 0.049490 0.206168
0.101408 0.049166 0.204639
0.101930 0.048943 0.203517
0.102519 0.048755 0.202536
0.103237 0.048631 0.201812
0.104116 0.048585 0.201402
0.104671 0.048390 0.200363
0.105263 0.048215 0.199401
-0.967207 0.441755 1.805071
-0.952692 0.439036 1.796012
-0.943322 0.438661 1.796431
-0.931049 0.436917 1.791140
-0.922882 0.437086 1.793597
-1.062986 0.543629 2.244785
-1.034341 0.534312 2.207636
-1.021390 0.532996 2.203437
-1.011946 0.533502 2.206690
-1.003310 0.534448 2.211697
-0.992509 0.534250 2.211894
-0.983389 0.534962 2.215791
-0.799794 0.449404 1.863471
-0.788114 0.447753 1.857203
-0.778775 0.447410 1.856307
-0.770487 0.447671 1.857864
-0.762162 0.447915 1.859308
-0.752740 0.447513 1.858025
-0.742839 0.446814 1.855461
-0.365379 0.249029 1.034820
-0.359294 0.248186 1.031281
-0.350534 0.245447 1.019848
-0.344471 0.244547 1.016040
-0.340938 0.245443 1.019682
-0.336678 0.245833 1.021206
-0.331528 0.245576 1.020031
-0.326609 0.245485 1.019529
-0.321336 0.245122 1.017882
-0.314871 0.243825 1.012349
-0.306756 0.241189 1.001250
-0.297912 0.237891 0.987393
-0.293670 0.238221 0.988584
-0.279753 0.230587 0.956724
-0.270922 0.226964 0.941505
-0.263728 0.224614 0.931568
-0.259689 0.224918 0.932629
-0.188204 0.178077 0.737528
-0.184962 0.178307 0.738293
-0.180425 0.177274 0.733824
-0.202967 0.203327 0.841448
-0.173008 0.176778 0.731379
-0.169748 0.176982 0.732025
-0.166752 0.177476 0.733863
-0.162832 0.176986 0.731635
-0.159569 0.177205 0.732334
-0.156801 0.177996 0.735394
-0.153818 0.178573 0.737568
-0.150785 0.179119 0.739610
-0.147425 0.179292 0.740112
-0.143973 0.179358 0.740174
-0.140491 0.179391 0.740096
-0.136935 0.179328 0.739626
-0.133196 0.179016 0.738128
-0.129515 0.178769 0.736897
-0.125689 0.178300 0.734758
-0.121329 0.177026 0.729303
-0.116541 0.175036 0.720900
-0.112084 0.173438 0.714122
-0.107807 0.172026 0.708115
-0.103500 0.170474 0.701536
-0.099930 0.170074 0.699701
-0.096064 0.169125 0.695615
-0.092833 0.169267 0.696019
-0.046812 0.091911 0.377745
-0.045060 0.092005 0.378040
-0.043425 0.092359 0.379401
-0.041649 0.092426 0.379589
-0.040014 0.092830 0.381161
-0.038296 0.093069 0.382060
-0.036686 0.093607 0.384188
-0.035009 0.094022 0.385810
-0.033348 0.094532 0.387823
-0.031668 0.095042 0.389840
-0.029847 0.095165 0.390273
-0.027987 0.095176 0.390248
-0.026149 0.095264 0.390545
-0.024300 0.095330 0.390749
-0.022388 0.095132 0.389878
-0.020526 0.095134 0.389830
-0.018690 0.095268 0.390327
-0.016816 0.095217 0.390067
-0.014956 0.095244 0.390129
-0.013066 0.095058 0.389324
-0.011178 0.094829 0.388349
-0.009322 0.094842 0.388364
-0.007450 0.094656 0.387571
-0.005601 0.094728 0.387837
-0.003737 0.094515 0.386940
-0.001876 0.093970 0.384687
-0.000035 0.094117 0.385271
0.001512 0.078732 0.322280
0.003044 0.078475 0.321216
0.004567 0.078232 0.320217
0.006106 0.078311 0.320538
0.007622 0.078122 0.319763
0.009130 0.077936 0.319004
0.010637 0.077793 0.318422
0.012159 0.077778 0.318371
0.013605 0.077337 0.316577
0.015069 0.077073 0.315511
0.016423 0.076345 0.312547
0.017833 0.075981 0.311076
0.019178 0.075417 0.308786
0.020678 0.075497 0.309140
0.022120 0.075369 0.308643
0.023534 0.075168 0.307847
0.024798 0.074538 0.305297
0.026348 0.074790 0.306362
0.027550 0.074081 0.303495
0.028762 0.073468 0.301018
0.030067 0.073138 0.299708
0.031408 0.072922 0.298865
0.032574 0.072338 0.296510
0.033800 0.071929 0.294880
0.035017 0.071534 0.293307
0.036458 0.071610 0.293665
0.037274 0.070498 0.289152
0.038644 0.070474 0.289106
0.039772 0.070028 0.287325
0.041057 0.069877 0.286758
0.042139 0.069402 0.284859
0.043333 0.069136 0.283821
0.044443 0.068755 0.282312
0.045558 0.068404 0.280926
0.046604 0.067973 0.279209
0.047700 0.067636 0.277884
0.048907 0.067471 0.277260
0.049936 0.067075 0.275689
0.051104 0.066882 0.274950
0.052177 0.066576 0.273751
0.053175 0.066192 0.272228
0.054198 0.065856 0.270903
0.054904 0.065161 0.268098
0.056108 0.065074 0.267795
0.057252 0.064924 0.267229
0.058200 0.064562 0.265793
0.059219 0.064292 0.264737
0.060206 0.064000 0.263585
0.061241 0.063770 0.262687
0.062256 0.063527 0.261738
0.063244 0.063268 0.260719
0.064243 0.063030 0.259784
0.065207 0.062767 0.258746
0.066155 0.062498 0.257681
0.067172 0.062303 0.256919
0.068047 0.061985 0.255652
0.068749 0.061525 0.253790
0.069485 0.061109 0.252112
0.070471 0.060924 0.251383
0.071462 0.060749 0.250695
0.072334 0.060480 0.249613
0.073089 0.060125 0.248173
0.073793 0.059738 0.246602
0.074683 0.059512 0.245691
0.075565 0.059286 0.244779
0.076558 0.059154 0.244248
0.077511 0.058994 0.243603
0.078210 0.058650 0.242189
0.078425 0.057957 0.239334
0.079578 0.057966 0.239378
0.080368 0.057716 0.238342
0.081134 0.057455 0.237262
0.081730 0.057082 0.235715
0.082512 0.056848 0.234737
0.083045 0.056451 0.233082
0.083850 0.056247 0.232218
0.084639 0.056037 0.231328
0.085418 0.055826 0.230429
0.086241 0.055648 0.229663
0.086972 0.055417 0.228670
0.087728 0.055207 0.227762
0.088276 0.054872 0.226336
0.088708 0.054475 0.224643
0.089373 0.054228 0.223569
0.089994 0.053961 0.222405
0.090737 0.053772 0.221560
0.091454 0.053572 0.220664
0.092090 0.053330 0.219586
0.092977 0.053237 0.219119
0.093871 0.053150 0.218670
0.094421 0.052872 0.217429
0.095153 0.052701 0.216621
0.096100 0.052651 0.216308
0.096682 0.052405 0.215177
0.097348 0.052209 0.214247
0.097870 0.051940 0.213015
0.098522 0.051746 0.212077
0.099269 0.051604 0.211350
0.099807 0.051358 0.210187
0.100477 0.051184 0.209313
0.100932 0.050904 0.208001
0.101551 0.050713 0.207039
0.101836 0.050359 0.205411
0.102524 0.050210 0.204607
0.103116 0.050017 0.203615
0.103493 0.049725 0.202211
0.104549 0.049761 0.202133
0.105017 0.049518 0.200914
0.105501 0.049288 0.199736
-0.980747 0.456725 1.829343
-0.952837 0.447715 1.795345
-0.943306 0.447257 1.795496
-0.934032 0.446913 1.796011
-0.925103 0.446731 1.797080
-0.917581 0.447230 1.800809
-1.034292 0.544766 2.206855
-1.020420 0.542933 2.200702
-1.011042 0.543478 2.204110
-1.004364 0.545502 2.213444
-0.993280 0.545151 2.213068
-0.798704 0.457593 1.860582
-0.788833 0.456951 1.858574
-0.777981 0.455720 1.854117
-0.768607 0.455336 1.853057
-0.761992 0.456598 1.858644
-0.752309 0.456029 1.856737
-0.742142 0.455150 1.853521
-0.350941 0.247171 1.007330
-0.350181 0.250010 1.018860
-0.345551 0.250125 1.019276
-0.339767 0.249397 1.016239
-0.335091 0.249474 1.016467
-0.330883 0.249906 1.018129
-0.325289 0.249290 1.015503
-0.319969 0.248867 1.013656
-0.313302 0.247368 1.007417
-0.305929 0.245259 0.998678
-0.298488 0.243027 0.989435
-0.289964 0.239829 0.976250
-0.282011 0.237009 0.964598
-0.273599 0.233703 0.950968
-0.264853 0.229998 0.935706
-0.255669 0.225781 0.918363
-0.251676 0.226082 0.919391
-0.216087 0.212400 0.862743
-0.210884 0.211268 0.857926
-0.202708 0.207054 0.840601
-0.198986 0.207312 0.841427
-0.170421 0.181171 0.735136
-0.167150 0.181392 0.735833
-0.163464 0.181161 0.734698
-0.160236 0.181439 0.735626
-0.157209 0.181963 0.737546
-0.153770 0.182022 0.737583
-0.150435 0.182211 0.738141
-0.147145 0.182464 0.738962
-0.143935 0.182832 0.740243
-0.140337 0.182714 0.739559
-0.136805 0.182677 0.739203
-0.133189 0.182524 0.738376
-0.129428 0.182157 0.736687
-0.125742 0.181880 0.735363
-0.121313 0.180482 0.729509
-0.116723 0.178755 0.722332
-0.111849 0.176475 0.712928
-0.108173 0.176002 0.710828
-0.103899 0.174496 0.704556
-0.099227 0.172196 0.695091
-0.094253 0.169198 0.682812
-0.049106 0.094675 0.381877
-0.047036 0.094168 0.379738
-0.045097 0.093892 0.378538
-0.043819 0.095029 0.383029
-0.041700 0.094361 0.380250
-0.039991 0.094601 0.381134
-0.038495 0.095395 0.384248
-0.036872 0.095935 0.386343
-0.035285 0.096630 0.389065
-0.033544 0.096961 0.390322
-0.031832 0.097418 0.392085
-0.030147 0.098019 0.394433
-0.028193 0.097769 0.393358
-0.026314 0.097761 0.393259
-0.024480 0.097933 0.393888
-0.022549 0.097710 0.392933
-0.020665 0.097674 0.392733
-0.018823 0.097844 0.393364
-0.016954 0.097900 0.393539
-0.015051 0.097755 0.392908
-0.013204 0.097973 0.393741
-0.011280 0.097607 0.392229
-0.009392 0.097470 0.391644
-0.007550 0.097861 0.393182
-0.005609 0.096792 0.388860
-0.003746 0.096702 0.388471
-0.001881 0.096298 0.386826
-0.000031 0.094838 0.380947
0.001516 0.080267 0.322403
0.003046 0.079964 0.321176
0.004575 0.079844 0.320688
0.006115 0.079924 0.321005
0.007623 0.079633 0.319837
0.009129 0.079423 0.318995
0.010620 0.079161 0.317949
0.012102 0.078905 0.316927
0.013588 0.078730 0.316234
0.015049 0.078461 0.315170
0.016480 0.078095 0.313713
0.017864 0.077590 0.311706
0.019266 0.077233 0.310292
0.020665 0.076913 0.309030
0.022082 0.076700 0.308200
0.023507 0.076540 0.307584
0.024936 0.076409 0.307088
0.026311 0.076139 0.306033
0.027512 0.075418 0.303169
0.028722 0.074794 0.300695
0.030025 0.074459 0.299387
0.031364 0.074239 0.298545
0.032607 0.073821 0.296905
0.033883 0.073510 0.295695
0.035107 0.073116 0.294153
0.036376 0.072842 0.293098
0.037489 0.072285 0.290905
0.038623 0.071809 0.289037
0.039896 0.071616 0.288307
0.041021 0.071178 0.286596
0.042267 0.070971 0.285814
0.043380 0.070561 0.284215
0.044469 0.070138 0.282563
0.045540 0.069712 0.280898
0.046540 0.069204 0.278905
0.047638 0.068866 0.277598
0.048789 0.068622 0.276668
0.049924 0.068368 0.275696
0.051079 0.068153 0.274885
0.052176 0.067875 0.273817
0.053179 0.067489 0.272314
0.054160 0.067096 0.270782
0.055188 0.066777 0.269548
0.056115 0.066354 0.267892
0.057279 0.066223 0.267416
0.058242 0.065870 0.266043
0.059189 0.065514 0.264656
0.060202 0.065246 0.263622
0.061256 0.065031 0.262800
0.062259 0.064772 0.261800
0.063256 0.064517 0.260815
0.064205 0.064224 0.259676
0.065031 0.063820 0.258089
0.065955 0.063526 0.256941
0.066866 0.063231 0.255789
0.067800 0.062968 0.254760
0.068691 0.062674 0.253606
0.069532 0.062346 0.252313
0.070360 0.062017 0.251014
0.071260 0.061762 0.250011
0.072258 0.061598 0.249375
0.073204 0.061396 0.248582
0.073908 0.061001 0.247006
0.075014 0.060945 0.246797
0.075545 0.060430 0.244730
0.076508 0.060271 0.244098
0.077445 0.060096 0.243403
0.078142 0.059744 0.241983
0.079048 0.059559 0.241238
0.079824 0.059283 0.240120
0.080493 0.058936 0.238712
0.081380 0.058756 0.237977
0.082064 0.058436 0.236670
0.082780 0.058148 0.235489
0.083411 0.057808 0.234094
0.084145 0.057548 0.233019
0.084927 0.057327 0.232096
0.085672 0.057086 0.231091
0.086468 0.056886 0.230244
0.087104 0.056586 0.228992
0.087807 0.056337 0.227936
0.088459 0.056061 0.226773
0.089081 0.055774 0.225554
0.089833 0.055573 0.224682
0.090689 0.055441 0.224082
0.091442 0.055250 0.223239
0.092126 0.055021 0.222238
0.092794 0.054789 0.221217
0.093685 0.054692 0.220736
0.094319 0.054448 0.219658
0.094967 0.054218 0.218629
0.095494 0.053924 0.217337
0.096231 0.053755 0.216539
0.096941 0.053573 0.215687
0.097372 0.053243 0.214231
0.097982 0.053017 0.213185
0.098591 0.052795 0.212148
0.099328 0.052644 0.211395
0.099873 0.052397 0.210243
0.100522 0.052208 0.209321
0.101182 0.052029 0.208426
0.101708 0.051785 0.207267
0.102120 0.051488 0.205886
0.102754 0.051307 0.204965
0.103354 0.051113 0.203981
0.103912 0.050903 0.202922
0.104713 0.050814 0.202338
0.105272 0.050610 0.201288
0.105793 0.050392 0.200169
-0.976717 0.463598 1.820798
-0.952719 0.456271 1.794147
-0.942609 0.455524 1.793232
-0.935747 0.456347 1.798406
-0.926732 0.456126 1.799375
-0.916460 0.455276 1.797777
-1.036355 0.556352 2.210545
-1.020324 0.553325 2.199823
-1.009585 0.553135 2.200298
-1.005866 0.556827 2.216146
-0.992516 0.555210 2.210794
-0.983370 0.555935 2.214696
-0.797038 0.465423 1.856330
-0.787532 0.464973 1.855163
-0.775199 0.462825 1.847169
-0.767969 0.463710 1.851226
-0.760312 0.464355 1.854280
-0.751230 0.464135 1.853831
-0.739644 0.462344 1.847063
-0.341126 0.255212 1.020357
-0.336797 0.255568 1.021705
-0.331638 0.255296 1.020528
-0.325197 0.254014 1.015301
-0.320093 0.253754 1.014151
-0.313495 0.252283 1.008146
-0.305892 0.249947 0.998675
-0.298134 0.247410 0.988392
-0.290631 0.245006 0.978634
-0.282473 0.241965 0.966323
-0.274270 0.238785 0.953453
-0.266065 0.235497 0.940151
-0.256689 0.231045 0.922194
-0.246882 0.226044 0.902051
-0.237188 0.220973 0.881629
-0.231506 0.219526 0.875665
-0.227540 0.219684 0.876096
-0.221158 0.217472 0.867075
-0.215814 0.216216 0.861863
-0.210615 0.215060 0.857049
-0.204936 0.213359 0.850060
