ply
format ascii 1.0
element vertex 1743
property float x
property float y
property float z
end_header
0.075647 0.082646 0.248720
0.076468 0.082256 0.247508
0.077293 0.081882 0.246341
0.078140 0.081543 0.245276
0.078649 0.080865 0.243187
0.079552 0.080606 0.242357
0.080448 0.080348 0.241526
0.081272 0.080026 0.240497
0.082138 0.079754 0.239613
0.082957 0.079444 0.238612
0.083689 0.079060 0.237385
0.084601 0.078854 0.236688
0.085315 0.078472 0.235457
0.086131 0.078192 0.234526
0.086716 0.077712 0.232993
0.087373 0.077308 0.231683
0.088112 0.076985 0.230612
0.088723 0.076560 0.229228
0.089331 0.076142 0.227862
0.090028 0.075810 0.226747
0.090878 0.075613 0.226030
0.091730 0.075422 0.225326
0.092534 0.075197 0.224512
0.093120 0.074801 0.223183
0.093788 0.074480 0.222071
0.094421 0.074138 0.220890
0.094920 0.073700 0.219417
0.095383 0.073243 0.217883
0.095863 0.072809 0.216410
0.096652 0.072617 0.215649
0.097295 0.072320 0.214571
0.097801 0.071929 0.213203
0.098562 0.071732 0.212403
0.098584 0.071006 0.210032
0.098483 0.070206 0.207438
0.098375 0.069419 0.204874
0.099131 0.069251 0.204131
0.099756 0.068995 0.203120
0.100377 0.068742 0.202106
0.100843 0.068388 0.200789
0.101657 0.068275 0.200168
0.102454 0.068152 0.199507
0.103353 0.068099 0.199038
0.104208 0.068018 0.198475
0.106060 0.068583 0.199782
0.108298 0.069385 0.201755
-1.016757 0.646695 1.867888
-0.992410 0.636881 1.842669
-0.981654 0.635690 1.842221
-0.969914 0.633835 1.839714
-0.953980 0.629181 1.828938
-1.258263 0.870057 2.545820
-1.235576 0.862728 2.527283
-1.230234 0.867486 2.544020
-1.201879 0.855949 2.512831
-1.191004 0.856756 2.517729
-1.115084 0.810312 2.383532
-1.096497 0.805005 2.370094
-1.071954 0.795169 2.343183
-1.056555 0.791983 2.335739
-0.792335 0.626868 1.855452
-0.773076 0.618493 1.831793
-0.778995 0.630300 1.867853
-0.760736 0.622592 1.846030
-0.745510 0.617216 1.831048
-0.357509 0.310405 0.922523
-0.349445 0.307145 0.913187
-0.338771 0.301480 0.896670
-0.334437 0.301387 0.896696
-0.331338 0.302418 0.900046
-0.324069 0.299621 0.891983
-0.318017 0.297890 0.887071
-0.313457 0.297529 0.886219
-0.310028 0.298247 0.888562
-0.305289 0.297707 0.887141
-0.302489 0.299070 0.891374
-0.299966 0.300748 0.896532
-0.294384 0.299365 0.892549
-0.295035 0.304372 0.907604
-0.292704 0.306404 0.913775
-0.287751 0.305712 0.911810
-0.284375 0.306699 0.914839
-0.282292 0.309133 0.922172
-0.278625 0.309881 0.924464
-0.274898 0.310585 0.926613
-0.270799 0.310886 0.927547
-0.266127 0.310528 0.926502
-0.262138 0.310968 0.927830
-0.256273 0.309161 0.922439
-0.250055 0.306858 0.915562
-0.244097 0.304799 0.909403
-0.237642 0.302035 0.901132
-0.231625 0.299738 0.894245
-0.225939 0.297792 0.888399
-0.220397 0.295966 0.882905
-0.213788 0.292610 0.872839
-0.207525 0.289605 0.863816
-0.201022 0.286138 0.853411
-0.192726 0.279927 0.834818
-0.185344 0.274812 0.819491
-0.180634 0.273526 0.815577
-0.174208 0.269528 0.803577
-0.167899 0.265540 0.791603
-0.161760 0.261643 0.779901
-0.157619 0.260874 0.777521
-0.153081 0.259395 0.773022
-0.147054 0.255261 0.760608
-0.141807 0.252306 0.751709
-0.137634 0.251161 0.748204
-0.133219 0.249502 0.743165
-0.128175 0.246544 0.734258
-0.123129 0.243418 0.724850
-0.118599 0.241164 0.718042
-0.114635 0.239960 0.714361
-0.110225 0.237724 0.707606
-0.106430 0.236714 0.704504
-0.103179 0.236890 0.704929
-0.056545 0.134151 0.399147
-0.054898 0.134737 0.400836
-0.053124 0.135044 0.401694
-0.051449 0.135633 0.403392
-0.050565 0.138431 0.411659
-0.051244 0.145908 0.433836
-0.049223 0.145996 0.434040
-0.047559 0.147201 0.437564
-0.045700 0.147882 0.439532
-0.043940 0.148965 0.442696
-0.042304 0.150600 0.447501
-0.040239 0.150798 0.448034
-0.038173 0.151013 0.448621
-0.036240 0.151811 0.450940
-0.034157 0.152043 0.451579
-0.032082 0.152347 0.452432
-0.029910 0.152199 0.451946
-0.027661 0.151605 0.450137
-0.025467 0.151242 0.449016
-0.023119 0.149808 0.444717
-0.020824 0.148472 0.440713
-0.018522 0.146780 0.435654
-0.016147 0.144016 0.427415
-0.013911 0.141883 0.421054
-0.011694 0.139243 0.413190
-0.009778 0.139870 0.415022
-0.007797 0.139636 0.414302
-0.005735 0.137323 0.407414
-0.003829 0.138257 0.410165
-0.001889 0.138703 0.411467
0.000063 0.138710 0.411469
0.001630 0.112211 0.332850
0.003179 0.111153 0.329701
0.004731 0.110866 0.328840
0.006297 0.110954 0.329093
0.007847 0.110786 0.328586
0.009376 0.110429 0.327522
0.010908 0.110202 0.326846
0.012437 0.110000 0.326245
0.013943 0.109666 0.325253
0.015407 0.109101 0.323578
0.016791 0.108121 0.320674
0.018236 0.107666 0.319326
0.019721 0.107495 0.318823
0.021090 0.106761 0.316651
0.022488 0.106265 0.315188
0.023839 0.105618 0.313277
0.025203 0.105104 0.311758
0.026641 0.104937 0.311274
0.028038 0.104635 0.310389
0.029391 0.104206 0.309127
0.030764 0.103887 0.308195
0.032072 0.103385 0.306718
0.033369 0.102895 0.305276
0.034742 0.102669 0.304620
0.036090 0.102389 0.303804
0.037383 0.101980 0.302607
0.038553 0.101280 0.300546
0.039803 0.100831 0.299229
0.041034 0.100365 0.297862
0.042299 0.100014 0.296835
0.043474 0.099476 0.295253
0.044639 0.098952 0.293714
0.045746 0.098334 0.291896
0.046878 0.097804 0.290339
0.047996 0.097276 0.288784
0.049003 0.096558 0.286667
0.049950 0.095763 0.284322
0.051014 0.095229 0.282751
0.052036 0.094647 0.281034
0.053067 0.094109 0.279449
0.054164 0.093710 0.278275
0.055091 0.093045 0.276309
0.056033 0.092435 0.274506
0.056842 0.091638 0.272146
0.057836 0.091167 0.270753
0.058870 0.090779 0.269606
0.059974 0.090513 0.268821
0.060920 0.090025 0.267371
0.061839 0.089517 0.265864
0.062806 0.089097 0.264614
0.063760 0.088676 0.263360
0.064673 0.088215 0.261983
0.065469 0.087615 0.260194
0.066343 0.087139 0.258773
0.067354 0.086858 0.257924
0.068250 0.086439 0.256667
0.069233 0.086145 0.255775
0.070059 0.085669 0.254343
0.071085 0.085449 0.253667
0.071944 0.085039 0.252423
0.072955 0.084818 0.251741
0.073787 0.084401 0.250469
0.074766 0.084161 0.249725
0.075738 0.083923 0.248978
0.076503 0.083465 0.247578
0.077445 0.083210 0.246777
0.078298 0.082870 0.245720
0.078900 0.082277 0.243909
0.079612 0.081815 0.242484
0.080395 0.081437 0.241303
0.081272 0.081165 0.240431
0.082113 0.080864 0.239470
0.082904 0.080523 0.238387
0.083628 0.080127 0.237137
0.084470 0.079852 0.236242
0.085327 0.079600 0.235407
0.086032 0.079214 0.234172
0.086865 0.078953 0.233305
0.087574 0.078588 0.232123
0.088192 0.078152 0.230725
0.088999 0.077891 0.229840
0.089506 0.077378 0.228207
0.090351 0.077165 0.227454
0.090859 0.076673 0.225872
0.091605 0.076392 0.224903
0.092668 0.076378 0.224717
0.093030 0.075792 0.222844
0.093641 0.075421 0.221594
0.094373 0.075155 0.220646
0.095010 0.074819 0.219488
0.095459 0.074344 0.217915
0.095988 0.073942 0.216549
0.096683 0.073674 0.215570
0.097395 0.073425 0.214637
0.097914 0.073037 0.213291
0.098597 0.072779 0.212316
0.098942 0.072278 0.210627
0.098366 0.071121 0.207021
0.098754 0.070678 0.205488
0.099271 0.070336 0.204238
0.099698 0.069936 0.202816
0.100242 0.069626 0.201644
0.100806 0.069336 0.200519
0.101610 0.069215 0.199873
0.102400 0.069086 0.199194
0.103372 0.069081 0.198861
0.104209 0.068987 0.198255
0.106604 0.069916 0.200575
0.108939 0.070789 0.202707
-1.016340 0.655552 1.865025
-0.991365 0.645187 1.838729
-0.983106 0.645614 1.843009
-0.962542 0.637893 1.823877
-0.951107 0.636137 1.821638
-0.943025 0.636611 1.825669
-1.253571 0.879042 2.534224
-1.260982 0.892891 2.577184
-1.228220 0.878285 2.537889
-1.217183 0.879079 2.542927
-1.116652 0.822901 2.385224
-1.106336 0.823688 2.389755
-1.084727 0.815998 2.369571
-1.076744 0.818504 2.378887
-0.791657 0.635170 1.852916
-0.780414 0.633174 1.848271
-0.765125 0.627813 1.833731
-0.768256 0.637618 1.863436
-0.752729 0.631986 1.847978
-0.349530 0.311555 0.913098
-0.345607 0.311905 0.914471
-0.338168 0.309049 0.906422
-0.329049 0.304567 0.893572
-0.324085 0.303864 0.891785
-0.319114 0.303136 0.889905
-0.313181 0.301463 0.885229
-0.309370 0.301815 0.886480
-0.305116 0.301738 0.886455
-0.301326 0.302125 0.887777
-0.298675 0.303682 0.892520
-0.297147 0.306440 0.900781
-0.296900 0.310620 0.913208
-0.291764 0.309732 0.910723
-0.290372 0.312851 0.920008
-0.285414 0.312165 0.918088
-0.280294 0.311278 0.915565
-0.276495 0.311854 0.917331
-0.269717 0.309035 0.909096
-0.265986 0.309673 0.911019
-0.261678 0.309648 0.910982
-0.261792 0.314943 0.926587
-0.254211 0.311004 0.915011
-0.248629 0.309417 0.910346
-0.242954 0.307657 0.905163
-0.237102 0.305604 0.899111
-0.230316 0.302253 0.889230
-0.225210 0.301024 0.885584
-0.219266 0.298606 0.878434
-0.213892 0.296888 0.873336
-0.208338 0.294848 0.867282
-0.200916 0.290028 0.853051
-0.192642 0.283759 0.834551
-0.187605 0.282095 0.829592
-0.182061 0.279584 0.822136
-0.175469 0.275317 0.809518
-0.168560 0.270354 0.794849
-0.161885 0.265548 0.780639
-0.157126 0.263736 0.775231
-0.153005 0.262934 0.772792
-0.147919 0.260393 0.765237
-0.142711 0.257507 0.756670
-0.137673 0.254787 0.748587
-0.133223 0.253040 0.743365
-0.127640 0.248991 0.731379
-0.123035 0.246676 0.724488
-0.118927 0.245255 0.720222
-0.115074 0.244291 0.717299
-0.110680 0.242086 0.710734
-0.105014 0.236874 0.695342
-0.101805 0.237048 0.695760
-0.056030 0.134814 0.395642
-0.054759 0.136301 0.399953
-0.053218 0.137201 0.402544
-0.051436 0.137520 0.403425
-0.052100 0.144660 0.424316
-0.050126 0.144749 0.424523
-0.048634 0.146300 0.429018
-0.048013 0.150718 0.441918
-0.046268 0.151850 0.445183
-0.043988 0.151250 0.443372
-0.042588 0.153767 0.450696
-0.040827 0.155176 0.454774
-0.038553 0.154690 0.453297
-0.036325 0.154335 0.452207
-0.034284 0.154784 0.453475
-0.032138 0.154790 0.453445
-0.029877 0.154202 0.451677
-0.027648 0.153699 0.450160
-0.025316 0.152496 0.446596
-0.022911 0.150591 0.440976
-0.020802 0.150451 0.440527
-0.018369 0.147665 0.432335
-0.016108 0.145750 0.426694
-0.013952 0.144360 0.422596
-0.011812 0.142709 0.417731
-0.009761 0.141670 0.414665
-0.007807 0.141890 0.415283
-0.005796 0.140867 0.412264
-0.003817 0.139992 0.409682
-0.001873 0.139863 0.409284
0.000068 0.139869 0.409286
0.001634 0.113768 0.332894
0.003184 0.112744 0.329887
0.004739 0.112508 0.329187
0.006304 0.112565 0.329345
0.007859 0.112459 0.329028
0.009395 0.112162 0.328151
0.010929 0.111925 0.327453
0.012466 0.111772 0.327005
0.013955 0.111273 0.325544
0.015453 0.110937 0.324559
0.016898 0.110311 0.322729
0.018369 0.109947 0.321667
0.019762 0.109210 0.319513
0.021164 0.108623 0.317800
0.022544 0.108009 0.316009
0.023965 0.107651 0.314969
0.025310 0.107019 0.313128
0.026736 0.106777 0.312427
0.028115 0.106381 0.311278
0.029478 0.105970 0.310085
0.030945 0.105952 0.310044
0.032204 0.105258 0.308024
0.033405 0.104440 0.305641
0.034742 0.104098 0.304654
0.036177 0.104066 0.304574
0.037474 0.103655 0.303382
0.038781 0.103301 0.302360
0.039852 0.102365 0.299636
0.040913 0.101468 0.297024
0.041915 0.100491 0.294176
0.043365 0.100615 0.294553
0.044647 0.100353 0.293800
0.045742 0.099700 0.291901
0.046895 0.099208 0.290474
0.047972 0.098587 0.288668
0.048996 0.097894 0.286651
0.050109 0.097412 0.285251
0.050977 0.096492 0.282567
0.052066 0.096027 0.281215
0.053038 0.095374 0.279314
0.054000 0.094735 0.277450
0.055140 0.094431 0.276567
0.056078 0.093805 0.274739
0.056951 0.093099 0.272676
0.057881 0.092516 0.270973
0.058906 0.092108 0.269778
0.059920 0.091699 0.268581
0.060917 0.091282 0.267358
0.061796 0.090708 0.265675
0.062701 0.090195 0.264167
0.063579 0.089663 0.262604
0.064650 0.089419 0.261881
0.065630 0.089060 0.260819
0.066402 0.088439 0.258987
0.067267 0.087961 0.257571
0.068236 0.087634 0.256595
0.069068 0.087145 0.255143
0.069937 0.086719 0.253872
0.070833 0.086339 0.252735
0.071790 0.086046 0.251849
0.072756 0.085773 0.251017
0.073638 0.085411 0.249923
0.074618 0.085173 0.249190
0.075594 0.084938 0.248459
0.076478 0.084607 0.247447
0.077272 0.084188 0.246173
0.078063 0.083780 0.244927
0.078570 0.083082 0.242831
0.079395 0.082736 0.241759
0.080300 0.082482 0.240953
0.081050 0.082078 0.239706
0.081915 0.081801 0.238823
0.082825 0.081574 0.238084
0.083622 0.081245 0.237041
0.084438 0.080942 0.236070
0.085032 0.080437 0.234506
0.086084 0.080373 0.234221
0.086505 0.079729 0.232242
0.087109 0.079268 0.230793
0.088034 0.079106 0.230210
0.088721 0.078737 0.229018
0.089444 0.078409 0.227939
0.090372 0.078266 0.227392
0.090723 0.077633 0.225418
0.091564 0.077429 0.224681
0.092345 0.077180 0.223809
0.092659 0.076549 0.221825
0.093365 0.076254 0.220808
0.094027 0.075930 0.219699
0.094620 0.075558 0.218447
0.095053 0.075068 0.216845
0.095502 0.074600 0.215303
0.096261 0.074382 0.214474
0.096826 0.074021 0.213225
0.097404 0.073677 0.212017
0.098008 0.073359 0.210878
0.098365 0.072865 0.209226
0.097778 0.071689 0.205608
0.098310 0.071349 0.204385
0.098925 0.071074 0.203340
0.099132 0.070515 0.201474
0.099864 0.070337 0.200687
0.100417 0.070038 0.199543
0.101132 0.069855 0.198724
0.102115 0.069861 0.198426
0.102913 0.069740 0.197756
0.104051 0.069849 0.197726
0.107073 0.071209 0.201215
0.110742 0.072971 0.205807
-1.020258 0.667237 1.870036
-0.989682 0.653055 1.833542
-0.958814 0.638423 1.795511
-0.966768 0.649609 1.829955
-0.950530 0.644598 1.818678
-0.935196 0.640111 1.808729
-1.260946 0.896518 2.546938
-1.250322 0.897661 2.553269
-1.232512 0.893618 2.544710
-1.195249 0.875251 2.495164
-1.190121 0.880282 2.512163
-1.084684 0.818806 2.341349
-1.067874 0.814499 2.331185
-1.050220 0.809451 2.318779
-0.778671 0.640552 1.843193
-0.764867 0.636336 1.832207
-0.759555 0.639170 1.841459
-0.744829 0.634056 1.827753
-0.736973 0.634740 1.830698
-0.345254 0.315922 0.913224
-0.337732 0.312947 0.904960
-0.328326 0.308128 0.891336
-0.326823 0.310697 0.899060
-0.319159 0.307399 0.889788
-0.313372 0.305846 0.885541
-0.314957 0.311542 0.902272
-0.309627 0.310462 0.899360
-0.305070 0.310138 0.898623
-0.309847 0.319427 0.925726
-0.305829 0.319785 0.926938
-0.302744 0.321143 0.931032
-0.299319 0.322176 0.934167
-0.295239 0.322524 0.935305
-0.291378 0.323126 0.937163
-0.282917 0.318567 0.924039
-0.278158 0.318099 0.922766
-0.271578 0.315500 0.915299
-0.269245 0.317833 0.922126
-0.266226 0.319418 0.926773
-0.260783 0.318100 0.922986
-0.256555 0.318244 0.923430
-0.249218 0.314471 0.912498
-0.243123 0.312158 0.905795
-0.235779 0.308134 0.894114
-0.228958 0.304657 0.884014
-0.222784 0.301930 0.876082
-0.217835 0.300792 0.872752
-0.212222 0.298674 0.866573
-0.206968 0.296991 0.861649
-0.201212 0.294505 0.854390
-0.191885 0.286583 0.831357
-0.184341 0.281052 0.815255
-0.178432 0.277830 0.805850
-0.172818 0.274939 0.797399
-0.168694 0.274342 0.795601
-0.162087 0.269587 0.781742
-0.157611 0.268240 0.777759
-0.153339 0.267182 0.774616
-0.148303 0.264711 0.767374
-0.143373 0.262311 0.760334
-0.138080 0.259106 0.750963
-0.133317 0.256752 0.744056
-0.128391 0.253951 0.735854
-0.123305 0.250668 0.726254
-0.118412 0.247603 0.717289
-0.114670 0.246833 0.714972
-0.110448 0.244953 0.709441
-0.106167 0.242821 0.703179
-0.102922 0.242996 0.703601
-0.056132 0.136947 0.396483
-0.054813 0.138344 0.400478
-0.053315 0.139374 0.403409
-0.051337 0.139176 0.402787
-0.050477 0.142112 0.411236
-0.049734 0.145629 0.421359
-0.049023 0.149534 0.432606
-0.047800 0.152150 0.440122
-0.046133 0.153529 0.444059
-0.044454 0.154996 0.448250
-0.042736 0.156466 0.452451
-0.040742 0.157029 0.454028
-0.038683 0.157390 0.455024
-0.036485 0.157195 0.454411
-0.034371 0.157361 0.454843
-0.032201 0.157276 0.454552
-0.029940 0.156704 0.452856
-0.027755 0.156470 0.452138
-0.025473 0.155609 0.449607
-0.023150 0.154317 0.445836
-0.020934 0.153547 0.443575
-0.018719 0.152621 0.440865
-0.016429 0.150768 0.435477
-0.014048 0.147437 0.425825
-0.011790 0.144486 0.417273
-0.009754 0.143622 0.414752
-0.007813 0.144087 0.416069
-0.005812 0.143363 0.413958
-0.003816 0.142094 0.410272
-0.001871 0.142073 0.410192
0.000074 0.142080 0.410194
0.001671 0.117573 0.339428
0.003178 0.113923 0.328877
0.004729 0.113702 0.328231
0.006286 0.113717 0.328263
0.007834 0.113582 0.327866
0.009363 0.113272 0.326966
0.010900 0.113122 0.326528
0.012425 0.112905 0.325897
0.013912 0.112432 0.324529
0.015404 0.112079 0.323511
0.016793 0.111114 0.320726
0.018288 0.110953 0.320263
0.019757 0.110671 0.319449
0.021154 0.110055 0.317676
0.022547 0.109498 0.316071
0.023965 0.109123 0.314996
0.025307 0.108471 0.313118
0.026690 0.108052 0.311916
0.028036 0.107537 0.310438
0.029397 0.107129 0.309269
0.030763 0.106778 0.308263
0.032051 0.106196 0.306593
0.033366 0.105752 0.305323
0.034690 0.105372 0.304235
0.036058 0.105150 0.303607
0.037392 0.104851 0.302753
0.038652 0.104374 0.301388
0.039813 0.103671 0.299370
0.040936 0.102923 0.297223
0.042126 0.102386 0.295683
0.043359 0.101985 0.294536
0.044635 0.101708 0.293749
0.045841 0.101292 0.292558
0.046980 0.100757 0.291024
0.048021 0.100047 0.288984
0.049079 0.099412 0.287159
0.050096 0.098730 0.285198
0.051121 0.098100 0.283386
0.052249 0.097694 0.282221
0.053296 0.097159 0.280682
0.054191 0.096382 0.278443
0.054975 0.095448 0.275749
0.056096 0.095130 0.274833
0.057081 0.094599 0.273302
0.058000 0.093985 0.271529
0.058984 0.093502 0.270131
0.060040 0.093151 0.269116
0.060922 0.092549 0.267373
0.061836 0.092020 0.265839
0.062749 0.091510 0.264356
0.063466 0.090740 0.262124
0.064592 0.090574 0.261631
0.065491 0.090101 0.260250
0.066380 0.089632 0.258880
0.067230 0.089127 0.257403
0.068298 0.088925 0.256799
0.069172 0.088482 0.255496
0.070025 0.088027 0.254158
0.070959 0.087688 0.253149
0.071760 0.087199 0.251705
0.072766 0.086971 0.251012
0.073632 0.086585 0.249859
0.074442 0.086147 0.248554
0.075480 0.085981 0.248030
0.076378 0.085664 0.247068
0.077149 0.085217 0.245724
0.078129 0.085010 0.245072
0.078952 0.084641 0.243947
0.079688 0.084190 0.242584
0.080245 0.083565 0.240717
0.081117 0.083282 0.239830
0.081983 0.083000 0.238941
0.082838 0.082715 0.238040
0.083592 0.082339 0.236869
0.084498 0.082120 0.236150
0.085295 0.081802 0.235139
0.086130 0.081529 0.234252
0.086960 0.081257 0.233366
0.087482 0.080708 0.231677
0.088009 0.080178 0.230038
0.088716 0.079822 0.228895
0.089575 0.079610 0.228157
0.090114 0.079122 0.226626
0.090461 0.078480 0.224645
0.091277 0.078254 0.223851
0.091736 0.077731 0.222202
0.092419 0.077407 0.221116
0.093120 0.077106 0.220090
0.093947 0.076915 0.219369
0.094469 0.076481 0.217949
0.094863 0.075954 0.216258
0.095289 0.075464 0.214668
0.096104 0.075288 0.213963
0.096702 0.074948 0.212785
0.097171 0.074517 0.211339
0.097818 0.074230 0.210295
0.097621 0.073314 0.207463
0.098296 0.073066 0.206514
0.098130 0.072203 0.203821
0.098328 0.071623 0.201921
0.098945 0.071357 0.200898
0.099575 0.071104 0.199904
0.100284 0.070913 0.199070
0.100981 0.070716 0.198212
0.101738 0.070566 0.197471
0.102906 0.070699 0.197512
0.104224 0.070933 0.197817
0.108637 0.073249 0.203901
0.109541 0.073178 0.203313
-1.019861 0.676133 1.867054
-0.997849 0.667483 1.846515
-0.973494 0.657095 1.820944
-0.978112 0.666253 1.849406
-0.956187 0.657335 1.827569
-0.951244 0.660033 1.837888
-1.244122 0.896698 2.510709
-1.253874 0.912568 2.558311
-1.230813 0.904635 2.539079
-1.219703 0.905417 2.544156
-1.189312 0.891757 2.508496
-1.178381 0.892561 2.513364
-1.101412 0.842846 2.375728
-1.091500 0.843946 2.381088
-1.074798 0.839765 2.371439
-1.064529 0.840575 2.375781
-0.780462 0.650837 1.846434
-0.772504 0.651511 1.849540
-0.764535 0.652192 1.852609
-0.750277 0.647461 1.840243
-0.727993 0.635613 1.807565
-0.338512 0.317976 0.906739
-0.334487 0.318220 0.907764
-0.325742 0.313921 0.895808
-0.319975 0.312416 0.891801
-0.318628 0.315245 0.900146
-0.315933 0.316799 0.904836
-0.307583 0.312647 0.893207
-0.308998 0.318445 0.909986
-0.304082 0.317788 0.908311
-0.299138 0.317084 0.906479
-0.298821 0.321336 0.918804
-0.294041 0.320842 0.917546
-0.288117 0.319067 0.912606
-0.285730 0.321214 0.918873
-0.286067 0.326538 0.934215
-0.280092 0.324710 0.929083
-0.272977 0.321482 0.919930
-0.261756 0.313237 0.896408
-0.265877 0.323381 0.925498
-0.254586 0.314807 0.901007
-0.251830 0.316674 0.906389
-0.248010 0.317245 0.908051
-0.241645 0.314525 0.900281
-0.235240 0.311654 0.892071
-0.228879 0.308738 0.883723
-0.222298 0.305412 0.874195
-0.217186 0.304018 0.870187
-0.212490 0.303162 0.867714
-0.206882 0.300949 0.861347
-0.201266 0.298634 0.854685
-0.195261 0.295636 0.846060
-0.188058 0.290661 0.831776
-0.180762 0.285329 0.816464
-0.174730 0.281804 0.806323
-0.168468 0.277742 0.794641
-0.161884 0.272954 0.780877
-0.157489 0.271719 0.777278
-0.152561 0.269484 0.770817
-0.147708 0.267278 0.764434
-0.142948 0.265132 0.758222
-0.138025 0.262567 0.750812
-0.132950 0.259572 0.742169
-0.128230 0.257125 0.735094
-0.123108 0.253714 0.725265
-0.118414 0.251016 0.717473
-0.114780 0.250474 0.715841
-0.110339 0.248084 0.708929
-0.106253 0.246366 0.703941
-0.103004 0.246542 0.704362
-0.056545 0.139856 0.399516
-0.055116 0.141026 0.402812
-0.053677 0.142254 0.406271
-0.051655 0.141972 0.405419
-0.050458 0.144021 0.411221
-0.049646 0.147379 0.420761
-0.051094 0.158005 0.451047
-0.048545 0.156655 0.447143
-0.047337 0.159711 0.455815
-0.045080 0.159351 0.454736
-0.043089 0.159940 0.456367
-0.041148 0.160791 0.458748
-0.038874 0.160357 0.457462
-0.036583 0.159803 0.455835
-0.034340 0.159401 0.454644
-0.032193 0.159423 0.454661
-0.029962 0.158998 0.453407
-0.027738 0.158556 0.452105
-0.025502 0.157957 0.450358
-0.023270 0.157281 0.448394
-0.021010 0.156261 0.445449
-0.018763 0.155129 0.442188
-0.016633 0.154789 0.441184
-0.014300 0.152200 0.433774
-0.012010 0.149274 0.425407
-0.009721 0.145192 0.413748
-0.007825 0.146382 0.417116
-0.005833 0.145988 0.415971
-0.003821 0.144456 0.411584
-0.001879 0.145137 0.413504
0.000081 0.145144 0.413506
0.001651 0.117437 0.334556
0.003206 0.116299 0.331304
0.004735 0.115293 0.328428
0.006289 0.115241 0.328270
0.007832 0.115034 0.327672
0.009366 0.114794 0.326982
0.010894 0.114558 0.326305
0.012411 0.114281 0.325512
0.013909 0.113903 0.324432
0.015407 0.113606 0.323583
0.016839 0.112913 0.321609
0.018269 0.112327 0.319939
0.019745 0.112089 0.319265
0.021127 0.111392 0.317282
0.022547 0.110974 0.316095
0.023952 0.110536 0.314851
0.025325 0.110013 0.313367
0.026691 0.109517 0.311959
0.027996 0.108835 0.310023
0.029357 0.108432 0.308881
0.030697 0.107991 0.307632
0.032083 0.107741 0.306929
0.033434 0.107403 0.305974
0.034722 0.106900 0.304550
0.036116 0.106748 0.304126
0.037492 0.106556 0.303591
0.038698 0.105915 0.301772
0.039717 0.104826 0.298679
0.040865 0.104140 0.296736
0.042131 0.103790 0.295747
0.043390 0.103445 0.294775
0.044589 0.102983 0.293467
0.045735 0.102430 0.291900
0.046976 0.102118 0.291018
0.047894 0.101139 0.288238
0.049050 0.100706 0.287009
0.050038 0.099958 0.284884
0.051026 0.099250 0.282873
0.052156 0.098847 0.281730
0.053035 0.098000 0.279318
0.054007 0.097361 0.277501
0.055073 0.096919 0.276244
0.056086 0.096406 0.274783
0.057124 0.095959 0.273507
0.058135 0.095487 0.272160
0.059156 0.095051 0.270914
0.060125 0.094552 0.269486
0.061069 0.094036 0.268008
0.061824 0.093256 0.265776
0.062707 0.092695 0.264166
0.063632 0.092217 0.262793
0.064523 0.091709 0.261331
0.065441 0.091259 0.260029
0.066247 0.090671 0.258335
0.067280 0.090409 0.257567
0.068135 0.089922 0.256157
0.069112 0.089611 0.255242
0.069866 0.089025 0.253544
0.070929 0.088846 0.253003
0.071680 0.088289 0.251381
0.072577 0.087928 0.250314
0.073407 0.087497 0.249046
0.074243 0.087087 0.247835
0.075268 0.086909 0.247279
0.076221 0.086655 0.246503
0.076960 0.086168 0.245062
0.077744 0.085745 0.243800
0.078220 0.084999 0.241616
0.079095 0.084703 0.240707
0.080107 0.084560 0.240230
0.080891 0.084183 0.239083
0.081673 0.083815 0.237957
0.082696 0.083700 0.237546
0.083521 0.083391 0.236579
0.084328 0.083073 0.235582
0.085323 0.082946 0.235121
0.086032 0.082547 0.233885
0.086873 0.082284 0.233028
0.087660 0.081976 0.232040
0.088371 0.081606 0.230872
0.089067 0.081231 0.229683
0.089671 0.080783 0.228282
0.090291 0.080360 0.226947
0.090800 0.079848 0.225357
0.091334 0.079371 0.223858
0.091873 0.078909 0.222397
0.092404 0.078451 0.220941
0.093054 0.078103 0.219789
0.093834 0.077871 0.218957
0.094380 0.077452 0.217591
0.094936 0.077049 0.216267
0.095213 0.076433 0.214334
0.095663 0.075966 0.212815
0.096472 0.075791 0.212109
0.097067 0.075453 0.210938
0.097234 0.074794 0.208859
0.098220 0.074771 0.208552
0.097526 0.073483 0.204708
0.098193 0.073236 0.203759
0.098368 0.072630 0.201805
0.098654 0.072118 0.200102
0.099459 0.071991 0.199460
0.100298 0.071891 0.198881
0.101005 0.071698 0.198035
0.101951 0.071678 0.197654
0.103222 0.071885 0.197881
0.107220 0.073968 0.203250
0.109006 0.074501 0.204330
0.111068 0.075211 0.205874
-1.017482 0.683691 1.860370
-0.997143 0.676044 1.842978
-0.978666 0.669532 1.828476
-0.985956 0.680691 1.862126
-0.975561 0.679736 1.862556
-0.954779 0.671458 1.842762
-1.243388 0.908305 2.506898
-1.204967 0.888850 2.456316
-1.199635 0.893660 2.472611
-1.187823 0.893692 2.475578
-1.161034 0.882343 2.446866
-1.150340 0.883120 2.451632
-1.109451 0.860494 2.391255
-1.090699 0.854747 2.377599
-1.077051 0.852921 2.374732
-1.039777 0.832148 2.318959
-1.029720 0.832947 2.323156
-0.771821 0.659751 1.846902
-0.762432 0.659206 1.846547
-0.745962 0.652456 1.828743
-0.738069 0.653137 1.831700
-0.325394 0.317832 0.894554
-0.316602 0.313310 0.882125
-0.318277 0.319164 0.898889
-0.310015 0.328378 0.925820
-0.305986 0.328737 0.927032
-0.304894 0.332308 0.937290
-0.300394 0.332215 0.937197
-0.296403 0.332690 0.938694
-0.290967 0.331535 0.935574
-0.285708 0.330548 0.932914
-0.279736 0.328693 0.927789
-0.272626 0.325420 0.918649
-0.267182 0.324063 0.914901
-0.262782 0.323950 0.914653
-0.255801 0.320597 0.905247
-0.251869 0.321016 0.906481
-0.246430 0.319498 0.902232
-0.238925 0.315200 0.890123
-0.233245 0.313200 0.884494
-0.226963 0.310305 0.876327
-0.221499 0.308441 0.871064
-0.215983 0.306434 0.865388
-0.210750 0.304758 0.860641
-0.206066 0.303828 0.857994
-0.200905 0.302141 0.853203
-0.194580 0.298601 0.843173
-0.188513 0.295318 0.833864
-0.183234 0.293155 0.827711
-0.174174 0.284719 0.803844
-0.171376 0.286371 0.808456
-0.161762 0.276450 0.780392
-0.156833 0.274261 0.774153
-0.152362 0.272787 0.769932
-0.147864 0.271194 0.765370
-0.143236 0.269274 0.759885
-0.138593 0.267229 0.754044
-0.133879 0.264936 0.747502
-0.128882 0.261944 0.738989
-0.123149 0.257248 0.725666
-0.118374 0.254342 0.717396
-0.115136 0.254665 0.718232
-0.110718 0.252319 0.711539
-0.106438 0.250152 0.705352
-0.056448 0.141516 0.398944
-0.054594 0.141593 0.399118
-0.053169 0.142826 0.402550
-0.051973 0.144789 0.408038
-0.051003 0.159873 0.450399
-0.048921 0.160022 0.450768
-0.047983 0.164100 0.462208
-0.045738 0.163886 0.461554
-0.043329 0.163027 0.459089
-0.041290 0.163548 0.460510
-0.039144 0.163681 0.460838
-0.036733 0.162653 0.457899
-0.034468 0.162187 0.456542
-0.032229 0.161788 0.455377
-0.029957 0.161156 0.453558
-0.027756 0.160836 0.452618
-0.025541 0.160375 0.451282
-0.023329 0.159853 0.449777
-0.021084 0.158981 0.447288
-0.018885 0.158295 0.445323
-0.016701 0.157583 0.443290
-0.014445 0.155893 0.438505
-0.012130 0.152886 0.430017
-0.009800 0.148444 0.417500
-0.007807 0.148143 0.416629
-0.005831 0.148069 0.416397
-0.003826 0.146834 0.412904
-0.001864 0.146391 0.411639
0.000089 0.150107 0.422068
0.001653 0.118815 0.334069
0.003200 0.117475 0.330290
0.004742 0.116906 0.328680
0.006278 0.116492 0.327505
0.007847 0.116742 0.328201
0.009366 0.116289 0.326921
0.010893 0.116048 0.326236
0.012394 0.115621 0.325030
0.013915 0.115453 0.324555
0.015410 0.115126 0.323633
0.016855 0.114515 0.321916
0.018344 0.114282 0.321258
0.019798 0.113881 0.320133
0.021204 0.113284 0.318455
0.022616 0.112791 0.317071
0.024012 0.112289 0.315664
0.025283 0.111294 0.312871
0.026583 0.110529 0.310723
0.027974 0.110200 0.309803
0.029335 0.109794 0.308669
0.030681 0.109375 0.307495
0.032064 0.109117 0.306778
0.033429 0.108822 0.305955
0.034694 0.108240 0.304326
0.036044 0.107961 0.303550
0.037395 0.107704 0.302835
0.038674 0.107267 0.301614
0.039660 0.106076 0.298273
0.040860 0.105522 0.296721
0.041988 0.104822 0.294761
0.043168 0.104295 0.293287
0.044442 0.104019 0.292519
0.045670 0.103656 0.291505
0.046843 0.103194 0.290209
0.047919 0.102549 0.288403
0.048986 0.101923 0.286646
0.050012 0.101246 0.284747
0.050911 0.100355 0.282244
0.052088 0.100041 0.281365
0.053249 0.099716 0.280452
0.054090 0.098820 0.277932
0.055053 0.098185 0.276146
0.056150 0.097813 0.275097
0.057092 0.097194 0.273352
0.058061 0.096647 0.271808
0.059033 0.096128 0.270342
0.060029 0.095670 0.269046
0.060890 0.095019 0.267206
0.061700 0.094318 0.265223
0.062672 0.093888 0.264001
0.063631 0.093455 0.262767
0.064512 0.092926 0.261261
0.065377 0.092394 0.259746
0.066395 0.092094 0.258880
0.067191 0.091504 0.257195
0.068098 0.091082 0.255982
0.069063 0.090751 0.255022
0.069849 0.090199 0.253439
0.070693 0.089741 0.252115
0.071470 0.089214 0.250598
0.072278 0.088742 0.249230
0.073216 0.088443 0.248345
0.073993 0.087962 0.246944
0.074901 0.087648 0.246012
0.075939 0.087495 0.245526
0.076735 0.087071 0.244278
0.077701 0.086850 0.243593
0.078639 0.086604 0.242837
0.079295 0.086059 0.241238
0.079882 0.085456 0.239472
0.080793 0.085213 0.238710
0.081663 0.084932 0.237840
0.082530 0.084656 0.236979
0.083333 0.084324 0.235954
0.084220 0.084083 0.235181
0.084991 0.083734 0.234102
0.085849 0.083479 0.233279
0.086654 0.083180 0.232329
0.087336 0.082772 0.231067
0.088121 0.082470 0.230099
0.088711 0.081996 0.228644
0.089351 0.081578 0.227342
0.089655 0.080867 0.225217
0.090313 0.080489 0.224014
0.091241 0.080358 0.223494
0.091705 0.079825 0.221848
0.092139 0.079279 0.220161
0.092759 0.078903 0.218942
0.093404 0.078557 0.217798
0.094037 0.078209 0.216642
0.094585 0.077798 0.215304
0.095170 0.077426 0.214068
0.095533 0.076884 0.212354
0.095950 0.076395 0.210783
0.096757 0.076225 0.210082
0.096930 0.075563 0.208019
0.097079 0.074897 0.205936
0.097681 0.074591 0.204837
0.098009 0.074082 0.203175
0.098218 0.073495 0.201290
0.098548 0.073009 0.199675
0.099255 0.072810 0.198834
0.100103 0.072717 0.198270
0.101026 0.072679 0.197845
0.102243 0.072851 0.197980
0.103199 0.072836 0.197590
0.106585 0.074520 0.201786
0.108208 0.074951 0.202565
0.109737 0.075310 0.203127
-1.026023 0.698644 1.873559
-0.998410 0.685949 1.843007
-0.983087 0.681544 1.834508
-0.994408 0.695701 1.875885
-0.978073 0.690593 1.865231
-0.964709 0.687507 1.859880
-1.220903 0.903797 2.459190
-1.210016 0.904501 2.464307
-1.220073 0.921030 2.512468
-1.202606 0.916905 2.504201
-1.181816 0.910138 2.488561
-1.144089 0.890057 2.436319
-1.099960 0.864533 2.368930
-1.083426 0.860393 2.359947
-1.065375 0.854949 2.347260
-1.041727 0.844850 2.321658
-1.024887 0.840115 2.310667
-1.027035 0.851013 2.342595
-0.759882 0.658226 1.817297
-0.763003 0.668517 1.846920
-0.762598 0.675921 1.868543
-0.318378 0.346623 0.964351
-0.306598 0.338633 0.942324
-0.302832 0.339389 0.944612
-0.293886 0.334277 0.930552
-0.294527 0.340078 0.946856
-0.286752 0.336192 0.936177
-0.275567 0.328124 0.913831
-0.272276 0.329348 0.917352
-0.267290 0.328530 0.915168
-0.261983 0.327284 0.911781
-0.257102 0.326538 0.909775
-0.253112 0.326917 0.910892
-0.247138 0.324702 0.904771
-0.238531 0.318890 0.888616
-0.232484 0.316355 0.881582
-0.226351 0.313609 0.873948
-0.220372 0.310978 0.866629
-0.214361 0.308203 0.858897
-0.210048 0.307808 0.857794
-0.204458 0.305491 0.851325
-0.198761 0.302918 0.844138
-0.194368 0.302269 0.842304
-0.188432 0.299143 0.833562
-0.183555 0.297601 0.829231
-0.175379 0.290527 0.809479
-0.171393 0.290235 0.808620
-0.160492 0.277954 0.774358
-0.157529 0.279168 0.777688
-0.152741 0.277130 0.771958
-0.147949 0.274985 0.765925
-0.143471 0.273332 0.761260
-0.138843 0.271299 0.755534
-0.133873 0.268475 0.747605
-0.129202 0.266115 0.740967
-0.123834 0.262147 0.729852
-0.118930 0.258964 0.720923
-0.114709 0.257124 0.715730
-0.110444 0.255072 0.709949
-0.106144 0.252808 0.703574
-0.056906 0.144580 0.402291
-0.055044 0.144676 0.402516
-0.054064 0.147182 0.409446
-0.051882 0.146478 0.407446
-0.049988 0.146567 0.407651
-0.051378 0.163216 0.453862
-0.049624 0.164507 0.457405
-0.047738 0.165461 0.460010
-0.046011 0.167082 0.464472
-0.043730 0.166754 0.463515
-0.041556 0.166821 0.463657
-0.039180 0.166042 0.461448
-0.036852 0.165388 0.459586
-0.034552 0.164781 0.457857
-0.032345 0.164568 0.457224
-0.030143 0.164353 0.456587
-0.027938 0.164091 0.455822
-0.025778 0.164064 0.455709
-0.023527 0.163409 0.453854
-0.021302 0.162814 0.452168
-0.019079 0.162109 0.450175
-0.016844 0.161114 0.447382
-0.014540 0.159072 0.441683
-0.012200 0.155899 0.432844
-0.009893 0.151932 0.421804
-0.007913 0.152274 0.422730
-0.005906 0.152153 0.422372
-0.003879 0.151085 0.419385
-0.001893 0.151126 0.419479
0.000095 0.151841 0.421447
0.002091 0.151845 0.421441
0.003224 0.119747 0.332343
0.004730 0.118045 0.327608
0.006274 0.117872 0.327118
0.007851 0.118283 0.328250
0.009366 0.117768 0.326812
0.010892 0.117529 0.326143
0.012423 0.117389 0.325748
0.013919 0.116981 0.324612
0.015405 0.116584 0.323508
0.016819 0.115760 0.321218
0.018210 0.114925 0.318901
0.019688 0.114731 0.318361
0.021141 0.114426 0.317515
0.022511 0.113740 0.315612
0.023961 0.113520 0.315004
0.025259 0.112649 0.312589
0.026565 0.111903 0.310523
0.027884 0.111290 0.308824
0.029237 0.110870 0.307664
0.030594 0.110501 0.306643
0.031967 0.110220 0.305869
0.033263 0.109708 0.304455
0.034562 0.109252 0.303195
0.035836 0.108752 0.301813
0.037219 0.108613 0.301431
0.038568 0.108384 0.300803
0.039662 0.107484 0.298309
0.040863 0.106923 0.296758
0.042038 0.106334 0.295129
0.043233 0.105833 0.293744
0.044343 0.105160 0.291882
0.045577 0.104813 0.290922
0.046769 0.104393 0.289760
0.047874 0.103808 0.288139
0.048969 0.103234 0.286549
0.050031 0.102623 0.284857
0.051138 0.102136 0.283503
0.052169 0.101524 0.281804
0.053346 0.101219 0.280958
0.054208 0.100347 0.278535
0.055202 0.099755 0.276887
0.056184 0.099168 0.275255
0.057153 0.098587 0.273635
0.058128 0.098041 0.272111
0.058857 0.097111 0.269522
0.059940 0.096794 0.268629
0.060748 0.096054 0.266565
0.061527 0.095301 0.264460
0.062486 0.094850 0.263191
0.063450 0.094425 0.261993
0.064266 0.093798 0.260233
0.065302 0.093512 0.259415
0.066103 0.092905 0.257706
0.067179 0.092700 0.257108
0.067997 0.092153 0.255561
0.068950 0.091804 0.254560
0.069873 0.091428 0.253481
0.070748 0.091002 0.252262
0.071361 0.090259 0.250161
0.072221 0.089849 0.248977
0.073050 0.089414 0.247723
0.073866 0.088976 0.246459
0.074898 0.088809 0.245939
0.075798 0.088492 0.245003
0.076697 0.088183 0.244084
0.077639 0.087932 0.243324
0.078583 0.087690 0.242584
0.079519 0.087448 0.241838
0.080333 0.087079 0.240739
0.080985 0.086549 0.239187
0.081630 0.086025 0.237652
0.082605 0.085858 0.237098
0.083333 0.085443 0.235852
0.084110 0.085087 0.234769
0.084980 0.084835 0.233963
0.085732 0.084473 0.232851
0.086574 0.084206 0.231998
0.087232 0.083771 0.230674
0.087953 0.083406 0.229539
0.088567 0.082949 0.228145
0.089244 0.082562 0.226937
0.090028 0.082282 0.226020
0.090768 0.081969 0.225004
0.091351 0.081523 0.223617
0.091587 0.080781 0.221415
0.092153 0.080344 0.220044
0.092757 0.079950 0.218781
0.093395 0.079593 0.217617
0.093977 0.079197 0.216338
0.094667 0.078899 0.215319
0.095134 0.078425 0.213811
0.095603 0.077962 0.212329
0.096109 0.077538 0.210948
0.096650 0.077152 0.209659
0.097215 0.076792 0.208436
0.097360 0.076111 0.206333
0.097726 0.075616 0.204727
0.098169 0.075189 0.203298
0.098419 0.074624 0.201489
0.098905 0.074247 0.200178
0.099602 0.074035 0.199302
0.100469 0.073952 0.198761
0.101564 0.074037 0.198659
0.102604 0.074079 0.198431
0.103887 0.074296 0.198651
0.106348 0.075341 0.201068
0.108656 0.076261 0.203122
0.110011 0.076501 0.203343
-1.025663 0.707610 1.870389
-0.999918 0.696046 1.843394
-0.975008 0.684859 1.817146
-0.988035 0.700359 1.861595
-0.969718 0.693724 1.847119
-0.958703 0.692237 1.846192
-0.968510 0.705900 1.885600
-1.204532 0.903437 2.423785
-1.216565 0.921389 2.475243
-1.205600 0.922107 2.480335
-1.202407 0.928843 2.501515
-1.178341 0.919430 2.479067
-1.156908 0.911900 2.461526
-1.114407 0.887440 2.398075
-1.089626 0.876728 2.371569
-1.080959 0.878894 2.379769
-1.070568 0.879691 2.384168
-1.026153 0.852247 2.311867
-1.026212 0.861546 2.339103
-0.775618 0.680718 1.853824
-0.767575 0.681392 1.856921
-0.760755 0.683180 1.862996
-0.325452 0.349036 0.957679
-0.322997 0.351278 0.964089
-0.318002 0.350783 0.962970
-0.315166 0.352690 0.968426
-0.307729 0.349429 0.959677
-0.298837 0.344393 0.946031
-0.300055 0.351034 0.964446
-0.289118 0.343439 0.943735
-0.281280 0.339347 0.932627
-0.279988 0.343148 0.943200
-0.267923 0.333655 0.917217
-0.262658 0.332459 0.914026
-0.257986 0.331987 0.912811
-0.251637 0.329303 0.905505
-0.247116 0.328960 0.904624
-0.240627 0.325941 0.896373
-0.234183 0.322875 0.887983
-0.228077 0.320173 0.880583
-0.222085 0.317535 0.873349
-0.214989 0.313189 0.861408
-0.209887 0.311635 0.857141
-0.204442 0.309502 0.851274
-0.198395 0.306355 0.842609
-0.192986 0.304085 0.836350
-0.187063 0.300894 0.827553
-0.181988 0.298960 0.822207
-0.176434 0.296138 0.814415
-0.170112 0.291874 0.802651
-0.162820 0.285712 0.785667
-0.157534 0.282868 0.777803
-0.152381 0.280133 0.770236
-0.147912 0.278553 0.765838
-0.142990 0.276017 0.758815
-0.138375 0.273962 0.753110
-0.133706 0.271688 0.746799
-0.128956 0.269123 0.739690
-0.124162 0.266322 0.731928
-0.119017 0.262586 0.721598
-0.115151 0.261533 0.718643
-0.110745 0.259155 0.712042
-0.106629 0.257328 0.706957
-0.103365 0.257505 0.707377
-0.056235 0.144770 0.397652
-0.054882 0.146163 0.401440
-0.053186 0.146711 0.402905
-0.051089 0.146154 0.401337
-0.049808 0.147978 0.406305
-0.054575 0.168634 0.462976
-0.052418 0.168729 0.463191
-0.049774 0.167197 0.458941
-0.048546 0.170500 0.467961
-0.046259 0.170216 0.467140
-0.043828 0.169353 0.464728
-0.041376 0.168314 0.461832
-0.039173 0.168227 0.461551
-0.036850 0.167582 0.459740
-0.034519 0.166820 0.457611
-0.032323 0.166655 0.457120
-0.030165 0.166674 0.457132
-0.027974 0.166500 0.456619
-0.025838 0.166656 0.457011
-0.023656 0.166512 0.456581
-0.021434 0.166030 0.455226
-0.019243 0.165712 0.454322
-0.016835 0.163213 0.447441
-0.014615 0.162068 0.444273
-0.012325 0.159647 0.437608
-0.009997 0.155656 0.426645
-0.007894 0.154020 0.422136
-0.005926 0.154840 0.424363
-0.003906 0.154395 0.423120
-0.001900 0.154212 0.422599
0.000101 0.154070 0.422193
0.002101 0.154074 0.422186
0.003246 0.121948 0.334143
0.004743 0.119790 0.328221
0.006283 0.119506 0.327433
0.007845 0.119674 0.327884
0.009369 0.119290 0.326823
0.010888 0.118967 0.325931
0.012416 0.118815 0.325509
0.013903 0.118345 0.324216
0.015367 0.117786 0.322680
0.016800 0.117115 0.320838
0.018228 0.116520 0.319206
0.019698 0.116269 0.318517
0.021061 0.115465 0.316315
0.022475 0.115026 0.315112
0.023861 0.114509 0.313695
0.025248 0.114059 0.312463
0.026542 0.113257 0.310269
0.027893 0.112772 0.308942
0.029263 0.112407 0.307945
0.030605 0.111976 0.306768
0.031953 0.111603 0.305749
0.033287 0.111217 0.304694
0.034558 0.110658 0.303168
0.035892 0.110342 0.302307
0.037152 0.109829 0.300903
0.038488 0.109568 0.300192
0.039645 0.108836 0.298192
0.040766 0.108058 0.296064
0.041954 0.107505 0.294550
0.043079 0.106830 0.292706
0.044325 0.106487 0.291769
0.045531 0.106073 0.290635
0.046695 0.105589 0.289311
0.047732 0.104852 0.287291
0.048863 0.104355 0.285931
0.050051 0.104007 0.284975
0.051051 0.103294 0.283020
0.052032 0.102581 0.281063
0.053168 0.102199 0.280014
0.054049 0.101359 0.277708
0.055122 0.100912 0.276477
0.056132 0.100371 0.274987
0.057232 0.100013 0.273996
0.058109 0.099289 0.272002
0.058967 0.098566 0.270008
0.059987 0.098136 0.268816
0.060841 0.097460 0.266950
0.061554 0.096589 0.264546
0.062601 0.096267 0.263646
0.063534 0.095786 0.262305
0.064340 0.095136 0.260501
0.065364 0.094825 0.259624
0.066265 0.094351 0.258298
0.067132 0.093847 0.256885
0.068020 0.093390 0.255601
0.068943 0.092995 0.254484
0.069755 0.092467 0.252998
0.070423 0.091770 0.251049
0.071174 0.091201 0.249448
0.071995 0.090740 0.248138
0.072930 0.090435 0.247250
0.073776 0.090031 0.246091
0.074630 0.089648 0.244986
0.075509 0.089309 0.243995
0.076419 0.089013 0.243121
0.077321 0.088718 0.242245
0.078284 0.088502 0.241579
0.079156 0.088189 0.240645
0.079926 0.087773 0.239427
0.080809 0.087491 0.238572
0.081489 0.087001 0.237142
0.082238 0.086597 0.235943
0.083197 0.086420 0.235361
0.083851 0.085937 0.233936
0.084680 0.085642 0.233023
0.085514 0.085362 0.232142
0.086255 0.084996 0.231023
0.087030 0.084672 0.230014
0.087665 0.084222 0.228657
0.088401 0.083878 0.227583
0.089057 0.083469 0.226325
0.089983 0.083318 0.225764
0.090880 0.083145 0.225134
0.091281 0.082527 0.223295
0.091843 0.082068 0.221879
0.092039 0.081296 0.219613
0.092750 0.080991 0.218600
0.093418 0.080655 0.217501
0.093847 0.080124 0.215866
0.094427 0.079731 0.214598
0.095024 0.079360 0.213382
0.095436 0.078845 0.211772
0.095892 0.078377 0.210281
0.096546 0.078079 0.209236
0.097100 0.077706 0.207986
0.097543 0.077254 0.206515
0.097759 0.076632 0.204583
0.097885 0.075954 0.202493
0.098367 0.075561 0.201158
0.099039 0.075322 0.200221
0.099694 0.075075 0.199252
0.100580 0.075003 0.198738
0.101824 0.075199 0.198917
0.103028 0.075360 0.198992
0.104317 0.075580 0.199205
0.106565 0.076484 0.201199
0.108426 0.077096 0.202401
0.110353 0.077743 0.203672
-1.007068 0.703828 1.833927
-0.996449 0.702662 1.834527
-0.978942 0.696575 1.822102
-0.981797 0.704998 1.847507
-0.970701 0.703468 1.846732
-0.957631 0.700465 1.841946
-0.968033 0.714738 1.882513
-1.217334 0.924926 2.447001
-1.202049 0.922247 2.443248
-1.212377 0.939362 2.491849
-1.201649 0.940342 2.497581
-1.164482 0.920444 2.447673
-1.140033 0.910297 2.423481
-1.117677 0.901630 2.403057
-1.093901 0.891626 2.378907
-1.078596 0.888390 2.372671
-1.055960 0.878983 2.349821
-1.042638 0.877212 2.347257
-1.037591 0.882440 2.363337
-0.329531 0.353112 0.955821
-0.325360 0.353482 0.957112
-0.326088 0.359258 0.973030
-0.320435 0.358071 0.970072
-0.314790 0.356857 0.967021
-0.311780 0.358640 0.972074
-0.305341 0.356473 0.966403
-0.298985 0.354339 0.960804
-0.293059 0.352657 0.956415
-0.286899 0.350636 0.951088
-0.279628 0.347173 0.941833
-0.272760 0.344105 0.933635
-0.267303 0.342748 0.930064
-0.261101 0.340373 0.923720
-0.255254 0.338390 0.918423
-0.249026 0.335823 0.911532
-0.241402 0.331253 0.899188
-0.234516 0.327549 0.889186
-0.227007 0.322825 0.876405
-0.220447 0.319302 0.866872
-0.213111 0.314500 0.853861
-0.207308 0.311820 0.846599
-0.202434 0.310460 0.842914
-0.196784 0.307832 0.835780
-0.191533 0.305732 0.830074
-0.186752 0.304313 0.826209
-0.180779 0.300848 0.816785
-0.176120 0.299469 0.813017
-0.171190 0.297555 0.807794
-0.164661 0.292715 0.794622
-0.158067 0.287530 0.780511
-0.153778 0.286391 0.777378
-0.149232 0.284707 0.772765
-0.144147 0.281885 0.765059
-0.139321 0.279438 0.758367
-0.134266 0.276389 0.750042
-0.129794 0.274411 0.744620
-0.124957 0.271527 0.736739
-0.119454 0.266993 0.724379
-0.115270 0.265226 0.719527
-0.110772 0.262607 0.712363
-0.106460 0.260280 0.705991
-0.103200 0.260457 0.706410
-0.056961 0.148557 0.402880
-0.054328 0.146581 0.397484
-0.053911 0.150657 0.408502
-0.051676 0.149770 0.406059
-0.049452 0.148844 0.403512
-0.055793 0.174659 0.473453
-0.053587 0.174756 0.473672
-0.051058 0.173761 0.470933
-0.048250 0.171684 0.465262
-0.046511 0.173394 0.469852
-0.044156 0.172864 0.468375
-0.041593 0.171418 0.464417
-0.039204 0.170575 0.462092
-0.036955 0.170272 0.461232
-0.034663 0.169724 0.459709
-0.032514 0.169850 0.460014
-0.030271 0.169469 0.458944
-0.028179 0.169940 0.460183
-0.025984 0.169818 0.459818
-0.023909 0.170525 0.461700
-0.021670 0.170090 0.460490
-0.019380 0.169121 0.457835
-0.017218 0.169159 0.457907
-0.014600 0.164088 0.444151
-0.012501 0.164117 0.444205
-0.010104 0.159461 0.431576
-0.007921 0.156688 0.424049
-0.005964 0.158011 0.427607
-0.003941 0.158059 0.427717
-0.001900 0.156746 0.424142
0.000109 0.157943 0.427365
0.002133 0.157947 0.427358
0.003227 0.122617 0.331752
0.004740 0.121136 0.327734
0.006269 0.120700 0.326545
0.007811 0.120625 0.326333
0.009345 0.120470 0.325904
0.010871 0.120267 0.325348
0.012379 0.119953 0.324492
0.013881 0.119644 0.323650
0.015368 0.119281 0.322664
0.016767 0.118364 0.320179
0.018156 0.117533 0.317928
0.019633 0.117362 0.317462
0.021050 0.116873 0.316137
0.022430 0.116261 0.314481
0.023868 0.116006 0.313791
0.025186 0.115230 0.311691
0.026582 0.114880 0.310745
0.027843 0.114012 0.308397
0.029062 0.113065 0.305838
0.030285 0.112224 0.303565
0.031698 0.112132 0.303317
0.033115 0.112060 0.303125
0.034431 0.111669 0.302069
0.035757 0.111338 0.301176
0.037068 0.110988 0.300230
0.038336 0.110540 0.299020
0.039561 0.110001 0.297565
0.040673 0.109199 0.295396
0.041922 0.108806 0.294334
0.042960 0.107905 0.291899
0.044179 0.107505 0.290816
0.045418 0.107172 0.289915
0.046508 0.106519 0.288149
0.047674 0.106073 0.286941
0.048803 0.105571 0.285579
0.049964 0.105163 0.284473
0.050870 0.104254 0.282009
0.051956 0.103751 0.280645
0.053118 0.103420 0.279741
0.054186 0.102928 0.278403
0.055122 0.102213 0.276460
0.056101 0.101610 0.274820
0.057099 0.101068 0.273340
0.058067 0.100496 0.271782
0.059090 0.100046 0.270547
0.059875 0.099218 0.268291
0.060963 0.098915 0.267454
0.061602 0.097913 0.264723
0.062695 0.097656 0.264005
0.063495 0.096963 0.262107
0.064448 0.096525 0.260895
0.065389 0.096086 0.259679
0.066160 0.095418 0.257842
0.067031 0.094916 0.256451
0.067969 0.094524 0.255355
0.068915 0.094158 0.254327
0.069696 0.093583 0.252730
0.070433 0.092968 0.251023
0.071069 0.092243 0.249016
0.071948 0.091852 0.247908
0.072952 0.091631 0.247257
0.073804 0.091229 0.246112
0.074676 0.090863 0.245061
0.075547 0.090508 0.244037
0.076454 0.090205 0.243151
0.077277 0.089814 0.242021
0.078199 0.089547 0.241225
0.079036 0.089194 0.240189
0.079885 0.088862 0.239209
0.080761 0.088569 0.238329
0.081623 0.088270 0.237428
0.082437 0.087928 0.236406
0.083182 0.087522 0.235208
0.083753 0.086946 0.233547
0.084463 0.086528 0.232308
0.085299 0.086248 0.231434
0.086058 0.085898 0.230368
0.086772 0.085512 0.229199
0.087547 0.085196 0.228214
0.088388 0.084951 0.227411
0.089096 0.084585 0.226280
0.089752 0.084179 0.225036
0.090429 0.083803 0.223866
0.091111 0.083439 0.222723
0.091786 0.083078 0.221580
0.092220 0.082509 0.219877
0.092840 0.082118 0.218643
0.093462 0.081738 0.217430
0.094048 0.081334 0.216147
0.094641 0.080945 0.214898
0.095184 0.080523 0.213553
0.095672 0.080063 0.212102
0.095923 0.079417 0.210150
0.096296 0.078883 0.208490
0.097023 0.078649 0.207611
0.097144 0.077933 0.205455
0.097471 0.077395 0.203760
0.097840 0.076900 0.202174
0.098468 0.076618 0.201135
0.099094 0.076338 0.200094
0.099807 0.076132 0.199233
0.100851 0.076179 0.199024
0.102072 0.076356 0.199141
0.103389 0.076602 0.199420
0.104990 0.077052 0.200211
0.106494 0.077422 0.200775
0.108102 0.077860 0.201496
0.109447 0.078103 0.201689
-0.993368 0.703177 1.806372
-0.993598 0.709658 1.826727
-0.973744 0.701782 1.809978
-0.974011 0.708397 1.830459
-0.972512 0.713839 1.847834
-0.968011 0.717159 1.859629
-0.967568 0.723577 1.879373
-1.190808 0.916400 2.391096
-1.188051 0.923224 2.412274
-1.201487 0.942890 2.466968
-1.195995 0.947947 2.483396
-1.173571 0.939551 2.464440
-1.149114 0.929341 2.440543
-1.122997 0.917565 2.412351
-1.103990 0.911416 2.398785
-1.091031 0.910182 2.398031
-1.076781 0.907835 2.394228
-1.066281 0.908634 2.398619
-0.327133 0.355050 0.948535
-0.326697 0.359499 0.960728
-0.318995 0.355964 0.951568
-0.317023 0.358814 0.959457
-0.315119 0.361825 0.967762
-0.310611 0.361891 0.968174
-0.302853 0.358116 0.958294
-0.298181 0.357931 0.957999
-0.293088 0.357227 0.956300
-0.286023 0.354062 0.947996
-0.280106 0.352239 0.943267
-0.274188 0.350356 0.938364
-0.268470 0.348672 0.933977
-0.261737 0.345592 0.925839
-0.254929 0.342308 0.917138
-0.248935 0.340021 0.911099
-0.242081 0.336459 0.901629
-0.234357 0.331541 0.888512
-0.227814 0.328143 0.879459
-0.221641 0.325163 0.871517
-0.213605 0.319288 0.855804
-0.206661 0.314849 0.843933
-0.201575 0.313122 0.839322
-0.196608 0.311517 0.835029
-0.190451 0.307920 0.825391
-0.186036 0.307050 0.823056
-0.181206 0.305442 0.818739
-0.175250 0.301827 0.809034
-0.171591 0.302096 0.809734
-0.164669 0.296501 0.794716
-0.158414 0.291874 0.782285
-0.153532 0.289619 0.776208
