ply
format ascii 1.0
element vertex 1688
property float x
property float y
property float z
end_header
0.002980 -0.114377 0.305860
0.004398 -0.113571 0.303695
0.005800 -0.112846 0.301746
0.007212 -0.112575 0.301011
0.008597 -0.112034 0.299557
0.009940 -0.111183 0.297274
0.011363 -0.111315 0.297621
0.012763 -0.111225 0.297374
0.014179 -0.111278 0.297511
0.015654 -0.111744 0.298750
0.017198 -0.112580 0.300982
0.018609 -0.112484 0.300720
0.020120 -0.112965 0.302004
0.021641 -0.113432 0.303251
0.023105 -0.113559 0.303587
0.024721 -0.114374 0.305766
0.026132 -0.114205 0.305311
0.027566 -0.114150 0.305165
0.028957 -0.113930 0.304576
0.030740 -0.115197 0.307962
0.032208 -0.115224 0.308033
0.033520 -0.114716 0.306675
0.034949 -0.114632 0.306451
0.036454 -0.114795 0.306884
0.037668 -0.114061 0.304923
0.039051 -0.113879 0.304434
0.040316 -0.113373 0.303082
0.041543 -0.112801 0.301551
0.042771 -0.112269 0.300127
0.043831 -0.111346 0.297659
0.045074 -0.110930 0.296543
0.046207 -0.110276 0.294792
0.047321 -0.109616 0.293023
0.048461 -0.109052 0.291510
0.049624 -0.108570 0.290218
0.050721 -0.107973 0.288613
0.051721 -0.107206 0.286557
0.052813 -0.106664 0.285100
0.053823 -0.105989 0.283285
0.054829 -0.105339 0.281535
0.055986 -0.105001 0.280621
0.056999 -0.104417 0.279045
0.058010 -0.103854 0.277524
0.059049 -0.103367 0.276204
0.060142 -0.102992 0.275182
0.061109 -0.102423 0.273640
0.062178 -0.102043 0.272603
0.063218 -0.101632 0.271480
0.064282 -0.101276 0.270501
0.065220 -0.100741 0.269040
0.066090 -0.100120 0.267351
0.066910 -0.099450 0.265526
0.067771 -0.098865 0.263926
0.068748 -0.098468 0.262825
0.069631 -0.097951 0.261403
0.070478 -0.097402 0.259893
0.071376 -0.096943 0.258617
0.072315 -0.096553 0.257527
0.073258 -0.096181 0.256479
0.074044 -0.095619 0.254921
0.074731 -0.094949 0.253071
0.075571 -0.094492 0.251787
0.076416 -0.094055 0.250554
0.077188 -0.093542 0.249115
0.077989 -0.093081 0.247807
0.078887 -0.092747 0.246837
0.079740 -0.092370 0.245749
0.080439 -0.091829 0.244218
0.081152 -0.091319 0.242767
0.082007 -0.090980 0.241767
0.082766 -0.090546 0.240510
0.083487 -0.090082 0.239168
0.084114 -0.089531 0.237592
0.084741 -0.088995 0.236051
0.085235 -0.088336 0.234176
0.085836 -0.087802 0.232631
0.086575 -0.087421 0.231489
0.087068 -0.086805 0.229716
0.087663 -0.086305 0.228246
0.088524 -0.086075 0.227485
0.089180 -0.085655 0.226215
0.089909 -0.085313 0.225148
0.090653 -0.084994 0.224133
0.091465 -0.084745 0.223297
0.092278 -0.084503 0.222471
0.093009 -0.084192 0.221457
0.093850 -0.083987 0.220714
0.094528 -0.083641 0.219595
0.095376 -0.083453 0.218881
0.096241 -0.083282 0.218206
0.096842 -0.082890 0.216942
0.097622 -0.082658 0.216087
0.098353 -0.082390 0.215131
0.099106 -0.082145 0.214226
0.100034 -0.082048 0.213698
0.101098 -0.082065 0.213453
0.102126 -0.082051 0.213119
0.103328 -0.082177 0.213133
0.104525 -0.082296 0.213116
0.105607 -0.082323 0.212846
0.106797 -0.082433 0.212777
0.107688 -0.082311 0.212095
0.108619 -0.082223 0.211486
0.109393 -0.082018 0.210562
0.110058 -0.081736 0.209427
0.110988 -0.081654 0.208789
0.111633 -0.081365 0.207607
0.112266 -0.081074 0.206403
-1.640126 -1.176765 3.084307
-1.602426 -1.160318 3.046603
-1.596343 -1.166674 3.068513
-1.596251 -1.177572 3.102240
-1.590979 -1.184819 3.126230
-1.577402 -1.185964 3.133958
-1.561475 -1.185348 3.136853
-1.559839 -1.195676 3.168565
-1.542941 -1.194396 3.169372
-1.523059 -1.190759 3.163740
-1.516396 -1.197489 3.185501
-1.503621 -1.199482 3.194530
-1.494363 -1.204351 3.211088
-1.486614 -1.210553 3.231081
-1.475971 -1.214504 3.244953
-1.471489 -1.223664 3.272635
-1.462268 -1.229038 3.290097
-1.470931 -1.249725 3.348480
-1.456316 -1.250874 3.354434
-0.403085 -0.594099 1.614163
-0.394260 -0.592265 1.609217
-0.384180 -0.588437 1.598838
-0.375046 -0.585934 1.592046
-0.366976 -0.585026 1.589573
-0.360157 -0.586116 1.592518
-0.353700 -0.587855 1.597216
-0.347343 -0.589841 1.602572
-0.340537 -0.591136 1.606039
-0.334354 -0.593595 1.612660
-0.328270 -0.596350 1.620076
-0.321707 -0.598348 1.625425
-0.315232 -0.600609 1.631480
-0.307939 -0.601388 1.633503
-0.301580 -0.604078 1.640707
-0.295045 -0.606549 1.647308
-0.288195 -0.608488 1.652461
-0.282250 -0.612502 1.663239
-0.276510 -0.617201 1.675873
-0.268482 -0.616921 1.674980
-0.260764 -0.617360 1.676037
-0.025732 -0.118397 0.320980
-0.024193 -0.118294 0.320673
-0.022291 -0.116284 0.315201
-0.020811 -0.116347 0.315347
-0.019198 -0.115615 0.313338
-0.017491 -0.114154 0.309355
-0.016001 -0.113964 0.308817
-0.014528 -0.113877 0.308560
-0.012950 -0.112853 0.305764
-0.011561 -0.113420 0.307283
-0.010179 -0.114241 0.309485
-0.008713 -0.114229 0.309435
-0.007253 -0.114311 0.309640
-0.005781 -0.114192 0.309299
-0.004321 -0.114316 0.309619
-0.002849 -0.114105 0.309033
-0.001384 -0.114003 0.308743
0.000078 -0.113704 0.307921
0.001530 -0.113199 0.306538
0.002969 -0.112684 0.305135
0.004395 -0.112181 0.303760
0.005812 -0.111743 0.302567
0.007207 -0.111138 0.300919
0.008596 -0.110665 0.299631
0.009994 -0.110417 0.298952
0.011373 -0.110049 0.297949
0.012797 -0.110151 0.298220
0.014289 -0.110754 0.299848
0.015781 -0.111251 0.301190
0.017208 -0.111245 0.301170
0.018719 -0.111744 0.302519
0.020253 -0.112295 0.304008
0.021731 -0.112481 0.304510
0.023200 -0.112606 0.304846
0.024715 -0.112920 0.305697
0.026117 -0.112716 0.305145
0.027624 -0.112962 0.305811
0.029000 -0.112669 0.305019
0.030787 -0.113929 0.308429
0.032217 -0.113813 0.308119
0.033652 -0.113725 0.307882
0.035044 -0.113501 0.307276
0.036434 -0.113291 0.306708
0.037749 -0.112874 0.305581
0.038997 -0.112293 0.304009
0.040239 -0.111736 0.302504
0.041554 -0.111415 0.301636
0.042683 -0.110632 0.299515
0.043846 -0.109985 0.297763
0.045000 -0.109356 0.296061
0.046190 -0.108848 0.294684
0.047353 -0.108310 0.293227
0.048377 -0.107495 0.291017
0.049597 -0.107146 0.290069
0.050320 -0.105772 0.286345
0.051453 -0.105308 0.285085
0.052688 -0.105073 0.284444
0.053768 -0.104548 0.283014
0.054882 -0.104112 0.281826
0.056018 -0.103740 0.280807
0.057146 -0.103368 0.279789
0.058172 -0.102833 0.278328
0.059081 -0.102119 0.276381
0.060212 -0.101812 0.275533
0.061226 -0.101325 0.274196
0.062167 -0.100739 0.272590
0.063158 -0.100258 0.271266
0.064229 -0.099918 0.270321
0.065173 -0.099399 0.268890
0.066012 -0.098742 0.267085
0.066941 -0.098243 0.265703
0.067766 -0.097611 0.263961
0.068692 -0.097146 0.262666
0.069597 -0.096669 0.261335
0.070505 -0.096211 0.260056
0.071476 -0.095854 0.259046
0.072338 -0.095366 0.257677
0.073286 -0.095004 0.256648
0.073797 -0.094098 0.254145
0.074864 -0.093919 0.253603
0.075528 -0.093247 0.251726
0.076388 -0.092835 0.250547
0.077344 -0.092550 0.249709
0.078117 -0.092058 0.248308
0.079003 -0.091712 0.247297
0.079856 -0.091337 0.246206
0.080667 -0.090927 0.245012
0.081346 -0.090381 0.243452
0.082077 -0.089909 0.242084
0.082906 -0.089554 0.241030
0.083705 -0.089178 0.239911
0.084284 -0.088580 0.238193
0.084589 -0.087714 0.235751
0.085202 -0.087187 0.234214
0.085913 -0.086771 0.232972
0.086619 -0.086362 0.231742
0.087222 -0.085861 0.230264
0.087871 -0.085418 0.228932
0.088640 -0.085100 0.227933
0.089262 -0.084651 0.226576
0.089992 -0.084314 0.225514
0.090671 -0.083937 0.224337
0.091316 -0.083539 0.223100
0.092054 -0.083234 0.222102
0.092749 -0.082897 0.221014
0.093571 -0.082680 0.220239
0.094273 -0.082363 0.219191
0.094979 -0.082056 0.218161
0.095883 -0.081925 0.217591
0.096511 -0.081564 0.216403
0.097281 -0.081329 0.215541
0.098022 -0.081075 0.214620
0.098731 -0.080800 0.213634
0.099674 -0.080721 0.213155
0.100655 -0.080673 0.212751
0.101817 -0.080771 0.212716
0.103095 -0.080957 0.212901
0.104227 -0.081025 0.212764
0.105451 -0.081163 0.212796
0.106423 -0.081107 0.212304
0.107464 -0.081103 0.211935
0.108442 -0.081052 0.211430
0.109238 -0.080867 0.210560
0.109935 -0.080614 0.209497
0.110956 -0.080600 0.209044
0.111590 -0.080308 0.207852
0.112180 -0.079990 0.206579
-1.640796 -1.162092 3.089509
-1.603477 -1.146134 3.052374
-1.584312 -1.142977 3.049035
-1.590246 -1.158041 3.094154
-1.580573 -1.161919 3.109271
-1.566571 -1.162660 3.115824
-1.559542 -1.168643 3.136268
-1.548657 -1.171826 3.149058
-1.538316 -1.175489 3.162990
-1.526894 -1.178392 3.174737
-1.515438 -1.181329 3.186431
-1.505551 -1.185562 3.201490
-1.497486 -1.191334 3.220582
-1.485720 -1.194252 3.231840
-1.475909 -1.198820 3.247441
-1.468686 -1.205612 3.268957
-1.462642 -1.213528 3.293426
-1.455202 -1.220447 3.315094
-1.457285 -1.235593 3.359032
-0.403659 -0.587275 1.616515
-0.399698 -0.592692 1.631443
-0.388410 -0.587243 1.616448
-0.378367 -0.583498 1.606129
-0.368716 -0.580218 1.597078
-0.360721 -0.579461 1.594962
-0.352999 -0.579122 1.593981
-0.346500 -0.580818 1.598593
-0.339547 -0.581811 1.601260
-0.333170 -0.583860 1.606824
-0.326771 -0.585965 1.612532
-0.320576 -0.588546 1.619541
-0.314371 -0.591235 1.626839
-0.307533 -0.592840 1.631144
-0.299959 -0.593071 1.631665
-0.293609 -0.595799 1.639048
-0.286580 -0.597261 1.642938
-0.279094 -0.597827 1.644363
-0.272407 -0.600184 1.650706
-0.265402 -0.601960 1.655449
-0.258499 -0.604085 1.661144
-0.250588 -0.603914 1.660523
-0.243997 -0.607014 1.668895
-0.237959 -0.611746 1.681748
-0.025291 -0.114853 0.315357
-0.023990 -0.115774 0.317858
-0.022320 -0.114916 0.315476
-0.020708 -0.114256 0.313637
-0.019018 -0.113034 0.310261
-0.017490 -0.112649 0.309177
-0.015951 -0.112116 0.307693
-0.014425 -0.111576 0.306188
-0.012905 -0.110971 0.304506
-0.011483 -0.111167 0.305024
-0.010160 -0.112504 0.308671
-0.008707 -0.112621 0.308974
-0.007232 -0.112434 0.308442
-0.005776 -0.112528 0.308684
-0.004309 -0.112410 0.308344
-0.002842 -0.112185 0.307710
-0.001385 -0.112250 0.307874
0.000073 -0.112039 0.307284
0.001519 -0.111278 0.305183
0.002958 -0.111013 0.304447
0.004380 -0.110475 0.302961
0.005793 -0.110029 0.301727
0.007241 -0.110302 0.302468
0.008668 -0.110219 0.302232
0.010070 -0.109878 0.301290
0.011480 -0.109708 0.300820
0.012934 -0.109939 0.301447
0.014338 -0.109745 0.300911
0.015877 -0.110524 0.303045
0.017352 -0.110768 0.303711
0.018856 -0.111141 0.304732
0.020456 -0.111988 0.307054
0.021884 -0.111844 0.306657
0.023303 -0.111678 0.306204
0.024864 -0.112167 0.307544
0.026264 -0.111917 0.306862
0.027621 -0.111516 0.305764
0.029197 -0.111997 0.307085
0.030823 -0.112619 0.308792
0.032274 -0.112570 0.308661
0.033678 -0.112366 0.308104
0.035097 -0.112229 0.307733
0.036456 -0.111920 0.306888
0.037751 -0.111446 0.305592
0.039031 -0.110961 0.304266
0.040243 -0.110327 0.302530
0.041561 -0.110017 0.301683
0.042703 -0.109275 0.299652
0.043712 -0.108252 0.296848
0.044767 -0.107404 0.294525
0.045997 -0.107014 0.293457
0.047159 -0.106494 0.292031
0.048257 -0.105861 0.290296
0.049411 -0.105385 0.288989
0.050373 -0.104535 0.286657
0.051372 -0.103803 0.284648
0.052618 -0.103596 0.284077
0.053720 -0.103123 0.282774
0.054806 -0.102642 0.281451
0.056020 -0.102420 0.280833
0.057042 -0.101863 0.279299
0.058062 -0.101329 0.277822
0.059015 -0.100705 0.276100
0.060130 -0.100376 0.275185
0.061161 -0.099926 0.273937
0.062194 -0.099496 0.272740
0.063207 -0.099054 0.271510
0.064241 -0.098661 0.270410
0.065204 -0.098177 0.269059
0.066070 -0.097567 0.267362
0.066984 -0.097051 0.265919
0.067756 -0.096351 0.263971
0.068647 -0.095843 0.262547
0.069497 -0.095297 0.261015
0.070516 -0.094997 0.260155
0.071392 -0.094518 0.258801
0.072222 -0.093996 0.257327
0.073192 -0.093670 0.256385
0.073945 -0.093082 0.254726
0.074705 -0.092521 0.253134
0.075616 -0.092163 0.252097
0.076427 -0.091694 0.250753
0.077332 -0.091352 0.249752
0.078285 -0.091076 0.248927
0.079108 -0.090659 0.247713
0.079937 -0.090262 0.246550
0.080714 -0.089817 0.245253
0.081428 -0.089316 0.243798
0.082203 -0.088895 0.242558
0.083040 -0.088552 0.241527
0.083751 -0.088086 0.240154
0.084579 -0.087754 0.239144
0.084960 -0.086973 0.236903
0.085381 -0.086253 0.234828
0.086168 -0.085917 0.233792
0.086746 -0.085383 0.232214
0.087148 -0.084691 0.230201
0.087709 -0.084170 0.228648
0.088444 -0.083826 0.227570
0.089116 -0.083432 0.226352
0.089741 -0.083004 0.225034
0.090343 -0.082565 0.223683
0.091099 -0.082275 0.222728
0.091816 -0.081956 0.221690
0.092491 -0.081609 0.220566
0.093337 -0.081419 0.219863
0.094004 -0.081078 0.218743
0.094763 -0.080823 0.217849
0.095598 -0.080637 0.217133
0.096389 -0.080419 0.216324
0.097105 -0.080144 0.215352
0.097915 -0.079951 0.214591
0.098682 -0.079728 0.213740
0.099514 -0.079561 0.213031
0.100488 -0.079510 0.212622
0.101553 -0.079531 0.212395
0.102827 -0.079714 0.212587
0.103811 -0.079670 0.212160
0.104919 -0.079721 0.211976
0.106078 -0.079810 0.211877
0.107038 -0.079748 0.211365
0.108020 -0.079704 0.210885
0.109004 -0.079663 0.210397
0.109660 -0.079384 0.209268
0.110651 -0.079350 0.208772
0.111471 -0.079196 0.207943
0.112259 -0.079023 0.207047
-1.606148 -1.112557 2.995284
-1.587438 -1.109643 2.992724
-1.590459 -1.122007 3.031204
-1.590376 -1.132394 3.064241
-1.576617 -1.133148 3.071065
-1.582880 -1.148445 3.117179
-1.576191 -1.154549 3.138244
-1.563134 -1.156064 3.146681
-1.557451 -1.163116 3.170049
-1.546153 -1.166074 3.182125
-1.531318 -1.166399 3.186862
-1.518785 -1.168502 3.196308
-1.506553 -1.170885 3.206378
-1.496493 -1.175022 3.221123
-1.484115 -1.177409 3.230945
-1.469515 -1.178065 3.235887
-1.462559 -1.184930 3.257766
-1.454674 -1.191182 3.277861
-1.444958 -1.196055 3.294062
-1.424234 -1.191825 3.285068
-0.410287 -0.589123 1.643082
-0.394722 -0.577669 1.611135
-0.385513 -0.575250 1.604373
-0.377687 -0.574840 1.603204
-0.368505 -0.572310 1.596107
-0.359674 -0.570230 1.590256
-0.352795 -0.571223 1.592962
-0.346729 -0.573605 1.599530
-0.338799 -0.572941 1.597596
-0.332011 -0.574223 1.601080
-0.326285 -0.577445 1.609961
-0.319569 -0.579026 1.614262
-0.313169 -0.581273 1.620409
-0.306285 -0.582711 1.624293
-0.299621 -0.584653 1.629574
-0.293026 -0.586837 1.635525
-0.286415 -0.589106 1.641707
-0.278993 -0.589788 1.643461
-0.272763 -0.593101 1.652539
-0.266613 -0.596790 1.662659
-0.260089 -0.599841 1.670997
-0.253894 -0.603864 1.682042
-0.245922 -0.603789 1.681664
-0.238367 -0.604765 1.684213
-0.231407 -0.607370 1.691296
-0.222875 -0.605890 1.687003
-0.218704 -0.616597 1.716640
-0.025374 -0.113712 0.316268
-0.023828 -0.113474 0.315578
-0.022172 -0.112647 0.313250
-0.020682 -0.112606 0.313110
-0.019024 -0.111570 0.310204
-0.017416 -0.110686 0.307722
-0.015922 -0.110423 0.306964
-0.014321 -0.109301 0.303823
-0.012876 -0.109241 0.303635
-0.011503 -0.109863 0.305341
-0.010088 -0.110203 0.306267
-0.008675 -0.110689 0.307598
-0.007229 -0.110857 0.308047
-0.005768 -0.110837 0.307974
-0.004300 -0.110603 0.307307
-0.002844 -0.110611 0.307314
-0.001386 -0.110467 0.306899
0.000069 -0.110218 0.306195
0.001514 -0.109814 0.305060
0.002943 -0.109176 0.303277
0.004376 -0.109065 0.302958
0.005815 -0.109115 0.303088
0.007247 -0.109034 0.302854
0.008706 -0.109318 0.303636
0.010151 -0.109371 0.303776
0.011529 -0.108787 0.302151
0.012969 -0.108845 0.302308
0.014453 -0.109223 0.303353
0.015881 -0.109148 0.303142
0.017466 -0.110073 0.305710
0.019063 -0.110930 0.308090
0.020594 -0.111307 0.309137
0.022140 -0.111706 0.310246
0.023656 -0.111916 0.310831
0.025084 -0.111707 0.310250
0.026607 -0.111922 0.310852
0.028163 -0.112245 0.311752
0.029461 -0.111560 0.309852
0.031010 -0.111846 0.310652
0.032317 -0.111271 0.309059
0.033684 -0.110943 0.308152
0.035084 -0.110745 0.307607
0.036406 -0.110327 0.306452
0.037715 -0.109906 0.305288
0.038996 -0.109436 0.303986
0.040200 -0.108788 0.302193
0.041523 -0.108498 0.301393
0.042751 -0.107988 0.299981
0.043830 -0.107146 0.297645
0.044781 -0.106052 0.294612
0.045883 -0.105370 0.292721
0.047069 -0.104919 0.291470
0.048110 -0.104176 0.289410
0.049258 -0.103701 0.288091
0.050362 -0.103161 0.286592
0.051466 -0.102649 0.285170
0.052576 -0.102176 0.283854
0.053759 -0.101864 0.282985
0.054858 -0.101412 0.281728
0.055970 -0.101005 0.280591
0.057084 -0.100621 0.279520
0.058031 -0.099966 0.277693
0.058963 -0.099314 0.275873
0.059998 -0.098861 0.274604
0.061097 -0.098530 0.273672
0.061996 -0.097897 0.271899
0.063092 -0.097595 0.271043
0.064230 -0.097368 0.270395
0.065098 -0.096749 0.268657
0.066119 -0.096377 0.267600
0.067127 -0.095999 0.266526
0.067954 -0.095381 0.264784
0.068827 -0.094851 0.263282
0.069645 -0.094264 0.261618
0.070614 -0.093897 0.260566
0.071546 -0.093496 0.259415
0.072431 -0.093048 0.258129
0.073388 -0.092706 0.257135
0.074267 -0.092277 0.255898
0.075095 -0.091800 0.254524
0.075764 -0.091148 0.252662
0.076651 -0.090774 0.251565
0.077608 -0.090491 0.250721
0.078364 -0.089988 0.249260
0.079213 -0.089605 0.248128
0.079923 -0.089077 0.246592
0.080692 -0.088630 0.245278
0.081533 -0.088273 0.244208
0.082220 -0.087762 0.242707
0.083031 -0.087396 0.241602
0.083986 -0.087189 0.240935
0.084708 -0.086750 0.239619
0.085264 -0.086153 0.237864
0.085543 -0.085297 0.235391
0.085966 -0.084604 0.233362
0.086667 -0.084200 0.232125
0.087201 -0.083646 0.230470
0.087712 -0.083083 0.228787
0.088288 -0.082594 0.227305
0.088880 -0.082133 0.225892
0.089454 -0.081666 0.224458
0.090133 -0.081305 0.223309
0.090887 -0.081020 0.222362
0.091569 -0.080677 0.221252
0.092290 -0.080377 0.220251
0.093159 -0.080210 0.219608
0.093906 -0.079944 0.218686
0.094723 -0.079741 0.217932
0.095542 -0.079546 0.217189
0.096352 -0.079347 0.216428
0.097076 -0.079082 0.215479
0.097907 -0.078909 0.214771
0.098695 -0.078706 0.213973
0.099404 -0.078444 0.213006
0.100507 -0.078494 0.212877
0.101528 -0.078481 0.212565
0.102456 -0.078397 0.212049
0.103629 -0.078500 0.212027
0.104771 -0.078577 0.211922
0.105816 -0.078582 0.211606
0.106808 -0.078546 0.211170
0.107759 -0.078482 0.210644
0.108615 -0.078350 0.209922
0.109251 -0.078063 0.208771
0.110340 -0.078103 0.208479
0.111161 -0.077953 0.207667
0.111881 -0.077736 0.206659
-1.620425 -1.097684 2.993081
-1.606803 -1.098310 3.000187
-1.621418 -1.118426 3.060419
-1.607082 -1.118760 3.066409
-1.586038 -1.114390 3.059286
-1.588048 -1.126289 3.096666
-1.583634 -1.133816 3.121917
-1.575645 -1.138906 3.140323
-1.567724 -1.144145 3.159003
-1.559897 -1.149557 3.178028
-1.554075 -1.156569 3.201354
-1.542380 -1.159308 3.212722
-1.527972 -1.160045 3.218394
-1.514557 -1.161558 3.226077
-1.498539 -1.161088 3.228106
-1.488307 -1.165139 3.242573
-1.471165 -1.163810 3.241937
-1.461583 -1.168498 3.257936
-1.442810 -1.165861 3.253388
-1.428209 -1.166577 3.258065
-1.425400 -1.177046 3.289887
-0.410872 -0.582157 1.645417
-0.401364 -0.579616 1.638217
-0.388689 -0.572315 1.617546
-0.379750 -0.570332 1.611896
-0.369663 -0.566510 1.601037
-0.360581 -0.564101 1.594160
-0.353402 -0.564631 1.595579
-0.346599 -0.565800 1.598792
-0.339041 -0.565760 1.598579
-0.331875 -0.566387 1.600245
-0.325412 -0.568272 1.605454
-0.318354 -0.569184 1.607906
-0.311799 -0.571063 1.613083
-0.305525 -0.573565 1.620010
-0.298694 -0.575122 1.624263
-0.291972 -0.576977 1.629351
-0.285581 -0.579605 1.636617
-0.279225 -0.582453 1.644498
-0.272557 -0.584796 1.650946
-0.266362 -0.588321 1.660726
-0.260122 -0.591959 1.670822
-0.254148 -0.596448 1.683316
-0.247206 -0.598884 1.690011
-0.240028 -0.600895 1.695501
-0.233662 -0.605146 1.707313
-0.226985 -0.608868 1.717625
-0.219086 -0.609469 1.719135
-0.211704 -0.611609 1.724985
-0.203805 -0.612368 1.726940
-0.025420 -0.112397 0.316712
-0.024004 -0.112786 0.317777
-0.022519 -0.112881 0.318015
-0.020691 -0.111145 0.313097
-0.019116 -0.110606 0.311550
-0.017531 -0.109917 0.309584
-0.015910 -0.108859 0.306580
-0.014432 -0.108660 0.305994
-0.012976 -0.108610 0.305830
-0.011506 -0.108402 0.305224
-0.010132 -0.109180 0.307393
-0.008710 -0.109614 0.308595
-0.007241 -0.109513 0.308293
-0.005776 -0.109440 0.308070
-0.004308 -0.109223 0.307442
-0.002843 -0.108932 0.306607
-0.001386 -0.108676 0.305873
0.000064 -0.108338 0.304907
0.001504 -0.107969 0.303856
0.002939 -0.107759 0.303255
0.004375 -0.107701 0.303082
0.005831 -0.108042 0.304031
0.007284 -0.108209 0.304494
0.008764 -0.108659 0.305755
0.010212 -0.108635 0.305680
0.011648 -0.108500 0.305297
0.013048 -0.108105 0.304182
0.014569 -0.108684 0.305808
0.016024 -0.108710 0.305879
0.017559 -0.109236 0.307359
0.019122 -0.109836 0.309046
0.020792 -0.110921 0.312099
0.022149 -0.110306 0.310371
0.023735 -0.110835 0.311863
0.025343 -0.111395 0.313442
0.026624 -0.110537 0.311032
0.028206 -0.110954 0.312210
0.029609 -0.110662 0.311392
0.031058 -0.110559 0.311108
0.032257 -0.109616 0.308462
0.033724 -0.109626 0.308497
0.035099 -0.109349 0.307724
0.036383 -0.108821 0.306244
0.037718 -0.108481 0.305295
0.038970 -0.107933 0.303761
0.040213 -0.107404 0.302279
0.041476 -0.106960 0.301037
0.042666 -0.106364 0.299367
0.043732 -0.105508 0.296963
0.044789 -0.104684 0.294651
0.045942 -0.104127 0.293089
0.047101 -0.103615 0.291654
0.048142 -0.102883 0.289597
0.049252 -0.102332 0.288050
0.050403 -0.101894 0.286820
0.051470 -0.101315 0.285195
0.052542 -0.100774 0.283674
0.053681 -0.100386 0.282580
0.054857 -0.100082 0.281727
0.055970 -0.099683 0.280600
0.057126 -0.099375 0.279731
0.058107 -0.098786 0.278069
0.058957 -0.098003 0.275859
0.060031 -0.097620 0.274771
0.061097 -0.097240 0.273693
0.062057 -0.096710 0.272191
0.063139 -0.096388 0.271272
0.064236 -0.096102 0.270450
0.065228 -0.095671 0.269220
0.066096 -0.095080 0.267538
0.067150 -0.094773 0.266653
0.068044 -0.094257 0.265175
0.068858 -0.093649 0.263440
0.069692 -0.093090 0.261837
0.070694 -0.092772 0.260910
0.071560 -0.092288 0.259514
0.072539 -0.091965 0.258567
0.073577 -0.091725 0.257853
0.074441 -0.091280 0.256557
0.075364 -0.090921 0.255500
0.076220 -0.090493 0.254247
0.076765 -0.089715 0.252005
0.077713 -0.089425 0.251133
0.078766 -0.089263 0.250615
0.079446 -0.088689 0.248936
0.080270 -0.088290 0.247747
0.081100 -0.087909 0.246602
0.081819 -0.087421 0.245154
0.082491 -0.086897 0.243602
0.083274 -0.086502 0.242408
0.084127 -0.086190 0.241440
0.084889 -0.085794 0.240234
0.085346 -0.085105 0.238202
0.085527 -0.084162 0.235457
0.086028 -0.083554 0.233645
0.086609 -0.083039 0.232087
0.087200 -0.082546 0.230587
0.087631 -0.081917 0.228702
0.088195 -0.081425 0.227195
0.088907 -0.081080 0.226093
0.089383 -0.080530 0.224416
0.089994 -0.080114 0.223106
0.090733 -0.079821 0.222130
0.091373 -0.079448 0.220928
0.092075 -0.079137 0.219891
0.092949 -0.078979 0.219272
0.093787 -0.078794 0.218574
0.094496 -0.078506 0.217580
0.095370 -0.078361 0.216973
0.096295 -0.078259 0.216478
0.096990 -0.077974 0.215472
0.097771 -0.077765 0.214663
0.098618 -0.077611 0.214001
0.099415 -0.077422 0.213230
0.100349 -0.077343 0.212752
0.101292 -0.077271 0.212285
0.102280 -0.077235 0.211904
0.103335 -0.077250 0.211653
0.104451 -0.077309 0.211510
0.105461 -0.077289 0.211137
0.106425 -0.077237 0.210663
0.107389 -0.077186 0.210178
0.108216 -0.077037 0.209415
0.109016 -0.076873 0.208596
0.110083 -0.076898 0.208275
0.110822 -0.076695 0.207322
0.111877 -0.076713 0.206950
-1.588476 -1.052204 2.906204
-1.598335 -1.068231 2.955896
-1.613740 -1.088290 3.016709
-1.622139 -1.103949 3.065289
-1.588849 -1.091266 3.034983
-1.589972 -1.102204 3.070167
-1.597351 -1.117727 3.118043
-1.583505 -1.118553 3.124802
-1.575985 -1.123907 3.144057
-1.565387 -1.127151 3.157263
-1.558499 -1.133157 3.178071
-1.548461 -1.136970 3.192597
-1.541913 -1.143448 3.214482
-1.528427 -1.144861 3.222000
-1.510992 -1.143317 3.221044
-1.500131 -1.146767 3.234018
-1.487744 -1.149112 3.243752
-1.480678 -1.155660 3.265238
-1.457123 -1.149343 3.250241
-1.441972 -1.149591 3.253667
-1.448382 -1.167221 3.306209
-0.420550 -0.587882 1.684143
-0.406145 -0.578659 1.657681
-0.388173 -0.563893 1.615330
-0.380836 -0.564294 1.616416
-0.372400 -0.563052 1.612782
-0.362417 -0.559371 1.602151
-0.353907 -0.557855 1.597712
-0.347316 -0.559364 1.601930
-0.339422 -0.558798 1.600192
-0.331876 -0.558790 1.600046
-0.325421 -0.560664 1.605280
-0.318377 -0.561588 1.607787
-0.312335 -0.564368 1.615599
-0.305982 -0.566712 1.622155
-0.298917 -0.567825 1.625181
-0.292597 -0.570448 1.632522
-0.285927 -0.572514 1.638265
-0.279104 -0.574381 1.643434
-0.272390 -0.576586 1.649564
-0.265792 -0.579174 1.656784
-0.259213 -0.581963 1.664575
-0.252177 -0.583869 1.669837
-0.245373 -0.586453 1.677038
-0.238884 -0.589988 1.686954
-0.231518 -0.591527 1.691160
-0.224528 -0.594172 1.698524
-0.218085 -0.598518 1.710751
-0.211139 -0.601761 1.719825
-0.204166 -0.605190 1.729426
-0.196485 -0.606718 1.733600
-0.188394 -0.607059 1.734378
-0.026429 -0.108858 0.310842
-0.024948 -0.108817 0.310696
-0.023562 -0.109208 0.311779
-0.021949 -0.108530 0.309814
-0.020493 -0.108588 0.309950
-0.018957 -0.108199 0.308813
-0.017460 -0.107985 0.308177
-0.015938 -0.107566 0.306955
-0.014447 -0.107291 0.306144
-0.012956 -0.106950 0.305148
-0.011482 -0.106696 0.304402
-0.010113 -0.107469 0.306586
-0.008677 -0.107687 0.307188
-0.007235 -0.107888 0.307742
-0.005782 -0.107998 0.308038
-0.004313 -0.107779 0.307394
-0.002854 -0.107739 0.307264
-0.001394 -0.107503 0.306578
0.000059 -0.107221 0.305760
0.001508 -0.107146 0.305535
0.002961 -0.107271 0.305880
0.004407 -0.107144 0.305508
0.005871 -0.107428 0.306309
0.007336 -0.107598 0.306785
0.008825 -0.108002 0.307932
0.010328 -0.108447 0.309194
0.011774 -0.108253 0.308639
0.013250 -0.108347 0.308904
0.014682 -0.108096 0.308184
0.016200 -0.108469 0.309247
0.017713 -0.108749 0.310047
0.019293 -0.109362 0.311795
0.020893 -0.109996 0.313603
0.022487 -0.110513 0.315082
0.024039 -0.110778 0.315841
0.025727 -0.111593 0.318170
0.027059 -0.110865 0.316100
0.028549 -0.110822 0.315984
0.029641 -0.109321 0.311709
0.031057 -0.109096 0.311075
0.032380 -0.108581 0.309614
0.033815 -0.108468 0.309301
0.035190 -0.108181 0.308491
0.036455 -0.107593 0.306823
0.037771 -0.107196 0.305699
0.039047 -0.106715 0.304336
0.040266 -0.106122 0.302655
0.041464 -0.105512 0.300926
0.042670 -0.104965 0.299373
0.043760 -0.104176 0.297133
0.044618 -0.102901 0.293505
0.045814 -0.102460 0.292255
0.046969 -0.101955 0.290823
0.048127 -0.101486 0.289492
0.049223 -0.100915 0.287870
0.050376 -0.100489 0.286659
0.051428 -0.099888 0.284952
0.052545 -0.099443 0.283686
0.053690 -0.099071 0.282626
0.054810 -0.098670 0.281485
0.055951 -0.098326 0.280506
0.057000 -0.097840 0.279119
0.058023 -0.097333 0.277670
0.058883 -0.096581 0.275521
0.060019 -0.096305 0.274728
0.061120 -0.095984 0.273807
0.062158 -0.095581 0.272651
0.063235 -0.095252 0.271701
0.064275 -0.094882 0.270634
0.065332 -0.094552 0.269677
0.066358 -0.094189 0.268627
0.067342 -0.093781 0.267445
0.068223 -0.093248 0.265903
0.068983 -0.092572 0.263953
0.069701 -0.091865 0.261909
0.070627 -0.091452 0.260703
0.071649 -0.091175 0.259881
0.072532 -0.090734 0.258590
0.073523 -0.090440 0.257715
0.074493 -0.090130 0.256792
0.075280 -0.089613 0.255274
0.076071 -0.089115 0.253809
0.076982 -0.088773 0.252782
0.077854 -0.088396 0.251655
0.078768 -0.088078 0.250691
0.079694 -0.087782 0.249787
0.080504 -0.087370 0.248545
0.081363 -0.087021 0.247484
0.082128 -0.086584 0.246164
0.082744 -0.086004 0.244436
0.083524 -0.085607 0.243225
0.084388 -0.085308 0.242285
0.085223 -0.084986 0.241277
0.085865 -0.084483 0.239752
0.086173 -0.083670 0.237340
0.086252 -0.082657 0.234361
0.086864 -0.082176 0.232884
0.087426 -0.081660 0.231303
0.087681 -0.080873 0.228951
0.088302 -0.080439 0.227594
0.088856 -0.079956 0.226091
0.089440 -0.079510 0.224691
0.090126 -0.079165 0.223568
0.090729 -0.078755 0.222259
0.091550 -0.078543 0.221500
0.092221 -0.078207 0.220386
0.092987 -0.077960 0.219515
0.093810 -0.077765 0.218784
0.094560 -0.077514 0.217888
0.095503 -0.077426 0.217442
0.096323 -0.077240 0.216715
0.097109 -0.077032 0.215914
0.097992 -0.076904 0.215333
0.098812 -0.076730 0.214611
0.099542 -0.076490 0.213698
0.100459 -0.076397 0.213184
0.101292 -0.076243 0.212491
0.102172 -0.076127 0.211894
0.103121 -0.076064 0.211433
0.104040 -0.075981 0.210904
0.105032 -0.075951 0.210512
0.105849 -0.075797 0.209762
0.106782 -0.075728 0.209237
0.107624 -0.075596 0.208524
0.108599 -0.075560 0.208060
0.109521 -0.075488 0.207483
0.110434 -0.075410 0.206876
0.111500 -0.075437 0.206541
-1.601971 -1.046751 2.934474
-1.596703 -1.052667 2.956366
-1.602647 -1.066151 2.999398
-1.582602 -1.062435 2.993886
-1.591521 -1.078277 3.043342
-1.590678 -1.087739 3.074711
-1.582899 -1.092593 3.092928
-1.590347 -1.108151 3.141345
-1.583764 -1.114138 3.162536
-1.570699 -1.115637 3.170847
-1.563886 -1.121652 3.191849
-1.553894 -1.125485 3.206511
-1.540686 -1.127042 3.214553
-1.528692 -1.129530 3.225108
-1.510580 -1.127503 3.222626
-1.488247 -1.122253 3.210766
-1.478801 -1.126714 3.226550
-1.455413 -1.120535 3.211727
-1.457996 -1.134434 3.254344
-1.443949 -1.135554 3.260211
-0.421148 -0.580720 1.686477
-0.409116 -0.574972 1.669725
-0.396035 -0.567497 1.647947
-0.385312 -0.563169 1.635297
-0.375692 -0.560310 1.626902
-0.365824 -0.556956 1.617059
-0.357174 -0.555353 1.612289
-0.348609 -0.553815 1.607702
-0.340890 -0.553585 1.606902
-0.333338 -0.553621 1.606866
-0.326176 -0.554322 1.608755
-0.319497 -0.555900 1.613178
-0.312993 -0.557865 1.618719
-0.307339 -0.561483 1.629048
-0.300834 -0.563691 1.635278
-0.293686 -0.564780 1.638259
-0.286355 -0.565569 1.640362
-0.279357 -0.567077 1.644547
-0.272490 -0.568946 1.649775
-0.265742 -0.571182 1.656063
-0.259397 -0.574445 1.665325
-0.252834 -0.577415 1.673734
-0.246175 -0.580353 1.682046
-0.239221 -0.582767 1.688838
-0.231486 -0.583384 1.690418
-0.224060 -0.584850 1.694460
-0.216652 -0.586475 1.698963
-0.208258 -0.585453 1.695798
-0.201267 -0.588453 1.704283
-0.194215 -0.591520 1.712964
-0.186982 -0.594278 1.720746
-0.179607 -0.596817 1.727898
-0.172095 -0.599122 1.734375
-0.164321 -0.600705 1.738763
-0.026478 -0.107566 0.311287
-0.025078 -0.107884 0.312172
-0.023559 -0.107696 0.311598
-0.021943 -0.107012 0.309586
-0.020423 -0.106729 0.308740
-0.018972 -0.106792 0.308893
-0.017504 -0.106767 0.308791
-0.015982 -0.106373 0.307626
-0.014510 -0.106265 0.307290
-0.012990 -0.105749 0.305772
-0.011567 -0.105988 0.306439
-0.010136 -0.106212 0.307065
-0.008695 -0.106394 0.307572
-0.007237 -0.106402 0.307575
-0.005797 -0.106731 0.308507
-0.004326 -0.106534 0.307919
-0.002864 -0.106488 0.307772
-0.001408 -0.106782 0.308607
0.000056 -0.106830 0.308730
0.001523 -0.107052 0.309361
0.002991 -0.107060 0.309372
0.004457 -0.107018 0.309240
0.005924 -0.107005 0.309196
0.007403 -0.107184 0.309704
0.008880 -0.107265 0.309934
0.010362 -0.107382 0.310266
0.011831 -0.107353 0.310179
0.013305 -0.107367 0.310217
0.014732 -0.107035 0.309258
0.016346 -0.108001 0.312047
0.017717 -0.107331 0.310113
0.019374 -0.108364 0.313099
0.020863 -0.108377 0.313142
0.022381 -0.108531 0.313589
0.023991 -0.109078 0.315176
0.025519 -0.109218 0.315584
0.027100 -0.109551 0.316554
0.028219 -0.108077 0.312304
0.029613 -0.107755 0.311380
0.031020 -0.107507 0.310672
0.032442 -0.107333 0.310179
0.033844 -0.107107 0.309538
0.035212 -0.106798 0.308655
0.036505 -0.106296 0.307213
0.037788 -0.105806 0.305808
0.039009 -0.105181 0.304013
0.040250 -0.104656 0.302507
0.041401 -0.103939 0.300447
0.042579 -0.103335 0.298710
0.043623 -0.102457 0.296183
0.044652 -0.101597 0.293710
0.045790 -0.101031 0.292083
0.046977 -0.100604 0.290858
0.048158 -0.100187 0.289663
0.049125 -0.099360 0.287280
0.050190 -0.098772 0.285588
0.051452 -0.098591 0.285072
0.052512 -0.098044 0.283498
0.053667 -0.097695 0.282494
0.054781 -0.097292 0.281333
0.055877 -0.096875 0.280131
0.057029 -0.096573 0.279261
0.057919 -0.095852 0.277178
0.058899 -0.095308 0.275602
0.060047 -0.095053 0.274864
0.061148 -0.094736 0.273945
0.062143 -0.094271 0.272593
0.063175 -0.093881 0.271458
0.064274 -0.093603 0.270648
0.065326 -0.093269 0.269671
0.066301 -0.092840 0.268417
0.067247 -0.092388 0.267093
0.068003 -0.091696 0.265075
0.068927 -0.091252 0.263770
0.069958 -0.090961 0.262909
0.070933 -0.090611 0.261870
0.071777 -0.090108 0.260388
0.072767 -0.089801 0.259470
0.073733 -0.089476 0.258496
0.074695 -0.089157 0.257536
0.075726 -0.088928 0.256837
0.076540 -0.088457 0.255431
0.077330 -0.087972 0.253984
0.078222 -0.087617 0.252908
0.079105 -0.087263 0.251828
0.079960 -0.086888 0.250689
0.080719 -0.086423 0.249283
0.081464 -0.085956 0.247869
0.082199 -0.085491 0.246458
0.082983 -0.085090 0.245226
0.083700 -0.084631 0.243824
0.084673 -0.084442 0.243193
0.085273 -0.083890 0.241514
0.085936 -0.083413 0.240047
0.085848 -0.082231 0.236546
0.086071 -0.081372 0.233972
0.086677 -0.080893 0.232488
0.087313 -0.080455 0.231113
0.087792 -0.079884 0.229354
0.088375 -0.079420 0.227900
0.088970 -0.078978 0.226502
0.089404 -0.078406 0.224726
0.089827 -0.077838 0.222955
0.090560 -0.077549 0.221978
0.091323 -0.077291 0.221087
0.091986 -0.076956 0.219966
0.092860 -0.076804 0.219361
0.093667 -0.076599 0.218601
0.094469 -0.076395 0.217834
0.095390 -0.076291 0.217345
0.096325 -0.076200 0.216884
0.097216 -0.076077 0.216324
0.098113 -0.075960 0.215774
0.098964 -0.075811 0.215122
0.099724 -0.075596 0.214275
0.100539 -0.075427 0.213547
0.101419 -0.075309 0.212958
0.102103 -0.075050 0.211956
0.102941 -0.074907 0.211275
0.103806 -0.074787 0.210645
0.104797 -0.074759 0.210265
0.105530 -0.074550 0.209362
0.106497 -0.074507 0.208916
0.107427 -0.074441 0.208389
0.108362 -0.074379 0.207860
0.109275 -0.074302 0.207278
0.110152 -0.074203 0.206616
0.111254 -0.074256 0.206363
-1.601929 -1.032334 2.937855
-1.639548 -1.066055 3.039157
-1.625886 -1.066742 3.046247
-1.600617 -1.059758 3.031198
-1.605436 -1.072752 3.073117
-1.599350 -1.078635 3.094560
-1.597602 -1.087583 3.124671
-1.591096 -1.093432 3.145758
-1.574607 -1.092469 3.147090
-1.566247 -1.097183 3.164619
-1.556502 -1.101010 3.179457
-1.545216 -1.103815 3.191205
-1.536334 -1.108410 3.207998
-1.522035 -1.109151 3.213505
-1.508093 -1.110173 3.219681
-1.495114 -1.111932 3.227866
-1.477843 -1.110504 3.226664
-1.462083 -1.110195 3.228573
-1.459126 -1.119705 3.258936
-0.443144 -0.591485 1.741698
-0.425588 -0.578763 1.704172
-0.414018 -0.573850 1.689629
-0.400092 -0.565415 1.664702
-0.390523 -0.562924 1.657269
-0.380619 -0.559840 1.648075
-0.370881 -0.556876 1.639228
-0.361446 -0.554253 1.631375
-0.352416 -0.552151 1.625047
-0.344041 -0.551004 1.621521
-0.335900 -0.550189 1.618967
-0.327595 -0.549062 1.615486
-0.321986 -0.552508 1.625456
-0.315347 -0.554313 1.630587
-0.308927 -0.556602 1.637136
-0.303273 -0.560426 1.648193
-0.294661 -0.558842 1.643340
-0.287742 -0.560469 1.647926
-0.280833 -0.562209 1.652838
-0.273351 -0.562867 1.654567
-0.266555 -0.565021 1.660690
-0.260508 -0.568942 1.672002
-0.253967 -0.571995 1.680760
-0.247395 -0.575177 1.689890
-0.240895 -0.578741 1.700145
-0.233476 -0.580269 1.704413
-0.225552 -0.580608 1.705191
-0.217844 -0.581551 1.707742
-0.210388 -0.583263 1.712553
-0.202684 -0.584400 1.715675
-0.195080 -0.585932 1.719959
-0.187686 -0.588258 1.726574
-0.180113 -0.590213 1.732102
-0.172130 -0.590944 1.734042
-0.164621 -0.593460 1.741221
-0.156456 -0.593750 1.741874
-0.026342 -0.105530 0.309556
-0.025070 -0.106353 0.311937
-0.023512 -0.105989 0.310835
-0.021949 -0.105550 0.309517
-0.020536 -0.105827 0.310298
-0.019005 -0.105489 0.309276
-0.017549 -0.105542 0.309405
-0.016065 -0.105429 0.309046
-0.014529 -0.104915 0.307513
-0.013029 -0.104575 0.306489
-0.011601 -0.104797 0.307118
-0.010164 -0.104998 0.307683
-0.008726 -0.105257 0.308422
-0.007270 -0.105357 0.308695
-0.005825 -0.105697 0.309671
-0.004369 -0.106019 0.310598
-0.002898 -0.106089 0.310787
-0.001427 -0.106376 0.311610
0.000052 -0.106350 0.311522
0.001535 -0.106718 0.312588
0.003005 -0.106234 0.311158
0.004480 -0.106199 0.311046
0.005971 -0.106459 0.311799
0.007428 -0.106122 0.310806
0.008923 -0.106357 0.311488
0.010369 -0.106024 0.310510
0.011838 -0.105983 0.310386
0.013297 -0.105859 0.310021
0.014771 -0.105876 0.310071
0.016268 -0.106037 0.310542
0.017824 -0.106522 0.311965
0.019333 -0.106674 0.312412
0.020945 -0.107335 0.314351
0.022501 -0.107636 0.315239
0.024054 -0.107889 0.315988
0.025657 -0.108320 0.317255
0.027154 -0.108279 0.317145
0.028140 -0.106315 0.311399
0.029560 -0.106104 0.310791
0.031007 -0.106006 0.310515
0.032378 -0.105667 0.309534
0.033738 -0.105321 0.308532
0.035124 -0.105085 0.307852
0.036391 -0.104526 0.306227
0.037672 -0.104046 0.304833
0.038944 -0.103579 0.303479
0.040183 -0.103059 0.301968
0.041350 -0.102399 0.300046
0.042471 -0.101671 0.297927
0.043512 -0.100804 0.295399
0.044699 -0.100321 0.293996
0.045760 -0.099589 0.291865
0.046837 -0.098938 0.289968
0.048087 -0.098677 0.289216
0.049142 -0.098041 0.287362
0.050209 -0.097463 0.285679
0.051466 -0.097275 0.285139
0.052591 -0.096852 0.283908
0.053638 -0.096311 0.282329
0.054694 -0.095812 0.280874
0.055782 -0.095392 0.279651
0.056891 -0.095026 0.278582
0.057937 -0.094574 0.277260
0.059013 -0.094189 0.276135
0.060093 -0.093827 0.275076
0.061176 -0.093486 0.274074
0.062269 -0.093173 0.273154
0.063303 -0.092787 0.272020
0.064305 -0.092370 0.270790
0.065204 -0.091824 0.269180
0.066304 -0.091578 0.268449
0.067302 -0.091201 0.267333
0.068172 -0.090669 0.265759
0.069160 -0.090309 0.264687
0.070103 -0.089906 0.263484
0.071113 -0.089600 0.262567
0.072029 -0.089188 0.261335
0.072982 -0.088836 0.260276
0.073992 -0.088564 0.259447
0.074896 -0.088175 0.258274
0.075856 -0.087865 0.257327
0.076909 -0.087669 0.256713
0.077706 -0.087192 0.255273
0.078446 -0.086668 0.253689
0.079478 -0.086476 0.253077
0.080305 -0.086072 0.251838
0.081028 -0.085568 0.250305
0.081986 -0.085324 0.249527
0.082748 -0.084885 0.248176
0.083446 -0.084395 0.246672
0.084220 -0.083993 0.245420
0.084869 -0.083480 0.243839
0.085590 -0.083050 0.242499
0.086212 -0.082538 0.240912
0.086331 -0.081562 0.237970
0.086175 -0.080357 0.234355
0.086606 -0.079722 0.232398
0.087470 -0.079498 0.231635
0.087985 -0.078965 0.229967
0.088508 -0.078452 0.228353
0.089059 -0.077977 0.226845
0.089546 -0.077457 0.225200
0.090007 -0.076928 0.223525
0.090689 -0.076597 0.222421
0.091517 -0.076397 0.221689
0.092175 -0.076061 0.220555
0.092972 -0.075845 0.219767
0.093804 -0.075663 0.219067
0.094626 -0.075476 0.218347
0.095527 -0.075356 0.217811
0.096375 -0.075197 0.217157
0.097298 -0.075100 0.216671
0.098192 -0.074982 0.216117
0.098932 -0.074750 0.215227
0.099669 -0.074521 0.214336
0.100487 -0.074357 0.213622
0.101255 -0.074159 0.212803
0.101951 -0.073914 0.211837
0.102735 -0.073735 0.211055
0.103468 -0.073525 0.210170
0.104359 -0.073429 0.209602
0.105227 -0.073319 0.208981
0.106137 -0.073240 0.208438
0.107208 -0.073273 0.208199
0.108020 -0.073130 0.207446
0.108954 -0.073071 0.206919
0.109818 -0.072967 0.206249
0.110856 -0.072979 0.205892
-1.602573 -1.018356 2.942379
-1.586030 -1.016885 2.943189
-1.610586 -1.041977 3.020791
-1.584561 -1.034507 3.003880
-1.597968 -1.052882 3.061868
-1.591540 -1.058409 3.082412
-1.590207 -1.067462 3.113101
-1.589776 -1.077299 3.145975
-1.578765 -1.080089 3.158143
-1.564153 -1.080446 3.163043
-1.554796 -1.084477 3.178552
-1.541702 -1.085957 3.186444
-1.528103 -1.087107 3.193228
-1.521384 -1.093226 3.214479
-1.511777 -1.097375 3.229825
-1.492061 -1.094197 3.223468
-1.478908 -1.095817 3.231109
-1.474076 -1.103702 3.257116
-1.460074 -1.104817 3.263039
-1.450962 -1.109698 3.279974
-1.439851 -1.113139 3.292554
-0.468642 -0.594776 1.776216
-0.459000 -0.593121 1.771219
-0.443765 -0.584047 1.744048
-0.425203 -0.570168 1.702522
-0.419931 -0.573920 1.713628
-0.408390 -0.569085 1.699081
-0.396226 -0.563172 1.681304
-0.387967 -0.562679 1.679702
-0.380432 -0.563241 1.681237
-0.366665 -0.554403 1.654705
-0.356289 -0.550422 1.642664
-0.349939 -0.552621 1.649059
-0.340165 -0.549390 1.639244
-0.332644 -0.549734 1.640089
-0.329650 -0.557756 1.663829
-0.322539 -0.559031 1.667437
-0.314359 -0.558474 1.665572
-0.308607 -0.562311 1.676808
-0.300066 -0.561136 1.673090
-0.292403 -0.561585 1.674213
-0.284745 -0.562069 1.675437
-0.277218 -0.562847 1.677535
-0.271328 -0.567094 1.689966
-0.263853 -0.568185 1.692990
-0.256302 -0.569177 1.695716
-0.248636 -0.569968 1.697844
-0.240225 -0.569050 1.694879
-0.231794 -0.568022 1.691587
-0.224050 -0.568664 1.693272
-0.216589 -0.570097 1.697311
-0.208799 -0.570746 1.699017
-0.201367 -0.572461 1.703900
-0.194580 -0.576235 1.714909
-0.187205 -0.578518 1.721483
-0.180247 -0.582360 1.732697
-0.172673 -0.584482 1.738794
-0.164769 -0.585646 1.742047
-0.156598 -0.585937 1.742702
-0.026332 -0.104007 0.309305
-0.024824 -0.103825 0.308727
-0.023399 -0.103992 0.309190
-0.021945 -0.104046 0.309317
-0.020514 -0.104220 0.309803
-0.019003 -0.103984 0.309071
-0.017460 -0.103526 0.307680
-0.016010 -0.103577 0.307802
-0.014531 -0.103436 0.307358
-0.013048 -0.103238 0.306741
-0.011618 -0.103461 0.307382
-0.010187 -0.103735 0.308173
-0.008731 -0.103799 0.308340
-0.007277 -0.103919 0.308676
-0.005854 -0.104674 0.310898
-0.004392 -0.104988 0.311813
-0.002925 -0.105448 0.313162
-0.001444 -0.105822 0.314257
0.000048 -0.105963 0.314663
0.001540 -0.105842 0.314291
0.003025 -0.105610 0.313591
0.004514 -0.105614 0.313595
0.006015 -0.105833 0.314237
0.007519 -0.106004 0.314736
0.008985 -0.105657 0.313702
0.010446 -0.105372 0.312853
0.011926 -0.105325 0.312710
0.013367 -0.104972 0.311662
0.014823 -0.104800 0.311151
0.016258 -0.104527 0.310342
0.017763 -0.104708 0.310880
0.019240 -0.104710 0.310890
0.020860 -0.105434 0.313045
0.022331 -0.105361 0.312834
0.023985 -0.106101 0.315039
0.025506 -0.106203 0.315351
0.026859 -0.105632 0.313665
0.028231 -0.105192 0.312367
0.029571 -0.104683 0.310867
0.031048 -0.104685 0.310886
0.032447 -0.104434 0.310154
0.033785 -0.104017 0.308929
0.035142 -0.103691 0.307974
0.036367 -0.103015 0.305980
0.037642 -0.102529 0.304552
0.038937 -0.102132 0.303386
0.040097 -0.101421 0.301288
0.041360 -0.101009 0.300081
0.042386 -0.100065 0.297292
0.043546 -0.099490 0.295597
0.044774 -0.099100 0.294455
0.045712 -0.098111 0.291532
0.046771 -0.097433 0.289532
0.048015 -0.097168 0.288756
0.049167 -0.096735 0.287486
0.050243 -0.096182 0.285853
0.051368 -0.095746 0.284571
0.052462 -0.095278 0.283192
0.053557 -0.094835 0.281887
0.054642 -0.094398 0.280596
0.055763 -0.094040 0.279542
0.056874 -0.093683 0.278487
0.057972 -0.093321 0.277419
0.058986 -0.092843 0.276003
0.060019 -0.092416 0.274736
0.061142 -0.092140 0.273919
0.062271 -0.091887 0.273166
0.063264 -0.091446 0.271856
0.064169 -0.090898 0.270224
0.065227 -0.090585 0.269286
0.066370 -0.090400 0.268729
0.067351 -0.090004 0.267544
0.068214 -0.089469 0.265942
0.069287 -0.089223 0.265196
0.070219 -0.088807 0.263944
0.071199 -0.088466 0.262910
0.072254 -0.088228 0.262183
0.073179 -0.087842 0.261012
0.074124 -0.087493 0.259946
0.075035 -0.087115 0.258794
0.076156 -0.086990 0.258386
0.077060 -0.086624 0.257263
0.077920 -0.086221 0.256026
0.078654 -0.085694 0.254415
0.079643 -0.085455 0.253659
0.080559 -0.085147 0.252692
0.081437 -0.084808 0.251630
0.082320 -0.084485 0.250610
0.083156 -0.084122 0.249472
0.084017 -0.083795 0.248432
0.084734 -0.083335 0.246994
0.085385 -0.082824 0.245403
0.086155 -0.082441 0.244185
0.086612 -0.081772 0.242116
0.087008 -0.081063 0.239927
0.086265 -0.079326 0.234691
0.086840 -0.078830 0.233123
0.087437 -0.078366 0.231646
0.087855 -0.077755 0.229730
0.088041 -0.076956 0.227254
0.088432 -0.076355 0.225357
0.089174 -0.076066 0.224379
0.089801 -0.075688 0.223131
0.090592 -0.075455 0.222305
0.091266 -0.075131 0.221205
0.091924 -0.074802 0.220083
0.092822 -0.074673 0.219545
0.093597 -0.074449 0.218720
0.094341 -0.074206 0.217832
0.095258 -0.074102 0.217345
0.096142 -0.073976 0.216786
0.096960 -0.073802 0.216076
0.097916 -0.073735 0.215673
0.098799 -0.073615 0.215107
0.099468 -0.073340 0.214078
0.100366 -0.073238 0.213544
0.101092 -0.073013 0.212645
0.101874 -0.072834 0.211866
0.102476 -0.072530 0.210718
0.103182 -0.072305 0.209790
0.104194 -0.072296 0.209477
0.105049 -0.072181 0.208842
0.105908 -0.072069 0.208209
0.106928 -0.072069 0.207883
0.107743 -0.071931 0.207148
0.108579 -0.071811 0.206449
0.109501 -0.071748 0.205903
0.110507 -0.071740 0.205500
-1.595882 -0.999774 2.933312
-1.610258 -1.017829 2.991320
-1.621115 -1.033968 3.043661
-1.607595 -1.034714 3.050570
-1.603521 -1.041610 3.075455
-1.601778 -1.050165 3.105118
-1.599179 -1.058315 3.133473
-1.590563 -1.062602 3.150261
-1.577175 -1.063753 3.157605
-1.563370 -1.064645 3.164018
-1.550312 -1.066068 3.171861
-1.537466 -1.067669 3.180086
-1.528324 -1.071900 3.196016
-1.517713 -1.075177 3.208976
-1.508550 -1.079558 3.225115
-1.494037 -1.080163 3.229846
-1.488674 -1.087465 3.254492
-1.481056 -1.093257 3.274522
-1.467014 -1.094381 3.280463
-1.461093 -1.101653 3.304729
-1.441026 -1.098303 3.297019
-0.472655 -0.581013 1.760008
-0.469285 -0.587163 1.778577
-0.463094 -0.589943 1.786920
-0.442584 -0.574248 1.739290
-0.432124 -0.571247 1.730097
-0.421382 -0.567753 1.719396
-0.412403 -0.566542 1.715600
-0.408138 -0.571890 1.731653
-0.396671 -0.567159 1.717174
-0.326968 -0.558677 1.689970
-0.319282 -0.559181 1.691273
-0.309351 -0.555678 1.680456
-0.300847 -0.554622 1.677037
-0.292818 -0.554409 1.676160
-0.285690 -0.555937 1.680549
-0.279605 -0.559643 1.691513
-0.271981 -0.560396 1.693549
-0.268478 -0.569941 1.722151
-0.260526 -0.570347 1.723131
-0.250125 -0.565245 1.707473
-0.242970 -0.567383 1.713689
-0.235188 -0.568156 1.715780
-0.225920 -0.565266 1.706812
-0.217492 -0.564341 1.703779
-0.209967 -0.565782 1.707891
-0.201928 -0.565897 1.708004
-0.194762 -0.568571 1.715844
-0.187633 -0.571595 1.724737
-0.180033 -0.573391 1.729931
-0.172227 -0.574673 1.733573
-0.164543 -0.576512 1.738901
-0.156386 -0.576801 1.739558
-0.026313 -0.102450 0.308938
-0.024857 -0.102482 0.308998
-0.023426 -0.102627 0.309401
-0.022033 -0.102967 0.310391
-0.020488 -0.102597 0.309243
-0.018914 -0.102014 0.307456
-0.017428 -0.101851 0.306934
-0.015963 -0.101794 0.306731
-0.014468 -0.101508 0.305843
-0.013048 -0.101749 0.306543
-0.011622 -0.101998 0.307268
-0.010202 -0.102374 0.308378
-0.008781 -0.102867 0.309840
-0.007324 -0.103060 0.310398
-0.005871 -0.103412 0.311441
-0.004418 -0.104007 0.313212
-0.002947 -0.104570 0.314891
-0.001451 -0.104508 0.314690
0.000043 -0.104759 0.315432
0.001540 -0.104675 0.315167
0.003029 -0.104420 0.314388
0.004529 -0.104573 0.314838
0.006035 -0.104760 0.315394
0.007520 -0.104580 0.314846
0.009013 -0.104548 0.314746
0.010452 -0.103987 0.313051
0.011903 -0.103671 0.312100
0.013346 -0.103365 0.311176
0.014784 -0.103086 0.310337
0.016258 -0.103084 0.310333
0.017800 -0.103471 0.311503
0.019345 -0.103821 0.312561
0.020783 -0.103587 0.311863
0.022294 -0.103724 0.312283
0.023815 -0.103884 0.312772
0.025232 -0.103601 0.311931
0.026783 -0.103865 0.312735
0.028095 -0.103228 0.310829
0.029556 -0.103170 0.310668
0.030961 -0.102933 0.309968
0.032346 -0.102656 0.309146
0.033692 -0.102280 0.308030
0.035030 -0.101915 0.306945
0.036326 -0.101462 0.305597
0.037606 -0.100998 0.304217
0.038862 -0.100510 0.302762
0.040179 -0.100207 0.301866
0.041243 -0.099314 0.299195
0.042338 -0.098554 0.296923
0.043546 -0.098096 0.295561
0.044611 -0.097357 0.293349
0.045597 -0.096493 0.290762
0.046638 -0.095794 0.288674
0.048001 -0.095778 0.288641
0.049111 -0.095270 0.287129
0.050133 -0.094624 0.285197
0.051284 -0.094250 0.284082
0.052481 -0.093977 0.283274
0.053665 -0.093694 0.282436
0.054639 -0.093068 0.280559
0.055851 -0.092868 0.279969
0.056860 -0.092346 0.278407
0.058019 -0.092086 0.277632
0.058992 -0.091549 0.276021
0.060073 -0.091200 0.274973
0.061310 -0.091096 0.274667
0.062335 -0.090690 0.273446
0.063254 -0.090148 0.271814
0.064201 -0.089668 0.270364
0.065256 -0.089354 0.269415
0.066370 -0.089130 0.268739
0.067390 -0.088791 0.267709
0.068315 -0.088342 0.266348
0.069268 -0.087945 0.265140
0.070326 -0.087693 0.264367
0.071414 -0.087487 0.263730
0.072365 -0.087122 0.262612
0.073282 -0.086730 0.261407
0.074225 -0.086382 0.260333
0.075309 -0.086205 0.259774
0.076246 -0.085869 0.258729
0.077128 -0.085483 0.257533
0.078011 -0.085109 0.256369
0.078915 -0.084770 0.255307
0.079909 -0.084536 0.254559
0.080828 -0.084231 0.253590
0.081803 -0.083992 0.252820
0.082718 -0.083700 0.251884
0.083512 -0.083295 0.250603
0.084316 -0.082911 0.249385
0.085114 -0.082532 0.248174
0.085879 -0.082132 0.246897
0.086025 -0.081159 0.243894
0.086305 -0.080337 0.241341
0.086650 -0.079595 0.239025
0.086855 -0.078746 0.236383
0.087374 -0.078199 0.234647
0.087676 -0.077476 0.232375
0.087453 -0.076311 0.228775
0.088038 -0.075872 0.227347
0.088802 -0.075596 0.226405
0.089312 -0.075113 0.224835
0.089852 -0.074666 0.223369
0.090494 -0.074313 0.222180
0.091232 -0.074047 0.221243
0.091840 -0.073683 0.220006
0.092625 -0.073467 0.219208
