ply
format ascii 1.0
element vertex 1686
property float x
property float y
property float z
end_header
0.074155 -0.059207 0.259964
0.074804 -0.058744 0.257969
0.075150 -0.058063 0.255010
0.075504 -0.057409 0.252171
0.076147 -0.056992 0.250365
0.076767 -0.056571 0.248541
0.077476 -0.056227 0.247051
0.078125 -0.055850 0.245416
0.076484 -0.053872 0.236737
0.076950 -0.053413 0.234734
0.077456 -0.052996 0.232908
0.077909 -0.052554 0.230970
0.078393 -0.052144 0.229174
0.079050 -0.051860 0.227922
0.079833 -0.051665 0.227058
0.080478 -0.051387 0.225828
0.080988 -0.051031 0.224250
0.081707 -0.050814 0.223281
0.082398 -0.050586 0.222255
0.083064 -0.050349 0.221186
0.083794 -0.050155 0.220306
0.084621 -0.050024 0.219694
0.085431 -0.049885 0.219048
0.086303 -0.049786 0.218568
0.087139 -0.049669 0.218005
0.087961 -0.049547 0.217413
0.088851 -0.049466 0.216995
0.089660 -0.049341 0.216384
0.090468 -0.049219 0.215776
0.091136 -0.049024 0.214845
0.091845 -0.048856 0.214023
0.092679 -0.048757 0.213501
0.093219 -0.048507 0.212311
0.093833 -0.048300 0.211305
0.094529 -0.048140 0.210496
0.095326 -0.048034 0.209917
0.095984 -0.047861 0.209037
0.096526 -0.047634 0.207917
0.097035 -0.047395 0.206739
0.097663 -0.047219 0.205828
0.098320 -0.047060 0.204983
0.098760 -0.046802 0.203700
0.099431 -0.046657 0.202900
0.100275 -0.046596 0.202456
0.100833 -0.046403 0.201436
0.101351 -0.046196 0.200344
0.101773 -0.045950 0.199074
0.102285 -0.045749 0.197989
0.102785 -0.045546 0.196888
0.103443 -0.045416 0.196096
-1.660356 -0.697701 3.103773
-1.653232 -0.700938 3.121557
-1.646309 -0.704321 3.139860
-1.629160 -0.703352 3.138615
-1.621380 -0.706448 3.155366
-1.609450 -0.707777 3.164099
-1.596882 -0.708849 3.171546
-1.585083 -0.710286 3.180500
-1.572319 -0.711316 3.187499
-1.558066 -0.711685 3.191414
-1.550289 -0.715050 3.208646
-1.536236 -0.715558 3.212949
-1.523201 -0.716557 3.219334
-1.511649 -0.718280 3.228868
-1.498002 -0.719034 3.233936
-1.487377 -0.721270 3.245564
-1.475862 -0.723117 3.255343
-1.465070 -0.725361 3.266815
-1.452169 -0.726598 3.273656
-1.439708 -0.728084 3.281526
-1.427367 -0.729665 3.289732
-1.415235 -0.731390 3.298493
-1.404812 -0.734046 3.311375
-1.393593 -0.736341 3.322544
-1.382334 -0.738669 3.333777
-1.368962 -0.739907 3.340016
-1.355743 -0.741259 3.346688
-1.342093 -0.742405 3.352352
-1.326522 -0.742504 3.353210
-1.311716 -0.743039 3.355967
-1.290230 -0.739757 3.341412
-0.053395 -0.061144 0.274013
-0.051399 -0.060328 0.270268
-0.050163 -0.060384 0.270436
-0.049103 -0.060661 0.271594
-0.047598 -0.060389 0.270293
-0.046420 -0.060527 0.270828
-0.045524 -0.061052 0.273092
-0.043227 -0.059674 0.266849
-0.042349 -0.060231 0.269258
-0.040861 -0.059928 0.267825
-0.035112 -0.053155 0.237486
-0.033496 -0.052396 0.234029
-0.032569 -0.052699 0.235316
-0.032870 -0.055082 0.245888
-0.031631 -0.054966 0.245303
-0.030038 -0.054202 0.241828
-0.028875 -0.054184 0.241684
-0.027860 -0.054454 0.242825
-0.026750 -0.054555 0.243215
-0.025740 -0.054876 0.244589
-0.024657 -0.055066 0.245377
-0.023612 -0.055365 0.246653
-0.022470 -0.055454 0.246996
-0.021319 -0.055532 0.247288
-0.020243 -0.055824 0.248541
-0.019255 -0.056411 0.251104
-0.018117 -0.056607 0.251929
-0.016928 -0.056662 0.252128
-0.015762 -0.056805 0.252721
-0.014599 -0.056988 0.253491
-0.013420 -0.057133 0.254100
-0.012243 -0.057321 0.254900
-0.011034 -0.057382 0.255132
-0.009839 -0.057542 0.255811
-0.008633 -0.057672 0.256362
-0.007453 -0.058043 0.257981
-0.006237 -0.058239 0.258828
-0.005005 -0.058333 0.259222
-0.003776 -0.058547 0.260154
-0.002535 -0.058691 0.260776
-0.001289 -0.058876 0.261582
-0.000035 -0.059050 0.262345
0.001227 -0.059240 0.263178
0.002499 -0.059465 0.264169
0.003769 -0.059520 0.264410
0.005052 -0.059697 0.265195
0.006339 -0.059833 0.265799
0.007646 -0.060088 0.266934
0.008945 -0.060208 0.267474
0.010242 -0.060292 0.267854
0.011559 -0.060462 0.268620
0.012897 -0.060692 0.269657
0.014292 -0.061125 0.271596
0.015633 -0.061276 0.272285
0.017050 -0.061679 0.274099
0.018377 -0.061718 0.274294
0.019718 -0.061799 0.274682
0.021084 -0.061942 0.275345
0.022451 -0.062068 0.275938
0.023850 -0.062268 0.276860
0.025235 -0.062409 0.277521
0.026656 -0.062622 0.278509
0.027985 -0.062607 0.278480
0.029485 -0.062959 0.280090
0.030948 -0.063206 0.281234
0.032415 -0.063440 0.282320
0.033827 -0.063550 0.282861
0.035187 -0.063558 0.282947
0.036660 -0.063763 0.283909
0.038061 -0.063831 0.284270
0.039689 -0.064264 0.286253
0.041061 -0.064266 0.286316
0.042454 -0.064299 0.286524
0.043872 -0.064369 0.286893
0.045292 -0.064435 0.287249
0.046693 -0.064471 0.287474
0.048069 -0.064472 0.287542
0.049441 -0.064467 0.287584
0.050776 -0.064417 0.287422
0.052001 -0.064233 0.286666
0.052853 -0.063608 0.283945
0.053588 -0.062878 0.280748
0.054158 -0.061994 0.276867
0.055446 -0.061956 0.276759
0.056550 -0.061718 0.275762
0.057721 -0.061563 0.275129
0.058827 -0.061345 0.274222
0.060084 -0.061292 0.274045
0.061251 -0.061152 0.273481
0.062337 -0.060938 0.272585
0.063438 -0.060746 0.271789
0.064523 -0.060548 0.270959
0.065645 -0.060391 0.270314
0.066743 -0.060219 0.269602
0.067763 -0.059984 0.268607
0.068808 -0.059780 0.267744
0.069910 -0.059631 0.267130
0.070836 -0.059341 0.265879
0.071718 -0.059024 0.264509
0.072706 -0.058804 0.263567
0.073609 -0.058524 0.262356
0.074334 -0.058114 0.260560
0.074786 -0.057507 0.257877
0.075285 -0.056955 0.255442
0.075748 -0.056395 0.252962
0.076363 -0.055963 0.251054
0.076793 -0.055411 0.248607
0.077103 -0.054791 0.245847
0.076728 -0.053709 0.241014
0.076491 -0.052754 0.236748
0.076862 -0.052241 0.234459
0.077613 -0.051997 0.233375
0.078165 -0.051628 0.231727
0.078345 -0.051027 0.229031
0.078946 -0.050713 0.227624
0.079836 -0.050590 0.227070
0.080430 -0.050286 0.225698
0.081127 -0.050054 0.224644
0.081567 -0.049671 0.222910
0.082300 -0.049473 0.222004
0.083105 -0.049324 0.221311
0.083922 -0.049185 0.220660
0.084680 -0.049015 0.219867
0.085510 -0.048892 0.219275
0.086382 -0.048794 0.218796
0.087241 -0.048691 0.218288
0.087901 -0.048482 0.217296
0.088821 -0.048419 0.216955
0.089696 -0.048333 0.216507
0.090206 -0.048054 0.215191
0.091083 -0.047975 0.214763
0.091824 -0.047827 0.214019
0.092436 -0.047616 0.212989
0.093141 -0.047456 0.212182
0.093830 -0.047293 0.211352
0.094518 -0.047131 0.210526
0.095211 -0.046976 0.209721
0.096003 -0.046873 0.209139
0.096651 -0.046702 0.208251
0.097231 -0.046502 0.207225
0.097730 -0.046267 0.206039
0.098001 -0.045931 0.204392
0.098598 -0.045752 0.203440
0.099452 -0.045695 0.203022
0.100023 -0.045510 0.202030
0.100681 -0.045368 0.201217
0.101202 -0.045168 0.200138
0.101727 -0.044973 0.199075
0.102530 -0.044903 0.198559
0.102925 -0.044658 0.197255
0.103414 -0.044457 0.196142
-1.672516 -0.687828 3.127936
-1.656064 -0.687170 3.128280
-1.643248 -0.688024 3.135346
-1.637295 -0.691795 3.155564
-1.620768 -0.691126 3.155399
-1.609250 -0.692601 3.164878
-1.599028 -0.694669 3.176934
-1.585263 -0.695222 3.181937
-1.574474 -0.697104 3.192898
-1.561517 -0.698055 3.199468
-1.546847 -0.698251 3.202460
-1.533233 -0.698933 3.207559
-1.522706 -0.701051 3.219135
-1.510280 -0.702329 3.226747
-1.499016 -0.704180 3.236886
-1.490067 -0.707168 3.252155
-1.476217 -0.707868 3.256802
-1.464788 -0.709758 3.266821
-1.453133 -0.711577 3.276422
-1.439560 -0.712486 3.281741
-1.427304 -0.714075 3.290099
-1.416085 -0.716224 3.300946
-1.403722 -0.717836 3.309235
-1.392419 -0.720033 3.320138
-1.381888 -0.722684 3.333054
-1.369308 -0.724312 3.341174
-1.355839 -0.725504 3.347202
-1.345162 -0.728235 3.360255
-1.324758 -0.725703 3.348949
-1.307524 -0.724869 3.345400
-1.293898 -0.726040 3.351034
-0.054365 -0.060927 0.278894
-0.053102 -0.060996 0.279122
-0.051009 -0.060092 0.274897
-0.049499 -0.059844 0.273679
-0.049034 -0.060882 0.278336
-0.047379 -0.060458 0.276312
-0.042635 -0.055957 0.255660
-0.040656 -0.054926 0.250874
-0.039424 -0.054873 0.250558
-0.036282 -0.052075 0.237706
-0.034575 -0.051223 0.233748
-0.033722 -0.051621 0.235499
-0.032220 -0.051020 0.232689
-0.031728 -0.052032 0.237237
-0.030629 -0.052088 0.237425
-0.029877 -0.052760 0.240423
-0.028803 -0.052893 0.240967
-0.027827 -0.053226 0.242418
-0.026778 -0.053444 0.243348
-0.025721 -0.053662 0.244282
-0.024735 -0.054058 0.246025
-0.023601 -0.054154 0.246405
-0.022507 -0.054356 0.247271
-0.021403 -0.054555 0.248119
-0.020279 -0.054725 0.248841
-0.019191 -0.055018 0.250125
-0.018115 -0.055388 0.251755
-0.016929 -0.055449 0.251988
-0.015754 -0.055558 0.252439
-0.014591 -0.055735 0.253199
-0.013424 -0.055924 0.254022
-0.012243 -0.056090 0.254735
-0.011041 -0.056182 0.255122
-0.009849 -0.056354 0.255869
-0.008663 -0.056623 0.257057
-0.007472 -0.056933 0.258436
-0.006251 -0.057101 0.259176
-0.005017 -0.057199 0.259597
-0.003780 -0.057320 0.260123
-0.002538 -0.057453 0.260710
-0.001293 -0.057705 0.261840
-0.000037 -0.057860 0.262529
0.001225 -0.058004 0.263173
0.002493 -0.058114 0.263667
0.003768 -0.058270 0.264366
0.005054 -0.058477 0.265307
0.006367 -0.058843 0.266967
0.007655 -0.058895 0.267204
0.008958 -0.059028 0.267816
0.010264 -0.059147 0.268363
0.011570 -0.059241 0.268802
0.012889 -0.059377 0.269433
0.014223 -0.059548 0.270226
0.015564 -0.059717 0.271010
0.017001 -0.060200 0.273227
0.018408 -0.060515 0.274682
0.019754 -0.060599 0.275088
0.021102 -0.060682 0.275493
0.022471 -0.060808 0.276100
0.023827 -0.060888 0.276498
0.025237 -0.061090 0.277452
0.026610 -0.061187 0.277932
0.028199 -0.061748 0.280519
0.029516 -0.061689 0.280296
0.030980 -0.061929 0.281434
0.032359 -0.061986 0.281740
0.033760 -0.062078 0.282209
0.035228 -0.062282 0.283188
0.036682 -0.062447 0.283991
0.038081 -0.062509 0.284330
0.039579 -0.062725 0.285368
0.041054 -0.062890 0.286176
0.042500 -0.063001 0.286745
0.043918 -0.063067 0.287104
0.045327 -0.063114 0.287384
0.046757 -0.063188 0.287784
0.048170 -0.063234 0.288058
0.049523 -0.063202 0.287977
0.050878 -0.063174 0.287915
0.052126 -0.063018 0.287272
0.053127 -0.062578 0.285335
0.053324 -0.061238 0.279291
0.054397 -0.060944 0.278015
0.055345 -0.060528 0.276182
0.056643 -0.060506 0.276146
0.057844 -0.060382 0.275646
0.059021 -0.060239 0.275059
0.060185 -0.060090 0.274442
0.061256 -0.059856 0.273440
0.062383 -0.059685 0.272722
0.063505 -0.059518 0.272018
0.064543 -0.059279 0.270988
0.065498 -0.058975 0.269659
0.066655 -0.058861 0.269196
0.067756 -0.058702 0.268529
0.068688 -0.058406 0.267228
0.069542 -0.058055 0.265679
0.070566 -0.057857 0.264824
0.071666 -0.057726 0.264276
0.072524 -0.057409 0.262872
0.073333 -0.057064 0.261338
0.074302 -0.056852 0.260413
0.075102 -0.056521 0.258937
0.075907 -0.056205 0.257526
0.075456 -0.054982 0.251962
0.076004 -0.054515 0.249851
0.076330 -0.053906 0.247089
0.076449 -0.053170 0.243744
0.077188 -0.052881 0.242444
0.077541 -0.052341 0.239987
0.076655 -0.050992 0.233820
0.077107 -0.050559 0.231847
0.077966 -0.050401 0.231133
0.078635 -0.050126 0.229879
0.079200 -0.049794 0.228357
0.079756 -0.049465 0.226847
0.080517 -0.049270 0.225948
0.080843 -0.048817 0.223863
0.081471 -0.048556 0.222655
0.082312 -0.048428 0.222049
0.083111 -0.048278 0.221341
0.083896 -0.048124 0.220610
0.084700 -0.047984 0.219941
0.085549 -0.047873 0.219397
0.086370 -0.047749 0.218789
0.087142 -0.047601 0.218067
0.087994 -0.047500 0.217555
0.088720 -0.047334 0.216741
0.089410 -0.047153 0.215852
0.090230 -0.047044 0.215284
0.090949 -0.046885 0.214486
0.091638 -0.046715 0.213629
0.092362 -0.046565 0.212862
0.093228 -0.046490 0.212429
0.093854 -0.046298 0.211455
0.094535 -0.046137 0.210616
0.095344 -0.046041 0.210071
0.095997 -0.045873 0.209186
0.096633 -0.045700 0.208274
0.097206 -0.045500 0.207235
0.097599 -0.045222 0.205831
0.098300 -0.045091 0.205086
0.098641 -0.044798 0.203603
0.099400 -0.044699 0.202993
0.100172 -0.044608 0.202409
0.100625 -0.044378 0.201187
0.101195 -0.044204 0.200210
0.101759 -0.044029 0.199226
0.102501 -0.043935 0.198595
0.103035 -0.043754 0.197562
0.103315 -0.043470 0.196053
-1.675056 -0.673868 3.134069
-1.652962 -0.670944 3.123742
-1.638067 -0.670916 3.126728
-1.632849 -0.674888 3.148219
-1.614337 -0.673389 3.144047
-1.603261 -0.674994 3.154222
-1.592965 -0.676960 3.165964
-1.583343 -0.679254 3.179115
-1.570512 -0.680203 3.185848
-1.555492 -0.680214 3.188061
-1.544171 -0.681859 3.197813
-1.533141 -0.683667 3.208217
-1.520387 -0.684735 3.215040
-1.510197 -0.686992 3.227337
-1.499211 -0.688930 3.238032
-1.487459 -0.690552 3.247145
-1.475315 -0.692025 3.255455
-1.462934 -0.693417 3.263285
-1.451533 -0.695308 3.273374
-1.440266 -0.697306 3.283872
-1.427837 -0.698780 3.291809
-1.415547 -0.700354 3.300133
-1.403863 -0.702267 3.309971
-1.391741 -0.704003 3.318886
-1.382239 -0.707118 3.334227
-1.369184 -0.708468 3.341161
-1.356332 -0.709954 3.348666
-1.344486 -0.712010 3.358779
-1.330010 -0.712706 3.362400
-1.314434 -0.712822 3.363217
-1.293239 -0.709858 3.349425
-0.053170 -0.059742 0.279380
-0.051291 -0.059106 0.276315
-0.050334 -0.059526 0.278191
-0.045568 -0.055344 0.258564
-0.043877 -0.054768 0.255787
-0.041812 -0.053678 0.250621
-0.039952 -0.052796 0.246425
-0.037457 -0.050997 0.237952
-0.035727 -0.050159 0.233970
-0.034578 -0.050109 0.233666
-0.033516 -0.050186 0.233956
-0.032796 -0.050799 0.236744
-0.031852 -0.051096 0.238059
-0.030832 -0.051287 0.238882
-0.029797 -0.051469 0.239666
-0.028857 -0.051836 0.241307
-0.027855 -0.052116 0.242548
-0.026769 -0.052257 0.243138
-0.025720 -0.052488 0.244155
-0.024693 -0.052787 0.245484
-0.023665 -0.053114 0.246947
-0.022568 -0.053311 0.247807
-0.021441 -0.053457 0.248428
-0.020311 -0.053611 0.249093
-0.019182 -0.053788 0.249863
-0.018081 -0.054073 0.251139
-0.016936 -0.054257 0.251947
-0.015732 -0.054265 0.251939
-0.014599 -0.054541 0.253179
-0.013414 -0.054657 0.253675
-0.012226 -0.054781 0.254212
-0.011041 -0.054949 0.254957
-0.009839 -0.055061 0.255444
-0.008635 -0.055194 0.256028
-0.007434 -0.055393 0.256923
-0.006263 -0.055941 0.259441
-0.005009 -0.055836 0.258930
-0.003778 -0.056004 0.259689
-0.002543 -0.056261 0.260861
-0.001294 -0.056346 0.261240
-0.000040 -0.056636 0.262573
0.001223 -0.056763 0.263152
0.002496 -0.056987 0.264184
0.003775 -0.057153 0.264947
0.005061 -0.057313 0.265687
0.006363 -0.057547 0.266771
0.007666 -0.057717 0.267563
0.008974 -0.057863 0.268246
0.010289 -0.058015 0.268962
0.011600 -0.058115 0.269437
0.012909 -0.058183 0.269768
0.014245 -0.058352 0.270566
0.015603 -0.058571 0.271604
0.017015 -0.058946 0.273365
0.018374 -0.059096 0.274087
0.019732 -0.059223 0.274701
0.021105 -0.059375 0.275439
0.022459 -0.059458 0.275857
0.023859 -0.059648 0.276775
0.025239 -0.059773 0.277389
0.026612 -0.059865 0.277860
0.027974 -0.059928 0.278191
0.029516 -0.060351 0.280203
0.030971 -0.060569 0.281259
0.032407 -0.060732 0.282065
0.033847 -0.060889 0.282845
0.035306 -0.061065 0.283718
0.036735 -0.061180 0.284309
0.038178 -0.061309 0.284964
0.039622 -0.061430 0.285585
0.041059 -0.061532 0.286122
0.042486 -0.061614 0.286563
0.043926 -0.061709 0.287067
0.045383 -0.061821 0.287652
0.046774 -0.061838 0.287800
0.048152 -0.061838 0.287865
0.049562 -0.061878 0.288119
0.050911 -0.061842 0.288020
0.052158 -0.061687 0.287365
0.053110 -0.061200 0.285167
0.053848 -0.060497 0.281960
0.054757 -0.060016 0.279785
0.055478 -0.059356 0.276777
0.056758 -0.059311 0.276633
0.057965 -0.059193 0.276154
0.059071 -0.058981 0.275229
0.060154 -0.058754 0.274238
0.061274 -0.058573 0.273457
0.062375 -0.058381 0.272630
0.063472 -0.058194 0.271819
0.064489 -0.057942 0.270706
0.065630 -0.057809 0.270146
0.066684 -0.057607 0.269262
0.067675 -0.057358 0.268159
0.068764 -0.057200 0.267479
0.069723 -0.056941 0.266325
0.070692 -0.056700 0.265253
0.071656 -0.056464 0.264199
0.072489 -0.056134 0.262706
0.073554 -0.055992 0.262089
0.074436 -0.055718 0.260853
0.075148 -0.055327 0.259066
0.074247 -0.053781 0.251867
0.075328 -0.053696 0.251510
0.076332 -0.053560 0.250907
0.076994 -0.053192 0.249215
0.075991 -0.051702 0.242265
0.076378 -0.051189 0.239884
0.075867 -0.050098 0.234794
0.076359 -0.049691 0.232906
0.077272 -0.049565 0.232332
0.078147 -0.049419 0.231660
0.078795 -0.049136 0.230342
0.079135 -0.048671 0.228167
0.079649 -0.048324 0.226541
0.080534 -0.048208 0.225998
0.081030 -0.047867 0.224389
0.081734 -0.047654 0.223382
0.082388 -0.047418 0.222264
0.083168 -0.047260 0.221506
0.083883 -0.047070 0.220591
0.084672 -0.046925 0.219883
0.085344 -0.046720 0.218890
0.086055 -0.046540 0.218012
0.086828 -0.046398 0.217306
0.087627 -0.046274 0.216675
0.088432 -0.046155 0.216067
0.089203 -0.046021 0.215383
0.089967 -0.045887 0.214692
0.090859 -0.045820 0.214312
0.091563 -0.045661 0.213493
0.092364 -0.045554 0.212910
0.093206 -0.045468 0.212424
0.093901 -0.045314 0.211608
0.094605 -0.045167 0.210823
0.095304 -0.045021 0.210035
0.096025 -0.044888 0.209303
0.096795 -0.044781 0.208680
0.097385 -0.044593 0.207679
0.097769 -0.044316 0.206252
0.098140 -0.044038 0.204820
0.098878 -0.043929 0.204162
0.099439 -0.043744 0.203145
0.099955 -0.043544 0.202047
0.100674 -0.043434 0.201365
0.101125 -0.043213 0.200154
0.101722 -0.043056 0.199239
0.102540 -0.042996 0.198759
0.103085 -0.042824 0.197750
0.103504 -0.042603 0.196508
-1.682731 -0.661883 3.149765
-1.658858 -0.658345 3.136161
-1.643815 -0.658280 3.138923
-1.638594 -0.662183 3.160475
-1.619906 -0.660667 3.156022
-1.606818 -0.661429 3.162302
-1.593482 -0.662102 3.168025
-1.580788 -0.663058 3.174973
-1.570283 -0.664961 3.186327
-1.554714 -0.664735 3.187365
-1.541508 -0.665526 3.193152
-1.531392 -0.667681 3.205370
-1.521509 -0.669982 3.218184
-1.510618 -0.671881 3.228966
-1.498752 -0.673382 3.237729
-1.487167 -0.675042 3.247156
-1.474520 -0.676250 3.254307
-1.463422 -0.678202 3.264944
-1.452054 -0.680069 3.275080
-1.439507 -0.681419 3.282632
-1.427338 -0.682979 3.291110
-1.414199 -0.684105 3.297404
-1.403271 -0.686338 3.308950
-1.391322 -0.688117 3.318224
-1.381677 -0.691089 3.333171
-1.369252 -0.692723 3.341589
-1.354724 -0.693320 3.344921
-1.341655 -0.694687 3.351895
-1.328958 -0.696281 3.359892
-1.312277 -0.695803 3.357812
-1.294498 -0.694723 3.352763
-0.050137 -0.055078 0.263346
-0.048942 -0.055140 0.263558
-0.046839 -0.054157 0.258774
-0.045217 -0.053692 0.256469
-0.043444 -0.053018 0.253163
-0.041032 -0.051502 0.245846
-0.038945 -0.050318 0.240118
-0.037218 -0.049541 0.236337
-0.035784 -0.049119 0.234248
-0.034749 -0.049233 0.234720
-0.033892 -0.049617 0.236478
-0.032947 -0.049894 0.237727
-0.031926 -0.050070 0.238497
-0.030873 -0.050209 0.239092
-0.029790 -0.050307 0.239491
-0.028808 -0.050591 0.240776
-0.027817 -0.050882 0.242097
-0.026866 -0.051276 0.243904
-0.025785 -0.051445 0.244645
-0.024759 -0.051745 0.246012
-0.023663 -0.051923 0.246797
-0.022579 -0.052145 0.247798
-0.021439 -0.052257 0.248273
-0.020305 -0.052398 0.248890
-0.019240 -0.052744 0.250480
-0.018136 -0.053025 0.251764
-0.016984 -0.053192 0.252512
-0.015820 -0.053349 0.253209
-0.014627 -0.053422 0.253514
-0.013449 -0.053571 0.254177
-0.012256 -0.053681 0.254663
-0.011049 -0.053750 0.254955
-0.009854 -0.053907 0.255662
-0.008644 -0.054004 0.256093
-0.007449 -0.054250 0.257229
-0.006242 -0.054492 0.258352
-0.005008 -0.054560 0.258649
-0.003779 -0.054741 0.259488
-0.002546 -0.055017 0.260778
-0.001299 -0.055221 0.261728
-0.000042 -0.055289 0.262038
0.001221 -0.055534 0.263191
0.002494 -0.055722 0.264075
0.003773 -0.055875 0.264797
0.005061 -0.056060 0.265671
0.006349 -0.056166 0.266173
0.007648 -0.056312 0.266870
0.008964 -0.056529 0.267904
0.010283 -0.056704 0.268743
0.011597 -0.056819 0.269300
0.012916 -0.056931 0.269847
0.014290 -0.057242 0.271338
0.015697 -0.057623 0.273164
0.017061 -0.057796 0.274011
0.018429 -0.057960 0.274813
0.019776 -0.058041 0.275227
0.021108 -0.058067 0.275382
0.022513 -0.058283 0.276438
0.023881 -0.058381 0.276941
0.025306 -0.058603 0.278033
0.026610 -0.058534 0.277746
0.028117 -0.058899 0.279521
0.029585 -0.059152 0.280767
0.030999 -0.059279 0.281418
0.032375 -0.059326 0.281692
0.033825 -0.059499 0.282564
0.035312 -0.059721 0.283675
0.036817 -0.059957 0.284850
0.038213 -0.060003 0.285131
0.039695 -0.060177 0.286017
0.041148 -0.060297 0.286649
0.042580 -0.060380 0.287106
0.044033 -0.060486 0.287674
0.045446 -0.060531 0.287957
0.046845 -0.060557 0.288148
0.048228 -0.060561 0.288235
0.049610 -0.060563 0.288315
0.050991 -0.060564 0.288391
0.052272 -0.060448 0.287910
0.053234 -0.059981 0.285753
0.053859 -0.059165 0.281939
0.054739 -0.058663 0.279614
0.055482 -0.058042 0.276724
0.056815 -0.058052 0.276843
0.057958 -0.057871 0.276051
0.059043 -0.057643 0.275032
0.060169 -0.057463 0.274240
0.061281 -0.057278 0.273425
0.062381 -0.057090 0.272596
0.063473 -0.056902 0.271763
0.064477 -0.056644 0.270599
0.065633 -0.056527 0.270104
0.066523 -0.056190 0.268558
0.067583 -0.056007 0.267745
0.068745 -0.055913 0.267355
0.069687 -0.055648 0.266144
0.070646 -0.055404 0.265035
0.071318 -0.054949 0.262913
0.072322 -0.054760 0.262060
0.073246 -0.054518 0.260957
0.074170 -0.054284 0.259883
0.075043 -0.054022 0.258673
0.075684 -0.053603 0.256711
0.075683 -0.052750 0.252667
0.075937 -0.052099 0.249587
0.076613 -0.051752 0.247960
0.076887 -0.051150 0.245105
0.076964 -0.050435 0.241709
0.076966 -0.049694 0.238181
0.076378 -0.048598 0.232950
0.077143 -0.048383 0.231934
0.077972 -0.048213 0.231135
0.078634 -0.047946 0.229865
0.079033 -0.047528 0.227870
0.079861 -0.047376 0.227146
0.080662 -0.047212 0.226359
0.081429 -0.047033 0.225496
0.081878 -0.046677 0.223782
0.082538 -0.046449 0.222679
0.083149 -0.046200 0.221466
0.083889 -0.046027 0.220620
0.084606 -0.045846 0.219728
0.085394 -0.045708 0.219035
0.086088 -0.045524 0.218118
0.086828 -0.045367 0.217330
0.087632 -0.045248 0.216712
0.088383 -0.045104 0.215975
0.089160 -0.044977 0.215310
0.089850 -0.044809 0.214446
0.090806 -0.044775 0.214220
0.091538 -0.044634 0.213473
0.092275 -0.044498 0.212744
0.093071 -0.044393 0.212159
0.093791 -0.044255 0.211407
0.094490 -0.044109 0.210615
0.095111 -0.043931 0.209661
0.095729 -0.043755 0.208710
0.096470 -0.043638 0.208036
0.097163 -0.043503 0.207265
0.097635 -0.043271 0.206031
0.098366 -0.043158 0.205354
0.098651 -0.042854 0.203759
0.099343 -0.042731 0.203020
0.100058 -0.042620 0.202328
0.100509 -0.042399 0.201109
0.100966 -0.042186 0.199918
0.101464 -0.041993 0.198816
0.102454 -0.042005 0.198677
0.103062 -0.041863 0.197794
0.103475 -0.041644 0.196543
-1.685820 -0.647999 3.156835
-1.662576 -0.644796 3.144419
-1.645551 -0.643970 3.143417
-1.640394 -0.647816 3.165083
-1.623082 -0.646888 3.163294
-1.606299 -0.646158 3.162316
-1.592264 -0.646531 3.166595
-1.581617 -0.648299 3.177586
-1.566313 -0.648175 3.179174
-1.551597 -0.648295 3.181831
-1.543587 -0.651248 3.198277
-1.529524 -0.651680 3.202235
-1.516919 -0.652750 3.209210
-1.508307 -0.655576 3.224720
-1.496311 -0.656975 3.233111
-1.486142 -0.659214 3.245533
-1.474262 -0.660733 3.254314
-1.462856 -0.662500 3.264219
-1.451881 -0.664501 3.275188
-1.439606 -0.665945 3.283319
-1.425702 -0.666659 3.287759
-1.414291 -0.668568 3.298004
-1.403001 -0.670577 3.308663
-1.391238 -0.672404 3.318334
-1.380136 -0.674595 3.329730
-1.368663 -0.676654 3.340389
-1.353338 -0.676835 3.341701
-1.339251 -0.677647 3.346053
-1.325340 -0.678569 3.350873
-1.312743 -0.680195 3.359098
-1.296839 -0.680126 3.358883
-0.055526 -0.055455 0.271516
-0.052636 -0.053818 0.263412
-0.051080 -0.053499 0.261760
-0.049314 -0.052938 0.258928
-0.047674 -0.052487 0.256635
-0.046045 -0.052025 0.254292
-0.043775 -0.050794 0.248194
-0.042369 -0.050527 0.246805
-0.040404 -0.049557 0.241985
-0.038718 -0.048883 0.238620
-0.037040 -0.048179 0.235107
-0.035748 -0.047949 0.233910
-0.034761 -0.048127 0.234703
-0.033894 -0.048487 0.236388
-0.032963 -0.048779 0.237737
-0.032018 -0.049069 0.239082
-0.030961 -0.049203 0.239662
-0.029950 -0.049423 0.240664
-0.028876 -0.049553 0.241229
-0.027989 -0.050029 0.243479
-0.026911 -0.050188 0.244188
-0.025842 -0.050381 0.245064
-0.024819 -0.050684 0.246479
-0.023720 -0.050858 0.247260
-0.022584 -0.050965 0.247722
-0.021474 -0.051145 0.248540
-0.020349 -0.051309 0.249287
-0.019224 -0.051495 0.250137
-0.018116 -0.051752 0.251335
-0.016963 -0.051910 0.252050
-0.015745 -0.051880 0.251859
-0.014623 -0.052183 0.253289
-0.013421 -0.052234 0.253494
-0.012249 -0.052422 0.254366
-0.011069 -0.052614 0.255260
-0.009850 -0.052642 0.255365
-0.008672 -0.052936 0.256756
-0.007459 -0.053071 0.257384
-0.006252 -0.053316 0.258544
-0.005025 -0.053471 0.259274
-0.003792 -0.053646 0.260102
-0.002550 -0.053792 0.260791
-0.001303 -0.054028 0.261918
-0.000045 -0.054313 0.263286
0.001222 -0.054418 0.263786
0.002492 -0.054459 0.263979
0.003772 -0.054637 0.264835
0.005060 -0.054794 0.265596
0.006378 -0.055156 0.267350
0.007684 -0.055307 0.268086
0.008985 -0.055388 0.268489
0.010301 -0.055528 0.269176
0.011640 -0.055745 0.270239
0.012987 -0.055950 0.271251
0.014306 -0.056011 0.271562
0.015672 -0.056230 0.272645
0.017019 -0.056353 0.273268
0.018394 -0.056543 0.274217
0.019753 -0.056660 0.274813
0.021097 -0.056724 0.275154
0.022457 -0.056821 0.275659
0.023839 -0.056959 0.276366
0.025277 -0.057209 0.277622
0.026690 -0.057380 0.278493
0.028187 -0.057707 0.280124
0.029659 -0.057953 0.281366
0.030991 -0.057919 0.281251
0.032410 -0.058042 0.281898
0.033850 -0.058192 0.282679
0.035267 -0.058291 0.283218
0.036762 -0.058508 0.284332
0.038303 -0.058779 0.285708
0.039743 -0.058883 0.286272
0.041117 -0.058885 0.286346
0.042557 -0.058977 0.286860
0.044052 -0.059137 0.287705
0.045469 -0.059188 0.288018
0.046841 -0.059177 0.288038
0.048253 -0.059217 0.288299
0.049651 -0.059236 0.288466
0.050996 -0.059194 0.288334
0.052314 -0.059124 0.288062
0.053285 -0.058674 0.285945
0.053972 -0.057943 0.282454
0.054725 -0.057316 0.279471
0.055788 -0.057035 0.278173
0.056868 -0.056786 0.277030
0.058061 -0.056657 0.276471
0.059140 -0.056425 0.275412
0.060236 -0.056220 0.274481
0.061382 -0.056069 0.273813
0.062443 -0.055848 0.272803
0.063474 -0.055609 0.271706
0.064561 -0.055429 0.270893
0.065715 -0.055312 0.270388
0.066618 -0.054992 0.268889
0.067556 -0.054713 0.267586
0.068729 -0.054630 0.267246
0.069713 -0.054403 0.266197
0.070537 -0.054061 0.264583
0.071560 -0.053882 0.263763
0.072064 -0.053324 0.261086
0.072727 -0.052901 0.259068
0.072950 -0.052178 0.255576
0.073678 -0.051834 0.253936
0.074045 -0.051250 0.251124
0.074821 -0.050964 0.249762
0.075617 -0.050700 0.248508
0.076294 -0.050365 0.246905
0.076843 -0.049959 0.244944
0.076586 -0.049047 0.240506
0.075597 -0.047700 0.233928
0.076321 -0.047458 0.232764
0.076918 -0.047145 0.231249
0.077896 -0.047071 0.230900
0.078705 -0.046898 0.230067
0.079270 -0.046587 0.228549
0.079895 -0.046318 0.227239
0.080769 -0.046200 0.226659
0.081352 -0.045920 0.225286
0.082015 -0.045692 0.224164
0.082555 -0.045402 0.222730
0.083245 -0.045201 0.221732
0.083858 -0.044964 0.220549
0.084659 -0.044832 0.219879
0.085463 -0.044705 0.219229
0.086120 -0.044505 0.218217
0.086775 -0.044309 0.217216
0.087619 -0.044212 0.216703
0.088436 -0.044105 0.216128
0.089054 -0.043902 0.215081
0.089794 -0.043763 0.214343
0.090570 -0.043644 0.213697
0.091453 -0.043579 0.213309
0.092142 -0.043424 0.212476
0.092847 -0.043280 0.211688
0.093653 -0.043185 0.211138
0.094349 -0.043043 0.210347
0.094998 -0.042882 0.209460
0.095604 -0.042704 0.208488
0.096371 -0.042603 0.207877
0.097066 -0.042471 0.207112
0.097617 -0.042280 0.206052
0.098342 -0.042167 0.205366
0.098952 -0.042008 0.204446
0.099410 -0.041788 0.203222
0.099867 -0.041571 0.202012
0.100450 -0.041411 0.201065
0.100886 -0.041194 0.199833
0.101307 -0.040975 0.198585
0.102060 -0.040893 0.197994
0.102768 -0.040794 0.197313
0.103197 -0.040588 0.196103
-1.680894 -0.631052 3.148845
-1.671037 -0.632978 3.161611
-1.646270 -0.629240 3.145922
-1.638764 -0.632093 3.163028
-1.622190 -0.631469 3.162598
-1.606445 -0.631160 3.163598
-1.590095 -0.630606 3.163228
-1.574872 -0.630493 3.164937
-1.564366 -0.632285 3.176083
-1.548829 -0.632060 3.176974
-1.538621 -0.634026 3.188766
-1.526899 -0.635403 3.197478
-1.516802 -0.637490 3.209661
-1.507853 -0.640107 3.224412
-1.498576 -0.642637 3.238628
-1.487958 -0.644639 3.250083
-1.476765 -0.646431 3.260386
-1.464757 -0.647902 3.268968
-1.453059 -0.649542 3.278316
-1.440582 -0.650867 3.285978
-1.428441 -0.652374 3.294472
-1.416342 -0.653934 3.303147
-1.406031 -0.656364 3.316130
-1.394137 -0.658102 3.325537
-1.381946 -0.659737 3.334346
-1.370085 -0.661571 3.344077
-1.355354 -0.662045 3.346859
-1.342127 -0.663275 3.353383
-1.329875 -0.665021 3.362448
-1.316715 -0.666351 3.369335
-1.303826 -0.667853 3.377021
-0.058026 -0.054089 0.271250
-0.056299 -0.053670 0.269055
-0.055593 -0.054226 0.271751
-0.053123 -0.053048 0.265755
-0.050676 -0.051837 0.259596
-0.048869 -0.051236 0.256497
-0.047234 -0.050789 0.254172
-0.044601 -0.049217 0.246222
-0.043585 -0.049394 0.247024
-0.042489 -0.049487 0.247406
-0.041355 -0.049539 0.247584
-0.039985 -0.049305 0.246332
-0.037824 -0.048051 0.239984
-0.036413 -0.047701 0.238160
-0.034815 -0.047076 0.234966
-0.033868 -0.047319 0.236103
-0.032939 -0.047604 0.237455
-0.032005 -0.047904 0.238875
-0.031033 -0.048166 0.240113
-0.030026 -0.048392 0.241168
-0.029080 -0.048737 0.242816
-0.028062 -0.048987 0.243995
-0.026950 -0.049086 0.244423
-0.025836 -0.049191 0.244880
-0.024784 -0.049431 0.246012
-0.023701 -0.049629 0.246934
-0.022605 -0.049819 0.247825
-0.021504 -0.050019 0.248759
-0.020397 -0.050228 0.249744
-0.019271 -0.050413 0.250610
-0.018116 -0.050540 0.251191
-0.016978 -0.050738 0.252126
-0.015793 -0.050817 0.252469
-0.014618 -0.050944 0.253054
-0.013475 -0.051214 0.254357
-0.012261 -0.051241 0.254451
-0.011063 -0.051350 0.254953
-0.009857 -0.051445 0.255392
-0.008644 -0.051521 0.255737
-0.007441 -0.051696 0.256578
-0.006232 -0.051893 0.257526
-0.005026 -0.052217 0.259110
-0.003787 -0.052287 0.259436
-0.002553 -0.052556 0.260755
-0.001309 -0.052922 0.262552
-0.000047 -0.053065 0.263251
0.001219 -0.053099 0.263410
0.002490 -0.053193 0.263866
0.003767 -0.053327 0.264527
0.005055 -0.053498 0.265373
0.006348 -0.053640 0.266081
0.007644 -0.053755 0.266655
0.008970 -0.054023 0.267990
0.010317 -0.054331 0.269529
0.011657 -0.054537 0.270566
0.012981 -0.054631 0.271049
0.014323 -0.054781 0.271811
0.015633 -0.054791 0.271881
0.017011 -0.055022 0.273053
0.018333 -0.055049 0.273214
0.019729 -0.055280 0.274391
0.021068 -0.055334 0.274691
0.022488 -0.055579 0.275946
0.023904 -0.055790 0.277028
0.025270 -0.055865 0.277443
0.026712 -0.056095 0.278628
0.028084 -0.056161 0.279002
0.029709 -0.056705 0.281753
0.031102 -0.056777 0.282160
0.032523 -0.056892 0.282787
0.033878 -0.056888 0.282820
0.035330 -0.057039 0.283631
0.036828 -0.057251 0.284744
0.038284 -0.057385 0.285472
0.039800 -0.057597 0.286590
0.041232 -0.057677 0.287052
0.042654 -0.057737 0.287418
0.044095 -0.057820 0.287898
0.045532 -0.057892 0.288325
0.046925 -0.057905 0.288463
0.048301 -0.057898 0.288499
0.049666 -0.057877 0.288469
0.051043 -0.057872 0.288515
0.052378 -0.057820 0.288331
0.053342 -0.057371 0.286168
0.054116 -0.056747 0.283129
0.054601 -0.055857 0.278761
0.055555 -0.055477 0.276942
0.056765 -0.055365 0.276453
0.058013 -0.055295 0.276176
0.059082 -0.055060 0.275078
0.060208 -0.054887 0.274288
0.061384 -0.054767 0.273758
0.062499 -0.054598 0.272985
0.063584 -0.054411 0.272119
0.064674 -0.054235 0.271311
0.065690 -0.054005 0.270227
0.066776 -0.053840 0.269471
0.067698 -0.053552 0.268094
0.068771 -0.053392 0.267357
0.069755 -0.053170 0.266310
0.070698 -0.052925 0.265142
0.071076 -0.052273 0.261935
0.071612 -0.051758 0.259411
0.072509 -0.051516 0.258253
0.073070 -0.051048 0.255961
0.073925 -0.050797 0.254753
0.074396 -0.050295 0.252281
0.074633 -0.049653 0.249106
0.075423 -0.049394 0.247845
0.076228 -0.049151 0.246668
0.076471 -0.048560 0.243736
0.076849 -0.048070 0.241310
0.076649 -0.047239 0.237166
0.076859 -0.046681 0.234391
0.077451 -0.046368 0.232839
0.078298 -0.046213 0.232084
0.078695 -0.045801 0.230030
0.079472 -0.045619 0.229126
0.080190 -0.045408 0.228076
0.080982 -0.045244 0.227257
0.081822 -0.045111 0.226590
0.082403 -0.044840 0.225225
0.082830 -0.044494 0.223479
0.083338 -0.044199 0.221988
0.084215 -0.044105 0.221498
0.084823 -0.043874 0.220318
0.085545 -0.043707 0.219453
0.086062 -0.043440 0.218086
0.086909 -0.043345 0.217573
0.087844 -0.043295 0.217281
0.088563 -0.043141 0.216464
0.089142 -0.042923 0.215320
0.089984 -0.042835 0.214825
0.090873 -0.042771 0.214444
0.091546 -0.042609 0.213561
0.092269 -0.042472 0.212805
0.092963 -0.042326 0.211991
0.093627 -0.042169 0.211120
0.094213 -0.041981 0.210088
0.095014 -0.041891 0.209542
0.095662 -0.041736 0.208663
0.096393 -0.041621 0.207974
0.097158 -0.041523 0.207364
0.097968 -0.041445 0.206849
0.098560 -0.041278 0.205881
0.098819 -0.040975 0.204232
0.099116 -0.040695 0.202686
0.099633 -0.040509 0.201605
0.100399 -0.040427 0.201032
0.100848 -0.040220 0.199831
0.101274 -0.040008 0.198596
0.101944 -0.039896 0.197846
0.102715 -0.039825 0.197293
0.103260 -0.039668 0.196306
-1.682349 -0.616532 3.152761
-1.669335 -0.617249 3.159531
-1.645975 -0.614120 3.146448
-1.629171 -0.613403 3.145552
-1.621145 -0.616008 3.161558
-1.600685 -0.613894 3.153204
-1.586453 -0.614152 3.156889
-1.573987 -0.615106 3.164023
-1.558506 -0.614889 3.165007
-1.549651 -0.617309 3.179442
-1.540975 -0.619848 3.194388
-1.527823 -0.620619 3.200116
-1.521062 -0.624029 3.219343
-1.510433 -0.625905 3.230558
-1.503044 -0.629176 3.248877
-1.491173 -0.630619 3.257662
-1.476491 -0.630892 3.260299
-1.468162 -0.633914 3.277049
-1.453335 -0.634166 3.279384
-1.440800 -0.635434 3.286882
-1.430627 -0.637783 3.299884
-1.419178 -0.639610 3.310096
-1.408763 -0.641948 3.322875
-1.396347 -0.643418 3.331074
-1.384715 -0.645286 3.341257
-1.373176 -0.647242 3.351814
-1.360643 -0.648770 3.360079
-1.346303 -0.649463 3.363941
-1.335217 -0.651761 3.376046
-1.308744 -0.646513 3.348994
-1.303235 -0.651621 3.375511
-0.060294 -0.053671 0.275747
-0.058093 -0.052859 0.271478
-0.056488 -0.052564 0.269870
-0.054555 -0.051944 0.266590
-0.051856 -0.050547 0.259328
-0.050144 -0.050068 0.256782
-0.048057 -0.049182 0.252148
-0.046107 -0.048393 0.248017
-0.044932 -0.048398 0.247958
-0.043858 -0.048516 0.248474
-0.042693 -0.048537 0.248497
-0.041532 -0.048563 0.248547
-0.040347 -0.048562 0.248456
-0.038897 -0.048232 0.246688
-0.036927 -0.047219 0.241424
-0.035372 -0.046686 0.238624
-0.034201 -0.046642 0.238325
-0.033154 -0.046770 0.238899
-0.032202 -0.047046 0.240237
-0.031070 -0.047070 0.240289
-0.030136 -0.047407 0.241938
-0.029152 -0.047690 0.243309
-0.028120 -0.047914 0.244381
-0.026992 -0.047986 0.244684
-0.025872 -0.048082 0.245105
-0.024804 -0.048288 0.246090
-0.023707 -0.048453 0.246873
-0.022619 -0.048656 0.247847
-0.021494 -0.048798 0.248510
-0.020380 -0.048983 0.249396
-0.019220 -0.049076 0.249814
-0.018094 -0.049271 0.250754
-0.016927 -0.049374 0.251229
-0.015721 -0.049372 0.251170
-0.014662 -0.049869 0.253657
-0.013463 -0.049939 0.253969
-0.012287 -0.050114 0.254819
-0.011073 -0.050159 0.255009
-0.009863 -0.050234 0.255354
-0.008655 -0.050345 0.255888
-0.007448 -0.050497 0.256631
-0.006241 -0.050704 0.257658
-0.005030 -0.050982 0.259042
-0.003792 -0.051085 0.259545
-0.002553 -0.051261 0.260419
-0.001312 -0.051696 0.262615
-0.000049 -0.051808 0.263171
0.001217 -0.051868 0.263465
0.002489 -0.051967 0.263961
0.003764 -0.052043 0.264345
0.005048 -0.052169 0.264982
0.006356 -0.052443 0.266376
0.007673 -0.052688 0.267626
0.008979 -0.052801 0.268205
0.010300 -0.052957 0.269008
0.011639 -0.053165 0.270082
0.012960 -0.053255 0.270553
0.014289 -0.053354 0.271079
0.015637 -0.053508 0.271883
0.017021 -0.053747 0.273120
0.018396 -0.053929 0.274073
0.019740 -0.053998 0.274457
0.021065 -0.054012 0.274560
0.022453 -0.054176 0.275432
0.023856 -0.054356 0.276382
0.025365 -0.054743 0.278391
0.026736 -0.054811 0.278782
0.028114 -0.054885 0.279210
0.029550 -0.055061 0.280150
0.030969 -0.055190 0.280859
0.032415 -0.055356 0.281756
0.033873 -0.055527 0.282685
0.035283 -0.055609 0.283160
0.036792 -0.055836 0.284376
0.038360 -0.056132 0.285946
0.039807 -0.056238 0.286550
0.041247 -0.056325 0.287061
0.042674 -0.056390 0.287463
0.044164 -0.056532 0.288255
0.045580 -0.056574 0.288540
0.046967 -0.056578 0.288635
0.048364 -0.056593 0.288785
0.049728 -0.056570 0.288740
0.051104 -0.056561 0.288774
0.052452 -0.056523 0.288655
0.053434 -0.056103 0.286585
0.054390 -0.055676 0.284481
0.055024 -0.054949 0.280841
0.055810 -0.054405 0.278138
0.056716 -0.054000 0.276145
0.057989 -0.053955 0.275988
0.059145 -0.053806 0.275302
0.060273 -0.053639 0.274519
0.061383 -0.053462 0.273687
0.062526 -0.053321 0.273040
0.063663 -0.053181 0.272398
0.064781 -0.053031 0.271700
0.065822 -0.052825 0.270715
0.066793 -0.052571 0.269484
0.067721 -0.052295 0.268136
0.068735 -0.052093 0.267169
0.069649 -0.051825 0.265856
0.070071 -0.051206 0.262747
0.071063 -0.051019 0.261845
0.072232 -0.050962 0.261615
0.072518 -0.050295 0.258248
0.073158 -0.049892 0.256232
0.073767 -0.049482 0.254176
0.074527 -0.049184 0.252694
0.074625 -0.048466 0.249051
0.075250 -0.048107 0.247250
0.076507 -0.048156 0.247547
0.077155 -0.047828 0.245895
0.077715 -0.047455 0.244012
0.076369 -0.045946 0.236285
0.076915 -0.045602 0.234545
0.077258 -0.045150 0.232247
0.078228 -0.045072 0.231866
0.078886 -0.044819 0.230579
0.079635 -0.044624 0.229590
0.080238 -0.044353 0.228209
0.080876 -0.044109 0.226959
0.081463 -0.043843 0.225594
0.082133 -0.043629 0.224489
0.083042 -0.043545 0.224056
0.083641 -0.043303 0.222800
0.084449 -0.043174 0.222123
0.084897 -0.042866 0.220520
0.085565 -0.042676 0.219518
0.086255 -0.042501 0.218592
0.086517 -0.042122 0.216608
0.087294 -0.041999 0.215942
0.088100 -0.041893 0.215353
0.088781 -0.041731 0.214473
0.089559 -0.041617 0.213837
0.090284 -0.041482 0.213083
0.091196 -0.041434 0.212775
0.091941 -0.041313 0.212083
0.092516 -0.041119 0.211008
0.093256 -0.041001 0.210323
0.093878 -0.040835 0.209381
0.094609 -0.040719 0.208691
0.095257 -0.040570 0.207826
0.096043 -0.040482 0.207268
0.096837 -0.040399 0.206728
0.097554 -0.040287 0.206030
0.098267 -0.040175 0.205326
0.098853 -0.040013 0.204361
0.099240 -0.039775 0.203000
0.099496 -0.039490 0.201391
0.100184 -0.039380 0.200668
0.100758 -0.039227 0.199722
0.101142 -0.039004 0.198409
0.101701 -0.038853 0.197451
0.102512 -0.038799 0.196981
0.103064 -0.038650 0.196015
-1.657251 -0.597808 3.137749
-1.646480 -0.599297 3.148458
-1.633566 -0.600028 3.155039
-1.615228 -0.598762 3.150974
-1.601151 -0.599067 3.155034
-1.584265 -0.598318 3.153403
-1.573174 -0.599765 3.163216
-1.562154 -0.601267 3.173203
-1.548677 -0.601845 3.178191
-1.540573 -0.604542 3.194266
-1.529222 -0.606007 3.203720
-1.517395 -0.607311 3.212217
-1.508209 -0.609710 3.226400
-1.496367 -0.611073 3.235006
-1.486839 -0.613419 3.248718
-1.475377 -0.615009 3.258329
-1.464756 -0.616987 3.269899
-1.454194 -0.619032 3.281739
-1.442630 -0.620691 3.291438
-1.431335 -0.622504 3.301866
-1.418737 -0.623783 3.309379
-1.409808 -0.626723 3.325616
-1.396504 -0.627762 3.331690
-1.385559 -0.629898 3.343502
-1.375869 -0.632660 3.358562
-1.357815 -0.631597 3.353233
-1.345678 -0.633294 3.362484
-1.325505 -0.631205 3.351561
-1.310144 -0.631385 3.352614
-1.296455 -0.632386 3.357955
-0.062657 -0.053255 0.280482
-0.060363 -0.052417 0.275973
-0.057484 -0.051024 0.268543
-0.055329 -0.050226 0.264244
-0.052978 -0.049207 0.258793
-0.050883 -0.048385 0.254375
-0.049313 -0.048033 0.252439
-0.048004 -0.047925 0.251777
-0.046792 -0.047910 0.251609
-0.045635 -0.047953 0.251745
-0.044493 -0.048014 0.251979
-0.043195 -0.047905 0.251317
-0.041993 -0.047900 0.251203
-0.040435 -0.047477 0.248900
-0.039108 -0.047307 0.247926
-0.037687 -0.047010 0.246284
-0.035303 -0.045454 0.238055
-0.034097 -0.045361 0.237493
-0.033046 -0.045475 0.238015
-0.032094 -0.045739 0.239322
-0.031120 -0.045991 0.240562
-0.030018 -0.046065 0.240879
-0.029155 -0.046526 0.243220
-0.028129 -0.046754 0.244340
-0.027029 -0.046876 0.244909
-0.025924 -0.046998 0.245478
-0.024840 -0.047171 0.246319
-0.023731 -0.047312 0.246992
-0.022600 -0.047424 0.247516
-0.021540 -0.047703 0.248911
-0.020479 -0.048014 0.250476
-0.019337 -0.048162 0.251195
-0.018162 -0.048241 0.251554
-0.016997 -0.048362 0.252135
-0.015794 -0.048385 0.252205
-0.014687 -0.048728 0.253947
-0.013484 -0.048789 0.254221
-0.012273 -0.048829 0.254388
-0.011091 -0.049003 0.255258
-0.009874 -0.049052 0.255478
-0.008661 -0.049134 0.255870
-0.007452 -0.049271 0.256555
-0.006268 -0.049666 0.258585
-0.005035 -0.049772 0.259109
-0.003804 -0.049964 0.260091
-0.002557 -0.050045 0.260490
-0.001313 -0.050371 0.262171
-0.000052 -0.050600 0.263350
0.001218 -0.050709 0.263907
0.002490 -0.050759 0.264163
0.003768 -0.050852 0.264643
0.005057 -0.051004 0.265434
0.006357 -0.051189 0.266398
0.007684 -0.051493 0.267983
0.009009 -0.051692 0.269026
0.010318 -0.051768 0.269433
0.011643 -0.051892 0.270094
0.012991 -0.052087 0.271123
0.014316 -0.052158 0.271514
0.015676 -0.052337 0.272467
0.017047 -0.052522 0.273461
0.018391 -0.052602 0.273903
0.019738 -0.052681 0.274345
0.021102 -0.052791 0.274952
0.022466 -0.052887 0.275494
0.023799 -0.052905 0.275624
0.025235 -0.053137 0.276874
0.026706 -0.053416 0.278374
0.028179 -0.053672 0.279756
0.029626 -0.053857 0.280771
0.031122 -0.054113 0.282157
0.032474 -0.054105 0.282174
0.033855 -0.054145 0.282441
0.035260 -0.054218 0.282880
0.036826 -0.054525 0.284543
0.038355 -0.054756 0.285815
0.039823 -0.054888 0.286566
0.041364 -0.055109 0.287788
0.042746 -0.055109 0.287860
0.044155 -0.055143 0.288110
0.045575 -0.055189 0.288423
0.046960 -0.055190 0.288502
0.048345 -0.055192 0.288586
0.049731 -0.055194 0.288675
0.051130 -0.055210 0.288835
0.052482 -0.055177 0.288739
0.053625 -0.054930 0.287525
0.054305 -0.054234 0.283959
0.055193 -0.053774 0.281628
0.055794 -0.053063 0.277985
0.056687 -0.052656 0.275931
0.058042 -0.052688 0.276173
0.059168 -0.052514 0.275340
0.060276 -0.052333 0.274465
0.061454 -0.052218 0.273939
0.062619 -0.052098 0.273384
0.063703 -0.051916 0.272507
0.064755 -0.051717 0.271532
0.065845 -0.051554 0.270751
0.066789 -0.051286 0.269415
0.067679 -0.050987 0.267915
0.068646 -0.050757 0.266774
0.069619 -0.050538 0.265692
0.070770 -0.050455 0.265320
0.071692 -0.050214 0.264117
0.072288 -0.049757 0.261776
0.072286 -0.048911 0.257383
0.073083 -0.048625 0.255934
0.073960 -0.048401 0.254806
0.074826 -0.048176 0.253676
0.075208 -0.047652 0.250965
0.075694 -0.047210 0.248681
0.076223 -0.046807 0.246603
0.076472 -0.046247 0.243693
0.076061 -0.045311 0.238797
0.076178 -0.044712 0.235673
0.076846 -0.044450 0.234321
0.077606 -0.044247 0.233277
0.078290 -0.044007 0.232036
0.079102 -0.043845 0.231203
0.079744 -0.043594 0.229896
0.080239 -0.043271 0.228207
0.080964 -0.043079 0.227200
0.081730 -0.042914 0.226333
0.082473 -0.042741 0.225422
0.083244 -0.042586 0.224602
0.084097 -0.042477 0.224021
0.084647 -0.042219 0.222650
0.085390 -0.042063 0.221812
0.086046 -0.041869 0.220766
0.086761 -0.041707 0.219887
0.087203 -0.041420 0.218343
0.088095 -0.041350 0.217940
0.088842 -0.041215 0.217189
0.089113 -0.040864 0.215297
0.089948 -0.040778 0.214789
0.090669 -0.040642 0.214018
0.091211 -0.040430 0.212840
0.091989 -0.040326 0.212225
0.092701 -0.040196 0.211465
0.093219 -0.039985 0.210277
0.093885 -0.039841 0.209435
0.094599 -0.039721 0.208710
0.095275 -0.039587 0.207908
0.095917 -0.039442 0.207042
0.096674 -0.039347 0.206430
0.097353 -0.039223 0.205656
0.098010 -0.039091 0.204841
0.098628 -0.038948 0.203952
0.098964 -0.038697 0.202495
0.099508 -0.038531 0.201477
0.100148 -0.038405 0.200661
0.100589 -0.038206 0.199453
0.101044 -0.038016 0.198286
0.101823 -0.037950 0.197758
0.102596 -0.037884 0.197218
0.103230 -0.037767 0.196409
-1.657962 -0.583085 3.140142
-1.647207 -0.584545 3.150851
-1.624522 -0.581760 3.138525
-1.613961 -0.583307 3.149416
-1.598564 -0.583119 3.150809
-1.587114 -0.584381 3.159906
-1.575751 -0.585700 3.169191
-1.562873 -0.586477 3.175418
-1.555258 -0.589263 3.192415
-1.543300 -0.590443 3.200598
-1.535881 -0.593400 3.218313
-1.522841 -0.594224 3.224352
-1.509362 -0.594891 3.229436
-1.503392 -0.598563 3.250727
-1.490230 -0.599417 3.256625
-1.477460 -0.600450 3.263391
-1.467721 -0.602749 3.276946
-1.452914 -0.602994 3.279243
-1.442731 -0.605184 3.292026
-1.432269 -0.607305 3.304343
-1.420385 -0.608862 3.313512
-1.411103 -0.611583 3.328928
-1.399944 -0.613543 3.340119
-1.388221 -0.615297 3.350114
-1.374217 -0.616070 3.354684
-1.357049 -0.615426 3.351463
-1.344573 -0.616920 3.359811
-1.323393 -0.614410 3.346273
-1.305822 -0.613535 3.341575
-1.291982 -0.614414 3.346359
-0.227651 -0.161252 0.873330
-0.222205 -0.160303 0.867897
-0.213455 -0.156890 0.849124
-0.209308 -0.156793 0.848306
-0.062057 -0.051422 0.277712
-0.059557 -0.050421 0.272206
-0.055979 -0.048443 0.261431
-0.054377 -0.048123 0.259611
-0.052607 -0.047638 0.256899
-0.051213 -0.047477 0.255936
-0.049993 -0.047474 0.255828
-0.048714 -0.047414 0.255411
-0.047450 -0.047365 0.255055
-0.046119 -0.047246 0.254321
-0.044770 -0.047101 0.253452
-0.043626 -0.047170 0.253731
-0.042372 -0.047120 0.253373
-0.040943 -0.046867 0.251925
-0.039130 -0.046146 0.247964
-0.037803 -0.045971 0.246942
-0.035360 -0.044385 0.238339
-0.034091 -0.044216 0.237354
-0.033116 -0.044428 0.238418
-0.032135 -0.044649 0.239523
-0.031077 -0.044774 0.240122
-0.030106 -0.045041 0.241478
-0.029226 -0.045468 0.243696
-0.028165 -0.045639 0.244543
-0.027113 -0.045840 0.245549
-0.025973 -0.045904 0.245824
-0.024883 -0.046067 0.246628
-0.023783 -0.046225 0.247413
-0.022632 -0.046296 0.247731
-0.021513 -0.046446 0.248471
-0.020408 -0.046646 0.249484
-0.019158 -0.046518 0.248741
-0.018149 -0.046995 0.251241
-0.016978 -0.047092 0.251707
-0.015822 -0.047250 0.252503
-0.014639 -0.047346 0.252970
-0.013465 -0.047493 0.253712
-0.012328 -0.047809 0.255356
-0.011117 -0.047882 0.255710
-0.009888 -0.047883 0.255681
-0.008687 -0.048036 0.256462
-0.007470 -0.048145 0.257015
-0.006273 -0.048443 0.258576
-0.005045 -0.048594 0.259359
-0.003802 -0.048664 0.259712
-0.002562 -0.048840 0.260632
-0.001311 -0.048966 0.261288
-0.000054 -0.049347 0.263305
0.001216 -0.049457 0.263887
0.002490 -0.049531 0.264273
0.003768 -0.049602 0.264650
0.005052 -0.049707 0.265208
0.006358 -0.049931 0.266402
0.007679 -0.050187 0.267773
0.008957 -0.050123 0.267442
0.010279 -0.050290 0.268342
0.011613 -0.050471 0.269326
0.012908 -0.050465 0.269308
0.014216 -0.050505 0.269544
0.015565 -0.050674 0.270467
0.017002 -0.051078 0.272650
0.018337 -0.051140 0.273012
0.019708 -0.051288 0.273835
0.021110 -0.051494 0.274971
0.022460 -0.051555 0.275333
0.023863 -0.051725 0.276279
0.025361 -0.052069 0.278163
0.026783 -0.052233 0.279085
0.028195 -0.052362 0.279820
0.029561 -0.052399 0.280070
0.031060 -0.052655 0.281497
0.032437 -0.052693 0.281756
0.033896 -0.052856 0.282683
0.035335 -0.052976 0.283388
0.036779 -0.053095 0.284086
0.038225 -0.053209 0.284759
0.039794 -0.053478 0.286267
0.041182 -0.053495 0.286430
0.042848 -0.053860 0.288455
0.044206 -0.053827 0.288350
0.045615 -0.053857 0.288585
0.047030 -0.053891 0.288846
0.048441 -0.053919 0.289071
0.049806 -0.053896 0.289023
0.051212 -0.053917 0.289218
0.052588 -0.053906 0.289236
0.053726 -0.053658 0.287986
0.054464 -0.053033 0.284712
0.054972 -0.052219 0.280425
0.055903 -0.051837 0.278452
0.056844 -0.051482 0.276622
0.057948 -0.051287 0.275654
0.059188 -0.051219 0.275366
0.060306 -0.051049 0.274534
0.061450 -0.050909 0.273859
0.062594 -0.050775 0.273215
0.063692 -0.050609 0.272398
0.064749 -0.050419 0.271448
0.065787 -0.050220 0.270456
0.066630 -0.049885 0.268722
0.067599 -0.049654 0.267549
0.068489 -0.049374 0.266112
0.069539 -0.049218 0.265339
0.070469 -0.048984 0.264148
0.071148 -0.048587 0.262071
0.071951 -0.048287 0.260514
0.072679 -0.047947 0.258743
0.073363 -0.047591 0.256877
0.074280 -0.047394 0.255873
0.075124 -0.047159 0.254655
0.075647 -0.046732 0.252401
0.075686 -0.046024 0.248626
0.076164 -0.045601 0.246387
0.076304 -0.044992 0.243136
0.077066 -0.044761 0.241930
0.076322 -0.043676 0.236100
0.076849 -0.043340 0.234313
0.077590 -0.043131 0.233214
0.078461 -0.043000 0.232531
0.078915 -0.042647 0.230645
0.079558 -0.042405 0.229352
0.080373 -0.042259 0.228580
0.081150 -0.042098 0.227719
0.081995 -0.041976 0.227065
0.082851 -0.041862 0.226453
0.083683 -0.041739 0.225789
0.084571 -0.041648 0.225288
0.085283 -0.041472 0.224329
0.084910 -0.040780 0.220572
0.085502 -0.040563 0.219380
0.086276 -0.040436 0.218671
0.086780 -0.040188 0.217298
