ply
format ascii 1.0
element vertex 1712
property float x
property float y
property float z
end_header
-0.621683 -0.027612 1.483950
-0.614399 -0.027595 1.483082
-0.605744 -0.027516 1.478818
-0.595159 -0.027347 1.469662
-0.587923 -0.027330 1.468635
-0.578395 -0.027204 1.461765
-0.566852 -0.026979 1.449556
-0.558500 -0.026903 1.445294
-0.547104 -0.026677 1.432935
-0.535458 -0.026433 1.419594
-0.525264 -0.026255 1.409804
-0.511061 -0.025870 1.388860
-0.495098 -0.025385 1.362530
-0.351335 -0.019525 1.046321
-0.345443 -0.019470 1.043041
-0.340457 -0.019465 1.042444
-0.336533 -0.019522 1.045132
-0.331124 -0.019493 1.043219
-0.325993 -0.019480 1.042141
-0.320703 -0.019457 1.040518
-0.315592 -0.019444 1.039442
-0.309723 -0.019384 1.035802
-0.303602 -0.019305 1.031200
-0.299225 -0.019337 1.032478
-0.073716 -0.004843 0.258465
-0.071770 -0.004794 0.255777
-0.070248 -0.004773 0.254535
-0.069216 -0.004785 0.255060
-0.067904 -0.004778 0.254558
-0.066340 -0.004752 0.253082
-0.065015 -0.004743 0.252483
-0.063201 -0.004697 0.249931
-0.061820 -0.004683 0.249036
-0.060584 -0.004679 0.248703
-0.059335 -0.004673 0.248307
-0.058043 -0.004664 0.247720
-0.056795 -0.004659 0.247304
-0.055463 -0.004646 0.246503
-0.053668 -0.004593 0.243573
-0.051152 -0.004474 0.237181
-0.049764 -0.004451 0.235852
-0.047648 -0.004361 0.230947
-0.046718 -0.004377 0.231696
-0.045774 -0.004393 0.232420
-0.045029 -0.004429 0.234225
-0.044199 -0.004458 0.235668
-0.043368 -0.004489 0.237190
-0.042355 -0.004502 0.237776
-0.041331 -0.004515 0.238338
-0.040275 -0.004525 0.238750
-0.039217 -0.004535 0.239187
-0.038195 -0.004550 0.239879
-0.037162 -0.004565 0.240552
-0.036272 -0.004599 0.242235
-0.035321 -0.004627 0.243612
-0.034265 -0.004642 0.244342
-0.033145 -0.004650 0.244666
-0.032072 -0.004666 0.245384
-0.031010 -0.004684 0.246248
-0.029887 -0.004694 0.246695
-0.028761 -0.004705 0.247162
-0.027642 -0.004718 0.247737
-0.026524 -0.004732 0.248396
-0.025440 -0.004754 0.249451
-0.024346 -0.004776 0.250528
-0.023161 -0.004781 0.250737
-0.021993 -0.004791 0.251183
-0.020838 -0.004805 0.251840
-0.019633 -0.004808 0.251959
-0.018492 -0.004829 0.252992
-0.017293 -0.004837 0.253325
-0.016101 -0.004848 0.253818
-0.014928 -0.004867 0.254752
-0.013776 -0.004896 0.256266
-0.012572 -0.004912 0.257006
-0.011331 -0.004915 0.257123
-0.010109 -0.004928 0.257752
-0.008868 -0.004933 0.257997
-0.007618 -0.004935 0.258076
-0.006375 -0.004943 0.258461
-0.005126 -0.004951 0.258814
-0.003885 -0.004971 0.259864
-0.002622 -0.004973 0.259919
-0.001359 -0.004973 0.259916
-0.000096 -0.004999 0.261251
0.001200 -0.005109 0.267021
0.002495 -0.005102 0.266627
0.003790 -0.005100 0.266510
0.005029 -0.005042 0.263514
0.006329 -0.005057 0.264294
0.009466 -0.006287 0.328592
0.011062 -0.006286 0.328542
0.012610 -0.006261 0.327270
0.014197 -0.006259 0.327205
0.013407 -0.005315 0.277871
0.014618 -0.005265 0.275276
0.015578 -0.005140 0.268783
0.016904 -0.005146 0.269128
0.018700 -0.005284 0.276377
0.020068 -0.005290 0.276764
0.021448 -0.005299 0.277270
0.022562 -0.005245 0.274483
0.023893 -0.005244 0.274511
0.025266 -0.005253 0.275006
0.026658 -0.005264 0.275648
0.028038 -0.005272 0.276130
0.029410 -0.005278 0.276494
0.030805 -0.005287 0.277046
0.032716 -0.005380 0.282012
0.034214 -0.005401 0.283174
0.035703 -0.005418 0.284176
0.037042 -0.005413 0.283967
0.038438 -0.005416 0.284209
0.039864 -0.005422 0.284652
0.041259 -0.005425 0.284860
0.042645 -0.005426 0.285002
0.044020 -0.005425 0.285079
0.045364 -0.005421 0.284955
0.046702 -0.005416 0.284816
0.047992 -0.005407 0.284406
0.048983 -0.005365 0.282305
0.049123 -0.005234 0.275548
0.049738 -0.005160 0.271747
0.050781 -0.005133 0.270425
0.052003 -0.005125 0.270102
0.053168 -0.005112 0.269512
0.054191 -0.005086 0.268250
0.055253 -0.005065 0.267244
0.056427 -0.005055 0.266817
0.057452 -0.005032 0.265727
0.058140 -0.004982 0.263161
0.058942 -0.004943 0.261212
0.059470 -0.004883 0.258160
0.060276 -0.004849 0.256418
0.060991 -0.004808 0.254366
0.061793 -0.004776 0.252754
0.062143 -0.004710 0.249392
0.063196 -0.004700 0.248927
0.064148 -0.004682 0.248089
0.065009 -0.004659 0.246941
0.065918 -0.004639 0.246014
0.067099 -0.004640 0.246118
0.067750 -0.004604 0.244309
0.068151 -0.004553 0.241676
0.068954 -0.004530 0.240537
0.069828 -0.004512 0.239674
0.070587 -0.004487 0.238453
0.071475 -0.004472 0.237700
0.072294 -0.004453 0.236745
0.073177 -0.004438 0.236024
0.073879 -0.004412 0.234751
0.074639 -0.004391 0.233696
0.075551 -0.004380 0.233142
0.076371 -0.004363 0.232322
0.077183 -0.004347 0.231499
0.077977 -0.004330 0.230646
0.078893 -0.004320 0.230170
0.079596 -0.004299 0.229093
0.079930 -0.004259 0.226995
0.079468 -0.004178 0.222720
0.080443 -0.004173 0.222526
0.081329 -0.004165 0.222094
0.081819 -0.004136 0.220601
0.082489 -0.004117 0.219623
0.083241 -0.004103 0.218883
0.083736 -0.004077 0.217487
0.084132 -0.004046 0.215871
0.084285 -0.004005 0.213671
0.084725 -0.003978 0.212240
0.085507 -0.003968 0.211684
0.085576 -0.003925 0.209391
0.085584 -0.003880 0.207000
0.086385 -0.003872 0.206553
0.087202 -0.003865 0.206150
0.087622 -0.003841 0.204823
0.088379 -0.003832 0.204298
0.088975 -0.003816 0.203410
0.089590 -0.003801 0.202579
0.090364 -0.003793 0.202116
0.091063 -0.003783 0.201490
0.091668 -0.003768 0.200662
0.092185 -0.003751 0.199656
0.092805 -0.003738 0.198885
0.093554 -0.003730 0.198394
0.094016 -0.003711 0.197301
0.094587 -0.003697 0.196451
0.095294 -0.003688 0.195889
0.095961 -0.003678 0.195248
0.096679 -0.003670 0.194713
0.097333 -0.003660 0.194051
0.098125 -0.003655 0.193665
0.100109 -0.003695 0.195603
0.105542 -0.003859 0.204166
0.106630 -0.003864 0.204225
-0.733645 -0.020292 1.452432
-0.737091 -0.020576 1.473659
-0.743240 -0.020942 1.500701
-0.740851 -0.021072 1.510807
-0.741107 -0.021281 1.526497
-0.740744 -0.021476 1.541156
-0.734016 -0.021488 1.542675
-0.725856 -0.021459 1.541129
-0.716380 -0.021389 1.536672
-0.705220 -0.021268 1.528418
-0.694075 -0.021145 1.519974
-0.684891 -0.021079 1.515643
-0.675069 -0.020993 1.509749
-0.665938 -0.020926 1.505244
-0.657448 -0.020879 1.502068
-0.649746 -0.020855 1.500602
-0.642472 -0.020846 1.500064
-0.633932 -0.020794 1.496491
-0.625541 -0.020747 1.493160
-0.616217 -0.020667 1.487471
-0.608226 -0.020631 1.484876
-0.597587 -0.020503 1.475655
-0.588580 -0.020429 1.470273
-0.579718 -0.020359 1.465102
-0.569183 -0.020227 1.455510
-0.564310 -0.020296 1.460320
-0.548705 -0.019976 1.437118
-0.544028 -0.020050 1.442304
-0.527886 -0.019699 1.416832
-0.515167 -0.019469 1.400007
-0.501759 -0.019206 1.380850
-0.496398 -0.019249 1.383617
-0.350565 -0.014543 1.044011
-0.345073 -0.014518 1.041910
-0.340794 -0.014544 1.043461
-0.335781 -0.014539 1.042778
-0.330610 -0.014527 1.041579
-0.325304 -0.014509 1.039918
-0.319938 -0.014487 1.038014
-0.315252 -0.014497 1.038301
-0.308702 -0.014419 1.032367
-0.302563 -0.014359 1.027650
-0.298202 -0.014382 1.028924
-0.074101 -0.003633 0.259810
-0.072681 -0.003623 0.259015
-0.071595 -0.003630 0.259409
-0.070511 -0.003638 0.259826
-0.069462 -0.003647 0.260393
-0.068419 -0.003657 0.261005
-0.067083 -0.003652 0.260505
-0.065644 -0.003641 0.259586
-0.062678 -0.003543 0.252484
-0.060595 -0.003492 0.248739
-0.059352 -0.003488 0.248373
-0.058289 -0.003495 0.248764
-0.056868 -0.003481 0.247615
-0.054840 -0.003428 0.243727
-0.052971 -0.003382 0.240402
-0.051360 -0.003352 0.238137
-0.050002 -0.003337 0.236972
-0.047625 -0.003252 0.230824
-0.046750 -0.003268 0.231848
-0.045946 -0.003290 0.233284
-0.045077 -0.003308 0.234464
-0.044065 -0.003316 0.234943
-0.043251 -0.003340 0.236539
-0.042332 -0.003357 0.237638
-0.041399 -0.003374 0.238722
-0.040320 -0.003379 0.239009
-0.039242 -0.003385 0.239325
-0.038276 -0.003402 0.240376
-0.037444 -0.003431 0.242368
-0.036425 -0.003445 0.243243
-0.035365 -0.003456 0.243904
-0.034270 -0.003464 0.244369
-0.033193 -0.003474 0.245013
-0.032109 -0.003485 0.245656
-0.031021 -0.003496 0.246328
-0.029935 -0.003507 0.247078
-0.028804 -0.003515 0.247515
-0.027660 -0.003521 0.247889
-0.026558 -0.003534 0.248702
-0.025466 -0.003549 0.249695
-0.024314 -0.003558 0.250185
-0.023153 -0.003565 0.250642
-0.022001 -0.003575 0.251261
-0.020811 -0.003580 0.251506
-0.019631 -0.003586 0.251917
-0.018436 -0.003591 0.252204
-0.017279 -0.003605 0.253097
-0.016108 -0.003617 0.253916
-0.014934 -0.003632 0.254851
-0.013783 -0.003654 0.256375
-0.012581 -0.003666 0.257190
-0.011351 -0.003672 0.257552
-0.010113 -0.003677 0.257832
-0.008872 -0.003681 0.258112
-0.007628 -0.003686 0.258383
-0.006376 -0.003688 0.258514
-0.005126 -0.003692 0.258766
-0.003886 -0.003709 0.259915
-0.002633 -0.003723 0.260894
-0.001366 -0.003729 0.261255
-0.000096 -0.003733 0.261585
0.001176 -0.003736 0.261721
0.002454 -0.003743 0.262263
0.003738 -0.003752 0.262837
0.005001 -0.003740 0.262050
0.006280 -0.003743 0.262257
0.009448 -0.004681 0.327967
0.011041 -0.004680 0.327918
0.012678 -0.004696 0.329025
0.014274 -0.004694 0.328960
0.013413 -0.003967 0.278004
0.014679 -0.003944 0.276414
0.015620 -0.003844 0.269497
0.016898 -0.003837 0.269010
0.018686 -0.003938 0.276157
0.020126 -0.003958 0.277553
0.021430 -0.003949 0.277015
0.022533 -0.003907 0.274116
0.023886 -0.003911 0.274422
0.025234 -0.003913 0.274644
0.026711 -0.003934 0.276184
0.028012 -0.003929 0.275861
0.029386 -0.003934 0.276264
0.030798 -0.003943 0.276974
0.032738 -0.004016 0.282189
0.034174 -0.004024 0.282825
0.035573 -0.004027 0.283136
0.036962 -0.004029 0.283346
0.038373 -0.004033 0.283714
0.039820 -0.004041 0.284324
0.041227 -0.004044 0.284632
0.042621 -0.004045 0.284832
0.043992 -0.004045 0.284885
0.045345 -0.004042 0.284829
0.046701 -0.004041 0.284803
0.047998 -0.004034 0.284435
0.049148 -0.004016 0.283249
0.048990 -0.003895 0.274793
0.049715 -0.003848 0.271612
0.050823 -0.003833 0.270639
0.052167 -0.003836 0.270946
0.053246 -0.003820 0.269898
0.054396 -0.003809 0.269261
0.055437 -0.003792 0.268126
0.056387 -0.003769 0.266623
0.057526 -0.003760 0.266059
0.058123 -0.003716 0.263076
0.058700 -0.003673 0.260133
0.059547 -0.003648 0.258487
0.060601 -0.003637 0.257792
0.061656 -0.003627 0.257133
0.062419 -0.003600 0.255306
0.062257 -0.003521 0.249843
0.063067 -0.003500 0.248412
0.064091 -0.003491 0.247865
0.064911 -0.003471 0.246563
0.065619 -0.003446 0.244891
0.066653 -0.003439 0.244479
0.067248 -0.003410 0.242494
0.068093 -0.003395 0.241468
0.068879 -0.003377 0.240271
0.069682 -0.003360 0.239167
0.070511 -0.003346 0.238191
0.071397 -0.003334 0.237437
0.072190 -0.003318 0.236400
0.073056 -0.003307 0.235632
0.073910 -0.003295 0.234846
0.074649 -0.003278 0.233723
0.075297 -0.003258 0.232353
0.076200 -0.003250 0.231798
0.076930 -0.003234 0.230736
0.077519 -0.003213 0.229288
0.078209 -0.003197 0.228173
0.078352 -0.003159 0.225512
0.078863 -0.003137 0.223963
0.079476 -0.003119 0.222739
0.080112 -0.003103 0.221608
0.080853 -0.003091 0.220792
0.081555 -0.003078 0.219888
0.082280 -0.003066 0.219067
0.082999 -0.003055 0.218245
0.083374 -0.003031 0.216548
0.083690 -0.003005 0.214735
0.083960 -0.002979 0.212848
0.084532 -0.002964 0.211755
0.085298 -0.002955 0.211167
0.085615 -0.002932 0.209486
0.086149 -0.002917 0.208366
0.085985 -0.002878 0.205597
0.086903 -0.002877 0.205445
0.087805 -0.002874 0.205252
0.088231 -0.002857 0.203957
0.089020 -0.002851 0.203516
0.089777 -0.002845 0.203005
0.090376 -0.002833 0.202146
0.091107 -0.002827 0.201589
0.091709 -0.002816 0.200755
0.092120 -0.002800 0.199519
0.092546 -0.002784 0.198332
0.093330 -0.002779 0.197922
0.093851 -0.002767 0.196959
0.094418 -0.002757 0.196104
0.095100 -0.002750 0.195495
0.095693 -0.002740 0.194706
0.096436 -0.002735 0.194228
0.097087 -0.002728 0.193564
0.097969 -0.002727 0.193360
0.102557 -0.002828 0.200392
0.105633 -0.002886 0.204347
0.106678 -0.002888 0.204321
-0.741280 -0.013564 1.467567
-0.735489 -0.013582 1.470477
-0.739834 -0.013790 1.493843
-0.739567 -0.013914 1.508206
-0.740656 -0.014067 1.525586
-0.741791 -0.014223 1.543352
-0.736957 -0.014268 1.548873
-0.727256 -0.014218 1.544115
-0.719305 -0.014201 1.542959
-0.708908 -0.014136 1.536424
-0.697276 -0.014045 1.526994
-0.686242 -0.013964 1.518643
-0.677084 -0.013919 1.514263
-0.668268 -0.013882 1.510520
-0.660273 -0.013860 1.508528
-0.653070 -0.013856 1.508284
-0.645884 -0.013851 1.508036
-0.637712 -0.013825 1.505419
-0.629461 -0.013797 1.502522
-0.620303 -0.013748 1.497337
-0.612063 -0.013719 1.494245
-0.601773 -0.013643 1.485992
-0.592106 -0.013579 1.479079
-0.583986 -0.013550 1.475888
-0.573551 -0.013466 1.466676
-0.564338 -0.013409 1.460389
-0.554154 -0.013327 1.451386
-0.544056 -0.013246 1.442372
-0.538220 -0.013267 1.444560
-0.522661 -0.013047 1.420365
-0.511625 -0.012935 1.407991
-0.496425 -0.012714 1.383683
-0.481720 -0.012500 1.360134
-0.351635 -0.009632 1.047187
-0.344941 -0.009582 1.041499
-0.340532 -0.009595 1.042648
-0.335861 -0.009601 1.043014
-0.330425 -0.009586 1.040983
-0.325274 -0.009578 1.039809
-0.319849 -0.009561 1.037714
-0.314848 -0.009557 1.036956
-0.308652 -0.009517 1.032182
-0.301388 -0.009441 1.023644
-0.297044 -0.009456 1.024913
-0.073020 -0.002444 0.264570
-0.071884 -0.002448 0.264881
-0.069991 -0.002425 0.262370
-0.068619 -0.002421 0.261764
-0.067115 -0.002411 0.260626
-0.065332 -0.002391 0.258345
-0.063246 -0.002359 0.254765
-0.061708 -0.002346 0.253305
-0.059495 -0.002307 0.248965
-0.057592 -0.002279 0.245784
-0.055772 -0.002252 0.242838
-0.053957 -0.002225 0.239798
-0.052430 -0.002209 0.237939
-0.051195 -0.002204 0.237365
-0.049598 -0.002184 0.235051
-0.047673 -0.002148 0.231051
-0.046710 -0.002154 0.231645
-0.045798 -0.002163 0.232529
-0.044860 -0.002171 0.233330
-0.044071 -0.002188 0.234970
-0.043215 -0.002201 0.236334
-0.042394 -0.002218 0.237979
-0.041383 -0.002224 0.238621
-0.040311 -0.002228 0.238950
-0.039330 -0.002238 0.239858
-0.038249 -0.002242 0.240201
-0.037271 -0.002253 0.241236
-0.036315 -0.002265 0.242501
-0.035376 -0.002280 0.243974
-0.034320 -0.002288 0.244719
-0.033211 -0.002292 0.245138
-0.032108 -0.002298 0.245637
-0.031006 -0.002304 0.246197
-0.029888 -0.002309 0.246685
-0.028748 -0.002313 0.247026
-0.027613 -0.002318 0.247463
-0.026481 -0.002324 0.247967
-0.025379 -0.002333 0.248829
-0.024328 -0.002347 0.250314
-0.023158 -0.002351 0.250679
-0.021995 -0.002357 0.251183
-0.020829 -0.002362 0.251709
-0.019635 -0.002365 0.251958
-0.018508 -0.002377 0.253182
-0.017307 -0.002381 0.253497
-0.016115 -0.002386 0.254022
-0.014942 -0.002396 0.254975
-0.013751 -0.002404 0.255761
-0.012541 -0.002410 0.256355
-0.011312 -0.002413 0.256653
-0.010084 -0.002417 0.257060
-0.008854 -0.002422 0.257556
-0.007612 -0.002425 0.257840
-0.006363 -0.002427 0.257959
-0.005118 -0.002431 0.258364
-0.003874 -0.002438 0.259134
-0.002630 -0.002453 0.260646
-0.001365 -0.002456 0.261042
-0.000096 -0.002458 0.261179
0.001177 -0.002464 0.261868
0.002453 -0.002468 0.262194
0.003737 -0.002473 0.262812
0.005017 -0.002474 0.262895
0.006289 -0.002472 0.262637
0.007714 -0.002520 0.267755
0.011042 -0.003086 0.327937
0.012500 -0.003053 0.324405
0.012434 -0.002696 0.286542
0.013546 -0.002641 0.280749
0.014700 -0.002604 0.276806
0.015558 -0.002525 0.268413
0.016941 -0.002537 0.269701
0.018709 -0.002600 0.276487
0.020213 -0.002621 0.278743
0.021453 -0.002607 0.277317
0.022618 -0.002586 0.275144
0.023901 -0.002580 0.274584
0.025229 -0.002580 0.274577
0.026634 -0.002587 0.275385
0.027991 -0.002589 0.275649
0.029372 -0.002593 0.276125
0.030840 -0.002604 0.277345
0.032678 -0.002643 0.281663
0.034149 -0.002652 0.282616
0.035531 -0.002653 0.282793
0.036910 -0.002653 0.282939
0.038336 -0.002657 0.283437
0.039829 -0.002665 0.284385
0.041188 -0.002664 0.284353
0.042577 -0.002665 0.284531
0.043981 -0.002667 0.284808
0.045314 -0.002664 0.284629
0.046657 -0.002663 0.284528
0.047897 -0.002655 0.283831
0.048207 -0.002598 0.277820
0.049047 -0.002572 0.275105
0.049972 -0.002551 0.273012
0.050815 -0.002528 0.270591
0.052141 -0.002529 0.270800
0.053277 -0.002521 0.270047
0.054398 -0.002513 0.269264
0.055409 -0.002500 0.267984
0.056500 -0.002491 0.267149
0.057504 -0.002479 0.265954
0.058430 -0.002465 0.264462
0.058861 -0.002430 0.260840
0.059625 -0.002410 0.258821
0.060647 -0.002402 0.257984
0.061759 -0.002397 0.257557
0.062593 -0.002382 0.256014
0.062992 -0.002351 0.252786
0.062921 -0.002304 0.247833
0.063787 -0.002293 0.246683
0.064518 -0.002277 0.245066
0.065671 -0.002276 0.245082
0.066337 -0.002259 0.243314
0.067376 -0.002255 0.242955
0.068260 -0.002246 0.242056
0.069078 -0.002235 0.240960
0.069891 -0.002225 0.239883
0.070615 -0.002212 0.238539
0.071476 -0.002203 0.237696
0.072176 -0.002190 0.236350
0.073053 -0.002183 0.235617
0.073828 -0.002173 0.234584
0.074655 -0.002165 0.233742
0.075502 -0.002157 0.232985
0.076183 -0.002145 0.231743
0.076910 -0.002135 0.230676
0.077484 -0.002121 0.229185
0.078290 -0.002113 0.228407
0.078934 -0.002102 0.227184
0.079651 -0.002092 0.226200
0.079635 -0.002064 0.223183
0.080134 -0.002050 0.221669
0.080858 -0.002042 0.220805
0.081362 -0.002028 0.219369
0.081959 -0.002018 0.218213
0.082094 -0.001996 0.215865
0.082732 -0.001987 0.214880
0.083719 -0.001986 0.214810
0.084022 -0.001970 0.213004
0.084552 -0.001959 0.211806
0.085021 -0.001947 0.210481
0.085481 -0.001935 0.209160
0.085786 -0.001919 0.207489
0.086595 -0.001916 0.207057
0.087263 -0.001909 0.206297
0.087781 -0.001899 0.205197
0.088570 -0.001895 0.204743
0.089195 -0.001888 0.203917
0.089790 -0.001881 0.203035
0.090478 -0.001875 0.202375
0.091066 -0.001868 0.201499
0.091580 -0.001859 0.200473
0.091987 -0.001848 0.199233
0.092527 -0.001841 0.198293
0.093191 -0.001835 0.197628
0.093755 -0.001828 0.196761
0.094330 -0.001822 0.195924
0.094974 -0.001816 0.195238
0.095640 -0.001812 0.194602
0.096284 -0.001806 0.193924
0.096994 -0.001803 0.193382
0.098341 -0.001811 0.194099
0.103458 -0.001888 0.202156
0.104843 -0.001896 0.202822
0.106213 -0.001903 0.203436
-0.748884 -0.006754 1.497273
-0.742981 -0.006762 1.500211
-0.743869 -0.006832 1.516991
-0.742667 -0.006884 1.529741
-0.742993 -0.006952 1.545865
-0.740735 -0.006997 1.556824
-0.731988 -0.006980 1.554173
-0.723623 -0.006968 1.552231
-0.713864 -0.006941 1.547174
-0.702189 -0.006895 1.537762
-0.691593 -0.006859 1.530493
-0.681752 -0.006830 1.524710
-0.673402 -0.006816 1.522131
-0.665334 -0.006804 1.520097
-0.657342 -0.006793 1.518155
-0.649941 -0.006788 1.517512
-0.641671 -0.006774 1.514769
-0.633082 -0.006756 1.511168
-0.624787 -0.006741 1.508164
-0.615961 -0.006720 1.503764
-0.606363 -0.006690 1.497329
-0.595695 -0.006647 1.488046
-0.587065 -0.006627 1.483669
-0.577111 -0.006591 1.475783
-0.567431 -0.006557 1.468394
-0.557482 -0.006519 1.460103
-0.546941 -0.006474 1.450022
-0.536288 -0.006426 1.439375
-0.525104 -0.006371 1.427002
-0.514244 -0.006318 1.415197
-0.498962 -0.006209 1.390753
-0.485821 -0.006125 1.371709
-0.350297 -0.004659 1.043200
-0.344725 -0.004650 1.040842
-0.339489 -0.004644 1.039449
-0.335531 -0.004656 1.041984
-0.330295 -0.004650 1.040571
-0.325154 -0.004646 1.039420
-0.319961 -0.004641 1.038071
-0.314672 -0.004634 1.036368
-0.307733 -0.004603 1.029104
-0.297833 -0.004526 1.011560
-0.292189 -0.004511 1.008155
-0.071887 -0.001187 0.264889
-0.070397 -0.001182 0.263890
-0.068890 -0.001178 0.262796
-0.067279 -0.001171 0.261259
-0.064460 -0.001143 0.254897
-0.062733 -0.001134 0.252695
-0.061276 -0.001129 0.251528
-0.059289 -0.001114 0.248100
-0.058350 -0.001118 0.249013
-0.057146 -0.001118 0.248816
-0.055283 -0.001104 0.245685
-0.052822 -0.001078 0.239719
-0.051416 -0.001072 0.238387
-0.049970 -0.001065 0.236812
-0.047692 -0.001040 0.231140
-0.046715 -0.001043 0.231663
-0.045822 -0.001048 0.232645
-0.044918 -0.001052 0.233627
-0.043899 -0.001055 0.234048
-0.042906 -0.001058 0.234643
-0.041983 -0.001063 0.235666
-0.041399 -0.001077 0.238710
-0.040436 -0.001082 0.239682
-0.039275 -0.001081 0.239514
-0.038263 -0.001085 0.240284
-0.037318 -0.001091 0.241540
-0.036255 -0.001094 0.242095
-0.035314 -0.001101 0.243539
-0.034275 -0.001105 0.244390
-0.033257 -0.001110 0.245472
-0.032113 -0.001112 0.245676
-0.031011 -0.001114 0.246232
-0.029906 -0.001118 0.246830
-0.028779 -0.001120 0.247289
-0.027639 -0.001122 0.247690
-0.026508 -0.001125 0.248213
-0.025470 -0.001132 0.249721
-0.024281 -0.001133 0.249832
-0.023159 -0.001137 0.250693
-0.021983 -0.001139 0.251038
-0.020817 -0.001141 0.251563
-0.019643 -0.001144 0.252065
-0.018437 -0.001145 0.252208
-0.017325 -0.001152 0.253758
-0.016131 -0.001155 0.254264
-0.014938 -0.001158 0.254889
-0.013735 -0.001160 0.255463
-0.012519 -0.001163 0.255907
-0.011294 -0.001164 0.256244
-0.010065 -0.001166 0.256591
-0.008834 -0.001168 0.256973
-0.007601 -0.001170 0.257468
-0.006355 -0.001171 0.257641
-0.005110 -0.001173 0.257940
-0.003874 -0.001178 0.259060
-0.002623 -0.001182 0.259882
-0.001361 -0.001183 0.260194
-0.000096 -0.001185 0.260521
0.001172 -0.001186 0.260794
0.002445 -0.001189 0.261348
0.003778 -0.001208 0.265643
0.005074 -0.001209 0.265884
0.006274 -0.001192 0.262004
0.007607 -0.001201 0.264035
0.008995 -0.001215 0.267140
0.012500 -0.001475 0.324416
0.012233 -0.001282 0.281917
0.013495 -0.001272 0.279693
0.014256 -0.001221 0.268440
0.015545 -0.001219 0.268197
0.016838 -0.001219 0.268057
0.018427 -0.001238 0.272322
0.020071 -0.001258 0.276776
0.021439 -0.001259 0.277124
0.022608 -0.001250 0.275020
0.023902 -0.001248 0.274589
0.025229 -0.001247 0.274573
0.026575 -0.001248 0.274772
0.027939 -0.001249 0.275133
0.029438 -0.001256 0.276740
0.030912 -0.001262 0.277986
0.032554 -0.001273 0.280590
0.034102 -0.001281 0.282223
0.035524 -0.001283 0.282728
0.036955 -0.001285 0.283279
0.038370 -0.001286 0.283680
0.039768 -0.001287 0.283942
0.041180 -0.001289 0.284293
0.042576 -0.001289 0.284524
0.043936 -0.001289 0.284512
0.045300 -0.001289 0.284532
0.046649 -0.001288 0.284476
0.047869 -0.001284 0.283657
0.048613 -0.001268 0.280155
0.048892 -0.001241 0.274234
0.049790 -0.001230 0.272013
0.050782 -0.001223 0.270408
0.052151 -0.001224 0.270849
0.053245 -0.001220 0.269883
0.054404 -0.001217 0.269288
0.055484 -0.001212 0.268345
0.056577 -0.001208 0.267512
0.057606 -0.001203 0.266421
0.058480 -0.001195 0.264683
0.058997 -0.001180 0.261442
0.059773 -0.001170 0.259460
0.060782 -0.001166 0.258555
0.061813 -0.001162 0.257779
0.062632 -0.001155 0.256169
0.062946 -0.001138 0.252599
0.062694 -0.001113 0.246938
0.063577 -0.001108 0.245871
0.064570 -0.001105 0.245263
0.065571 -0.001102 0.244707
0.066485 -0.001098 0.243855
0.067475 -0.001095 0.243311
0.068271 -0.001089 0.242093
0.069116 -0.001085 0.241092
0.069907 -0.001079 0.239936
0.070540 -0.001072 0.238288
0.071172 -0.001064 0.236685
0.071996 -0.001060 0.235760
0.072705 -0.001054 0.234495
0.073465 -0.001049 0.233430
0.074183 -0.001044 0.232261
0.074813 -0.001038 0.230859
0.075431 -0.001031 0.229455
0.075771 -0.001021 0.227258
0.076529 -0.001017 0.226357
0.077285 -0.001013 0.225474
0.078151 -0.001011 0.224930
0.078974 -0.001008 0.224277
0.079547 -0.001002 0.222937
0.080025 -0.000995 0.221369
0.080669 -0.000990 0.220289
0.081013 -0.000982 0.218428
0.081310 -0.000973 0.216483
0.081811 -0.000967 0.215120
0.082469 -0.000963 0.214198
0.083418 -0.000963 0.214039
0.083972 -0.000958 0.212878
0.084375 -0.000951 0.211363
0.084850 -0.000945 0.210058
0.085277 -0.000939 0.208661
0.085814 -0.000935 0.207559
0.086382 -0.000930 0.206548
0.087108 -0.000928 0.205931
0.087811 -0.000925 0.205269
0.088399 -0.000921 0.204347
0.089119 -0.000919 0.203743
0.089725 -0.000916 0.202891
0.090196 -0.000911 0.201744
0.090589 -0.000906 0.200445
0.091249 -0.000903 0.199752
0.091752 -0.000899 0.198725
0.092277 -0.000895 0.197759
0.092855 -0.000892 0.196917
0.093575 -0.000890 0.196385
0.094203 -0.000888 0.195662
0.094829 -0.000885 0.194942
0.095617 -0.000884 0.194556
0.096208 -0.000881 0.193774
0.096961 -0.000880 0.193319
0.098942 -0.000890 0.195287
0.103352 -0.000921 0.201952
0.104869 -0.000927 0.202875
0.105683 -0.000926 0.202423
-0.740538 0.000324 1.495288
-0.744857 0.000332 1.519015
-0.747471 0.000339 1.539644
-0.741408 0.000342 1.542573
-0.741841 0.000348 1.559156
-0.736169 0.000351 1.563058
-0.726494 0.000353 1.558397
-0.718957 0.000355 1.558217
-0.708690 0.000356 1.552006
-0.698246 0.000357 1.545222
-0.687827 0.000358 1.538303
-0.680268 0.000360 1.537656
-0.670545 0.000361 1.532008
-0.661825 0.000362 1.528514
-0.654405 0.000364 1.527941
-0.645733 0.000366 1.524362
-0.637253 0.000367 1.521129
-0.628218 0.000368 1.516449
-0.619038 0.000369 1.511281
-0.609396 0.000370 1.504822
-0.598080 0.000369 1.494006
-0.589199 0.000370 1.489067
-0.579381 0.000370 1.481589
-0.569619 0.000370 1.474058
-0.559135 0.000370 1.464435
-0.541496 0.000364 1.435588
-0.538901 0.000369 1.446389
-0.527950 0.000368 1.434739
-0.509168 0.000361 1.401230
-0.507650 0.000366 1.414970
-0.500568 0.000368 1.413349
-0.494783 0.000370 1.415385
-0.350616 0.000277 1.044151
-0.344722 0.000277 1.040835
-0.341586 0.000280 1.045871
-0.335550 0.000280 1.042044
-0.330257 0.000281 1.040451
-0.325110 0.000282 1.039279
-0.319782 0.000282 1.037491
-0.314531 0.000283 1.035906
-0.308574 0.000283 1.031917
-0.301663 0.000282 1.024570
-0.293662 0.000280 1.013235
-0.070149 0.000074 0.262961
-0.068701 0.000074 0.262074
-0.067111 0.000074 0.260608
-0.065308 0.000074 0.258247
-0.063211 0.000073 0.254621
-0.061408 0.000072 0.252071
-0.059695 0.000072 0.249797
-0.057298 0.000071 0.244526
-0.055206 0.000070 0.240368
-0.054029 0.000070 0.240116
-0.052915 0.000070 0.240141
-0.051484 0.000070 0.238700
-0.049749 0.000069 0.235763
-0.047670 0.000068 0.231035
-0.046774 0.000068 0.231959
-0.045875 0.000069 0.232914
-0.044843 0.000069 0.233236
-0.043947 0.000070 0.234304
-0.043039 0.000070 0.235368
-0.042453 0.000071 0.238306
-0.041438 0.000072 0.238935
-0.040380 0.000072 0.239350
-0.039380 0.000072 0.240156
-0.038298 0.000073 0.240505
-0.037357 0.000073 0.241791
-0.036413 0.000074 0.243153
-0.035320 0.000074 0.243577
-0.034312 0.000075 0.244654
-0.033285 0.000075 0.245678
-0.032088 0.000075 0.245478
-0.031015 0.000075 0.246265
-0.029891 0.000076 0.246704
-0.028751 0.000076 0.247045
-0.027632 0.000076 0.247621
-0.026497 0.000077 0.248110
-0.025436 0.000077 0.249384
-0.024311 0.000077 0.250134
-0.023135 0.000078 0.250428
-0.021989 0.000078 0.251110
-0.020833 0.000078 0.251748
-0.019669 0.000079 0.252395
-0.018544 0.000079 0.253672
-0.017334 0.000079 0.253888
-0.016137 0.000079 0.254356
-0.014945 0.000080 0.255017
-0.013739 0.000080 0.255532
-0.012526 0.000080 0.256049
-0.011306 0.000080 0.256505
-0.010074 0.000081 0.256817
-0.008845 0.000081 0.257287
-0.007610 0.000081 0.257747
-0.006361 0.000081 0.257878
-0.005114 0.000081 0.258128
-0.003867 0.000081 0.258600
-0.002620 0.000082 0.259599
-0.001362 0.000082 0.260311
-0.000096 0.000082 0.260164
0.001172 0.000082 0.260752
0.002449 0.000082 0.261780
0.003790 0.000084 0.266500
0.005029 0.000083 0.263518
0.006282 0.000082 0.262326
0.007604 0.000083 0.263934
0.008960 0.000084 0.266098
0.010321 0.000084 0.267843
0.011622 0.000084 0.267826
0.012911 0.000084 0.267579
0.014232 0.000084 0.267990
0.015575 0.000084 0.268702
0.017070 0.000085 0.271753
0.018408 0.000085 0.272038
0.019800 0.000085 0.273044
0.021141 0.000085 0.273272
0.022531 0.000085 0.274080
0.023876 0.000085 0.274293
0.025193 0.000085 0.274187
0.026562 0.000085 0.274633
0.028009 0.000085 0.275824
0.029390 0.000085 0.276284
0.030943 0.000086 0.278266
0.032410 0.000086 0.279352
0.034075 0.000087 0.281996
0.035544 0.000087 0.282891
0.036934 0.000087 0.283118
0.038309 0.000087 0.283232
0.039807 0.000087 0.284223
0.041127 0.000087 0.283929
0.042502 0.000086 0.284026
0.043914 0.000086 0.284370
0.045239 0.000086 0.284151
0.046611 0.000086 0.284242
0.047877 0.000086 0.283706
0.047740 0.000083 0.275121
0.048675 0.000082 0.273019
0.049638 0.000081 0.271180
0.050973 0.000081 0.271426
0.052212 0.000081 0.271170
0.053277 0.000080 0.270046
0.054484 0.000080 0.269685
0.055665 0.000080 0.269222
0.056721 0.000079 0.268192
0.057705 0.000078 0.266880
0.058329 0.000077 0.264001
0.059030 0.000076 0.261588
0.059925 0.000076 0.260121
0.061084 0.000075 0.259840
0.062156 0.000075 0.259208
0.062908 0.000074 0.257300
0.063786 0.000073 0.255970
0.062892 0.000071 0.247716
0.063719 0.000070 0.246418
0.064635 0.000070 0.245509
0.065559 0.000069 0.244665
0.066516 0.000069 0.243971
0.067394 0.000068 0.243017
0.068276 0.000068 0.242111
0.069193 0.000067 0.241359
0.069855 0.000067 0.239759
0.070345 0.000066 0.237629
0.070792 0.000065 0.235421
0.071646 0.000064 0.234615
0.072563 0.000064 0.234039
0.073049 0.000063 0.232109
0.073794 0.000063 0.231043
0.074136 0.000062 0.228769
0.075052 0.000061 0.228302
0.075869 0.000061 0.227553
0.076688 0.000060 0.226830
0.077088 0.000060 0.224899
0.078008 0.000059 0.224519
0.078811 0.000059 0.223815
0.079437 0.000058 0.222630
0.079975 0.000057 0.221230
0.080512 0.000057 0.219861
0.081089 0.000056 0.218634
0.081436 0.000055 0.216820
0.081864 0.000055 0.215262
0.082376 0.000054 0.213958
0.083227 0.000054 0.213549
0.083758 0.000053 0.212336
0.084367 0.000053 0.211345
0.084973 0.000052 0.210365
0.085620 0.000052 0.209501
0.086162 0.000051 0.208401
0.086712 0.000050 0.207339
0.087350 0.000050 0.206505
0.088177 0.000050 0.206125
0.088863 0.000049 0.205422
0.089391 0.000049 0.204368
0.089989 0.000048 0.203488
0.090294 0.000047 0.201964
0.090623 0.000047 0.200521
0.091274 0.000046 0.199807
0.091721 0.000046 0.198659
0.092200 0.000045 0.197595
0.092748 0.000045 0.196693
0.093285 0.000044 0.195778
0.093890 0.000044 0.195013
0.094186 0.000043 0.193620
0.095041 0.000043 0.193386
0.095832 0.000042 0.193018
0.096466 0.000042 0.192333
0.098594 0.000042 0.194602
0.103011 0.000043 0.201288
0.104409 0.000043 0.201987
0.105744 0.000042 0.202541
-0.740530 0.007387 1.495273
-0.732537 0.007380 1.493893
-0.733176 0.007461 1.510202
-0.737809 0.007584 1.535089
-0.742113 0.007706 1.559732
-0.735970 0.007721 1.562640
-0.728605 0.007723 1.562929
-0.722858 0.007743 1.566676
-0.715809 0.007749 1.567601
-0.706428 0.007729 1.563333
-0.696678 0.007705 1.558101
-0.686684 0.007677 1.552164
-0.676890 0.007651 1.546510
-0.667614 0.007630 1.541890
-0.659370 0.007621 1.539538
-0.649891 0.007597 1.534183
-0.641155 0.007581 1.530448
-0.632043 0.007560 1.525688
-0.623411 0.007544 1.521962
-0.618545 0.007574 1.527421
-0.602649 0.007468 1.505425
-0.593508 0.007444 1.499962
-0.582459 0.007395 1.489467
-0.570994 0.007340 1.477623
-0.558411 0.007268 1.462544
-0.548054 0.007224 1.452981
-0.536965 0.007169 1.441202
-0.525201 0.007104 1.427275
-0.512844 0.007028 1.411354
-0.502693 0.006981 1.401160
-0.505613 0.007117 1.427601
-0.490826 0.007003 1.404074
-0.350676 0.005218 1.044336
-0.344805 0.005205 1.041091
-0.339898 0.005206 1.040709
-0.335117 0.005209 1.040708
-0.330214 0.005211 1.040323
-0.324620 0.005201 1.037719
-0.319961 0.005206 1.038077
-0.314516 0.005198 1.035863
-0.309086 0.005190 1.033635
-0.298381 0.005092 1.013429
-0.294080 0.005102 1.014686
-0.070092 0.001326 0.262751
-0.068831 0.001326 0.262571
-0.066729 0.001309 0.259128
-0.064739 0.001294 0.256003
-0.062845 0.001281 0.253150
-0.061612 0.001280 0.252909
-0.058586 0.001242 0.245161
-0.056986 0.001233 0.243197
-0.055432 0.001224 0.241356
-0.054311 0.001225 0.241370
-0.052850 0.001218 0.239844
-0.051526 0.001214 0.238900
-0.049967 0.001204 0.236802
-0.047581 0.001174 0.230608
-0.046502 0.001174 0.230609
-0.045684 0.001182 0.231949
-0.044754 0.001187 0.232775
-0.043918 0.001195 0.234150
-0.042951 0.001199 0.234889
-0.042062 0.001206 0.236113
-0.041376 0.001219 0.238577
-0.040493 0.001228 0.240027
-0.039291 0.001226 0.239617
-0.038266 0.001230 0.240301
-0.037271 0.001236 0.241238
-0.035294 0.001248 0.243404
-0.034268 0.001254 0.244347
-0.033248 0.001260 0.245404
-0.032098 0.001261 0.245563
-0.030966 0.001264 0.245883
-0.029856 0.001267 0.246417
-0.028735 0.001270 0.246911
-0.027586 0.001272 0.247218
-0.026460 0.001276 0.247768
-0.025382 0.001282 0.248859
-0.024309 0.001289 0.250118
-0.023148 0.001292 0.250566
-0.021985 0.001295 0.251068
-0.020835 0.001299 0.251784
-0.019652 0.001301 0.252185
-0.018503 0.001307 0.253105
-0.017328 0.001311 0.253797
-0.016123 0.001313 0.254146
-0.014927 0.001316 0.254710
-0.013732 0.001320 0.255407
-0.012514 0.001322 0.255793
-0.011300 0.001326 0.256373
-0.010069 0.001327 0.256673
-0.008837 0.001330 0.257080
-0.007606 0.001333 0.257642
-0.006359 0.001334 0.257782
-0.005113 0.001336 0.258097
-0.003882 0.001344 0.259624
-0.002612 0.001340 0.258835
-0.001358 0.001344 0.259616
-0.000096 0.001348 0.260368
0.001171 0.001348 0.260479
0.002447 0.001354 0.261505
0.003814 0.001389 0.268244
0.005077 0.001377 0.266041
0.006294 0.001361 0.262843
0.007577 0.001362 0.263023
0.008982 0.001381 0.266751
0.010328 0.001387 0.268041
0.011587 0.001382 0.267036
0.012908 0.001384 0.267518
0.014241 0.001387 0.268150
0.015545 0.001387 0.268185
0.017079 0.001406 0.271895
0.018417 0.001407 0.272169
0.019758 0.001408 0.272465
0.021113 0.001410 0.272914
0.022458 0.001412 0.273199
0.023835 0.001414 0.273830
0.025148 0.001413 0.273693
0.026511 0.001415 0.274115
0.027854 0.001416 0.274300
0.029451 0.001428 0.276864
0.030820 0.001429 0.277160
0.032551 0.001446 0.280574
0.034155 0.001457 0.282667
0.035599 0.001459 0.283327
0.036962 0.001459 0.283334
0.038422 0.001462 0.284066
0.039803 0.001462 0.284199
0.041173 0.001462 0.284248
0.042542 0.001461 0.284298
0.043896 0.001460 0.284253
0.045250 0.001459 0.284226
0.046571 0.001458 0.284000
0.047798 0.001453 0.283239
0.048736 0.001440 0.280863
0.048825 0.001403 0.273863
0.049681 0.001390 0.271417
0.050838 0.001386 0.270711
0.052151 0.001386 0.270852
0.053311 0.001382 0.270221
0.054468 0.001378 0.269609
0.055639 0.001374 0.269096
0.056777 0.001370 0.268458
0.057900 0.001366 0.267784
0.058999 0.001362 0.267038
0.060005 0.001355 0.265913
0.060973 0.001348 0.264670
0.061837 0.001339 0.263044
0.062321 0.001322 0.259899
0.063179 0.001314 0.258411
0.063489 0.001294 0.254780
0.062484 0.001250 0.246113
0.063666 0.001249 0.246215
0.064385 0.001240 0.244563
0.065337 0.001236 0.243838
0.066302 0.001232 0.243188
0.067130 0.001225 0.242066
0.068100 0.001222 0.241488
0.068943 0.001216 0.240490
0.069580 0.001207 0.238818
0.069838 0.001192 0.235916
0.070484 0.001183 0.234397
0.071381 0.001179 0.233748
0.072293 0.001176 0.233168
0.072846 0.001166 0.231463
0.073536 0.001160 0.230237
0.074146 0.001152 0.228802
0.075004 0.001148 0.228160
0.075842 0.001144 0.227472
0.076533 0.001138 0.226370
0.077221 0.001132 0.225289
0.078028 0.001127 0.224577
0.078672 0.001121 0.223420
0.079474 0.001117 0.222733
0.080018 0.001110 0.221351
0.080734 0.001105 0.220468
0.081276 0.001098 0.219139
0.081885 0.001092 0.218015
0.081737 0.001076 0.214928
0.082359 0.001070 0.213912
0.083084 0.001066 0.213182
0.083793 0.001062 0.212426
0.084389 0.001056 0.211400
0.085055 0.001052 0.210568
0.085650 0.001047 0.209575
0.086192 0.001041 0.208473
0.086820 0.001036 0.207598
0.087478 0.001032 0.206808
0.088142 0.001028 0.206043
0.088703 0.001023 0.205051
0.089329 0.001018 0.204225
0.089786 0.001012 0.203029
0.090258 0.001006 0.201885
0.090555 0.000999 0.200372
0.090992 0.000993 0.199189
0.091602 0.000989 0.198402
0.092140 0.000984 0.197466
0.092699 0.000980 0.196589
0.093290 0.000976 0.195788
0.093903 0.000972 0.195041
0.094625 0.000969 0.194524
0.095164 0.000965 0.193636
0.095711 0.000961 0.192775
0.096601 0.000960 0.192603
0.101211 0.000996 0.199766
0.102985 0.001004 0.201235
0.104105 0.001005 0.201398
0.104606 0.001000 0.200361
-0.744518 0.014962 1.549045
-0.738417 0.014989 1.551962
-0.743388 0.015243 1.578389
-0.734482 0.015214 1.575536
-0.739891 0.015485 1.603593
-0.724235 0.015315 1.586055
-0.715857 0.015298 1.584201
-0.706276 0.015254 1.579571
-0.695838 0.015190 1.572857
-0.685302 0.015123 1.565734
-0.674693 0.015053 1.558242
-0.665242 0.015007 1.553253
-0.656811 0.014983 1.550525
-0.647747 0.014944 1.546190
-0.637337 0.014873 1.538475
-0.627905 0.014823 1.532943
-0.618524 0.014773 1.527377
-0.605784 0.014640 1.513266
-0.593910 0.014526 1.500989
-0.580267 0.014364 1.483873
-0.568622 0.014249 1.471495
-0.558851 0.014179 1.463708
-0.552941 0.014206 1.465950
-0.534751 0.013914 1.435269
-0.521052 0.013732 1.416014
-0.505113 0.013486 1.390092
-0.506363 0.013699 1.411404
-0.501947 0.013762 1.417264
-0.496145 0.013788 1.419305
-0.358574 0.010243 1.053457
-0.348310 0.010091 1.037301
-0.343867 0.010105 1.038273
-0.340378 0.010148 1.042190
-0.334437 0.010119 1.038608
-0.329823 0.010129 1.039102
-0.324508 0.010117 1.037377
-0.320223 0.010138 1.038941
-0.315132 0.010133 1.037905
-0.309824 0.010121 1.036119
-0.305440 0.010140 1.037420
-0.070068 0.002576 0.262663
-0.068587 0.002568 0.261644
-0.066719 0.002544 0.259092
-0.064728 0.002515 0.255962
-0.063161 0.002501 0.254427
-0.061753 0.002494 0.253493
-0.059978 0.002470 0.250990
-0.057270 0.002407 0.244410
-0.055615 0.002386 0.242155
-0.054190 0.002375 0.240834
-0.052945 0.002371 0.240282
-0.051404 0.002353 0.238338
-0.050102 0.002345 0.237446
-0.047631 0.002282 0.230854
-0.046029 0.002257 0.228271
-0.045216 0.002272 0.229577
-0.044383 0.002285 0.230850
-0.043946 0.002321 0.234304
-0.042950 0.002328 0.234891
-0.041992 0.002338 0.235725
-0.041182 0.002356 0.237467
-0.040317 0.002372 0.238987
-0.039242 0.002377 0.239323
-0.038208 0.002385 0.239949
-0.037225 0.002396 0.240946
-0.036864 0.002449 0.246174
-0.035191 0.002415 0.242699
-0.034305 0.002436 0.244618
-0.033328 0.002451 0.246004
-0.032078 0.002446 0.245414
-0.029908 0.002463 0.246851
-0.028767 0.002467 0.247196
-0.027654 0.002474 0.247829
-0.026507 0.002479 0.248221
-0.025484 0.002497 0.249867
-0.024362 0.002506 0.250670
-0.023193 0.002511 0.251066
-0.022032 0.002517 0.251604
-0.020857 0.002522 0.252052
-0.019688 0.002529 0.252644
-0.018507 0.002535 0.253176
-0.017318 0.002541 0.253662
-0.016131 0.002547 0.254281
-0.014925 0.002552 0.254686
-0.013723 0.002559 0.255259
-0.012514 0.002565 0.255803
-0.011298 0.002570 0.256338
-0.010064 0.002573 0.256571
-0.008827 0.002576 0.256776
-0.007600 0.002583 0.257449
-0.006357 0.002586 0.257726
-0.005108 0.002588 0.257872
-0.003861 0.002592 0.258242
-0.002610 0.002596 0.258592
-0.001356 0.002603 0.259263
-0.000096 0.002607 0.259690
0.001169 0.002612 0.260216
0.002446 0.002624 0.261376
0.003738 0.002639 0.262900
0.005029 0.002646 0.263552
0.006288 0.002636 0.262609
0.007584 0.002643 0.263258
0.009094 0.002711 0.270100
0.010400 0.002709 0.269917
0.011627 0.002689 0.267957
0.012919 0.002687 0.267759
0.014314 0.002704 0.269542
0.015608 0.002701 0.269284
0.017053 0.002723 0.271491
0.018345 0.002719 0.271112
0.019737 0.002729 0.272190
0.021118 0.002736 0.272989
0.022511 0.002745 0.273852
0.023864 0.002747 0.274163
0.025247 0.002752 0.274778
0.026536 0.002748 0.274377
0.028090 0.002769 0.276623
0.029505 0.002776 0.277378
0.031050 0.002794 0.279240
0.032376 0.002791 0.279066
0.033926 0.002807 0.280771
0.035532 0.002827 0.282803
0.036991 0.002833 0.283569
0.038366 0.002833 0.283664
0.039761 0.002834 0.283906
0.041135 0.002834 0.283991
0.042506 0.002834 0.284066
0.043859 0.002832 0.284023
0.045193 0.002829 0.283873
0.046492 0.002825 0.283525
0.047686 0.002814 0.282586
0.048867 0.002803 0.281625
0.048522 0.002708 0.272170
0.049709 0.002701 0.271576
0.050906 0.002694 0.271078
0.052113 0.002689 0.270660
0.053282 0.002682 0.270080
0.054405 0.002673 0.269300
0.055534 0.002664 0.268593
0.056691 0.002658 0.268056
0.057783 0.002648 0.267247
0.058682 0.002631 0.265606
0.059416 0.002607 0.263307
0.060530 0.002600 0.262752
0.061535 0.002589 0.261763
0.062427 0.002573 0.260348
0.063009 0.002546 0.257718
0.062906 0.002493 0.252447
0.063269 0.002459 0.249208
0.063797 0.002434 0.246728
0.064570 0.002418 0.245267
0.065344 0.002403 0.243865
0.066340 0.002397 0.243331
0.067317 0.002390 0.242745
0.068123 0.002377 0.241574
0.069010 0.002367 0.240728
0.069043 0.002329 0.236976
0.069748 0.002315 0.235614
0.070513 0.002303 0.234499
0.071325 0.002293 0.233570
0.071920 0.002276 0.231968
0.072843 0.002270 0.231456
0.073709 0.002262 0.230784
0.074347 0.002248 0.229425
0.074948 0.002233 0.227990
0.076203 0.002237 0.228560
0.076753 0.002221 0.227024
0.077003 0.002197 0.224655
0.077762 0.002188 0.223813
0.078590 0.002181 0.223189
0.079334 0.002172 0.222344
0.079981 0.002161 0.221250
0.080719 0.002152 0.220431
0.081275 0.002139 0.219136
0.081854 0.002126 0.217934
0.081980 0.002103 0.215570
0.082346 0.002086 0.213881
0.083087 0.002078 0.213192
0.083813 0.002071 0.212479
0.084488 0.002063 0.211648
0.085217 0.002055 0.210970
0.085796 0.002045 0.209934
0.086339 0.002034 0.208830
0.086971 0.002025 0.207959
0.087604 0.002017 0.207107
0.088204 0.002008 0.206188
0.088697 0.001996 0.205038
0.089280 0.001987 0.204114
0.089745 0.001976 0.202936
0.090278 0.001966 0.201930
0.090389 0.001947 0.200004
0.090761 0.001934 0.198684
0.091229 0.001924 0.197594
0.091868 0.001917 0.196883
0.092407 0.001909 0.195968
0.093085 0.001903 0.195356
0.093706 0.001896 0.194631
0.094339 0.001890 0.193935
0.095115 0.001887 0.193537
0.095653 0.001879 0.192656
0.096541 0.001878 0.192482
0.098514 0.001898 0.194443
0.102984 0.001965 0.201233
0.103672 0.001959 0.200560
0.104526 0.001957 0.200207
-0.751071 0.022692 1.578552
-0.744853 0.022731 1.581495
-0.747126 0.023033 1.602655
-0.739857 0.023043 1.603518
-0.734051 0.023100 1.607551
-0.730229 0.023221 1.616008
-0.718446 0.023089 1.606789
-0.705361 0.022911 1.594387
-0.694435 0.022800 1.586604
-0.682645 0.022659 1.576614
-0.672099 0.022555 1.569269
-0.662521 0.022482 1.564012
-0.652923 0.022407 1.558554
-0.641591 0.022270 1.548752
-0.631141 0.022161 1.540851
-0.620564 0.022044 1.532426
-0.614437 0.022084 1.534893
-0.592894 0.021565 1.498433
-0.581811 0.021418 1.487834
-0.575828 0.021458 1.490159
-0.358551 0.015225 1.053405
-0.348653 0.015013 1.038338
-0.342776 0.014972 1.034995
-0.337502 0.014956 1.033404
-0.333945 0.015016 1.037101
-0.329163 0.015023 1.037044
-0.324801 0.015049 1.038332
-0.319955 0.015053 1.038092
-0.315269 0.015065 1.038378
-0.310887 0.015092 1.039697
-0.070163 0.003832 0.263028
-0.068789 0.003826 0.262424
-0.066379 0.003760 0.257779
-0.064094 0.003699 0.253463
-0.062488 0.003676 0.251726
-0.060936 0.003655 0.250144
-0.059500 0.003640 0.248997
-0.057442 0.003586 0.245155
-0.056127 0.003577 0.244394
-0.054415 0.003542 0.241842
-0.052920 0.003519 0.240174
-0.051304 0.003487 0.237880
-0.049969 0.003474 0.236824
-0.047716 0.003394 0.231271
-0.045927 0.003345 0.227772
-0.045133 0.003367 0.229166
-0.044457 0.003399 0.231242
-0.043905 0.003443 0.234097
-0.042949 0.003457 0.234894
-0.042102 0.003480 0.236349
-0.041415 0.003518 0.238819
-0.040362 0.003527 0.239261
-0.039220 0.003528 0.239200
-0.038248 0.003544 0.240207
-0.037247 0.003559 0.241098
-0.036202 0.003571 0.241763
-0.035224 0.003590 0.242938
-0.034189 0.003604 0.243794
-0.033109 0.003615 0.244394
-0.032000 0.003623 0.244827
-0.030881 0.003630 0.245221
-0.029800 0.003643 0.245973
-0.028721 0.003657 0.246808
-0.027598 0.003666 0.247337
-0.026550 0.003686 0.248626
-0.025485 0.003707 0.249887
-0.024357 0.003719 0.250631
-0.023222 0.003731 0.251389
-0.022029 0.003736 0.251590
-0.020856 0.003744 0.252054
-0.019682 0.003753 0.252579
-0.018508 0.003763 0.253201
-0.017322 0.003772 0.253733
-0.016115 0.003778 0.254034
-0.014913 0.003785 0.254492
-0.013704 0.003792 0.254908
-0.012492 0.003800 0.255368
-0.011292 0.003814 0.256226
-0.010066 0.003821 0.256644
-0.008828 0.003824 0.256828
-0.007596 0.003832 0.257326
-0.006356 0.003838 0.257680
-0.005105 0.003839 0.257742
-0.003857 0.003844 0.258007
-0.002608 0.003851 0.258449
-0.001354 0.003859 0.258972
-0.000096 0.003872 0.259882
0.001173 0.003890 0.261063
0.002449 0.003900 0.261704
0.003727 0.003906 0.262098
0.005015 0.003916 0.262804
0.006282 0.003909 0.262341
0.007634 0.003949 0.265009
0.009141 0.004045 0.271478
0.010479 0.004052 0.271969
0.011529 0.003958 0.265707
0.012842 0.003965 0.266172
0.014312 0.004014 0.269499
0.015699 0.004033 0.270856
0.017088 0.004050 0.272047
0.018387 0.004045 0.271743
0.019709 0.004045 0.271808
0.021069 0.004053 0.272355
0.022426 0.004059 0.272822
0.023806 0.004068 0.273510
0.025164 0.004072 0.273886
0.026533 0.004078 0.274353
0.027838 0.004074 0.274155
0.029206 0.004079 0.274577
0.030590 0.004086 0.275110
0.032693 0.004184 0.281811
0.034108 0.004190 0.282293
0.035573 0.004201 0.283140
0.036899 0.004196 0.282868
0.038299 0.004199 0.283175
0.039741 0.004206 0.283767
0.041109 0.004205 0.283824
0.042448 0.004201 0.283682
0.043827 0.004202 0.283826
0.045166 0.004198 0.283712
0.046412 0.004187 0.283045
0.047546 0.004166 0.281761
0.048893 0.004164 0.281782
0.048420 0.004012 0.271603
0.049554 0.003998 0.270741
0.050753 0.003989 0.270269
0.051960 0.003981 0.269873
0.053098 0.003969 0.269155
0.054212 0.003955 0.268356
0.055349 0.003944 0.267706
0.056488 0.003933 0.267103
0.057464 0.003912 0.265780
0.058349 0.003885 0.264105
0.059279 0.003863 0.262704
0.060334 0.003849 0.261908
0.061334 0.003833 0.260914
0.062416 0.003822 0.260308
0.063298 0.003799 0.258910
0.064007 0.003768 0.256872
0.064506 0.003725 0.254085
0.064082 0.003632 0.247835
0.064279 0.003576 0.244169
0.064953 0.003549 0.242411
0.066006 0.003543 0.242109
0.066635 0.003514 0.240290
0.067446 0.003496 0.239178
0.068189 0.003476 0.237868
0.068821 0.003450 0.236218
0.069827 0.003444 0.235887
0.070687 0.003430 0.235079
0.071375 0.003409 0.233736
0.071950 0.003383 0.232069
0.072844 0.003373 0.231463
0.073740 0.003363 0.230885
0.074310 0.003339 0.229313
0.075097 0.003325 0.228446
0.075880 0.003311 0.227594
0.076332 0.003284 0.225782
0.076929 0.003263 0.224443
0.077656 0.003249 0.223511
0.078497 0.003239 0.222927
0.079248 0.003226 0.222105
0.079924 0.003210 0.221096
0.080563 0.003194 0.220005
0.081273 0.003180 0.219134
0.081797 0.003160 0.217785
0.082311 0.003139 0.216442
0.082564 0.003110 0.214448
0.083055 0.003090 0.213112
0.083556 0.003071 0.211829
0.084399 0.003064 0.211427
0.084977 0.003048 0.210377
0.085579 0.003034 0.209404
0.086301 0.003024 0.208740
0.086791 0.003006 0.207529
0.087517 0.002997 0.206900
0.088102 0.002983 0.205950
0.088519 0.002964 0.204628
0.089344 0.002959 0.204260
0.089626 0.002936 0.202666
0.089783 0.002909 0.200821
0.090159 0.002890 0.199495
0.090801 0.002880 0.198771
0.091333 0.002866 0.197817
0.091888 0.002854 0.196924
0.092394 0.002840 0.195941
0.092964 0.002829 0.195103
0.093657 0.002821 0.194527
0.094342 0.002814 0.193939
0.094983 0.002805 0.193265
0.095558 0.002794 0.192463
0.096202 0.002786 0.191804
0.099119 0.002843 0.195635
0.102569 0.002914 0.200420
0.103557 0.002914 0.200335
0.104250 0.002906 0.199675
-0.744808 0.030188 1.581392
-0.736457 0.030153 1.579762
-0.740726 0.030639 1.605397
-0.734427 0.030693 1.608371
-0.723779 0.030565 1.601733
-0.723890 0.030893 1.618967
-0.712669 0.030739 1.610906
-0.702299 0.030619 1.604572
-0.688189 0.030331 1.589422
-0.678387 0.030229 1.583958
-0.667151 0.030060 1.574950
-0.655665 0.029876 1.565107
-0.644382 0.029697 1.555499
-0.631526 0.029440 1.541802
-0.619124 0.029199 1.528883
-0.605147 0.028876 1.511701
-0.591844 0.028579 1.495795
-0.585841 0.028631 1.498156
-0.358519 0.020205 1.053332
-0.345925 0.019770 1.030239
-0.341775 0.019813 1.031998
-0.338558 0.019911 1.036661
-0.333091 0.019878 1.034472
-0.328916 0.019922 1.036292
-0.324833 0.019973 1.038464
-0.320307 0.019998 1.039263
-0.315934 0.020034 1.040600
-0.070100 0.005080 0.262800
-0.068480 0.005053 0.261254
-0.066827 0.005023 0.259529
-0.065387 0.005007 0.258585
-0.063235 0.004935 0.254742
-0.061441 0.004889 0.252229
-0.059722 0.004848 0.249936
-0.057320 0.004748 0.244641
-0.055906 0.004727 0.243442
-0.054465 0.004703 0.242074
-0.053018 0.004677 0.240632
-0.051357 0.004632 0.238137
-0.050124 0.004623 0.237568
-0.048902 0.004615 0.237034
-0.046072 0.004451 0.228500
-0.045044 0.004458 0.228724
-0.044227 0.004487 0.230061
-0.043901 0.004567 0.234087
-0.043021 0.004593 0.235295
-0.042044 0.004610 0.236038
-0.041141 0.004636 0.237252
-0.040278 0.004669 0.238775
-0.039259 0.004684 0.239450
-0.038173 0.004692 0.239749
-0.037155 0.004710 0.240517
-0.036104 0.004724 0.241115
-0.035087 0.004743 0.242004
-0.034120 0.004771 0.243319
-0.032033 0.004810 0.245090
-0.030911 0.004820 0.245478
-0.029864 0.004842 0.246516
-0.028749 0.004855 0.247063
-0.027712 0.004883 0.248380
-0.026585 0.004896 0.248978
-0.025516 0.004922 0.250204
-0.024311 0.004924 0.250178
-0.023186 0.004942 0.251018
-0.022024 0.004954 0.251548
