ply
format ascii 1.0
element vertex 1745
property float x
property float y
property float z
end_header
-0.006203 0.050551 0.256194
-0.004987 0.050704 0.256946
-0.003761 0.050817 0.257497
-0.002528 0.050908 0.257937
-0.001293 0.051126 0.259026
-0.000049 0.051242 0.259603
0.001202 0.051358 0.260182
0.002458 0.051462 0.260702
0.003723 0.051617 0.261485
0.004995 0.051774 0.262278
0.006272 0.051902 0.262927
0.007546 0.051971 0.263281
0.008834 0.052100 0.263941
0.010129 0.052232 0.264620
0.011434 0.052381 0.265390
0.012729 0.052461 0.265812
0.014034 0.052562 0.266342
0.015344 0.052659 0.266860
0.016628 0.052663 0.266901
0.017957 0.052799 0.267620
0.019286 0.052913 0.268229
0.020641 0.053082 0.269120
0.021972 0.053172 0.269609
0.023297 0.053240 0.269994
0.024611 0.053274 0.270210
0.025899 0.053252 0.270143
0.027180 0.053219 0.270020
0.028477 0.053218 0.270064
0.029723 0.053126 0.269646
0.030941 0.052994 0.269030
0.033064 0.054361 0.276022
0.034207 0.054072 0.274614
0.035172 0.053534 0.271942
0.036318 0.053299 0.270809
0.036777 0.052108 0.264818
0.037063 0.050760 0.258029
0.038002 0.050364 0.256076
0.039029 0.050106 0.254826
0.040224 0.050072 0.254719
0.041179 0.049749 0.253141
0.042233 0.049563 0.252258
0.043432 0.049551 0.252264
0.044417 0.049303 0.251069
0.045519 0.049194 0.250581
0.046748 0.049224 0.250803
0.047689 0.048957 0.249511
0.048566 0.048639 0.247959
0.049310 0.048206 0.245818
0.050171 0.047905 0.244353
0.051235 0.047807 0.243921
0.052187 0.047611 0.242990
0.053152 0.047435 0.242159
0.053996 0.047161 0.240827
0.054886 0.046937 0.239750
0.055762 0.046712 0.238663
0.056687 0.046535 0.237824
0.057479 0.046258 0.236472
0.058404 0.046097 0.235710
0.059207 0.045847 0.234496
0.059623 0.045313 0.231822
0.060693 0.045285 0.231741
0.061399 0.044992 0.230297
0.061990 0.044626 0.228481
0.062618 0.044300 0.226862
0.062568 0.043512 0.222881
0.062923 0.043029 0.220452
0.063587 0.042768 0.219165
0.064145 0.042446 0.217557
0.064000 0.041677 0.213655
0.064515 0.041354 0.212040
0.065280 0.041199 0.211284
0.065624 0.040787 0.209204
0.066270 0.040572 0.208136
0.067058 0.040450 0.207535
0.067650 0.040214 0.206353
0.068354 0.040050 0.205537
0.069064 0.039895 0.204763
0.069724 0.039716 0.203858
0.070511 0.039612 0.203343
0.071129 0.039418 0.202359
0.071742 0.039227 0.201383
0.072450 0.039091 0.200691
0.073117 0.038937 0.199905
0.073566 0.038673 0.198544
0.073359 0.038074 0.195466
0.074237 0.038047 0.195316
0.075009 0.037967 0.194892
0.075344 0.037670 0.193352
0.075630 0.037356 0.191720
0.076250 0.037213 0.190958
0.076950 0.037111 0.190406
0.077623 0.036999 0.189797
0.078308 0.036896 0.189226
0.079133 0.036859 0.188995
0.079792 0.036747 0.188372
0.080203 0.036524 0.187178
0.082584 0.037194 0.190552
0.083624 0.037252 0.190782
0.084103 0.037061 0.189734
0.083973 0.036609 0.187343
0.084504 0.036451 0.186454
0.084840 0.036214 0.185151
0.085386 0.036070 0.184323
0.085739 0.035848 0.183089
0.086044 0.035611 0.181772
0.086569 0.035468 0.180933
0.086911 0.035254 0.179724
0.087314 0.035069 0.178657
0.087732 0.034894 0.177631
0.087715 0.034550 0.175744
0.087739 0.034229 0.173966
0.087088 0.033653 0.170890
0.087809 0.033613 0.170529
0.082459 0.031272 0.158496
0.081641 0.030676 0.155317
-0.946762 0.365893 1.827910
-0.935016 0.364692 1.823427
-0.929955 0.366101 1.831909
-0.922095 0.366425 1.834886
-0.914594 0.366898 1.838542
-1.451327 0.587801 2.947432
-1.439306 0.588580 2.953166
-1.427272 0.589371 2.958843
-1.031908 0.452692 2.278881
-1.013535 0.449303 2.262594
-1.003229 0.449457 2.264072
-1.001408 0.453457 2.284865
-0.986930 0.451750 2.276839
-0.360136 0.202142 1.019554
-0.354397 0.201604 1.016713
-0.350266 0.201980 1.018461
-0.346108 0.202350 1.020167
-0.340778 0.202035 1.018407
-0.335991 0.202038 1.018235
-0.331366 0.202140 1.018549
-0.326250 0.201941 1.017335
-0.320794 0.201523 1.015006
-0.315785 0.201378 1.014037
-0.310087 0.200781 1.010789
-0.305785 0.201085 1.012060
-0.184763 0.131780 0.662325
-0.183431 0.133082 0.668668
-0.180531 0.133273 0.669419
-0.168128 0.126329 0.634341
-0.161694 0.123701 0.620943
-0.156127 0.121650 0.610450
-0.150955 0.119836 0.601149
-0.147435 0.119289 0.598202
-0.143615 0.118473 0.593911
-0.140266 0.118020 0.591439
-0.138303 0.118740 0.594842
-0.134537 0.117909 0.590473
-0.056460 0.052775 0.264012
-0.054153 0.051768 0.258883
-0.052944 0.051787 0.258889
-0.051952 0.052025 0.259985
-0.050263 0.051559 0.257564
-0.048479 0.050970 0.254533
-0.047264 0.050965 0.254420
-0.046447 0.051400 0.256502
-0.045025 0.051170 0.255266
-0.043751 0.051101 0.254836
-0.042811 0.051429 0.256385
-0.040266 0.049793 0.248144
-0.037382 0.047624 0.237258
-0.036128 0.047463 0.236377
-0.035018 0.047486 0.236413
-0.034077 0.047747 0.237640
-0.033060 0.047916 0.238408
-0.032005 0.048041 0.238954
-0.030967 0.048201 0.239679
-0.029896 0.048320 0.240200
-0.028817 0.048437 0.240709
-0.027750 0.048582 0.241362
-0.026679 0.048734 0.242052
-0.025609 0.048902 0.242820
-0.024566 0.049139 0.243934
-0.023508 0.049367 0.245006
-0.022461 0.049645 0.246326
-0.021335 0.049770 0.246886
-0.020197 0.049881 0.247385
-0.019056 0.049995 0.247894
-0.017930 0.050169 0.248704
-0.016806 0.050372 0.249664
-0.015670 0.050569 0.250592
-0.014492 0.050651 0.250955
-0.013296 0.050682 0.251067
-0.012131 0.050847 0.251844
-0.010950 0.050976 0.252447
-0.009800 0.051297 0.254002
-0.008589 0.051347 0.254217
-0.007392 0.051508 0.254984
-0.006183 0.051638 0.255602
-0.004983 0.051919 0.256967
-0.003755 0.052010 0.257397
-0.002528 0.052201 0.258323
-0.001288 0.052256 0.258580
-0.000046 0.052501 0.259779
0.001200 0.052427 0.259403
0.002457 0.052644 0.260471
0.003714 0.052725 0.260868
0.005005 0.053121 0.262826
0.006276 0.053181 0.263126
0.007540 0.053179 0.263121
0.008832 0.053346 0.263951
0.010125 0.053472 0.264586
0.011417 0.053566 0.265063
0.012714 0.053663 0.265559
0.014012 0.053745 0.265987
0.015307 0.053804 0.266299
0.016612 0.053885 0.266726
0.017909 0.053931 0.266981
0.019254 0.054105 0.267872
0.020606 0.054275 0.268748
0.021942 0.054388 0.269339
0.023281 0.054493 0.269897
0.024576 0.054488 0.269911
0.025870 0.054482 0.269927
0.027164 0.054478 0.269954
0.028409 0.054380 0.269511
0.029678 0.054334 0.269335
0.030830 0.054085 0.268152
0.032927 0.055449 0.274967
0.033780 0.054694 0.271278
0.035089 0.054704 0.271388
0.036405 0.054726 0.271555
0.037443 0.054342 0.269708
0.037094 0.052036 0.258325
0.038019 0.051610 0.256271
0.039127 0.051452 0.255546
0.040062 0.051082 0.253772
0.041160 0.050935 0.253105
0.042213 0.050744 0.252218
0.043346 0.050654 0.251840
0.044441 0.050528 0.251278
0.045502 0.050370 0.250558
0.046588 0.050248 0.250018
0.047680 0.050138 0.249537
0.048593 0.049849 0.248164
0.049442 0.049510 0.246547
0.050203 0.049101 0.244574
0.051094 0.048835 0.243314
0.052208 0.048788 0.243147
0.053125 0.048564 0.242097
0.053867 0.048192 0.240310
0.054774 0.047981 0.239320
0.055686 0.047783 0.238394
0.056573 0.047571 0.237401
0.057543 0.047435 0.236786
0.058168 0.047027 0.234808
0.058974 0.046777 0.233619
0.059702 0.046475 0.232171
0.060277 0.046068 0.230193
0.061211 0.045945 0.229634
0.062010 0.045726 0.228593
0.062599 0.045363 0.226829
0.062419 0.044464 0.222383
0.062789 0.043981 0.220013
0.062721 0.043212 0.216209
0.063323 0.042921 0.214796
0.063914 0.042633 0.213392
0.064681 0.042469 0.212609
0.065545 0.042373 0.212163
0.066073 0.042065 0.210656
0.066827 0.041909 0.209904
0.066773 0.041258 0.206671
0.067513 0.041109 0.205948
0.068319 0.041004 0.205445
0.069084 0.040878 0.204832
0.069778 0.040714 0.204026
0.070536 0.040591 0.203424
0.071202 0.040419 0.202572
0.071856 0.040245 0.201706
0.072335 0.039978 0.200374
0.072600 0.039603 0.198491
0.072833 0.039219 0.196564
0.073608 0.039133 0.196127
0.074090 0.038896 0.194924
0.074770 0.038767 0.194263
0.075221 0.038524 0.193026
0.075833 0.038368 0.192222
0.076262 0.038124 0.190972
0.076969 0.038024 0.190437
0.077576 0.037877 0.189665
0.078216 0.037749 0.188983
0.078827 0.037610 0.188243
0.079700 0.037598 0.188133
0.080246 0.037434 0.187254
0.083185 0.038377 0.191909
0.083542 0.038121 0.190563
0.084045 0.037937 0.189569
0.083888 0.037462 0.187117
0.084402 0.037294 0.186192
0.084830 0.037091 0.185090
0.085191 0.036863 0.183860
0.085624 0.036671 0.182800
0.085866 0.036402 0.181351
0.086165 0.036162 0.180041
0.086661 0.036009 0.179158
0.086951 0.035774 0.177861
0.087138 0.035501 0.176374
0.087673 0.035374 0.175603
0.087570 0.034995 0.173572
0.087433 0.034609 0.171506
0.088158 0.034568 0.171143
0.081729 0.031750 0.157032
0.080970 0.031165 0.153978
-0.946413 0.374464 1.826622
-0.938304 0.374685 1.829250
-0.931425 0.375407 1.834242
-0.922033 0.375120 1.834226
-1.444649 0.593328 2.903267
-1.432775 0.594098 2.908988
-1.412345 0.591302 2.897123
-1.412228 0.597038 2.926962
-1.400911 0.598106 2.933828
-1.375238 0.593005 2.910317
-1.365932 0.594930 2.921177
-1.359829 0.598305 2.939066
-1.031254 0.463172 2.277071
-1.011877 0.459244 2.258558
-1.003390 0.460228 2.264127
-0.998619 0.462956 2.278216
-0.986029 0.462079 2.274503
-0.358857 0.206218 1.016000
-0.353481 0.205869 1.014162
-0.350682 0.207033 1.019757
-0.345136 0.206584 1.017397
-0.340265 0.206532 1.016979
-0.335645 0.206634 1.017301
-0.330830 0.206616 1.017025
-0.326135 0.206675 1.017109
-0.320583 0.206184 1.014478
-0.315681 0.206103 1.013854
-0.308164 0.204286 1.004680
-0.305483 0.205668 1.011230
-0.187498 0.136915 0.672274
-0.183900 0.136599 0.670526
-0.180991 0.136793 0.671278
-0.168663 0.129749 0.636513
-0.163380 0.127966 0.627571
-0.157699 0.125800 0.616752
-0.153376 0.124656 0.610949
-0.149021 0.123443 0.604803
-0.145363 0.122770 0.601309
-0.142551 0.122799 0.601251
-0.139956 0.123020 0.602128
-0.135994 0.122024 0.597050
-0.056392 0.053968 0.263786
-0.055066 0.053894 0.263335
-0.052989 0.053065 0.259197
-0.051478 0.052777 0.257701
-0.049918 0.052425 0.255892
-0.048619 0.052335 0.255364
-0.047270 0.052185 0.254548
-0.045662 0.051734 0.252261
-0.044168 0.051393 0.250510
-0.042861 0.051255 0.249754
-0.041839 0.051459 0.250667
-0.040432 0.051189 0.249269
-0.038663 0.050429 0.245490
-0.036613 0.049247 0.239655
-0.035271 0.048968 0.238225
-0.034016 0.048798 0.237323
-0.032895 0.048813 0.237324
-0.031821 0.048903 0.237689
-0.030821 0.049118 0.238664
-0.029775 0.049272 0.239339
-0.028754 0.049482 0.240294
-0.027674 0.049605 0.240822
-0.026588 0.049726 0.241348
-0.025517 0.049888 0.242070
-0.024453 0.050079 0.242932
-0.023473 0.050470 0.244768
-0.022405 0.050704 0.245845
-0.021281 0.050829 0.246396
-0.020147 0.050946 0.246906
-0.019008 0.051061 0.247410
-0.017873 0.051205 0.248060
-0.016745 0.051390 0.248907
-0.015612 0.051588 0.249820
-0.014461 0.051753 0.250575
-0.013287 0.051859 0.251048
-0.012114 0.051991 0.251647
-0.010939 0.052144 0.252351
-0.009779 0.052417 0.253637
-0.008581 0.052528 0.254144
-0.007372 0.052609 0.254505
-0.006173 0.052799 0.255397
-0.004970 0.053038 0.256529
-0.003755 0.053275 0.257659
-0.002519 0.053298 0.257750
-0.001284 0.053422 0.258333
-0.000044 0.053619 0.259272
0.001205 0.053774 0.260015
0.002462 0.053961 0.260909
0.003714 0.053933 0.260773
0.004991 0.054201 0.262066
0.006256 0.054258 0.262343
0.007533 0.054376 0.262915
0.008810 0.054463 0.263345
0.010101 0.054599 0.264012
0.011399 0.054741 0.264714
0.012700 0.054870 0.265349
0.013991 0.054934 0.265678
0.015298 0.055042 0.266222
0.016594 0.055101 0.266532
0.017931 0.055274 0.267396
0.019267 0.055422 0.268139
0.020583 0.055500 0.268548
0.021897 0.055560 0.268874
0.023189 0.055561 0.268914
0.024479 0.055557 0.268938
0.025742 0.055497 0.268687
0.027008 0.055449 0.268497
0.028282 0.055419 0.268400
0.029516 0.055316 0.267950
0.030758 0.055238 0.267621
0.033139 0.057130 0.276838
0.033954 0.056279 0.272770
0.035001 0.055860 0.270797
0.036228 0.055750 0.270322
0.037278 0.055385 0.268608
0.036930 0.053034 0.257267
0.037953 0.052742 0.255909
0.039000 0.052501 0.254800
0.040159 0.052420 0.254467
0.040853 0.051754 0.251295
0.042089 0.051794 0.251550
0.043180 0.051658 0.250956
0.044197 0.051443 0.249972
0.045360 0.051405 0.249853
0.046368 0.051197 0.248907
0.047376 0.051000 0.248014
0.048470 0.050903 0.247607
0.049361 0.050602 0.246210
0.050204 0.050267 0.244645
0.050981 0.049882 0.242836
0.051905 0.049656 0.241796
0.052994 0.049594 0.241560
0.053688 0.049173 0.239570
0.054565 0.048933 0.238463
0.055330 0.048603 0.236921
0.056350 0.048508 0.236515
0.057079 0.048170 0.234929
0.057963 0.047974 0.234028
0.058513 0.047513 0.231840
0.059449 0.047378 0.231233
0.060307 0.047186 0.230351
0.060994 0.046869 0.228858
0.061623 0.046520 0.227205
0.061585 0.045688 0.223192
0.062975 0.045926 0.224398
0.062622 0.044906 0.219460
0.063440 0.044745 0.218717
0.063326 0.043942 0.214834
0.064124 0.043788 0.214118
0.064582 0.043411 0.212308
0.065213 0.043159 0.211111
0.065643 0.042784 0.209305
0.066194 0.042498 0.207933
0.066845 0.042283 0.206909
0.067612 0.042147 0.206267
0.068376 0.042013 0.205628
0.069124 0.041873 0.204960
0.069853 0.041725 0.204252
0.070603 0.041594 0.203623
0.071317 0.041446 0.202903
0.072032 0.041302 0.202202
0.072697 0.041133 0.201377
0.073321 0.040946 0.200461
0.073488 0.040512 0.198327
0.073702 0.040114 0.196371
0.074158 0.039856 0.195096
0.074651 0.039625 0.193945
0.075433 0.039550 0.193556
0.075704 0.039212 0.191879
0.076386 0.039094 0.191268
0.077041 0.038963 0.190598
0.077534 0.038756 0.189543
0.078251 0.038663 0.189046
0.079199 0.038685 0.189108
0.080024 0.038648 0.188869
0.080928 0.038649 0.188816
0.083209 0.039300 0.191934
0.083667 0.039086 0.190816
0.083765 0.038709 0.188903
0.083887 0.038352 0.187077
0.084231 0.038102 0.185776
0.084651 0.037892 0.184658
0.085056 0.037679 0.183524
0.085478 0.037479 0.182443
0.085833 0.037252 0.181232
0.086247 0.037056 0.180162
0.086716 0.036888 0.179219
0.087077 0.036677 0.178065
0.087292 0.036409 0.176628
0.087565 0.036170 0.175326
0.087399 0.035756 0.173172
0.087409 0.035422 0.171395
0.088134 0.035380 0.171031
0.081850 0.032552 0.157200
0.082181 0.032383 0.156215
-0.948238 0.383909 1.829501
-0.938587 0.383512 1.829189
-0.933627 0.385043 1.837989
-0.923064 0.384271 1.835716
-1.444108 0.606895 2.901336
-1.432221 0.607675 2.907060
-1.409114 0.603664 2.889737
-1.400145 0.605691 2.901199
-1.386516 0.605722 2.902999
-1.357442 0.598940 2.872022
-1.350854 0.602042 2.888331
-1.325211 0.596629 2.863685
-1.323644 0.602055 2.890971
-1.012660 0.470284 2.259948
-1.005583 0.471957 2.268744
-1.000743 0.474726 2.282756
-0.986620 0.473105 2.275590
-0.360183 0.211792 1.019817
-0.353231 0.210507 1.013517
-0.349497 0.211130 1.016393
-0.345378 0.211535 1.018201
-0.339813 0.211053 1.015730
-0.335180 0.211145 1.016003
-0.330354 0.211116 1.015683
-0.325599 0.211133 1.015571
-0.321412 0.211524 1.017244
-0.315962 0.211083 1.014907
-0.308694 0.209395 1.006566
-0.187252 0.139915 0.671534
-0.184278 0.140062 0.672051
-0.177266 0.137093 0.657613
-0.168821 0.132890 0.637259
-0.164621 0.131937 0.632495
-0.159457 0.130161 0.623787
-0.153904 0.127995 0.613215
-0.151727 0.128607 0.615950
-0.147637 0.127590 0.610885
-0.143739 0.126702 0.606434
-0.140850 0.126686 0.606156
-0.141315 0.129748 0.620601
-0.054999 0.055081 0.263103
-0.053534 0.054858 0.261952
-0.051785 0.054327 0.259329
-0.050384 0.054145 0.258374
-0.048274 0.053172 0.253645
-0.046597 0.052639 0.251016
-0.045168 0.052366 0.249631
-0.043933 0.052309 0.249274
-0.042748 0.052309 0.249193
-0.040972 0.051565 0.245572
-0.039789 0.051547 0.245405
-0.038542 0.051442 0.244827
-0.037278 0.051308 0.244110
-0.035514 0.050455 0.239976
-0.034014 0.049931 0.237411
-0.032750 0.049730 0.236387
-0.031767 0.049958 0.237400
-0.030793 0.050216 0.238553
-0.029727 0.050340 0.239075
-0.028685 0.050514 0.239837
-0.027600 0.050624 0.240294
-0.026510 0.050735 0.240757
-0.025458 0.050932 0.241627
-0.024492 0.051328 0.243446
-0.023438 0.051570 0.244534
-0.022343 0.051742 0.245291
-0.021225 0.051879 0.245887
-0.020118 0.052058 0.246678
-0.018953 0.052101 0.246832
-0.017849 0.052330 0.247869
-0.016728 0.052537 0.248802
-0.015617 0.052809 0.250041
-0.014458 0.052954 0.250685
-0.013280 0.053047 0.251084
-0.012107 0.053180 0.251676
-0.010929 0.053318 0.252292
-0.009752 0.053495 0.253097
-0.008550 0.053570 0.253420
-0.007348 0.053671 0.253869
-0.006158 0.053909 0.254970
-0.004956 0.054142 0.256051
-0.003740 0.054332 0.256925
-0.002510 0.054386 0.257163
-0.001277 0.054443 0.257418
-0.000041 0.054650 0.258382
0.001205 0.054933 0.259710
0.002455 0.055012 0.260079
0.003709 0.055087 0.260431
0.004964 0.055138 0.260669
0.006240 0.055351 0.261679
0.007520 0.055524 0.262501
0.008786 0.055557 0.262664
0.010075 0.055710 0.263397
0.011366 0.055843 0.264036
0.012671 0.056003 0.264807
0.013956 0.056059 0.265089
0.015245 0.056116 0.265380
0.016540 0.056187 0.265737
0.017857 0.056316 0.266377
0.019167 0.056409 0.266842
0.020507 0.056571 0.267639
0.021830 0.056669 0.268136
0.023123 0.056683 0.268241
0.024409 0.056681 0.268270
0.025686 0.056656 0.268193
0.026981 0.056675 0.268322
0.028234 0.056604 0.268030
0.029500 0.056566 0.267897
0.030756 0.056512 0.267690
0.032148 0.056704 0.268651
0.033521 0.056847 0.269381
0.034921 0.057024 0.270274
0.036188 0.056978 0.270114
0.036137 0.054933 0.260474
0.036791 0.054059 0.256385
0.037832 0.053792 0.255180
0.038921 0.053608 0.254365
0.039972 0.053384 0.253362
0.041029 0.053182 0.252460
0.041972 0.052846 0.250929
0.043029 0.052670 0.250153
0.044163 0.052595 0.249858
0.045136 0.052336 0.248690
0.046151 0.052138 0.247813
0.047289 0.052086 0.247630
0.048257 0.051854 0.246587
0.049178 0.051583 0.245363
0.050019 0.051242 0.243804
0.050948 0.051006 0.242743
0.051838 0.050742 0.241548
0.052856 0.050612 0.240990
0.053597 0.050227 0.239220
0.054351 0.049871 0.237583
0.055250 0.049658 0.236631
0.056146 0.049452 0.235709
0.056993 0.049212 0.234622
0.057836 0.048979 0.233564
0.058471 0.048580 0.231717
0.059311 0.048364 0.230740
0.060143 0.048148 0.229766
0.060723 0.047743 0.227881
0.060749 0.046924 0.224021
0.061606 0.046764 0.223302
0.062022 0.046280 0.221037
0.062435 0.045810 0.218834
0.063000 0.045465 0.217227
0.063575 0.045139 0.215707
0.063897 0.044645 0.213385
0.064477 0.044346 0.211987
0.064992 0.044010 0.210415
0.065219 0.043493 0.207971
0.066025 0.043373 0.207420
0.066936 0.043323 0.207205
0.067538 0.043078 0.206054
0.068259 0.042914 0.205290
0.069003 0.042769 0.204610
0.069679 0.042587 0.203751
0.070338 0.042399 0.202862
0.071085 0.042269 0.202245
0.071732 0.042084 0.201361
0.072393 0.041912 0.200536
0.073162 0.041805 0.200022
0.073789 0.041621 0.199134
0.074277 0.041365 0.197896
0.074136 0.040769 0.195029
0.074761 0.040604 0.194218
0.075702 0.040612 0.194235
0.076236 0.040404 0.193213
0.076512 0.040067 0.191567
0.077047 0.039871 0.190594
0.077714 0.039747 0.189961
0.078378 0.039624 0.189328
0.078943 0.039455 0.188471
0.079962 0.039514 0.188697
0.080379 0.039277 0.187507
0.083053 0.040136 0.191540
0.083503 0.039914 0.190407
0.083580 0.039520 0.188449
0.083782 0.039192 0.186804
0.084350 0.039041 0.185995
0.084633 0.038763 0.184576
0.085019 0.038537 0.183398
0.085377 0.038303 0.182179
0.085781 0.038094 0.181073
0.086313 0.037945 0.180247
0.086569 0.037680 0.178861
0.087016 0.037501 0.177881
0.087228 0.037226 0.176438
0.087489 0.036977 0.175113
0.087536 0.036644 0.173380
0.086976 0.036064 0.170480
0.081196 0.033352 0.157504
0.082298 0.033490 0.157995
0.081504 0.032861 0.154861
-0.945952 0.391685 1.824423
-0.934356 0.390459 1.820306
-0.925323 0.390290 1.821033
-0.921185 0.392202 1.831396
-1.446383 0.621663 2.905025
-1.434459 0.622454 2.910762
-1.415251 0.620070 2.901527
-1.397712 0.618377 2.895405
-1.390924 0.621454 2.911511
-1.369379 0.617935 2.896603
-1.346221 0.613609 2.877795
-1.328888 0.611878 2.871040
-1.322796 0.615340 2.888561
-1.311000 0.616194 2.893752
-1.009186 0.479320 2.251819
-1.005843 0.482805 2.268979
-0.993192 0.481850 2.265209
-0.984660 0.482893 2.270772
-0.357511 0.214998 1.012309
-0.353137 0.215233 1.013314
-0.349114 0.215691 1.015357
-0.344240 0.215629 1.014934
-0.339905 0.215908 1.016104
-0.334974 0.215811 1.015488
-0.330199 0.215813 1.015327
-0.325388 0.215791 1.015040
-0.320534 0.215739 1.014602
-0.315210 0.215366 1.012636
-0.310896 0.215681 1.013902
-0.190257 0.145391 0.682453
-0.182989 0.142244 0.667499
-0.175403 0.138735 0.650848
-0.169923 0.136797 0.641571
-0.164547 0.134875 0.632366
-0.159944 0.133526 0.625852
-0.157589 0.134039 0.628064
-0.152586 0.132275 0.619606
-0.149334 0.131991 0.618082
-0.148111 0.133524 0.625060
-0.148523 0.136624 0.639366
-0.141146 0.132539 0.620049
-0.138857 0.133160 0.622750
-0.136734 0.133970 0.626334
-0.066946 0.071830 0.335375
-0.051062 0.056122 0.261945
-0.049481 0.055741 0.260083
-0.048300 0.055804 0.260291
-0.044949 0.053297 0.248515
-0.043551 0.053033 0.247203
-0.041967 0.052522 0.244742
-0.040720 0.052415 0.244165
-0.039721 0.052630 0.245091
-0.038449 0.052486 0.244345
-0.037154 0.052300 0.243401
-0.035776 0.051982 0.241849
-0.034007 0.051056 0.237469
-0.032623 0.050665 0.235578
-0.031655 0.050915 0.236670
-0.030722 0.051240 0.238115
-0.029654 0.051359 0.238599
-0.028588 0.051489 0.239138
-0.027537 0.051659 0.239866
-0.026470 0.051813 0.240517
-0.025415 0.052004 0.241344
-0.024393 0.052285 0.242588
-0.023340 0.052524 0.243638
-0.022279 0.052771 0.244725
-0.021190 0.052973 0.245606
-0.020072 0.053123 0.246251
-0.018922 0.053203 0.246571
-0.017801 0.053380 0.247341
-0.016669 0.053548 0.248075
-0.015586 0.053907 0.249693
-0.014414 0.053998 0.250071
-0.013235 0.054075 0.250386
-0.012064 0.054201 0.250934
-0.010871 0.054247 0.251109
-0.009714 0.054509 0.252289
-0.008534 0.054699 0.253138
-0.007332 0.054787 0.253520
-0.006138 0.054980 0.254384
-0.004941 0.055233 0.255535
-0.003734 0.055506 0.256774
-0.002506 0.055598 0.257186
-0.001276 0.055762 0.257927
-0.000039 0.055922 0.258653
0.001206 0.056116 0.259540
0.002453 0.056142 0.259654
0.003704 0.056222 0.260020
0.004959 0.056304 0.260400
0.006226 0.056456 0.261104
0.007507 0.056666 0.262077
0.008775 0.056736 0.262406
0.010059 0.056873 0.263048
0.011353 0.057028 0.263780
0.012637 0.057109 0.264170
0.013914 0.057148 0.264365
0.015191 0.057177 0.264518
0.016482 0.057253 0.264895
0.017783 0.057349 0.265365
0.019090 0.057450 0.265857
0.020385 0.057505 0.266140
0.021690 0.057578 0.266515
0.023034 0.057741 0.267303
0.024322 0.057754 0.267398
0.025609 0.057763 0.267481
0.026887 0.057752 0.267469
0.028156 0.057724 0.267383
0.029404 0.057657 0.267119
0.030753 0.057784 0.267756
0.032163 0.058012 0.268861
0.033520 0.058130 0.269460
0.034784 0.058085 0.269305
0.035903 0.057808 0.268075
0.035982 0.055934 0.259439
0.036786 0.055274 0.256434
0.037772 0.054922 0.254853
0.038741 0.054568 0.253268
0.039999 0.054630 0.253614
0.040940 0.054267 0.251989
0.041981 0.054054 0.251059
0.042968 0.053786 0.249874
0.043987 0.053570 0.248931
0.045131 0.053515 0.248735
0.046121 0.053284 0.247723
0.047070 0.053018 0.246550
0.048173 0.052935 0.246224
0.049101 0.052668 0.245042
0.050020 0.052405 0.243877
0.050889 0.052101 0.242525
0.051778 0.051831 0.241327
0.052909 0.051810 0.241290
0.053686 0.051450 0.239672
0.054400 0.051046 0.237849
0.055033 0.050584 0.235757
0.055939 0.050387 0.234894
0.056872 0.050221 0.234174
0.057758 0.050020 0.233293
0.058489 0.049696 0.231835
0.059083 0.049270 0.229897
0.059753 0.048920 0.228317
0.060412 0.048575 0.226754
0.060902 0.048108 0.224620
0.061281 0.047571 0.222160
0.061951 0.047275 0.220817
0.062431 0.046846 0.218853
0.062509 0.046133 0.215563
0.063041 0.045774 0.213921
0.063496 0.045371 0.212072
0.064247 0.045189 0.211252
0.064986 0.045004 0.210414
0.065650 0.044773 0.209364
0.066211 0.044480 0.208018
0.066849 0.044247 0.206949
0.067478 0.044015 0.205882
0.068191 0.043843 0.205095
0.068905 0.043676 0.204328
0.069655 0.043538 0.203688
0.070422 0.043413 0.203110
0.071018 0.043186 0.202056
0.071774 0.043063 0.201478
0.072471 0.042908 0.200748
0.073021 0.042670 0.199632
0.073585 0.042447 0.198578
0.074066 0.042183 0.197325
0.074470 0.041881 0.195897
0.075079 0.041701 0.195033
0.075750 0.041559 0.194343
0.075081 0.040695 0.190271
0.076044 0.040725 0.190377
0.076794 0.040641 0.189948
0.077431 0.040500 0.189245
0.078169 0.040415 0.188799
0.078862 0.040309 0.188251
0.079791 0.040324 0.188264
0.081426 0.040691 0.189916
0.083181 0.041110 0.191800
0.083423 0.040780 0.190188
0.083245 0.040254 0.187654
0.083649 0.040018 0.186467
0.084144 0.039829 0.185499
0.084594 0.039624 0.184443
0.084932 0.039370 0.183162
0.085366 0.039166 0.182104
0.085699 0.038921 0.180847
0.086025 0.038676 0.179591
0.086441 0.038478 0.178539
0.086743 0.038232 0.177265
0.086704 0.037842 0.175317
0.086915 0.037568 0.173901
0.086082 0.036852 0.170434
0.084893 0.035999 0.166331
0.082003 0.034447 0.159003
0.081845 0.034061 0.157055
0.084201 0.034718 0.159911
-0.946598 0.400662 1.824975
-0.936613 0.400098 1.824039
-0.931209 0.401500 1.831980
-0.921195 0.400921 1.830807
-0.908714 0.399248 1.824550
-1.433652 0.635926 2.908246
-1.421219 0.636519 2.912926
-1.405469 0.635624 2.910680
-1.395015 0.637131 2.919322
-1.373441 0.633538 2.904487
-1.357545 0.632518 2.901333
-1.339138 0.630297 2.892557
-1.300092 0.618215 2.838405
-1.030263 0.495001 2.273654
-1.008806 0.489784 2.250571
-0.995088 0.488255 2.244350
-0.997382 0.494633 2.274419
-0.980622 0.491598 2.261146
-0.359889 0.221237 1.019094
-0.352862 0.219844 1.012588
-0.348995 0.220409 1.015085
-0.344595 0.220648 1.016065
-0.339735 0.220595 1.015689
-0.335176 0.220739 1.016203
-0.330441 0.220770 1.016184
-0.325511 0.220669 1.015546
-0.321238 0.221018 1.016966
-0.315987 0.220694 1.015278
-0.190049 0.148460 0.681850
-0.184571 0.146663 0.673416
-0.177454 0.143477 0.658607
-0.172254 0.141756 0.650525
-0.168989 0.141594 0.649595
-0.163436 0.139473 0.639677
-0.162789 0.141539 0.648957
-0.159456 0.141303 0.647680
-0.153295 0.138504 0.634653
-0.151872 0.139958 0.641117
-0.148344 0.139493 0.638787
-0.143519 0.137763 0.630667
-0.139756 0.137001 0.626978
-0.136565 0.136780 0.625763
-0.136147 0.139387 0.637485
-0.066861 0.073334 0.335066
-0.065989 0.074140 0.338640
-0.064373 0.074130 0.338485
-0.063364 0.074837 0.341603
-0.045016 0.054564 0.248984
-0.043860 0.054597 0.249053
-0.042713 0.054644 0.249192
-0.040631 0.053463 0.243730
-0.039122 0.052989 0.241492
-0.038003 0.053031 0.241612
-0.036858 0.053038 0.241569
-0.035469 0.052683 0.239880
-0.033694 0.051712 0.235388
-0.032517 0.051624 0.234918
-0.031481 0.051763 0.235482
-0.030481 0.051971 0.236364
-0.029453 0.052146 0.237095
-0.028475 0.052428 0.238311
-0.027458 0.052658 0.239293
-0.026391 0.052809 0.239920
-0.025313 0.052950 0.240498
-0.024251 0.053139 0.241299
-0.023236 0.053455 0.242680
-0.022202 0.053761 0.244012
-0.021130 0.054002 0.245050
-0.020003 0.054123 0.245547
-0.018860 0.054213 0.245908
-0.017736 0.054371 0.246577
-0.016598 0.054510 0.247160
-0.015467 0.054694 0.247951
-0.014336 0.054906 0.248870
-0.013213 0.055192 0.250128
-0.012046 0.055333 0.250730
-0.010860 0.055411 0.251047
-0.009698 0.055644 0.252069
-0.008521 0.055839 0.252925
-0.007321 0.055931 0.253312
-0.006125 0.056095 0.254030
-0.004929 0.056342 0.255125
-0.003721 0.056571 0.256142
-0.002499 0.056720 0.256798
-0.001270 0.056819 0.257232
-0.000036 0.056826 0.257254
0.001202 0.057058 0.258291
0.002449 0.057249 0.259148
0.003693 0.057261 0.259199
0.004942 0.057325 0.259486
0.006201 0.057462 0.260108
0.007482 0.057713 0.261247
0.008748 0.057795 0.261627
0.010024 0.057918 0.262191
0.011303 0.058026 0.262690
0.012595 0.058174 0.263375
0.013875 0.058242 0.263702
0.015151 0.058284 0.263911
0.016434 0.058344 0.264205
0.017723 0.058416 0.264552
0.019044 0.058575 0.265298
0.020354 0.058682 0.265813
0.021633 0.058693 0.265897
0.023097 0.059178 0.268126
0.025299 0.061402 0.278239
0.026465 0.061012 0.276514
0.026974 0.059220 0.268433
0.028216 0.059125 0.268042
0.029760 0.059644 0.270443
0.031049 0.059630 0.270427
0.032296 0.059540 0.270065
0.033533 0.059438 0.269655
0.034765 0.059337 0.269245
0.035799 0.058915 0.267384
0.035961 0.057138 0.259371
0.036741 0.056428 0.256202
0.037663 0.055975 0.254202
0.038739 0.055772 0.253333
0.039870 0.055658 0.252870
0.040836 0.055328 0.251428
0.041699 0.054880 0.249449
0.042803 0.054766 0.248989
0.043891 0.054637 0.248463
0.044931 0.054457 0.247704
0.045961 0.054276 0.246937
0.046923 0.054024 0.245852
0.048034 0.053951 0.245581
0.048999 0.053723 0.244602
0.049915 0.053452 0.243429
0.050848 0.053212 0.242393
0.051856 0.053059 0.241753
0.052618 0.052666 0.240022
0.053411 0.052320 0.238501
0.054166 0.051952 0.236880
0.054910 0.051589 0.235281
0.055839 0.051411 0.234522
0.056706 0.051183 0.233538
0.057610 0.050998 0.232743
0.058356 0.050682 0.231353
0.059060 0.050341 0.229849
0.059586 0.049864 0.227718
0.060143 0.049430 0.225780
0.060913 0.049183 0.224696
0.061303 0.048643 0.222273
0.061863 0.048254 0.220535
0.062023 0.047570 0.217450
0.062576 0.047206 0.215820
0.063075 0.046813 0.214059
0.063755 0.046566 0.212960
0.064118 0.046097 0.210846
0.064838 0.045896 0.209954
0.065656 0.045770 0.209400
0.066098 0.045389 0.207679
0.066675 0.045110 0.206423
0.067426 0.044956 0.205733
0.068009 0.044695 0.204554
0.068706 0.044516 0.203745
0.069349 0.044307 0.202797
0.070196 0.044232 0.202459
0.070910 0.044077 0.201750
0.071645 0.043938 0.201114
0.072441 0.043841 0.200662
0.073054 0.043636 0.199716
0.073800 0.043515 0.199150
0.074264 0.043233 0.197843
0.074566 0.042864 0.196136
0.074751 0.042439 0.194165
0.075396 0.042282 0.193418
0.076087 0.042154 0.192800
0.076464 0.041857 0.191407
0.077354 0.041845 0.191309
0.077838 0.041616 0.190216
0.078202 0.041328 0.188853
0.079018 0.041283 0.188592
0.079827 0.041236 0.188317
0.081750 0.041759 0.190637
0.082885 0.041872 0.191082
0.083693 0.041819 0.190763
0.083019 0.041035 0.187102
0.083549 0.040856 0.186201
0.084013 0.040649 0.185164
0.084485 0.040450 0.184158
0.084849 0.040204 0.182933
0.085194 0.039954 0.181685
0.085697 0.039783 0.180787
0.086113 0.039575 0.179717
0.086437 0.039329 0.178471
0.086895 0.039148 0.177514
0.086459 0.038572 0.174758
0.086681 0.038298 0.173366
0.085329 0.037340 0.168875
0.085654 0.037127 0.167752
0.082559 0.035450 0.160011
0.082555 0.035118 0.158346
0.086256 0.036355 0.163737
-0.944851 0.408616 1.820884
-0.935280 0.408213 1.820751
-0.925049 0.407513 1.819200
-0.919650 0.408949 1.827104
-0.908548 0.407851 1.823613
-1.432344 0.649156 2.904676
-1.420392 0.649976 2.910357
-1.400012 0.646919 2.898551
-1.394168 0.650584 2.916759
-1.382199 0.651437 2.922260
-1.353374 0.644281 2.891719
-1.341521 0.645143 2.897045
-1.299236 0.631237 2.835930
-1.024071 0.502721 2.259536
-1.008933 0.500494 2.250435
-1.006448 0.504563 2.269577
-0.994159 0.503751 2.266703
-0.982445 0.503217 2.265011
-0.977265 0.506055 2.278436
-0.734270 0.407017 1.834679
-0.726703 0.407611 1.837557
-0.720421 0.408948 1.843749
-0.368212 0.228235 1.029076
-0.357489 0.224539 1.012347
-0.352919 0.224659 1.012811
-0.348672 0.224991 1.014212
-0.344208 0.225191 1.015003
-0.339650 0.225334 1.015525
-0.334876 0.225336 1.015393
-0.330119 0.225349 1.015304
-0.326069 0.225853 1.017408
-0.320965 0.225631 1.016231
-0.315446 0.225106 1.013681
-0.183099 0.148657 0.668189
-0.178711 0.147636 0.663423
-0.174205 0.146479 0.658047
-0.168853 0.144557 0.649231
-0.165402 0.144221 0.647536
-0.162759 0.144591 0.649008
-0.159121 0.144073 0.646494
-0.155425 0.143482 0.643648
-0.152738 0.143817 0.644959
-0.149737 0.143865 0.644976
-0.145645 0.142844 0.640201
-0.142031 0.142260 0.637384
-0.139455 0.142712 0.639210
-0.135976 0.142239 0.636891
-0.133122 0.142414 0.637474
-0.067690 0.075858 0.339341
-0.065903 0.075654 0.338322
-0.064288 0.075643 0.338166
-0.063281 0.076364 0.341280
-0.062295 0.077150 0.344683
-0.042655 0.055758 0.248955
-0.041138 0.055309 0.246874
-0.039717 0.054967 0.245272
-0.038251 0.054539 0.243289
-0.036968 0.054355 0.242396
-0.035097 0.053266 0.237473
-0.033599 0.052689 0.234831
-0.032451 0.052642 0.234554
-0.031451 0.052839 0.235363
-0.030304 0.052794 0.235102
-0.029309 0.053022 0.236050
-0.028350 0.053334 0.237379
-0.027386 0.053664 0.238784
-0.026277 0.053726 0.238999
-0.025246 0.053961 0.239986
-0.024206 0.054197 0.240979
-0.023201 0.054541 0.242451
-0.022102 0.054685 0.243040
-0.021012 0.054873 0.243820
-0.019929 0.055100 0.244780
-0.018823 0.055287 0.245561
-0.017669 0.055351 0.245799
-0.016549 0.055537 0.246578
-0.015409 0.055677 0.247160
-0.014322 0.056053 0.248787
-0.013181 0.056264 0.249682
-0.012007 0.056362 0.250081
-0.010843 0.056538 0.250827
-0.009676 0.056732 0.251656
-0.008501 0.056936 0.252534
-0.007300 0.057005 0.252810
-0.006110 0.057199 0.253646
-0.004910 0.057377 0.254415
-0.003702 0.057544 0.255133
-0.002482 0.057611 0.255414
-0.001260 0.057725 0.255906
-0.000034 0.057847 0.256433
0.001199 0.058027 0.257221
0.002442 0.058251 0.258206
0.003684 0.058328 0.258544
0.004931 0.058409 0.258902
0.006186 0.058536 0.259462
0.007460 0.058775 0.260526
0.008728 0.058903 0.261099
0.010003 0.059036 0.261699
0.011279 0.059145 0.262194
0.012549 0.059206 0.262475
0.013821 0.059262 0.262742
0.015090 0.059300 0.262928
0.016354 0.059312 0.263001
0.017641 0.059400 0.263415
0.019059 0.059884 0.265589
0.020355 0.059953 0.265922
0.022619 0.062693 0.278107
0.023905 0.062571 0.277600
0.025270 0.062656 0.278015
0.026555 0.062543 0.277551
0.027278 0.061181 0.271545
0.028386 0.060768 0.269754
0.029745 0.060904 0.270401
0.031018 0.060858 0.270246
0.032194 0.060637 0.269307
0.033449 0.060573 0.269076
0.034665 0.060447 0.268563
0.035699 0.060022 0.266727
0.035880 0.058242 0.258869
0.036744 0.057654 0.256307
0.037727 0.057283 0.254713
0.038730 0.056967 0.253358
0.039804 0.056769 0.252535
0.040814 0.056494 0.251367
0.041841 0.056259 0.250378
0.042816 0.055968 0.249137
0.043800 0.055705 0.248024
0.044845 0.055530 0.247301
0.045737 0.055180 0.245799
0.046822 0.055075 0.245390
0.047903 0.054969 0.244977
0.048821 0.054687 0.243777
0.049873 0.054564 0.243285
0.050776 0.054288 0.242111
0.051349 0.053678 0.239446
0.052383 0.053566 0.239006
0.053250 0.053292 0.237838
0.053950 0.052866 0.235991
0.054854 0.052653 0.235093
0.055649 0.052346 0.233774
0.056519 0.052120 0.232817
0.057385 0.051900 0.231881
0.058079 0.051534 0.230295
0.058711 0.051129 0.228533
0.059494 0.050866 0.227406
0.060396 0.050714 0.226770
0.060576 0.049971 0.223490
0.061156 0.049578 0.221773
0.061763 0.049220 0.220208
0.062142 0.048695 0.217895
0.062965 0.048529 0.217189
0.063201 0.047924 0.214513
0.063362 0.047282 0.211670
0.064236 0.047183 0.211255
0.064801 0.046865 0.209855
0.065313 0.046518 0.208323
0.065883 0.046222 0.207018
0.066621 0.046051 0.206267
0.067415 0.045923 0.205709
0.068115 0.045736 0.204883
0.068686 0.045467 0.203690
0.069538 0.045391 0.203352
0.070285 0.045249 0.202718
0.070858 0.045000 0.201601
0.071517 0.044811 0.200754
0.072257 0.044677 0.200146
0.072991 0.044544 0.199537
0.073567 0.044318 0.198511
0.074107 0.044077 0.197413
0.074864 0.043969 0.196907
0.075286 0.043670 0.195541
0.075744 0.043398 0.194293
0.075911 0.042969 0.192335
0.076414 0.042737 0.191260
0.077073 0.042597 0.190589
0.077643 0.042412 0.189712
0.078219 0.042234 0.188865
0.078707 0.042013 0.187821
0.079699 0.042063 0.187982
0.080818 0.042178 0.188428
0.082670 0.042669 0.190548
0.082936 0.042340 0.188996
0.082905 0.041867 0.186803
0.083698 0.041817 0.186486
0.084106 0.041577 0.185320
0.084471 0.041321 0.184077
0.084929 0.041115 0.183053
0.085252 0.040849 0.181753
0.085609 0.040604 0.180544
0.086018 0.040389 0.179460
0.086392 0.040161 0.178316
0.086667 0.039892 0.176982
0.086242 0.039310 0.174253
0.085303 0.038507 0.170541
0.084977 0.037993 0.168109
0.085316 0.037783 0.167017
0.084826 0.037213 0.164329
0.082169 0.035712 0.157531
0.086218 0.037127 0.163584
-0.944322 0.417076 1.819113
-0.933189 0.415967 1.815962
-0.925946 0.416587 1.820275
-0.918960 0.417336 1.825072
-0.904042 0.414463 1.813942
-1.343145 0.653016 2.869134
-1.026052 0.514410 2.263427
-1.004024 0.508655 2.239040
-0.996631 0.510271 2.247024
-0.990693 0.512675 2.258415
-0.977163 0.511160 2.252478
-0.976541 0.516438 2.276416
-0.750378 0.419865 1.852760
-0.730620 0.413611 1.825429
-0.731370 0.418956 1.849246
-0.725832 0.420785 1.857506
-0.367872 0.232876 1.028157
-0.356973 0.228986 1.010927
-0.352950 0.229460 1.012952
-0.348663 0.229773 1.014251
-0.344122 0.229925 1.014823
-0.339560 0.230068 1.015341
-0.334787 0.230070 1.015220
-0.330156 0.230170 1.015522
-0.326074 0.230662 1.017540
-0.320994 0.230453 1.016451
-0.315301 0.229790 1.013349
-0.190624 0.155384 0.684190
-0.184197 0.152730 0.672335
-0.179711 0.151622 0.667284
-0.173192 0.148727 0.654371
-0.169949 0.148592 0.653600
-0.167029 0.148740 0.654070
-0.163425 0.148272 0.651829
-0.160193 0.148131 0.651024
-0.157312 0.148315 0.651642
-0.154133 0.148221 0.651036
-0.151037 0.148203 0.650767
-0.147239 0.147482 0.647405
-0.143626 0.146920 0.644741
-0.140868 0.147228 0.645895
-0.137121 0.146491 0.642466
-0.132950 0.145259 0.636867
-0.130085 0.145430 0.637419
-0.067823 0.077626 0.340130
-0.066785 0.078300 0.342977
-0.065067 0.078190 0.342387
-0.063693 0.078498 0.343633
-0.062210 0.078687 0.344351
-0.068503 0.094062 0.411264
-0.066545 0.094058 0.411120
-0.038268 0.055727 0.243507
-0.036594 0.054951 0.240045
-0.034112 0.052875 0.230910
-0.033189 0.053156 0.232072
-0.032284 0.053488 0.233455
-0.031150 0.053449 0.233220
-0.029988 0.053357 0.232757
-0.028856 0.053316 0.232518
-0.027828 0.053470 0.233127
-0.027925 0.055888 0.243610
-0.026740 0.055839 0.243334
-0.025426 0.055505 0.241823
-0.024329 0.055635 0.242333
-0.023226 0.055764 0.242838
-0.022114 0.055885 0.243312
-0.020989 0.055981 0.243679
-0.019866 0.056097 0.244133
-0.018757 0.056272 0.244846
-0.017649 0.056469 0.245657
-0.016505 0.056574 0.246070
-0.015356 0.056675 0.246468
-0.014256 0.056988 0.247786
-0.013147 0.057320 0.249192
-0.011985 0.057468 0.249799
-0.010798 0.057510 0.249951
-0.009653 0.057816 0.251247
-0.008472 0.057966 0.251869
-0.007284 0.058106 0.252450
-0.006091 0.058258 0.253090
-0.004912 0.058645 0.254747
-0.003699 0.058760 0.255228
-0.002487 0.059005 0.256275
-0.001263 0.059211 0.257152
-0.000031 0.059022 0.256322
0.001203 0.059332 0.257656
0.002442 0.059441 0.258121
0.003677 0.059414 0.258002
0.004932 0.059638 0.258971
0.006182 0.059724 0.259346
0.007448 0.059902 0.260122
0.008723 0.060103 0.261000
0.009993 0.060213 0.261486
0.011255 0.060264 0.261716
0.012527 0.060348 0.262096
0.013785 0.060352 0.262128
0.015052 0.060398 0.262344
0.016327 0.060461 0.262638
0.017640 0.060650 0.263482
0.019171 0.061507 0.267233
0.021257 0.063931 0.277794
0.022511 0.063712 0.276873
0.023759 0.063503 0.275995
0.024936 0.063135 0.274431
0.026151 0.062894 0.273423
0.027406 0.062769 0.272915
0.028620 0.062565 0.272069
0.029791 0.062288 0.270908
0.030966 0.062043 0.269887
0.032174 0.061880 0.269224
0.033299 0.061578 0.267958
0.034504 0.061438 0.267398
0.035540 0.061019 0.265624
0.036148 0.059920 0.260888
0.036954 0.059212 0.257858
0.037574 0.058260 0.253764
0.038624 0.058014 0.252744
0.039661 0.057764 0.251707
0.040866 0.057765 0.251767
0.041837 0.057446 0.250429
0.042805 0.057139 0.249148
0.043804 0.056890 0.248118
0.044850 0.056713 0.247398
0.045830 0.056464 0.246371
0.046733 0.056135 0.244988
0.047802 0.056016 0.244526
0.048796 0.055817 0.243714
0.049651 0.055473 0.242264
0.050350 0.054973 0.240136
0.051118 0.054569 0.238426
0.052050 0.054355 0.237543
0.052951 0.054117 0.236555
0.053825 0.053863 0.235497
0.054709 0.053628 0.234523
0.055542 0.053353 0.233371
0.056391 0.053105 0.232337
0.057342 0.052961 0.231752
0.058220 0.052755 0.230900
0.058957 0.052431 0.229529
0.059541 0.051986 0.227624
0.060046 0.051490 0.225492
0.060376 0.050862 0.222784
0.060688 0.050242 0.220107
0.061444 0.050004 0.219099
0.061653 0.049336 0.216208
0.062467 0.049167 0.215497
0.062817 0.048643 0.213232
0.063502 0.048392 0.212156
0.064307 0.048237 0.211506
0.064962 0.047978 0.210391
0.065567 0.047689 0.209146
0.066345 0.047533 0.208480
0.067096 0.047363 0.207749
0.067703 0.047098 0.206596
0.068032 0.046649 0.204636
0.068643 0.046404 0.203568
0.069377 0.046247 0.202883
0.070270 0.046199 0.202674
0.070988 0.046039 0.201968
0.071676 0.045864 0.201196
0.072446 0.045745 0.200665
0.073113 0.045565 0.199862
0.073717 0.045351 0.198907
0.074262 0.045107 0.197813
0.074693 0.044800 0.196443
0.075231 0.044564 0.195380
0.075711 0.044300 0.194190
0.075883 0.043864 0.192242
0.076095 0.043462 0.190438
0.076831 0.043365 0.189966
0.077499 0.043232 0.189334
0.078146 0.043090 0.188658
0.078791 0.042951 0.187988
0.079539 0.042870 0.187570
0.081624 0.043503 0.190269
0.082868 0.043679 0.190962
0.083690 0.043632 0.190671
0.082935 0.042771 0.186825
0.083528 0.042618 0.186061
0.083977 0.042394 0.184987
0.084386 0.042155 0.183839
0.084775 0.041912 0.182666
0.085228 0.041704 0.181646
0.085599 0.041461 0.180463
0.085909 0.041194 0.179169
0.086326 0.040982 0.178114
0.086578 0.040698 0.176733
0.086806 0.040407 0.175323
0.084876 0.039127 0.169616
0.084222 0.038455 0.166543
0.084149 0.038057 0.164658
0.084627 0.037914 0.163867
0.083586 0.037100 0.160168
0.085726 0.037699 0.162568
-0.943809 0.425534 1.817344
-0.934309 0.425143 1.817393
-0.926159 0.425364 1.819976
-0.919075 0.426084 1.824613
-0.904222 0.423182 1.813651
-1.023896 0.524023 2.258167
-1.005902 0.520223 2.242760
-0.995950 0.520546 2.245049
-0.989427 0.522687 2.255119
-0.976168 0.521278 2.249804
-0.966197 0.521613 2.251954
-0.751561 0.429288 1.855507
-0.745652 0.430915 1.862835
-0.732193 0.428166 1.851202
-0.724238 0.428609 1.853325
-0.358687 0.234879 1.015817
-0.353061 0.234314 1.013317
-0.349663 0.235233 1.017218
-0.344789 0.235171 1.016859
-0.339760 0.235000 1.016016
-0.334791 0.234866 1.015321
-0.330220 0.235012 1.015819
-0.325885 0.235333 1.017063
-0.320223 0.234690 1.014129
-0.315923 0.235042 1.015480
-0.190407 0.158442 0.683549
-0.185292 0.156840 0.676474
-0.178554 0.153785 0.663132
-0.174788 0.153226 0.660553
-0.171004 0.152630 0.657813
-0.167859 0.152594 0.657480
-0.164527 0.152384 0.656395
-0.161681 0.152623 0.657245
-0.158477 0.152528 0.656649
-0.155697 0.152846 0.657829
-0.152800 0.153059 0.658556
-0.149070 0.152430 0.655656
-0.145529 0.151970 0.653487
-0.142885 0.152448 0.655348
-0.138568 0.151124 0.649462
-0.136847 0.152635 0.655756
-0.067920 0.079359 0.340738
-0.066626 0.079743 0.342284
-0.065372 0.080195 0.344121
-0.063682 0.080123 0.343708
-0.063010 0.081360 0.348910
-0.071877 0.095315 0.408634
-0.070009 0.095414 0.408935
-0.068407 0.095891 0.410858
-0.066451 0.095885 0.410713
-0.064562 0.095978 0.410993
-0.034144 0.054028 0.231225
-0.033073 0.054077 0.231369
-0.032131 0.054345 0.232454
-0.031100 0.054478 0.232958
-0.030075 0.054630 0.233547
-0.029089 0.054868 0.234502
-0.027842 0.054614 0.233360
-0.028854 0.058954 0.251840
-0.027480 0.058584 0.250199
-0.026033 0.058017 0.247721
-0.024346 0.056837 0.242625
-0.023242 0.056969 0.243133
-0.022137 0.057112 0.243692
-0.020973 0.057109 0.243629
-0.019835 0.057182 0.243893
-0.018715 0.057320 0.244433
-0.017610 0.057525 0.245261
-0.016469 0.057631 0.245671
-0.015323 0.057737 0.246080
-0.014192 0.057925 0.246842
-0.013097 0.058303 0.248417
-0.011959 0.058545 0.249413
-0.010812 0.058795 0.250443
-0.009650 0.059018 0.251362
-0.008461 0.059109 0.251722
-0.007269 0.059212 0.252135
-0.006077 0.059351 0.252702
-0.004878 0.059481 0.253234
-0.003680 0.059713 0.254201
-0.002468 0.059852 0.254776
-0.001254 0.060103 0.255828
-0.000029 0.060164 0.256078
0.001199 0.060227 0.256336
0.002436 0.060464 0.257338
0.003677 0.060602 0.257918
0.004918 0.060667 0.258193
0.006167 0.060785 0.258698
0.007445 0.061107 0.260070
0.008712 0.061255 0.260704
0.009975 0.061343 0.261085
0.011239 0.061415 0.261401
0.012500 0.061455 0.261586
0.013748 0.061435 0.261514
0.015027 0.061541 0.261983
0.016277 0.061519 0.261910
0.017825 0.062549 0.266315
0.019907 0.065189 0.277582
0.021188 0.065040 0.276976
0.022476 0.064928 0.276528
0.023716 0.064699 0.275585
0.024986 0.064569 0.275068
0.026201 0.064320 0.274040
0.027465 0.064205 0.273591
0.028675 0.063983 0.272684
0.029780 0.063555 0.270900
0.030949 0.063293 0.269827
0.032048 0.062915 0.268260
0.033292 0.062840 0.267985
0.033952 0.061710 0.263212
0.034985 0.061312 0.261565
0.035770 0.060523 0.258247
0.036741 0.060092 0.256454
0.037616 0.059535 0.254128
0.038669 0.059285 0.253114
0.039741 0.059081 0.252293
0.040638 0.058635 0.250439
0.041748 0.058513 0.249970
0.042591 0.058033 0.247976
0.043732 0.057976 0.247782
0.044732 0.057737 0.246818
0.045585 0.057328 0.245122
0.046689 0.057246 0.244823
0.047777 0.057149 0.244463
0.048706 0.056872 0.243331
0.049655 0.056629 0.242345
0.050457 0.056233 0.240706
0.050816 0.055373 0.237075
0.051694 0.055104 0.235973
0.052767 0.055048 0.235788
0.053680 0.054832 0.234912
0.054460 0.054492 0.233505
0.055226 0.054151 0.232091
0.056228 0.054051 0.231709
0.057130 0.053860 0.230936
0.057914 0.053568 0.229728
0.058229 0.052859 0.226733
0.058952 0.052541 0.225411
0.059943 0.052469 0.225139
0.060534 0.052055 0.223400
0.060873 0.051442 0.220808
0.060497 0.050257 0.215753
0.061462 0.050205 0.215564
0.062299 0.050053 0.214942
0.062942 0.049753 0.213679
0.063584 0.049461 0.212450
0.064416 0.049323 0.211883
0.065169 0.049131 0.211077
0.065786 0.048843 0.209860
0.066264 0.048462 0.208239
0.067082 0.048337 0.207714
0.067753 0.048112 0.206758
0.068127 0.047684 0.204928
0.068466 0.047246 0.203046
0.069052 0.046987 0.201934
0.070014 0.046987 0.201933
0.070863 0.046913 0.201610
0.071406 0.046640 0.200431
0.072111 0.046480 0.199727
0.072671 0.046231 0.198642
0.073495 0.046155 0.198296
0.074120 0.045956 0.197420
0.074508 0.045618 0.195939
0.075081 0.045399 0.194970
0.075235 0.044936 0.192947
0.075982 0.044834 0.192470
0.076446 0.044570 0.191290
0.076865 0.044285 0.190020
0.077630 0.044205 0.189623
0.078274 0.044057 0.188933
0.078806 0.043852 0.187989
0.079442 0.043708 0.187304
0.081692 0.044444 0.190387
0.082603 0.044444 0.190308
0.083170 0.044262 0.189441
0.082978 0.043683 0.186874
0.083382 0.043428 0.185685
0.083796 0.043182 0.184535
0.084198 0.042936 0.183376
0.084534 0.042662 0.182090
0.084876 0.042395 0.180835
0.085224 0.042138 0.179611
0.085498 0.041849 0.178247
0.085949 0.041651 0.177268
0.086218 0.041371 0.175927
0.086264 0.040990 0.174155
0.085073 0.040033 0.169936
0.084451 0.039361 0.166920
0.084826 0.039161 0.165904
0.084844 0.038802 0.164207
0.084475 0.038274 0.161789
0.087345 0.039209 0.165549
-1.112017 0.497934 2.076413
-1.104574 0.499047 2.083390
-1.095831 0.499587 2.087873
-0.941827 0.433307 1.812717
-0.932968 0.433197 1.814008
-0.925279 0.433633 1.817500
-0.918175 0.434355 1.822110
-0.907443 0.433358 1.819428
-1.023185 0.534347 2.256069
-1.003739 0.529699 2.237442
-0.995514 0.530937 2.243601
-0.987355 0.532238 2.249961
-0.974609 0.531068 2.245807
-0.968686 0.533630 2.257379
-0.765564 0.441091 1.867838
-0.756940 0.441185 1.868598
-0.747462 0.440778 1.867191
-0.736511 0.439482 1.861975
-0.727941 0.439593 1.862680
-0.358344 0.239444 1.014872
-0.354260 0.239909 1.016797
-0.349982 0.240254 1.018196
-0.344674 0.239891 1.016582
-0.339889 0.239888 1.016476
-0.334992 0.239805 1.016017
-0.330048 0.239684 1.015386
-0.326104 0.240298 1.017851
-0.321237 0.240240 1.017458
-0.316897 0.240579 1.018738
-0.190465 0.161726 0.683889
-0.185547 0.160263 0.677544
-0.180021 0.158215 0.668725
-0.175295 0.156808 0.662618
-0.171678 0.156361 0.660560
-0.168150 0.155980 0.658781
-0.165044 0.155984 0.658625
-0.162136 0.156179 0.659269
-0.159267 0.156419 0.660104
-0.156411 0.156682 0.661030
-0.153467 0.156867 0.661623
-0.150298 0.156824 0.661252
-0.146804 0.156434 0.659419
-0.144349 0.157156 0.662273
-0.140743 0.156631 0.659868
-0.136666 0.155547 0.655109
-0.133719 0.155727 0.655674
-0.068347 0.081488 0.342997
-0.066405 0.081102 0.341271
-0.065427 0.081903 0.344540
-0.063584 0.081634 0.343306
-0.061911 0.081575 0.342958
-0.069911 0.097227 0.408525
-0.067720 0.096867 0.406895
-0.066357 0.097705 0.410299
-0.033025 0.055102 0.231134
-0.031906 0.055069 0.230933
-0.030854 0.055151 0.231218
-0.029740 0.055127 0.231059
-0.028809 0.055452 0.232359
-0.029516 0.059081 0.247507
-0.028321 0.059049 0.247310
-0.027118 0.058996 0.247029
-0.026010 0.059154 0.247636
-0.024826 0.059146 0.247547
-0.023574 0.058967 0.246744
-0.022110 0.058212 0.243532
-0.020947 0.058209 0.243469
-0.019791 0.058227 0.243498
-0.018645 0.058278 0.243664
-0.017558 0.058532 0.244683
-0.016431 0.058682 0.245264
-0.015288 0.058790 0.245675
-0.014186 0.059089 0.246887
