ply
format ascii 1.0
element vertex 1684
property float x
property float y
property float z
end_header
0.085646 -0.067334 0.273154
0.086593 -0.067061 0.272058
0.087661 -0.066888 0.271364
0.088423 -0.066491 0.269753
0.089354 -0.066230 0.268692
0.090216 -0.065925 0.267451
0.091035 -0.065598 0.266115
0.091721 -0.065186 0.264428
0.092661 -0.064963 0.263504
0.093401 -0.064607 0.262038
0.094170 -0.064281 0.260688
0.094947 -0.063968 0.259386
0.095731 -0.063668 0.258134
0.096330 -0.063254 0.256413
0.096690 -0.062696 0.254103
0.096968 -0.062099 0.251630
0.097816 -0.061876 0.250670
0.098885 -0.061798 0.250288
0.099513 -0.061448 0.248804
0.100200 -0.061144 0.247495
0.101175 -0.061019 0.246910
0.101598 -0.060569 0.245000
0.102434 -0.060372 0.244111
0.103259 -0.060174 0.243205
0.103822 -0.059829 0.241703
0.104457 -0.059532 0.240390
0.105160 -0.059280 0.239250
0.105914 -0.059062 0.238242
0.106677 -0.058853 0.237264
0.107070 -0.058447 0.235481
0.107575 -0.058109 0.233971
0.108018 -0.057746 0.232348
0.108459 -0.057389 0.230745
0.109084 -0.057136 0.229550
0.109667 -0.056865 0.228279
0.110219 -0.056584 0.226957
0.110892 -0.056371 0.225897
0.111414 -0.056085 0.224540
0.111881 -0.055778 0.223087
0.112339 -0.055471 0.221630
0.112676 -0.055111 0.219951
0.113626 -0.055056 0.219476
0.114039 -0.054743 0.217966
0.114324 -0.054375 0.216225
-1.496447 -0.682457 2.791735
-1.483119 -0.682445 2.794936
-1.467776 -0.681499 2.794154
-1.457843 -0.683071 2.803556
-1.447475 -0.684468 2.812107
-1.433681 -0.684256 2.813921
-1.424796 -0.686405 2.825322
-1.421126 -0.691133 2.847231
-1.412313 -0.693426 2.859012
-1.406513 -0.697259 2.877038
-1.402552 -0.702087 2.899080
-1.396922 -0.706168 2.917947
-1.389572 -0.709453 2.933433
-1.366746 -0.704824 2.916084
-1.370012 -0.713694 2.954487
-1.361706 -0.716656 2.968360
-1.338330 -0.711667 2.949193
-1.333764 -0.716681 2.971384
-1.410103 -0.765737 3.176174
-1.397004 -0.766756 3.181712
-1.410016 -0.782285 3.247388
-1.403695 -0.787311 3.269401
-1.397500 -0.792521 3.292101
-1.388782 -0.796401 3.309197
-1.378511 -0.799469 3.322841
-1.365974 -0.801279 3.331176
-1.353151 -0.802962 3.338903
-1.340334 -0.804689 3.346732
-1.328149 -0.806841 3.356258
-1.313990 -0.807833 3.360882
-1.301505 -0.809891 3.369868
-1.288147 -0.811450 3.376709
-1.275106 -0.813251 3.384490
-1.261731 -0.814882 3.391498
-1.250508 -0.817964 3.404478
-1.240439 -0.821891 3.420913
-1.228937 -0.824959 3.433715
-1.222452 -0.831522 3.461003
-1.226853 -0.845769 3.520212
-0.514776 -0.403906 1.679636
-0.499894 -0.398346 1.656248
-0.496482 -0.401894 1.670717
-0.480217 -0.394987 1.641703
-0.463021 -0.387074 1.608510
-0.285936 -0.404702 1.670889
-0.272678 -0.396949 1.638423
-0.267840 -0.401358 1.656164
-0.260747 -0.402553 1.660644
-0.252042 -0.401257 1.654847
-0.245357 -0.403198 1.662408
-0.238658 -0.405246 1.670410
-0.231286 -0.406251 1.674118
-0.223719 -0.406975 1.676674
-0.217119 -0.409578 1.686972
-0.208962 -0.409331 1.685539
-0.201509 -0.410498 1.689939
-0.231883 -0.536697 2.207946
-0.221504 -0.537052 2.208925
-0.209041 -0.532140 2.188259
-0.199521 -0.534599 2.197918
-0.188506 -0.533104 2.191334
-0.177591 -0.531733 2.185280
-0.167749 -0.533606 2.192576
-0.157133 -0.533104 2.190127
-0.146305 -0.531763 2.184248
-0.135902 -0.531880 2.184378
-0.125435 -0.531746 2.183492
-0.115058 -0.532008 2.184251
-0.104571 -0.531762 2.182946
-0.094143 -0.531805 2.182843
-0.083763 -0.532155 2.184021
-0.073182 -0.531157 2.179683
-0.062668 -0.530401 2.176359
-0.052081 -0.528603 2.168779
-0.041585 -0.527067 2.162298
-0.031112 -0.524912 2.153295
-0.020598 -0.519598 2.131358
-0.010262 -0.512793 2.103325
-0.000193 -0.505848 2.074740
0.009673 -0.502505 2.060951
0.019395 -0.498816 2.045763
0.029188 -0.498799 2.045651
0.005869 -0.075100 0.307994
0.007343 -0.075093 0.307964
0.008739 -0.074429 0.305242
0.010177 -0.074255 0.304536
0.011613 -0.074110 0.303947
0.012999 -0.073718 0.302350
0.014362 -0.073285 0.300585
0.015668 -0.072667 0.298070
0.017088 -0.072638 0.297967
0.018459 -0.072417 0.297081
0.019802 -0.072128 0.295917
0.021297 -0.072394 0.297034
0.022744 -0.072475 0.297391
0.024124 -0.072345 0.296888
0.025559 -0.072384 0.297080
0.026987 -0.072398 0.297172
0.028451 -0.072505 0.297649
0.029953 -0.072694 0.298461
0.031354 -0.072630 0.298241
0.032802 -0.072677 0.298475
0.034227 -0.072669 0.298486
0.035563 -0.072483 0.297767
0.036940 -0.072390 0.297434
0.038348 -0.072363 0.297369
0.039731 -0.072290 0.297120
0.041147 -0.072282 0.297137
0.042561 -0.072271 0.297149
0.044011 -0.072319 0.297398
0.045377 -0.072232 0.297094
0.046795 -0.072229 0.297138
0.048221 -0.072238 0.297233
0.049525 -0.072070 0.296597
0.050829 -0.071910 0.295999
0.052398 -0.072124 0.296938
0.053903 -0.072240 0.297473
0.055642 -0.072656 0.299248
0.057397 -0.073072 0.301021
0.059100 -0.073403 0.302446
0.060747 -0.073650 0.303526
0.062601 -0.074130 0.305566
0.063990 -0.074050 0.305298
0.064827 -0.073351 0.302474
0.065810 -0.072842 0.300434
0.067235 -0.072834 0.300460
0.068481 -0.072637 0.299702
0.069534 -0.072246 0.298147
0.070827 -0.072115 0.297663
0.071920 -0.071791 0.296378
0.072669 -0.071142 0.293750
0.074144 -0.071214 0.294098
0.074764 -0.070478 0.291107
0.075589 -0.069959 0.289007
0.076619 -0.069644 0.287752
0.077725 -0.069409 0.286820
0.078786 -0.069141 0.285754
0.079687 -0.068745 0.284155
0.080055 -0.067910 0.280736
0.080599 -0.067249 0.278035
0.081651 -0.067027 0.277146
0.082712 -0.066818 0.276308
0.083603 -0.066481 0.274938
0.084515 -0.066172 0.273675
0.085576 -0.065986 0.272923
0.086523 -0.065718 0.271829
0.087164 -0.065230 0.269820
0.088166 -0.065023 0.268967
0.089133 -0.064796 0.268028
0.090049 -0.064538 0.266959
0.090814 -0.064181 0.265475
0.091625 -0.063866 0.264161
0.092625 -0.063689 0.263415
0.093353 -0.063332 0.261919
0.094276 -0.063115 0.260999
0.094929 -0.062726 0.259359
0.095662 -0.062399 0.257974
0.096133 -0.061911 0.255916
0.096578 -0.061419 0.253838
0.097387 -0.061168 0.252749
0.098178 -0.060911 0.251634
0.098917 -0.060629 0.250409
0.099739 -0.060404 0.249413
0.100358 -0.060063 0.247931
0.101210 -0.059867 0.247046
0.101907 -0.059585 0.245799
0.102270 -0.059117 0.243777
0.102978 -0.058856 0.242604
0.103721 -0.058621 0.241531
0.104209 -0.058249 0.239885
0.104917 -0.058005 0.238766
0.105571 -0.057738 0.237541
0.106359 -0.057549 0.236631
0.107097 -0.057338 0.235620
0.107393 -0.056896 0.233657
0.108015 -0.056634 0.232428
0.108528 -0.056321 0.230979
0.109067 -0.056028 0.229606
0.109716 -0.055797 0.228476
0.110285 -0.055530 0.227195
0.110979 -0.055330 0.226178
0.111519 -0.055059 0.224860
0.111836 -0.054683 0.223108
0.112125 -0.054301 0.221323
0.112573 -0.054003 0.219870
0.113412 -0.053895 0.219185
0.113858 -0.053605 0.217747
0.114225 -0.053283 0.216170
-1.495354 -0.668558 2.791183
-1.479203 -0.667270 2.788985
-1.466867 -0.667694 2.793799
-1.457679 -0.669574 2.804566
-1.445774 -0.670230 2.810079
-1.435111 -0.671480 2.817956
-1.426538 -0.673740 2.829957
-1.421997 -0.677967 2.850115
-1.417378 -0.682238 2.870362
-1.412604 -0.686518 2.890551
-1.416027 -0.694904 2.927954
-1.417786 -0.702632 2.962513
-1.410858 -0.706166 2.979310
-1.397439 -0.706491 2.982467
-1.390540 -0.710153 2.999612
-1.378184 -0.711075 3.005091
-1.363628 -0.710870 3.005707
-1.363833 -0.718437 3.039101
-1.418376 -0.755092 3.195530
-1.405218 -0.756108 3.201098
-1.412832 -0.768443 3.254516
-1.404124 -0.772074 3.271001
-1.396310 -0.776283 3.289856
-1.389701 -0.781266 3.311908
-1.378204 -0.783582 3.322579
-1.365412 -0.785208 3.330240
-1.352530 -0.786819 3.337762
-1.339617 -0.788451 3.345293
-1.328046 -0.790922 3.356308
-1.316508 -0.793472 3.367590
-1.303031 -0.794903 3.374047
-1.290728 -0.797094 3.383662
-1.278571 -0.799431 3.393832
-1.265099 -0.800997 3.400659
-1.252791 -0.803349 3.410759
-1.243372 -0.807639 3.429028
-1.237372 -0.814293 3.457271
-1.233358 -0.822449 3.491828
-1.228052 -0.829952 3.523557
-0.517780 -0.398274 1.689226
-0.510541 -0.398831 1.691297
-0.497033 -0.394429 1.672331
-0.490042 -0.395142 1.675033
-0.474674 -0.389012 1.648719
-0.274324 -0.391482 1.647651
-0.265787 -0.390437 1.642792
-0.259827 -0.393232 1.654089
-0.252831 -0.394585 1.659319
-0.245293 -0.395151 1.661246
-0.238559 -0.397096 1.668972
-0.231376 -0.398401 1.674011
-0.224307 -0.400002 1.680302
-0.216675 -0.400684 1.682732
-0.209494 -0.402282 1.689020
-0.201817 -0.403020 1.691701
-0.193900 -0.403321 1.692555
-0.224574 -0.533751 2.238370
-0.214033 -0.534093 2.239321
-0.203094 -0.533429 2.236068
-0.192173 -0.532740 2.232729
-0.182660 -0.536105 2.246393
-0.172061 -0.536504 2.247643
-0.160050 -0.532265 2.229484
-0.149091 -0.531169 2.224510
-0.138055 -0.529611 2.217624
-0.126923 -0.527398 2.208014
-0.116038 -0.525904 2.201434
-0.105198 -0.524338 2.194577
-0.094547 -0.523476 2.190681
-0.083995 -0.523018 2.188501
-0.073333 -0.521648 2.182524
-0.062765 -0.520607 2.177943
-0.052112 -0.518316 2.168155
-0.041585 -0.516449 2.160161
-0.031067 -0.513499 2.147663
-0.020602 -0.508964 2.128552
-0.010258 -0.501491 2.097180
-0.000214 -0.494842 2.069276
0.009649 -0.492479 2.059318
0.019367 -0.488833 2.044013
0.029155 -0.488816 2.043901
0.005763 -0.072335 0.302455
0.007294 -0.073159 0.305898
0.008701 -0.072669 0.303852
0.010122 -0.072428 0.302848
0.011581 -0.072480 0.303074
0.012947 -0.071999 0.301076
0.014347 -0.071790 0.300215
0.015696 -0.071380 0.298518
0.017073 -0.071161 0.297619
0.018469 -0.071046 0.297161
0.019871 -0.070969 0.296860
0.021304 -0.071007 0.297045
0.022750 -0.071079 0.297373
0.024177 -0.071087 0.297440
0.025584 -0.071040 0.297274
0.027028 -0.071094 0.297535
0.028508 -0.071232 0.298151
0.030013 -0.071417 0.298963
0.031463 -0.071458 0.299180
0.032883 -0.071431 0.299108
0.034297 -0.071395 0.299004
0.035657 -0.071253 0.298457
0.037074 -0.071232 0.298415
0.038527 -0.071278 0.298658
0.039919 -0.071212 0.298437
0.041354 -0.071225 0.298545
0.042745 -0.071164 0.298342
0.044185 -0.071184 0.298484
0.045631 -0.071214 0.298666
0.047104 -0.071283 0.299013
0.048463 -0.071179 0.298637
0.049910 -0.071208 0.298815
0.051236 -0.071067 0.298286
0.052749 -0.071185 0.298842
0.054307 -0.071357 0.299626
0.055871 -0.071527 0.300403
0.057746 -0.072077 0.302775
0.059070 -0.071928 0.302214
0.060789 -0.072258 0.303660
0.062680 -0.072770 0.305877
0.063638 -0.072201 0.303551
0.064687 -0.071759 0.301751
0.065837 -0.071444 0.300490
0.067030 -0.071189 0.299477
0.068470 -0.071201 0.299590
0.069459 -0.070755 0.297769
0.070543 -0.070420 0.296417
0.071654 -0.070124 0.295229
0.072795 -0.069869 0.294209
0.073825 -0.069519 0.292788
0.074820 -0.069150 0.291282
0.075582 -0.068582 0.288940
0.076678 -0.068332 0.287932
0.077750 -0.068071 0.286876
0.078616 -0.067641 0.285106
0.079553 -0.067285 0.283647
0.080060 -0.066583 0.280725
0.080906 -0.066182 0.279068
0.081772 -0.065811 0.277532
0.082562 -0.065390 0.275787
0.083411 -0.065029 0.274290
0.084476 -0.064845 0.273534
0.085326 -0.064503 0.272113
0.086125 -0.064134 0.270571
0.087050 -0.063868 0.269461
0.087884 -0.063544 0.268101
0.088862 -0.063332 0.267212
0.089802 -0.063100 0.266230
0.090521 -0.062720 0.264624
0.091459 -0.062500 0.263690
0.092286 -0.062212 0.262461
0.093249 -0.062022 0.261641
0.094036 -0.061721 0.260353
0.094955 -0.061514 0.259452
0.095405 -0.061011 0.257301
0.096142 -0.060703 0.255966
0.096678 -0.060278 0.254130
0.097177 -0.059839 0.252235
0.097859 -0.059523 0.250851
0.098614 -0.059259 0.249680
0.099385 -0.059010 0.248568
0.100138 -0.058756 0.247433
0.100837 -0.058477 0.246182
0.101519 -0.058195 0.244913
0.102166 -0.057899 0.243580
0.102727 -0.057561 0.242067
0.103567 -0.057386 0.241231
0.104235 -0.057121 0.240007
0.104945 -0.056884 0.238896
0.105827 -0.056744 0.238186
0.106406 -0.056446 0.236807
0.107087 -0.056208 0.235674
0.107906 -0.056047 0.234853
0.108442 -0.055744 0.233430
0.108898 -0.055406 0.231853
0.109125 -0.054959 0.229818
0.109648 -0.054669 0.228427
0.110229 -0.054414 0.227174
0.110964 -0.054239 0.226248
0.111379 -0.053912 0.224681
0.111912 -0.053647 0.223366
0.112121 -0.053235 0.221425
0.112520 -0.052919 0.219879
0.113660 -0.052954 0.219782
0.113862 -0.052556 0.217876
0.114449 -0.052341 0.216719
-1.496117 -0.655494 2.794041
-1.482726 -0.655454 2.797007
-1.469116 -0.655316 2.799409
-1.459426 -0.656941 2.809206
-1.448543 -0.658055 2.816690
-1.438075 -0.659381 2.824957
-1.428376 -0.661088 2.834739
-1.421931 -0.664348 2.851075
-1.419994 -0.669799 2.876714
-1.414224 -0.673530 2.894880
-1.396554 -0.671612 2.888654
-1.405000 -0.682339 2.936729
-1.411754 -0.692452 2.982104
-1.362308 -0.674925 2.908322
-1.368071 -0.684673 2.951943
-1.358884 -0.687063 2.963768
-1.364567 -0.697100 3.008505
-1.335011 -0.689158 2.975554
-1.437723 -0.750050 3.239811
-1.424405 -0.751068 3.245453
-1.418576 -0.756100 3.268355
-1.405425 -0.757298 3.274598
-1.397843 -0.761558 3.293995
-1.387071 -0.764155 3.306123
-1.379412 -0.768547 3.325934
-1.367192 -0.770470 3.334984
-1.351333 -0.770363 3.335168
-1.338504 -0.772003 3.342834
-1.326615 -0.774231 3.352972
-1.313715 -0.775915 3.360684
-1.301098 -0.777810 3.369239
-1.287715 -0.779289 3.375922
-1.275911 -0.781774 3.386893
-1.262339 -0.783225 3.393319
-1.252400 -0.786996 3.409736
-1.240481 -0.789606 3.421059
-1.229424 -0.792840 3.435026
-1.222899 -0.799123 3.462142
-1.229237 -0.814095 3.526842
-0.530503 -0.399877 1.730511
-0.509327 -0.396078 1.713438
-0.482192 -0.381013 1.647936
-0.481953 -0.387056 1.673720
-0.278551 -0.378726 1.626449
-0.271099 -0.379108 1.627619
-0.266814 -0.384074 1.648463
-0.259257 -0.384488 1.649765
-0.251826 -0.385121 1.652014
-0.245011 -0.386767 1.658611
-0.238176 -0.388491 1.665546
-0.231017 -0.389788 1.670654
-0.223495 -0.390544 1.673448
-0.216076 -0.391544 1.677292
-0.209057 -0.393372 1.684692
-0.201314 -0.393931 1.686661
-0.193991 -0.395393 1.692504
-0.185864 -0.395275 1.691590
-0.178063 -0.395870 1.693741
-0.170096 -0.396136 1.694497
-0.214368 -0.524161 2.241634
-0.172338 -0.526537 2.249977
-0.161601 -0.526586 2.249772
-0.150748 -0.526235 2.247881
-0.140064 -0.526472 2.248517
-0.128416 -0.522822 2.232576
-0.117514 -0.521827 2.227993
-0.106253 -0.518882 2.215108
-0.095358 -0.517270 2.207934
-0.084478 -0.515353 2.199482
-0.073676 -0.513438 2.191060
-0.063018 -0.512053 2.184923
-0.052208 -0.508656 2.170218
-0.041566 -0.505609 2.157034
-0.031084 -0.503139 2.146335
-0.020588 -0.497917 2.123914
-0.010255 -0.490280 2.091220
-0.000234 -0.483393 2.061743
0.009610 -0.481717 2.054518
0.019296 -0.477799 2.037748
0.029059 -0.477781 2.037636
0.005763 -0.070924 0.302474
0.007208 -0.070875 0.302266
0.008682 -0.071088 0.303176
0.010092 -0.070787 0.301898
0.011496 -0.070525 0.300789
0.012931 -0.070487 0.300639
0.014335 -0.070308 0.299889
0.015691 -0.069946 0.298360
0.017121 -0.069944 0.298373
0.018507 -0.069778 0.297686
0.019937 -0.069792 0.297771
0.021403 -0.069918 0.298334
0.022825 -0.069894 0.298262
0.024274 -0.069953 0.298546
0.025719 -0.069993 0.298747
0.027168 -0.070038 0.298979
0.028627 -0.070104 0.299300
0.030096 -0.070187 0.299694
0.031541 -0.070208 0.299827
0.032920 -0.070086 0.299351
0.034326 -0.070031 0.299163
0.035718 -0.069951 0.298868
0.037151 -0.069955 0.298935
0.038630 -0.070043 0.299365
0.040073 -0.070060 0.299490
0.041576 -0.070178 0.300049
0.043057 -0.070253 0.300427
0.044561 -0.070358 0.300937
0.046040 -0.070419 0.301254
0.047505 -0.070454 0.301466
0.048900 -0.070388 0.301244
0.050237 -0.070243 0.300685
0.051682 -0.070254 0.300794
0.053110 -0.070241 0.300804
0.054688 -0.070422 0.301643
0.056279 -0.070611 0.302517
0.057787 -0.070687 0.302909
0.059333 -0.070806 0.303483
0.060865 -0.070903 0.303964
0.062335 -0.070924 0.304122
0.063717 -0.070846 0.303853
0.064667 -0.070303 0.301590
0.065854 -0.070035 0.300502
0.067297 -0.070045 0.300606
0.068579 -0.069891 0.300008
0.068892 -0.068774 0.295277
0.070334 -0.068808 0.295482
0.071705 -0.068772 0.295384
0.072414 -0.068114 0.292615
0.073662 -0.067979 0.292091
0.074859 -0.067803 0.291386
0.075793 -0.067399 0.289701
0.076620 -0.066916 0.287674
0.077258 -0.066288 0.285021
0.078421 -0.066123 0.284360
0.079257 -0.065695 0.282558
0.079820 -0.065057 0.279853
0.080859 -0.064822 0.278879
0.081922 -0.064613 0.278015
0.082810 -0.064275 0.276594
0.083631 -0.063897 0.274995
0.083818 -0.063053 0.271386
0.084819 -0.062838 0.270483
0.085884 -0.062676 0.269802
0.086714 -0.062350 0.268412
0.087577 -0.062056 0.267161
0.088684 -0.061942 0.266674
0.089512 -0.061638 0.265371
0.090268 -0.061294 0.263889
0.091269 -0.061123 0.263148
0.092116 -0.060856 0.261987
0.093058 -0.060657 0.261118
0.094015 -0.060473 0.260308
0.094870 -0.060230 0.259236
0.095641 -0.059940 0.257960
0.096333 -0.059608 0.256498
0.096879 -0.059195 0.254684
0.097500 -0.058838 0.253105
0.098004 -0.058419 0.251256
0.098579 -0.058053 0.249626
0.099231 -0.057740 0.248220
0.100199 -0.057616 0.247623
0.100873 -0.057328 0.246315
0.101343 -0.056932 0.244535
0.101832 -0.056556 0.242834
0.102768 -0.056433 0.242217
0.103507 -0.056206 0.241147
0.104144 -0.055930 0.239856
0.105063 -0.055809 0.239227
0.105822 -0.055606 0.238241
0.106587 -0.055412 0.237281
0.107309 -0.055199 0.236236
0.108046 -0.054997 0.235233
0.108600 -0.054709 0.233849
0.109044 -0.054370 0.232246
0.109419 -0.054005 0.230522
0.109888 -0.053693 0.229016
0.110271 -0.053346 0.227353
0.111020 -0.053180 0.226457
0.111666 -0.052970 0.225359
0.112169 -0.052695 0.223983
0.112498 -0.052346 0.222277
0.113011 -0.052087 0.220950
0.113907 -0.052008 0.220375
0.114315 -0.051710 0.218861
0.114522 -0.051327 0.216980
-1.494073 -0.641212 2.791603
-1.482016 -0.641743 2.796997
-1.470374 -0.642464 2.803084
-1.460421 -0.643945 2.812351
-1.448759 -0.644694 2.818292
-1.440642 -0.647049 2.831137
-1.430736 -0.648638 2.840517
-1.426963 -0.653065 2.862217
-1.421779 -0.656926 2.881344
-1.417732 -0.661391 2.903033
-1.414327 -0.666248 2.926349
-1.399657 -0.665842 2.926450
-1.391449 -0.668534 2.940062
-1.375696 -0.667619 2.937707
-1.369819 -0.671527 2.956481
-1.363373 -0.675234 2.974286
-1.338948 -0.670023 2.952703
-1.363992 -0.689717 3.040806
-1.445805 -0.738839 3.258684
-1.432430 -0.739851 3.264356
-1.418213 -0.740446 3.268095
-1.404838 -0.741498 3.273762
-1.398630 -0.746400 3.296341
-1.389713 -0.749950 3.312873
-1.379248 -0.752737 3.325951
-1.366896 -0.754546 3.334633
-1.352906 -0.755483 3.339381
-1.337899 -0.755869 3.341614
-1.325667 -0.757851 3.350827
-1.313270 -0.759785 3.359758
-1.300674 -0.761651 3.368315
-1.289593 -0.764461 3.380980
-1.278725 -0.767470 3.394457
-1.267431 -0.770296 3.407063
-1.257008 -0.773732 3.422298
-1.248002 -0.778141 3.441779
-1.246451 -0.787375 3.482539
-1.234865 -0.790433 3.495919
-1.230263 -0.798104 3.529647
-1.237184 -0.813563 3.597752
-0.538670 -0.380212 1.680404
-0.541735 -0.393939 1.740508
-0.531066 -0.392109 1.732115
-0.515628 -0.386647 1.707662
-0.509879 -0.388393 1.715032
-0.496968 -0.384652 1.698156
-0.482487 -0.379554 1.675283
-0.474306 -0.379325 1.673891
-0.274997 -0.366232 1.605058
-0.272572 -0.373357 1.635799
-0.265211 -0.373943 1.637880
-0.259412 -0.376833 1.650057
-0.252295 -0.377929 1.654380
-0.244911 -0.378683 1.657209
-0.237979 -0.380211 1.663427
-0.230925 -0.381644 1.669233
-0.223464 -0.382481 1.672440
-0.215880 -0.383164 1.674977
-0.208701 -0.384647 1.681020
-0.201154 -0.385544 1.684505
-0.193451 -0.386203 1.686964
-0.185772 -0.386970 1.689898
-0.177763 -0.387091 1.690025
-0.170105 -0.388022 1.693699
-0.162391 -0.388914 1.697212
-0.155033 -0.390800 1.705071
-0.161861 -0.516581 2.252072
-0.150534 -0.514674 2.243356
-0.140284 -0.516441 2.250680
-0.129572 -0.516660 2.251272
-0.117711 -0.511921 2.230280
-0.107059 -0.512028 2.230430
-0.095965 -0.509809 2.220465
-0.084908 -0.507261 2.209092
-0.073949 -0.504661 2.197513
-0.063066 -0.501806 2.184852
-0.052284 -0.498780 2.171468
-0.041570 -0.495064 2.155102
-0.030990 -0.491031 2.137381
-0.020561 -0.486591 2.117913
-0.010251 -0.479122 2.085283
-0.000254 -0.472633 2.056942
0.009566 -0.470695 2.048429
0.019250 -0.467403 2.034047
0.029000 -0.467386 2.033935
0.005799 -0.069949 0.304396
0.007266 -0.070019 0.304701
0.008690 -0.069721 0.303409
0.010142 -0.069700 0.303322
0.011557 -0.069465 0.302310
0.012960 -0.069219 0.301250
0.014426 -0.069321 0.301710
0.015773 -0.068885 0.299829
0.017186 -0.068788 0.299427
0.018622 -0.068790 0.299458
0.020067 -0.068819 0.299607
0.021522 -0.068878 0.299896
0.022999 -0.068997 0.300442
0.024458 -0.069052 0.300713
0.025869 -0.068971 0.300396
0.027330 -0.069023 0.300661
0.028749 -0.068971 0.300473
0.030221 -0.069044 0.300834
0.031665 -0.069050 0.300904
0.033113 -0.069062 0.301004
0.034458 -0.068869 0.300211
0.035869 -0.068817 0.300034
0.037276 -0.068761 0.299844
0.038668 -0.068683 0.299557
0.040113 -0.068703 0.299699
0.041591 -0.068773 0.300062
0.043063 -0.068832 0.300376
0.044534 -0.068882 0.300655
0.046086 -0.069053 0.301462
0.047447 -0.068934 0.301007
0.048980 -0.069067 0.301648
0.050375 -0.069000 0.301422
0.051807 -0.068988 0.301434
0.053314 -0.069074 0.301877
0.054873 -0.069220 0.302580
0.056392 -0.069310 0.303039
0.057919 -0.069404 0.303520
0.059450 -0.069499 0.304005
0.060837 -0.069425 0.303747
0.062008 -0.069113 0.302451
0.063186 -0.068824 0.301250
0.064392 -0.068576 0.300235
0.065644 -0.068388 0.299476
0.066866 -0.068177 0.298616
0.068243 -0.068130 0.298474
0.069307 -0.067778 0.296995
0.070264 -0.067338 0.295129
0.071402 -0.067084 0.294080
0.072469 -0.066776 0.292785
0.073493 -0.066440 0.291371
0.074558 -0.066152 0.290165
0.075357 -0.065644 0.287989
0.076356 -0.065325 0.286641
0.077288 -0.064961 0.285093
0.078380 -0.064741 0.284177
0.079364 -0.064441 0.282903
0.080182 -0.064019 0.281092
0.080934 -0.063558 0.279110
0.081758 -0.063168 0.277434
0.082554 -0.062769 0.275714
0.083188 -0.062262 0.273517
0.083841 -0.061784 0.271444
0.084738 -0.061497 0.270207
0.085801 -0.061338 0.269528
0.086627 -0.061016 0.268134
0.087395 -0.060664 0.266599
0.088599 -0.060620 0.266414
0.089022 -0.060050 0.263915
0.089976 -0.059849 0.263036
0.091019 -0.059712 0.262432
0.091929 -0.059493 0.261463
0.092881 -0.059306 0.260631
0.093846 -0.059133 0.259853
0.094743 -0.058922 0.258905
0.095615 -0.058700 0.257907
0.096455 -0.058465 0.256843
0.096876 -0.057985 0.254700
0.097491 -0.057631 0.253106
0.098184 -0.057333 0.251748
0.098739 -0.056960 0.250063
0.099613 -0.056780 0.249213
0.100250 -0.056469 0.247787
0.100723 -0.056075 0.245989
0.101515 -0.055865 0.244995
0.102144 -0.055572 0.243626
0.102769 -0.055282 0.242269
0.103695 -0.055159 0.241638
0.104440 -0.054944 0.240594
0.105216 -0.054749 0.239635
0.105848 -0.054485 0.238363
0.106644 -0.054310 0.237474
0.107517 -0.054177 0.236761
0.108198 -0.053951 0.235636
0.109050 -0.053814 0.234893
0.109400 -0.053435 0.233084
0.109713 -0.053045 0.231224
0.109919 -0.052612 0.229166
0.110614 -0.052420 0.228149
0.111241 -0.052199 0.227000
0.111853 -0.051975 0.225831
0.112465 -0.051756 0.224674
0.112882 -0.051452 0.223138
0.113040 -0.051037 0.221112
0.113872 -0.050931 0.220417
0.114418 -0.050700 0.219172
0.114774 -0.050391 0.217576
-1.494356 -0.627946 2.793461
-1.483739 -0.629076 2.801528
-1.471955 -0.629729 2.807329
-1.463236 -0.631718 2.818959
-1.452007 -0.632651 2.825751
-1.446268 -0.636015 2.843291
-1.439780 -0.639112 2.859528
-1.430679 -0.641097 2.870685
-1.430784 -0.647285 2.900570
-1.434156 -0.655086 2.937607
-1.425591 -0.657535 2.950558
-1.414569 -0.658888 2.958489
-1.402427 -0.659741 2.964075
-1.395540 -0.663110 2.980862
-1.383320 -0.663988 2.986358
-1.363728 -0.661309 2.975753
-1.359498 -0.666102 2.998676
-1.364927 -0.675779 3.043514
-1.379555 -0.690265 3.109960
-1.400147 -0.708078 3.191355
-1.413540 -0.722597 3.257864
-1.411527 -0.729474 3.289853
-1.400106 -0.731587 3.300280
-1.391013 -0.734978 3.316394
-1.381056 -0.737986 3.330695
-1.368103 -0.739443 3.337921
-1.353618 -0.740098 3.341442
-1.338312 -0.740314 3.342908
-1.323243 -0.740669 3.344923
-1.310256 -0.742212 3.352232
-1.298985 -0.744777 3.364085
-1.287585 -0.747331 3.375822
-1.276807 -0.750316 3.389436
-1.266948 -0.753923 3.405797
-1.255735 -0.756806 3.418828
-1.245566 -0.760403 3.435015
-1.237585 -0.765447 3.457685
-1.230599 -0.771251 3.483721
-1.224852 -0.777998 3.513962
-1.222622 -0.787196 3.555207
-0.543747 -0.365066 1.648189
-0.552245 -0.376133 1.697916
-0.545048 -0.376679 1.700119
-0.549703 -0.385553 1.739887
-0.542296 -0.386109 1.742087
-0.538488 -0.389284 1.756081
-0.522257 -0.383437 1.729361
-0.514845 -0.383983 1.731461
-0.497506 -0.377024 1.699709
-0.489414 -0.376959 1.699032
-0.482081 -0.377487 1.701010
-0.281887 -0.367555 1.644616
-0.274288 -0.367848 1.645427
-0.267215 -0.368886 1.649571
-0.260240 -0.370126 1.654622
-0.252766 -0.370712 1.656752
-0.245199 -0.371195 1.658432
-0.238025 -0.372327 1.663009
-0.231052 -0.373862 1.669394
-0.223634 -0.374760 1.672941
-0.216272 -0.375824 1.677232
-0.208815 -0.376799 1.681132
-0.201441 -0.378008 1.686085
-0.193790 -0.378777 1.689086
-0.186225 -0.379788 1.693174
-0.178759 -0.381103 1.698620
-0.171229 -0.382403 1.704013
-0.162814 -0.381755 1.700740
-0.155271 -0.383195 1.706774
-0.147397 -0.383931 1.709690
-0.151325 -0.506511 2.253808
-0.140605 -0.506743 2.254450
-0.129229 -0.504456 2.243910
-0.117587 -0.500621 2.226507
-0.106970 -0.500825 2.227091
-0.095545 -0.496876 2.209230
-0.084523 -0.494301 2.197500
-0.073890 -0.493592 2.194091
-0.063125 -0.491628 2.185130
-0.052236 -0.487725 2.167568
-0.041535 -0.484083 2.151193
-0.030884 -0.478824 2.127657
-0.020496 -0.474466 2.108150
-0.010219 -0.466747 2.073735
-0.000273 -0.461145 2.048745
0.009556 -0.461347 2.049562
0.019252 -0.458183 2.035451
0.029014 -0.458166 2.035339
0.005785 -0.068356 0.303661
0.007236 -0.068304 0.303429
0.008664 -0.068089 0.302477
0.010116 -0.068093 0.302504
0.011554 -0.068014 0.302162
0.012973 -0.067856 0.301470
0.014405 -0.067791 0.301198
0.015834 -0.067721 0.300905
0.017221 -0.067500 0.299945
0.018666 -0.067524 0.300075
0.020152 -0.067680 0.300794
0.021616 -0.067746 0.301115
0.023124 -0.067935 0.301985
0.024561 -0.067904 0.301882
0.025966 -0.067792 0.301422
0.027408 -0.067783 0.301421
0.028864 -0.067808 0.301573
0.030335 -0.067865 0.301871
0.031837 -0.067982 0.302438
0.033297 -0.068003 0.302577
0.034710 -0.067930 0.302304
0.036122 -0.067861 0.302049
0.037567 -0.067858 0.302087
0.039031 -0.067888 0.302276
0.040470 -0.067873 0.302269
0.042101 -0.068170 0.303650
0.043402 -0.067930 0.302641
0.044815 -0.067876 0.302461
0.046406 -0.068086 0.303462
0.047653 -0.067794 0.302224
0.049130 -0.067836 0.302476
0.050498 -0.067730 0.302071
0.052008 -0.067815 0.302519
0.053481 -0.067848 0.302733
0.054960 -0.067887 0.302978
0.056282 -0.067735 0.302367
0.057877 -0.067911 0.303221
0.059523 -0.068137 0.304299
0.060114 -0.067173 0.300062
0.061871 -0.067525 0.301707
0.063262 -0.067472 0.301539
0.064422 -0.067181 0.300306
0.065824 -0.067148 0.300229
0.067095 -0.066986 0.299573
0.067979 -0.066452 0.297252
0.069158 -0.066224 0.296294
0.070255 -0.065927 0.295032
0.071241 -0.065539 0.293360
0.072404 -0.065327 0.292470
0.073320 -0.064903 0.290633
0.074433 -0.064667 0.289632
0.075502 -0.064401 0.288498
0.076427 -0.064024 0.286862
0.077479 -0.063765 0.285756
0.078428 -0.063432 0.284312
0.079344 -0.063083 0.282798
0.080090 -0.062613 0.280734
0.080893 -0.062203 0.278936
0.081500 -0.061657 0.276529
0.082355 -0.061314 0.275025
0.083169 -0.060951 0.273432
0.083957 -0.060580 0.271799
0.084775 -0.060242 0.270309
0.085665 -0.059965 0.269086
0.086446 -0.059620 0.267560
0.087294 -0.059331 0.266280
0.087996 -0.058953 0.264594
0.088766 -0.058630 0.263153
0.089803 -0.058490 0.262530
0.090802 -0.058329 0.261807
0.091646 -0.058074 0.260662
0.092635 -0.057917 0.259948
0.093528 -0.057705 0.258983
0.094475 -0.057531 0.258186
0.095363 -0.057326 0.257242
0.096011 -0.056983 0.255679
0.096777 -0.056719 0.254461
0.097570 -0.056477 0.253336
0.098150 -0.056118 0.251686
0.098525 -0.055653 0.249551
0.099276 -0.055409 0.248403
0.100027 -0.055170 0.247273
0.101018 -0.055067 0.246747
0.101666 -0.054782 0.245400
0.101956 -0.054313 0.243221
0.102984 -0.054243 0.242824
0.103816 -0.054073 0.241970
0.104371 -0.053763 0.240488
0.105224 -0.053613 0.239708
0.105956 -0.053404 0.238664
0.106814 -0.053263 0.237913
0.107525 -0.053052 0.236845
0.108359 -0.052906 0.236057
0.109231 -0.052780 0.235355
0.109655 -0.052444 0.233704
0.109969 -0.052062 0.231842
0.110317 -0.051703 0.230078
0.110574 -0.051309 0.228152
0.111332 -0.051153 0.227275
0.112114 -0.051012 0.226452
0.112472 -0.050681 0.224782
0.112899 -0.050388 0.223270
0.113133 -0.050015 0.221397
0.114029 -0.049939 0.220828
0.114523 -0.049690 0.219483
0.114959 -0.049420 0.218040
-1.496123 -0.615286 2.798046
-1.485668 -0.616466 2.806405
-1.475526 -0.617799 2.815328
-1.463529 -0.618374 2.820664
-1.455005 -0.620441 2.832681
-1.446233 -0.622441 2.844277
-1.437056 -0.624303 2.855129
-1.426924 -0.625782 2.864119
-1.420448 -0.628909 2.880547
-1.418969 -0.634331 2.907395
-1.406851 -0.635056 2.912624
-1.398289 -0.637418 2.925253
-1.361363 -0.639516 2.939646
-1.382425 -0.656082 3.017220
-1.352659 -0.648621 2.984211
-1.360396 -0.659175 3.034003
-1.436721 -0.703540 3.239418
-1.423466 -0.704521 3.245052
-1.422126 -0.711484 3.278161
-1.410477 -0.713387 3.287874
-1.401403 -0.716650 3.303769
-1.392155 -0.719896 3.319510
-1.379633 -0.721505 3.327615
-1.368210 -0.723732 3.338496
-1.354010 -0.724525 3.342685
-1.340502 -0.725712 3.348613
-1.326976 -0.726918 3.354557
-1.312761 -0.727772 3.358800
-1.301870 -0.730513 3.371679
-1.289103 -0.732256 3.379889
-1.277888 -0.734936 3.392353
-1.267692 -0.738277 3.407806
-1.257275 -0.741574 3.422992
-1.248857 -0.746152 3.444028
-1.241273 -0.751354 3.467887
-1.230636 -0.754824 3.483686
-1.235862 -0.768248 3.545370
-1.220999 -0.769382 3.550270
-0.558839 -0.362035 1.670204
-0.548766 -0.360576 1.663247
-0.558805 -0.372482 1.717909
-0.551529 -0.373027 1.720141
-0.544268 -0.373598 1.722474
-0.544378 -0.379323 1.748544
-0.542302 -0.383678 1.768269
-0.534746 -0.384231 1.770449
-0.485101 -0.365666 1.683756
-0.292463 -0.363130 1.660135
-0.279622 -0.356815 1.630754
-0.273266 -0.358650 1.638635
-0.267499 -0.361389 1.650642
-0.260882 -0.363112 1.658004
-0.253075 -0.363235 1.658067
-0.245731 -0.364052 1.661306
-0.238306 -0.364800 1.664231
-0.231166 -0.366052 1.669463
-0.223871 -0.367139 1.673944
-0.216362 -0.367943 1.677143
-0.208870 -0.368840 1.680775
-0.201481 -0.369998 1.685606
-0.193938 -0.370958 1.689538
-0.186337 -0.371888 1.693345
-0.178534 -0.372479 1.695618
-0.170992 -0.373701 1.700770
-0.163330 -0.374767 1.705227
-0.155354 -0.375190 1.706765
-0.147623 -0.376284 1.711370
-0.139722 -0.377051 1.714500
-0.131596 -0.377267 1.715136
-0.123789 -0.378490 1.720366
-0.151564 -0.496431 2.256034
-0.129437 -0.494421 2.246130
-0.118104 -0.492023 2.234888
-0.106545 -0.488111 2.216794
-0.095540 -0.486155 2.207602
-0.084769 -0.485057 2.202333
-0.073318 -0.479202 2.175492
-0.062581 -0.476846 2.164563
-0.052108 -0.475979 2.160411
-0.041326 -0.471152 2.138315
-0.030752 -0.466311 2.116174
-0.020384 -0.461361 2.093570
-0.010207 -0.455362 2.066224
-0.000293 -0.452112 2.051379
0.009525 -0.450986 2.046194
0.019247 -0.448736 2.035929
0.029015 -0.448720 2.035817
0.005815 -0.067275 0.305220
0.007250 -0.067000 0.303975
0.008678 -0.066763 0.302901
0.010146 -0.066860 0.303348
0.011584 -0.066759 0.302902
0.013015 -0.066642 0.302383
0.014450 -0.066567 0.302058
0.015875 -0.066464 0.301608
0.017309 -0.066410 0.301387
0.018775 -0.066482 0.301738
0.020258 -0.066597 0.302287
0.021767 -0.066774 0.303121
0.023228 -0.066795 0.303248
0.024669 -0.066755 0.303102
0.026142 -0.066804 0.303362
0.027561 -0.066716 0.303002
0.029064 -0.066831 0.303568
0.030532 -0.066857 0.303731
0.032037 -0.066959 0.304241
0.033486 -0.066938 0.304197
0.034943 -0.066935 0.304236
0.036330 -0.066803 0.303688
0.037801 -0.066831 0.303873
0.039259 -0.066834 0.303942
0.040719 -0.066840 0.304030
0.042198 -0.066876 0.304253
0.043594 -0.066781 0.303881
0.045014 -0.066729 0.303712
0.046341 -0.066546 0.302942
0.047716 -0.066441 0.302532
0.049224 -0.066522 0.302968
0.050579 -0.066397 0.302464
0.051966 -0.066320 0.302182
0.053510 -0.066442 0.302810
0.054818 -0.066272 0.302105
0.056259 -0.066268 0.302161
0.057948 -0.066549 0.303510
0.059235 -0.066365 0.302744
0.060405 -0.066062 0.301434
0.061699 -0.065906 0.300792
0.063040 -0.065806 0.300408
0.064391 -0.065720 0.300088
0.065639 -0.065535 0.299313
0.066766 -0.065241 0.298038
0.067953 -0.065015 0.297075
0.068770 -0.064452 0.294571
0.069963 -0.064256 0.293744
0.071098 -0.064017 0.292713
0.072085 -0.063655 0.291123
0.073192 -0.063412 0.290072
0.074437 -0.063294 0.289596
0.075347 -0.062902 0.287859
0.076181 -0.062461 0.285896
0.077112 -0.062113 0.284358
0.078073 -0.061801 0.282984
0.079132 -0.061576 0.282004
0.079930 -0.061159 0.280139
0.080302 -0.060435 0.276866
0.081138 -0.060078 0.275273
0.082075 -0.059805 0.274063
0.083083 -0.059593 0.273125
0.083863 -0.059225 0.271474
0.084678 -0.058894 0.269982
0.085607 -0.058650 0.268891
0.086255 -0.058223 0.266958
0.087024 -0.057890 0.265447
0.087839 -0.057596 0.264116
0.088775 -0.057388 0.263176
0.089611 -0.057123 0.261964
0.090447 -0.056864 0.260784
0.091316 -0.056634 0.259727
0.092402 -0.056542 0.259299
0.093307 -0.056343 0.258378
0.093954 -0.055996 0.256772
0.094914 -0.055842 0.256045
0.095956 -0.055739 0.255549
0.096643 -0.055436 0.254129
0.097437 -0.055200 0.253014
0.098016 -0.054849 0.251367
0.098447 -0.054426 0.249381
0.099246 -0.054213 0.248357
0.100033 -0.053999 0.247321
0.100896 -0.053830 0.246485
0.101771 -0.053672 0.245692
0.102515 -0.053449 0.244596
0.103133 -0.053166 0.243219
0.104090 -0.053062 0.242657
0.104789 -0.052830 0.241502
0.105539 -0.052629 0.240481
0.106211 -0.052394 0.239297
0.107057 -0.052248 0.238515
0.107807 -0.052059 0.237530
0.108565 -0.051878 0.236573
0.109385 -0.051730 0.235758
0.110072 -0.051523 0.234665
0.110551 -0.051223 0.233144
0.110983 -0.050908 0.231546
0.111160 -0.050483 0.229443
0.111657 -0.050211 0.228023
0.112200 -0.049964 0.226713
0.112855 -0.049772 0.225639
0.113101 -0.049404 0.223764
0.113348 -0.049044 0.221916
0.114243 -0.048968 0.221345
0.114885 -0.048786 0.220284
0.115420 -0.048563 0.219023
-1.497729 -0.602530 2.802285
-1.488304 -0.604108 2.812574
-1.477485 -0.605145 2.820211
-1.464741 -0.605406 2.824097
-1.456410 -0.607513 2.836472
-1.446213 -0.608874 2.845249
-1.438909 -0.611491 2.859783
-1.430707 -0.613774 2.872644
-1.421864 -0.615823 2.884309
-1.412548 -0.617705 2.895090
-1.409759 -0.622507 2.919460
-1.398862 -0.623789 2.927228
-1.389394 -0.638466 3.000847
-1.377136 -0.639334 3.006307
-1.379788 -0.647216 3.044663
-1.392159 -0.659870 3.105412
-1.421946 -0.681136 3.206652
-1.430286 -0.692474 3.261117
-1.419611 -0.694754 3.272844
-1.412221 -0.698709 3.292382
-1.405016 -0.702844 3.312689
-1.391405 -0.703833 3.318085
-1.379864 -0.705903 3.328498
-1.367707 -0.707703 3.337555
-1.354175 -0.708825 3.343341
-1.340167 -0.709723 3.347989
-1.327663 -0.711448 3.356468
-1.312816 -0.711945 3.359077
-1.301522 -0.714405 3.370879
-1.290416 -0.717030 3.383394
-1.278565 -0.719302 3.394176
-1.268060 -0.722399 3.408784
-1.259188 -0.726518 3.428154
-1.247398 -0.729039 3.439919
-1.240202 -0.734347 3.464776
-1.231112 -0.738661 3.484878
-1.227500 -0.746422 3.521185
-1.222130 -0.753313 3.553325
-0.559370 -0.354481 1.671646
-0.546059 -0.350978 1.654884
-0.540187 -0.352224 1.660497
-0.541304 -0.358132 1.688055
-0.544810 -0.365819 1.723972
-0.292849 -0.355675 1.661680
-0.282393 -0.352487 1.646259
-0.276180 -0.354564 1.655435
-0.269166 -0.355705 1.660243
-0.261928 -0.356610 1.663953
-0.254171 -0.356845 1.664538
-0.246329 -0.356971 1.664622
-0.238715 -0.357447 1.666345
-0.231250 -0.358189 1.669311
-0.223878 -0.359132 1.673226
-0.216329 -0.359852 1.676104
-0.208934 -0.360894 1.680493
-0.201491 -0.361932 1.684871
-0.194037 -0.363039 1.689576
-0.186339 -0.363765 1.692515
-0.178631 -0.364538 1.695686
-0.171050 -0.365655 1.700470
-0.163508 -0.366974 1.706200
-0.155747 -0.367914 1.710179
-0.147991 -0.368971 1.714710
-0.140099 -0.369796 1.718179
-0.132189 -0.370671 1.721893
-0.123980 -0.370773 1.722032
-0.115851 -0.371145 1.723436
-0.107928 -0.372287 1.728432
-0.129642 -0.484346 2.248312
-0.116037 -0.472802 2.194377
-0.105970 -0.474816 2.203396
-0.095122 -0.473389 2.196465
-0.084189 -0.471134 2.185718
-0.073154 -0.467588 2.169007
-0.062792 -0.467888 2.170159
-0.051924 -0.463789 2.150932
-0.041070 -0.457826 2.123088
-0.030674 -0.454710 2.108470
-0.020401 -0.451272 2.092383
-0.010219 -0.445118 2.063725
-0.000313 -0.444586 2.061161
0.009522 -0.441885 2.048561
0.019210 -0.438558 2.033081
0.028969 -0.438541 2.032968
0.005812 -0.065807 0.305061
0.007278 -0.065825 0.305149
0.008665 -0.065236 0.302421
0.010163 -0.065532 0.303798
0.011620 -0.065520 0.303756
0.013048 -0.065371 0.303077
0.014513 -0.065412 0.303286
0.015932 -0.065262 0.302609
0.017400 -0.065318 0.302890
0.018869 -0.065368 0.303147
0.020327 -0.065376 0.303212
0.021832 -0.065524 0.303930
0.023307 -0.065569 0.304173
0.024782 -0.065610 0.304399
0.026293 -0.065734 0.305011
0.027748 -0.065714 0.304960
0.029227 -0.065749 0.305169
0.030732 -0.065835 0.305612
0.032189 -0.065817 0.305578
0.033656 -0.065819 0.305640
0.035210 -0.065984 0.306459
0.036593 -0.065828 0.305789
0.038158 -0.065999 0.306642
0.039472 -0.065739 0.305494
0.040919 -0.065710 0.305418
0.042515 -0.065915 0.306434
0.043776 -0.065605 0.305058
0.045084 -0.065381 0.304083
0.046484 -0.065302 0.303782
0.047582 -0.064816 0.301589
0.048885 -0.064629 0.300786
0.050313 -0.064613 0.300783
0.051643 -0.064477 0.300219
0.053105 -0.064507 0.300431
0.054506 -0.064464 0.300302
0.055781 -0.064278 0.299510
0.057876 -0.065022 0.303050
0.059261 -0.064952 0.302797
0.060440 -0.064664 0.301528
0.061759 -0.064536 0.301007
0.062991 -0.064326 0.300099
0.064404 -0.064306 0.300077
0.065651 -0.064123 0.299299
0.066615 -0.063678 0.297295
0.067651 -0.063319 0.295689
0.068834 -0.063109 0.294779
0.069818 -0.062730 0.293076
0.071006 -0.062545 0.292277
0.072158 -0.062335 0.291362
0.073121 -0.061973 0.289737
0.074146 -0.061676 0.288412
0.074921 -0.061186 0.286179
0.075828 -0.060820 0.284526
0.076918 -0.060610 0.283599
0.077861 -0.060293 0.282173
0.078723 -0.059926 0.280507
0.079774 -0.059713 0.279559
0.080434 -0.059218 0.277290
0.081073 -0.058724 0.275020
0.082326 -0.058684 0.274872
0.083111 -0.058317 0.273190
0.083724 -0.057842 0.271001
0.084416 -0.057435 0.269127
0.085334 -0.057192 0.268016
0.086234 -0.056943 0.266877
0.086933 -0.056572 0.265157
0.087902 -0.056384 0.264294
0.088655 -0.056065 0.262813
0.089632 -0.055894 0.262022
0.090439 -0.055624 0.260760
0.091422 -0.055467 0.260029
0.092397 -0.055310 0.259290
0.093158 -0.055031 0.257973
0.094040 -0.054829 0.257015
0.094763 -0.054541 0.255651
0.095795 -0.054436 0.255135
0.096645 -0.054231 0.254151
0.097245 -0.053893 0.252535
0.097950 -0.053621 0.251222
0.098579 -0.053314 0.249742
0.099356 -0.053093 0.248661
0.100156 -0.052890 0.247655
0.101017 -0.052723 0.246815
0.101847 -0.052544 0.245912
0.102665 -0.052363 0.244993
0.103417 -0.052153 0.243933
0.104184 -0.051955 0.242922
0.105046 -0.051808 0.242143
0.105734 -0.051580 0.240977
0.106443 -0.051367 0.239874
0.107248 -0.051203 0.238997
0.108098 -0.051065 0.238231
0.108804 -0.050862 0.237157
0.109678 -0.050741 0.236456
0.110527 -0.050611 0.235706
0.111073 -0.050346 0.234318
0.111372 -0.049976 0.232435
0.111636 -0.049597 0.230504
0.112105 -0.049317 0.229022
0.112509 -0.049013 0.227423
0.113066 -0.048781 0.226151
0.113489 -0.048496 0.224625
0.113787 -0.048164 0.222871
0.114386 -0.047964 0.221721
0.114948 -0.047752 0.220506
0.115532 -0.047553 0.219343
-1.499209 -0.589697 2.806244
-1.488900 -0.590894 2.814845
-1.478091 -0.591914 2.822468
-1.464998 -0.592030 2.825649
-1.453697 -0.592880 2.832201
-1.445509 -0.595028 2.844837
-1.439915 -0.598294 2.862717
-1.429253 -0.599497 2.870619
-1.416027 -0.599639 2.873321
-1.431984 -0.612261 2.935751
-1.430158 -0.617452 2.962497
-1.418053 -0.618266 2.968140
-1.411235 -0.640576 3.081362
-1.424909 -0.653497 3.144815
-1.412083 -0.654409 3.150405
-1.428414 -0.668997 3.221760
-1.415564 -0.670084 3.228032
-1.418801 -0.678894 3.271423
-1.413938 -0.683979 3.296796
-1.402980 -0.686196 3.308265
-1.392247 -0.688575 3.320431
-1.380583 -0.690542 3.330531
-1.368909 -0.692550 3.340752
-1.355394 -0.693663 3.346576
-1.341902 -0.694815 3.352512
-1.327093 -0.695304 3.355177
-1.312561 -0.695953 3.358537
-1.299038 -0.697160 3.364523
-1.287645 -0.699554 3.376168
-1.276243 -0.702004 3.388017
-1.264805 -0.704496 3.400005
-1.255323 -0.708155 3.417566
-1.239436 -0.708251 3.417862
-1.233340 -0.714017 3.445466
-1.226763 -0.719656 3.472393
-1.228607 -0.730453 3.524147
-0.559893 -0.346909 1.673059
-0.543883 -0.341791 1.648124
-0.549085 -0.350050 1.687665
-0.541948 -0.350570 1.689862
-0.301523 -0.348636 1.665853
-0.293923 -0.349018 1.667131
-0.286484 -0.349616 1.669445
-0.278421 -0.349467 1.668193
-0.271824 -0.351203 1.675945
-0.263846 -0.351207 1.675432
-0.255675 -0.350947 1.673670
-0.247749 -0.351018 1.673491
-0.239792 -0.351047 1.673123
-0.232242 -0.351697 1.675722
-0.224403 -0.351940 1.676384
-0.217096 -0.353067 1.681270
-0.209570 -0.353910 1.684811
-0.202041 -0.354818 1.688664
-0.194532 -0.355836 1.693053
-0.186841 -0.356598 1.696235
-0.179090 -0.357310 1.699185
-0.171497 -0.358420 1.704041
-0.163850 -0.359523 1.708875
-0.155986 -0.360241 1.711888
-0.148273 -0.361409 1.717052
-0.140259 -0.361939 1.719199
-0.132336 -0.362783 1.722854
-0.124302 -0.363417 1.725519
-0.116282 -0.364187 1.728846
-0.108095 -0.364512 1.730078
-0.100049 -0.365408 1.734034
-0.116220 -0.462931 2.196471
-0.106140 -0.464905 2.205501
-0.093509 -0.454907 2.157767
-0.083538 -0.456980 2.167312
-0.072412 -0.452426 2.145454
-0.062026 -0.451753 2.142023
-0.051448 -0.449138 2.129407
-0.041073 -0.447452 2.121221
-0.030484 -0.441561 2.093127
-0.020266 -0.437901 2.075631
-0.010250 -0.435721 2.065179
-0.000331 -0.433413 2.054140
0.009487 -0.431344 2.044252
0.019220 -0.429453 2.035238
0.028994 -0.429437 2.035125
0.005827 -0.064544 0.305877
0.007295 -0.064536 0.305838
0.008714 -0.064167 0.304097
0.010185 -0.064227 0.304385
0.011637 -0.064171 0.304130
0.013077 -0.064071 0.303674
0.014526 -0.064027 0.303481
0.016000 -0.064092 0.303810
0.017472 -0.064139 0.304055
0.018931 -0.064132 0.304048
0.020403 -0.064169 0.304251
0.021920 -0.064333 0.305063
0.023373 -0.064300 0.304937
0.024876 -0.064399 0.305447
0.026352 -0.064423 0.305599
0.027811 -0.064404 0.305554
0.029271 -0.064389 0.305527
0.030737 -0.064387 0.305565
0.032212 -0.064403 0.305690
0.033757 -0.064552 0.306453
0.035262 -0.064615 0.306806
0.036697 -0.064550 0.306552
0.038181 -0.064573 0.306720
0.039586 -0.064465 0.306271
0.041064 -0.064480 0.306403
0.042614 -0.064602 0.307048
0.044015 -0.064498 0.306622
0.045402 -0.064381 0.306133
0.046816 -0.064308 0.305854
0.048102 -0.064070 0.304790
0.049368 -0.063819 0.303668
0.050796 -0.063785 0.303579
0.052198 -0.063723 0.303355
0.053192 -0.063178 0.300839
0.055109 -0.063729 0.303536
0.056502 -0.063663 0.303294
0.057863 -0.063564 0.302900
0.059323 -0.063575 0.303030
0.060495 -0.063285 0.301724
0.061760 -0.063104 0.300934
0.063153 -0.063058 0.300794
0.064400 -0.062872 0.299982
0.065731 -0.062775 0.299594
0.066643 -0.062290 0.297352
0.067463 -0.061741 0.294801
0.068591 -0.061490 0.293675
0.069740 -0.061268 0.292687
0.070825 -0.060999 0.291470
0.072029 -0.060841 0.290787
0.072996 -0.060493 0.289186
0.074021 -0.060205 0.287875
0.074624 -0.059590 0.284998
0.075646 -0.059325 0.283794
0.076674 -0.059076 0.282658
0.077555 -0.058722 0.281024
0.078523 -0.058446 0.279758
0.079604 -0.058261 0.278925
0.080546 -0.057983 0.277640
0.081545 -0.057754 0.276591
0.082118 -0.057235 0.274151
0.082754 -0.056776 0.271991
0.083503 -0.056407 0.270261
0.084271 -0.056062 0.268642
0.085039 -0.055727 0.267068
0.086035 -0.055549 0.266245
0.086834 -0.055251 0.264840
0.087633 -0.054962 0.263474
0.088570 -0.054766 0.262553
0.089424 -0.054525 0.261409
0.090301 -0.054304 0.260358
0.091170 -0.054084 0.259309
0.092217 -0.053975 0.258786
0.093135 -0.053794 0.257913
0.093749 -0.053444 0.256228
0.094724 -0.053307 0.255555
0.095721 -0.053185 0.254951
0.096498 -0.052945 0.253780
0.097089 -0.052611 0.252148
0.097758 -0.052326 0.250749
0.098414 -0.052042 0.249347
0.099390 -0.051931 0.248771
0.100185 -0.051729 0.247756
0.100926 -0.051505 0.246625
0.101905 -0.051406 0.246088
0.102710 -0.051222 0.245138
0.103328 -0.050950 0.243761
0.104342 -0.050878 0.243333
0.105269 -0.050764 0.242703
0.105786 -0.050458 0.241143
0.106542 -0.050271 0.240148
0.107371 -0.050123 0.239328
0.108046 -0.049906 0.238174
0.108795 -0.049727 0.237196
0.109563 -0.049561 0.236271
0.110420 -0.049438 0.235544
0.111074 -0.049228 0.234391
0.111705 -0.049011 0.233202
0.112099 -0.048696 0.231537
0.112469 -0.048377 0.229842
0.112871 -0.048077 0.228237
0.113451 -0.047859 0.227007
0.113635 -0.047479 0.225001
0.113998 -0.047180 0.223376
0.114772 -0.047056 0.222563
0.115280 -0.046825 0.221241
0.115757 -0.046587 0.219872
-1.493359 -0.574021 2.796437
-1.482942 -0.575129 2.804679
-1.472586 -0.576281 2.813010
-1.460123 -0.576624 2.817256
-1.450083 -0.577939 2.826130
-1.441942 -0.580043 2.838747
-1.432878 -0.581813 2.849618
-1.425027 -0.584113 2.862984
-1.418112 -0.586846 2.878367
-1.417775 -0.592381 2.907406
-1.417592 -0.598090 2.937217
-1.435180 -0.636609 3.134240
-1.422418 -0.637498 3.139872
-1.426805 -0.646173 3.183774
-1.443066 -0.660466 3.255302
-1.431658 -0.662268 3.265192
-1.421481 -0.664685 3.278026
-1.418061 -0.670350 3.306796
-1.408466 -0.673189 3.321551
-1.395106 -0.674273 3.327560
-1.384846 -0.676897 3.341091
-1.370809 -0.677715 3.345628
-1.358186 -0.679259 3.353671
-1.343865 -0.679982 3.357580
-1.330131 -0.681022 3.362988
-1.315101 -0.681417 3.365132
-1.301526 -0.682584 3.371024
-1.289332 -0.684515 3.380615
-1.278332 -0.687135 3.393550
-1.267281 -0.689795 3.406613
-1.257350 -0.693141 3.423000
-1.243578 -0.694429 3.429165
-1.233706 -0.697958 3.446334
-1.229187 -0.704651 3.479064
-0.315773 -0.347653 1.699854
-0.301135 -0.340246 1.663079
-0.296608 -0.344172 1.681707
-0.289725 -0.345506 1.687665
-0.281037 -0.344704 1.683190
-0.273551 -0.345372 1.685906
-0.265833 -0.345779 1.687347
-0.257755 -0.345729 1.686567
-0.249859 -0.345929 1.687013
-0.241341 -0.345253 1.683195
-0.233875 -0.346087 1.686750
-0.225993 -0.346344 1.687497
-0.218253 -0.346845 1.689445
-0.210725 -0.347737 1.693303
-0.203006 -0.348372 1.695920
-0.195354 -0.349180 1.699390
-0.187555 -0.349785 1.701880
-0.179764 -0.350462 1.704727
-0.171968 -0.351192 1.707847
-0.164154 -0.351959 1.711158
-0.156234 -0.352567 1.713710
-0.148362 -0.353359 1.717169
-0.140292 -0.353744 1.718662
-0.132387 -0.354621 1.722562
-0.124433 -0.355474 1.726355
-0.116389 -0.356177 1.729438
-0.108485 -0.357448 1.735291
-0.100724 -0.359445 1.744682
-0.092917 -0.361622 1.754960
-0.084495 -0.361605 1.754606
-0.076591 -0.364049 1.766210
-0.083674 -0.447202 2.169345
-0.072533 -0.442747 2.147468
-0.061352 -0.436541 2.117130
-0.050983 -0.434788 2.108412
-0.040439 -0.430319 2.086549
-0.030339 -0.429194 2.080925
-0.020185 -0.425830 2.064472
-0.010201 -0.423008 2.050665
-0.000347 -0.419591 2.034000
0.009459 -0.421097 2.041225
0.019267 -0.421094 2.041157
0.004305 -0.062343 0.302187
0.005840 -0.063245 0.306561
0.007320 -0.063305 0.306853
0.008733 -0.062861 0.304705
0.010213 -0.062954 0.305163
0.011671 -0.062912 0.304970
0.013150 -0.062972 0.305276
0.014567 -0.062756 0.304245
0.016046 -0.062824 0.304594
0.017517 -0.062851 0.304751
0.019048 -0.063069 0.305833
0.020505 -0.063031 0.305679
0.022031 -0.063196 0.306512
0.023482 -0.063137 0.306262
0.024934 -0.063086 0.306056
0.026395 -0.063064 0.305989
0.027838 -0.063004 0.305740
0.029231 -0.062842 0.304999
0.030670 -0.062790 0.304799
0.032135 -0.062793 0.304864
0.033674 -0.062934 0.305599
0.035173 -0.062990 0.305928
0.036606 -0.062929 0.305692
0.038140 -0.063041 0.306295
0.039651 -0.063106 0.306675
0.040950 -0.062842 0.305454
0.042316 -0.062694 0.304802
0.043779 -0.062697 0.304882
0.045458 -0.062997 0.306412
0.046873 -0.062925 0.306133
0.048161 -0.062691 0.305068
0.049428 -0.062445 0.303944
0.050857 -0.062412 0.303854
0.052261 -0.062350 0.303630
0.055174 -0.062356 0.303809
0.056283 -0.061976 0.302035
0.057822 -0.062076 0.302602
0.059238 -0.062042 0.302513
0.060367 -0.061717 0.301007
0.061746 -0.061656 0.300788
0.062925 -0.061403 0.299633
0.063993 -0.061056 0.298013
0.065280 -0.060928 0.297466
0.066411 -0.060662 0.296244
0.067484 -0.060357 0.294828
0.068550 -0.060057 0.293436
0.069751 -0.059885 0.292668
