ply
format ascii 1.0
element vertex 1692
property float x
property float y
property float z
end_header
0.069085 -0.067099 0.187631
0.069817 -0.066939 0.187089
0.070471 -0.066710 0.186351
0.071427 -0.066769 0.186410
0.072600 -0.067027 0.187021
0.073711 -0.067222 0.187450
0.074721 -0.067321 0.187604
0.075438 -0.067156 0.187019
0.076231 -0.067063 0.186627
0.076874 -0.066841 0.185870
0.077473 -0.066586 0.185017
0.078269 -0.066505 0.184641
0.078857 -0.066251 0.183777
0.079386 -0.065953 0.182788
0.080231 -0.065921 0.182530
0.080979 -0.065812 0.182048
0.081462 -0.065491 0.180975
0.082049 -0.065260 0.180145
0.082690 -0.065076 0.179438
0.082979 -0.064622 0.177977
0.083269 -0.064178 0.176539
0.083752 -0.063891 0.175526
0.083670 -0.063182 0.173348
0.084478 -0.063153 0.173030
0.085514 -0.063293 0.173163
0.086581 -0.063453 0.173340
0.087919 -0.063806 0.174031
0.088629 -0.063702 0.173461
0.089459 -0.063685 0.173118
0.090324 -0.063692 0.172829
0.091146 -0.063670 0.172447
0.091378 -0.063239 0.170947
0.092074 -0.063134 0.170319
-0.063811 -0.102770 0.294317
-0.062517 -0.102923 0.294734
-0.061216 -0.103071 0.295135
-0.059802 -0.103032 0.295000
-0.058111 -0.102503 0.293459
-0.056603 -0.102277 0.292786
-0.055076 -0.102006 0.291983
-0.053511 -0.101650 0.290934
-0.052089 -0.101553 0.290628
-0.051065 -0.102247 0.292583
-0.049836 -0.102560 0.293446
-0.048419 -0.102492 0.293220
-0.047372 -0.103227 0.295290
-0.046131 -0.103569 0.296236
-0.044774 -0.103665 0.296477
-0.043506 -0.103981 0.297347
-0.041754 -0.103123 0.294860
-0.041229 -0.105341 0.301166
-0.032520 -0.086057 0.246006
-0.031377 -0.086112 0.246135
-0.029989 -0.085471 0.244275
-0.028760 -0.085250 0.243615
-0.027659 -0.085406 0.244033
-0.026528 -0.085479 0.244215
-0.031459 -0.105984 0.302766
-0.029890 -0.105501 0.301352
-0.028616 -0.106062 0.302923
-0.026923 -0.105047 0.299992
-0.025737 -0.106009 0.302707
-0.024424 -0.106532 0.304172
-0.023005 -0.106626 0.304409
-0.021573 -0.106673 0.304513
-0.020253 -0.107319 0.306329
-0.018809 -0.107356 0.306408
-0.012912 -0.106593 0.304130
-0.011208 -0.104142 0.297114
-0.009697 -0.103050 0.293979
-0.008249 -0.102379 0.292045
-0.006852 -0.102174 0.291443
-0.005450 -0.101800 0.290359
-0.004056 -0.101363 0.289095
-0.002676 -0.101014 0.288086
-0.001306 -0.100664 0.287073
0.000055 -0.100022 0.285232
0.001396 -0.099163 0.282769
0.002723 -0.098657 0.281315
0.004026 -0.097888 0.279114
0.005302 -0.097010 0.276604
0.006592 -0.096692 0.275690
0.007830 -0.095835 0.273241
0.009080 -0.095348 0.271848
0.010320 -0.094886 0.270528
0.011556 -0.094494 0.269408
0.012759 -0.093940 0.267826
0.013985 -0.093640 0.266970
0.015169 -0.093133 0.265524
0.016305 -0.092425 0.263507
0.017394 -0.091575 0.261086
0.018515 -0.090995 0.259434
0.019746 -0.090992 0.259429
0.020842 -0.090404 0.257756
0.021942 -0.089898 0.256319
0.023011 -0.089325 0.254689
0.024156 -0.089091 0.254026
0.025325 -0.088959 0.253657
0.026481 -0.088799 0.253207
0.027611 -0.088570 0.252560
0.028772 -0.088453 0.252233
0.029901 -0.088251 0.251666
0.031003 -0.087987 0.250921
0.032064 -0.087631 0.249913
0.033160 -0.087393 0.249241
0.034241 -0.087132 0.248504
0.035283 -0.086794 0.247547
0.036319 -0.086462 0.246609
0.037376 -0.086200 0.245869
0.038380 -0.085834 0.244832
0.039453 -0.085642 0.244290
0.040416 -0.085225 0.243107
0.041393 -0.084863 0.242078
0.042449 -0.084677 0.241554
0.043407 -0.084309 0.240508
0.044365 -0.083962 0.239523
0.045339 -0.083661 0.238666
0.046236 -0.083236 0.237455
0.047206 -0.082959 0.236665
0.047910 -0.082238 0.234609
0.048476 -0.081319 0.231986
0.048544 -0.079622 0.227142
0.049296 -0.079098 0.225644
0.049556 -0.077825 0.222006
0.048664 -0.074832 0.213461
0.049175 -0.074073 0.211290
0.049757 -0.073451 0.209507
0.050526 -0.073123 0.208558
0.051107 -0.072542 0.206890
0.051444 -0.071642 0.204309
0.052389 -0.071607 0.204191
0.052904 -0.070995 0.202429
0.053537 -0.070561 0.201172
0.054270 -0.070272 0.200327
0.055091 -0.070105 0.199824
0.055832 -0.069842 0.199050
0.056603 -0.069627 0.198408
0.057394 -0.069442 0.197849
0.058201 -0.069282 0.197358
0.059013 -0.069133 0.196897
0.059735 -0.068884 0.196148
0.060493 -0.068684 0.195537
0.061239 -0.068477 0.194902
0.061915 -0.068199 0.194062
0.062677 -0.068022 0.193507
0.063423 -0.067834 0.192916
0.064140 -0.067620 0.192247
0.064819 -0.067373 0.191484
0.065658 -0.067296 0.191200
0.066319 -0.067041 0.190405
0.066938 -0.066752 0.189512
0.067772 -0.066681 0.189233
0.068287 -0.066304 0.188079
0.069034 -0.066157 0.187577
0.069835 -0.066066 0.187228
0.070432 -0.065786 0.186340
0.071328 -0.065789 0.186249
0.072569 -0.066107 0.187043
0.073508 -0.066145 0.187038
0.074421 -0.066158 0.186959
0.075274 -0.066119 0.186725
0.075926 -0.065906 0.185996
0.076577 -0.065697 0.185274
0.077420 -0.065656 0.185017
0.078004 -0.065398 0.184144
0.078596 -0.065153 0.183303
0.079297 -0.065003 0.182720
0.080040 -0.064890 0.182237
0.080809 -0.064800 0.181811
0.081469 -0.064625 0.181140
0.082065 -0.064405 0.180334
0.082599 -0.064140 0.179397
0.083027 -0.063800 0.178243
0.083369 -0.063400 0.176917
0.083460 -0.062820 0.175082
0.082634 -0.061570 0.171375
0.083438 -0.061546 0.171077
0.084411 -0.061646 0.171113
0.084939 -0.061422 0.170241
0.086043 -0.061614 0.170513
0.087832 -0.062289 0.172104
0.088489 -0.062156 0.171450
0.089277 -0.062117 0.171043
0.090693 -0.062510 0.171813
0.091187 -0.062267 0.170820
0.091590 -0.061967 0.169660
-0.062828 -0.099812 0.289749
-0.062653 -0.101745 0.295336
-0.061387 -0.101954 0.295918
-0.059816 -0.101655 0.295022
-0.058094 -0.101079 0.293323
-0.057063 -0.101707 0.295117
-0.055632 -0.101635 0.294876
-0.054007 -0.101195 0.293570
-0.052641 -0.101233 0.293647
-0.051449 -0.101616 0.294723
-0.050123 -0.101747 0.295071
-0.049060 -0.102435 0.297031
-0.047658 -0.102435 0.296998
-0.046367 -0.102682 0.297675
-0.044734 -0.102162 0.296134
-0.043569 -0.102714 0.297697
-0.042193 -0.102786 0.297870
-0.033655 -0.084817 0.245767
-0.032013 -0.083562 0.242101
-0.030740 -0.083214 0.241062
-0.029672 -0.083414 0.241614
-0.028598 -0.083612 0.242159
-0.027409 -0.083480 0.241746
-0.026242 -0.083403 0.241497
-0.030708 -0.102039 0.295423
-0.029326 -0.102093 0.295544
-0.028536 -0.104318 0.301954
-0.026956 -0.103737 0.300238
-0.025397 -0.103178 0.298587
-0.024206 -0.104134 0.301323
-0.022742 -0.103964 0.300799
-0.021614 -0.105409 0.304950
-0.020292 -0.106048 0.306768
-0.015591 -0.087764 0.253855
-0.014394 -0.087793 0.253916
-0.012554 -0.102196 0.295499
-0.011156 -0.102220 0.295547
-0.009616 -0.100766 0.291322
-0.008224 -0.100633 0.290918
-0.006824 -0.100330 0.290022
-0.005440 -0.100162 0.289518
-0.004059 -0.099955 0.288903
-0.002682 -0.099701 0.288155
-0.001304 -0.098870 0.285740
0.000051 -0.098409 0.284396
0.001393 -0.097896 0.282900
0.002710 -0.096996 0.280291
0.004009 -0.096260 0.278156
0.005312 -0.095944 0.277236
0.006589 -0.095388 0.275623
0.007855 -0.094890 0.274178
0.009066 -0.093951 0.271461
0.010281 -0.093284 0.269530
0.011523 -0.092981 0.268652
0.012711 -0.092351 0.266829
0.013929 -0.092030 0.265904
0.015115 -0.091566 0.264563
0.016243 -0.090852 0.262501
0.017345 -0.090103 0.260342
0.018488 -0.089651 0.259037
0.019665 -0.089409 0.258344
0.020797 -0.089005 0.257179
0.021934 -0.088666 0.256205
0.023092 -0.088442 0.255565
0.024238 -0.088196 0.254860
0.025362 -0.087900 0.254013
0.026544 -0.087820 0.253790
0.027682 -0.087607 0.253183
0.028849 -0.087499 0.252879
0.029993 -0.087334 0.252411
0.031117 -0.087126 0.251818
0.032172 -0.086746 0.250730
0.033232 -0.086407 0.249760
0.034326 -0.086177 0.249103
0.035372 -0.085845 0.248151
0.036423 -0.085546 0.247296
0.037438 -0.085184 0.246259
0.038441 -0.084815 0.245203
0.039491 -0.084571 0.244504
0.040504 -0.084264 0.243627
0.041481 -0.083899 0.242578
0.042489 -0.083617 0.241770
0.043457 -0.083272 0.240777
0.044371 -0.082844 0.239548
0.045454 -0.082744 0.239262
0.046360 -0.082335 0.238084
0.047210 -0.081849 0.236682
0.048026 -0.081328 0.235178
0.048331 -0.079984 0.231290
0.048997 -0.079285 0.229268
0.048861 -0.077346 0.223661
0.049303 -0.076384 0.220876
0.049000 -0.074333 0.214942
0.049214 -0.073135 0.211471
0.049787 -0.072506 0.209646
0.050531 -0.072145 0.208595
0.051020 -0.071442 0.206552
0.051735 -0.071076 0.205481
0.052136 -0.070301 0.203226
0.052893 -0.070024 0.202410
0.053647 -0.069753 0.201610
0.054370 -0.069453 0.200722
0.055068 -0.069131 0.199772
0.055833 -0.068903 0.199088
0.056591 -0.068674 0.198401
0.057405 -0.068519 0.197924
0.058207 -0.068355 0.197418
0.058925 -0.068100 0.196647
0.059677 -0.067890 0.196003
0.060527 -0.067797 0.195696
0.061193 -0.067503 0.194806
0.061926 -0.067292 0.194152
0.062747 -0.067181 0.193781
0.063177 -0.066660 0.192225
0.063710 -0.066261 0.191021
0.064467 -0.066103 0.190507
0.065248 -0.065974 0.190073
0.065709 -0.065529 0.188724
0.066474 -0.065395 0.188269
0.067145 -0.065174 0.187558
0.067675 -0.064823 0.186470
0.068471 -0.064733 0.186129
0.069358 -0.064730 0.186035
0.070063 -0.064559 0.185453
0.070811 -0.064432 0.184992
0.072088 -0.064783 0.185899
0.073167 -0.064950 0.186270
0.074123 -0.065005 0.186314
0.074906 -0.064909 0.185921
0.075810 -0.064918 0.185824
0.076402 -0.064663 0.184965
0.077073 -0.064480 0.184305
0.077845 -0.064385 0.183892
0.078450 -0.064155 0.183087
0.079159 -0.064014 0.182531
0.079817 -0.063836 0.181862
0.080698 -0.063838 0.181700
0.081348 -0.063659 0.181013
0.081948 -0.063445 0.180223
0.082528 -0.063221 0.179396
0.082952 -0.062882 0.178237
0.083460 -0.062613 0.177270
0.083693 -0.062146 0.175736
0.083352 -0.061267 0.173030
0.084192 -0.061264 0.172795
0.085096 -0.061307 0.172678
0.085526 -0.061012 0.171600
0.086424 -0.061052 0.171456
0.087484 -0.061206 0.171619
0.088303 -0.061189 0.171290
0.089172 -0.061207 0.171050
0.089934 -0.061151 0.170591
0.090469 -0.060944 0.169696
0.091226 -0.060888 0.169213
-0.063625 -0.099685 0.293385
-0.063186 -0.101196 0.297805
-0.061703 -0.101067 0.297395
-0.060125 -0.100772 0.296497
-0.058780 -0.100863 0.296735
-0.057153 -0.100463 0.295525
-0.055720 -0.100392 0.295284
-0.054093 -0.099959 0.293977
-0.052726 -0.099998 0.294054
-0.051533 -0.100376 0.295133
-0.050088 -0.100273 0.294792
-0.048737 -0.100355 0.294998
-0.047916 -0.101568 0.298525
-0.046104 -0.100690 0.295906
-0.044899 -0.101125 0.297146
-0.043643 -0.101467 0.298113
-0.036116 -0.086767 0.254892
-0.033713 -0.083789 0.246111
-0.032049 -0.082498 0.242290
-0.030831 -0.082306 0.241695
-0.029763 -0.082512 0.242269
-0.028685 -0.082707 0.242812
-0.027487 -0.082559 0.242345
-0.026273 -0.082347 0.241693
-0.029916 -0.102704 0.301370
-0.028504 -0.102756 0.301489
-0.026844 -0.101873 0.298863
-0.025699 -0.102953 0.301996
-0.024256 -0.102901 0.301811
-0.022837 -0.102944 0.301907
-0.018176 -0.087406 0.256310
-0.016846 -0.086810 0.254539
-0.015266 -0.084734 0.248427
-0.014130 -0.084985 0.249139
-0.013083 -0.085859 0.251679
-0.011807 -0.085260 0.249901
-0.010632 -0.085334 0.250097
-0.011013 -0.099486 0.291552
-0.009609 -0.099264 0.290881
-0.008217 -0.099116 0.290426
-0.006842 -0.099155 0.290521
-0.005451 -0.098909 0.289785
-0.004069 -0.098745 0.289286
-0.002670 -0.097737 0.286317
-0.001308 -0.097489 0.285578
0.000047 -0.097499 0.285595
0.001380 -0.095906 0.280919
0.002693 -0.095208 0.278862
0.003974 -0.094189 0.275869
0.005270 -0.093954 0.275175
0.006531 -0.093318 0.273307
0.007783 -0.092778 0.271719
0.009041 -0.092442 0.270731
0.010275 -0.091985 0.269392
0.011489 -0.091469 0.267879
0.012661 -0.090749 0.265770
0.013885 -0.090503 0.265050
0.015037 -0.089867 0.263189
0.016225 -0.089527 0.262194
0.017381 -0.089070 0.260859
0.018532 -0.088652 0.259638
0.019623 -0.088012 0.257772
0.020811 -0.087860 0.257332
0.021953 -0.087541 0.256404
0.023084 -0.087215 0.255455
0.024210 -0.086901 0.254544
0.025400 -0.086835 0.254358
0.026554 -0.086658 0.253849
0.027699 -0.086471 0.253310
0.028872 -0.086380 0.253054
0.030034 -0.086266 0.252730
0.031130 -0.085978 0.251899
0.032197 -0.085634 0.250901
0.033260 -0.085303 0.249940
0.034376 -0.085128 0.249440
0.035432 -0.084820 0.248549
0.036476 -0.084504 0.247633
0.037532 -0.084234 0.246853
0.038575 -0.083953 0.246041
0.039541 -0.083525 0.244796
0.040626 -0.083366 0.244341
0.041664 -0.083123 0.243637
0.042647 -0.082784 0.242653
0.043471 -0.082162 0.240839
0.044441 -0.081844 0.239913
0.045441 -0.081593 0.239185
0.046497 -0.081452 0.238778
0.047415 -0.081083 0.237703
0.048312 -0.080697 0.236574
0.048659 -0.079428 0.232857
0.048772 -0.077844 0.228216
0.048538 -0.075785 0.222181
0.048826 -0.074613 0.218744
0.048805 -0.073027 0.214093
0.049484 -0.072532 0.212637
0.050034 -0.071870 0.210692
0.050618 -0.071283 0.208965
0.050967 -0.070394 0.206352
0.051446 -0.069715 0.204351
0.052016 -0.069181 0.202776
0.052897 -0.069073 0.202445
0.053570 -0.068703 0.201346
0.054314 -0.068434 0.200541
0.055044 -0.068157 0.199710
0.055804 -0.067927 0.199014
0.056626 -0.067778 0.198553
0.057337 -0.067503 0.197723
0.058134 -0.067337 0.197208
0.058965 -0.067214 0.196817
0.059597 -0.066872 0.195782
0.060388 -0.066717 0.195291
0.061147 -0.066531 0.194708
0.061805 -0.066242 0.193819
0.062402 -0.065898 0.192767
0.063150 -0.065721 0.192198
0.063790 -0.065438 0.191319
0.064387 -0.065119 0.190331
0.065203 -0.065028 0.190006
0.065742 -0.064666 0.188884
0.066441 -0.064470 0.188246
0.067195 -0.064331 0.187769
0.067789 -0.064045 0.186860
0.068496 -0.063872 0.186277
0.069212 -0.063711 0.185723
0.070071 -0.063684 0.185557
0.070739 -0.063487 0.184890
0.071628 -0.063490 0.184802
0.072906 -0.063834 0.185700
0.073925 -0.063945 0.185916
0.074777 -0.063911 0.185702
0.075330 -0.063625 0.184751
0.076164 -0.063581 0.184499
0.076859 -0.063422 0.183907
0.077523 -0.063242 0.183248
0.078277 -0.063138 0.182803
0.079097 -0.063090 0.182513
0.079754 -0.062914 0.181847
0.080476 -0.062792 0.181332
0.081229 -0.062697 0.180886
0.081783 -0.062452 0.180001
0.082285 -0.062173 0.179013
0.082820 -0.061924 0.178103
0.083354 -0.061679 0.177201
0.083670 -0.061280 0.175846
0.084049 -0.060935 0.174640
0.084491 -0.060641 0.173574
0.085300 -0.060614 0.173265
0.085915 -0.060452 0.172558
0.086592 -0.060335 0.171973
0.087499 -0.060379 0.171836
0.088245 -0.060313 0.171374
0.088936 -0.060210 0.170796
0.089748 -0.060191 0.170445
0.090136 -0.059889 0.169284
0.090571 -0.059625 0.168216
-0.065693 -0.099329 0.296463
-0.064358 -0.099426 0.296723
-0.063865 -0.100855 0.300959
-0.062811 -0.101444 0.302683
-0.061441 -0.101539 0.302932
-0.046058 -0.077929 0.232469
-0.045003 -0.078000 0.232652
-0.044169 -0.078468 0.234020
-0.042798 -0.077983 0.232544
-0.042000 -0.078542 0.234181
-0.040929 -0.078608 0.234349
-0.050288 -0.099264 0.295891
-0.048930 -0.099345 0.296092
-0.047352 -0.098969 0.294933
-0.046006 -0.099069 0.295191
-0.044975 -0.099876 0.297556
-0.037431 -0.085805 0.255600
-0.035636 -0.084416 0.251428
-0.033672 -0.082515 0.245732
-0.032232 -0.081808 0.243593
-0.031088 -0.081828 0.243622
-0.029989 -0.081973 0.244021
-0.028867 -0.082066 0.244266
-0.027752 -0.082185 0.244588
-0.026738 -0.082630 0.245879
-0.025624 -0.082788 0.246321
-0.028556 -0.101497 0.301910
-0.026893 -0.100625 0.299281
-0.025746 -0.101692 0.302419
-0.024302 -0.101641 0.302234
-0.019418 -0.086302 0.256593
-0.018210 -0.086337 0.256670
-0.016797 -0.085336 0.253668
-0.015509 -0.084866 0.252245
-0.014308 -0.084838 0.252137
-0.013121 -0.084887 0.252260
-0.011926 -0.084894 0.252258
-0.010789 -0.085363 0.253633
-0.010952 -0.097522 0.289736
-0.009590 -0.097651 0.290096
-0.008226 -0.097794 0.290500
-0.006824 -0.097450 0.289461
-0.005451 -0.097469 0.289498
-0.004072 -0.097344 0.289109
-0.002686 -0.096810 0.287509
-0.001314 -0.096297 0.285973
0.000043 -0.095671 0.284101
0.001378 -0.094768 0.281407
0.002685 -0.093760 0.278406
0.003997 -0.093519 0.277682
0.005270 -0.092730 0.275330
0.006526 -0.092002 0.273165
0.007787 -0.091573 0.271886
0.009032 -0.091110 0.270508
0.010266 -0.090665 0.269186
0.011450 -0.089922 0.266977
0.012669 -0.089573 0.265942
0.013876 -0.089213 0.264874
0.015040 -0.088656 0.263222
0.016200 -0.088167 0.261774
0.017338 -0.087633 0.260193
0.018499 -0.087278 0.259143
0.019645 -0.086901 0.258031
0.020819 -0.086687 0.257401
0.021888 -0.086083 0.255616
0.023108 -0.086103 0.255682
0.024228 -0.085767 0.254695
0.025397 -0.085632 0.254304
0.026596 -0.085600 0.254219
0.027731 -0.085377 0.253569
0.028903 -0.085282 0.253297
0.030060 -0.085151 0.252921
0.031193 -0.084962 0.252371
0.032294 -0.084707 0.251624
0.033369 -0.084404 0.250737
0.034445 -0.084123 0.249914
0.035504 -0.083820 0.249028
0.036589 -0.083594 0.248370
0.037577 -0.083170 0.247121
0.038635 -0.082922 0.246398
0.039733 -0.082771 0.245962
0.040750 -0.082465 0.245063
0.041773 -0.082187 0.244249
0.042768 -0.081871 0.243323
0.043646 -0.081353 0.241792
0.044446 -0.080721 0.239925
0.045513 -0.080591 0.239548
0.046678 -0.080638 0.239696
0.047668 -0.080389 0.238963
0.048560 -0.079988 0.237777
0.047969 -0.077219 0.229550
0.048387 -0.076160 0.226409
0.048367 -0.074473 0.221397
0.049283 -0.074270 0.220794
0.049046 -0.072372 0.215152
0.049554 -0.071629 0.212941
0.050155 -0.071047 0.211210
0.050704 -0.070416 0.209330
0.050867 -0.069283 0.205958
0.051343 -0.068612 0.203955
0.052063 -0.068285 0.202973
0.052857 -0.068065 0.202308
0.053621 -0.067816 0.201556
0.054247 -0.067403 0.200315
0.055016 -0.067179 0.199631
0.055735 -0.066902 0.198792
0.056502 -0.066693 0.198147
0.057301 -0.066526 0.197628
0.058048 -0.066306 0.196948
0.058804 -0.066102 0.196315
0.059542 -0.065885 0.195641
0.060310 -0.065708 0.195079
0.061024 -0.065478 0.194359
0.061785 -0.065304 0.193804
0.062470 -0.065056 0.193024
0.063175 -0.064835 0.192324
0.063927 -0.064669 0.191782
0.064505 -0.064334 0.190736
0.065136 -0.064061 0.189869
0.065821 -0.063847 0.189176
0.066411 -0.063548 0.188225
0.067129 -0.063377 0.187653
0.067785 -0.063154 0.186921
0.068356 -0.062858 0.185969
0.069152 -0.062773 0.185639
0.069881 -0.062632 0.185136
0.070556 -0.062445 0.184496
0.071576 -0.062564 0.184754
0.072640 -0.062719 0.185113
0.073650 -0.062824 0.185318
0.074376 -0.062687 0.184803
0.075162 -0.062603 0.184440
0.075843 -0.062434 0.183823
0.076601 -0.062333 0.183399
0.077367 -0.062240 0.182990
0.078051 -0.062084 0.182393
0.078825 -0.062002 0.182007
0.079481 -0.061829 0.181348
0.080210 -0.061717 0.180861
0.080990 -0.061646 0.180487
0.081591 -0.061441 0.179715
0.082211 -0.061256 0.178992
0.082751 -0.061014 0.178099
0.083298 -0.060783 0.177229
0.083820 -0.060539 0.176314
0.084159 -0.060168 0.175024
0.084478 -0.059792 0.173710
0.085206 -0.059708 0.173240
0.085951 -0.059638 0.172801
0.086464 -0.059411 0.171895
0.087230 -0.059359 0.171490
0.088062 -0.059353 0.171205
0.088429 -0.059037 0.170015
0.089071 -0.058908 0.169357
0.089600 -0.058708 0.168481
0.090030 -0.058447 0.167421
-0.065238 -0.097244 0.294364
-0.063718 -0.097042 0.293722
-0.063962 -0.099578 0.301364
-0.047526 -0.077430 0.234280
-0.046123 -0.076933 0.232748
-0.045148 -0.077143 0.233354
-0.043983 -0.077030 0.232982
-0.042939 -0.077131 0.233255
-0.041874 -0.077195 0.233419
-0.040827 -0.077300 0.233704
-0.046082 -0.097826 0.295594
-0.038515 -0.084317 0.254739
-0.037339 -0.084380 0.254894
-0.035379 -0.082616 0.249528
-0.033692 -0.081393 0.245798
-0.032204 -0.080576 0.243298
-0.031120 -0.080750 0.243790
-0.030055 -0.080987 0.244472
-0.028957 -0.081151 0.244932
-0.027881 -0.081394 0.245633
-0.026782 -0.081586 0.246180
-0.025670 -0.081756 0.246660
-0.024699 -0.082414 0.248612
-0.023506 -0.082359 0.248415
-0.022472 -0.082883 0.249964
-0.021398 -0.083314 0.251235
-0.020331 -0.083821 0.252733
-0.019195 -0.084089 0.253512
-0.018063 -0.084416 0.254470
-0.016820 -0.084231 0.253886
-0.015512 -0.083666 0.252155
-0.014328 -0.083733 0.252333
-0.013142 -0.083803 0.252520
-0.011944 -0.083799 0.252486
-0.010768 -0.083967 0.252969
-0.010968 -0.096254 0.289965
-0.009609 -0.096422 0.290446
-0.008266 -0.096833 0.291664
-0.006841 -0.096264 0.289931
-0.005458 -0.096146 0.289557
-0.004083 -0.096130 0.289493
-0.002697 -0.095713 0.288222
-0.001324 -0.095360 0.287142
0.000039 -0.093780 0.282374
0.001377 -0.093623 0.281890
0.002694 -0.092863 0.279592
0.003982 -0.091948 0.276829
0.005241 -0.090976 0.273894
0.006525 -0.090741 0.273181
0.007782 -0.090274 0.271772
0.009041 -0.089954 0.270805
0.010259 -0.089359 0.269014
0.011420 -0.088452 0.266282
0.012674 -0.088370 0.266037
0.013927 -0.088302 0.265834
0.015026 -0.087345 0.262956
0.016249 -0.087208 0.262546
0.017385 -0.086650 0.260871
0.018566 -0.086377 0.260055
0.019624 -0.085603 0.257734
0.020809 -0.085440 0.257250
0.021940 -0.085085 0.256190
0.023126 -0.084970 0.255854
0.024331 -0.084930 0.255744
0.025476 -0.084698 0.255054
0.026662 -0.084616 0.254820
0.027821 -0.084458 0.254356
0.028963 -0.084263 0.253783
0.030135 -0.084168 0.253508
0.031255 -0.083943 0.252844
0.032385 -0.083758 0.252302
0.033479 -0.083497 0.251528
0.034553 -0.083205 0.250665
0.035606 -0.082883 0.249708
0.036648 -0.082558 0.248745
0.037690 -0.082252 0.247837
0.038749 -0.082002 0.247099
0.039850 -0.081851 0.246658
0.040809 -0.081427 0.245393
0.041897 -0.081275 0.244950
0.043020 -0.081200 0.244735
0.043742 -0.080389 0.242304
0.044667 -0.079984 0.241094
0.045743 -0.079863 0.240742
0.046800 -0.079716 0.240310
0.047736 -0.079374 0.239288
0.048697 -0.079089 0.238438
0.049059 -0.077865 0.234756
0.049060 -0.076136 0.229551
0.048410 -0.073494 0.221590
0.048391 -0.071902 0.216792
0.048832 -0.071045 0.214212
0.049446 -0.070469 0.212478
0.050038 -0.069886 0.210719
0.050272 -0.068836 0.207553
0.050915 -0.068375 0.206158
0.051494 -0.067847 0.204563
0.052100 -0.067374 0.203130
0.052735 -0.066955 0.201857
0.053618 -0.066859 0.201559
0.054297 -0.066518 0.200517
0.054946 -0.066152 0.199401
0.055748 -0.065978 0.198860
0.056546 -0.065807 0.198325
0.057322 -0.065615 0.197728
0.058166 -0.065507 0.197378
0.058976 -0.065364 0.196921
0.059788 -0.065228 0.196484
0.060593 -0.065089 0.196033
0.061351 -0.064903 0.195438
0.062114 -0.064729 0.194877
0.062815 -0.064497 0.194137
0.063426 -0.064179 0.193138
0.063926 -0.063760 0.191830
0.064557 -0.063481 0.190941
0.065240 -0.063261 0.190226
0.065837 -0.062964 0.189278
0.066505 -0.062743 0.188550
0.067068 -0.062430 0.187546
0.067669 -0.062160 0.186667
0.068291 -0.061915 0.185859
0.068974 -0.061731 0.185232
0.069615 -0.061515 0.184504
0.070261 -0.061309 0.183801
0.071076 -0.061254 0.183547
0.072238 -0.061495 0.184172
0.073528 -0.061839 0.185101
0.074120 -0.061593 0.184261
0.074809 -0.061434 0.183672
0.075662 -0.061410 0.183486
0.076513 -0.061386 0.183291
0.077069 -0.061129 0.182393
0.077793 -0.061008 0.181900
0.078555 -0.060920 0.181497
0.079159 -0.060713 0.180732
0.079927 -0.060635 0.180344
0.080661 -0.060532 0.179880
0.081333 -0.060387 0.179278
0.082073 -0.060293 0.178826
0.082539 -0.060002 0.177781
0.083077 -0.059769 0.176901
0.083761 -0.059646 0.176338
0.084142 -0.059310 0.175140
0.084514 -0.058976 0.173938
0.085342 -0.058963 0.173676
0.086054 -0.058870 0.173173
0.086479 -0.058585 0.172093
0.087284 -0.058561 0.171771
0.087896 -0.058409 0.171063
0.088275 -0.058106 0.169904
0.088857 -0.057940 0.169140
0.089104 -0.057563 0.167745
0.089517 -0.057297 0.166669
-0.063611 -0.093457 0.286977
-0.063813 -0.095791 0.294112
-0.049395 -0.077516 0.237942
-0.047599 -0.076434 0.234591
-0.045370 -0.074589 0.228896
-0.044802 -0.075452 0.231514
-0.044331 -0.076524 0.234771
-0.043107 -0.076318 0.234106
-0.042042 -0.076391 0.234296
-0.041004 -0.076518 0.234652
-0.040245 -0.077189 0.236675
-0.039166 -0.079537 0.243800
-0.038044 -0.079600 0.243957
-0.036907 -0.079635 0.244029
-0.035701 -0.079518 0.243634
-0.034585 -0.079600 0.243849
-0.033453 -0.079651 0.243968
-0.032319 -0.079699 0.244080
-0.031245 -0.079905 0.244673
-0.030170 -0.080126 0.245315
-0.029061 -0.080268 0.245715
-0.028048 -0.080699 0.247000
-0.026983 -0.081013 0.247925
-0.025917 -0.081351 0.248927
-0.024801 -0.081560 0.249531
-0.023649 -0.081664 0.249818
-0.022548 -0.081961 0.250696
-0.021433 -0.082240 0.251518
-0.020308 -0.082515 0.252326
-0.019121 -0.082551 0.252408
-0.017922 -0.082544 0.252358
-0.016749 -0.082661 0.252686
-0.015546 -0.082634 0.252578
-0.014364 -0.082723 0.252823
-0.013161 -0.082702 0.252734
-0.011969 -0.082750 0.252857
-0.010883 -0.083623 0.255504
-0.011005 -0.095165 0.290744
-0.009768 -0.096583 0.295052
-0.008297 -0.095759 0.292515
-0.006844 -0.094869 0.289776
-0.005462 -0.094758 0.289417
-0.004093 -0.094898 0.289827
-0.002698 -0.094235 0.287788
-0.001299 -0.091969 0.280854
0.000035 -0.092976 0.283915
0.001376 -0.092488 0.282414
0.002679 -0.091173 0.278389
0.003967 -0.090368 0.275923
0.005239 -0.089712 0.273915
0.006493 -0.089062 0.271924
0.007735 -0.088481 0.270147
0.009030 -0.088598 0.270502
0.010259 -0.088111 0.269014
0.011444 -0.087399 0.266839
0.012627 -0.086810 0.265044
0.013785 -0.086177 0.263112
0.015008 -0.086018 0.262632
0.016218 -0.085813 0.262009
0.017366 -0.085334 0.260553
0.018470 -0.084720 0.258685
0.019600 -0.084292 0.257388
0.020790 -0.084154 0.256974
0.021923 -0.083816 0.255952
0.023139 -0.083812 0.255951
0.024318 -0.083685 0.255573
0.025495 -0.083560 0.255204
0.026690 -0.083505 0.255050
0.027863 -0.083387 0.254701
0.028997 -0.083167 0.254043
0.030158 -0.083038 0.253664
0.031308 -0.082892 0.253234
0.032425 -0.082670 0.252571
0.033495 -0.082349 0.251606
0.034585 -0.082098 0.250855
0.035674 -0.081860 0.250146
0.036791 -0.081702 0.249680
0.037836 -0.081397 0.248764
0.038940 -0.081234 0.248281
0.039954 -0.080899 0.247271
0.040907 -0.080462 0.245954
0.042006 -0.080328 0.245560
0.043141 -0.080270 0.245396
0.044059 -0.079820 0.244035
0.044898 -0.079255 0.242322
0.046004 -0.079176 0.242094
0.047056 -0.079010 0.241602
0.047942 -0.078582 0.240304
0.048831 -0.078177 0.239077
0.049340 -0.077197 0.236089
0.049644 -0.075946 0.232273
0.048537 -0.072637 0.222160
0.048431 -0.070936 0.216964
0.048894 -0.070122 0.214480
0.049000 -0.068839 0.210560
0.050009 -0.068851 0.210596
0.050539 -0.068216 0.208657
0.050886 -0.067363 0.206045
0.051330 -0.066668 0.203918
0.051864 -0.066114 0.202218
0.052572 -0.065797 0.201244
0.053324 -0.065546 0.200467
0.054082 -0.065310 0.199737
0.054890 -0.065143 0.199214
0.055656 -0.064931 0.198552
0.056447 -0.064756 0.198002
0.057279 -0.064632 0.197603
0.058122 -0.064525 0.197255
0.058945 -0.064399 0.196846
0.059757 -0.064265 0.196413
0.060588 -0.064155 0.196048
0.061344 -0.063971 0.195452
0.062080 -0.063772 0.194811
0.062737 -0.063498 0.193936
0.063441 -0.063279 0.193227
0.064140 -0.063062 0.192520
0.064697 -0.062712 0.191406
0.065391 -0.062504 0.190720
0.066150 -0.062362 0.190233
0.066667 -0.061999 0.189067
0.067254 -0.061711 0.188127
0.067720 -0.061319 0.186869
0.068420 -0.061147 0.186276
0.068959 -0.060838 0.185261
0.069427 -0.060475 0.184078
0.070178 -0.060364 0.183658
0.070774 -0.060124 0.182842
0.072114 -0.060515 0.183939
0.073376 -0.060831 0.184803
0.074064 -0.060669 0.184209
0.074611 -0.060397 0.183275
0.075466 -0.060377 0.183103
0.076233 -0.060290 0.182719
0.076879 -0.060108 0.182045
0.077508 -0.059918 0.181338
0.078300 -0.059856 0.181016
0.079066 -0.059777 0.180632
0.079819 -0.059689 0.180217
0.080664 -0.059671 0.180006
0.081255 -0.059468 0.179229
0.081880 -0.059293 0.178534
0.082514 -0.059129 0.177860
0.083088 -0.058925 0.177062
0.083627 -0.058701 0.176196
0.084103 -0.058437 0.175203
0.084734 -0.058286 0.174541
0.085534 -0.058253 0.174222
0.086336 -0.058221 0.173901
0.086768 -0.057943 0.172834
0.087470 -0.057849 0.172305
0.088087 -0.057701 0.171608
0.088352 -0.057327 0.170231
0.088798 -0.057077 0.169213
0.088758 -0.056521 0.167280
0.089176 -0.056265 0.166227
-0.051155 -0.077352 0.240931
-0.049470 -0.076503 0.238254
-0.047515 -0.075188 0.234128
-0.046282 -0.074980 0.233446
-0.045324 -0.075218 0.234155
-0.044417 -0.075554 0.235166
-0.043419 -0.075750 0.235741
-0.042313 -0.075763 0.235744
-0.041335 -0.076011 0.236481
-0.040310 -0.076186 0.236988
-0.039395 -0.076582 0.238183
-0.038407 -0.076858 0.239003
-0.037282 -0.076867 0.238995
-0.036281 -0.077141 0.239808
-0.035270 -0.077410 0.240608
-0.034641 -0.078566 0.244162
-0.033491 -0.078576 0.244156
-0.032451 -0.078855 0.244985
-0.031367 -0.079044 0.245535
-0.030277 -0.079233 0.246085
-0.029207 -0.079494 0.246857
-0.028102 -0.079673 0.247379
-0.027016 -0.079927 0.248130
-0.025918 -0.080163 0.248829
-0.024786 -0.080317 0.249271
-0.023656 -0.080489 0.249771
-0.022519 -0.080656 0.250257
-0.021377 -0.080823 0.250741
-0.020238 -0.081024 0.251332
-0.019091 -0.081216 0.251897
-0.017935 -0.081388 0.252402
-0.016753 -0.081460 0.252597
-0.015597 -0.081682 0.253257
-0.014437 -0.081918 0.253963
-0.013217 -0.081825 0.253650
-0.012036 -0.081984 0.254119
-0.010921 -0.082674 0.256233
-0.009850 -0.083908 0.260035
-0.008614 -0.083902 0.259996
-0.008368 -0.095134 0.294778
-0.006903 -0.094243 0.291997
-0.005493 -0.093860 0.290792
-0.004112 -0.093855 0.290758
-0.002731 -0.093878 0.290814
-0.001343 -0.093380 0.289257
0.000032 -0.093385 0.289259
0.001309 -0.086913 0.269202
0.002670 -0.089647 0.277661
0.003957 -0.088924 0.275413
0.005199 -0.087785 0.271881
0.006494 -0.087824 0.271997
0.007776 -0.087700 0.271610
0.009000 -0.087055 0.269609
0.010245 -0.086741 0.268636
0.011427 -0.086025 0.266419
0.012632 -0.085611 0.265139
0.013803 -0.085059 0.263431
0.015029 -0.084906 0.262962
0.016249 -0.084749 0.262483
0.017397 -0.084264 0.260987
0.018410 -0.083235 0.257809
0.019578 -0.082991 0.257059
0.020860 -0.083226 0.257798
0.021962 -0.082762 0.256373
0.023161 -0.082689 0.256157
0.024394 -0.082742 0.256333
0.025541 -0.082509 0.255626
0.026749 -0.082484 0.255564
0.027904 -0.082309 0.255036
0.029077 -0.082197 0.254703
0.030219 -0.082008 0.254133
0.031360 -0.081834 0.253613
0.032496 -0.081658 0.253083
0.033588 -0.081389 0.252268
0.034706 -0.081198 0.251693
0.035763 -0.080882 0.250733
0.036840 -0.080632 0.249974
0.037989 -0.080548 0.249733
0.038956 -0.080097 0.248351
0.040088 -0.079999 0.248066
0.040984 -0.079451 0.246386
0.042044 -0.079240 0.245749
0.043132 -0.079094 0.245313
0.044081 -0.078707 0.244129
0.044933 -0.078171 0.242484
0.045942 -0.077928 0.241743
0.047123 -0.077981 0.241926
0.047928 -0.077425 0.240213
0.048911 -0.077175 0.239451
0.049255 -0.075950 0.235664
0.049430 -0.074526 0.231254
0.048938 -0.072180 0.223987
0.049348 -0.071235 0.221061
0.048125 -0.068022 0.211099
0.048976 -0.067811 0.210450
0.049588 -0.067285 0.208821
0.049683 -0.066091 0.205118
0.050264 -0.065578 0.203526
0.051331 -0.065705 0.203922
0.052063 -0.065407 0.202995
0.052611 -0.064894 0.201398
0.053461 -0.064764 0.200991
0.054216 -0.064526 0.200244
0.054916 -0.064231 0.199319
0.055632 -0.063964 0.198482
0.056511 -0.063891 0.198242
0.057348 -0.063775 0.197864
0.058126 -0.063596 0.197290
0.058938 -0.063460 0.196848
0.059776 -0.063356 0.196502
0.060572 -0.063211 0.196029
0.061328 -0.063030 0.195436
0.062082 -0.062851 0.194851
0.062845 -0.062687 0.194307
0.063514 -0.062435 0.193488
0.064211 -0.062217 0.192773
0.064855 -0.061956 0.191918
0.065539 -0.061739 0.191199
0.066188 -0.061495 0.190394
0.066866 -0.061285 0.189686
0.067309 -0.060868 0.188337
0.067717 -0.060429 0.186919
0.068495 -0.060329 0.186543
0.069034 -0.060023 0.185527
0.069513 -0.059674 0.184374
0.069747 -0.059126 0.182602
0.070510 -0.059033 0.182234
0.071708 -0.059303 0.182980
0.073222 -0.059825 0.184496
0.074019 -0.059755 0.184181
0.074433 -0.059381 0.182925
0.075188 -0.059285 0.182520
0.076034 -0.059262 0.182335
0.076644 -0.059057 0.181584
0.077126 -0.058760 0.180546
0.077958 -0.058733 0.180329
0.078749 -0.058676 0.180016
0.079601 -0.058664 0.179836
0.080264 -0.058516 0.179229
0.080966 -0.058399 0.178713
0.081696 -0.058304 0.178256
0.082230 -0.058073 0.177376
0.082842 -0.057900 0.176669
0.083354 -0.057663 0.175756
0.083784 -0.057373 0.174678
0.084441 -0.057244 0.174080
0.085091 -0.057112 0.173468
0.085913 -0.057097 0.173201
0.086598 -0.056992 0.172652
0.087141 -0.056797 0.171820
0.087900 -0.056745 0.171413
0.088110 -0.056343 0.169938
0.088508 -0.056067 0.168837
0.088657 -0.055640 0.167274
0.088813 -0.055225 0.165738
-0.053267 -0.075980 0.240227
-0.052188 -0.076058 0.240440
-0.051232 -0.076323 0.241243
-0.049315 -0.075137 0.237460
-0.047747 -0.074438 0.235216
-0.046603 -0.074384 0.235010
-0.045676 -0.074682 0.235916
-0.044726 -0.074955 0.236742
-0.043644 -0.075016 0.236898
-0.042594 -0.075138 0.237244
-0.041629 -0.075419 0.238094
-0.040672 -0.075733 0.239046
-0.039645 -0.075929 0.239624
-0.038622 -0.076144 0.240264
-0.037609 -0.076394 0.241014
-0.036603 -0.076674 0.241858
-0.035628 -0.077039 0.242970
-0.034615 -0.077343 0.243887
-0.033569 -0.077593 0.244638
-0.032475 -0.077744 0.245072
-0.031429 -0.078028 0.245931
-0.030388 -0.078347 0.246896
-0.029323 -0.078625 0.247735
-0.028202 -0.078769 0.248151
-0.027086 -0.078944 0.248664
-0.025983 -0.079173 0.249351
-0.024854 -0.079342 0.249845
-0.023704 -0.079455 0.250166
-0.022568 -0.079630 0.250682
-0.021432 -0.079826 0.251265
-0.020306 -0.080085 0.252047
-0.019153 -0.080265 0.252584
-0.017996 -0.080448 0.253130
-0.016829 -0.080609 0.253607
-0.015650 -0.080738 0.253982
-0.014464 -0.080843 0.254286
-0.013275 -0.080959 0.254624
-0.012090 -0.081117 0.255095
-0.010889 -0.081190 0.255303
-0.009702 -0.081407 0.255961
-0.008538 -0.081905 0.257506
-0.007351 -0.082300 0.258730
-0.006117 -0.082238 0.258515
-0.004954 -0.083338 0.261956
-0.004130 -0.092798 0.291673
-0.002741 -0.092698 0.291343
-0.001253 -0.085590 0.268989
0.000026 -0.084381 0.265178
0.001277 -0.083781 0.263282
0.002556 -0.084687 0.266120
0.003839 -0.085078 0.267342
0.005227 -0.087033 0.273479
0.006471 -0.086276 0.271094
0.007723 -0.085859 0.269783
0.009001 -0.085819 0.269654
0.010262 -0.085638 0.269086
0.011421 -0.084745 0.266282
0.012640 -0.084429 0.265290
0.013824 -0.083953 0.263799
0.015070 -0.083907 0.263660
0.016298 -0.083772 0.263242
0.017398 -0.083047 0.260971
0.018415 -0.082047 0.257837
0.019589 -0.081827 0.257157
0.020845 -0.081955 0.257570
0.022013 -0.081743 0.256914
0.023192 -0.081592 0.256453
0.024414 -0.081599 0.256490
0.025593 -0.081470 0.256098
0.026795 -0.081422 0.255963
0.027996 -0.081374 0.255827
0.029141 -0.081174 0.255217
0.030266 -0.080935 0.254483
0.031432 -0.080821 0.254142
0.032534 -0.080559 0.253337
0.033635 -0.080312 0.252578
0.034794 -0.080214 0.252291
0.035800 -0.079783 0.250952
0.036878 -0.079534 0.250190
0.038031 -0.079456 0.249966
0.039065 -0.079143 0.249001
0.040123 -0.078896 0.248244
0.041026 -0.078368 0.246600
0.042102 -0.078188 0.246055
0.043237 -0.078125 0.245876
0.043961 -0.077343 0.243434
0.044872 -0.076921 0.242124
0.045967 -0.076828 0.241848
0.046918 -0.076504 0.240847
0.047805 -0.076094 0.239571
0.048756 -0.075803 0.238670
0.049437 -0.075114 0.236516
0.049877 -0.074098 0.233329
0.049170 -0.071458 0.225029
0.047924 -0.068165 0.214670
0.048592 -0.067675 0.213136
0.048897 -0.066709 0.210102
0.049928 -0.066752 0.210245
0.050275 -0.065899 0.207561
0.050231 -0.064574 0.203393
0.051091 -0.064439 0.202970
0.052034 -0.064412 0.202885
0.052695 -0.064044 0.201725
0.053542 -0.063911 0.201303
0.054233 -0.063598 0.200313
0.054906 -0.063277 0.199293
0.055675 -0.063075 0.198648
0.056509 -0.062952 0.198252
0.057348 -0.062839 0.197880
0.058218 -0.062762 0.197625
0.059053 -0.062650 0.197254
0.059856 -0.062509 0.196789
0.060727 -0.062443 0.196556
0.061540 -0.062319 0.196141
0.062253 -0.062099 0.195419
0.062980 -0.061900 0.194760
0.063751 -0.061748 0.194249
0.064409 -0.061494 0.193410
0.064987 -0.061170 0.192350
0.065552 -0.060845 0.191282
0.066341 -0.060733 0.190881
0.066907 -0.060422 0.189852
0.067409 -0.060063 0.188669
0.067875 -0.059682 0.187412
0.068516 -0.059461 0.186657
0.069042 -0.059149 0.185611
0.069349 -0.058659 0.184003
0.070111 -0.058561 0.183619
0.070733 -0.058350 0.182879
0.071861 -0.058557 0.183441
0.073299 -0.059008 0.184766
0.073907 -0.058788 0.183981
0.074356 -0.058449 0.182819
0.075105 -0.058350 0.182404
0.075835 -0.058239 0.181947
0.076516 -0.058093 0.181375
0.077040 -0.057832 0.180439
0.077801 -0.057754 0.180066
0.078508 -0.057637 0.179567
0.079313 -0.057594 0.179294
0.080034 -0.057492 0.178827
0.080639 -0.057309 0.178105
0.081383 -0.057227 0.177690
0.081905 -0.056994 0.176796
0.082375 -0.056729 0.175800
0.083036 -0.056600 0.175216
0.083352 -0.056240 0.173912
0.083968 -0.056087 0.173243
0.084764 -0.056058 0.172944
0.085489 -0.055981 0.172493
0.086271 -0.055944 0.172153
0.087127 -0.055954 0.171949
0.087785 -0.055839 0.171351
0.088171 -0.055554 0.170222
0.088707 -0.055368 0.169388
0.088615 -0.054797 0.167368
0.088741 -0.054370 0.165784
-0.054644 -0.075176 0.241291
-0.053287 -0.074868 0.240269
-0.052519 -0.075392 0.241916
-0.051300 -0.075278 0.241513
-0.049810 -0.074752 0.239789
-0.048188 -0.073999 0.237335
-0.046896 -0.073728 0.236430
-0.045801 -0.073761 0.236497
-0.044821 -0.073988 0.237184
-0.043792 -0.074141 0.237635
-0.042744 -0.074271 0.238013
-0.041765 -0.074530 0.238803
-0.040761 -0.074758 0.239492
-0.039752 -0.074990 0.240194
-0.038711 -0.075174 0.240742
-0.037714 -0.075456 0.241603
-0.036723 -0.075769 0.242565
-0.035688 -0.076008 0.243288
-0.034624 -0.076200 0.243862
-0.033588 -0.076468 0.244678
-0.032556 -0.076767 0.245594
-0.031481 -0.076981 0.246238
-0.030403 -0.077204 0.246913
-0.029323 -0.077441 0.247628
-0.028253 -0.077726 0.248502
-0.027178 -0.078019 0.249399
-0.026029 -0.078118 0.249677
-0.024878 -0.078221 0.249969
-0.023761 -0.078446 0.250652
-0.022606 -0.078564 0.250993
-0.021460 -0.078724 0.251470
-0.020335 -0.078988 0.252280
-0.019248 -0.079444 0.253705
-0.018108 -0.079726 0.254572
-0.016939 -0.079910 0.255129
-0.015759 -0.080069 0.255608
-0.014573 -0.080220 0.256060
-0.013376 -0.080330 0.256386
-0.012166 -0.080386 0.256538
-0.010977 -0.080600 0.257196
-0.009761 -0.080651 0.257337
-0.008542 -0.080679 0.257405
-0.007338 -0.080898 0.258083
-0.006118 -0.080975 0.258311
-0.004897 -0.081091 0.258662
-0.003683 -0.081437 0.259750
-0.002750 -0.091469 0.291731
-0.001256 -0.084295 0.268838
0.000022 -0.081896 0.261175
0.001266 -0.082045 0.261638
0.002512 -0.082106 0.261825
0.003757 -0.082098 0.261790
0.004996 -0.081993 0.261453
0.006493 -0.085319 0.272052
0.007753 -0.084946 0.270860
0.008973 -0.084305 0.268815
0.010242 -0.084225 0.268560
0.011436 -0.083609 0.266597
0.012676 -0.083425 0.266015
0.013864 -0.082959 0.264533
0.015058 -0.082607 0.263418
0.016254 -0.082316 0.262497
0.017332 -0.081510 0.259935
0.018444 -0.080964 0.258201
0.019636 -0.080811 0.257726
0.020860 -0.080804 0.257715
0.022042 -0.080641 0.257207
0.023244 -0.080567 0.256985
0.024442 -0.080484 0.256736
0.025636 -0.080399 0.256481
0.026839 -0.080346 0.256327
0.028034 -0.080275 0.256119
0.029225 -0.080201 0.255902
0.030333 -0.079913 0.255001
0.031450 -0.079669 0.254244
0.032620 -0.079573 0.253956
0.033682 -0.079230 0.252883
0.034842 -0.079131 0.252588
0.035889 -0.078794 0.251532
0.036922 -0.078445 0.250441
0.037966 -0.078144 0.249500
0.039072 -0.077982 0.249007
0.040122 -0.077722 0.248197
0.041106 -0.077352 0.247039
0.042093 -0.077011 0.245968
0.043062 -0.076653 0.244848
0.044197 -0.076603 0.244708
0.044954 -0.075916 0.242534
0.046058 -0.075835 0.242295
0.047161 -0.075756 0.242063
0.048165 -0.075526 0.241348
0.049044 -0.075115 0.240052
0.049537 -0.074146 0.236969
0.049098 -0.071855 0.229664
0.049586 -0.070991 0.226917
0.048601 -0.068100 0.217688
0.048960 -0.067173 0.214738
0.048966 -0.065809 0.210388
0.049465 -0.065149 0.208286
0.050119 -0.064715 0.206906
0.050526 -0.063985 0.204579
0.051410 -0.063876 0.204235
0.051877 -0.063262 0.202273
0.052651 -0.063038 0.201557
0.053505 -0.062916 0.201166
0.054254 -0.062675 0.200396
0.054949 -0.062384 0.199458
0.055661 -0.062120 0.198610
0.056647 -0.062166 0.198747
0.057462 -0.062025 0.198287
0.058248 -0.061859 0.197741
0.059185 -0.061856 0.197716
0.059989 -0.061715 0.197248
0.060764 -0.061550 0.196699
0.061629 -0.061480 0.196451
0.062423 -0.061341 0.195981
0.063141 -0.061133 0.195288
0.063831 -0.060905 0.194527
0.064583 -0.060741 0.193969
0.065197 -0.060455 0.193014
0.065786 -0.060152 0.192007
0.066491 -0.059963 0.191356
0.067091 -0.059685 0.190421
0.067639 -0.059369 0.189361
0.068001 -0.058901 0.187810
0.068497 -0.058559 0.186660
0.069042 -0.058268 0.185668
0.069678 -0.058059 0.184935
0.069973 -0.057575 0.183321
0.070527 -0.057314 0.182413
0.071928 -0.057739 0.183684
0.073097 -0.057969 0.184330
0.073879 -0.057890 0.183988
0.074461 -0.057659 0.183157
0.074918 -0.057337 0.182032
0.075661 -0.057239 0.181614
0.076412 -0.057149 0.181217
0.076974 -0.056922 0.180377
0.077558 -0.056716 0.179600
0.078322 -0.056644 0.179242
0.079033 -0.056536 0.178764
0.079766 -0.056445 0.178334
0.080402 -0.056289 0.177691
0.081040 -0.056137 0.177056
0.081535 -0.055891 0.176114
0.082131 -0.055718 0.175400
0.082488 -0.055388 0.174184
0.082883 -0.055089 0.173060
0.083556 -0.054981 0.172526
0.084236 -0.054878 0.172003
0.085465 -0.055132 0.172587
0.086219 -0.055077 0.172196
0.086918 -0.054988 0.171689
0.087778 -0.055002 0.171493
0.087992 -0.054615 0.170036
0.088596 -0.054475 0.169342
0.088299 -0.053788 0.166941
0.088437 -0.053377 0.165388
-0.054723 -0.074139 0.241594
-0.053987 -0.074698 0.243377
-0.053109 -0.075079 0.244582
-0.052011 -0.075159 0.244804
-0.049115 -0.072586 0.236384
-0.047993 -0.072576 0.236313
-0.046793 -0.072445 0.235847
-0.045758 -0.072569 0.236211
-0.044824 -0.072865 0.237133
-0.043786 -0.073001 0.237534
-0.042756 -0.073159 0.238007
-0.041771 -0.073405 0.238763
-0.040904 -0.073876 0.240253
-0.039920 -0.074159 0.241132
-0.038907 -0.074402 0.241877
-0.037894 -0.074661 0.242675
-0.036851 -0.074873 0.243322
-0.035791 -0.075066 0.243905
-0.034725 -0.075257 0.244484
-0.033669 -0.075483 0.245174
-0.032587 -0.075666 0.245727
-0.031517 -0.075892 0.246419
-0.030417 -0.076061 0.246925
-0.029342 -0.076308 0.247687
-0.028263 -0.076565 0.248481
-0.027161 -0.076779 0.249136
-0.026100 -0.077134 0.250248
-0.024971 -0.077311 0.250781
-0.023822 -0.077442 0.251171
-0.022688 -0.077638 0.251771
-0.021550 -0.077844 0.252401
-0.020427 -0.078132 0.253300
-0.019256 -0.078255 0.253667
-0.018085 -0.078402 0.254110
-0.016922 -0.078604 0.254732
-0.015741 -0.078748 0.255169
-0.014551 -0.078862 0.255511
-0.013366 -0.079038 0.256051
-0.012253 -0.079712 0.258207
-0.010997 -0.079497 0.257488
-0.009788 -0.079622 0.257867
-0.008592 -0.079894 0.258727
-0.007366 -0.079932 0.258830
-0.006157 -0.080219 0.259738
-0.004929 -0.080326 0.260066
-0.003703 -0.080571 0.260845
-0.002467 -0.080696 0.261235
-0.001226 -0.080791 0.261529
0.000018 -0.080907 0.261891
0.001265 -0.080952 0.262027
0.002515 -0.081069 0.262399
0.003765 -0.081103 0.262502
0.005023 -0.081247 0.262962
0.006489 -0.084019 0.271930
0.007755 -0.083716 0.270947
0.008990 -0.083216 0.269328
0.010244 -0.082992 0.268602
0.011463 -0.082563 0.267217
0.012688 -0.082258 0.266232
0.013902 -0.081946 0.265227
0.015098 -0.081584 0.264065
0.016268 -0.081153 0.262675
0.017337 -0.080314 0.259971
0.018527 -0.080107 0.259311
0.019693 -0.079830 0.258424
0.020892 -0.079713 0.258059
0.022107 -0.079667 0.257923
0.023282 -0.079484 0.257346
0.024477 -0.079387 0.257049
0.025667 -0.079285 0.256737
0.026872 -0.079235 0.256590
0.028069 -0.079165 0.256385
0.029218 -0.078974 0.255786
0.030379 -0.078829 0.255337
0.031460 -0.078494 0.254272
0.032444 -0.077950 0.252532
0.033551 -0.077731 0.251843
0.034843 -0.077941 0.252548
0.035856 -0.077534 0.251251
0.036941 -0.077303 0.250526
0.038113 -0.077262 0.250417
0.039158 -0.076975 0.249511
0.040178 -0.076657 0.248504
0.041173 -0.076309 0.247399
0.042130 -0.075915 0.246144
0.043134 -0.075622 0.245218
0.043932 -0.074994 0.243205
0.045072 -0.074966 0.243135
0.046123 -0.074796 0.242606
0.047062 -0.074457 0.241527
0.048202 -0.074444 0.241505
0.049107 -0.074077 0.240335
0.049854 -0.073494 0.238462
0.049045 -0.070693 0.229394
0.048137 -0.067876 0.220268
0.049061 -0.067706 0.219730
0.049543 -0.066946 0.217278
0.048926 -0.064761 0.210199
0.048936 -0.063478 0.206046
0.049664 -0.063159 0.205020
0.050365 -0.062818 0.203921
0.051275 -0.062745 0.203691
0.052223 -0.062721 0.203618
0.052775 -0.062231 0.202031
0.053637 -0.062117 0.201661
0.054571 -0.062089 0.201570
0.055106 -0.061616 0.200034
0.055751 -0.061280 0.198939
0.056631 -0.061209 0.198700
0.057544 -0.061175 0.198582
0.058354 -0.061034 0.198114
0.059180 -0.060915 0.197716
0.060040 -0.060833 0.197434
0.060880 -0.060735 0.197096
0.061643 -0.060563 0.196517
0.062327 -0.060321 0.195708
0.063063 -0.060135 0.195077
0.063842 -0.059994 0.194591
0.064490 -0.059736 0.193722
0.065130 -0.059479 0.192851
0.065525 -0.059007 0.191282
0.066258 -0.058849 0.190729
0.067055 -0.058751 0.190364
0.067547 -0.058392 0.189150
0.068035 -0.058039 0.187954
0.068365 -0.057562 0.186353
0.069054 -0.057396 0.185754
0.069631 -0.057142 0.184866
0.070068 -0.056781 0.183630
0.070446 -0.056381 0.182264
0.071503 -0.056529 0.182664
0.073061 -0.057064 0.184308
0.073753 -0.056917 0.183747
0.074356 -0.056706 0.182973
0.075005 -0.056535 0.182321
0.075681 -0.056388 0.181744
0.076377 -0.056259 0.181218
0.076949 -0.056042 0.180406
0.077506 -0.055819 0.179568
0.078148 -0.055663 0.178938
0.078914 -0.055596 0.178591
0.079471 -0.055386 0.177776
0.079957 -0.055130 0.176812
0.080695 -0.055053 0.176411
0.081078 -0.054736 0.175239
0.081560 -0.054493 0.174294
0.082022 -0.054242 0.173318
0.082350 -0.053907 0.172071
0.083184 -0.053907 0.171883
0.083935 -0.053855 0.171519
0.085166 -0.054107 0.172119
0.086116 -0.054178 0.172130
0.086722 -0.054034 0.171447
0.087591 -0.054055 0.171278
0.088237 -0.053938 0.170666
0.088665 -0.053692 0.169633
0.088507 -0.053099 0.167496
0.088610 -0.052672 0.165879
-0.057265 -0.067905 0.224896
-0.055819 -0.067437 0.223318
-0.055069 -0.067809 0.224521
-0.054653 -0.068616 0.227161
-0.055964 -0.074649 0.247025
-0.054818 -0.074675 0.247070
-0.051365 -0.071491 0.236496
-0.049909 -0.071007 0.234856
-0.048756 -0.070942 0.234600
-0.047713 -0.071037 0.234874
-0.046791 -0.071322 0.235775
-0.045785 -0.071490 0.236287
-0.044815 -0.071723 0.237014
-0.043845 -0.071970 0.237788
-0.042902 -0.072273 0.238745
-0.041878 -0.072454 0.239298
-0.040921 -0.072763 0.240276
-0.039904 -0.072981 0.240951
-0.038921 -0.073276 0.241880
-0.037913 -0.073542 0.242711
-0.036856 -0.073724 0.243266
-0.035796 -0.073913 0.243845
-0.034780 -0.074207 0.244772
-0.033731 -0.074451 0.245533
-0.032658 -0.074656 0.246164
-0.031558 -0.074814 0.246642
-0.030484 -0.075046 0.247362
-0.029390 -0.075248 0.247986
-0.028286 -0.075438 0.248569
-0.027205 -0.075709 0.249423
-0.026092 -0.075912 0.250049
-0.024957 -0.076068 0.250526
-0.023826 -0.076251 0.251089
-0.022698 -0.076466 0.251759
-0.021630 -0.076920 0.253215
-0.020467 -0.077065 0.253657
-0.019303 -0.077229 0.254161
-0.018148 -0.077447 0.254845
-0.016974 -0.077613 0.255361
-0.015789 -0.077755 0.255795
-0.014607 -0.077934 0.256354
-0.013411 -0.078061 0.256745
-0.012209 -0.078179 0.257106
-0.011010 -0.078343 0.257619
-0.009802 -0.078479 0.258043
-0.008588 -0.078592 0.258391
-0.007385 -0.078866 0.259269
-0.006174 -0.079161 0.260220
-0.004953 -0.079431 0.261089
-0.003717 -0.079542 0.261437
-0.002476 -0.079661 0.261813
-0.001234 -0.079857 0.262443
0.000015 -0.079939 0.262703
0.001267 -0.080072 0.263129
0.002521 -0.080103 0.263222
0.003779 -0.080221 0.263603
0.005040 -0.080318 0.263918
0.006484 -0.082709 0.271770
0.007776 -0.082696 0.271725
0.009025 -0.082287 0.270381
0.010229 -0.081624 0.268202
0.011466 -0.081339 0.267270
0.012671 -0.080906 0.265851
0.013905 -0.080722 0.265251
0.015049 -0.080088 0.263177
0.016169 -0.079435 0.261039
0.017380 -0.079286 0.260559
0.018576 -0.079099 0.259954
0.019763 -0.078894 0.259294
0.020945 -0.078697 0.258660
0.022133 -0.078543 0.258170
0.023316 -0.078386 0.257670
0.024512 -0.078287 0.257362
0.025697 -0.078166 0.256981
0.026872 -0.078025 0.256537
0.028072 -0.077966 0.256364
0.029250 -0.077851 0.256009
0.030378 -0.077619 0.255266
0.031503 -0.077398 0.254562
0.032576 -0.077071 0.253508
0.033747 -0.076990 0.253267
0.034885 -0.076841 0.252800
0.035965 -0.076578 0.251961
0.037077 -0.076399 0.251398
0.038192 -0.076236 0.250887
0.039289 -0.076048 0.250294
0.040253 -0.075623 0.248918
0.041223 -0.075233 0.247660
0.042222 -0.074914 0.246635
0.043297 -0.074744 0.246101
0.044269 -0.074410 0.245025
0.045267 -0.074136 0.244149
0.046219 -0.073802 0.243072
0.047160 -0.073468 0.241995
0.048179 -0.073267 0.241358
0.049033 -0.072830 0.239940
0.049732 -0.072189 0.237849
0.050814 -0.072120 0.237641
0.049849 -0.069211 0.228075
0.048705 -0.066182 0.218112
0.048745 -0.064857 0.213760
0.048861 -0.063683 0.209904
0.049358 -0.063043 0.207810
0.049578 -0.062082 0.204651
0.050333 -0.061815 0.203782
