ply
format ascii 1.0
element vertex 1694
property float x
property float y
property float z
end_header
0.022162 -0.090802 0.258896
0.023286 -0.090393 0.257734
0.024373 -0.089892 0.256312
0.025464 -0.089448 0.255051
0.026550 -0.089032 0.253872
0.027602 -0.088540 0.252476
0.028663 -0.088116 0.251272
0.029753 -0.087814 0.250418
0.030783 -0.087364 0.249142
0.031799 -0.086906 0.247844
0.032809 -0.086469 0.246606
0.033769 -0.085932 0.245083
0.034710 -0.085384 0.243525
0.035716 -0.085027 0.242514
0.036727 -0.084704 0.241601
0.037661 -0.084227 0.240248
0.038667 -0.083934 0.239418
0.039674 -0.083662 0.238649
0.040576 -0.083187 0.237299
0.041519 -0.082821 0.236261
0.042459 -0.082468 0.235256
0.043428 -0.082188 0.234461
0.044503 -0.082118 0.234264
0.045427 -0.081779 0.233298
0.046350 -0.081454 0.232373
0.047319 -0.081223 0.231714
0.048287 -0.081001 0.231077
0.049073 -0.080491 0.229622
0.049939 -0.080130 0.228587
0.050655 -0.079550 0.226928
0.051226 -0.078771 0.224698
0.051207 -0.077134 0.220020
0.050823 -0.075024 0.213994
0.051080 -0.073925 0.210847
0.051534 -0.073148 0.208618
0.052183 -0.072670 0.207241
0.052875 -0.072271 0.206085
0.053266 -0.071481 0.203816
0.053754 -0.070848 0.201989
0.054177 -0.070151 0.199982
0.054575 -0.069448 0.197953
0.055159 -0.069001 0.196653
0.056046 -0.068941 0.196453
0.056601 -0.068482 0.195113
0.057087 -0.067955 0.193580
0.057849 -0.067769 0.193013
0.058489 -0.067447 0.192057
0.059214 -0.067233 0.191405
0.059945 -0.067030 0.190783
0.060714 -0.066877 0.190299
0.061414 -0.066651 0.189607
0.062014 -0.066327 0.188629
0.062848 -0.066258 0.188376
0.063595 -0.066100 0.187867
0.064143 -0.065743 0.186788
0.065017 -0.065725 0.186668
0.065951 -0.065768 0.186716
0.066733 -0.065659 0.186332
0.067529 -0.065567 0.185991
0.068323 -0.065476 0.185647
0.069028 -0.065302 0.185064
0.069741 -0.065141 0.184513
0.070439 -0.064969 0.183927
0.071034 -0.064708 0.183086
0.071686 -0.064505 0.182402
0.072483 -0.064436 0.182092
0.073528 -0.064585 0.182395
0.074325 -0.064516 0.182073
0.075116 -0.064443 0.181737
0.075977 -0.064432 0.181568
0.076759 -0.064355 0.181206
0.077412 -0.064171 0.180540
0.078051 -0.063982 0.179849
0.078788 -0.063875 0.179386
0.079338 -0.063620 0.178501
0.080010 -0.063468 0.177897
0.080637 -0.063283 0.177194
0.081230 -0.063077 0.176424
0.081744 -0.062813 0.175488
0.082258 -0.062555 0.174560
0.082647 -0.062209 0.173377
0.083072 -0.061896 0.172282
0.083430 -0.061540 0.171060
0.083811 -0.061207 0.169895
0.084371 -0.061011 0.169103
0.084936 -0.060821 0.168318
0.085541 -0.060664 0.167615
0.086331 -0.060640 0.167269
0.087036 -0.060557 0.166748
0.088072 -0.060704 0.166848
0.089245 -0.060941 0.167183
0.089987 -0.060883 0.166691
-0.056297 -0.100341 0.291152
-0.055018 -0.100513 0.291621
-0.053337 -0.099941 0.289930
-0.052417 -0.100802 0.292397
-0.050952 -0.100633 0.291873
-0.049682 -0.100852 0.292476
-0.048116 -0.100465 0.291318
-0.046587 -0.100133 0.290323
-0.045205 -0.100108 0.290215
-0.043835 -0.100109 0.290183
-0.042541 -0.100290 0.290671
-0.041175 -0.100308 0.290688
-0.039955 -0.100694 0.291772
-0.038565 -0.100663 0.291646
-0.037066 -0.100338 0.290669
-0.035753 -0.100508 0.291128
-0.034436 -0.100682 0.291597
-0.032981 -0.100449 0.290887
-0.031867 -0.101282 0.293264
-0.030525 -0.101432 0.293666
-0.029252 -0.101836 0.294802
-0.028056 -0.102564 0.296874
-0.026682 -0.102681 0.297180
-0.025406 -0.103214 0.298693
-0.023974 -0.103135 0.298431
-0.022601 -0.103316 0.298925
-0.021176 -0.103272 0.298767
-0.019805 -0.103502 0.299403
-0.018463 -0.103928 0.300608
-0.017102 -0.104311 0.301689
-0.015733 -0.104717 0.302836
-0.014247 -0.104341 0.301726
-0.012839 -0.104518 0.302212
-0.011385 -0.104322 0.301623
-0.009868 -0.103408 0.298959
-0.008462 -0.103538 0.299314
-0.007082 -0.104118 0.300971
-0.005543 -0.102048 0.294971
-0.004195 -0.103321 0.298634
-0.002779 -0.103331 0.298647
-0.001303 -0.098771 0.285453
0.000052 -0.099178 0.286617
0.001412 -0.099263 0.286852
0.002782 -0.099559 0.287696
0.004119 -0.098907 0.285803
0.005463 -0.098686 0.285158
0.006794 -0.098361 0.284213
0.008113 -0.097999 0.283161
0.009379 -0.097196 0.280835
0.010596 -0.096142 0.277786
0.011789 -0.095128 0.274857
0.013038 -0.094726 0.273692
0.014213 -0.093904 0.271318
0.015389 -0.093229 0.269367
0.016522 -0.092412 0.267010
0.017663 -0.091754 0.265110
0.018799 -0.091159 0.263394
0.019923 -0.090585 0.261742
0.021055 -0.090113 0.260381
0.022159 -0.089575 0.258831
0.023208 -0.088885 0.256846
0.024324 -0.088509 0.255764
0.025394 -0.088011 0.254333
0.026457 -0.087533 0.252959
0.027517 -0.087085 0.251672
0.028573 -0.086662 0.250459
0.029645 -0.086321 0.249482
0.030727 -0.086034 0.248663
0.031648 -0.085333 0.246644
0.032686 -0.084988 0.245656
0.033634 -0.084441 0.244083
0.034640 -0.084068 0.243016
0.035642 -0.083711 0.241993
0.036641 -0.083369 0.241014
0.037658 -0.083089 0.240213
0.038677 -0.082828 0.239466
0.039638 -0.082463 0.238417
0.040646 -0.082212 0.237699
0.041562 -0.081792 0.236493
0.042519 -0.081475 0.235582
0.043511 -0.081239 0.234905
0.044482 -0.080976 0.234149
0.045449 -0.080718 0.233409
0.046448 -0.080528 0.232861
0.047405 -0.080276 0.232136
0.048401 -0.080099 0.231625
0.049259 -0.079709 0.230495
0.050083 -0.079281 0.229255
0.050979 -0.078981 0.228385
0.051465 -0.078073 0.225755
0.051272 -0.076192 0.220312
0.051142 -0.074478 0.215348
0.051448 -0.073455 0.212380
0.051638 -0.072308 0.209054
0.052170 -0.071674 0.207210
0.052594 -0.070918 0.205009
0.053307 -0.070572 0.203996
0.053647 -0.069754 0.201611
0.054217 -0.069257 0.200157
0.054335 -0.068211 0.197113
0.055081 -0.067975 0.196406
0.055652 -0.067534 0.195107
0.056127 -0.066994 0.193518
0.056801 -0.066704 0.192651
0.057656 -0.066633 0.192411
0.058334 -0.066362 0.191592
0.059037 -0.066128 0.190880
0.059727 -0.065886 0.190139
0.060462 -0.065701 0.189561
0.061307 -0.065639 0.189333
0.061978 -0.065395 0.188577
0.062588 -0.065094 0.187656
0.063506 -0.065118 0.187667
0.064151 -0.064865 0.186876
0.064777 -0.064600 0.186047
0.065637 -0.064573 0.185901
0.066362 -0.064414 0.185371
0.067201 -0.064370 0.185166
0.067813 -0.064111 0.184340
0.068425 -0.063859 0.183531
0.069262 -0.063821 0.183333
0.070046 -0.063736 0.182994
0.070634 -0.063476 0.182148
0.071377 -0.063361 0.181712
0.072372 -0.063469 0.181914
0.073593 -0.063771 0.182662
0.074531 -0.063823 0.182688
0.075024 -0.063497 0.181628
0.075832 -0.063442 0.181339
0.076695 -0.063433 0.181174
0.077240 -0.063166 0.180264
0.077714 -0.062846 0.179200
0.078486 -0.062772 0.178830
0.079119 -0.062589 0.178144
0.079745 -0.062404 0.177446
0.080344 -0.062203 0.176696
0.080959 -0.062018 0.175984
0.081464 -0.061754 0.175039
0.081961 -0.061489 0.174087
0.082430 -0.061209 0.173085
0.082751 -0.060825 0.171783
0.083197 -0.060540 0.170753
0.083409 -0.060092 0.169256
0.083846 -0.059813 0.168229
0.084423 -0.059639 0.167486
0.084724 -0.059274 0.166203
0.085548 -0.059280 0.165947
0.086658 -0.059481 0.166226
0.087620 -0.059577 0.166200
0.088620 -0.059698 0.166228
0.089645 -0.059833 0.166281
-0.056579 -0.099453 0.292555
-0.054791 -0.098719 0.290362
-0.053972 -0.099737 0.293323
-0.052248 -0.099092 0.291391
-0.050916 -0.099175 0.291599
-0.049430 -0.098955 0.290918
-0.047839 -0.098506 0.289563
-0.046316 -0.098178 0.288560
-0.044841 -0.097932 0.287801
-0.043597 -0.098191 0.288525
-0.042312 -0.098371 0.289018
-0.041202 -0.098987 0.290790
-0.039872 -0.099095 0.291069
-0.038621 -0.099418 0.291981
-0.037177 -0.099248 0.291444
-0.035887 -0.099490 0.292117
-0.034730 -0.100138 0.293984
-0.033285 -0.099974 0.293465
-0.031889 -0.099949 0.293357
-0.030641 -0.100408 0.294668
-0.029314 -0.100637 0.295305
-0.027937 -0.100714 0.295495
-0.026506 -0.100592 0.295104
-0.025516 -0.102221 0.299851
-0.023972 -0.101693 0.298270
-0.022488 -0.101373 0.297299
-0.021273 -0.102302 0.299992
-0.019818 -0.102128 0.299453
-0.018448 -0.102399 0.300216
-0.017104 -0.102871 0.301574
-0.015667 -0.102814 0.301380
-0.014315 -0.103366 0.302971
-0.012898 -0.103526 0.303417
-0.011434 -0.103291 0.302704
-0.009970 -0.102997 0.301819
-0.008509 -0.102642 0.300760
-0.007088 -0.102709 0.300936
-0.005644 -0.102407 0.300033
-0.004201 -0.101948 0.298670
-0.002785 -0.101958 0.298683
-0.001318 -0.098284 0.287906
0.000048 -0.098066 0.287257
0.001414 -0.098273 0.287852
0.002772 -0.097998 0.287034
0.004120 -0.097651 0.286010
0.005454 -0.097237 0.284790
0.006772 -0.096756 0.283376
0.008092 -0.096455 0.282488
0.009368 -0.095785 0.280522
0.010587 -0.094783 0.277586
0.011797 -0.093921 0.275060
0.013013 -0.093272 0.273158
0.014232 -0.092765 0.271675
0.015282 -0.091331 0.267477
0.016483 -0.090950 0.266362
0.017636 -0.090377 0.264687
0.018781 -0.089841 0.263122
0.019912 -0.089311 0.261575
0.021027 -0.088773 0.260004
0.022123 -0.088221 0.258395
0.023225 -0.087745 0.257009
0.024276 -0.087136 0.255234
0.025361 -0.086704 0.253975
0.026442 -0.086295 0.252786
0.027477 -0.085778 0.251282
0.028599 -0.085563 0.250663
0.029704 -0.085317 0.249951
0.030638 -0.084619 0.247916
0.031610 -0.084071 0.246322
0.032672 -0.083795 0.245524
0.033727 -0.083521 0.244732
0.034746 -0.083177 0.243734
0.035735 -0.082787 0.242603
0.036747 -0.082471 0.241688
0.037741 -0.082138 0.240722
0.038766 -0.081887 0.239996
0.039807 -0.081685 0.239413
0.040803 -0.081403 0.238596
0.041817 -0.081173 0.237930
0.042805 -0.080904 0.237151
0.043751 -0.080572 0.236185
0.044714 -0.080287 0.235356
0.045702 -0.080061 0.234700
0.046659 -0.079790 0.233912
0.047566 -0.079450 0.232918
0.048584 -0.079306 0.232501
0.049426 -0.078887 0.231275
0.050128 -0.078268 0.229459
0.050938 -0.077840 0.228204
0.051385 -0.076887 0.225408
0.051730 -0.075823 0.222286
0.051603 -0.074124 0.217300
0.051794 -0.072939 0.213821
0.051818 -0.071570 0.209798
0.051692 -0.070047 0.205326
0.052178 -0.069397 0.203409
0.052927 -0.069112 0.202561
0.053540 -0.068663 0.201230
0.054219 -0.068314 0.200188
0.054615 -0.067626 0.198154
0.055082 -0.067048 0.196440
0.055595 -0.066544 0.194940
0.056050 -0.065988 0.193286
0.056791 -0.065781 0.192651
0.057690 -0.065761 0.192562
0.058266 -0.065379 0.191410
0.058955 -0.065134 0.190658
0.059717 -0.064975 0.190154
0.060498 -0.064842 0.189723
0.061189 -0.064617 0.189020
0.061969 -0.064492 0.188606
0.062681 -0.064300 0.187992
0.063407 -0.064128 0.187434
0.064231 -0.064058 0.187171
0.064898 -0.063836 0.186460
0.065676 -0.063728 0.186079
0.066493 -0.063659 0.185809
0.067329 -0.063610 0.185591
0.068043 -0.063449 0.185043
0.068633 -0.063178 0.184171
0.069281 -0.062966 0.183466
0.070027 -0.062848 0.183029
0.070719 -0.062684 0.182458
0.071238 -0.062374 0.181453
0.072202 -0.062455 0.181583
0.073511 -0.062829 0.182558
0.074409 -0.062847 0.182493
0.074977 -0.062589 0.181622
0.075861 -0.062598 0.181518
0.076612 -0.062499 0.181095
0.077091 -0.062182 0.180036
0.077679 -0.061959 0.179241
0.078253 -0.061730 0.178425
0.078900 -0.061562 0.177782
0.079438 -0.061315 0.176898
0.080113 -0.061177 0.176327
0.080650 -0.060937 0.175455
0.081142 -0.060669 0.174494
0.081768 -0.060506 0.173830
0.082114 -0.060140 0.172576
0.082503 -0.059814 0.171428
0.082778 -0.059412 0.170057
0.082997 -0.058978 0.168587
0.083091 -0.058465 0.166886
0.083505 -0.058184 0.165843
0.084049 -0.057999 0.165061
0.084209 -0.057554 0.163534
0.085805 -0.058091 0.164785
0.086673 -0.058129 0.164605
0.087751 -0.058305 0.164805
0.089122 -0.058671 0.165525
-0.055888 -0.096866 0.288924
-0.054256 -0.096389 0.287467
-0.053535 -0.097547 0.290883
-0.051826 -0.096918 0.288971
-0.050551 -0.097087 0.289438
-0.049266 -0.097248 0.289879
-0.047638 -0.096721 0.288272
-0.046206 -0.096573 0.287792
-0.044840 -0.096560 0.287713
-0.043545 -0.096702 0.288098
-0.042213 -0.096768 0.288255
-0.040805 -0.096660 0.287894
-0.039620 -0.097091 0.289141
-0.038224 -0.097015 0.288876
-0.037050 -0.097520 0.290341
-0.035837 -0.097960 0.291611
-0.034791 -0.098908 0.294393
-0.033344 -0.098746 0.293874
-0.031946 -0.098722 0.293766
-0.030696 -0.099176 0.295079
-0.029367 -0.099403 0.295717
-0.027988 -0.099479 0.295908
-0.027026 -0.101122 0.300757
-0.025614 -0.101169 0.300865
-0.024083 -0.100729 0.299520
-0.022739 -0.101061 0.300474
-0.021278 -0.100884 0.299915
-0.019874 -0.100970 0.300142
-0.018486 -0.101155 0.300662
-0.017130 -0.101570 0.301865
-0.015749 -0.101889 0.302786
-0.014309 -0.101862 0.302679
-0.012907 -0.102123 0.303430
-0.011494 -0.102355 0.304094
-0.009867 -0.100477 0.298492
-0.008538 -0.101499 0.301508
-0.007093 -0.101295 0.300881
-0.005577 -0.099719 0.296181
-0.004213 -0.100704 0.299091
-0.002714 -0.097829 0.290537
-0.001325 -0.097067 0.288258
0.000043 -0.096603 0.286869
0.001409 -0.096847 0.287581
0.002768 -0.096640 0.286957
0.004110 -0.096158 0.285518
0.005444 -0.095787 0.284407
0.006767 -0.095390 0.283223
0.008074 -0.094949 0.281908
0.009334 -0.094153 0.279542
0.010578 -0.093417 0.277354
0.011837 -0.092962 0.276004
0.013057 -0.092320 0.274096
0.014139 -0.090903 0.269891
0.015271 -0.090017 0.267263
0.016470 -0.089637 0.266137
0.017671 -0.089315 0.265186
0.018713 -0.088288 0.262142
0.019868 -0.087889 0.260964
0.021062 -0.087700 0.260409
0.022120 -0.086993 0.258319
0.023193 -0.086421 0.256627
0.024224 -0.085755 0.254660
0.025297 -0.085294 0.253300
0.026388 -0.084933 0.252238
0.027500 -0.084666 0.251454
0.028577 -0.084320 0.250440
0.029534 -0.083660 0.248490
0.030521 -0.083134 0.246941
0.031605 -0.082900 0.246257
0.032713 -0.082744 0.245806
0.033749 -0.082422 0.244860
0.034773 -0.082094 0.243900
0.035815 -0.081827 0.243119
0.036827 -0.081511 0.242192
0.037830 -0.081195 0.241266
0.038843 -0.080917 0.240452
0.039893 -0.080732 0.239913
0.040856 -0.080384 0.238890
0.041852 -0.080118 0.238111
0.042852 -0.079873 0.237395
0.043758 -0.079472 0.236211
0.044686 -0.079128 0.235198
0.045684 -0.078922 0.234594
0.046664 -0.078695 0.233926
0.047608 -0.078421 0.233118
0.048568 -0.078183 0.232418
0.049411 -0.077772 0.231199
0.050257 -0.077384 0.230050
0.051096 -0.077002 0.228916
0.051877 -0.076550 0.227572
0.052274 -0.075560 0.224628
0.051926 -0.073556 0.218668
0.051901 -0.072078 0.214270
0.052038 -0.070879 0.210700
0.051635 -0.069002 0.205113
0.052206 -0.068472 0.203531
0.052679 -0.067835 0.201627
0.053347 -0.067469 0.200526
0.053663 -0.066678 0.198159
0.054481 -0.066526 0.197691
0.055207 -0.066270 0.196912
0.055500 -0.065509 0.194632
0.056024 -0.065044 0.193225
0.056631 -0.064688 0.192142
0.057510 -0.064648 0.191996
0.058254 -0.064460 0.191409
0.058956 -0.064233 0.190701
0.059706 -0.064063 0.190161
0.060455 -0.063898 0.189632
0.061201 -0.063734 0.189103
0.061956 -0.063585 0.188614
0.062593 -0.063320 0.187781
0.063340 -0.063173 0.187292
0.064113 -0.063054 0.186886
0.064755 -0.062812 0.186109
0.065530 -0.062705 0.185729
0.066287 -0.062582 0.185299
0.067035 -0.062455 0.184852
0.067816 -0.062361 0.184500
0.068440 -0.062127 0.183729
0.069027 -0.061866 0.182872
0.069875 -0.061843 0.182716
0.070496 -0.061620 0.181966
0.071042 -0.061339 0.181040
0.071893 -0.061326 0.180897
0.072941 -0.061477 0.181237
0.073948 -0.061592 0.181462
0.074493 -0.061324 0.180553
0.075297 -0.061272 0.180276
0.076133 -0.061247 0.180071
0.076613 -0.060939 0.179031
0.077343 -0.060835 0.178583
0.077780 -0.060506 0.177468
0.078521 -0.060418 0.177053
0.079193 -0.060278 0.176481
0.079738 -0.060046 0.175634
0.080466 -0.059956 0.175193
0.080936 -0.059676 0.174192
0.081470 -0.059450 0.173341
0.081890 -0.059145 0.172254
0.082218 -0.058781 0.170988
0.082519 -0.058405 0.169682
0.082332 -0.057695 0.167398
0.082094 -0.056962 0.165046
0.082097 -0.056410 0.163213
0.082333 -0.056027 0.161863
0.083424 -0.056227 0.162188
0.084783 -0.056603 0.163006
0.085799 -0.056744 0.163135
0.087191 -0.057130 0.163952
0.088475 -0.057437 0.164529
-0.055549 -0.094914 0.287110
-0.053687 -0.094025 0.284384
-0.052814 -0.094869 0.286897
-0.051512 -0.094964 0.287146
-0.050248 -0.095138 0.287633
-0.048887 -0.095131 0.287572
-0.047354 -0.094781 0.286475
-0.046025 -0.094830 0.286583
-0.045125 -0.095793 0.289452
-0.043911 -0.096130 0.290428
-0.042552 -0.096161 0.290481
-0.041171 -0.096142 0.290381
-0.039760 -0.096051 0.290064
-0.038565 -0.096491 0.291353
-0.037021 -0.096061 0.290013
-0.035702 -0.096203 0.290402
-0.034350 -0.096264 0.290545
-0.027148 -0.079254 0.239174
-0.026061 -0.079392 0.239558
-0.024960 -0.079496 0.239841
-0.023790 -0.079380 0.239459
-0.022600 -0.079184 0.238839
-0.021553 -0.079496 0.239749
-0.025661 -0.099910 0.301281
-0.023985 -0.098886 0.298157
-0.022613 -0.099066 0.298665
-0.021224 -0.099186 0.298993
-0.019888 -0.099594 0.300193
-0.018498 -0.099773 0.300701
-0.017162 -0.100299 0.302256
-0.015784 -0.100651 0.303289
-0.014322 -0.100482 0.302750
-0.012934 -0.100856 0.303852
-0.011518 -0.101085 0.304517
-0.009986 -0.100208 0.301852
-0.008555 -0.100228 0.301890
-0.007129 -0.100321 0.302148
-0.005681 -0.100066 0.301364
-0.004251 -0.100079 0.301383
-0.002730 -0.096864 0.291686
-0.001328 -0.095628 0.287950
0.000039 -0.095439 0.287369
0.001402 -0.095331 0.287032
0.002757 -0.095053 0.286187
0.004106 -0.094803 0.285424
0.005439 -0.094415 0.284249
0.006747 -0.093835 0.282496
0.008045 -0.093319 0.280938
0.009314 -0.092664 0.278963
0.010532 -0.091729 0.276149
0.011789 -0.091304 0.274869
0.012983 -0.090525 0.272524
0.014153 -0.089734 0.270146
0.015359 -0.089285 0.268796
0.016476 -0.088422 0.266201
0.017576 -0.087605 0.263746
0.018696 -0.086984 0.261885
0.019847 -0.086577 0.260665
0.021013 -0.086277 0.259771
0.022095 -0.085684 0.257994
0.023180 -0.085169 0.256451
0.024235 -0.084596 0.254738
0.025285 -0.084062 0.253140
0.026409 -0.083812 0.252398
0.027498 -0.083476 0.251399
0.028485 -0.082873 0.249595
0.029561 -0.082565 0.248681
0.030636 -0.082280 0.247836
0.031776 -0.082183 0.247557
0.032849 -0.081925 0.246794
0.033839 -0.081486 0.245484
0.034868 -0.081164 0.244529
0.035923 -0.080924 0.243821
0.036951 -0.080639 0.242976
0.037963 -0.080338 0.242085
0.038982 -0.080069 0.241286
0.040001 -0.079815 0.240534
0.041010 -0.079555 0.239764
0.042008 -0.079288 0.238974
0.043014 -0.079051 0.238271
0.043971 -0.078739 0.237342
0.044965 -0.078504 0.236646
0.045915 -0.078209 0.235766
0.046845 -0.077892 0.234820
0.047804 -0.077638 0.234065
0.048786 -0.077433 0.233453
0.049603 -0.076979 0.232091
0.050232 -0.076260 0.229929
0.050950 -0.075704 0.228256
0.051713 -0.075236 0.226849
0.051964 -0.074058 0.223299
0.052435 -0.073234 0.220813
0.052058 -0.071282 0.214926
0.052017 -0.069854 0.210619
0.051654 -0.068057 0.205196
0.052233 -0.067545 0.203646
0.052579 -0.066757 0.201261
0.053545 -0.066768 0.201285
0.053986 -0.066136 0.199368
0.054589 -0.065722 0.198104
0.055193 -0.065321 0.196881
0.055638 -0.064751 0.195143
0.055980 -0.064079 0.193098
0.056792 -0.063960 0.192716
0.057603 -0.063842 0.192337
0.058298 -0.063603 0.191586
0.059044 -0.063425 0.191021
0.059794 -0.063257 0.190480
0.060474 -0.063020 0.189732
0.061285 -0.062925 0.189406
0.062044 -0.062781 0.188929
0.062680 -0.062517 0.188092
0.063405 -0.062348 0.187534
0.064169 -0.062223 0.187105
0.064915 -0.062083 0.186628
0.065600 -0.061889 0.185985
0.066285 -0.061700 0.185355
0.067006 -0.061550 0.184836
0.067705 -0.061384 0.184265
0.068248 -0.061082 0.183284
0.068746 -0.060747 0.182201
0.069505 -0.060650 0.181825
0.070205 -0.060504 0.181297
0.070873 -0.060333 0.180693
0.071718 -0.060316 0.180544
0.072731 -0.060439 0.180807
0.073650 -0.060482 0.180825
0.074285 -0.060293 0.180147
0.074998 -0.060170 0.179661
0.075673 -0.060021 0.179089
0.076382 -0.059902 0.178601
0.076872 -0.059615 0.177607
0.077427 -0.059384 0.176777
0.078184 -0.059312 0.176412
0.078720 -0.059075 0.175550
0.079366 -0.058926 0.174941
0.080077 -0.058827 0.174477
0.080624 -0.058610 0.173656
0.081003 -0.058277 0.172485
0.081484 -0.058024 0.171543
0.081855 -0.057699 0.170381
0.082221 -0.057376 0.169219
0.082421 -0.056945 0.167733
0.081584 -0.055813 0.164178
0.080463 -0.054510 0.160123
0.080441 -0.053970 0.158304
0.082061 -0.054531 0.159706
0.084614 -0.055696 0.162858
0.085608 -0.055822 0.162956
0.086724 -0.056025 0.163264
0.088288 -0.056511 0.164382
-0.054611 -0.091972 0.282202
-0.052777 -0.091103 0.279497
-0.052898 -0.093653 0.287281
-0.051388 -0.093373 0.286381
-0.049942 -0.093199 0.285806
-0.048966 -0.093915 0.287958
-0.047431 -0.093571 0.286860
-0.046098 -0.093615 0.286955
-0.045026 -0.094210 0.288733
-0.043744 -0.094386 0.289230
-0.042368 -0.094367 0.289130
-0.041341 -0.095150 0.291483
-0.039720 -0.094571 0.289669
-0.038122 -0.094010 0.287905
-0.037467 -0.095818 0.293401
-0.036103 -0.095881 0.293551
-0.028923 -0.079887 0.244549
-0.027072 -0.077891 0.238406
-0.026016 -0.078111 0.239045
-0.024991 -0.078446 0.240036
-0.023783 -0.078213 0.239292
-0.022659 -0.078243 0.239352
-0.021615 -0.078569 0.240320
-0.024897 -0.095532 0.292169
-0.023523 -0.095577 0.292268
-0.022223 -0.095944 0.293359
-0.021026 -0.096840 0.296064
-0.019628 -0.096868 0.296115
-0.018290 -0.097220 0.297160
-0.016913 -0.097407 0.297702
-0.015815 -0.099381 0.303706
-0.014350 -0.099214 0.303166
-0.010668 -0.081976 0.250472
-0.009368 -0.081006 0.247487
-0.008195 -0.081024 0.247522
-0.008574 -0.098964 0.302306
-0.007146 -0.099056 0.302565
-0.004125 -0.095630 0.292063
-0.002738 -0.095639 0.292076
-0.001334 -0.094400 0.288276
0.000036 -0.094064 0.287239
0.001400 -0.094097 0.287327
0.002759 -0.093889 0.286683
0.004100 -0.093408 0.285206
0.005425 -0.092899 0.283645
0.006739 -0.092429 0.282205
0.008027 -0.091826 0.280361
0.009225 -0.090503 0.276318
0.010472 -0.089943 0.274606
0.011731 -0.089591 0.273532
0.012912 -0.088769 0.271024
0.014151 -0.088465 0.270100
0.015225 -0.087262 0.266429
0.016428 -0.086927 0.265411
0.017555 -0.086262 0.263387
0.018692 -0.085735 0.261784
0.019839 -0.085317 0.260517
0.020942 -0.084769 0.258852
0.022045 -0.084282 0.257376
0.023190 -0.084000 0.256525
0.024236 -0.083401 0.254706
0.025398 -0.083243 0.254237
0.026462 -0.082790 0.252866
0.027538 -0.082413 0.251727
0.028474 -0.081666 0.249459
0.029539 -0.081334 0.248460
0.030622 -0.081074 0.247682
0.031725 -0.080886 0.247120
0.032770 -0.080567 0.246161
0.033846 -0.080343 0.245494
0.034941 -0.080181 0.245013
0.035991 -0.079926 0.244251
0.037054 -0.079715 0.243622
0.038082 -0.079444 0.242811
0.039024 -0.079015 0.241514
0.040058 -0.078792 0.240848
0.041096 -0.078588 0.240239
0.042078 -0.078292 0.239351
0.043081 -0.078049 0.238621
0.044109 -0.077861 0.238060
0.045114 -0.077644 0.237411
0.046052 -0.077326 0.236450
0.047024 -0.077078 0.235704
0.048016 -0.076872 0.235085
0.048872 -0.076464 0.233849
0.049741 -0.076093 0.232724
0.050614 -0.075745 0.231666
0.051495 -0.075425 0.230692
0.052336 -0.075059 0.229579
0.052103 -0.073198 0.223892
0.052434 -0.072189 0.220808
0.051975 -0.070154 0.214583
0.051920 -0.068732 0.210233
0.051664 -0.067102 0.205244
0.051989 -0.066273 0.202705
0.052942 -0.066260 0.202658
0.053263 -0.065470 0.200235
0.053778 -0.064943 0.198616
0.054729 -0.064952 0.198629
0.055216 -0.064418 0.196984
0.055779 -0.063989 0.195657
0.056308 -0.063537 0.194255
0.057033 -0.063316 0.193560
0.057737 -0.063079 0.192812
0.058432 -0.062840 0.192058
0.059053 -0.062531 0.191083
0.059798 -0.062359 0.190528
0.060578 -0.062229 0.190097
0.061318 -0.062062 0.189550
0.062080 -0.061921 0.189080
0.062812 -0.061756 0.188533
0.063507 -0.061559 0.187886
0.064228 -0.061392 0.187326
0.065017 -0.061294 0.186975
0.065734 -0.061132 0.186423
0.066409 -0.060935 0.185762
0.067042 -0.060705 0.184998
0.067690 -0.060495 0.184289
0.068312 -0.060267 0.183522
0.068722 -0.059861 0.182209
0.069297 -0.059607 0.181354
0.069969 -0.059440 0.180762
0.070653 -0.059289 0.180213
0.071532 -0.059301 0.180157
0.072538 -0.059419 0.180415
0.073393 -0.059411 0.180283
0.074008 -0.059211 0.179566
0.074627 -0.059019 0.178868
0.075302 -0.058875 0.178311
0.075980 -0.058737 0.177765
0.076532 -0.058505 0.176929
0.077159 -0.058335 0.176275
0.077795 -0.058175 0.175647
0.078528 -0.058091 0.175240
0.079149 -0.057926 0.174584
0.079880 -0.057845 0.174173
0.080381 -0.057600 0.173261
0.080812 -0.057311 0.172212
0.081199 -0.056997 0.171081
0.081544 -0.056660 0.169873
0.081809 -0.056274 0.168515
0.081946 -0.055809 0.166914
0.082156 -0.055402 0.165480
0.082076 -0.054809 0.163486
0.082784 -0.054750 0.163075
0.083926 -0.054975 0.163503
0.084637 -0.054916 0.163073
0.085282 -0.054816 0.162511
0.086777 -0.055260 0.163548
0.088035 -0.055545 0.164101
-0.051469 -0.092158 0.286759
-0.050022 -0.091987 0.286184
-0.039872 -0.075358 0.234413
-0.038797 -0.075422 0.234573
-0.046174 -0.092401 0.287336
-0.045101 -0.092988 0.289117
-0.043754 -0.093031 0.289205
-0.042187 -0.092593 0.287798
-0.040764 -0.092452 0.287317
-0.039557 -0.092809 0.288381
-0.038220 -0.092875 0.288540
-0.037531 -0.094580 0.293794
-0.030785 -0.080563 0.250214
-0.028973 -0.078856 0.244878
-0.027244 -0.077240 0.239822
-0.026163 -0.077403 0.240295
-0.025094 -0.077615 0.240919
-0.023896 -0.077433 0.240320
-0.022760 -0.077443 0.240318
-0.021550 -0.077185 0.239487
-0.025021 -0.094600 0.293484
-0.023640 -0.094644 0.293584
-0.022216 -0.094508 0.293124
-0.020915 -0.094913 0.294346
-0.019468 -0.094662 0.293534
-0.018078 -0.094676 0.293547
-0.016838 -0.095544 0.296208
-0.015438 -0.095575 0.296274
-0.011776 -0.080215 0.248634
-0.010527 -0.079692 0.246990
-0.009363 -0.079766 0.247200
-0.008202 -0.079889 0.247561
-0.006989 -0.079457 0.246202
-0.005813 -0.079370 0.245917
-0.005524 -0.094380 0.292403
-0.004135 -0.094392 0.292422
-0.002711 -0.093177 0.288643
-0.001333 -0.092733 0.287252
0.000032 -0.092791 0.287421
0.001394 -0.092578 0.286748
0.002748 -0.092270 0.285785
0.004086 -0.091814 0.284366
0.005399 -0.091168 0.282359
0.006689 -0.090460 0.280161
0.007972 -0.089914 0.278466
0.009203 -0.089023 0.275702
0.010412 -0.088156 0.273019
0.011697 -0.088059 0.272717
0.012924 -0.087586 0.271257
0.014088 -0.086814 0.268867
0.015233 -0.086061 0.266540
0.016401 -0.085543 0.264940
0.017581 -0.085157 0.263754
0.018655 -0.084341 0.261232
0.019799 -0.083924 0.259952
0.020942 -0.083553 0.258813
0.022043 -0.083066 0.257313
0.023161 -0.082690 0.256162
0.024245 -0.082233 0.254757
0.025291 -0.081700 0.253120
0.026419 -0.081466 0.252409
0.027452 -0.080976 0.250905
0.028530 -0.080650 0.249912
0.029627 -0.080401 0.249155
0.030688 -0.080080 0.248175
0.031751 -0.079786 0.247281
0.032807 -0.079496 0.246401
0.033888 -0.079284 0.245759
0.034969 -0.079087 0.245167
0.035997 -0.078786 0.244253
0.037084 -0.078629 0.243783
0.038139 -0.078417 0.243142
0.039115 -0.078057 0.242043
0.040176 -0.077884 0.241527
0.041166 -0.077587 0.240621
0.042174 -0.077338 0.239865
0.043176 -0.077091 0.239115
0.044168 -0.076840 0.238353
0.045164 -0.076609 0.237652
0.046051 -0.076207 0.236421
0.046936 -0.075822 0.235240
0.047921 -0.075612 0.234603
0.048887 -0.075383 0.233904
0.049800 -0.075083 0.232985
0.050776 -0.074891 0.232398
0.051456 -0.074279 0.230507
0.052285 -0.073902 0.229347
0.052080 -0.072109 0.223788
0.052548 -0.071301 0.221286
0.051788 -0.068891 0.213809
0.051411 -0.067074 0.208172
0.051596 -0.066045 0.204976
0.052074 -0.065422 0.203042
0.052589 -0.064867 0.201314
0.053311 -0.064583 0.200428
0.053896 -0.064145 0.199063
0.054439 -0.063673 0.197589
0.055081 -0.063331 0.196516
0.055658 -0.062927 0.195251
0.056322 -0.062633 0.194323
0.056958 -0.062318 0.193328
0.057699 -0.062126 0.192710
0.058446 -0.061946 0.192130
0.059165 -0.061743 0.191475
0.059847 -0.061507 0.190714
0.060651 -0.061402 0.190359
0.061405 -0.061250 0.189854
0.062045 -0.060992 0.189015
0.062780 -0.060832 0.188479
0.063526 -0.060686 0.187986
0.064225 -0.060501 0.187365
0.064953 -0.060348 0.186842
0.065597 -0.060122 0.186087
0.066135 -0.059806 0.185052
0.066688 -0.059512 0.184080
0.067328 -0.059301 0.183365
0.067921 -0.059055 0.182536
0.068366 -0.058689 0.181332
0.068814 -0.058334 0.180157
0.069411 -0.058113 0.179393
0.070206 -0.058060 0.179145
0.071051 -0.058051 0.179024
0.072049 -0.058164 0.179279
0.072809 -0.058086 0.178935
0.073531 -0.057978 0.178497
0.074095 -0.057750 0.177684
0.074908 -0.057720 0.177473
0.075546 -0.057556 0.176846
0.076251 -0.057447 0.176381
0.076871 -0.057276 0.175723
0.077481 -0.057102 0.175048
0.078229 -0.057033 0.174686
0.078861 -0.056881 0.174066
0.079526 -0.056755 0.173521
0.080026 -0.056516 0.172621
0.080537 -0.056290 0.171755
0.080929 -0.055985 0.170642
0.081219 -0.055617 0.169332
0.081700 -0.055386 0.168430
0.081983 -0.055026 0.167132
0.082261 -0.054670 0.165839
0.082594 -0.054358 0.164670
0.082900 -0.054033 0.163458
0.083874 -0.054146 0.163561
0.084832 -0.054247 0.163616
0.085164 -0.053949 0.162458
0.086538 -0.054310 0.163275
0.087877 -0.054643 0.163990
-0.043548 -0.072982 0.230510
-0.042499 -0.073049 0.230685
-0.041342 -0.072930 0.230272
-0.040193 -0.072818 0.229882
-0.039038 -0.072689 0.229439
-0.038097 -0.072964 0.230268
-0.037462 -0.073857 0.233048
-0.044909 -0.091221 0.287791
-0.043582 -0.091293 0.287972
-0.041331 -0.089370 0.281859
-0.041399 -0.092501 0.291686
-0.040048 -0.092569 0.291853
-0.033625 -0.080498 0.253755
-0.032053 -0.079576 0.250809
-0.030668 -0.079067 0.249167
-0.028996 -0.077747 0.244969
-0.027307 -0.076270 0.240277
-0.026189 -0.076329 0.240426
-0.025106 -0.076500 0.240932
-0.023990 -0.076581 0.241151
-0.022837 -0.076549 0.241015
-0.021616 -0.076272 0.240111
-0.020698 -0.077094 0.242666
-0.023684 -0.093407 0.293977
-0.022257 -0.093272 0.293517
-0.020954 -0.093673 0.294741
-0.019504 -0.093425 0.293927
-0.016871 -0.094297 0.296606
-0.013452 -0.082034 0.258006
-0.011800 -0.079168 0.248968
-0.010586 -0.078934 0.248209
-0.009423 -0.079064 0.248596
-0.008253 -0.079167 0.248898
-0.007048 -0.078907 0.248063
-0.005863 -0.078827 0.247793
-0.005450 -0.091682 0.288184
-0.004095 -0.092008 0.289190
-0.002711 -0.091686 0.288162
-0.001339 -0.091479 0.287497
0.000028 -0.091431 0.287334
0.001388 -0.091091 0.286255
0.002740 -0.090793 0.285309
0.004065 -0.090094 0.283102
0.005377 -0.089518 0.281288
0.006682 -0.089084 0.279919
0.007923 -0.088091 0.276794
0.009154 -0.087280 0.274245
0.010437 -0.087098 0.273674
0.011658 -0.086500 0.271796
0.012890 -0.086094 0.270523
0.014041 -0.085272 0.267943
0.015243 -0.084866 0.266674
0.016386 -0.084222 0.264654
0.017456 -0.083324 0.261842
0.018619 -0.082954 0.260688
0.019763 -0.082556 0.259448
0.020853 -0.081989 0.257675
0.022015 -0.081753 0.256944
0.023139 -0.081405 0.255865
0.024191 -0.080854 0.254147
0.025335 -0.080650 0.253520
0.026451 -0.080375 0.252672
0.027574 -0.080147 0.251970
0.028631 -0.079754 0.250751
0.029686 -0.079386 0.249610
0.030809 -0.079219 0.249105
0.031862 -0.078894 0.248100
0.032884 -0.078519 0.246938
0.033976 -0.078329 0.246361
0.035076 -0.078169 0.245878
0.036114 -0.077886 0.245005
0.037176 -0.077671 0.244350
0.038230 -0.077453 0.243682
0.039260 -0.077199 0.242904
0.040221 -0.076829 0.241759
0.041255 -0.076616 0.241106
0.042281 -0.076399 0.240443
0.043296 -0.076173 0.239752
0.044292 -0.075927 0.238994
0.045309 -0.075729 0.238389
0.046235 -0.075391 0.237341
0.047094 -0.074963 0.236010
0.048027 -0.074670 0.235102
0.049029 -0.074494 0.234564
0.050038 -0.074336 0.234081
0.050931 -0.074018 0.233091
0.051644 -0.073457 0.231335
0.052431 -0.073022 0.229976
0.052141 -0.071135 0.224041
0.052434 -0.070103 0.220797
0.051238 -0.067160 0.211533
0.051430 -0.066115 0.208247
0.051508 -0.064965 0.204626
0.052108 -0.064504 0.203176
0.052740 -0.064099 0.201898
0.053368 -0.063702 0.200645
0.053832 -0.063129 0.198834
0.054289 -0.062566 0.197056
0.054943 -0.062246 0.196039
0.055581 -0.061919 0.194996
0.056139 -0.061513 0.193707
0.056775 -0.061207 0.192727
0.057498 -0.061002 0.192062
0.058137 -0.060714 0.191137
0.058961 -0.060627 0.190841
0.059732 -0.060488 0.190378
0.060451 -0.060302 0.189762
0.061337 -0.060285 0.189679
0.062093 -0.060142 0.189196
0.062811 -0.059968 0.188610
0.063537 -0.059806 0.188060
0.064275 -0.059660 0.187556
0.064982 -0.059489 0.186971
0.065630 -0.059269 0.186231
0.066288 -0.059064 0.185530
0.066874 -0.058801 0.184647
0.067327 -0.058429 0.183418
0.067562 -0.057881 0.181632
0.067977 -0.057499 0.180362
0.068866 -0.057521 0.180358
0.069324 -0.057189 0.179238
0.069850 -0.056918 0.178308
0.070856 -0.057042 0.178608
0.071586 -0.056942 0.178204
0.072406 -0.056916 0.178024
0.073128 -0.056814 0.177604
0.073707 -0.056605 0.176842
0.074448 -0.056523 0.176473
0.075139 -0.056405 0.175987
0.075886 -0.056333 0.175635
0.076482 -0.056150 0.174934
0.077222 -0.056075 0.174566
0.077987 -0.056021 0.174253
0.078592 -0.055854 0.173583
0.079223 -0.055709 0.172976
0.079758 -0.055500 0.172163
0.080198 -0.055230 0.171154
0.080586 -0.054929 0.170046
0.080968 -0.054631 0.168938
0.081255 -0.054275 0.167646
0.081684 -0.054020 0.166659
0.082228 -0.053846 0.165914
0.082509 -0.053504 0.164646
0.083125 -0.053384 0.164052
0.084184 -0.053548 0.164321
0.085000 -0.053556 0.164100
0.085639 -0.053453 0.163530
0.086805 -0.053678 0.163950
0.087922 -0.053868 0.164253
-0.046238 -0.074466 0.238755
-0.043608 -0.071985 0.230764
-0.042234 -0.071503 0.229181
-0.041142 -0.071488 0.229093
-0.040306 -0.071926 0.230460
-0.039080 -0.071675 0.229616
-0.037986 -0.071659 0.229524
-0.037523 -0.072866 0.233350
-0.043654 -0.090070 0.288346
-0.041399 -0.088173 0.282226
-0.041468 -0.091262 0.292066
-0.034576 -0.078718 0.251877
-0.033408 -0.078775 0.252017
-0.031559 -0.077172 0.246848
-0.029872 -0.075856 0.242601
-0.028566 -0.075442 0.241238
-0.027371 -0.075298 0.240739
-0.026263 -0.075392 0.241003
-0.025168 -0.075533 0.241417
-0.024059 -0.075644 0.241734
-0.022927 -0.075693 0.241857
-0.021753 -0.075597 0.241514
-0.020736 -0.076068 0.242987
-0.019813 -0.076961 0.245808
-0.018843 -0.077770 0.248359
-0.017782 -0.078289 0.249985
-0.016710 -0.078831 0.251685
-0.015763 -0.080088 0.255668
-0.014554 -0.080116 0.255730
-0.013478 -0.080945 0.258348
-0.011836 -0.078204 0.249575
-0.010607 -0.077880 0.248517
-0.009432 -0.077927 0.248646
-0.008259 -0.078007 0.248879
-0.007079 -0.078038 0.248958
-0.005897 -0.078052 0.248985
-0.005436 -0.090017 0.287134
-0.004079 -0.090202 0.287705
-0.002711 -0.090188 0.287643
-0.001340 -0.089914 0.286756
0.000024 -0.089832 0.286481
0.001382 -0.089527 0.285499
0.002718 -0.088841 0.283300
0.004053 -0.088568 0.282422
0.005354 -0.087873 0.280202
0.006635 -0.087195 0.278033
0.007919 -0.086771 0.276679
0.009155 -0.086013 0.274263
0.010407 -0.085583 0.272892
0.011644 -0.085134 0.271461
0.012818 -0.084357 0.268987
0.014034 -0.083975 0.267774
0.015194 -0.083349 0.265783
0.016318 -0.082638 0.263523
0.017377 -0.081723 0.260614
0.018586 -0.081587 0.260189
0.019786 -0.081430 0.259700
0.020756 -0.080400 0.256426
0.021880 -0.080048 0.255318
0.023045 -0.079877 0.254786
0.024167 -0.079580 0.253853
0.025279 -0.079277 0.252902
0.026413 -0.079071 0.252261
0.027523 -0.078814 0.251458
0.028640 -0.078594 0.250775
0.029720 -0.078299 0.249850
0.030836 -0.078114 0.249282
0.031926 -0.077879 0.248549
0.032920 -0.077436 0.247157
0.033961 -0.077130 0.246201
0.035110 -0.077084 0.246073
0.036154 -0.076815 0.245237
0.037199 -0.076563 0.244455
0.038302 -0.076446 0.244100
0.039284 -0.076100 0.243018
0.040252 -0.075747 0.241912
0.041273 -0.075509 0.241172
0.042303 -0.075302 0.240531
0.043333 -0.075104 0.239921
0.044358 -0.074910 0.239320
0.045381 -0.074720 0.238734
0.046420 -0.074566 0.238261
0.047307 -0.074182 0.237051
0.048322 -0.074010 0.236520
0.049297 -0.073786 0.235821
0.050331 -0.073660 0.235432
0.051336 -0.073497 0.234926
0.052008 -0.072874 0.232950
0.051920 -0.071233 0.227717
0.051873 -0.069716 0.222876
0.051948 -0.068419 0.218742
0.051913 -0.067033 0.214315
0.051058 -0.064659 0.206734
0.051293 -0.063731 0.203769
0.051612 -0.062938 0.201238
0.052536 -0.062900 0.201116
0.052854 -0.062150 0.198718
0.053599 -0.061919 0.197977
0.054379 -0.061737 0.197390
0.054884 -0.061253 0.195836
0.055613 -0.061031 0.195117
0.056333 -0.060807 0.194392
0.056972 -0.060504 0.193411
0.057689 -0.060292 0.192717
0.058457 -0.060139 0.192211
0.059074 -0.059839 0.191231
0.059714 -0.059570 0.190348
0.060530 -0.059481 0.190040
0.061275 -0.059327 0.189519
0.062034 -0.059190 0.189049
0.062815 -0.059079 0.188659
0.063570 -0.058945 0.188195
0.064331 -0.058821 0.187758
0.065017 -0.058633 0.187114
0.065708 -0.058456 0.186498
0.066347 -0.058236 0.185746
0.066770 -0.057835 0.184411
0.066988 -0.057269 0.182549
0.067368 -0.056855 0.181166
0.067789 -0.056485 0.179920
0.068362 -0.056250 0.179101
0.068772 -0.055887 0.177873
0.069722 -0.055967 0.178049
0.070586 -0.055977 0.177997
0.071440 -0.055979 0.177915
0.072240 -0.055939 0.177692
0.072897 -0.055790 0.177121
0.073482 -0.055591 0.176385
0.074253 -0.055534 0.176095
0.074922 -0.055404 0.175568
0.075547 -0.055245 0.174941
0.076294 -0.055177 0.174600
0.076920 -0.055024 0.173982
0.077703 -0.054986 0.173723
0.078411 -0.054895 0.173291
0.079059 -0.054765 0.172727
0.079655 -0.054602 0.172054
0.080255 -0.054445 0.171392
0.080596 -0.054117 0.170187
0.080942 -0.053800 0.169009
0.081332 -0.053517 0.167934
0.081623 -0.053176 0.166668
0.082095 -0.052957 0.165781
0.082563 -0.052741 0.164893
0.082968 -0.052489 0.163886
0.083947 -0.052602 0.164008
0.084905 -0.052699 0.164071
0.085477 -0.052556 0.163379
0.086590 -0.052747 0.163709
0.087911 -0.053059 0.164405
-0.047392 -0.073373 0.238867
-0.046309 -0.073444 0.239058
-0.043534 -0.070768 0.230308
-0.042251 -0.070443 0.229209
-0.041195 -0.070488 0.229318
-0.040141 -0.070541 0.229448
-0.039166 -0.070739 0.230050
-0.038103 -0.070784 0.230155
-0.036817 -0.070405 0.228884
-0.037628 -0.074136 0.240971
-0.036449 -0.074057 0.240671
-0.035007 -0.073420 0.238557
-0.033920 -0.073513 0.238817
-0.032812 -0.073562 0.238934
-0.031776 -0.073784 0.239615
-0.030621 -0.073736 0.239417
-0.029582 -0.073972 0.240145
-0.028500 -0.074118 0.240579
-0.027424 -0.074291 0.241101
-0.026364 -0.074526 0.241823
-0.025289 -0.074738 0.242474
-0.024208 -0.074948 0.243119
-0.023115 -0.075143 0.243714
-0.022028 -0.075380 0.244448
-0.020969 -0.075746 0.245597
-0.019862 -0.075968 0.246285
-0.018730 -0.076119 0.246742
-0.017600 -0.076297 0.247285
-0.016460 -0.076456 0.247773
-0.015319 -0.076637 0.248328
-0.014161 -0.076752 0.248674
-0.013004 -0.076893 0.249101
-0.011821 -0.076895 0.249084
-0.010640 -0.076916 0.249127
-0.009480 -0.077115 0.249748
-0.008288 -0.077067 0.249571
-0.007097 -0.077011 0.249372
-0.005877 -0.076573 0.247935
-0.005454 -0.088887 0.287785
-0.004104 -0.089291 0.289074
-0.002715 -0.088835 0.287582
-0.001341 -0.088392 0.286134
0.000020 -0.088446 0.286294
0.001377 -0.088131 0.285265
0.002717 -0.087570 0.283438
0.004044 -0.087111 0.281945
0.005363 -0.086740 0.280741
0.006655 -0.086178 0.278918
0.007889 -0.085166 0.275638
0.009132 -0.084535 0.273594
0.010381 -0.084098 0.272184
0.011574 -0.083361 0.269798
0.012826 -0.083157 0.269142
0.014036 -0.082736 0.267784
0.015196 -0.082117 0.265787
0.016309 -0.081359 0.263341
0.017380 -0.080514 0.260617
0.018652 -0.080648 0.261060
0.019711 -0.079904 0.258663
0.020791 -0.079327 0.256811
0.021946 -0.079085 0.256041
0.023036 -0.078645 0.254631
0.024144 -0.078308 0.253553
0.025217 -0.077895 0.252235
0.026388 -0.077807 0.251968
0.027490 -0.077535 0.251105
0.028598 -0.077297 0.250355
0.029747 -0.077189 0.250024
0.030848 -0.076967 0.249327
0.031942 -0.076745 0.248628
0.033013 -0.076485 0.247806
0.034120 -0.076324 0.247308
0.035198 -0.076110 0.246638
0.036292 -0.075944 0.246122
0.037344 -0.075704 0.245367
0.038430 -0.075545 0.244873
0.039427 -0.075224 0.243859
0.040412 -0.074900 0.242830
0.041388 -0.074576 0.241804
0.042399 -0.074333 0.241037
0.043447 -0.074165 0.240516
0.044468 -0.073961 0.239876
0.045452 -0.073707 0.239073
0.046516 -0.073592 0.238723
0.047508 -0.073372 0.238028
0.048394 -0.073002 0.236847
0.049398 -0.072821 0.236280
0.050434 -0.072696 0.235891
0.051307 -0.072345 0.234769
0.052282 -0.072151 0.234155
0.052850 -0.071414 0.231779
0.052580 -0.069599 0.225902
0.051215 -0.066435 0.215642
0.050774 -0.064571 0.209604
0.051249 -0.063921 0.207500
0.051281 -0.062753 0.203716
0.052542 -0.063104 0.204860
0.052008 -0.061326 0.199092
0.052846 -0.061200 0.198686
0.053810 -0.061223 0.198760
0.054215 -0.060620 0.196798
0.054737 -0.060165 0.195318
0.055378 -0.059855 0.194305
0.055936 -0.059465 0.193033
0.056624 -0.059225 0.192242
0.057360 -0.059042 0.191636
0.058059 -0.058826 0.190920
0.058931 -0.058791 0.190788
0.059699 -0.058653 0.190320
0.060390 -0.058446 0.189626
0.061315 -0.058468 0.189670
0.062080 -0.058338 0.189220
0.062784 -0.058156 0.188597
0.063561 -0.058046 0.188205
0.064270 -0.057877 0.187620
0.064956 -0.057693 0.186981
0.065581 -0.057459 0.186178
0.066088 -0.057131 0.185066
0.066518 -0.056745 0.183763
0.067027 -0.056436 0.182706
0.067549 -0.056145 0.181707
0.068016 -0.055816 0.180578
0.068174 -0.055246 0.178667
0.069213 -0.055394 0.179074
0.069580 -0.055008 0.177750
0.070224 -0.054848 0.177151
0.071311 -0.055033 0.177662
0.072029 -0.054932 0.177247
0.072530 -0.054670 0.176306
0.073234 -0.054565 0.175867
0.073958 -0.054477 0.175479
0.074620 -0.054346 0.174945
0.075332 -0.054254 0.174532
0.076025 -0.054150 0.174076
0.076693 -0.054031 0.173564
0.077440 -0.053970 0.173232
0.078190 -0.053912 0.172905
0.078836 -0.053784 0.172345
0.079560 -0.053712 0.171959
0.080022 -0.053465 0.171008
0.080507 -0.053240 0.170117
0.080921 -0.052972 0.169084
0.081262 -0.052662 0.167912
0.081674 -0.052404 0.166899
0.082188 -0.052215 0.166101
0.082743 -0.052057 0.165389
0.083284 -0.051892 0.164651
0.083981 -0.051827 0.164219
0.085012 -0.051967 0.164427
0.085735 -0.051917 0.164026
0.086680 -0.052003 0.164039
0.087777 -0.052176 0.164319
-0.048933 -0.072853 0.240880
-0.047461 -0.072343 0.239152
-0.045702 -0.071360 0.235857
-0.044030 -0.070467 0.232864
-0.042535 -0.069820 0.230683
-0.041521 -0.069946 0.231059
-0.040426 -0.069943 0.231004
-0.039448 -0.070144 0.231626
-0.038434 -0.070293 0.232076
-0.037315 -0.070254 0.231902
-0.036856 -0.071490 0.235939
-0.035819 -0.071650 0.236423
-0.034734 -0.071720 0.236610
-0.033731 -0.071971 0.237394
-0.032690 -0.072153 0.237954
-0.031641 -0.072331 0.238499
-0.030597 -0.072535 0.239127
-0.029579 -0.072818 0.240018
-0.028536 -0.073061 0.240779
-0.027473 -0.073271 0.241428
-0.026394 -0.073453 0.241988
-0.025332 -0.073700 0.242765
-0.024259 -0.073942 0.243523
-0.023160 -0.074122 0.244076
-0.022101 -0.074456 0.245140
-0.021009 -0.074711 0.245943
-0.019886 -0.074877 0.246456
-0.018747 -0.075002 0.246834
-0.017605 -0.075132 0.247228
-0.016463 -0.075281 0.247686
-0.015313 -0.075409 0.248079
-0.014160 -0.075545 0.248498
-0.013003 -0.075689 0.248943
-0.011841 -0.075823 0.249358
-0.010685 -0.076029 0.250009
-0.009504 -0.076093 0.250196
-0.008320 -0.076143 0.250340
-0.007143 -0.076285 0.250785
-0.005952 -0.076314 0.250861
-0.005467 -0.087666 0.288159
-0.004083 -0.087385 0.287217
-0.002724 -0.087631 0.288007
-0.001352 -0.087530 0.287663
0.000016 -0.087138 0.286361
0.001375 -0.086861 0.285439
0.002729 -0.086723 0.284976
0.004069 -0.086364 0.283789
0.005391 -0.085907 0.282281
0.006543 -0.083460 0.274236
0.007967 -0.084723 0.278384
0.009185 -0.083744 0.275167
0.010358 -0.082654 0.271586
0.011548 -0.081916 0.269164
0.012796 -0.081705 0.268477
0.014008 -0.081321 0.267219
0.015223 -0.081016 0.266225
0.016349 -0.080318 0.263939
0.017317 -0.079002 0.259626
0.018484 -0.078707 0.258667
0.019662 -0.078493 0.257978
0.020840 -0.078304 0.257368
0.021947 -0.077882 0.255996
0.023101 -0.077663 0.255295
0.024108 -0.076996 0.253118
0.025256 -0.076823 0.252568
0.026324 -0.076432 0.251301
0.027500 -0.076376 0.251135
0.028659 -0.076280 0.250840
0.029780 -0.076093 0.250246
0.030924 -0.075976 0.249886
0.032050 -0.075826 0.249415
0.033170 -0.075672 0.248930
0.034231 -0.075400 0.248059
0.035327 -0.075220 0.247493
0.036457 -0.075121 0.247191
0.037463 -0.074782 0.246101
0.038516 -0.074553 0.245373
0.039503 -0.074215 0.244283
0.040536 -0.073979 0.243533
0.041542 -0.073708 0.242665
0.042559 -0.073470 0.241908
0.043616 -0.073313 0.241415
0.044591 -0.073029 0.240504
0.045605 -0.072821 0.239841
0.046608 -0.072607 0.239161
0.047575 -0.072348 0.238329
0.048540 -0.072099 0.237530
0.049534 -0.071901 0.236900
0.050415 -0.071553 0.235774
0.051476 -0.071470 0.235518
0.052336 -0.071117 0.234374
0.052838 -0.070302 0.231705
0.052364 -0.068248 0.224953
0.052294 -0.066794 0.220172
0.051066 -0.063945 0.210794
0.051749 -0.063553 0.209513
0.050453 -0.060792 0.200419
0.051208 -0.060558 0.199656
0.052986 -0.061520 0.202833
0.052446 -0.059805 0.197182
0.053216 -0.059618 0.196566
0.053986 -0.059437 0.195969
0.054668 -0.059167 0.195078
0.055385 -0.058943 0.194336
0.056087 -0.058710 0.193563
0.056560 -0.058250 0.192037
0.057372 -0.058147 0.191688
0.058093 -0.057958 0.191050
0.058842 -0.057800 0.190516
0.059693 -0.057747 0.190321
0.060422 -0.057579 0.189749
0.061232 -0.057492 0.189438
0.062006 -0.057374 0.189022
0.062729 -0.057212 0.188461
0.063430 -0.057036 0.187848
0.064085 -0.056824 0.187113
0.064828 -0.056694 0.186648
0.065407 -0.056427 0.185724
0.065870 -0.056067 0.184496
0.066514 -0.055870 0.183798
0.067103 -0.055632 0.182961
0.067504 -0.055246 0.181633
0.067876 -0.054846 0.180260
0.068383 -0.054564 0.179269
0.069120 -0.054471 0.178892
0.069631 -0.054203 0.177941
0.070249 -0.054024 0.177276
0.071147 -0.054063 0.177321
0.071890 -0.053984 0.176974
0.072416 -0.053745 0.176099
0.072935 -0.053507 0.175224
0.073739 -0.053481 0.175038
0.074394 -0.053349 0.174497
0.075020 -0.053199 0.173894
0.075730 -0.053112 0.173488
0.076402 -0.053000 0.172998
0.077164 -0.052951 0.172709
0.077772 -0.052800 0.172078
0.078531 -0.052753 0.171780
0.079238 -0.052673 0.171368
0.079698 -0.052431 0.170425
0.080296 -0.052284 0.169783
0.080710 -0.052022 0.168759
0.081139 -0.051774 0.167777
0.081597 -0.051550 0.166864
0.082176 -0.051406 0.166204
0.082663 -0.051207 0.165360
0.083265 -0.051083 0.164748
0.084116 -0.051112 0.164622
0.085213 -0.051289 0.164960
0.085856 -0.051192 0.164408
0.086894 -0.051330 0.164599
0.087808 -0.051393 0.164537
-0.049006 -0.071817 0.241176
-0.046990 -0.070501 0.236714
-0.045527 -0.069971 0.234890
-0.044335 -0.069841 0.234409
-0.042924 -0.069351 0.232720
-0.041769 -0.069260 0.232371
-0.040734 -0.069367 0.232686
-0.039675 -0.069439 0.232880
-0.038720 -0.069703 0.233721
-0.037851 -0.070143 0.235150
-0.036871 -0.070396 0.235953
-0.035846 -0.070576 0.236511
-0.034826 -0.070779 0.237148
-0.033801 -0.070985 0.237791
-0.032770 -0.071191 0.238437
-0.031697 -0.071320 0.238824
-0.030652 -0.071522 0.239458
-0.029607 -0.071740 0.240145
-0.028563 -0.071977 0.240896
-0.027497 -0.072177 0.241524
-0.026437 -0.072414 0.242274
-0.025381 -0.072680 0.243124
-0.024313 -0.072939 0.243949
-0.023217 -0.073130 0.244551
-0.022106 -0.073297 0.245072
-0.021009 -0.073531 0.245815
-0.019891 -0.073714 0.246393
-0.018759 -0.073866 0.246864
-0.017618 -0.073998 0.247273
-0.016475 -0.074142 0.247721
-0.015333 -0.074311 0.248255
-0.014181 -0.074457 0.248714
-0.013037 -0.074681 0.249434
-0.011864 -0.074763 0.249680
-0.010701 -0.074934 0.250226
-0.009531 -0.075087 0.250713
-0.008354 -0.075232 0.251173
-0.007160 -0.075241 0.251185
-0.005975 -0.075369 0.251590
-0.004792 -0.075587 0.252300
-0.003618 -0.076143 0.254142
-0.002434 -0.076962 0.256861
-0.001216 -0.077269 0.257872
0.000013 -0.085848 0.286490
0.001379 -0.085989 0.286948
0.002730 -0.085495 0.285291
0.004087 -0.085481 0.285236
0.004926 -0.077320 0.257998
0.006181 -0.077660 0.259129
0.007466 -0.078186 0.260882
0.009045 -0.081212 0.270981
0.010295 -0.080889 0.269904
0.011436 -0.079877 0.266529
0.012767 -0.080264 0.267827
0.014006 -0.080057 0.267143
0.015173 -0.079503 0.265303
0.016328 -0.078978 0.263560
0.017407 -0.078183 0.260918
0.018520 -0.077639 0.259115
0.019689 -0.077384 0.258275
0.020861 -0.077167 0.257568
0.021989 -0.076822 0.256431
0.023008 -0.076152 0.254213
0.024054 -0.075633 0.252498
0.025233 -0.075564 0.252285
0.026397 -0.075455 0.251943
0.027501 -0.075192 0.251086
0.028678 -0.075143 0.250944
0.029819 -0.075008 0.250514
0.030892 -0.074718 0.249570
0.032045 -0.074636 0.249321
0.033187 -0.074534 0.249006
0.034268 -0.074307 0.248271
0.035364 -0.074127 0.247696
0.036486 -0.074011 0.247335
0.037531 -0.073752 0.246496
0.038564 -0.073485 0.245630
0.039678 -0.073383 0.245317
0.040677 -0.073079 0.244327
0.041647 -0.072744 0.243233
0.042620 -0.072430 0.242211
0.043668 -0.072257 0.241658
0.044664 -0.072010 0.240857
0.045862 -0.072091 0.241156
0.046802 -0.071774 0.240120
0.047685 -0.071386 0.238848
0.048507 -0.070927 0.237336
0.049509 -0.070745 0.236751
0.050498 -0.070554 0.236132
0.051401 -0.070254 0.235151
0.052535 -0.070274 0.235239
0.052798 -0.069155 0.231510
0.053031 -0.068040 0.227797
0.054057 -0.067969 0.227576
0.051253 -0.063179 0.211552
0.052203 -0.063112 0.211339
