ply
format ascii 1.0
element vertex 1690
property float x
property float y
property float z
end_header
0.067411 -0.052023 0.167947
0.068169 -0.051988 0.167749
0.068969 -0.051985 0.167649
0.069803 -0.052008 0.167627
0.070573 -0.051983 0.167446
0.071270 -0.051906 0.167091
0.071945 -0.051815 0.166686
0.072625 -0.051728 0.166290
0.073168 -0.051548 0.165588
0.073618 -0.051307 0.164684
0.074002 -0.051025 0.163644
0.074515 -0.050837 0.162901
0.074806 -0.050502 0.161683
0.075247 -0.050275 0.160805
0.075766 -0.050104 0.160099
0.076374 -0.049995 0.159584
0.077015 -0.049910 0.159137
0.077650 -0.049822 0.158676
0.078329 -0.049764 0.158302
0.078845 -0.049604 0.157596
0.079168 -0.049327 0.156512
0.079634 -0.049144 0.155718
0.079811 -0.048787 0.154367
0.080122 -0.048519 0.153289
0.080074 -0.048039 0.151537
0.080143 -0.047639 0.150029
-0.063779 -0.086882 0.287458
-0.047672 -0.067824 0.224328
-0.046661 -0.067893 0.224520
-0.045249 -0.067368 0.222745
-0.056614 -0.086294 0.285271
-0.055176 -0.086153 0.284753
-0.053883 -0.086236 0.284975
-0.052325 -0.085888 0.283772
-0.050979 -0.085880 0.283693
-0.049894 -0.086322 0.285101
-0.048485 -0.086213 0.284690
-0.047180 -0.086289 0.284886
-0.037495 -0.072730 0.240032
-0.035555 -0.071121 0.234678
-0.034343 -0.070913 0.233949
-0.033312 -0.071077 0.234445
-0.032255 -0.071194 0.234789
-0.031143 -0.071193 0.234747
-0.030047 -0.071231 0.234827
-0.029360 -0.072280 0.238247
-0.030390 -0.088418 0.291243
-0.029025 -0.088469 0.291366
-0.027784 -0.088920 0.292806
-0.026409 -0.088968 0.292919
-0.019972 -0.075200 0.247518
-0.018397 -0.073600 0.242219
-0.017270 -0.073700 0.242518
-0.016126 -0.073740 0.242616
-0.014901 -0.073381 0.241406
-0.013668 -0.072922 0.239868
-0.013650 -0.087403 0.287439
-0.012287 -0.087428 0.287493
-0.010796 -0.086437 0.284208
-0.009434 -0.086335 0.283846
-0.008073 -0.086221 0.283451
-0.006703 -0.085936 0.282492
-0.005351 -0.085813 0.282068
-0.003979 -0.085148 0.279862
-0.002633 -0.084698 0.278368
-0.001303 -0.084312 0.277086
0.000016 -0.082978 0.272688
0.001308 -0.082666 0.271652
0.002579 -0.081940 0.269259
0.003838 -0.081479 0.267736
0.005082 -0.080984 0.266107
0.006320 -0.080623 0.264916
0.007538 -0.080159 0.263387
0.008734 -0.079629 0.261648
0.009816 -0.078324 0.257360
0.010987 -0.077943 0.256110
0.012146 -0.077557 0.254845
0.013294 -0.077175 0.253598
0.014422 -0.076750 0.252206
0.015500 -0.076148 0.250238
0.016569 -0.075590 0.248412
0.017732 -0.075506 0.248146
0.018829 -0.075165 0.247038
0.019959 -0.074993 0.246488
0.021069 -0.074767 0.245757
0.022162 -0.074508 0.244921
0.023286 -0.074372 0.244491
0.024394 -0.074201 0.243949
0.025503 -0.074048 0.243463
0.026602 -0.073883 0.242940
0.027663 -0.073628 0.242120
0.028710 -0.073357 0.241251
0.029674 -0.072905 0.239786
0.030725 -0.072692 0.239107
0.031747 -0.072427 0.238257
0.032756 -0.072150 0.237370
0.033772 -0.071908 0.236596
0.034748 -0.071600 0.235604
0.035794 -0.071449 0.235133
0.036763 -0.071160 0.234204
0.037723 -0.070869 0.233272
0.038811 -0.070830 0.233166
0.039729 -0.070491 0.232073
0.040573 -0.070042 0.230620
0.041567 -0.069869 0.230074
0.042580 -0.069736 0.229658
0.043555 -0.069549 0.229065
0.044346 -0.069083 0.227552
0.044960 -0.068371 0.225229
0.044955 -0.066773 0.219984
0.044575 -0.064703 0.213185
0.044435 -0.063066 0.207807
0.044928 -0.062378 0.205558
0.045260 -0.061502 0.202688
0.044946 -0.059801 0.197096
0.045595 -0.059426 0.195873
0.045917 -0.058649 0.193324
0.046276 -0.057948 0.191024
0.047044 -0.057775 0.190464
0.047792 -0.057585 0.189846
0.048500 -0.057356 0.189096
0.049290 -0.057229 0.188683
0.049986 -0.057000 0.187931
0.050728 -0.056830 0.187375
0.051489 -0.056688 0.186905
0.052140 -0.056431 0.186057
0.052901 -0.056299 0.185619
0.053548 -0.056052 0.184799
0.054134 -0.055751 0.183800
0.054833 -0.055574 0.183206
0.055621 -0.055491 0.182919
0.056257 -0.055261 0.182147
0.056913 -0.055057 0.181457
0.057748 -0.055031 0.181350
0.058429 -0.054860 0.180767
0.059016 -0.054608 0.179909
0.059718 -0.054466 0.179414
0.060355 -0.054271 0.178742
0.060607 -0.053740 0.176957
0.061043 -0.053385 0.175751
0.061692 -0.053221 0.175175
0.062093 -0.052853 0.173918
0.062352 -0.052374 0.172295
0.063092 -0.052306 0.172023
0.064075 -0.052439 0.172407
0.064366 -0.052010 0.170939
0.064489 -0.051457 0.169059
0.065320 -0.051476 0.169057
0.065819 -0.051235 0.168199
0.066379 -0.051048 0.167512
0.067055 -0.050953 0.167120
0.067833 -0.050937 0.166987
0.068655 -0.050954 0.166954
0.069391 -0.050907 0.166710
0.070256 -0.050955 0.166769
0.070968 -0.050892 0.166461
0.071577 -0.050758 0.165913
0.072278 -0.050690 0.165580
0.072697 -0.050430 0.164609
0.073251 -0.050267 0.163952
0.073697 -0.050033 0.163060
0.074059 -0.049749 0.161997
0.074449 -0.049489 0.161009
0.074835 -0.049231 0.160024
0.075468 -0.049141 0.159575
0.076132 -0.049071 0.159187
0.076690 -0.048936 0.158578
0.077521 -0.048975 0.158528
0.078197 -0.048917 0.158156
0.078635 -0.048712 0.157301
0.079135 -0.048549 0.156575
0.079569 -0.048350 0.155724
0.079750 -0.048001 0.154386
0.080129 -0.047778 0.153442
0.080190 -0.047370 0.151900
0.080374 -0.047042 0.150607
-0.051541 -0.067670 0.227452
-0.049784 -0.066753 0.224331
-0.048671 -0.066677 0.224038
-0.047667 -0.066753 0.224252
-0.046567 -0.066693 0.224010
-0.045637 -0.066879 0.224595
-0.044279 -0.066433 0.223054
-0.055602 -0.085455 0.286869
-0.054300 -0.085538 0.287093
-0.052988 -0.085611 0.287282
-0.051491 -0.085380 0.286453
-0.050183 -0.085458 0.286661
-0.048561 -0.084993 0.285044
-0.038715 -0.071743 0.240514
-0.037608 -0.071803 0.240671
-0.035770 -0.070426 0.236009
-0.034527 -0.070171 0.235110
-0.033502 -0.070358 0.235691
-0.032459 -0.070516 0.236177
-0.031295 -0.070415 0.235794
-0.030194 -0.070453 0.235878
-0.029410 -0.071263 0.238547
-0.028298 -0.071311 0.238667
-0.029076 -0.087227 0.291736
-0.027833 -0.087672 0.293178
-0.021174 -0.074109 0.247747
-0.020008 -0.074145 0.247833
-0.018418 -0.072519 0.242365
-0.017293 -0.072633 0.242713
-0.016164 -0.072740 0.243038
-0.015008 -0.072739 0.243003
-0.013855 -0.072746 0.242999
-0.014750 -0.084490 0.282194
-0.013412 -0.084516 0.282253
-0.012114 -0.084826 0.283258
-0.010764 -0.084799 0.283141
-0.009398 -0.084630 0.282550
-0.008035 -0.084437 0.281884
-0.006679 -0.084242 0.281211
-0.005334 -0.084146 0.280869
-0.003975 -0.083676 0.279284
-0.002636 -0.083342 0.278153
-0.001309 -0.083190 0.277631
0.000012 -0.081758 0.272840
0.001294 -0.080710 0.269332
0.002578 -0.080734 0.269403
0.003824 -0.079977 0.266871
0.005070 -0.079582 0.265548
0.006300 -0.079145 0.264083
0.007519 -0.078742 0.262739
0.008711 -0.078211 0.260967
0.009782 -0.076860 0.256462
0.010998 -0.076817 0.256321
0.012183 -0.076594 0.255581
0.013261 -0.075799 0.252934
0.014375 -0.075320 0.251344
0.015487 -0.074910 0.249985
0.016595 -0.074535 0.248744
0.017702 -0.074212 0.247675
0.018832 -0.074015 0.247033
0.019945 -0.073780 0.246262
0.021064 -0.073589 0.245638
0.022190 -0.073445 0.245174
0.023318 -0.073319 0.244772
0.024431 -0.073162 0.244265
0.025535 -0.072991 0.243714
0.026606 -0.072746 0.242918
0.027689 -0.072551 0.242289
0.028742 -0.072298 0.241463
0.029711 -0.071862 0.240031
0.030752 -0.071625 0.239262
0.031822 -0.071468 0.238762
0.032778 -0.071077 0.237479
0.033735 -0.070713 0.236289
0.034747 -0.070483 0.235546
0.035776 -0.070303 0.234969
0.036782 -0.070089 0.234280
0.037779 -0.069871 0.233576
0.038804 -0.069715 0.233079
0.039816 -0.069545 0.232536
0.040728 -0.069214 0.231457
0.041749 -0.069081 0.231038
0.042804 -0.069011 0.230828
0.043741 -0.068758 0.230005
0.044619 -0.068426 0.228919
0.045509 -0.068127 0.227944
0.045050 -0.065872 0.220421
0.045614 -0.065179 0.218124
0.044036 -0.061526 0.205917
0.044144 -0.060335 0.201949
0.044719 -0.059820 0.200243
0.045489 -0.059581 0.199460
0.045553 -0.058446 0.195676
0.046029 -0.057874 0.193776
0.046357 -0.057143 0.191341
0.047092 -0.056932 0.190645
0.047755 -0.056644 0.189692
0.048548 -0.056517 0.189275
0.049135 -0.056160 0.188086
0.049873 -0.055984 0.187503
0.050566 -0.055766 0.186777
0.051369 -0.055673 0.186468
0.052050 -0.055454 0.185735
0.052870 -0.055388 0.185513
0.053677 -0.055311 0.185250
0.054229 -0.054978 0.184129
0.055026 -0.054900 0.183861
0.055732 -0.054735 0.183297
0.056353 -0.054492 0.182472
0.057035 -0.054314 0.181863
0.057705 -0.054132 0.181234
0.058426 -0.054001 0.180776
0.059038 -0.053776 0.179999
0.059668 -0.053571 0.179290
0.060318 -0.053392 0.178660
0.060967 -0.053216 0.178041
0.061558 -0.052995 0.177267
0.061948 -0.052609 0.175938
0.062260 -0.052168 0.174421
0.062668 -0.051818 0.173209
0.062973 -0.051393 0.171740
0.063636 -0.051267 0.171270
0.064117 -0.051000 0.170323
0.064464 -0.050634 0.169042
0.064995 -0.050420 0.168267
0.065485 -0.050180 0.167400
0.066171 -0.050094 0.167041
0.066610 -0.049825 0.166070
0.067201 -0.049675 0.165492
0.068033 -0.049704 0.165507
0.068708 -0.049619 0.165136
0.069452 -0.049586 0.164931
0.070311 -0.049635 0.164994
0.070953 -0.049530 0.164544
0.071473 -0.049343 0.163814
0.072210 -0.049310 0.163588
0.072667 -0.049087 0.162730
0.073104 -0.048856 0.161837
0.073523 -0.048618 0.160917
0.073927 -0.048375 0.159975
0.074574 -0.048294 0.159564
0.074945 -0.048038 0.158568
0.075772 -0.048077 0.158538
0.076629 -0.048134 0.158560
0.077291 -0.048067 0.158169
0.078027 -0.048048 0.157927
0.078752 -0.048023 0.157656
0.079197 -0.047829 0.156822
0.079517 -0.047564 0.155748
0.079879 -0.047328 0.154765
0.080329 -0.047149 0.153959
0.080199 -0.046636 0.152055
0.080501 -0.046381 0.150987
-0.051615 -0.066686 0.227726
-0.049649 -0.065511 0.223671
-0.048657 -0.065596 0.223921
-0.047696 -0.065728 0.224331
-0.046738 -0.065869 0.224771
-0.045674 -0.065867 0.224719
-0.044306 -0.065413 0.223127
-0.044964 -0.068003 0.231917
-0.054382 -0.084301 0.287443
-0.053069 -0.084374 0.287633
-0.051571 -0.084147 0.286803
-0.041540 -0.069610 0.237208
-0.040520 -0.069787 0.237762
-0.039200 -0.069441 0.236535
-0.038138 -0.069545 0.236845
-0.036959 -0.069437 0.236429
-0.035769 -0.069299 0.235913
-0.034589 -0.069174 0.235439
-0.033509 -0.069248 0.235644
-0.032515 -0.069509 0.236489
-0.031432 -0.069592 0.236724
-0.030312 -0.069597 0.236696
-0.029273 -0.069797 0.237334
-0.028304 -0.070186 0.238611
-0.027227 -0.070327 0.239048
-0.026135 -0.070440 0.239392
-0.025090 -0.070698 0.240227
-0.024096 -0.071129 0.241649
-0.023073 -0.071514 0.242919
-0.021971 -0.071682 0.243451
-0.020841 -0.071773 0.243721
-0.019708 -0.071862 0.243988
-0.018488 -0.071629 0.243163
-0.017354 -0.071719 0.243432
-0.016225 -0.071843 0.243823
-0.015069 -0.071855 0.243831
-0.013873 -0.071667 0.243163
-0.015003 -0.084555 0.286859
-0.013643 -0.084582 0.286919
-0.012105 -0.083389 0.282843
-0.010746 -0.083290 0.282477
-0.009392 -0.083205 0.282163
-0.008042 -0.083128 0.281877
-0.006690 -0.083004 0.281437
-0.005318 -0.082500 0.279707
-0.003986 -0.082483 0.279632
-0.002648 -0.082307 0.279018
-0.001303 -0.081236 0.275372
0.000009 -0.079920 0.270901
0.001281 -0.078826 0.267182
0.002554 -0.078820 0.267154
0.003811 -0.078501 0.266065
0.005045 -0.077977 0.264285
0.006296 -0.077884 0.263966
0.007508 -0.077410 0.262357
0.008706 -0.076955 0.260817
0.009818 -0.075942 0.257384
0.011045 -0.075946 0.257401
0.012148 -0.075181 0.254814
0.013273 -0.074677 0.253111
0.014428 -0.074413 0.252226
0.015531 -0.073942 0.250638
0.016629 -0.073517 0.249211
0.017730 -0.073160 0.248012
0.018882 -0.073042 0.247627
0.019927 -0.072554 0.245985
0.021085 -0.072502 0.245826
0.022223 -0.072395 0.245483
0.023304 -0.072120 0.244567
0.024449 -0.072060 0.244383
0.025548 -0.071876 0.243781
0.026655 -0.071730 0.243308
0.027716 -0.071478 0.242474
0.028804 -0.071310 0.241929
0.029840 -0.071034 0.241016
0.030851 -0.070720 0.239973
0.031889 -0.070488 0.239211
0.032938 -0.070295 0.238585
0.033888 -0.069911 0.237307
0.034873 -0.069622 0.236351
0.035938 -0.069505 0.235982
0.036938 -0.069273 0.235220
0.037907 -0.068998 0.234315
0.038923 -0.068823 0.233748
0.039949 -0.068674 0.233268
0.040908 -0.068420 0.232435
0.041901 -0.068237 0.231838
0.042914 -0.068093 0.231377
0.043768 -0.067712 0.230108
0.044616 -0.067339 0.228868
0.045320 -0.066772 0.226966
0.045485 -0.065455 0.222514
0.045749 -0.064338 0.218741
0.043519 -0.059840 0.203470
0.044273 -0.059553 0.202512
0.044737 -0.058896 0.200298
0.044825 -0.057782 0.196528
0.045736 -0.057752 0.196442
0.045787 -0.056658 0.192740
0.046356 -0.056237 0.191320
0.047085 -0.056022 0.190602
0.047824 -0.055828 0.189953
0.048474 -0.055537 0.188974
0.049189 -0.055330 0.188282
0.049910 -0.055138 0.187635
0.050664 -0.054988 0.187131
0.051234 -0.054647 0.185975
0.052054 -0.054581 0.185752
0.052787 -0.054425 0.185222
0.053512 -0.054268 0.184686
0.054218 -0.054096 0.184097
0.054930 -0.053935 0.183546
0.055748 -0.053882 0.183357
0.056353 -0.053628 0.182483
0.056927 -0.053353 0.181533
0.057782 -0.053345 0.181492
0.058427 -0.053146 0.180798
0.058949 -0.052843 0.179747
0.059691 -0.052743 0.179384
0.060308 -0.052536 0.178654
0.060838 -0.052261 0.177690
0.061360 -0.051987 0.176726
0.061806 -0.051656 0.175567
0.062091 -0.051201 0.173982
0.062507 -0.050866 0.172800
0.062906 -0.050525 0.171597
0.063992 -0.050737 0.172270
0.064530 -0.050515 0.171464
0.064462 -0.049830 0.169083
0.065080 -0.049686 0.168535
0.065614 -0.049482 0.167780
0.065997 -0.049170 0.166656
0.066405 -0.048884 0.165616
0.066988 -0.048732 0.165024
0.067586 -0.048595 0.164480
0.068240 -0.048500 0.164076
0.069044 -0.048513 0.164027
0.069714 -0.048432 0.163661
0.070512 -0.048442 0.163592
0.071138 -0.048333 0.163121
0.071762 -0.048227 0.162652
0.072389 -0.048124 0.162187
0.072751 -0.047849 0.161140
0.073221 -0.047650 0.160342
0.073560 -0.047372 0.159271
0.074003 -0.047164 0.158434
0.074627 -0.047076 0.157992
0.075526 -0.047161 0.158124
0.076454 -0.047262 0.158302
0.077200 -0.047250 0.158092
0.078005 -0.047273 0.157994
0.078833 -0.047310 0.157933
0.079317 -0.047142 0.157178
0.079662 -0.046895 0.156155
0.079907 -0.046594 0.154946
0.080327 -0.046401 0.154086
0.080325 -0.045969 0.152427
0.080282 -0.045522 0.150713
-0.053505 -0.066622 0.231242
-0.051379 -0.065307 0.226634
-0.049913 -0.064792 0.224806
-0.048907 -0.064865 0.225014
-0.047925 -0.064973 0.225346
-0.046928 -0.065066 0.225624
-0.045873 -0.065080 0.225630
-0.044734 -0.064976 0.225221
-0.045032 -0.067002 0.232196
-0.043823 -0.066832 0.231560
-0.042814 -0.066965 0.231975
-0.041838 -0.067159 0.232598
-0.040789 -0.067244 0.232843
-0.039801 -0.067436 0.233459
-0.038776 -0.067577 0.233897
-0.037871 -0.067938 0.235099
-0.036895 -0.068192 0.235928
-0.035783 -0.068202 0.235917
-0.034719 -0.068308 0.236233
-0.033664 -0.068438 0.236636
-0.032617 -0.068595 0.237129
-0.031540 -0.068699 0.237442
-0.030462 -0.068806 0.237766
-0.029385 -0.068926 0.238137
-0.028332 -0.069113 0.238736
-0.027266 -0.069284 0.239282
-0.026215 -0.069508 0.240015
-0.025155 -0.069727 0.240727
-0.024088 -0.069947 0.241447
-0.023014 -0.070170 0.242175
-0.021916 -0.070338 0.242716
-0.020789 -0.070427 0.242983
-0.019677 -0.070581 0.243478
-0.018565 -0.070755 0.244042
-0.017429 -0.070854 0.244349
-0.016295 -0.070974 0.244729
-0.015154 -0.071083 0.245071
-0.014007 -0.071175 0.245359
-0.012859 -0.071284 0.245704
-0.013669 -0.083354 0.287277
-0.012265 -0.083104 0.286384
-0.010867 -0.082836 0.285433
-0.009424 -0.082102 0.282876
-0.008017 -0.081500 0.280778
-0.006675 -0.081432 0.280521
-0.005335 -0.081377 0.280309
-0.003978 -0.080927 0.278741
-0.002659 -0.081196 0.279653
-0.001313 -0.080347 0.276714
0.000005 -0.078798 0.271366
0.001279 -0.077588 0.267188
0.002540 -0.077227 0.265937
0.003795 -0.076985 0.265098
0.005019 -0.076384 0.263025
0.006292 -0.076618 0.263825
0.007506 -0.076174 0.262298
0.008680 -0.075512 0.260017
0.009820 -0.074756 0.257416
0.010971 -0.074236 0.255631
0.012136 -0.073910 0.254515
0.013314 -0.073714 0.253847
0.014475 -0.073465 0.252998
0.015561 -0.072902 0.251070
0.016658 -0.072468 0.249586
0.017781 -0.072199 0.248672
0.018854 -0.071771 0.247213
0.019995 -0.071635 0.246762
0.021126 -0.071481 0.246249
0.022270 -0.071386 0.245938
0.023372 -0.071171 0.245218
0.024492 -0.071030 0.244753
0.025598 -0.070864 0.244202
0.026674 -0.070629 0.243417
0.027776 -0.070484 0.242939
0.028855 -0.070290 0.242297
0.029878 -0.069982 0.241259
0.030877 -0.069642 0.240114
0.031956 -0.069501 0.239655
0.033002 -0.069301 0.238991
0.033984 -0.068982 0.237920
0.034981 -0.068715 0.237029
0.036009 -0.068523 0.236394
0.036935 -0.068154 0.235147
0.037820 -0.067734 0.233728
0.038846 -0.067582 0.233233
0.039917 -0.067515 0.233033
0.040927 -0.067352 0.232498
0.041918 -0.067167 0.231887
0.042866 -0.066922 0.231073
0.043881 -0.066794 0.230659
0.044777 -0.066494 0.229651
0.045674 -0.066211 0.228699
0.045672 -0.064667 0.223394
0.046690 -0.064604 0.223202
0.043901 -0.059395 0.205227
0.044351 -0.058698 0.202841
0.044033 -0.057036 0.197120
0.044755 -0.056763 0.196196
0.045591 -0.056642 0.195798
0.045479 -0.055373 0.191427
0.046291 -0.055255 0.191037
0.047123 -0.055165 0.190742
0.047847 -0.054955 0.190028
0.048557 -0.054737 0.189287
0.049286 -0.054547 0.188642
0.050023 -0.054374 0.188053
0.050694 -0.054135 0.187237
0.051428 -0.053971 0.186674
0.052178 -0.053829 0.186188
0.052951 -0.053715 0.185799
0.053708 -0.053589 0.185364
0.054390 -0.053394 0.184685
0.055098 -0.053229 0.184111
0.055884 -0.053144 0.183812
0.056605 -0.053000 0.183309
0.057301 -0.052838 0.182738
0.057972 -0.052658 0.182103
0.058697 -0.052532 0.181651
0.059329 -0.052327 0.180924
0.059815 -0.052001 0.179777
0.060229 -0.051623 0.178446
0.060852 -0.051431 0.177755
0.061380 -0.051166 0.176810
0.062008 -0.050990 0.176170
0.061885 -0.050209 0.173436
0.062346 -0.049917 0.172388
0.062734 -0.049575 0.171164
0.063487 -0.049525 0.170948
0.064196 -0.049444 0.170616
0.064460 -0.049026 0.169121
0.065033 -0.048850 0.168459
0.065650 -0.048711 0.167919
0.066089 -0.048445 0.166938
0.066504 -0.048168 0.165915
0.066947 -0.047918 0.164981
0.067594 -0.047817 0.164557
0.068185 -0.047680 0.164003
0.068761 -0.047536 0.163420
0.069486 -0.047496 0.163193
0.070099 -0.047382 0.162702
0.070821 -0.047343 0.162468
0.071387 -0.047202 0.161876
0.071935 -0.047052 0.161249
0.072473 -0.046899 0.160605
0.072678 -0.046535 0.159236
0.072996 -0.046251 0.158136
0.073512 -0.046097 0.157472
0.074060 -0.045965 0.156882
0.075020 -0.046090 0.157160
0.076264 -0.046385 0.158007
0.077098 -0.046427 0.157986
0.077756 -0.046363 0.157597
0.078660 -0.046446 0.157697
0.079273 -0.046357 0.157207
0.079640 -0.046126 0.156229
0.079865 -0.045820 0.154986
0.080120 -0.045535 0.153813
0.080310 -0.045219 0.152526
0.080378 -0.044841 0.151025
-0.055706 -0.066859 0.235937
-0.053580 -0.065617 0.231512
-0.051412 -0.064273 0.226726
-0.050227 -0.064126 0.226161
-0.049167 -0.064135 0.226150
-0.048223 -0.064300 0.226685
-0.047251 -0.064436 0.227117
-0.046168 -0.064421 0.227016
-0.045234 -0.064619 0.227666
-0.044363 -0.064919 0.228676
-0.043520 -0.065276 0.229886
-0.042599 -0.065531 0.230733
-0.041605 -0.065685 0.231225
-0.040726 -0.066034 0.232405
-0.039711 -0.066176 0.232853
-0.038705 -0.066340 0.233381
-0.037752 -0.066608 0.234271
-0.036792 -0.066881 0.235183
-0.035836 -0.067177 0.236174
-0.034789 -0.067317 0.236614
-0.033755 -0.067492 0.237180
-0.032670 -0.067574 0.237419
-0.031615 -0.067726 0.237905
-0.030597 -0.067970 0.238714
-0.029459 -0.067959 0.238629
-0.028419 -0.068181 0.239361
-0.027391 -0.068450 0.240260
-0.026330 -0.068658 0.240946
-0.025253 -0.068842 0.241548
-0.024163 -0.069005 0.242077
-0.023065 -0.069161 0.242584
-0.021962 -0.069322 0.243105
-0.020851 -0.069470 0.243585
-0.019728 -0.069594 0.243982
-0.018607 -0.069739 0.244454
-0.017472 -0.069851 0.244812
-0.016336 -0.069973 0.245203
-0.015191 -0.070074 0.245524
-0.014031 -0.070114 0.245633
-0.012883 -0.070229 0.246006
-0.011816 -0.070855 0.248171
-0.010579 -0.070481 0.246835
-0.010827 -0.081155 0.284186
-0.009476 -0.081176 0.284234
-0.008108 -0.081036 0.283718
-0.006771 -0.081208 0.284296
-0.005375 -0.080586 0.282099
-0.004032 -0.080618 0.282190
-0.002433 -0.072979 0.255436
-0.001209 -0.072578 0.254019
0.000002 -0.077280 0.270464
0.001272 -0.076140 0.266463
0.002528 -0.075708 0.264946
0.003791 -0.075698 0.264902
0.005018 -0.075158 0.263008
0.006275 -0.075194 0.263131
0.007478 -0.074672 0.261303
0.008642 -0.073970 0.258849
0.009814 -0.073505 0.257223
0.010998 -0.073221 0.256234
0.012198 -0.073091 0.255786
0.013393 -0.072952 0.255307
0.014549 -0.072647 0.254251
0.015611 -0.071954 0.251835
0.016582 -0.070967 0.248394
0.017750 -0.070902 0.248181
0.018905 -0.070794 0.247817
0.019968 -0.070375 0.246370
0.021157 -0.070423 0.246553
0.022276 -0.070243 0.245944
0.023347 -0.069939 0.244901
0.024474 -0.069821 0.244510
0.025578 -0.069653 0.243942
0.026692 -0.069525 0.243518
0.027748 -0.069262 0.242624
0.028846 -0.069123 0.242162
0.029966 -0.069044 0.241912
0.030969 -0.068710 0.240768
0.032064 -0.068598 0.240407
0.033169 -0.068514 0.240141
0.034086 -0.068060 0.238577
0.035090 -0.067803 0.237708
0.036136 -0.067641 0.237170
0.037093 -0.067328 0.236103
0.037918 -0.066800 0.234281
0.038931 -0.066624 0.233694
0.040047 -0.066628 0.233740
0.040955 -0.066296 0.232605
0.041845 -0.065953 0.231433
0.042970 -0.065989 0.231591
0.043919 -0.065759 0.230816
0.044774 -0.065402 0.229593
0.045563 -0.064969 0.228102
0.045759 -0.063730 0.223780
0.045945 -0.062534 0.219605
0.043960 -0.058502 0.205471
0.043812 -0.057036 0.200347
0.044488 -0.056683 0.199129
0.045125 -0.056296 0.197792
0.045334 -0.055401 0.194670
0.045897 -0.054966 0.193162
0.046189 -0.054231 0.190596
0.047093 -0.054228 0.190603
0.047774 -0.053973 0.189723
0.048649 -0.053942 0.189629
0.049118 -0.053471 0.187986
0.049879 -0.053329 0.187499
0.050547 -0.053095 0.186686
0.051350 -0.053008 0.186387
0.052097 -0.052866 0.185894
0.052932 -0.052817 0.185729
0.053680 -0.052684 0.185264
0.054347 -0.052478 0.184541
0.055189 -0.052444 0.184420
0.055885 -0.052274 0.183820
0.056529 -0.052063 0.183070
0.057263 -0.051939 0.182628
0.057782 -0.051626 0.181517
0.058449 -0.051454 0.180898
0.059113 -0.051283 0.180281
0.059520 -0.050897 0.178907
0.060081 -0.050653 0.178027
0.060753 -0.050507 0.177491
0.061286 -0.050251 0.176563
0.061781 -0.049972 0.175553
0.062130 -0.049583 0.174154
0.062417 -0.049156 0.172616
0.062815 -0.048826 0.171417
0.063546 -0.048760 0.171144
0.064089 -0.048553 0.170370
0.064529 -0.048275 0.169344
0.065082 -0.048086 0.168629
0.065602 -0.047878 0.167841
0.066156 -0.047700 0.167154
0.066563 -0.047421 0.166112
0.066970 -0.047150 0.165090
0.067587 -0.047029 0.164595
0.068256 -0.046948 0.164231
0.068778 -0.046768 0.163519
0.069439 -0.046687 0.163144
0.070132 -0.046628 0.162845
0.070661 -0.046462 0.162169
0.071266 -0.046350 0.161673
0.071846 -0.046224 0.161123
0.072186 -0.045948 0.160045
0.072376 -0.045583 0.158654
0.072717 -0.045320 0.157613
0.073249 -0.045180 0.156995
0.073803 -0.045056 0.156427
0.074852 -0.045234 0.156899
0.076129 -0.045544 0.157824
0.077046 -0.045636 0.157980
0.077570 -0.045495 0.157323
0.078342 -0.045500 0.157166
0.079134 -0.045517 0.157041
0.079394 -0.045231 0.155861
0.079374 -0.044792 0.154151
0.079908 -0.044671 0.153526
0.079967 -0.044289 0.152000
0.080015 -0.043908 0.150469
-0.059808 -0.067869 0.243615
-0.058430 -0.067603 0.242615
-0.055783 -0.065830 0.236208
-0.053514 -0.064440 0.231174
-0.052412 -0.064426 0.231078
-0.050338 -0.063192 0.226605
-0.049433 -0.063403 0.227315
-0.048494 -0.063580 0.227900
-0.047542 -0.063747 0.228448
-0.046521 -0.063826 0.228684
-0.045571 -0.064010 0.229293
-0.044668 -0.064271 0.230177
-0.043722 -0.064482 0.230879
-0.042776 -0.064702 0.231615
-0.041790 -0.064872 0.232174
-0.040850 -0.065125 0.233028
-0.039856 -0.065304 0.233617
-0.038810 -0.065406 0.233928
-0.037845 -0.065654 0.234764
-0.036863 -0.065887 0.235545
-0.035890 -0.066151 0.236435
-0.034859 -0.066320 0.236990
-0.033809 -0.066467 0.237463
-0.032737 -0.066577 0.237804
-0.031716 -0.066803 0.238562
-0.030675 -0.067000 0.239218
-0.029557 -0.067039 0.239309
-0.028512 -0.067256 0.240032
-0.027455 -0.067460 0.240715
-0.026380 -0.067635 0.241292
-0.025303 -0.067820 0.241909
-0.024206 -0.067969 0.242395
-0.023113 -0.068143 0.242974
-0.022004 -0.068284 0.243435
-0.020893 -0.068438 0.243941
-0.019777 -0.068592 0.244452
-0.018656 -0.068744 0.244954
-0.017534 -0.068916 0.245533
-0.016400 -0.069063 0.246018
-0.015247 -0.069144 0.246274
-0.014092 -0.069232 0.246555
-0.012947 -0.069385 0.247070
-0.011782 -0.069455 0.247290
-0.010638 -0.069673 0.248039
-0.009471 -0.069781 0.248398
-0.009495 -0.079953 0.284580
-0.008125 -0.079815 0.284064
-0.006715 -0.079149 0.281670
-0.005270 -0.077653 0.276324
-0.003667 -0.072032 0.256304
-0.002401 -0.070722 0.251627
-0.001197 -0.070486 0.250775
-0.000001 -0.070491 0.250783
0.001197 -0.070601 0.251162
0.002524 -0.074415 0.264724
0.003771 -0.074096 0.263582
0.004987 -0.073492 0.261430
0.006277 -0.074002 0.263241
0.007466 -0.073341 0.260889
0.008676 -0.073054 0.259869
0.009844 -0.072524 0.257987
0.011027 -0.072207 0.256866
0.012195 -0.071869 0.255670
0.013392 -0.071745 0.255238
0.014561 -0.071507 0.254402
0.015443 -0.070001 0.249056
0.016610 -0.069914 0.248760
0.017776 -0.069830 0.248474
0.018926 -0.069702 0.248036
0.020074 -0.069579 0.247616
0.021192 -0.069370 0.246892
0.022327 -0.069239 0.246444
0.023412 -0.068970 0.245509
0.024522 -0.068800 0.244927
0.025649 -0.068689 0.244555
0.026749 -0.068519 0.243976
0.027830 -0.068316 0.243281
0.028927 -0.068168 0.242779
0.030035 -0.068054 0.242402
0.031029 -0.067701 0.241174
0.032155 -0.067651 0.241027
0.033217 -0.067473 0.240423
0.034225 -0.067203 0.239492
0.035173 -0.066835 0.238212
0.036185 -0.066608 0.237432
0.037209 -0.066417 0.236785
0.038141 -0.066076 0.235601
0.039103 -0.065806 0.234671
0.040066 -0.065552 0.233799
0.041073 -0.065383 0.233229
0.042028 -0.065140 0.232395
0.042843 -0.064699 0.230855
0.043797 -0.064487 0.230128
0.044873 -0.064458 0.230058
0.045621 -0.063970 0.228347
0.045979 -0.062972 0.224816
0.043912 -0.058773 0.209853
0.044590 -0.058353 0.208379
0.044966 -0.057565 0.205592
0.044306 -0.055513 0.198288
0.044798 -0.054958 0.196331
0.045378 -0.054532 0.194832
0.045680 -0.053796 0.192223
0.046441 -0.053619 0.191612
0.046986 -0.053204 0.190146
0.047784 -0.053086 0.189743
0.048185 -0.052540 0.187808
0.049006 -0.052462 0.187546
0.049869 -0.052432 0.187451
0.050565 -0.052229 0.186739
0.051302 -0.052077 0.186203
0.052060 -0.051949 0.185758
0.052896 -0.051903 0.185599
0.053675 -0.051803 0.185245
0.054413 -0.051667 0.184764
0.055149 -0.051534 0.184289
0.055911 -0.051429 0.183911
0.056672 -0.051326 0.183540
0.057402 -0.051198 0.183077
0.057988 -0.050948 0.182173
0.058629 -0.050752 0.181464
0.059045 -0.050371 0.180086
0.059597 -0.050115 0.179155
0.060000 -0.049742 0.177803
0.060574 -0.049519 0.176986
0.061147 -0.049302 0.176185
0.061669 -0.049050 0.175257
0.062213 -0.048823 0.174413
0.062414 -0.048335 0.172636
0.062815 -0.048012 0.171448
0.063435 -0.047864 0.170878
0.064341 -0.047932 0.171076
0.064566 -0.047498 0.169478
0.065022 -0.047242 0.168514
0.065788 -0.047214 0.168360
0.066245 -0.046969 0.167426
0.066700 -0.046728 0.166502
0.067138 -0.046481 0.165553
0.067714 -0.046333 0.164957
0.068279 -0.046182 0.164341
0.068832 -0.046026 0.163704
0.069401 -0.045884 0.163116
0.069998 -0.045764 0.162595
0.070537 -0.045609 0.161949
0.071060 -0.045446 0.161271
0.071560 -0.045273 0.160551
0.071970 -0.045047 0.159639
0.072334 -0.044798 0.158638
0.072427 -0.044387 0.157062
0.073026 -0.044292 0.156596
0.073636 -0.044205 0.156156
0.074482 -0.044261 0.156212
0.075760 -0.044569 0.157151
0.076573 -0.044600 0.157105
0.077209 -0.044529 0.156688
0.078103 -0.044606 0.156789
0.078784 -0.044562 0.156453
0.079285 -0.044416 0.155756
0.079464 -0.044096 0.154438
0.079670 -0.043796 0.153185
0.079959 -0.043547 0.152103
0.080132 -0.043240 0.150811
-0.059888 -0.066804 0.243890
-0.057728 -0.065655 0.239650
-0.056375 -0.065397 0.238660
-0.053693 -0.063555 0.231890
-0.051620 -0.062373 0.227529
-0.050409 -0.062204 0.226865
-0.049393 -0.062273 0.227067
-0.048530 -0.062544 0.228005
-0.047582 -0.062714 0.228573
-0.046681 -0.062956 0.229403
-0.045711 -0.063114 0.229925
-0.044767 -0.063316 0.230611
-0.043796 -0.063490 0.231190
-0.042808 -0.063648 0.231711
-0.041835 -0.063836 0.232344
-0.040865 -0.064040 0.233030
-0.040064 -0.064527 0.234751
-0.039151 -0.064856 0.235892
-0.038120 -0.065004 0.236375
-0.037074 -0.065134 0.236795
-0.036037 -0.065290 0.237310
-0.034955 -0.065371 0.237549
-0.033890 -0.065490 0.237930
-0.032837 -0.065641 0.238425
-0.031779 -0.065793 0.238928
-0.030713 -0.065939 0.239405
-0.029639 -0.066080 0.239869
-0.028568 -0.066238 0.240394
-0.027505 -0.066427 0.241031
-0.026433 -0.066613 0.241658
-0.025349 -0.066783 0.242228
-0.024260 -0.066956 0.242812
-0.023167 -0.067135 0.243414
-0.022058 -0.067282 0.243905
-0.020944 -0.067432 0.244408
-0.019831 -0.067600 0.244976
-0.018706 -0.067750 0.245479
-0.017596 -0.067974 0.246253
-0.016455 -0.068106 0.246696
-0.015300 -0.068194 0.246979
-0.014158 -0.068359 0.247545
-0.012996 -0.068450 0.247841
-0.011830 -0.068534 0.248117
-0.010662 -0.068626 0.248422
-0.009483 -0.068666 0.248540
-0.008299 -0.068672 0.248537
-0.007149 -0.069007 0.249727
-0.005993 -0.069414 0.251178
-0.004887 -0.070735 0.255941
-0.003634 -0.070111 0.253666
-0.002399 -0.069402 0.251084
-0.001203 -0.069465 0.251297
-0.000004 -0.069528 0.251516
0.001195 -0.069450 0.251223
0.002397 -0.069560 0.251612
0.003678 -0.071099 0.257176
0.005013 -0.072669 0.262847
0.006242 -0.072376 0.261788
0.007442 -0.071897 0.260054
0.008663 -0.071729 0.259450
0.009810 -0.071065 0.257049
0.010998 -0.070816 0.256154
0.012194 -0.070660 0.255599
0.013384 -0.070506 0.255049
0.014504 -0.070032 0.253347
0.015474 -0.068968 0.249512
0.016610 -0.068740 0.248701
0.017803 -0.068763 0.248799
0.018939 -0.068574 0.248132
0.020054 -0.068340 0.247305
0.021156 -0.068087 0.246409
0.022309 -0.068018 0.246181
0.023404 -0.067786 0.245362
0.024527 -0.067653 0.244904
0.025681 -0.067615 0.244795
0.026763 -0.067397 0.244032
0.027891 -0.067311 0.243748
0.029019 -0.067229 0.243479
0.030119 -0.067092 0.243012
0.031220 -0.066968 0.242594
0.032341 -0.066894 0.242357
0.033408 -0.066717 0.241747
0.034354 -0.066317 0.240330
0.035232 -0.065816 0.238548
0.036269 -0.065636 0.237928
0.037207 -0.065290 0.236710
0.038110 -0.064908 0.235356
0.038862 -0.064295 0.233170
0.039958 -0.064271 0.233117
0.040988 -0.064145 0.232692
0.041896 -0.063839 0.231617
0.042761 -0.063485 0.230368
0.043820 -0.063429 0.230199
0.044780 -0.063237 0.229534
0.045589 -0.062845 0.228146
0.043851 -0.059042 0.214370
0.044000 -0.057895 0.210235
0.044817 -0.057658 0.209405
0.045828 -0.057676 0.209498
0.044401 -0.054690 0.198677
0.044821 -0.054057 0.196404
0.044759 -0.052878 0.192146
0.045514 -0.052694 0.191502
0.046320 -0.052574 0.191088
0.047062 -0.052388 0.190432
0.047718 -0.052115 0.189460
0.048366 -0.051844 0.188493
0.049154 -0.051730 0.188096
0.049909 -0.051585 0.187584
0.050674 -0.051456 0.187129
0.051331 -0.051224 0.186296
0.052122 -0.051131 0.185971
0.053004 -0.051128 0.185969
0.053598 -0.050853 0.184975
0.054397 -0.050778 0.184707
0.055057 -0.050577 0.183979
0.055814 -0.050470 0.183590
0.056696 -0.050479 0.183621
0.057350 -0.050286 0.182915
0.057722 -0.049856 0.181346
0.058201 -0.049529 0.180149
0.059308 -0.049739 0.180902
0.059524 -0.049206 0.178950
0.059909 -0.048826 0.177549
0.060535 -0.048650 0.176892
0.060982 -0.048337 0.175731
0.061650 -0.048205 0.175227
0.062045 -0.047866 0.173966
0.062321 -0.047446 0.172406
0.062646 -0.047073 0.171016
0.063367 -0.047003 0.170725
0.064009 -0.046877 0.170226
0.064646 -0.046751 0.169723
0.065228 -0.046589 0.169084
0.065753 -0.046390 0.168311
0.066372 -0.046262 0.167789
0.066918 -0.046086 0.167089
0.067354 -0.045840 0.166133
0.067855 -0.045643 0.165348
0.068464 -0.045523 0.164839
0.068955 -0.045327 0.164052
0.069431 -0.045127 0.163243
0.069947 -0.044956 0.162537
0.070441 -0.044775 0.161791
0.070860 -0.044551 0.160884
0.071381 -0.044395 0.160217
0.071823 -0.044194 0.159384
0.071949 -0.043804 0.157865
0.072385 -0.043610 0.157046
0.072980 -0.043514 0.156575
0.073454 -0.043349 0.155851
0.074379 -0.043451 0.156079
0.075286 -0.043540 0.156255
0.076400 -0.043746 0.156841
0.077085 -0.043704 0.156532
0.077831 -0.043698 0.156341
0.078570 -0.043688 0.156130
0.079186 -0.043610 0.155668
0.079549 -0.043395 0.154711
0.079648 -0.043043 0.153254
0.079866 -0.042760 0.152042
0.080057 -0.042468 0.150789
-0.059256 -0.057258 0.212943
-0.058145 -0.057152 0.212516
-0.057438 -0.057446 0.213572
-0.060431 -0.066242 0.246045
-0.057956 -0.064773 0.240540
-0.053979 -0.061534 0.228462
-0.052916 -0.061552 0.228479
-0.051762 -0.061462 0.228094
-0.050569 -0.061321 0.227522
-0.049588 -0.061437 0.227901
-0.048664 -0.061631 0.228567
-0.047726 -0.061815 0.229197
-0.046769 -0.061983 0.229765
-0.045800 -0.062142 0.230301
-0.044841 -0.062323 0.230918
-0.043900 -0.062538 0.231661
-0.042912 -0.062697 0.232193
-0.041909 -0.062842 0.232674
-0.040966 -0.063086 0.233521
-0.040017 -0.063335 0.234388
-0.039128 -0.063694 0.235662
-0.038086 -0.063820 0.236071
-0.037040 -0.063947 0.236487
-0.036035 -0.064154 0.237196
-0.035012 -0.064341 0.237834
-0.033910 -0.064391 0.237965
-0.032863 -0.064553 0.238508
-0.031834 -0.064764 0.239235
-0.030766 -0.064906 0.239709
-0.029699 -0.065065 0.240243
-0.028603 -0.065167 0.240568
-0.027545 -0.065370 0.241268
-0.026477 -0.065564 0.241936
-0.025420 -0.065807 0.242784
-0.024351 -0.066038 0.243593
-0.023226 -0.066135 0.243903
-0.022136 -0.066346 0.244637
-0.021023 -0.066508 0.245190
-0.019897 -0.066646 0.245659
-0.018793 -0.066879 0.246479
-0.017594 -0.066784 0.246089
-0.016516 -0.067165 0.247455
-0.015357 -0.067254 0.247750
-0.014160 -0.067175 0.247425
-0.013028 -0.067418 0.248288
-0.011863 -0.067522 0.248641
-0.010690 -0.067603 0.248910
-0.009520 -0.067720 0.249312
-0.008358 -0.067946 0.250119
-0.007184 -0.068123 0.250748
-0.006012 -0.068391 0.251714
-0.004816 -0.068458 0.251942
-0.003617 -0.068521 0.252154
-0.002416 -0.068591 0.252396
-0.001213 -0.068656 0.252622
-0.000007 -0.068686 0.252720
0.001199 -0.068683 0.252699
0.002408 -0.068736 0.252888
0.003760 -0.071502 0.263058
0.005007 -0.071371 0.262573
0.006252 -0.071277 0.262224
0.007470 -0.070948 0.261016
0.008596 -0.069968 0.257410
0.009775 -0.069614 0.256113
0.010962 -0.069386 0.255278
0.012133 -0.069111 0.254278
0.013218 -0.068442 0.251825
0.014377 -0.068237 0.251082
0.015516 -0.067975 0.250129
0.016689 -0.067887 0.249820
0.017841 -0.067732 0.249266
0.018983 -0.067558 0.248645
0.020096 -0.067310 0.247752
0.021172 -0.066970 0.246523
0.022321 -0.066888 0.246243
0.023397 -0.066602 0.245215
0.024518 -0.066468 0.244744
0.025660 -0.066400 0.244519
0.026754 -0.066220 0.243884
0.027865 -0.066094 0.243449
0.028967 -0.065959 0.242982
0.030101 -0.065902 0.242803
0.031188 -0.065750 0.242276
0.032290 -0.065642 0.241909
0.033398 -0.065549 0.241603
0.034432 -0.065325 0.240809
0.035466 -0.065115 0.240070
0.036417 -0.064769 0.238831
0.037240 -0.064225 0.236860
0.038128 -0.063822 0.235408
0.039005 -0.063422 0.233971
0.039913 -0.063095 0.232799
0.041066 -0.063161 0.233078
0.041985 -0.062874 0.232054
0.042847 -0.062518 0.230776
0.043820 -0.062338 0.230148
0.044891 -0.062303 0.230056
0.045444 -0.061567 0.227372
0.046480 -0.061505 0.227179
0.044473 -0.057510 0.212454
0.044866 -0.056727 0.209594
0.045888 -0.056757 0.209735
0.044343 -0.053679 0.198388
0.045070 -0.053421 0.197462
0.045744 -0.053112 0.196347
0.045538 -0.051814 0.191575
0.046228 -0.051567 0.190683
0.046731 -0.051125 0.189072
0.047678 -0.051176 0.189281
0.048498 -0.051090 0.188986
0.049158 -0.050843 0.188091
0.049851 -0.050638 0.187350
0.050533 -0.050429 0.186593
0.051378 -0.050388 0.186457
0.052075 -0.050205 0.185790
0.052812 -0.050066 0.185289
0.053565 -0.049947 0.184855
0.054274 -0.049790 0.184282
0.055061 -0.049709 0.183989
0.055686 -0.049487 0.183171
0.056430 -0.049376 0.182759
0.057348 -0.049418 0.182913
0.057964 -0.049203 0.182112
0.058043 -0.048544 0.179668
0.058757 -0.048428 0.179229
0.059349 -0.048216 0.178435
0.059868 -0.047952 0.177441
0.060572 -0.047841 0.177014
0.060947 -0.047477 0.175647
0.061646 -0.047372 0.175235
0.062120 -0.047098 0.174198
0.062466 -0.046737 0.172832
0.062738 -0.046330 0.171295
0.063288 -0.046136 0.170540
0.063984 -0.046052 0.170190
0.064547 -0.045876 0.169497
0.065259 -0.045808 0.169201
0.065769 -0.045602 0.168389
0.066378 -0.045470 0.167845
0.067039 -0.045375 0.167435
0.067462 -0.045122 0.166442
0.068023 -0.044968 0.165807
0.068567 -0.044806 0.165137
0.069030 -0.044595 0.164283
0.069453 -0.044363 0.163348
0.069956 -0.044187 0.162615
0.070414 -0.043987 0.161788
0.070920 -0.043821 0.161082
0.071406 -0.043646 0.160339
0.071896 -0.043476 0.159611
0.072132 -0.043159 0.158337
0.072515 -0.042935 0.157399
0.072961 -0.042754 0.156611
0.073624 -0.042701 0.156289
0.074467 -0.042753 0.156345
0.075239 -0.042763 0.156240
0.076350 -0.042964 0.156826
0.077173 -0.043001 0.156803
0.077791 -0.042923 0.156355
0.078529 -0.042913 0.156146
0.079169 -0.042850 0.155737
0.079455 -0.042598 0.154633
0.079684 -0.042320 0.153431
0.079837 -0.042008 0.152097
0.080036 -0.041725 0.150864
-0.062646 -0.057522 0.217793
-0.061701 -0.057597 0.218043
-0.059329 -0.056320 0.213173
-0.058515 -0.056503 0.213832
-0.057510 -0.056505 0.213803
-0.056558 -0.059758 0.225934
-0.055560 -0.059831 0.226163
-0.054229 -0.059540 0.225017
-0.053131 -0.059500 0.224815
-0.052273 -0.059732 0.225643
-0.051405 -0.059963 0.226463
-0.050475 -0.060130 0.227039
-0.049642 -0.060421 0.228086
-0.048731 -0.060629 0.228815
-0.047755 -0.060763 0.229266
-0.046823 -0.060961 0.229957
-0.045843 -0.061104 0.230441
-0.044896 -0.061300 0.231125
-0.043913 -0.061455 0.231652
-0.042952 -0.061649 0.232328
-0.041964 -0.061815 0.232894
-0.040973 -0.061985 0.233476
-0.040062 -0.062287 0.234558
-0.039170 -0.062639 0.235824
-0.038127 -0.062763 0.236236
-0.037104 -0.062928 0.236801
-0.036096 -0.063128 0.237496
-0.035017 -0.063216 0.237771
-0.033968 -0.063364 0.238271
-0.032917 -0.063518 0.238795
-0.031859 -0.063670 0.239312
-0.030800 -0.063832 0.239869
-0.029723 -0.063966 0.240319
-0.028648 -0.064117 0.240832
-0.027573 -0.064281 0.241400
-0.026515 -0.064500 0.242172
-0.025442 -0.064700 0.242871
-0.024362 -0.064902 0.243584
-0.023302 -0.065177 0.244570
-0.022157 -0.065236 0.244744
-0.021041 -0.065387 0.245269
-0.019948 -0.065633 0.246150
-0.018793 -0.065696 0.246342
-0.017704 -0.066009 0.247477
-0.016545 -0.066091 0.247749
-0.015376 -0.066142 0.247903
-0.014232 -0.066318 0.248526
-0.013060 -0.066385 0.248746
-0.011895 -0.066501 0.249148
-0.010721 -0.066589 0.249450
-0.009557 -0.066770 0.250100
-0.008386 -0.066948 0.250742
-0.007205 -0.067093 0.251260
-0.006018 -0.067228 0.251743
-0.004822 -0.067308 0.252025
-0.003625 -0.067411 0.252392
-0.002423 -0.067496 0.252693
-0.001217 -0.067552 0.252890
-0.000010 -0.067630 0.253171
0.001199 -0.067634 0.253174
0.002404 -0.067502 0.252673
0.003752 -0.070152 0.262587
0.005064 -0.070961 0.265611
0.006242 -0.069938 0.261780
0.007489 -0.069905 0.261660
0.008605 -0.068837 0.257662
0.009765 -0.068340 0.255809
0.010947 -0.068091 0.254882
0.012122 -0.067852 0.253995
0.013238 -0.067354 0.252142
0.014387 -0.067095 0.251183
0.015559 -0.066975 0.250747
0.016688 -0.066700 0.249734
0.017865 -0.066640 0.249526
0.018997 -0.066431 0.248765
0.020098 -0.066144 0.247708
0.021226 -0.065971 0.247083
0.022367 -0.065856 0.246675
0.023468 -0.065640 0.245890
0.024559 -0.065419 0.245089
0.025691 -0.065319 0.244745
0.026828 -0.065242 0.244485
0.027931 -0.065094 0.243959
0.029042 -0.064973 0.243537
0.030180 -0.064919 0.243366
0.031287 -0.064807 0.242979
0.032376 -0.064664 0.242479
0.033492 -0.064585 0.242217
0.034563 -0.064427 0.241659
0.035598 -0.064214 0.240898
0.036588 -0.063937 0.239893
0.037349 -0.063287 0.237492
0.038208 -0.062837 0.235841
0.039218 -0.062652 0.235186
0.040117 -0.062308 0.233931
0.041143 -0.062173 0.233461
0.042142 -0.062003 0.232864
0.042870 -0.061457 0.230850
0.043775 -0.061183 0.229859
0.044763 -0.061037 0.229348
0.045631 -0.060738 0.228262
0.045763 -0.059496 0.223628
0.044212 -0.056172 0.211168
0.044776 -0.055622 0.209135
0.043476 -0.052833 0.198677
0.044238 -0.052613 0.197881
0.044691 -0.052043 0.195767
0.045068 -0.051411 0.193416
0.045519 -0.050885 0.191464
0.046261 -0.050700 0.190793
0.046907 -0.050419 0.189759
0.047739 -0.050344 0.189501
0.048467 -0.050163 0.188844
0.049117 -0.049911 0.187915
0.049909 -0.049809 0.187551
0.050673 -0.049683 0.187096
0.051368 -0.049495 0.186403
0.052204 -0.049448 0.186239
0.052911 -0.049281 0.185623
0.053624 -0.049125 0.185050
0.054496 -0.049117 0.185029
0.055032 -0.048813 0.183888
0.055881 -0.048790 0.183809
0.056616 -0.048670 0.183359
0.057292 -0.048505 0.182737
0.058118 -0.048468 0.182597
0.058194 -0.047817 0.180141
0.058927 -0.047716 0.179754
0.059545 -0.047528 0.179035
0.060007 -0.047221 0.177866
0.060628 -0.047046 0.177192
0.061245 -0.046873 0.176523
0.061723 -0.046600 0.175473
0.062136 -0.046284 0.174262
0.062510 -0.045949 0.172974
0.062834 -0.045587 0.171580
0.063323 -0.045352 0.170662
0.064046 -0.045289 0.170385
0.064626 -0.045126 0.169735
0.065230 -0.044985 0.169158
0.065879 -0.044878 0.168708
0.066368 -0.044665 0.167855
0.066992 -0.044548 0.167359
0.067633 -0.044444 0.166906
0.068112 -0.044237 0.166067
0.068688 -0.044098 0.165474
0.069248 -0.043951 0.164850
0.069636 -0.043700 0.163832
0.070131 -0.043521 0.163077
0.070603 -0.043332 0.162279
0.071004 -0.043103 0.161332
0.071462 -0.042914 0.160525
0.071730 -0.042616 0.159307
0.072352 -0.042532 0.158886
0.072422 -0.042129 0.157268
0.072739 -0.041876 0.156205
0.073724 -0.042009 0.156577
0.074376 -0.041952 0.156231
0.075293 -0.042044 0.156435
0.076216 -0.042136 0.156634
0.077073 -0.042192 0.156686
0.077842 -0.042198 0.156550
0.078412 -0.042097 0.156007
0.078987 -0.042002 0.155476
0.079336 -0.041788 0.154501
0.079556 -0.041512 0.153289
0.079445 -0.041069 0.151457
0.079734 -0.040839 0.150404
-0.062143 -0.056037 0.216011
-0.060794 -0.055734 0.214807
-0.059782 -0.055733 0.214766
-0.058873 -0.055831 0.215105
-0.057621 -0.055600 0.214179
-0.057033 -0.056014 0.215732
-0.058040 -0.058038 0.223481
-0.057058 -0.058111 0.223715
-0.056074 -0.058185 0.223953
-0.054951 -0.058114 0.223631
-0.053963 -0.058187 0.223862
-0.053107 -0.058407 0.224657
-0.052198 -0.058578 0.225260
-0.051431 -0.058918 0.226515
-0.050602 -0.059200 0.227545
-0.049739 -0.059453 0.228464
-0.048823 -0.059654 0.229179
-0.047841 -0.059781 0.229608
-0.046891 -0.059955 0.230219
-0.045948 -0.060146 0.230894
-0.044995 -0.060334 0.231557
-0.044028 -0.060510 0.232176
-0.043034 -0.060660 0.232691
-0.042060 -0.060845 0.233343
-0.041050 -0.060987 0.233828
-0.040083 -0.061202 0.234594
-0.039142 -0.061471 0.235563
-0.038125 -0.061634 0.236129
-0.037164 -0.061898 0.237085
-0.036156 -0.062099 0.237795
-0.035156 -0.062327 0.238609
-0.034029 -0.062338 0.238594
-0.032981 -0.062500 0.239157
-0.031952 -0.062710 0.239904
-0.030864 -0.062816 0.240258
-0.029791 -0.062962 0.240761
-0.028718 -0.063120 0.241310
-0.027632 -0.063261 0.241797
-0.026559 -0.063446 0.242452
-0.025473 -0.063613 0.243044
-0.024460 -0.063989 0.244429
-0.023296 -0.063988 0.244380
-0.022301 -0.064477 0.246201
-0.021077 -0.064319 0.245551
-0.020084 -0.064892 0.247695
-0.018936 -0.065002 0.248073
-0.017640 -0.064585 0.246440
-0.016616 -0.065177 0.248660
-0.015458 -0.065294 0.249070
-0.014270 -0.065293 0.249029
-0.013111 -0.065437 0.249547
-0.011940 -0.065542 0.249916
-0.010760 -0.065619 0.250179
-0.009591 -0.065791 0.250805
-0.008416 -0.065967 0.251451
-0.007235 -0.066144 0.252101
-0.006040 -0.066239 0.252443
-0.004840 -0.066312 0.252701
-0.003638 -0.066392 0.252987
-0.002432 -0.066453 0.253204
-0.001223 -0.066525 0.253464
-0.000013 -0.066550 0.253547
0.001199 -0.066588 0.253683
0.002414 -0.066663 0.253960
0.003770 -0.069279 0.263922
0.004980 -0.068577 0.261244
0.006236 -0.068661 0.261563
0.007474 -0.068544 0.261117
0.008603 -0.067616 0.257585
0.009782 -0.067254 0.256212
0.010985 -0.067126 0.255730
0.012139 -0.066746 0.254292
0.013280 -0.066373 0.252882
0.014386 -0.065907 0.251117
0.015556 -0.065779 0.250646
0.016719 -0.065641 0.250136
0.017858 -0.065434 0.249365
0.019008 -0.065290 0.248836
0.020119 -0.065039 0.247900
0.021256 -0.064891 0.247359
0.022398 -0.064775 0.246941
0.023503 -0.064571 0.246191
0.024613 -0.064397 0.245553
0.025737 -0.064275 0.245117
0.026861 -0.064163 0.244719
0.027965 -0.064012 0.244177
0.029113 -0.063972 0.244056
0.030215 -0.063838 0.243577
0.031350 -0.063782 0.243399
0.032460 -0.063679 0.243040
0.033547 -0.063540 0.242545
0.034606 -0.063360 0.241896
0.035579 -0.063037 0.240702
0.036599 -0.062817 0.239900
0.037450 -0.062328 0.238070
0.038367 -0.061974 0.236758
0.039118 -0.061379 0.234525
0.040107 -0.061182 0.233810
0.041152 -0.061078 0.233452
0.042066 -0.060790 0.232393
0.042864 -0.060353 0.230760
0.043901 -0.060266 0.230466
0.044910 -0.060146 0.230049
0.045733 -0.059788 0.228719
0.045128 -0.057624 0.220478
0.044365 -0.055361 0.211853
0.042593 -0.051967 0.198899
0.043386 -0.051784 0.198228
0.044180 -0.051608 0.197588
0.044942 -0.051403 0.196834
0.045966 -0.051500 0.197235
0.045526 -0.049986 0.191466
0.046254 -0.049788 0.190737
0.046932 -0.049545 0.189832
0.047723 -0.049429 0.189413
0.048416 -0.049217 0.188622
0.049179 -0.049083 0.188132
0.049925 -0.048936 0.187591
0.050683 -0.048807 0.187115
0.051391 -0.048634 0.186472
0.052185 -0.048547 0.186155
0.052972 -0.048458 0.185827
0.053414 -0.048060 0.184315
0.054021 -0.047821 0.183408
0.054722 -0.047671 0.182845
0.055484 -0.047579 0.182497
0.056169 -0.047425 0.181911
0.056759 -0.047196 0.181036
0.057474 -0.047076 0.180576
0.058077 -0.046869 0.179782
0.058771 -0.046742 0.179287
0.059451 -0.046606 0.178758
0.060011 -0.046381 0.177886
0.060684 -0.046249 0.177368
0.061274 -0.046058 0.176618
0.061773 -0.045805 0.175629
0.062227 -0.045526 0.174537
0.062376 -0.045033 0.172624
0.063060 -0.044935 0.172220
0.063493 -0.044662 0.171144
0.064074 -0.044500 0.170487
0.064736 -0.044397 0.170052
0.065369 -0.044276 0.169549
0.065920 -0.044104 0.168844
0.066455 -0.043926 0.168112
0.067085 -0.043813 0.167627
0.067659 -0.043668 0.167013
0.068224 -0.043519 0.166382
0.068822 -0.043395 0.165842
0.069377 -0.043247 0.165205
0.069855 -0.043055 0.164396
0.070381 -0.042896 0.163709
0.070872 -0.042720 0.162952
0.071300 -0.042510 0.162060
0.071750 -0.042318 0.161231
0.072168 -0.042110 0.160341
0.072351 -0.041772 0.158948
0.072584 -0.041470 0.157686
0.072892 -0.041215 0.156603
0.073565 -0.041170 0.156310
0.074552 -0.041301 0.156676
0.075323 -0.041309 0.156574
0.076154 -0.041351 0.156589
0.076939 -0.041366 0.156498
0.077645 -0.041340 0.156240
0.078276 -0.041274 0.155828
0.078721 -0.041113 0.155046
0.079047 -0.040892 0.154035
0.079170 -0.040573 0.152644
0.079122 -0.040172 0.150942
0.079385 -0.039934 0.149850
-0.061728 -0.054648 0.214541
-0.060897 -0.054809 0.215136
-0.060105 -0.055012 0.215893
-0.058984 -0.054916 0.215474
-0.058155 -0.055092 0.216122
-0.057105 -0.055061 0.215959
-0.057616 -0.056563 0.221803
-0.056360 -0.056353 0.220930
-0.055784 -0.056827 0.222742
-0.054903 -0.057004 0.223384
-0.054111 -0.057281 0.224418
-0.053243 -0.057488 0.225176
-0.052571 -0.057919 0.226809
-0.051674 -0.058116 0.227523
-0.050717 -0.058251 0.227995
-0.049862 -0.058512 0.228960
-0.048907 -0.058665 0.229499
-0.047943 -0.058814 0.230024
-0.046960 -0.058946 0.230480
-0.045996 -0.059109 0.231057
-0.045037 -0.059287 0.231695
-0.044107 -0.059513 0.232515
-0.043174 -0.059746 0.233364
-0.042139 -0.059846 0.233695
-0.041160 -0.060034 0.234367
-0.040186 -0.060238 0.235105
-0.039167 -0.060386 0.235620
-0.038192 -0.060613 0.236445
-0.037209 -0.060841 0.237276
-0.036166 -0.060981 0.237760
-0.035136 -0.061153 0.238371
-0.034073 -0.061279 0.238802
-0.033006 -0.061404 0.239234
-0.031957 -0.061572 0.239830
-0.030888 -0.061715 0.240332
-0.029827 -0.061884 0.240935
-0.028760 -0.062055 0.241543
-0.027688 -0.062229 0.242170
-0.026605 -0.062392 0.242749
-0.025524 -0.062575 0.243410
-0.024459 -0.062816 0.244300
-0.023369 -0.063013 0.245018
-0.022253 -0.063159 0.245538
-0.021137 -0.063320 0.246116
-0.020011 -0.063468 0.246648
-0.018886 -0.063643 0.247282
-0.017739 -0.063755 0.247677
-0.016581 -0.063845 0.247990
-0.015438 -0.064012 0.248601
-0.014269 -0.064089 0.248863
-0.013099 -0.064176 0.249164
-0.011936 -0.064315 0.249671
-0.010762 -0.064420 0.250049
-0.009597 -0.064615 0.250780
-0.008432 -0.064867 0.251731
-0.007248 -0.065028 0.252332
