ply
format ascii 1.0
element vertex 1744
property float x
property float y
property float z
end_header
0.029026 0.061065 0.210291
0.029925 0.060856 0.209599
0.030711 0.060439 0.208188
0.031509 0.060071 0.206944
0.032102 0.059346 0.204473
0.033048 0.059296 0.204326
0.033819 0.058945 0.203144
0.034644 0.058704 0.202338
0.035248 0.058112 0.200324
0.035857 0.057559 0.198443
0.035995 0.056298 0.194119
0.036900 0.056269 0.194045
0.037430 0.055685 0.192054
0.037755 0.054830 0.189129
0.038433 0.054516 0.188068
0.038617 0.053530 0.184690
0.038821 0.052616 0.181560
0.039651 0.052571 0.181424
0.040445 0.052482 0.181137
0.041195 0.052341 0.180667
0.041979 0.052247 0.180364
0.042667 0.052040 0.179667
0.043385 0.051877 0.179118
0.044117 0.051737 0.178650
0.044713 0.051445 0.177657
0.045216 0.051060 0.176340
0.045658 0.050619 0.174830
0.046135 0.050234 0.173509
0.046810 0.050074 0.172965
0.047549 0.049986 0.172667
0.047997 0.049600 0.171342
0.048600 0.049385 0.170602
0.048978 0.048953 0.169111
0.049175 0.048355 0.167046
0.048831 0.047254 0.163240
0.049170 0.046838 0.161798
0.049558 0.046479 0.160554
0.049647 0.045856 0.158394
0.049961 0.045456 0.157003
0.050599 0.045359 0.156654
0.051054 0.045102 0.155754
0.051568 0.044904 0.155053
0.052213 0.044825 0.154760
0.052803 0.044700 0.154308
0.053414 0.044597 0.153927
0.053923 0.044412 0.153263
0.054469 0.044263 0.152716
0.055021 0.044122 0.152198
0.055514 0.043938 0.151528
0.055686 0.043508 0.150006
0.055444 0.042769 0.147418
0.056078 0.042717 0.147193
0.052340 0.039376 0.135637
0.052204 0.038793 0.133583
0.050855 0.037335 0.128512
0.052092 0.037787 0.130014
0.058130 0.041669 0.143312
0.059007 0.041805 0.143712
0.059641 0.041767 0.143512
0.059932 0.041493 0.142496
0.060609 0.041489 0.142405
0.060449 0.040918 0.140363
0.060376 0.040419 0.138566
0.060152 0.039829 0.136457
0.060211 0.039439 0.135026
0.060616 0.039280 0.134387
0.060567 0.038834 0.132759
0.061265 0.038871 0.132778
0.068460 0.042987 0.146715
0.069714 0.043326 0.147742
0.070223 0.043200 0.147174
0.070293 0.042810 0.145702
0.071120 0.042883 0.145801
0.071472 0.042671 0.144926
0.070954 0.041949 0.142313
0.070909 0.041518 0.140683
0.071311 0.041354 0.139955
0.071651 0.041158 0.139111
0.072191 0.041079 0.138656
0.072887 0.041090 0.138496
0.073681 0.041154 0.138507
-0.958063 0.532020 1.775084
-0.950073 0.532324 1.778604
-0.942231 0.532718 1.782319
-1.036474 0.644468 2.179039
-1.024626 0.643524 2.177584
-1.013139 0.642790 2.176751
-1.005647 0.644602 2.184457
-0.994074 0.643809 2.183256
-0.984878 0.644556 2.187200
-0.809373 0.541067 1.838204
-0.797733 0.539073 1.832421
-0.784192 0.535737 1.822010
-0.780621 0.539212 1.834711
-0.770048 0.537876 1.830987
-0.760393 0.537158 1.829313
-0.372016 0.278607 0.950420
-0.367905 0.278884 0.951617
-0.362823 0.278423 0.950272
-0.359173 0.279062 0.952663
-0.355311 0.279551 0.954522
-0.350979 0.279678 0.955126
-0.346970 0.280070 0.956612
-0.341604 0.279362 0.954326
-0.071233 0.065099 0.222491
-0.070207 0.065118 0.222552
-0.068997 0.064964 0.222022
-0.066589 0.063661 0.217559
-0.065040 0.063150 0.215804
-0.063177 0.062314 0.212934
-0.061671 0.061809 0.211194
-0.059280 0.060385 0.206310
-0.058230 0.060304 0.206014
-0.057470 0.060524 0.206748
-0.056635 0.060672 0.207228
-0.056177 0.061236 0.209130
-0.055364 0.061427 0.209755
-0.054524 0.061594 0.210297
-0.053767 0.061862 0.211184
-0.052939 0.062058 0.211818
-0.052165 0.062326 0.212701
-0.051222 0.062398 0.212912
-0.050381 0.062600 0.213566
-0.049498 0.062758 0.214067
-0.048618 0.062924 0.214596
-0.047785 0.063161 0.215366
-0.047062 0.063557 0.216673
-0.046241 0.063835 0.217583
-0.045433 0.064144 0.218592
-0.044483 0.064263 0.218955
-0.043682 0.064606 0.220082
-0.042770 0.064800 0.220698
-0.041911 0.065085 0.221624
-0.040923 0.065179 0.221898
-0.040036 0.065443 0.222752
-0.039078 0.065604 0.223255
-0.038119 0.065771 0.223776
-0.037188 0.065996 0.224495
-0.036232 0.066189 0.225109
-0.035295 0.066431 0.225886
-0.034289 0.066554 0.226258
-0.033322 0.066762 0.226919
-0.032342 0.066957 0.227538
-0.031330 0.067100 0.227978
-0.030372 0.067370 0.228853
-0.029353 0.067519 0.229314
-0.028381 0.067795 0.230208
-0.027375 0.068007 0.230886
-0.026307 0.068077 0.231079
-0.025251 0.068185 0.231406
-0.024225 0.068386 0.232047
-0.023141 0.068436 0.232180
-0.022068 0.068526 0.232446
-0.021023 0.068716 0.233052
-0.019971 0.068904 0.233654
-0.018900 0.069045 0.234098
-0.017819 0.069167 0.234477
-0.016744 0.069327 0.234985
-0.015664 0.069489 0.235502
-0.014564 0.069582 0.235788
-0.013450 0.069614 0.235866
-0.012337 0.069664 0.236008
-0.011234 0.069778 0.236368
-0.010096 0.069684 0.236025
-0.008948 0.069481 0.235314
-0.008500 0.075445 0.255489
-0.007286 0.075461 0.255522
-0.006068 0.075426 0.255386
-0.004838 0.075198 0.254594
-0.003635 0.075369 0.255155
-0.002420 0.075352 0.255082
-0.001175 0.073410 0.248495
0.000008 0.073138 0.247564
0.001185 0.073030 0.247189
0.002361 0.072987 0.247036
0.003527 0.072782 0.246335
0.004676 0.072413 0.245083
0.005838 0.072344 0.244845
0.006999 0.072297 0.244686
0.008062 0.071393 0.241628
0.009117 0.070650 0.239113
0.010186 0.070164 0.237472
0.011140 0.069068 0.233769
0.012039 0.067858 0.229678
0.013047 0.067415 0.228189
0.014027 0.066905 0.226470
0.015075 0.066769 0.226020
0.016058 0.066382 0.224720
0.017042 0.066047 0.223599
0.018101 0.066024 0.223535
0.019023 0.065532 0.221887
0.020062 0.065474 0.221705
0.021033 0.065211 0.220833
0.021964 0.064856 0.219647
0.022950 0.064687 0.219093
0.023880 0.064381 0.218077
0.024814 0.064110 0.217182
0.025519 0.063293 0.214434
0.026472 0.063132 0.213911
0.027169 0.062393 0.211428
0.028020 0.062047 0.210280
0.028945 0.061886 0.209757
0.029751 0.061487 0.208428
0.030643 0.061287 0.207774
0.031575 0.061177 0.207424
0.032436 0.060940 0.206645
0.033119 0.060392 0.204812
0.033619 0.059552 0.201987
0.034491 0.059398 0.201488
0.035240 0.059047 0.200322
0.034812 0.056793 0.192699
0.035675 0.056708 0.192433
0.036542 0.056633 0.192201
0.037258 0.056334 0.191208
0.037926 0.055976 0.190018
0.038410 0.055371 0.187985
0.039097 0.055080 0.187017
0.039581 0.054521 0.185141
0.040243 0.054226 0.184158
0.040703 0.053678 0.182315
0.041339 0.053381 0.181323
0.042034 0.053169 0.180619
0.042670 0.052893 0.179698
0.043285 0.052603 0.178726
0.044118 0.052582 0.178670
0.044723 0.052297 0.177713
0.045008 0.051654 0.175538
0.045636 0.051421 0.174758
0.046323 0.051262 0.174225
0.046899 0.050988 0.173300
0.047533 0.050786 0.172617
0.047839 0.050244 0.170781
0.048633 0.050226 0.170720
0.048844 0.049616 0.168648
0.048357 0.048328 0.164268
0.048630 0.047828 0.162564
0.048681 0.047129 0.160183
0.049326 0.047017 0.159795
0.049629 0.046589 0.158330
0.050005 0.046240 0.157131
0.050541 0.046048 0.156463
0.051091 0.045873 0.155853
0.051619 0.045683 0.155190
0.052192 0.045539 0.154679
0.052776 0.045407 0.154208
0.053337 0.045261 0.153684
0.053912 0.045129 0.153207
0.054333 0.044874 0.152309
0.054796 0.044660 0.151547
0.055294 0.044479 0.150895
0.055079 0.043737 0.148339
0.054845 0.042999 0.145792
0.052815 0.040889 0.138593
0.052481 0.040127 0.135965
0.050641 0.038247 0.129548
0.050811 0.037912 0.128361
0.052412 0.038640 0.130774
0.058456 0.042587 0.144067
0.058903 0.042413 0.143409
0.059229 0.042157 0.142471
0.060002 0.042220 0.142609
0.060461 0.042064 0.142001
0.060573 0.041672 0.140594
0.060374 0.041078 0.138500
0.060031 0.040399 0.136122
0.059954 0.039912 0.134386
0.060616 0.039922 0.134321
0.060775 0.039605 0.133147
0.060927 0.039289 0.131976
0.069096 0.044096 0.147996
0.069673 0.044009 0.147570
0.070025 0.043783 0.146673
0.070669 0.043742 0.146389
0.071099 0.043571 0.145665
0.071152 0.043174 0.144179
0.071002 0.042664 0.142311
0.070981 0.042239 0.140724
0.071351 0.042054 0.139930
0.071998 0.042033 0.139677
0.072457 0.041904 0.139056
0.073009 0.041831 0.138610
0.074168 0.042104 0.139304
-0.954997 0.538880 1.767962
-0.948370 0.539950 1.774020
-0.940931 0.540572 1.778510
-1.033254 0.652838 2.171140
-1.016973 0.649030 2.160242
-1.005834 0.648459 2.160022
-1.001650 0.652406 2.174777
-0.988197 0.650336 2.169397
-0.972929 0.647016 2.159755
-0.963819 0.647764 2.163612
-0.808724 0.549363 1.836028
-0.790518 0.542823 1.815187
-0.782512 0.543220 1.817476
-0.779959 0.547454 1.832551
-0.766244 0.543861 1.821373
-0.759381 0.545105 1.826339
-0.754860 0.548078 1.837051
-0.371661 0.282836 0.949309
-0.367497 0.283073 0.950372
-0.361751 0.282082 0.947288
-0.358972 0.283409 0.951968
-0.354819 0.283672 0.953052
-0.350080 0.283467 0.952546
-0.347047 0.284656 0.956704
-0.342330 0.284477 0.956247
-0.087554 0.083768 0.281741
-0.066509 0.064611 0.217303
-0.064970 0.064101 0.215583
-0.062667 0.062810 0.211228
-0.059265 0.060357 0.202967
-0.058812 0.060877 0.204702
-0.058142 0.061185 0.205721
-0.057263 0.061281 0.206025
-0.056306 0.061294 0.206050
-0.055548 0.061529 0.206815
-0.054743 0.061720 0.207433
-0.055002 0.063138 0.212172
-0.054102 0.063254 0.212536
-0.052996 0.063129 0.212086
-0.052196 0.063371 0.212867
-0.051197 0.063376 0.212851
-0.050298 0.063508 0.213260
-0.049417 0.063667 0.213761
-0.048479 0.063759 0.214034
-0.047662 0.064018 0.214865
-0.046972 0.064462 0.216317
-0.046228 0.064849 0.217575
-0.045327 0.065029 0.218141
-0.044407 0.065191 0.218643
-0.043525 0.065416 0.219357
-0.042704 0.065747 0.220425
-0.041793 0.065952 0.221069
-0.040822 0.066070 0.221421
-0.039888 0.066257 0.222006
-0.038935 0.066422 0.222514
-0.037985 0.066599 0.223065
-0.037031 0.066782 0.223631
-0.036118 0.067050 0.224487
-0.035172 0.067272 0.225186
-0.034188 0.067432 0.225676
-0.033232 0.067661 0.226398
-0.032256 0.067862 0.227029
-0.031309 0.068139 0.227913
-0.030283 0.068260 0.228274
-0.029265 0.068410 0.228733
-0.028256 0.068590 0.229295
-0.027278 0.068863 0.230166
-0.026225 0.068965 0.230466
-0.025168 0.069063 0.230752
-0.024138 0.069247 0.231328
-0.023096 0.069412 0.231841
-0.022039 0.069548 0.232258
-0.020993 0.069736 0.232848
-0.019940 0.069915 0.233412
-0.018870 0.070059 0.233860
-0.017795 0.070199 0.234291
-0.016718 0.070345 0.234749
-0.015630 0.070468 0.235126
-0.014499 0.070398 0.234864
-0.013403 0.070504 0.235189
-0.012295 0.070557 0.235340
-0.011159 0.070445 0.234942
-0.010049 0.070498 0.235093
-0.008953 0.070669 0.235639
-0.008428 0.076040 0.253526
-0.007207 0.075878 0.252966
-0.005994 0.075750 0.252519
-0.004795 0.075782 0.252609
-0.003583 0.075552 0.251824
-0.002383 0.075506 0.251658
-0.001181 0.075201 0.250628
0.000011 0.074287 0.247570
0.001187 0.074137 0.247061
0.002365 0.074190 0.247230
0.003509 0.073525 0.245006
0.004652 0.073160 0.243785
0.005777 0.072709 0.242282
0.006910 0.072494 0.241563
0.008003 0.071982 0.239856
0.009061 0.071325 0.237669
0.010147 0.071003 0.236600
0.011021 0.069411 0.231297
0.012044 0.068963 0.229813
0.013105 0.068789 0.229239
0.014099 0.068320 0.227684
0.015037 0.067661 0.225497
0.016067 0.067476 0.224890
0.017005 0.066954 0.223164
0.018073 0.066975 0.223247
0.019027 0.066592 0.221984
0.020032 0.066421 0.221430
0.020991 0.066122 0.220450
0.021961 0.065883 0.219671
0.022873 0.065500 0.218410
0.023805 0.065205 0.217443
0.024769 0.065017 0.216838
0.025528 0.064328 0.214561
0.026166 0.063400 0.211484
0.027068 0.063157 0.210695
0.027970 0.062930 0.209958
0.028874 0.062722 0.209288
0.029757 0.062486 0.208523
0.030664 0.062312 0.207965
0.031512 0.062034 0.207060
0.032193 0.061454 0.205144
0.032607 0.060411 0.201687
0.033438 0.060180 0.200939
0.034412 0.060212 0.201067
0.034873 0.059369 0.198274
0.034962 0.057953 0.193566
0.035581 0.057466 0.191961
0.036374 0.057277 0.191351
0.037373 0.057414 0.191830
0.037906 0.056845 0.189951
0.038455 0.056326 0.188237
0.039163 0.056058 0.187358
0.039917 0.055866 0.186737
0.040261 0.055122 0.184268
0.040685 0.054516 0.182259
0.041612 0.054595 0.182539
0.042102 0.054110 0.180930
0.042732 0.053820 0.179975
0.043387 0.053573 0.179162
0.043967 0.053244 0.178075
0.044721 0.053135 0.177718
0.045268 0.052787 0.176566
0.045687 0.052306 0.174964
0.046275 0.052032 0.174051
0.047063 0.051989 0.173913
0.047697 0.051780 0.173217
0.048495 0.051752 0.173125
0.048184 0.050562 0.169143
0.048687 0.050251 0.168102
0.048616 0.049367 0.165143
0.048480 0.048447 0.162058
0.048574 0.047782 0.159824
0.049087 0.047542 0.159013
0.049368 0.047088 0.157484
0.049888 0.046873 0.156749
0.050507 0.046756 0.156342
0.051018 0.046543 0.155614
0.051594 0.046395 0.155097
0.052163 0.046245 0.154572
0.052754 0.046119 0.154123
0.053288 0.045946 0.153518
0.053785 0.045747 0.152820
0.054236 0.045514 0.152009
0.054587 0.045205 0.150939
0.055079 0.045018 0.150276
0.055072 0.044435 0.148285
0.054890 0.043726 0.145875
0.055520 0.043674 0.145652
0.052493 0.040782 0.135959
0.051971 0.039883 0.132911
0.051742 0.039227 0.130673
0.057717 0.043236 0.143963
0.058337 0.043184 0.143725
0.058807 0.043025 0.143124
0.059361 0.042930 0.142733
0.059879 0.042811 0.142261
0.060472 0.042748 0.141967
0.060880 0.042557 0.141246
0.060505 0.041829 0.138737
0.059688 0.040814 0.135280
0.059804 0.040453 0.133984
0.060568 0.040532 0.134144
0.060849 0.040291 0.133238
0.061166 0.040077 0.132420
0.068186 0.044215 0.145962
0.069524 0.044621 0.147166
0.069930 0.044427 0.146383
0.070152 0.044121 0.145226
0.070794 0.044082 0.144941
0.070865 0.043692 0.143499
0.070632 0.043124 0.141467
0.071037 0.042953 0.140731
0.071240 0.042664 0.139604
0.071796 0.042589 0.139172
0.072479 0.042591 0.138982
0.073073 0.042541 0.138614
0.073796 0.042566 0.138480
-0.952098 0.545782 1.761107
-0.944960 0.546557 1.766199
-0.936837 0.546773 1.769379
-0.929142 0.547245 1.773286
-1.034145 0.663784 2.171836
-1.015582 0.658441 2.156165
-1.004081 0.657614 2.155179
-0.996332 0.659254 2.162195
-0.987097 0.659935 2.165987
-0.973306 0.657552 2.159644
-0.964177 0.658302 2.163507
-0.808539 0.557965 1.834872
-0.789785 0.550937 1.812810
-0.780946 0.550748 1.813177
-0.773215 0.551344 1.816076
-0.766326 0.552563 1.820970
-0.757494 0.552391 1.821231
-0.754182 0.556288 1.834860
-0.369960 0.286016 0.944748
-0.368335 0.288228 0.952335
-0.362350 0.287040 0.948669
-0.358298 0.287373 0.950007
-0.354727 0.288106 0.952645
-0.349350 0.287372 0.950414
-0.346195 0.288470 0.954223
-0.340620 0.287554 0.951351
-0.336565 0.287915 0.952684
-0.087449 0.084997 0.281405
-0.086331 0.085201 0.282076
-0.064890 0.065040 0.215325
-0.062862 0.064007 0.211896
-0.059087 0.061132 0.202369
-0.058446 0.061460 0.203442
-0.057763 0.061753 0.204399
-0.056838 0.061793 0.204515
-0.055898 0.061818 0.204578
-0.055029 0.061924 0.204909
-0.054187 0.062064 0.205351
-0.055705 0.064962 0.214915
-0.054759 0.065040 0.215148
-0.053459 0.064694 0.213975
-0.052249 0.064445 0.213122
-0.051132 0.064303 0.212621
-0.050256 0.064463 0.213121
-0.049350 0.064592 0.213515
-0.048481 0.064776 0.214089
-0.047555 0.064890 0.214429
-0.046834 0.065294 0.215731
-0.046136 0.065750 0.217197
-0.045115 0.065756 0.217179
-0.044233 0.065968 0.217841
-0.043372 0.066223 0.218646
-0.042585 0.066608 0.219875
-0.041659 0.066786 0.220424
-0.040793 0.067076 0.221337
-0.039807 0.067176 0.221627
-0.038889 0.067400 0.222324
-0.037929 0.067562 0.222814
-0.036953 0.067702 0.223234
-0.036008 0.067911 0.223884
-0.035047 0.068101 0.224466
-0.034063 0.068257 0.224940
-0.033162 0.068595 0.226011
-0.032241 0.068911 0.227010
-0.031211 0.069011 0.227298
-0.030240 0.069251 0.228046
-0.029216 0.069385 0.228446
-0.028192 0.069526 0.228870
-0.027189 0.069734 0.229517
-0.026133 0.069820 0.229759
-0.025106 0.069992 0.230288
-0.024075 0.070168 0.230829
-0.023027 0.070312 0.231264
-0.021978 0.070465 0.231731
-0.020922 0.070611 0.232178
-0.019866 0.070771 0.232667
-0.018830 0.071030 0.233487
-0.017768 0.071215 0.234063
-0.016685 0.071334 0.234424
-0.015567 0.071309 0.234309
-0.014455 0.071314 0.234299
-0.013373 0.071476 0.234801
-0.012261 0.071497 0.234844
-0.011135 0.071433 0.234609
-0.010039 0.071566 0.235025
-0.009601 0.077008 0.252871
-0.008401 0.077026 0.252908
-0.007178 0.076802 0.252151
-0.005946 0.076368 0.250709
-0.004770 0.076636 0.251569
-0.003567 0.076491 0.251078
-0.002363 0.076148 0.249939
-0.001175 0.076221 0.250164
0.000015 0.075638 0.248241
0.001191 0.075353 0.247296
0.002372 0.075489 0.247733
0.003517 0.074782 0.245407
0.004601 0.073449 0.241029
0.005744 0.073396 0.240850
0.006877 0.073256 0.240390
0.007952 0.072634 0.238347
0.009067 0.072479 0.237839
0.010005 0.071101 0.233320
0.011225 0.071800 0.235621
0.012032 0.069972 0.229626
0.013102 0.069852 0.229237
0.014150 0.069637 0.228541
0.015087 0.068950 0.226293
0.016055 0.068485 0.224780
0.017045 0.068167 0.223745
0.018052 0.067946 0.223032
0.019097 0.067887 0.222853
0.019966 0.067243 0.220752
0.020884 0.066819 0.219376
0.021818 0.066483 0.218289
0.022884 0.066563 0.218569
0.023697 0.065931 0.216509
0.024552 0.065463 0.214992
0.025425 0.065080 0.213752
0.026131 0.064314 0.211255
0.027030 0.064063 0.210449
0.027858 0.063665 0.209163
0.028770 0.063483 0.208586
0.029660 0.063263 0.207884
0.030508 0.062972 0.206950
0.031388 0.062763 0.206283
0.031893 0.061841 0.203274
0.032379 0.060936 0.200322
0.033255 0.060795 0.199877
0.033993 0.060418 0.198658
0.034828 0.060228 0.198056
0.035603 0.059947 0.197151
0.035785 0.058708 0.193097
0.036452 0.058305 0.191792
0.037006 0.057748 0.189978
0.037720 0.057459 0.189046
0.038271 0.056941 0.187360
0.039063 0.056797 0.186905
0.039938 0.056779 0.186862
0.040483 0.056301 0.185304
0.040955 0.055745 0.183487
0.041395 0.055169 0.181606
0.042119 0.054987 0.181022
0.042728 0.054666 0.179978
0.043438 0.054484 0.179388
0.043800 0.053880 0.177410
0.044216 0.053365 0.175721
0.045214 0.053558 0.176364
0.045602 0.053034 0.174645
0.046132 0.052691 0.173521
0.046880 0.052604 0.173238
0.047611 0.052503 0.172904
0.048089 0.052130 0.171676
0.049631 0.052904 0.174222
0.048187 0.050522 0.166374
0.047996 0.049509 0.163031
0.048289 0.049019 0.161410
0.048314 0.048277 0.158958
0.048938 0.048148 0.158520
0.049373 0.047838 0.157488
0.049863 0.047591 0.156657
0.050389 0.047384 0.155960
0.050959 0.047225 0.155414
0.051505 0.047048 0.154808
0.052119 0.046937 0.154418
0.052716 0.046814 0.153987
0.053282 0.046667 0.153472
0.053781 0.046467 0.152781
0.054307 0.046295 0.152177
0.054744 0.046051 0.151338
0.054770 0.045474 0.149400
0.055113 0.045171 0.148359
0.054655 0.044228 0.145213
0.053035 0.042379 0.139094
0.052428 0.041376 0.135750
0.052696 0.041079 0.134724
0.053626 0.041299 0.135387
0.057049 0.043411 0.142245
0.058308 0.043846 0.143602
0.058680 0.043611 0.142760
0.059126 0.043437 0.142113
0.059885 0.043493 0.142215
0.060330 0.043323 0.141573
0.060650 0.043067 0.140647
0.060610 0.042565 0.138913
0.059982 0.041664 0.135879
0.059969 0.041207 0.134285
0.060722 0.041278 0.134414
0.061091 0.041091 0.133694
0.061433 0.040889 0.132921
0.069361 0.045689 0.148389
0.069522 0.045326 0.147070
0.069780 0.045033 0.145973
0.070605 0.045108 0.146065
0.070411 0.044538 0.144059
0.070381 0.044081 0.142416
0.070539 0.043749 0.141174
0.070879 0.043535 0.140309
0.071122 0.043267 0.139261
0.071717 0.043216 0.138903
0.072673 0.043381 0.139234
0.073455 0.043440 0.139212
0.074204 0.043479 0.139117
-0.949040 0.552540 1.753913
-0.941069 0.552822 1.757440
-0.934484 0.553932 1.763494
-0.925741 0.553771 1.765402
-1.043952 0.673836 2.167578
-1.033434 0.673704 2.169118
-1.014026 0.667717 2.151693
-1.003930 0.667801 2.153733
-0.994497 0.668334 2.157133
-0.985731 0.669331 2.161954
-0.973708 0.668114 2.159541
-0.964559 0.668865 2.163411
-0.812494 0.569465 1.843070
-0.787672 0.558059 1.807233
-0.781217 0.559557 1.813110
-0.772491 0.559446 1.813714
-0.764154 0.559616 1.815176
-0.757876 0.561316 1.821549
-0.754745 0.565413 1.835657
-0.372097 0.292169 0.949972
-0.368070 0.292526 0.951430
-0.363574 0.292515 0.951669
-0.359041 0.292475 0.951788
-0.355264 0.293056 0.953912
-0.350160 0.292544 0.952456
-0.346409 0.293165 0.954666
-0.341612 0.292905 0.953991
-0.334442 0.290576 0.946558
-0.088820 0.087682 0.285819
-0.086226 0.086429 0.281735
-0.085021 0.086551 0.282131
-0.059769 0.062806 0.204716
-0.058876 0.062881 0.204951
-0.057741 0.062695 0.204334
-0.056590 0.062486 0.203639
-0.055824 0.062703 0.204329
-0.054978 0.062835 0.204741
-0.053520 0.062260 0.202850
-0.061349 0.072664 0.236722
-0.060303 0.072747 0.236965
-0.058915 0.072412 0.235848
-0.052958 0.066342 0.216048
-0.051743 0.066090 0.215199
-0.050479 0.065764 0.214110
-0.049712 0.066085 0.215123
-0.048915 0.066380 0.216050
-0.048159 0.066744 0.217202
-0.047055 0.066630 0.216798
-0.046017 0.066608 0.216692
-0.045049 0.066689 0.216918
-0.044105 0.066809 0.217272
-0.043155 0.066925 0.217611
-0.042270 0.067151 0.218308
-0.041362 0.067350 0.218918
-0.040405 0.067479 0.219298
-0.039481 0.067671 0.219881
-0.038631 0.068002 0.220918
-0.037704 0.068214 0.221565
-0.036764 0.068414 0.222174
-0.035804 0.068586 0.222694
-0.034830 0.068742 0.223160
-0.033930 0.069057 0.224140
-0.032933 0.069190 0.224533
-0.031997 0.069464 0.225383
-0.031078 0.069796 0.226419
-0.029963 0.069694 0.226049
-0.028990 0.069930 0.226774
-0.028047 0.070257 0.227796
-0.027061 0.070499 0.228543
-0.026092 0.070807 0.229502
-0.025029 0.070875 0.229686
-0.023989 0.071019 0.230116
-0.022971 0.071245 0.230814
-0.021921 0.071387 0.231239
-0.020893 0.071623 0.231969
-0.019851 0.071834 0.232619
-0.018794 0.072011 0.233158
-0.017694 0.072036 0.233208
-0.016613 0.072148 0.233541
-0.015503 0.072140 0.233487
-0.014433 0.072333 0.234084
-0.013346 0.072461 0.234470
-0.012125 0.071824 0.232385
-0.011135 0.072565 0.234757
-0.010038 0.072696 0.235158
-0.008957 0.072991 0.236091
-0.008364 0.077917 0.252000
-0.007159 0.077830 0.251699
-0.005963 0.077834 0.251696
-0.004761 0.077739 0.251370
-0.003555 0.077481 0.250519
-0.002361 0.077377 0.250168
-0.001168 0.077129 0.249356
0.000018 0.076359 0.246855
0.001187 0.076071 0.245915
0.002357 0.076094 0.245979
0.003503 0.075591 0.244349
0.004614 0.074762 0.241664
0.005742 0.074483 0.240759
0.006822 0.073774 0.238464
0.007988 0.074067 0.239409
0.008907 0.072287 0.233658
0.009987 0.072054 0.232907
0.011056 0.071806 0.232108
0.012044 0.071117 0.229886
0.013089 0.070856 0.229047
0.014130 0.070608 0.228254
0.015048 0.069832 0.225751
0.016023 0.069402 0.224371
0.017015 0.069097 0.223397
0.018105 0.069198 0.223734
0.019093 0.068922 0.222855
0.020037 0.068524 0.221581
0.020872 0.067813 0.219297
0.021724 0.067222 0.217401
0.022699 0.067047 0.216849
0.023679 0.066900 0.216391
0.024493 0.066318 0.214523
0.025307 0.065780 0.212803
0.026152 0.065363 0.211470
0.027051 0.065106 0.210658
0.027853 0.064642 0.209174
0.028749 0.064420 0.208476
0.029656 0.064236 0.207900
0.030530 0.063997 0.207145
0.031173 0.063301 0.204914
0.032328 0.063656 0.206083
0.032041 0.061237 0.198268
0.032993 0.061253 0.198340
0.033844 0.061087 0.197823
0.034725 0.060982 0.197503
0.035258 0.060288 0.195273
0.035464 0.059085 0.191395
0.036258 0.058896 0.190800
0.037118 0.058822 0.190580
0.037829 0.058521 0.189620
0.038339 0.057929 0.187719
0.038513 0.056869 0.184298
0.039282 0.056715 0.183814
0.040105 0.056643 0.183595
0.040553 0.056057 0.181708
0.041359 0.055978 0.181466
0.042138 0.055868 0.181119
0.042873 0.055705 0.180602
0.043518 0.055433 0.179731
0.044033 0.055010 0.178365
0.044565 0.054623 0.177117
0.045061 0.054206 0.175772
0.045742 0.054025 0.175187
0.046293 0.053698 0.174129
0.047030 0.053595 0.173796
0.047644 0.053357 0.173023
0.048436 0.053324 0.172914
0.049097 0.053149 0.172341
0.049211 0.052398 0.169902
0.047802 0.050076 0.162362
0.048210 0.049700 0.161135
0.048194 0.048907 0.158551
0.049017 0.048975 0.158760
0.049416 0.048625 0.157608
0.049923 0.048389 0.156828
0.050425 0.048156 0.156050
0.050945 0.047947 0.155351
0.051477 0.047754 0.154701
0.052037 0.047592 0.154149
0.052567 0.047409 0.153525
0.053062 0.047198 0.152810
0.053525 0.046966 0.152021
0.053915 0.046675 0.151043
0.054102 0.046220 0.149528
0.054340 0.045820 0.148189
0.054490 0.045356 0.146642
0.054110 0.044469 0.143725
0.053427 0.043357 0.140082
0.053095 0.042554 0.137433
0.053011 0.041968 0.135485
0.056050 0.043838 0.141459
0.056662 0.043788 0.141230
0.058005 0.044298 0.142802
0.058421 0.044095 0.142074
0.058953 0.043984 0.141637
0.059712 0.044043 0.141742
0.060298 0.043974 0.141432
0.060625 0.043720 0.140524
0.060632 0.043243 0.138895
0.060030 0.042347 0.135917
0.059908 0.041806 0.134076
0.060463 0.041742 0.133765
0.061076 0.041721 0.133583
0.061464 0.041547 0.132909
0.069513 0.046502 0.148620
0.069781 0.046203 0.147522
0.069918 0.045825 0.146164
0.070354 0.045648 0.145444
0.070382 0.045212 0.143893
0.070008 0.044530 0.141554
0.070367 0.044322 0.140720
0.070708 0.044107 0.139857
0.070871 0.043786 0.138652
0.071806 0.043944 0.138956
0.072810 0.044140 0.139370
0.073475 0.044129 0.139121
0.074404 0.044275 0.139358
-0.948006 0.560440 1.750414
-0.938863 0.560023 1.751786
-0.932561 0.561308 1.758377
-0.930653 0.565285 1.773321
-1.043253 0.683758 2.164805
-1.032590 0.683524 2.166073
-1.017236 0.680149 2.157285
-1.005333 0.679036 2.155571
-0.997142 0.680434 2.161741
-0.988523 0.681566 2.166989
-0.973096 0.677979 2.157147
-0.963936 0.678730 2.161020
-0.810736 0.576986 1.838272
-0.793213 0.570642 1.819180
-0.780639 0.567757 1.811041
-0.774171 0.569299 1.816960
-0.767157 0.570470 1.821644
-0.757908 0.569987 1.820993
-0.753087 0.572862 1.831019
-0.371490 0.296186 0.948174
-0.369104 0.297867 0.953868
-0.363479 0.296945 0.951203
-0.358596 0.296613 0.950406
-0.355063 0.297403 0.953184
-0.349665 0.296633 0.950937
-0.346332 0.297616 0.954294
-0.340700 0.296624 0.951298
-0.335363 0.295866 0.949033
-0.087518 0.087728 0.281624
-0.086493 0.088033 0.282607
-0.084915 0.087776 0.281784
-0.085098 0.089360 0.286866
-0.059753 0.064801 0.208014
-0.057907 0.063846 0.204937
-0.056822 0.063710 0.204490
-0.055665 0.063488 0.203763
-0.054716 0.063500 0.203786
-0.053239 0.062888 0.201806
-0.061054 0.073430 0.235613
-0.060012 0.073513 0.235854
-0.058510 0.073023 0.234259
-0.056837 0.072299 0.231910
-0.055025 0.071365 0.228886
-0.053524 0.070807 0.227065
-0.050623 0.068335 0.219110
-0.049087 0.067641 0.216854
-0.048125 0.067725 0.217093
-0.046926 0.067474 0.216254
-0.045829 0.067360 0.215858
-0.044820 0.067374 0.215868
-0.043896 0.067519 0.216297
-0.042998 0.067712 0.216880
-0.042166 0.068019 0.217829
-0.041272 0.068241 0.218504
-0.040356 0.068438 0.219095
-0.039452 0.068664 0.219784
-0.038585 0.068971 0.220726
-0.037590 0.069058 0.220967
-0.036633 0.069222 0.221454
-0.035655 0.069354 0.221838
-0.034683 0.069509 0.222294
-0.033714 0.069677 0.222793
-0.032700 0.069762 0.223025
-0.031747 0.069986 0.223704
-0.030818 0.070282 0.224611
-0.029874 0.070562 0.225468
-0.028937 0.070880 0.226447
-0.027977 0.071164 0.227318
-0.027006 0.071443 0.228172
-0.025980 0.071593 0.228614
-0.024901 0.071604 0.228613
-0.023909 0.071879 0.229454
-0.022884 0.072074 0.230044
-0.021945 0.072576 0.231612
-0.021081 0.073388 0.234171
-0.020046 0.073667 0.235026
-0.018989 0.073887 0.235698
-0.020470 0.084632 0.269937
-0.017331 0.076437 0.243769
-0.015638 0.073902 0.235655
-0.014429 0.073440 0.234156
-0.013342 0.073573 0.234555
-0.012238 0.073628 0.234703
-0.011118 0.073588 0.234553
-0.010021 0.073713 0.234928
-0.008907 0.073722 0.234937
-0.008367 0.079170 0.252278
-0.007152 0.078986 0.251669
-0.005943 0.078799 0.251057
-0.004745 0.078722 0.250792
-0.003546 0.078539 0.250195
-0.002354 0.078448 0.249889
-0.001162 0.078151 0.248934
0.000021 0.077529 0.246940
0.001182 0.076728 0.244378
0.002348 0.076878 0.244848
0.003470 0.075944 0.241867
0.004598 0.075586 0.240721
0.005608 0.073815 0.235078
0.006826 0.074918 0.238590
0.007903 0.074376 0.236862
0.008876 0.073116 0.232848
0.009969 0.073010 0.232513
0.010990 0.072452 0.230738
0.012030 0.072106 0.229643
0.013084 0.071901 0.228993
0.014116 0.071608 0.228068
0.015106 0.071163 0.226657
0.016095 0.070772 0.225422
0.017081 0.070416 0.224296
0.018135 0.070366 0.224147
0.019121 0.070074 0.223228
0.020101 0.069792 0.222342
0.020969 0.069167 0.220365
0.021771 0.068392 0.217910
0.022554 0.067633 0.215507
0.023572 0.067612 0.215456
0.024456 0.067227 0.214245
0.025346 0.066886 0.213173
0.026042 0.066082 0.210626
0.026939 0.065825 0.209826
0.027709 0.065289 0.208133
0.028676 0.065237 0.207985
0.029563 0.065014 0.207292
0.030417 0.064734 0.206420
0.031167 0.064256 0.204913
0.031112 0.062200 0.198372
0.032288 0.062651 0.199830
0.032901 0.062017 0.197826
0.033597 0.061569 0.196414
0.033853 0.060359 0.192573
0.034778 0.060376 0.192644
0.035578 0.060182 0.192040
0.036252 0.059788 0.190800
0.036890 0.059355 0.189434
0.037471 0.058854 0.187849
0.038240 0.058665 0.187261
0.038811 0.058186 0.185748
0.039435 0.057807 0.184548
0.040139 0.057559 0.183769
0.040727 0.057158 0.182501
0.041389 0.056876 0.181612
0.042281 0.056916 0.181747
0.042912 0.056609 0.180778
0.043542 0.056313 0.179837
0.043810 0.055569 0.177469
0.044535 0.055421 0.177002
0.045231 0.055244 0.176439
0.045706 0.054808 0.175049
0.046288 0.054514 0.174110
0.046786 0.054133 0.172891
0.047652 0.054184 0.173051
0.048343 0.054036 0.172574
0.048740 0.053571 0.171083
0.048905 0.052870 0.168837
0.047854 0.050899 0.162530
0.048168 0.050419 0.160986
0.048370 0.049838 0.159118
0.048751 0.049456 0.157884
0.049272 0.049226 0.157131
0.049819 0.049029 0.156482
0.050303 0.048776 0.155653
0.050804 0.048547 0.154897
0.051371 0.048386 0.154356
0.051982 0.048271 0.153959
0.052508 0.048081 0.153321
0.053017 0.047881 0.152648
0.053494 0.047658 0.151900
0.053982 0.047450 0.151196
0.054131 0.046954 0.149571
0.054153 0.046362 0.147641
0.054292 0.045884 0.146067
0.053883 0.044961 0.143077
0.053232 0.043861 0.139525
0.052181 0.042463 0.135023
0.052519 0.042216 0.134180
0.053119 0.042183 0.134012
0.057176 0.044863 0.142455
0.058189 0.045119 0.143197
0.058629 0.044931 0.142521
0.059152 0.044809 0.142051
0.059800 0.044784 0.141885
0.060303 0.044652 0.141377
0.060702 0.044447 0.140632
0.060754 0.043995 0.139102
0.059938 0.042931 0.135636
0.059582 0.042216 0.133272
0.060186 0.042189 0.133076
0.060831 0.042190 0.132966
0.061178 0.041988 0.132208
0.069277 0.047055 0.148020
0.069728 0.046876 0.147311
0.069809 0.046456 0.145835
0.070295 0.046309 0.145215
0.069469 0.045310 0.141920
0.069563 0.044925 0.140545
0.069740 0.044601 0.139355
0.070092 0.044393 0.138523
0.070824 0.044428 0.138440
0.071654 0.044523 0.138536
0.072492 0.044621 0.138634
0.073628 0.044899 0.139276
0.074267 0.044871 0.138962
-0.948577 0.569286 1.749821
-0.940416 0.569460 1.753090
-0.932657 0.569882 1.757014
-0.929622 0.573226 1.769855
-1.042557 0.693669 2.161985
-1.031431 0.693115 2.162318
-1.016508 0.689973 2.154470
-1.005456 0.689422 2.154613
-0.997594 0.691070 2.161543
-0.985362 0.689694 2.158930
-0.973972 0.688886 2.158005
-0.964788 0.689637 2.161888
-0.808996 0.584483 1.833480
-0.794251 0.580057 1.820755
-0.782008 0.577382 1.813450
-0.773482 0.577422 1.814610
-0.767152 0.579121 1.820930
-0.757960 0.578675 1.820450
-0.749786 0.579004 1.822357
-0.372427 0.301438 0.950299
-0.368232 0.301673 0.951364
-0.361813 0.300069 0.946610
-0.358567 0.301090 0.950110
-0.354286 0.301256 0.950893
-0.348762 0.300356 0.948291
-0.345034 0.301000 0.950543
-0.340012 0.300517 0.949218
-0.331801 0.297166 0.938810
-0.091061 0.092665 0.293018
-0.087116 0.090013 0.284639
-0.086860 0.091149 0.288236
-0.084991 0.090603 0.286508
-0.084581 0.091619 0.289718
-0.082944 0.091317 0.288757
-0.058136 0.065071 0.205756
-0.057234 0.065146 0.205985
-0.055512 0.064274 0.203217
-0.055447 0.065325 0.206527
-0.054537 0.065399 0.206746
-0.078080 0.097097 0.306898
-0.059264 0.075088 0.237311
-0.057058 0.073682 0.232844
-0.054912 0.072301 0.228452
-0.053161 0.071394 0.225561
-0.051843 0.071045 0.224431
-0.050894 0.071196 0.224878
-0.049550 0.070790 0.223566
-0.048545 0.070863 0.223764
-0.045573 0.068002 0.214699
-0.044560 0.068000 0.214661
-0.043712 0.068257 0.215440
-0.042758 0.068356 0.215721
-0.041900 0.068619 0.216516
-0.041087 0.068969 0.217586
-0.040277 0.069343 0.218729
-0.039389 0.069597 0.219495
-0.038483 0.069834 0.220207
-0.037526 0.069988 0.220656
-0.036569 0.070152 0.221136
-0.035565 0.070234 0.221357
-0.034618 0.070435 0.221955
-0.034114 0.071578 0.225517
-0.033086 0.071660 0.225739
-0.032015 0.071653 0.225680
-0.031071 0.071939 0.226543
-0.029949 0.071817 0.226123
-0.028927 0.071937 0.226463
-0.027911 0.072079 0.226877
-0.026736 0.071807 0.225985
-0.025822 0.072245 0.227327
-0.024902 0.072700 0.228725
-0.024046 0.073394 0.230874
-0.023401 0.074828 0.235351
-0.022333 0.074985 0.235810
-0.021355 0.075480 0.237336
-0.022752 0.084888 0.266882
-0.021717 0.085796 0.269701
-0.020432 0.085769 0.269581
-0.017643 0.079005 0.248291
-0.017669 0.084780 0.266410
-0.014490 0.074879 0.235271
-0.013369 0.074851 0.235156
-0.012265 0.074922 0.235356
-0.011157 0.074987 0.235535
-0.010030 0.074914 0.235286
-0.009561 0.080358 0.252362
-0.008324 0.079985 0.251169
-0.007123 0.079889 0.250848
-0.005924 0.079788 0.250511
-0.004716 0.079480 0.249527
-0.003527 0.079392 0.249235
-0.002335 0.079094 0.248288
-0.001150 0.078719 0.247097
0.000024 0.078417 0.246138
0.001186 0.077938 0.244625
0.002340 0.077666 0.243764
0.003450 0.076584 0.240362
0.004587 0.076491 0.240064
0.005685 0.075927 0.238290
0.006813 0.075877 0.238131
0.007901 0.075459 0.236817
0.008897 0.074369 0.233396
0.009946 0.073923 0.231997
0.010973 0.073417 0.230411
0.011968 0.072805 0.228494
0.013021 0.072616 0.227907
0.014086 0.072523 0.227622
0.015068 0.072044 0.226123
0.016087 0.071796 0.225353
0.017072 0.071433 0.224222
0.018106 0.071305 0.223831
0.019096 0.071032 0.222985
0.020099 0.070829 0.222359
0.020886 0.069926 0.219534
0.021693 0.069171 0.217178
0.022597 0.068779 0.215961
0.023498 0.068414 0.214830
0.024328 0.067879 0.213163
0.025243 0.067616 0.212352
0.026006 0.066981 0.210375
0.026866 0.066633 0.209295
0.027603 0.066017 0.207377
0.028538 0.065899 0.207025
0.029495 0.065840 0.206855
0.030302 0.065459 0.205674
0.031144 0.065175 0.204799
0.031773 0.064475 0.202617
0.032162 0.063346 0.199086
0.033152 0.063430 0.199365
0.034070 0.063375 0.199210
0.034707 0.062815 0.197464
0.034654 0.061067 0.191986
0.035365 0.060722 0.190914
0.036194 0.060591 0.190517
0.036747 0.060016 0.188724
0.037341 0.059534 0.187221
0.037839 0.058924 0.185316
0.038601 0.058743 0.184760
0.039401 0.058627 0.184406
0.040149 0.058441 0.183832
0.040908 0.058278 0.183328
0.041617 0.058052 0.182625
0.042283 0.057776 0.181766
0.042848 0.057377 0.180517
0.043448 0.057039 0.179457
0.043922 0.056551 0.177926
0.044409 0.056098 0.176505
0.045047 0.055850 0.175725
0.045660 0.055579 0.174873
0.046366 0.055430 0.174402
0.046959 0.055153 0.173528
0.047521 0.054849 0.172567
0.048075 0.054547 0.171610
0.048804 0.054451 0.171298
0.049121 0.053905 0.169569
0.047828 0.051639 0.162430
0.047852 0.050844 0.159915
0.048104 0.050311 0.158225
0.048680 0.050129 0.157635
0.049293 0.049990 0.157178
0.049747 0.049697 0.156233
0.050220 0.049431 0.155371
0.050743 0.049220 0.154683
0.051290 0.049040 0.154086
0.051803 0.048831 0.153400
0.052299 0.048613 0.152679
0.052837 0.048439 0.152096
0.053309 0.048210 0.151338
0.053800 0.048004 0.150648
0.054142 0.047673 0.149561
0.054198 0.047101 0.147719
0.054253 0.046544 0.145920
0.053603 0.045402 0.142288
0.053142 0.044448 0.139243
0.053035 0.043810 0.137186
0.052573 0.042898 0.134267
0.054342 0.043806 0.137044
0.057088 0.045470 0.142179
0.058162 0.045780 0.143070
0.058628 0.045608 0.142454
0.059085 0.045434 0.141825
0.059721 0.045401 0.141631
0.060239 0.045278 0.141155
0.060252 0.044783 0.139515
0.060237 0.044279 0.137843
0.059794 0.043474 0.135234
0.059738 0.042965 0.133542
0.059815 0.042562 0.132175
0.060789 0.042798 0.132790
0.068377 0.047638 0.147668
0.069025 0.047592 0.147381
0.069587 0.047488 0.146908
0.069395 0.046877 0.144863
0.070266 0.046989 0.145046
0.070011 0.046354 0.142915
0.068951 0.045203 0.139196
0.069444 0.045082 0.138646
0.070021 0.045018 0.138262
0.070594 0.044953 0.137866
0.071637 0.045185 0.138374
0.072250 0.045144 0.138038
0.073230 0.045331 0.138386
0.074502 0.045693 0.139258
-0.951480 0.579564 1.753466
-0.943070 0.579603 1.756381
-0.935163 0.579955 1.760133
-0.929283 0.581582 1.767655
-1.033109 0.704619 2.164455
-1.019311 0.702217 2.159087
-1.004143 0.698813 2.150530
-0.998302 0.701897 2.161848
-0.988153 0.701986 2.163863
-0.970868 0.696954 2.149999
-0.961697 0.697702 2.153875
-0.809470 0.593567 1.833668
-0.795711 0.589810 1.823257
-0.784457 0.587847 1.818323
-0.778983 0.590221 1.826742
-0.769977 0.589943 1.826898
-0.759764 0.588723 1.824079
-0.752867 0.590074 1.829173
-0.372323 0.305859 0.949751
-0.368276 0.306219 0.951212
-0.366615 0.308597 0.958919
-0.360023 0.306831 0.953731
-0.352484 0.304205 0.945840
-0.349907 0.305848 0.951201
-0.341884 0.302711 0.941678
-0.335598 0.301051 0.936723
-0.332575 0.302312 0.940840
-0.090950 0.093936 0.292648
-0.088658 0.092977 0.289672
-0.087324 0.093007 0.289772
-0.086329 0.093405 0.291017
-0.084473 0.092870 0.289351
-0.082837 0.092563 0.288391
-0.083253 0.094578 0.294662
-0.082490 0.095298 0.296896
-0.081565 0.095853 0.298611
-0.080907 0.096748 0.301383
-0.080500 0.097978 0.305198
-0.079151 0.098087 0.305516
-0.077971 0.098413 0.306506
-0.076994 0.099012 0.308345
-0.076040 0.099665 0.310348
-0.055189 0.073754 0.229641
-0.053899 0.073469 0.228729
-0.051839 0.072103 0.224452
-0.050392 0.071550 0.222703
-0.049260 0.071430 0.222301
-0.046272 0.068555 0.213328
-0.045331 0.068654 0.213604
-0.044273 0.068574 0.213327
-0.043415 0.068809 0.214027
-0.042456 0.068891 0.214252
-0.041434 0.068872 0.214163
-0.040455 0.068926 0.214296
-0.039585 0.069172 0.215030
-0.039879 0.071519 0.222289
-0.038993 0.071820 0.223190
-0.038019 0.071971 0.223624
-0.037068 0.072176 0.224226
-0.036107 0.072372 0.224799
-0.035200 0.072693 0.225761
-0.034195 0.072824 0.226132
-0.033183 0.072949 0.226485
-0.032293 0.073359 0.227720
-0.031031 0.072923 0.226332
-0.029791 0.072511 0.225019
-0.028588 0.072161 0.223899
-0.027768 0.072789 0.225810
-0.026752 0.072930 0.226215
-0.025692 0.072962 0.226279
-0.024668 0.073101 0.226677
-0.028144 0.087193 0.270339
-0.026881 0.087250 0.270476
-0.025560 0.087113 0.270016
-0.024295 0.087164 0.270136
-0.022971 0.086997 0.269585
-0.021647 0.086809 0.268967
-0.020320 0.086588 0.268249
-0.018994 0.086340 0.267449
-0.017636 0.085899 0.266054
-0.014552 0.076340 0.236419
-0.013428 0.076320 0.236334
-0.012317 0.076382 0.236500
-0.012091 0.082495 0.255406
-0.010800 0.081893 0.253517
-0.009517 0.081211 0.251384
-0.008339 0.081362 0.251832
-0.007101 0.080867 0.250281
-0.005898 0.080670 0.249652
-0.004703 0.080486 0.249067
-0.003501 0.080061 0.247737
-0.002323 0.080001 0.247536
-0.001142 0.079593 0.246264
0.000027 0.079037 0.244530
0.001183 0.078676 0.243405
0.002327 0.078266 0.242127
0.003448 0.077615 0.240108
0.004572 0.077337 0.239241
0.005656 0.076624 0.237031
0.006752 0.076280 0.235964
0.007813 0.075694 0.234151
0.008883 0.075337 0.233045
0.009903 0.074677 0.231004
0.010968 0.074455 0.230321
0.011990 0.074009 0.228943
0.013014 0.073645 0.227821
0.014037 0.073333 0.226861
0.015057 0.073049 0.225989
0.016057 0.072713 0.224956
0.017029 0.072304 0.223700
0.018038 0.072087 0.223037
0.019037 0.071857 0.222335
0.020047 0.071687 0.221820
0.020971 0.071246 0.220464
0.021760 0.070408 0.217883
0.022241 0.068695 0.212597
0.023323 0.068908 0.213267
0.024198 0.068515 0.212066
0.025081 0.068177 0.211031
0.025936 0.067789 0.209845
0.026852 0.067585 0.209228
0.027608 0.067008 0.207456
0.028537 0.066874 0.207057
0.029368 0.066527 0.205997
0.030172 0.066144 0.204829
0.030929 0.065684 0.203418
0.031082 0.064009 0.198246
0.031893 0.063747 0.197450
0.032852 0.063788 0.197591
0.033551 0.063335 0.196201
0.034270 0.062944 0.195006
0.034776 0.062192 0.192689
0.035593 0.062021 0.192174
0.036237 0.061564 0.190769
0.037036 0.061385 0.190229
0.037804 0.061166 0.189562
0.038556 0.060932 0.188848
0.038597 0.059609 0.184756
0.039182 0.059167 0.183398
0.040000 0.059089 0.183163
0.040995 0.059269 0.183729
0.041587 0.058872 0.182505
0.042060 0.058325 0.180817
0.042520 0.057783 0.179141
0.043374 0.057788 0.179158
0.044191 0.057743 0.179021
0.044476 0.057018 0.176774
0.044972 0.056584 0.175430
0.045560 0.056282 0.174489
0.046234 0.056093 0.173901
0.046968 0.055983 0.173553
0.047661 0.055828 0.173067
0.048279 0.055593 0.172330
0.048319 0.054710 0.169582
0.048724 0.054264 0.168185
0.047477 0.052022 0.161222
0.047851 0.051598 0.159893
0.048192 0.051153 0.158497
0.048965 0.051173 0.158539
0.049443 0.050888 0.157634
0.049835 0.050525 0.156487
0.050276 0.050221 0.155518
0.050740 0.049949 0.154646
0.051238 0.049718 0.153898
0.051732 0.049489 0.153156
0.052226 0.049267 0.152432
0.052698 0.049030 0.151660
0.053152 0.048783 0.150854
0.053563 0.048504 0.149943
0.053887 0.048154 0.148813
0.054093 0.047709 0.147388
0.054059 0.047066 0.145349
0.053788 0.046237 0.142733
0.052956 0.044951 0.138705
0.051677 0.043323 0.133623
0.052453 0.043436 0.133908
0.056543 0.046258 0.142536
0.057163 0.046207 0.142305
0.057970 0.046307 0.142533
0.058293 0.046022 0.141574
0.058954 0.046008 0.141444
0.059538 0.045934 0.141125
0.059829 0.045639 0.140122
0.059973 0.045240 0.138795
0.060090 0.044828 0.137430
0.059670 0.044030 0.134874
0.057711 0.042125 0.128933
0.058863 0.042507 0.129989
0.058998 0.042156 0.128795
0.068390 0.048355 0.147594
0.069039 0.048310 0.147307
0.069766 0.048319 0.147180
0.069544 0.047677 0.145063
0.069908 0.047446 0.144194
0.068773 0.046212 0.140275
0.068686 0.045699 0.138543
0.069692 0.045917 0.139021
0.069836 0.045567 0.137773
0.070664 0.045667 0.137875
0.071618 0.045845 0.138205
0.072134 0.045742 0.137678
0.073170 0.045968 0.138130
0.074097 0.046121 0.138354
-0.955793 0.590766 1.759637
-0.947135 0.590675 1.762231
-0.935926 0.588977 1.759908
-0.931033 0.591259 1.769370
-1.031420 0.713828 2.159483
-1.016451 0.710560 2.151652
-1.006979 0.711108 2.155275
-0.998287 0.712224 2.160534
-0.986933 0.711445 2.159959
-0.966426 0.703983 2.138989
-0.957280 0.704726 2.142853
-0.810803 0.603301 1.835759
-0.796946 0.599426 1.825202
-0.785778 0.597511 1.820540
-0.778292 0.598384 1.824310
-0.771066 0.599479 1.828703
-0.760780 0.598193 1.825777
-0.751342 0.597553 1.824763
-0.367651 0.310203 0.949315
-0.359021 0.306656 0.938792
-0.360296 0.311588 0.954202
-0.351955 0.308222 0.944184
-0.349540 0.310027 0.949982
-0.338067 0.303741 0.930963
-0.333312 0.303405 0.930155
-0.332211 0.306430 0.939636
-0.093872 0.096915 0.297509
-0.090787 0.095149 0.292107
-0.088638 0.094326 0.289594
-0.088526 0.095677 0.293754
-0.086715 0.095207 0.292317
-0.085385 0.095257 0.292477
-0.084115 0.095377 0.292846
-0.083144 0.095846 0.294282
-0.082380 0.096575 0.296513
-0.081455 0.097136 0.298226
-0.080798 0.098041 0.300994
-0.080040 0.098855 0.303477
-0.078949 0.099280 0.304762
-0.077942 0.099827 0.306422
-0.076886 0.100331 0.307946
-0.075932 0.100991 0.309945
-0.076162 0.103282 0.316948
-0.053821 0.074445 0.228431
-0.052110 0.073549 0.225660
-0.050956 0.073418 0.225232
-0.049185 0.072374 0.222005
-0.046627 0.070101 0.215005
-0.045239 0.069524 0.213211
-0.044220 0.069504 0.213120
-0.043288 0.069620 0.213449
-0.042367 0.069760 0.213849
-0.041298 0.069659 0.213511
-0.040348 0.069758 0.213783
-0.039466 0.069982 0.214439
-0.039815 0.072459 0.221996
-0.045180 0.091896 0.281375
-0.044311 0.092860 0.284286
-0.035990 0.077781 0.238085
-0.034131 0.076142 0.233034
-0.032816 0.075649 0.231489
-0.031525 0.075180 0.230020
-0.029478 0.072811 0.222737
-0.028479 0.072949 0.223126
-0.027466 0.073062 0.223441
-0.026405 0.073051 0.223373
-0.025447 0.073336 0.224212
-0.024594 0.073961 0.226092
-0.028051 0.088193 0.269560
-0.026908 0.088633 0.270870
-0.025574 0.088453 0.270285
-0.024230 0.088222 0.269543
-0.022975 0.088304 0.269759
-0.021644 0.088088 0.269067
-0.020236 0.087511 0.267271
-0.018898 0.087180 0.266229
-0.017489 0.086453 0.263981
-0.016153 0.086001 0.262573
-0.014656 0.084546 0.258106
-0.013421 0.084474 0.257858
-0.012179 0.084343 0.257436
-0.010899 0.083884 0.256012
-0.009614 0.083272 0.254123
-0.008288 0.082083 0.250475
-0.007091 0.081980 0.250141
-0.005882 0.081672 0.249184
-0.004690 0.081507 0.248665
-0.003500 0.081272 0.247933
-0.002315 0.081011 0.247124
-0.001140 0.080859 0.246646
0.000031 0.080249 0.244775
0.001185 0.079719 0.243148
0.002321 0.079083 0.241202
0.003447 0.078654 0.239885
0.004537 0.077816 0.237326
0.005633 0.077386 0.236008
0.006724 0.077039 0.234946
0.007841 0.077050 0.234979
0.008902 0.076576 0.233532
0.009895 0.075690 0.230830
0.010968 0.075525 0.230328
0.011994 0.075098 0.229028
0.012990 0.074572 0.227428
0.014022 0.074317 0.226653
0.015068 0.074164 0.226192
0.016053 0.073750 0.224937
0.017054 0.073461 0.224062
0.018064 0.073240 0.223397
0.019044 0.072927 0.222450
0.019946 0.072364 0.220743
0.020958 0.072239 0.220371
0.021843 0.071705 0.218753
0.022560 0.070697 0.215689
0.023125 0.069318 0.211492
0.024099 0.069228 0.211231
0.024959 0.068833 0.210040
0.025867 0.068594 0.209323
0.026733 0.068266 0.208334
0.027498 0.067714 0.206664
0.028443 0.067625 0.206404
0.029352 0.067462 0.205921
0.030154 0.067070 0.204738
0.030802 0.066369 0.202614
0.031454 0.065721 0.200650
0.031893 0.064678 0.197477
0.032601 0.064224 0.196105
0.033326 0.063829 0.194911
0.034082 0.063513 0.193959
0.035044 0.063586 0.194195
0.035734 0.063177 0.192957
0.036424 0.062785 0.191771
0.037170 0.062509 0.190939
0.037822 0.062090 0.189669
0.038065 0.061035 0.186455
0.038763 0.060741 0.185567
0.039531 0.060568 0.185046
0.040311 0.060419 0.184596
0.041007 0.060154 0.183792
0.041763 0.059987 0.183287
0.042451 0.059728 0.182502
0.042840 0.059070 0.180493
0.043395 0.058662 0.179247
0.043937 0.058250 0.177990
0.044500 0.057883 0.176865
0.044949 0.057384 0.175339
0.045464 0.056985 0.174117
0.046213 0.056889 0.173817
0.046769 0.056562 0.172810
0.047476 0.056426 0.172387
0.047975 0.056052 0.171233
0.048402 0.055607 0.169861
0.048257 0.054531 0.166560
0.048200 0.053587 0.163659
0.047880 0.052385 0.159970
0.048370 0.052094 0.159060
0.048745 0.051688 0.157801
0.049187 0.051366 0.156793
0.049568 0.050990 0.155619
0.049866 0.050542 0.154222
0.050378 0.050319 0.153511
0.050866 0.050080 0.152749
0.051317 0.049811 0.151891
0.051844 0.049623 0.151280
0.052308 0.049380 0.150498
0.052809 0.049179 0.149839
0.053270 0.048945 0.149080
0.053753 0.048738 0.148398
0.053896 0.048232 0.146805
0.053596 0.047347 0.144057
0.052676 0.045944 0.139730
0.051700 0.044529 0.135366
0.052099 0.044317 0.134661
0.052744 0.044317 0.134597
0.053222 0.044179 0.134108
0.057272 0.046974 0.142514
0.057916 0.046942 0.142334
0.058280 0.046686 0.141474
0.058990 0.046710 0.141457
0.059491 0.046571 0.140940
0.059850 0.046324 0.140095
0.059856 0.045813 0.138445
0.059571 0.045092 0.136162
0.057535 0.043077 0.129969
0.057622 0.042676 0.128651
0.057915 0.042436 0.127812
0.058950 0.042738 0.128601
0.066871 0.047974 0.144215
0.068349 0.048528 0.145727
0.069208 0.048634 0.145890
0.069348 0.048240 0.144542
0.069731 0.048019 0.143712
0.069416 0.047327 0.141467
0.068800 0.046446 0.138653
0.069335 0.046351 0.138182
0.069546 0.046043 0.137072
0.070573 0.046276 0.137563
0.071400 0.046375 0.137646
0.071823 0.046213 0.136942
0.072941 0.046495 0.137549
0.073933 0.046693 0.137893
-0.956433 0.599744 1.758972
-0.947915 0.599743 1.761898
-0.937812 0.598731 1.761730
-0.930699 0.599627 1.767064
-1.030722 0.723699 2.156532
-1.015341 0.720087 2.147872
-0.997969 0.714975 2.134621
-0.996676 0.721397 2.155716
-0.985997 0.721088 2.156628
-0.967630 0.715092 2.140428
-0.810150 0.611566 1.833311
-0.796710 0.607947 1.823736
-0.786577 0.606801 1.821504
-0.777689 0.606600 1.822047
-0.771450 0.608484 1.828797
-0.761369 0.607347 1.826409
-0.751388 0.606265 1.824129
-0.093757 0.098203 0.297122
-0.091468 0.097256 0.294279
-0.088877 0.095954 0.290359
-0.088551 0.097094 0.293824
-0.087284 0.097223 0.294226
-0.085785 0.097093 0.293841
-0.084307 0.096984 0.293514
-0.083735 0.097930 0.296378
-0.083066 0.098794 0.298990
-0.082081 0.099304 0.300527
-0.081339 0.100132 0.303025
-0.080823 0.101272 0.306462
-0.080120 0.102215 0.309303
-0.079077 0.102752 0.310908
-0.078174 0.103494 0.313134
-0.077282 0.104280 0.315490
-0.076052 0.104633 0.316531
-0.075428 0.105849 0.320183
-0.074385 0.106515 0.322166
-0.049112 0.073317 0.221711
-0.046292 0.070609 0.213497
-0.045103 0.070324 0.212613
-0.044146 0.070396 0.212805
-0.043053 0.070249 0.212332
-0.042225 0.070538 0.213179
-0.041252 0.070594 0.213320
-0.040131 0.070392 0.212683
-0.039403 0.070888 0.214152
-0.045105 0.093081 0.280998
