ply
format ascii 1.0
element vertex 1689
property float x
property float y
property float z
end_header
-0.079296 -0.082100 0.294943
-0.077131 -0.081283 0.291965
-0.074867 -0.080330 0.288494
-0.073795 -0.080644 0.289573
-0.071751 -0.079887 0.286805
-0.069984 -0.079417 0.285065
-0.068234 -0.078947 0.283326
-0.066543 -0.078528 0.281769
-0.065182 -0.078491 0.281579
-0.063775 -0.078394 0.281177
-0.062739 -0.078759 0.282427
-0.061560 -0.078958 0.283082
-0.060428 -0.079226 0.283982
-0.059289 -0.079497 0.284893
-0.058119 -0.079740 0.285701
-0.057168 -0.080300 0.287644
-0.056036 -0.080628 0.288757
-0.054879 -0.080935 0.289790
-0.053976 -0.081642 0.292259
-0.052557 -0.081586 0.291993
-0.051148 -0.081544 0.291774
-0.050018 -0.081955 0.293183
-0.048468 -0.081683 0.292143
-0.047052 -0.081626 0.291875
-0.045771 -0.081808 0.292461
-0.044321 -0.081691 0.291977
-0.042933 -0.081682 0.291884
-0.041738 -0.082053 0.293147
-0.040304 -0.081966 0.292774
-0.038882 -0.081896 0.292460
-0.037593 -0.082110 0.293166
-0.036162 -0.082022 0.292791
-0.034741 -0.081948 0.292469
-0.033305 -0.081833 0.292001
-0.031920 -0.081838 0.291963
-0.030457 -0.081635 0.291184
-0.029065 -0.081611 0.291045
-0.027586 -0.081329 0.289990
-0.026054 -0.080854 0.288246
-0.024738 -0.081032 0.288831
-0.023290 -0.080775 0.287870
-0.021648 -0.079770 0.284243
-0.020201 -0.079398 0.282877
-0.018819 -0.079250 0.282310
-0.017479 -0.079268 0.282333
-0.016102 -0.079103 0.281708
-0.014737 -0.078978 0.281228
-0.013341 -0.078643 0.280005
-0.011923 -0.078094 0.278018
-0.010488 -0.077274 0.275072
-0.009102 -0.076647 0.272811
-0.007754 -0.076173 0.271101
-0.006395 -0.075377 0.268246
-0.005077 -0.074809 0.266204
-0.003764 -0.073943 0.263105
-0.002499 -0.073609 0.261900
-0.001246 -0.073360 0.260999
-0.000001 -0.072936 0.259480
0.001224 -0.072183 0.256791
0.002430 -0.071649 0.254882
0.003641 -0.071556 0.254546
0.004826 -0.071115 0.252972
0.006006 -0.070804 0.251866
0.007140 -0.070140 0.249502
0.008297 -0.069864 0.248522
0.009454 -0.069647 0.247755
0.010613 -0.069499 0.247231
0.011758 -0.069293 0.246507
0.012811 -0.068636 0.244178
0.013884 -0.068181 0.242567
0.014982 -0.067914 0.241630
0.016106 -0.067793 0.241214
0.017207 -0.067598 0.240531
0.018320 -0.067468 0.240086
0.019362 -0.067110 0.238830
0.020343 -0.066593 0.237007
0.021606 -0.067001 0.238479
0.022369 -0.065898 0.234573
0.023461 -0.065822 0.234327
0.024504 -0.065623 0.233640
0.025504 -0.065330 0.232620
0.026525 -0.065111 0.231868
0.027577 -0.064987 0.231450
0.028580 -0.064758 0.230663
0.029556 -0.064488 0.229729
0.030600 -0.064379 0.229367
0.031557 -0.064103 0.228414
0.032522 -0.063859 0.227574
0.033437 -0.063536 0.226451
0.034382 -0.063289 0.225603
0.035236 -0.062895 0.224228
0.035783 -0.061991 0.221035
0.035852 -0.060334 0.215159
0.036884 -0.060346 0.215229
0.037656 -0.059942 0.213821
0.038332 -0.059412 0.211960
0.038366 -0.057939 0.206734
0.038649 -0.056907 0.203079
0.038240 -0.054930 0.196050
0.038931 -0.054590 0.194866
0.039791 -0.054498 0.194561
0.040599 -0.054339 0.194021
0.041271 -0.054009 0.192869
0.041949 -0.053703 0.191798
0.042607 -0.053384 0.190684
0.043157 -0.052945 0.189140
0.043890 -0.052744 0.188443
0.044669 -0.052607 0.187973
0.045347 -0.052357 0.187099
0.046104 -0.052206 0.186580
0.046834 -0.052030 0.185971
0.047580 -0.051880 0.185449
0.048427 -0.051842 0.185328
0.049241 -0.051771 0.185088
0.050022 -0.051669 0.184734
0.050826 -0.051594 0.184476
0.051493 -0.051384 0.183735
0.052245 -0.051264 0.183313
0.053017 -0.051168 0.182975
0.053601 -0.050897 0.182007
0.054201 -0.050648 0.181118
0.054873 -0.050474 0.180495
0.055549 -0.050309 0.179903
0.056145 -0.050077 0.179066
0.056775 -0.049883 0.178365
0.057451 -0.049733 0.177819
0.057392 -0.048961 0.175046
0.057854 -0.048649 0.173915
0.058505 -0.048503 0.173374
0.059021 -0.048250 0.172448
0.059655 -0.048100 0.171887
0.060108 -0.047809 0.170822
0.060250 -0.047282 0.168909
0.060888 -0.047153 0.168415
0.061470 -0.046985 0.167779
0.062378 -0.047067 0.168030
0.062878 -0.046842 0.167187
0.063218 -0.046506 0.165939
0.063837 -0.046381 0.165442
0.064493 -0.046285 0.165047
0.065122 -0.046172 0.164585
0.065573 -0.045938 0.163688
0.066186 -0.045822 0.163206
0.066784 -0.045697 0.162690
0.067483 -0.045643 0.162425
0.068136 -0.045561 0.162050
0.068584 -0.045344 0.161194
0.069303 -0.045310 0.160983
0.069927 -0.045214 0.160549
0.070333 -0.044982 0.159623
0.070784 -0.044782 0.158811
0.071250 -0.044596 0.158041
0.071649 -0.044373 0.157136
0.072260 -0.044285 0.156699
0.072860 -0.044191 0.156241
0.073168 -0.043924 0.155164
0.074102 -0.044035 0.155414
0.075191 -0.044234 0.155970
0.076179 -0.044370 0.156295
0.076678 -0.044222 0.155611
0.077624 -0.044333 0.155828
0.078346 -0.044314 0.155582
0.078694 -0.044085 0.154595
0.079092 -0.043890 0.153715
0.079636 -0.043777 0.153119
0.079562 -0.043331 0.151347
0.079897 -0.043113 0.150370
-0.076774 -0.079530 0.290562
-0.074119 -0.078174 0.285558
-0.073911 -0.079396 0.289969
-0.071765 -0.078544 0.286806
-0.069900 -0.077972 0.284664
-0.068375 -0.077764 0.283847
-0.066704 -0.077379 0.282385
-0.065205 -0.077181 0.281606
-0.064138 -0.077498 0.282705
-0.062946 -0.077674 0.283286
-0.061743 -0.077845 0.283845
-0.060689 -0.078214 0.285127
-0.059678 -0.078657 0.286678
-0.058516 -0.078916 0.287560
-0.057437 -0.079305 0.288910
-0.056487 -0.079892 0.290983
-0.055133 -0.079926 0.291039
-0.054056 -0.080372 0.292596
-0.051226 -0.080276 0.292112
-0.050095 -0.080682 0.293523
-0.048543 -0.080415 0.292482
-0.047373 -0.080782 0.293751
-0.046021 -0.080854 0.293946
-0.044645 -0.080884 0.293990
-0.043053 -0.080514 0.292578
-0.041644 -0.080473 0.292364
-0.040241 -0.080442 0.292186
-0.038877 -0.080487 0.292290
-0.037455 -0.080415 0.291964
-0.036098 -0.080480 0.292139
-0.034603 -0.080231 0.291176
-0.033307 -0.080440 0.291877
-0.031799 -0.080135 0.290713
-0.030261 -0.079724 0.289165
-0.028816 -0.079530 0.288409
-0.027613 -0.080016 0.290120
-0.026114 -0.079653 0.288751
-0.024608 -0.079228 0.287163
-0.023289 -0.079390 0.287701
-0.021743 -0.078748 0.285329
-0.020246 -0.078214 0.283351
-0.018828 -0.077929 0.282278
-0.017446 -0.077761 0.281628
-0.016093 -0.077701 0.281373
-0.014701 -0.077428 0.280352
-0.013301 -0.077056 0.278968
-0.011925 -0.076760 0.277867
-0.010489 -0.075952 0.274913
-0.009102 -0.075318 0.272590
-0.007709 -0.074414 0.269296
-0.006380 -0.073891 0.267379
-0.005063 -0.073278 0.265140
-0.003767 -0.072674 0.262938
-0.002498 -0.072265 0.261441
-0.001245 -0.071907 0.260131
-0.000004 -0.071614 0.259061
0.001222 -0.071041 0.256977
0.002422 -0.070276 0.254204
0.003617 -0.069930 0.252944
0.004809 -0.069711 0.252151
0.005975 -0.069281 0.250592
0.007132 -0.068902 0.249221
0.008286 -0.068604 0.248144
0.009449 -0.068449 0.247586
0.010597 -0.068233 0.246812
0.011706 -0.067832 0.245368
0.012844 -0.067658 0.244746
0.013967 -0.067439 0.243966
0.015101 -0.067303 0.243487
0.016238 -0.067199 0.243125
0.017289 -0.066776 0.241609
0.018326 -0.066355 0.240103
0.019375 -0.066026 0.238930
0.020377 -0.065579 0.237333
0.021434 -0.065350 0.236522
0.022458 -0.065046 0.235444
0.023519 -0.064872 0.234839
0.024588 -0.064738 0.234378
0.025571 -0.064396 0.233165
0.026605 -0.064208 0.232509
0.027650 -0.064058 0.231994
0.028688 -0.063906 0.231471
0.029678 -0.063661 0.230614
0.030698 -0.063495 0.230042
0.031721 -0.063346 0.229534
0.032669 -0.063065 0.228545
0.033448 -0.062485 0.226474
0.034353 -0.062168 0.225357
0.035138 -0.061660 0.223549
0.036064 -0.061423 0.222721
0.036367 -0.060167 0.218198
0.037025 -0.059553 0.216002
0.037613 -0.058863 0.213532
0.038517 -0.058689 0.212933
0.038925 -0.057789 0.209699
0.037775 -0.054679 0.198442
0.038239 -0.053999 0.196004
0.039032 -0.053805 0.195329
0.039845 -0.053648 0.194785
0.040415 -0.053177 0.193105
0.041167 -0.052962 0.192351
0.041953 -0.052800 0.191786
0.042464 -0.052304 0.190012
0.043154 -0.052046 0.189097
0.043831 -0.051783 0.188166
0.044579 -0.051612 0.187567
0.045228 -0.051336 0.186586
0.045895 -0.051090 0.185712
0.046725 -0.051031 0.185517
0.047505 -0.050921 0.185136
0.048199 -0.050725 0.184440
0.049165 -0.050816 0.184789
0.049983 -0.050754 0.184576
0.050648 -0.050542 0.183818
0.051601 -0.050620 0.184110
0.052402 -0.050548 0.183858
0.052798 -0.050094 0.182214
0.053215 -0.049674 0.180692
0.053828 -0.049448 0.179872
0.054574 -0.049349 0.179513
0.055274 -0.049212 0.179013
0.055850 -0.048971 0.178133
0.056401 -0.048715 0.177196
0.056550 -0.048124 0.175040
0.057291 -0.048047 0.174748
0.057764 -0.047751 0.173656
0.058227 -0.047455 0.172566
0.058796 -0.047252 0.171810
0.059556 -0.047206 0.171621
0.059859 -0.046804 0.170135
0.060518 -0.046688 0.169683
0.060790 -0.046280 0.168171
0.061371 -0.046114 0.167535
0.061990 -0.045982 0.167016
0.062453 -0.045738 0.166090
0.062827 -0.045436 0.164947
0.063451 -0.045320 0.164478
0.064150 -0.045259 0.164207
0.064722 -0.045112 0.163616
0.065312 -0.044980 0.163079
0.065859 -0.044822 0.162444
0.066675 -0.044849 0.162473
0.067382 -0.044803 0.162233
0.068025 -0.044716 0.161840
0.068705 -0.044655 0.161537
0.069300 -0.044540 0.161034
0.069859 -0.044405 0.160455
0.070377 -0.044247 0.159785
0.070753 -0.044004 0.158807
0.071162 -0.043787 0.157917
0.071601 -0.043592 0.157101
0.072062 -0.043415 0.156345
0.072673 -0.043331 0.155919
0.073063 -0.043118 0.155022
0.073915 -0.043180 0.155106
0.074988 -0.043367 0.155635
0.075897 -0.043457 0.155807
0.076611 -0.043436 0.155569
0.077402 -0.043457 0.155480
0.078059 -0.043403 0.155113
0.078568 -0.043270 0.154453
0.078842 -0.043010 0.153337
0.079222 -0.042812 0.152435
0.079445 -0.042534 0.151240
0.079433 -0.042137 0.149614
-0.076458 -0.077832 0.289313
-0.073429 -0.076106 0.282847
-0.073582 -0.077675 0.288623
-0.071456 -0.076851 0.285508
-0.069934 -0.076659 0.284737
-0.068213 -0.076237 0.283112
-0.066626 -0.075951 0.281990
-0.065342 -0.076005 0.282128
-0.064231 -0.076267 0.283039
-0.062880 -0.076250 0.282914
-0.061813 -0.076583 0.284085
-0.060624 -0.076778 0.284742
-0.059249 -0.076739 0.284533
-0.058095 -0.076993 0.285407
-0.056844 -0.077126 0.285832
-0.055407 -0.077008 0.285328
-0.055215 -0.078657 0.291369
-0.042006 -0.062987 0.233210
-0.040942 -0.063048 0.233382
-0.039987 -0.063287 0.234209
-0.038776 -0.063122 0.233544
-0.037660 -0.063107 0.233432
-0.046093 -0.079576 0.294283
-0.044567 -0.079344 0.293358
-0.043126 -0.079252 0.292952
-0.041805 -0.079384 0.293370
-0.040348 -0.079256 0.292832
-0.038875 -0.079088 0.292146
-0.037466 -0.079043 0.291916
-0.036005 -0.078880 0.291254
-0.034532 -0.078676 0.290439
-0.033362 -0.079174 0.292217
-0.030311 -0.078470 0.289502
-0.028938 -0.078477 0.289476
-0.027577 -0.078525 0.289596
-0.026047 -0.078069 0.287866
-0.024732 -0.078243 0.288455
-0.023371 -0.078284 0.288557
-0.021765 -0.077455 0.285456
-0.020236 -0.076810 0.283036
-0.018831 -0.076582 0.282151
-0.017422 -0.076298 0.281065
-0.016048 -0.076132 0.280416
-0.014691 -0.076027 0.279992
-0.013308 -0.075751 0.278942
-0.011830 -0.074811 0.275447
-0.010474 -0.074506 0.274296
-0.009092 -0.073911 0.272080
-0.007732 -0.073321 0.269882
-0.006370 -0.072467 0.266716
-0.005042 -0.071683 0.263811
-0.003761 -0.071253 0.262210
-0.002498 -0.070920 0.260968
-0.001249 -0.070709 0.260177
-0.000007 -0.070404 0.259042
0.001221 -0.069945 0.257345
0.002425 -0.069224 0.254682
0.003627 -0.068961 0.253708
0.004799 -0.068403 0.251653
0.005959 -0.067932 0.249918
0.007107 -0.067506 0.248352
0.008305 -0.067598 0.248693
0.009442 -0.067243 0.247389
0.010587 -0.067012 0.246545
0.011640 -0.066302 0.243941
0.012760 -0.066068 0.243089
0.013888 -0.065916 0.242541
0.015016 -0.065783 0.242064
0.016131 -0.065615 0.241460
0.017247 -0.065475 0.240960
0.018337 -0.065260 0.240186
0.019423 -0.065054 0.239448
0.020461 -0.064723 0.238250
0.021483 -0.064377 0.236998
0.022553 -0.064201 0.236373
0.023579 -0.063923 0.235372
0.024620 -0.063709 0.234611
0.025637 -0.063455 0.233704
0.026671 -0.063262 0.233019
0.027683 -0.063033 0.232205
0.028728 -0.062896 0.231728
0.029768 -0.062758 0.231249
0.030767 -0.062544 0.230495
0.031765 -0.062345 0.229791
0.032729 -0.062095 0.228902
0.033652 -0.061784 0.227790
0.034461 -0.061291 0.226004
0.035297 -0.060873 0.224499
0.036085 -0.060401 0.222790
0.036517 -0.059376 0.219043
0.037138 -0.058707 0.216610
0.037787 -0.058117 0.214466
0.038382 -0.057478 0.212140
0.039356 -0.057425 0.211976
0.037732 -0.053677 0.198171
0.038376 -0.053260 0.196663
0.039056 -0.052912 0.195409
0.039934 -0.052843 0.195183
0.040578 -0.052473 0.193846
0.041054 -0.051908 0.191788
0.041817 -0.051722 0.191130
0.042391 -0.051316 0.189656
0.042995 -0.050962 0.188372
0.043783 -0.050835 0.187928
0.044415 -0.050537 0.186851
0.045177 -0.050395 0.186349
0.046000 -0.050325 0.186113
0.046710 -0.050137 0.185438
0.047509 -0.050049 0.185135
0.048288 -0.049944 0.184765
0.049064 -0.049839 0.184393
0.049961 -0.049859 0.184484
0.050736 -0.049758 0.184126
0.050753 -0.048930 0.181074
0.051321 -0.048652 0.180056
0.052058 -0.048541 0.179652
0.052876 -0.048508 0.179536
0.053591 -0.048382 0.179077
0.054297 -0.048253 0.178601
0.055064 -0.048181 0.178335
0.055628 -0.047936 0.177426
0.056038 -0.047567 0.176060
0.056560 -0.047304 0.175077
0.057250 -0.047186 0.174634
0.057768 -0.046932 0.173682
0.058315 -0.046708 0.172839
0.058760 -0.046410 0.171719
0.059381 -0.046257 0.171133
0.059857 -0.045997 0.170148
0.060470 -0.045847 0.169571
0.061004 -0.045643 0.168785
0.061500 -0.045415 0.167913
0.061843 -0.045083 0.166648
0.062296 -0.044837 0.165701
0.062648 -0.044526 0.164511
0.063041 -0.044251 0.163450
0.063923 -0.044322 0.163664
0.064427 -0.044133 0.162910
0.065032 -0.044016 0.162422
0.065786 -0.044002 0.162308
0.066476 -0.043945 0.162035
0.067317 -0.043989 0.162125
0.067996 -0.043927 0.161822
0.068613 -0.043827 0.161374
0.069233 -0.043730 0.160934
0.069798 -0.043602 0.160372
0.070455 -0.043533 0.160025
0.070855 -0.043309 0.159101
0.071346 -0.043144 0.158391
0.071863 -0.042998 0.157746
0.072324 -0.042823 0.156986
0.072812 -0.042666 0.156291
0.073339 -0.042535 0.155684
0.074086 -0.042534 0.155544
0.075035 -0.042647 0.155817
0.075893 -0.042707 0.155886
0.076612 -0.042688 0.155662
0.077219 -0.042607 0.155205
0.077887 -0.042562 0.154869
0.078439 -0.042454 0.154300
0.078676 -0.042180 0.153117
0.079002 -0.041958 0.152118
0.079237 -0.041692 0.150954
0.079389 -0.041388 0.149644
-0.076555 -0.076559 0.289627
-0.073385 -0.074721 0.282621
-0.073397 -0.076115 0.287839
-0.071289 -0.075322 0.284780
-0.070101 -0.075490 0.285355
-0.068056 -0.074723 0.282395
-0.066967 -0.074995 0.283363
-0.065704 -0.075080 0.283621
-0.064518 -0.075259 0.284232
-0.063374 -0.075496 0.285059
-0.062178 -0.075678 0.285681
-0.060855 -0.075712 0.285741
-0.059886 -0.076198 0.287504
-0.058457 -0.076107 0.287092
-0.057169 -0.076201 0.287377
-0.055869 -0.076282 0.287611
-0.044468 -0.062231 0.234578
-0.042458 -0.060941 0.229658
-0.041385 -0.060962 0.229680
-0.040417 -0.061143 0.230306
-0.039314 -0.061124 0.230179
-0.038232 -0.061139 0.230180
-0.037169 -0.061186 0.230301
-0.045667 -0.077450 0.291447
-0.044324 -0.077519 0.291636
-0.042905 -0.077456 0.291332
-0.041392 -0.077213 0.290347
-0.040129 -0.077435 0.291117
-0.038605 -0.077153 0.289988
-0.037131 -0.076952 0.289170
-0.035641 -0.076703 0.288170
-0.034588 -0.077412 0.290771
-0.026530 -0.064537 0.242309
-0.025395 -0.064579 0.242419
-0.024257 -0.064620 0.242525
-0.027623 -0.077266 0.289930
-0.026091 -0.076818 0.288198
-0.024774 -0.076989 0.288789
-0.022963 -0.075553 0.283352
-0.021510 -0.075193 0.281954
-0.020150 -0.075131 0.281677
-0.018774 -0.074997 0.281131
-0.017396 -0.074831 0.280470
-0.016034 -0.074715 0.279996
-0.014663 -0.074532 0.279271
-0.013255 -0.074107 0.277647
-0.011872 -0.073740 0.276239
-0.010501 -0.073371 0.274824
-0.009125 -0.072845 0.272829
-0.007723 -0.071920 0.269337
-0.006386 -0.071341 0.267147
-0.005066 -0.070716 0.264785
-0.003782 -0.070334 0.263337
-0.002501 -0.069681 0.260876
-0.001252 -0.069459 0.260030
-0.000010 -0.069164 0.258913
0.001214 -0.068475 0.256325
0.002419 -0.067927 0.254265
0.003613 -0.067549 0.252845
0.004790 -0.067121 0.251238
0.005929 -0.066434 0.248667
0.007102 -0.066294 0.248142
0.008262 -0.066093 0.247393
0.009412 -0.065870 0.246562
0.010555 -0.065655 0.245762
0.011694 -0.065458 0.245033
0.012828 -0.065272 0.244348
0.013938 -0.065000 0.243343
0.015041 -0.064746 0.242402
0.016138 -0.064501 0.241503
0.017252 -0.064353 0.240963
0.018366 -0.064224 0.240500
0.019430 -0.063945 0.239474
0.020501 -0.063718 0.238645
0.021576 -0.063526 0.237948
0.022599 -0.063209 0.236786
0.023639 -0.062968 0.235907
0.024667 -0.062716 0.234991
0.025706 -0.062515 0.234266
0.026721 -0.062274 0.233390
0.027764 -0.062113 0.232818
0.028798 -0.061946 0.232222
0.029815 -0.061757 0.231546
0.030863 -0.061643 0.231151
0.031840 -0.061400 0.230274
0.032754 -0.061056 0.229015
0.033746 -0.060873 0.228363
0.034689 -0.060617 0.227437
0.035725 -0.060535 0.227165
0.036424 -0.059901 0.224824
0.037020 -0.059142 0.222009
0.037233 -0.057828 0.217111
0.037528 -0.056709 0.212946
0.038141 -0.056117 0.210757
0.037455 -0.053694 0.201689
0.037840 -0.052888 0.198694
0.038469 -0.052454 0.197098
0.039125 -0.052078 0.195715
0.039868 -0.051831 0.194818
0.039980 -0.050794 0.190952
0.040799 -0.050682 0.190559
0.041603 -0.050556 0.190116
0.042300 -0.050308 0.189212
0.043022 -0.050100 0.188457
0.043660 -0.049804 0.187372
0.044378 -0.049610 0.186668
0.045078 -0.049403 0.185913
0.045777 -0.049203 0.185186
0.046600 -0.049142 0.184977
0.047370 -0.049028 0.184572
0.048153 -0.048931 0.184226
0.049014 -0.048916 0.184188
0.049795 -0.048822 0.183853
0.050580 -0.048736 0.183546
0.051280 -0.048572 0.182943
0.051985 -0.048418 0.182374
0.052549 -0.048140 0.181339
0.053315 -0.048053 0.181020
0.053860 -0.047773 0.179972
0.054392 -0.047490 0.178912
0.055188 -0.047443 0.178737
0.055726 -0.047179 0.177742
0.055891 -0.046611 0.175603
0.056408 -0.046350 0.174612
0.056930 -0.046099 0.173663
0.057739 -0.046086 0.173602
0.058256 -0.045843 0.172675
0.058820 -0.045643 0.171908
0.059315 -0.045396 0.170961
0.059997 -0.045296 0.170564
0.060572 -0.045119 0.169875
0.060896 -0.044763 0.168508
0.061321 -0.044490 0.167449
0.061910 -0.044340 0.166854
0.062242 -0.044013 0.165585
0.062239 -0.043460 0.163466
0.062664 -0.043215 0.162504
0.063489 -0.043249 0.162586
0.064115 -0.043149 0.162157
0.064683 -0.043012 0.161589
0.065417 -0.042988 0.161440
0.066210 -0.043002 0.161429
0.067011 -0.043021 0.161435
0.067739 -0.042994 0.161260
0.068444 -0.042952 0.161027
0.069040 -0.042844 0.160540
0.069739 -0.042801 0.160293
0.070323 -0.042690 0.159785
0.070801 -0.042517 0.159039
0.071306 -0.042364 0.158365
0.071592 -0.042085 0.157217
0.072055 -0.041915 0.156470
0.072692 -0.041849 0.156105
0.073126 -0.041668 0.155307
0.073882 -0.041673 0.155194
0.075008 -0.041884 0.155843
0.075900 -0.041962 0.155985
0.076494 -0.041875 0.155509
0.077239 -0.041871 0.155337
0.077779 -0.041758 0.154748
0.078216 -0.041591 0.153957
0.078528 -0.041362 0.152928
0.078823 -0.041129 0.151876
0.079002 -0.040840 0.150612
0.079112 -0.040521 0.149231
-0.070193 -0.074234 0.285662
-0.068146 -0.073480 0.282699
-0.067056 -0.073749 0.283669
-0.065792 -0.073834 0.283928
-0.063697 -0.072969 0.280537
-0.062664 -0.073312 0.281786
-0.061581 -0.073609 0.282858
-0.060238 -0.073601 0.282759
-0.058430 -0.073012 0.280426
-0.057907 -0.074040 0.284304
-0.057251 -0.074941 0.287692
-0.046731 -0.062661 0.240488
-0.044532 -0.061204 0.234836
-0.042500 -0.059907 0.229804
-0.041217 -0.059625 0.228663
-0.040189 -0.059708 0.228923
-0.039306 -0.060016 0.230047
-0.038113 -0.059856 0.229375
-0.036775 -0.059450 0.227763
-0.045974 -0.076572 0.293288
-0.044623 -0.076641 0.293479
-0.042952 -0.076148 0.291522
-0.041208 -0.075489 0.288930
-0.040055 -0.075905 0.290452
-0.038635 -0.075826 0.290085
-0.037187 -0.075685 0.289477
-0.035838 -0.075743 0.289632
-0.028996 -0.063729 0.243641
-0.027857 -0.063775 0.243762
-0.026090 -0.062324 0.238166
-0.024935 -0.062271 0.237915
-0.023913 -0.062560 0.238970
-0.022755 -0.062503 0.238705
-0.021442 -0.061992 0.236711
-0.024408 -0.074485 0.284361
-0.023002 -0.074318 0.283675
-0.021522 -0.073879 0.281949
-0.020124 -0.073680 0.281146
-0.018792 -0.073712 0.281223
-0.017395 -0.073474 0.280275
-0.015983 -0.073131 0.278925
-0.014613 -0.072934 0.278135
-0.013188 -0.072398 0.276057
-0.011814 -0.072050 0.274696
-0.010411 -0.071418 0.272257
-0.009059 -0.071009 0.270670
-0.007721 -0.070585 0.269027
-0.006371 -0.069867 0.266271
-0.005080 -0.069601 0.265236
-0.003769 -0.068786 0.262111
-0.002505 -0.068467 0.260877
-0.001253 -0.068120 0.259542
-0.000013 -0.067819 0.258381
0.001206 -0.066934 0.255000
0.002413 -0.066636 0.253857
0.003609 -0.066315 0.252628
0.004791 -0.065972 0.251318
0.005955 -0.065565 0.249768
0.007079 -0.064926 0.247334
0.008217 -0.064576 0.246005
0.009386 -0.064531 0.245836
0.010529 -0.064338 0.245107
0.011670 -0.064170 0.244478
0.012805 -0.064002 0.243848
0.013957 -0.063938 0.243615
0.015083 -0.063777 0.243018
0.016186 -0.063548 0.242158
0.017287 -0.063340 0.241386
0.018379 -0.063128 0.240596
0.019490 -0.063004 0.240143
0.020557 -0.062757 0.239224
0.021606 -0.062487 0.238218
0.022645 -0.062213 0.237200
0.023719 -0.062058 0.236636
0.024770 -0.061858 0.235901
0.025789 -0.061602 0.234951
0.026816 -0.061384 0.234151
0.027839 -0.061174 0.233381
0.028886 -0.061030 0.232864
0.029939 -0.060912 0.232445
0.030990 -0.060795 0.232035
0.031943 -0.060502 0.230948
0.032915 -0.060263 0.230072
0.033814 -0.059910 0.228763
0.034812 -0.059749 0.228182
0.035781 -0.059549 0.227457
0.036708 -0.059294 0.226521
0.037232 -0.058421 0.223220
0.037118 -0.056622 0.216386
0.037569 -0.055760 0.213127
0.038257 -0.055286 0.211350
0.037596 -0.052935 0.202399
0.037889 -0.052013 0.198909
0.038442 -0.051484 0.196918
0.039291 -0.051366 0.196500
0.039737 -0.050741 0.194140
0.039858 -0.049737 0.190331
0.040477 -0.049386 0.189021
0.041408 -0.049422 0.189189
0.042197 -0.049292 0.188720
0.042819 -0.048975 0.187537
0.043702 -0.048963 0.187521
0.044321 -0.048663 0.186399
0.045050 -0.048492 0.185772
0.045778 -0.048327 0.185166
0.046520 -0.048183 0.184637
0.047346 -0.048129 0.184455
0.048107 -0.048012 0.184028
0.048902 -0.047934 0.183749
0.049737 -0.047896 0.183622
0.050440 -0.047735 0.183023
0.051216 -0.047646 0.182700
0.051965 -0.047537 0.182295
0.052411 -0.047157 0.180852
0.052879 -0.046810 0.179532
0.053417 -0.046535 0.178486
0.054267 -0.046536 0.178496
0.054800 -0.046269 0.177478
0.055619 -0.046247 0.177398
0.056272 -0.046092 0.176801
0.056579 -0.045661 0.175146
0.056906 -0.045258 0.173595
0.057676 -0.045214 0.173422
0.058251 -0.045021 0.172670
0.058617 -0.044674 0.171326
0.059114 -0.044435 0.170394
0.059745 -0.044301 0.169864
0.060291 -0.044109 0.169106
0.060869 -0.043945 0.168453
0.061505 -0.043827 0.167973
0.062065 -0.043658 0.167294
0.062421 -0.043351 0.166086
0.062437 -0.042820 0.164012
0.062431 -0.042287 0.161931
0.063377 -0.042403 0.162332
0.064039 -0.042329 0.162001
0.064473 -0.042108 0.161102
0.065209 -0.042087 0.160965
0.065989 -0.042094 0.160932
0.066828 -0.042138 0.161038
0.067518 -0.042088 0.160778
0.068321 -0.042110 0.160786
0.069086 -0.042107 0.160698
0.069751 -0.042045 0.160374
0.070416 -0.041983 0.160052
0.070879 -0.041804 0.159274
0.071292 -0.041600 0.158396
0.071700 -0.041396 0.157517
0.072034 -0.041155 0.156489
0.072385 -0.040928 0.155513
0.072716 -0.040695 0.154507
0.073572 -0.040758 0.154617
0.074546 -0.040883 0.154959
0.075379 -0.040930 0.154994
0.076102 -0.040916 0.154795
0.076741 -0.040859 0.154421
0.077391 -0.040808 0.154066
0.077857 -0.040661 0.153343
0.077992 -0.040347 0.151980
0.078493 -0.040226 0.151339
0.078614 -0.039914 0.149973
0.078606 -0.039543 0.148380
-0.054786 -0.055811 0.218759
-0.053434 -0.055479 0.217407
-0.052557 -0.055637 0.217974
-0.051474 -0.055578 0.217693
-0.064157 -0.070684 0.276795
-0.062924 -0.070768 0.277057
-0.062174 -0.071410 0.279499
-0.061348 -0.071991 0.281704
-0.059191 -0.071001 0.277759
-0.058493 -0.071757 0.280645
-0.057988 -0.072790 0.284610
-0.048149 -0.061876 0.241873
-0.046769 -0.061567 0.240602
-0.044267 -0.059728 0.233355
-0.042705 -0.059097 0.230828
-0.041630 -0.059123 0.230870
-0.040581 -0.059189 0.231070
-0.039548 -0.059282 0.231371
-0.038431 -0.059251 0.231193
-0.037287 -0.059178 0.230846
-0.036632 -0.059898 0.233596
-0.044690 -0.075354 0.293801
-0.043017 -0.074871 0.291843
-0.041271 -0.074224 0.289249
-0.040117 -0.074633 0.290773
-0.038696 -0.074556 0.290406
-0.037246 -0.074418 0.289798
-0.030077 -0.062403 0.242954
-0.028932 -0.062427 0.242993
-0.027656 -0.062157 0.241889
-0.026260 -0.061583 0.239604
-0.025180 -0.061732 0.240131
-0.024122 -0.061951 0.240934
-0.022902 -0.061755 0.240125
-0.021798 -0.061869 0.240520
-0.024147 -0.072339 0.281170
-0.022877 -0.072561 0.281983
-0.021478 -0.072375 0.281214
-0.020038 -0.072019 0.279782
-0.018711 -0.072048 0.279851
-0.017284 -0.071666 0.278324
-0.015920 -0.071505 0.277659
-0.014517 -0.071121 0.276131
-0.013169 -0.070956 0.275454
-0.011799 -0.070629 0.274152
-0.010421 -0.070161 0.272303
-0.009037 -0.069522 0.269795
-0.007738 -0.069429 0.269406
-0.006400 -0.068875 0.267233
-0.005062 -0.068049 0.264009
-0.003765 -0.067415 0.261528
-0.002502 -0.067053 0.260107
-0.001254 -0.066808 0.259143
-0.000016 -0.066124 0.256478
0.001199 -0.065528 0.254158
0.002412 -0.065459 0.253883
0.003616 -0.065280 0.253184
0.004791 -0.064802 0.251324
0.005939 -0.064228 0.249097
0.007089 -0.063858 0.247665
0.008230 -0.063523 0.246368
0.009377 -0.063316 0.245568
0.010529 -0.063183 0.245060
0.011664 -0.062985 0.244301
0.012799 -0.062820 0.243674
0.013942 -0.062722 0.243306
0.015074 -0.062591 0.242811
0.016183 -0.062390 0.242050
0.017297 -0.062234 0.241464
0.018402 -0.062065 0.240827
0.019513 -0.061938 0.240354
0.020611 -0.061784 0.239780
0.021665 -0.061524 0.238797
0.022744 -0.061355 0.238166
0.023803 -0.061151 0.237403
0.024844 -0.060920 0.236534
0.025869 -0.060675 0.235612
0.026878 -0.060411 0.234617
0.027902 -0.060201 0.233836
0.028948 -0.060054 0.233298
0.029958 -0.059845 0.232518
0.031009 -0.059730 0.232108
0.032065 -0.059632 0.231764
0.032942 -0.059219 0.230196
0.033899 -0.058972 0.229273
0.034915 -0.058840 0.228797
0.035936 -0.058724 0.228384
0.036810 -0.058380 0.227085
0.037735 -0.058135 0.226173
0.038489 -0.057649 0.224321
0.037798 -0.055082 0.214372
0.037330 -0.052967 0.206176
0.037751 -0.052189 0.203183
0.037835 -0.050997 0.198579
0.038367 -0.050450 0.196485
0.039176 -0.050287 0.195883
0.039824 -0.049929 0.194524
0.040207 -0.049262 0.191960
0.040667 -0.048717 0.189868
0.041412 -0.048530 0.189171
0.042182 -0.048379 0.188617
0.042865 -0.048137 0.187703
0.043553 -0.047911 0.186850
0.044254 -0.047707 0.186086
0.045040 -0.047601 0.185701
0.045774 -0.047445 0.185120
0.046538 -0.047326 0.184683
0.047373 -0.047282 0.184536
0.048162 -0.047195 0.184219
0.048908 -0.047069 0.183749
0.049697 -0.046988 0.183455
0.050546 -0.046966 0.183388
0.051220 -0.046784 0.182699
0.051363 -0.046132 0.180170
0.051811 -0.045770 0.178770
0.052584 -0.045703 0.178519
0.053205 -0.045508 0.177769
0.053906 -0.045386 0.177303
0.054509 -0.045187 0.176532
0.055206 -0.045071 0.176081
0.055959 -0.045003 0.175818
0.056530 -0.044792 0.174996
0.057145 -0.044622 0.174329
0.057776 -0.044470 0.173728
0.058437 -0.044344 0.173230
0.058917 -0.044087 0.172213
0.059256 -0.043732 0.170816
0.059894 -0.043605 0.170302
0.060442 -0.043416 0.169546
0.061074 -0.043292 0.169040
0.061417 -0.042968 0.167751
0.061929 -0.042771 0.166950
0.062295 -0.042478 0.165775
0.062531 -0.042105 0.164285
0.062480 -0.041550 0.162083
0.063322 -0.041596 0.162221
0.064013 -0.041543 0.161966
0.064406 -0.041300 0.160969
0.065130 -0.041271 0.160805
0.065924 -0.041288 0.160813
0.066753 -0.041326 0.160896
0.067591 -0.041368 0.160995
0.068314 -0.041340 0.160815
0.069132 -0.041370 0.160853
0.069646 -0.041218 0.160184
0.070182 -0.041083 0.159573
0.070763 -0.040977 0.159070
0.071106 -0.040737 0.158041
0.071437 -0.040495 0.157001
0.071748 -0.040247 0.155932
0.072201 -0.040083 0.155184
0.072611 -0.039898 0.154352
0.073181 -0.039804 0.153865
0.074227 -0.039969 0.154370
0.075018 -0.039994 0.154329
0.075788 -0.040007 0.154236
0.076429 -0.039953 0.153876
0.077032 -0.039880 0.153437
0.077612 -0.039797 0.152951
0.077810 -0.039521 0.151718
0.078165 -0.039330 0.150801
0.078344 -0.039054 0.149556
0.078515 -0.038779 0.148309
-0.056897 -0.054819 0.218986
-0.055577 -0.054537 0.217812
-0.054856 -0.054844 0.218986
-0.053623 -0.054640 0.218121
-0.052786 -0.054841 0.218870
-0.051766 -0.054855 0.218871
-0.051502 -0.055687 0.222137
-0.061431 -0.070749 0.282001
-0.059271 -0.069776 0.278052
-0.058574 -0.070520 0.280941
-0.048760 -0.060069 0.239240
-0.047681 -0.060135 0.239441
-0.046330 -0.059855 0.238260
-0.044572 -0.059021 0.234881
-0.042752 -0.058061 0.230997
-0.041691 -0.058109 0.231125
-0.040678 -0.058227 0.231534
-0.039686 -0.058383 0.232091
-0.038630 -0.058450 0.232298
-0.037588 -0.058544 0.232610
-0.036687 -0.058871 0.233848
-0.035619 -0.058941 0.234067
-0.034878 -0.059575 0.236521
-0.033845 -0.059736 0.237100
-0.033254 -0.060712 0.240917
-0.032287 -0.061051 0.242201
-0.031158 -0.061096 0.242321
-0.030124 -0.061337 0.243219
-0.029272 -0.061983 0.245726
-0.027875 -0.061480 0.243678
-0.026398 -0.060752 0.240736
-0.025254 -0.060758 0.240709
-0.024173 -0.060924 0.241318
-0.023030 -0.060942 0.241340
-0.021786 -0.060679 0.240251
-0.024187 -0.071106 0.281481
-0.022794 -0.070946 0.280798
-0.021309 -0.070463 0.278836
-0.019998 -0.070531 0.279055
-0.018726 -0.070758 0.279910
-0.017355 -0.070614 0.279296
-0.015953 -0.070309 0.278048
-0.014626 -0.070310 0.278016
-0.013345 -0.070555 0.278947
-0.011910 -0.069953 0.276532
-0.010336 -0.068284 0.269901
-0.009004 -0.067960 0.268592
-0.007722 -0.067970 0.268606
-0.006331 -0.066834 0.264095
-0.005065 -0.066786 0.263883
-0.003778 -0.066347 0.262128
-0.002515 -0.066086 0.261081
-0.001256 -0.065516 0.258813
-0.000018 -0.064490 0.254749
0.001197 -0.064354 0.254201
0.002420 -0.064540 0.254929
0.003606 -0.063947 0.252582
0.004800 -0.063765 0.251861
0.005959 -0.063273 0.249916
0.007095 -0.062750 0.247853
0.008241 -0.062453 0.246682
0.009394 -0.062272 0.245972
0.010540 -0.062093 0.245274
0.011700 -0.062019 0.244988
0.012852 -0.061925 0.244630
0.013999 -0.061820 0.244230
0.015136 -0.061692 0.243738
0.016254 -0.061510 0.243037
0.017325 -0.061189 0.241787
0.018473 -0.061160 0.241692
0.019572 -0.060981 0.241009
0.020663 -0.060800 0.240316
0.021741 -0.060603 0.239562
0.022829 -0.060449 0.238981
0.023889 -0.060241 0.238190
0.024940 -0.060029 0.237378
0.025942 -0.059723 0.236202
0.026951 -0.059457 0.235182
0.027988 -0.059272 0.234484
0.029020 -0.059091 0.233802
0.030031 -0.058883 0.233016
0.031100 -0.058799 0.232720
0.032124 -0.058639 0.232124
0.033060 -0.058334 0.230953
0.034019 -0.058088 0.230020
0.035004 -0.057900 0.229315
0.036083 -0.057874 0.229251
0.036922 -0.057475 0.227713
0.037809 -0.057173 0.226557
0.037264 -0.054782 0.217121
0.037935 -0.054260 0.215090
0.038287 -0.053320 0.211406
0.037667 -0.051111 0.202683
0.037683 -0.049853 0.197730
0.038377 -0.049530 0.196490
0.039099 -0.049260 0.195451
0.039664 -0.048808 0.193697
0.040004 -0.048107 0.190949
0.040649 -0.047795 0.189743
0.041563 -0.047806 0.189823
0.042269 -0.047583 0.188969
0.042871 -0.047254 0.187696
0.043597 -0.047072 0.187007
0.044279 -0.046851 0.186160
0.045032 -0.046712 0.185638
0.045719 -0.046512 0.184869
0.046496 -0.046409 0.184490
0.047352 -0.046386 0.184427
0.048071 -0.046234 0.183848
0.048815 -0.046110 0.183379
0.049626 -0.046053 0.183174
0.050362 -0.045929 0.182702
0.051075 -0.045788 0.182163
0.051459 -0.045363 0.180491
0.051930 -0.045027 0.179170
0.052688 -0.044946 0.178862
0.053374 -0.044808 0.178326
0.053938 -0.044573 0.177399
0.054606 -0.044430 0.176841
0.055119 -0.044167 0.175799
0.055858 -0.044090 0.175498
0.056570 -0.043994 0.175120
0.057039 -0.043716 0.174009
0.057507 -0.043443 0.172922
0.058032 -0.043222 0.172035
0.058563 -0.043011 0.171186
0.059003 -0.042739 0.170094
0.059585 -0.042577 0.169436
0.060210 -0.042449 0.168909
0.060843 -0.042330 0.168415
0.061430 -0.042183 0.167806
0.061906 -0.041963 0.166908
0.062113 -0.041570 0.165312
0.062365 -0.041216 0.163873
0.062405 -0.040733 0.161916
0.063227 -0.040765 0.162004
0.063872 -0.040684 0.161640
0.064368 -0.040511 0.160905
0.065112 -0.040496 0.160794
0.065808 -0.040452 0.160565
0.066743 -0.040555 0.160913
0.067539 -0.040571 0.160913
0.068345 -0.040594 0.160932
0.069031 -0.040544 0.160663
0.069657 -0.040462 0.160256
0.070135 -0.040296 0.159517
0.070581 -0.040115 0.158713
0.070972 -0.039908 0.157799
0.071090 -0.039552 0.156294
0.071366 -0.039292 0.155162
0.071847 -0.039148 0.154485
0.072221 -0.038949 0.153586
0.072807 -0.038867 0.153145
0.073789 -0.038997 0.153530
0.074881 -0.039181 0.154120
0.075325 -0.039027 0.153371
0.076067 -0.039028 0.153226
0.076859 -0.039054 0.153176
0.077185 -0.038846 0.152195
0.077549 -0.038659 0.151296
0.077962 -0.038501 0.150500
0.077880 -0.038104 0.148763
0.078266 -0.037940 0.147934
-0.058795 -0.054585 0.222261
-0.056456 -0.053365 0.217244
-0.055780 -0.053700 0.218559
-0.055017 -0.053964 0.219578
-0.053930 -0.053913 0.219317
-0.053013 -0.054034 0.219756
-0.052091 -0.054155 0.220189
-0.051569 -0.054704 0.222366
-0.051362 -0.055618 0.226022
-0.051411 -0.056854 0.230983
-0.050379 -0.056921 0.231194
-0.049198 -0.056821 0.230725
-0.047906 -0.056585 0.229703
-0.047075 -0.056894 0.230897
-0.046073 -0.057007 0.231292
-0.045128 -0.057197 0.231998
-0.044030 -0.057200 0.231944
-0.042930 -0.057199 0.231876
-0.041881 -0.057267 0.232091
-0.040856 -0.057374 0.232458
-0.039843 -0.057503 0.232920
-0.038784 -0.057572 0.233133
-0.037751 -0.057684 0.233525
-0.036880 -0.058058 0.234977
-0.035984 -0.058417 0.236365
-0.034946 -0.058559 0.236880
-0.033867 -0.058640 0.237148
-0.032860 -0.058856 0.237960
-0.031790 -0.058970 0.238362
-0.030701 -0.059056 0.238651
-0.029657 -0.059240 0.239334
-0.028801 -0.059829 0.241657
-0.027629 -0.059782 0.241414
-0.026455 -0.059727 0.241136
-0.025405 -0.059961 0.242028
-0.024255 -0.059969 0.242006
-0.023029 -0.059781 0.241198
-0.022085 -0.060342 0.243414
-0.020936 -0.060377 0.243507
-0.021344 -0.069238 0.279140
-0.019818 -0.068566 0.276382
-0.018576 -0.068851 0.277489
-0.017246 -0.068833 0.277370
-0.015933 -0.068883 0.277530
-0.014603 -0.068863 0.277410
-0.013211 -0.068514 0.275968
-0.011859 -0.068324 0.275166
-0.010447 -0.067694 0.272597
-0.008947 -0.066231 0.266678
-0.007660 -0.066129 0.266241
-0.006338 -0.065622 0.264173
-0.005030 -0.065034 0.261785
-0.003726 -0.064152 0.258218
-0.002497 -0.064305 0.258816
-0.001254 -0.064033 0.257706
-0.000021 -0.063516 0.255614
0.001194 -0.063076 0.253833
0.002403 -0.062948 0.253313
0.003601 -0.062700 0.252306
0.004804 -0.062642 0.252073
0.005986 -0.062390 0.251057
0.007123 -0.061827 0.248794
0.008208 -0.061041 0.245634
0.009385 -0.061054 0.245693
0.010527 -0.060859 0.244917
0.011674 -0.060725 0.244385
0.012825 -0.060639 0.244053
0.013988 -0.060615 0.243968
0.015127 -0.060502 0.243532
0.016241 -0.060310 0.242774
0.017363 -0.060173 0.242246
0.018488 -0.060061 0.241815
0.019601 -0.059926 0.241293
0.020709 -0.059790 0.240773
0.021803 -0.059632 0.240161
0.022877 -0.059437 0.239407
0.023981 -0.059335 0.239024
0.025051 -0.059163 0.238363
0.026082 -0.058916 0.237400
0.027053 -0.058560 0.236000
0.028047 -0.058280 0.234906
0.029096 -0.058132 0.234345
0.030066 -0.057843 0.233216
0.031182 -0.057845 0.233264
0.032193 -0.057659 0.232550
0.033078 -0.057267 0.231009
0.034017 -0.056991 0.229935
0.035039 -0.056867 0.229476
0.036029 -0.056699 0.228843
0.037033 -0.056563 0.228333
0.037720 -0.055964 0.225960
0.037560 -0.054178 0.218789
0.037854 -0.053125 0.214576
0.038495 -0.052601 0.212501
0.037895 -0.050452 0.203858
0.037361 -0.048495 0.195991
0.038468 -0.048713 0.196907
0.039064 -0.048288 0.195231
0.039729 -0.047967 0.193969
0.039861 -0.047031 0.190221
0.040639 -0.046883 0.189659
0.041367 -0.046684 0.188886
0.042154 -0.046559 0.188416
0.042885 -0.046378 0.187721
0.043615 -0.046204 0.187049
0.044374 -0.046067 0.186525
0.045017 -0.045816 0.185543
0.045789 -0.045705 0.185125
0.046556 -0.045592 0.184697
0.047380 -0.045539 0.184509
0.048132 -0.045420 0.184056
0.048893 -0.045313 0.183647
0.049702 -0.045254 0.183434
0.050411 -0.045107 0.182860
0.051135 -0.044978 0.182360
0.051819 -0.044819 0.181738
0.052387 -0.044566 0.180730
0.052649 -0.044066 0.178718
0.053394 -0.043979 0.178381
0.054012 -0.043792 0.177635
0.054565 -0.043559 0.176700
0.055174 -0.043377 0.175969
0.055945 -0.043326 0.175767
0.056520 -0.043127 0.174964
0.056934 -0.042812 0.173687
0.057554 -0.042659 0.173066
0.058056 -0.042424 0.172110
0.058460 -0.042125 0.170891
0.059028 -0.041951 0.170174
0.059533 -0.041738 0.169298
0.060179 -0.041626 0.168832
0.060865 -0.041547 0.168491
0.061393 -0.041362 0.167721
0.061779 -0.041088 0.166585
0.062103 -0.040779 0.165306
0.062643 -0.040619 0.164626
0.062642 -0.040116 0.162554
0.063389 -0.040099 0.162446
0.064098 -0.040058 0.162238
0.064608 -0.039895 0.161534
0.065279 -0.039835 0.161241
0.065944 -0.039771 0.160931
0.066721 -0.039777 0.160896
0.067355 -0.039698 0.160514
0.067951 -0.039598 0.160045
0.068588 -0.039524 0.159675
0.069105 -0.039384 0.159032
0.069643 -0.039258 0.158444
0.070100 -0.039090 0.157682
0.070493 -0.038890 0.156784
0.070864 -0.038683 0.155852
0.071245 -0.038485 0.154955
0.071660 -0.038310 0.154143
0.071715 -0.037947 0.152572
0.072449 -0.037947 0.152456
0.073459 -0.038090 0.152909
0.074405 -0.038198 0.153212
0.075075 -0.038164 0.152935
0.075656 -0.038085 0.152475
0.076362 -0.038070 0.152263
0.076979 -0.038011 0.151870
0.077241 -0.037780 0.150780
0.077412 -0.037509 0.149527
0.077687 -0.037292 0.148484
0.077985 -0.037091 0.147497
-0.063126 -0.055497 0.230476
-0.060003 -0.053674 0.222859
-0.058866 -0.053596 0.222483
-0.056675 -0.052538 0.218037
-0.056027 -0.052898 0.219477
-0.055120 -0.053022 0.219937
-0.054211 -0.053148 0.220404
-0.053197 -0.053175 0.220459
-0.052233 -0.053254 0.220729
-0.051185 -0.053249 0.220648
-0.051429 -0.054616 0.226251
-0.049978 -0.054202 0.224477
-0.049710 -0.055082 0.228057
-0.048692 -0.055150 0.228277
-0.047702 -0.055256 0.228648
-0.046734 -0.055392 0.229148
-0.045750 -0.055515 0.229592
-0.044780 -0.055661 0.230131
-0.043794 -0.055793 0.230613
-0.042867 -0.056011 0.231448
-0.041932 -0.056230 0.232286
-0.040934 -0.056373 0.232811
-0.039953 -0.056547 0.233466
-0.038936 -0.056681 0.233951
-0.037927 -0.056834 0.234520
-0.036973 -0.057081 0.235474
-0.035967 -0.057260 0.236149
-0.034912 -0.057371 0.236544
-0.033925 -0.057605 0.237447
-0.032862 -0.057722 0.237868
-0.031867 -0.057971 0.238832
-0.030852 -0.058199 0.239711
-0.029957 -0.058683 0.241644
-0.028772 -0.058612 0.241294
-0.027665 -0.058702 0.241608
-0.026616 -0.058928 0.242479
-0.025459 -0.058926 0.242420
-0.024340 -0.059014 0.242729
-0.023192 -0.059039 0.242778
-0.022030 -0.059028 0.242686
-0.020731 -0.058628 0.240993
-0.019855 -0.059449 0.244318
-0.019851 -0.067347 0.276679
-0.019032 -0.069173 0.284132
-0.017682 -0.069204 0.284212
-0.016019 -0.067908 0.278848
-0.014731 -0.068112 0.279645
-0.013606 -0.069188 0.284024
-0.010981 -0.062032 0.254617
-0.009763 -0.062028 0.254568
-0.008969 -0.065094 0.267124
-0.007651 -0.064756 0.265708
-0.006307 -0.064012 0.262630
-0.005037 -0.063842 0.261911
-0.003782 -0.063801 0.261726
-0.002509 -0.063293 0.259625
-0.001266 -0.063266 0.259497
-0.000024 -0.062305 0.255543
0.001191 -0.061869 0.253745
0.002393 -0.061551 0.252435
0.003594 -0.061419 0.251889
0.004801 -0.061437 0.251960
0.005977 -0.061120 0.250660
0.007056 -0.060089 0.246434
0.008224 -0.060003 0.246084
0.009387 -0.059908 0.245699
0.010541 -0.059779 0.245182
0.011702 -0.059711 0.244913
0.012849 -0.059595 0.244450
0.013995 -0.059490 0.244035
0.015132 -0.059365 0.243538
0.016252 -0.059200 0.242879
0.017384 -0.059095 0.242466
0.018497 -0.058941 0.241860
0.019605 -0.058792 0.241272
0.020729 -0.058705 0.240941
0.021814 -0.058520 0.240207
0.022890 -0.058334 0.239475
0.024014 -0.058279 0.239278
0.025054 -0.058036 0.238311
0.026073 -0.057768 0.237246
0.027074 -0.057482 0.236105
0.028104 -0.057280 0.235314
0.029148 -0.057119 0.234690
0.030054 -0.056711 0.233052
0.031153 -0.056683 0.232975
0.032186 -0.056540 0.232426
0.033034 -0.056093 0.230630
0.034008 -0.055883 0.229806
0.035033 -0.055766 0.229368
0.036036 -0.055622 0.228821
0.036897 -0.055273 0.227429
0.037591 -0.054703 0.225127
0.038101 -0.053903 0.221879
0.038310 -0.052732 0.217102
0.037809 -0.050671 0.208656
0.037750 -0.049293 0.203023
0.038501 -0.049015 0.201920
0.038456 -0.047763 0.196801
0.039263 -0.047603 0.196182
0.039435 -0.046698 0.192488
0.040057 -0.046355 0.191112
0.040647 -0.045992 0.189654
0.041365 -0.045785 0.188837
0.042087 -0.045592 0.188079
0.042816 -0.045414 0.187381
0.043586 -0.045286 0.186889
0.044297 -0.045103 0.186166
0.044994 -0.044914 0.185419
0.045714 -0.044753 0.184788
0.046516 -0.044678 0.184510
0.047340 -0.044626 0.184326
0.048091 -0.044510 0.183873
0.048870 -0.044422 0.183539
0.049623 -0.044314 0.183119
0.050348 -0.044184 0.182610
0.051060 -0.044049 0.182073
0.051610 -0.043781 0.180987
0.052292 -0.043631 0.180387
0.052810 -0.043351 0.179250
0.053462 -0.043189 0.178596
0.054197 -0.043097 0.178232
0.054759 -0.042874 0.177320
0.055454 -0.042759 0.176856
0.056076 -0.042593 0.176175
0.056488 -0.042273 0.174860
0.057002 -0.042039 0.173895
0.057414 -0.041737 0.172648
0.057674 -0.041335 0.170980
0.058447 -0.041306 0.170858
0.058862 -0.041029 0.169703
0.059370 -0.040823 0.168840
0.059990 -0.040699 0.168314
0.060731 -0.040658 0.168132
0.061392 -0.040566 0.167733
0.061753 -0.040281 0.166530
0.061798 -0.039799 0.164512
0.062585 -0.039801 0.164494
0.063027 -0.039586 0.163574
0.063597 -0.039457 0.163003
0.064317 -0.039422 0.162818
0.064867 -0.039285 0.162211
0.065488 -0.039193 0.161786
0.066138 -0.039121 0.161437
0.066795 -0.039055 0.161109
0.067518 -0.039029 0.160939
0.067964 -0.038844 0.160114
0.068587 -0.038764 0.159714
0.069231 -0.038697 0.159366
0.069527 -0.038439 0.158227
0.069944 -0.038253 0.157378
0.070462 -0.038126 0.156767
0.070651 -0.037825 0.155436
0.070835 -0.037528 0.154118
0.071156 -0.037308 0.153114
0.071543 -0.037128 0.152265
0.072008 -0.036991 0.151589
0.073005 -0.037127 0.152028
0.074193 -0.037357 0.152843
0.074756 -0.037271 0.152354
0.075572 -0.037311 0.152379
0.076295 -0.037305 0.152206
0.076816 -0.037201 0.151627
0.077235 -0.037050 0.150849
0.077407 -0.036785 0.149600
0.077297 -0.036392 0.147826
0.077645 -0.036220 0.146943
-0.064710 -0.054826 0.232268
-0.063200 -0.054469 0.230701
-0.060987 -0.053482 0.226469
-0.058935 -0.052604 0.222696
-0.057079 -0.051872 0.219543
-0.056373 -0.052177 0.220781
-0.055605 -0.052435 0.221815
-0.054573 -0.052451 0.221823
-0.053642 -0.052565 0.222245
-0.052698 -0.052671 0.222635
-0.051704 -0.052731 0.222825
-0.051388 -0.053498 0.226003
-0.050454 -0.053642 0.226546
-0.049507 -0.053778 0.227056
-0.048623 -0.053989 0.227884
-0.047727 -0.054196 0.228692
-0.046804 -0.054383 0.229414
-0.045868 -0.054562 0.230104
-0.044929 -0.054746 0.230812
-0.043983 -0.054932 0.231530
-0.042985 -0.055060 0.232001
-0.042012 -0.055228 0.232641
-0.041025 -0.055385 0.233235
-0.040041 -0.055556 0.233888
-0.039035 -0.055705 0.234450
-0.038050 -0.055895 0.235184
-0.037075 -0.056111 0.236024
-0.036085 -0.056317 0.236824
-0.035058 -0.056477 0.237433
-0.034013 -0.056617 0.237958
-0.033018 -0.056853 0.238885
-0.031977 -0.057023 0.239539
-0.031009 -0.057344 0.240824
-0.029950 -0.057512 0.241470
-0.028820 -0.057552 0.241576
-0.027726 -0.057670 0.242016
-0.026628 -0.057791 0.242465
-0.025491 -0.057834 0.242592
-0.024345 -0.057862 0.242653
-0.023228 -0.057963 0.243024
-0.022075 -0.057980 0.243047
-0.020913 -0.057974 0.242971
-0.019887 -0.058368 0.244576
-0.018781 -0.058560 0.245333
-0.017630 -0.058629 0.245578
-0.016508 -0.058815 0.246314
-0.017806 -0.068306 0.286015
-0.016445 -0.068334 0.286090
-0.014947 -0.067742 0.283567
-0.013629 -0.067932 0.284326
-0.010802 -0.059809 0.250293
-0.009567 -0.059573 0.249277
-0.008496 -0.060434 0.252848
-0.007449 -0.061786 0.258482
-0.006307 -0.062733 0.262419
-0.005033 -0.062501 0.261424
-0.003767 -0.062272 0.260447
-0.002520 -0.062255 0.260359
-0.001267 -0.061936 0.259009
-0.000026 -0.061178 0.255829
0.001192 -0.060861 0.254492
0.002396 -0.060468 0.252840
0.003602 -0.060388 0.252501
0.004811 -0.060389 0.252506
0.005995 -0.060134 0.251436
0.007055 -0.058929 0.246400
0.008184 -0.058557 0.244852
0.009372 -0.058650 0.245247
0.010555 -0.058697 0.245452
0.011697 -0.058529 0.244758
0.012863 -0.058500 0.244653
0.014019 -0.058430 0.244376
0.015159 -0.058316 0.243914
0.016309 -0.058248 0.243647
0.017436 -0.058114 0.243111
0.018545 -0.057941 0.242410
0.019661 -0.057810 0.241885
0.020778 -0.057696 0.241435
0.021866 -0.057514 0.240703
0.022926 -0.057284 0.239769
0.024067 -0.057266 0.239727
0.025131 -0.057076 0.238964
0.026168 -0.056846 0.238035
0.027101 -0.056416 0.236271
0.028150 -0.056252 0.235623
0.029155 -0.056016 0.234670
0.030125 -0.055734 0.233530
0.031200 -0.055658 0.233252
0.032164 -0.055396 0.232196
0.033078 -0.055069 0.230868
0.034157 -0.055030 0.230745
0.035131 -0.054828 0.229942
0.036106 -0.054639 0.229194
0.037119 -0.054518 0.228734
0.037432 -0.053405 0.224107
0.037493 -0.052004 0.218273
0.037818 -0.051035 0.214250
0.038046 -0.049991 0.209909
0.038308 -0.049042 0.205970
0.038686 -0.048287 0.202840
0.038620 -0.047027 0.197589
0.038682 -0.045980 0.193228
0.039358 -0.045694 0.192068
0.040179 -0.045586 0.191652
0.040913 -0.045386 0.190850
0.041489 -0.045022 0.189361
0.042225 -0.044845 0.188653
0.042778 -0.044485 0.187175
0.043622 -0.044436 0.187007
0.044382 -0.044304 0.186490
0.045082 -0.044120 0.185747
0.045811 -0.043970 0.185149
0.046586 -0.043869 0.184757
0.047415 -0.043821 0.184590
0.048152 -0.043692 0.184077
0.048846 -0.043530 0.183423
0.049551 -0.043382 0.182830
0.050303 -0.043280 0.182427
0.051012 -0.043145 0.181881
0.051567 -0.042887 0.180817
0.052042 -0.042572 0.179510
0.052656 -0.042378 0.178712
0.053419 -0.042308 0.178438
0.054067 -0.042151 0.177793
0.054664 -0.041960 0.177001
0.055063 -0.041626 0.175601
0.055558 -0.041372 0.174542
0.055861 -0.040985 0.172918
0.056661 -0.040969 0.172853
0.057293 -0.040833 0.172283
0.057709 -0.040549 0.171086
0.058176 -0.040309 0.170068
0.058905 -0.040254 0.169832
0.059391 -0.040036 0.168907
0.059891 -0.039835 0.168044
0.060621 -0.039789 0.167838
0.061363 -0.039752 0.167665
0.061983 -0.039638 0.167166
0.062126 -0.039226 0.165403
0.062755 -0.039127 0.164960
0.063338 -0.039002 0.164402
0.063873 -0.038851 0.163732
0.064473 -0.038743 0.163238
0.064995 -0.038591 0.162558
0.065519 -0.038443 0.161890
0.066028 -0.038291 0.161199
0.066665 -0.038215 0.160829
0.067283 -0.038130 0.160414
0.067791 -0.037986 0.159743
0.068356 -0.037876 0.159217
0.068924 -0.037770 0.158700
0.069243 -0.037532 0.157624
0.069734 -0.037391 0.156952
0.070207 -0.037243 0.156247
0.070400 -0.036952 0.154933
0.070825 -0.036787 0.154147
0.071107 -0.036552 0.153064
0.071431 -0.036343 0.152084
0.072063 -0.036293 0.151764
0.072883 -0.036339 0.151837
0.074096 -0.036577 0.152707
0.074654 -0.036490 0.152215
0.075336 -0.036465 0.151972
0.076229 -0.036542 0.152147
0.076669 -0.036402 0.151411
0.076988 -0.036208 0.150445
0.077333 -0.036029 0.149537
0.077185 -0.035627 0.147695
0.077356 -0.035377 0.146481
-0.066506 -0.054300 0.234753
-0.064784 -0.053788 0.232490
-0.061886 -0.052266 0.225858
-0.060551 -0.052034 0.224802
-0.059084 -0.051678 0.223209
-0.057638 -0.051329 0.221644
-0.056664 -0.051394 0.221866
-0.055674 -0.051447 0.222035
-0.054734 -0.051550 0.222419
-0.053814 -0.051676 0.222900
-0.052814 -0.051728 0.223064
-0.051865 -0.051833 0.223452
-0.051007 -0.052036 0.224265
-0.050552 -0.052667 0.226918
-0.049715 -0.052919 0.227938
-0.048709 -0.052998 0.228211
-0.047781 -0.053169 0.228879
-0.046864 -0.053359 0.229627
-0.045917 -0.053524 0.230271
-0.045077 -0.053824 0.231492
-0.044174 -0.054063 0.232451
-0.043194 -0.054216 0.233039
-0.042208 -0.054371 0.233634
-0.041203 -0.054509 0.234158
-0.040183 -0.054634 0.234627
-0.039200 -0.054818 0.235350
-0.038179 -0.054958 0.235884
-0.037205 -0.055176 0.236752
-0.036203 -0.055366 0.237496
-0.035180 -0.055534 0.238153
-0.034147 -0.055698 0.238791
-0.033127 -0.055894 0.239564
-0.032061 -0.056025 0.240062
-0.031003 -0.056179 0.240660
-0.029980 -0.056413 0.241598
-0.028887 -0.056525 0.242019
-0.027789 -0.056640 0.242451
-0.026680 -0.056741 0.242824
-0.025548 -0.056799 0.243015
