ply
format ascii 1.0
element vertex 1689
property float x
property float y
property float z
end_header
0.074770 -0.040740 0.160769
0.075488 -0.040711 0.160535
0.075924 -0.040532 0.159702
0.076366 -0.040359 0.158890
0.076857 -0.040216 0.158188
0.077086 -0.039939 0.156957
0.077521 -0.039774 0.156155
0.077776 -0.039520 0.155002
0.078263 -0.039388 0.154320
0.079016 -0.039391 0.154158
0.079258 -0.039141 0.153003
0.080256 -0.039266 0.153302
0.081427 -0.039473 0.153910
-0.049985 -0.053023 0.215535
-0.049632 -0.053745 0.218410
-0.048943 -0.054125 0.219895
-0.048107 -0.054354 0.220768
-0.047092 -0.054388 0.220847
-0.046033 -0.054372 0.220720
-0.045261 -0.054701 0.221996
-0.053703 -0.068066 0.276085
-0.051837 -0.067341 0.273066
-0.041137 -0.057768 0.234057
-0.040067 -0.057826 0.234228
-0.038840 -0.057655 0.233472
-0.037469 -0.057253 0.231782
-0.036306 -0.057155 0.231321
-0.035252 -0.057228 0.231556
-0.034284 -0.057449 0.232388
-0.033302 -0.057662 0.233191
-0.032227 -0.057722 0.233375
-0.031192 -0.057861 0.233877
-0.030203 -0.058099 0.234781
-0.029202 -0.058331 0.235661
-0.028294 -0.058776 0.237403
-0.027190 -0.058833 0.237579
-0.026179 -0.059105 0.238624
-0.025081 -0.059196 0.238939
-0.024005 -0.059351 0.239515
-0.022958 -0.059596 0.240452
-0.021778 -0.059505 0.240039
-0.020671 -0.059614 0.240431
-0.019566 -0.059742 0.240902
-0.018432 -0.059792 0.241059
-0.017300 -0.059855 0.241269
-0.016170 -0.059936 0.241557
-0.014994 -0.059845 0.241154
-0.016380 -0.070815 0.285314
-0.015023 -0.070842 0.285382
-0.013527 -0.070152 0.282565
-0.012224 -0.070424 0.283626
-0.010672 -0.069148 0.278452
-0.009309 -0.068913 0.277476
-0.007964 -0.068753 0.276805
-0.006587 -0.068203 0.274565
-0.005252 -0.067913 0.273375
-0.003920 -0.067479 0.271610
-0.002603 -0.067013 0.269714
-0.001306 -0.066681 0.268366
-0.000022 -0.066216 0.266481
0.001238 -0.065441 0.263353
0.002480 -0.064954 0.261384
0.003740 -0.065116 0.262030
0.004977 -0.064902 0.261166
0.006155 -0.064153 0.258152
0.007288 -0.063267 0.254588
0.008480 -0.063068 0.253792
0.009664 -0.062867 0.252990
0.010824 -0.062577 0.251830
0.011999 -0.062419 0.251202
0.013100 -0.061940 0.249287
0.014200 -0.061536 0.247676
0.015285 -0.061135 0.246080
0.016449 -0.061085 0.245894
0.017511 -0.060686 0.244310
0.018632 -0.060529 0.243700
0.019779 -0.060471 0.243489
0.020888 -0.060309 0.242863
0.022000 -0.060171 0.242333
0.023104 -0.060029 0.241788
0.024206 -0.059894 0.241274
0.025325 -0.059810 0.240970
0.026393 -0.059618 0.240228
0.027485 -0.059494 0.239764
0.028531 -0.059286 0.238958
0.029611 -0.059161 0.238494
0.030680 -0.059024 0.237979
0.031716 -0.058835 0.237254
0.032731 -0.058623 0.236438
0.033672 -0.058295 0.235158
0.034712 -0.058155 0.234631
0.035615 -0.057801 0.233245
0.036467 -0.057388 0.231621
0.037518 -0.057304 0.231326
0.038467 -0.057073 0.230436
0.039354 -0.056766 0.229240
0.040340 -0.056613 0.228666
0.041344 -0.056494 0.228229
0.042198 -0.056180 0.227005
0.043040 -0.055867 0.225783
0.043912 -0.055608 0.224778
0.044385 -0.054867 0.221826
0.043890 -0.052991 0.214284
0.044032 -0.051953 0.210129
0.044452 -0.051282 0.207451
0.043373 -0.048948 0.198049
0.043985 -0.048581 0.196599
0.044347 -0.047959 0.194120
0.044973 -0.047643 0.192873
0.045409 -0.047141 0.190875
0.045991 -0.046808 0.189558
0.046661 -0.046575 0.188648
0.047330 -0.046350 0.187768
0.047872 -0.046012 0.186427
0.048626 -0.045886 0.185943
0.049352 -0.045739 0.185373
0.050040 -0.045561 0.184680
0.050746 -0.045407 0.184077
0.051481 -0.045283 0.183595
0.052222 -0.045167 0.183149
0.052947 -0.045043 0.182665
0.053663 -0.044914 0.182158
0.054370 -0.044783 0.181641
0.055100 -0.044674 0.181212
0.055812 -0.044555 0.180738
0.056511 -0.044428 0.180233
0.057249 -0.044336 0.179866
0.057925 -0.044199 0.179313
0.058564 -0.044038 0.178661
0.059170 -0.043857 0.177927
0.059808 -0.043704 0.177304
0.060288 -0.043443 0.176236
0.060848 -0.043245 0.175423
0.061545 -0.043148 0.175019
0.061930 -0.042838 0.173745
0.062508 -0.042668 0.173039
0.062720 -0.042256 0.171345
0.063297 -0.042097 0.170678
0.063785 -0.041884 0.169784
0.064312 -0.041701 0.169011
0.064507 -0.041310 0.167393
0.065140 -0.041206 0.166933
0.065554 -0.040967 0.165923
0.065912 -0.040700 0.164795
0.066776 -0.040748 0.164937
0.068191 -0.041126 0.166415
0.068874 -0.041060 0.166087
0.069535 -0.040982 0.165708
0.070013 -0.040800 0.164902
0.070596 -0.040681 0.164350
0.071101 -0.040521 0.163625
0.071506 -0.040309 0.162684
0.072083 -0.040196 0.162142
0.072610 -0.040058 0.161493
0.073150 -0.039931 0.160880
0.073875 -0.039905 0.160674
0.074411 -0.039780 0.160060
0.075102 -0.039739 0.159779
0.075672 -0.039635 0.159240
0.076101 -0.039460 0.158408
0.076675 -0.039364 0.157885
0.077008 -0.039146 0.156872
0.077345 -0.038935 0.155879
0.077640 -0.038707 0.154812
0.078055 -0.038542 0.153992
0.078649 -0.038469 0.153529
0.079056 -0.038305 0.152701
0.079956 -0.038382 0.152822
0.080974 -0.038513 0.153149
-0.053388 -0.054431 0.225608
-0.051060 -0.053119 0.220110
-0.050005 -0.053103 0.219985
-0.049192 -0.053349 0.220945
-0.048275 -0.053492 0.221475
-0.047412 -0.053701 0.222277
-0.046460 -0.053817 0.222696
-0.045322 -0.053718 0.222223
-0.045288 -0.054954 0.227271
-0.044241 -0.054991 0.227359
-0.043025 -0.054814 0.226567
-0.042097 -0.055005 0.227291
-0.041129 -0.055153 0.227839
-0.040251 -0.055432 0.228924
-0.039265 -0.055575 0.229451
-0.038304 -0.055760 0.230152
-0.037372 -0.056002 0.231087
-0.036427 -0.056238 0.231996
-0.035428 -0.056403 0.232615
-0.034399 -0.056529 0.233071
-0.033407 -0.056725 0.233818
-0.032393 -0.056897 0.234467
-0.031492 -0.057288 0.236018
-0.030503 -0.057541 0.236999
-0.029460 -0.057709 0.237632
-0.028380 -0.057814 0.238010
-0.027307 -0.057943 0.238482
-0.026230 -0.058074 0.238968
-0.025140 -0.058187 0.239380
-0.024052 -0.058315 0.239853
-0.022922 -0.058351 0.239952
-0.021826 -0.058481 0.240435
-0.020730 -0.058625 0.240981
-0.019618 -0.058738 0.241398
-0.018490 -0.058816 0.241675
-0.017359 -0.058895 0.241955
-0.016238 -0.059020 0.242429
-0.015201 -0.059493 0.244331
-0.016509 -0.069985 0.287377
-0.015142 -0.070012 0.287445
-0.013705 -0.069691 0.286089
-0.012260 -0.069258 0.284275
-0.010768 -0.068410 0.280763
-0.009325 -0.067680 0.277733
-0.007946 -0.067255 0.275962
-0.006611 -0.067097 0.275288
-0.005272 -0.066821 0.274132
-0.003956 -0.066738 0.273772
-0.002634 -0.066455 0.272595
-0.001310 -0.065447 0.268444
-0.000025 -0.064915 0.266251
0.001232 -0.063979 0.262402
0.002476 -0.063684 0.261182
0.003714 -0.063473 0.260312
0.004962 -0.063496 0.260404
0.006167 -0.063069 0.258654
0.007295 -0.062128 0.254796
0.008444 -0.061611 0.252678
0.009592 -0.061217 0.251071
0.010786 -0.061166 0.250870
0.011996 -0.061212 0.251069
0.013096 -0.060741 0.249149
0.014162 -0.060201 0.246951
0.015265 -0.059888 0.245681
0.016420 -0.059810 0.245382
0.017524 -0.059569 0.244413
0.018641 -0.059399 0.243738
0.019781 -0.059321 0.243442
0.020896 -0.059178 0.242883
0.022011 -0.059051 0.242387
0.023138 -0.058966 0.242066
0.024250 -0.058853 0.241634
0.025378 -0.058786 0.241394
0.026474 -0.058655 0.240887
0.027562 -0.058519 0.240367
0.028636 -0.058365 0.239768
0.029678 -0.058159 0.238960
0.030757 -0.058038 0.238502
0.031821 -0.057899 0.237973
0.032812 -0.057640 0.236950
0.033748 -0.057305 0.235615
0.034817 -0.057213 0.235276
0.035665 -0.056772 0.233508
0.036495 -0.056331 0.231736
0.037147 -0.055649 0.228975
0.038388 -0.055863 0.229899
0.039391 -0.055727 0.229388
0.040259 -0.055414 0.228144
0.041341 -0.055404 0.228147
0.042247 -0.055166 0.227211
0.043232 -0.055039 0.226735
0.044112 -0.054787 0.225744
0.045023 -0.054586 0.224959
0.044331 -0.052495 0.216386
0.044374 -0.051351 0.211712
0.042616 -0.048219 0.198837
0.043323 -0.047953 0.197779
0.044065 -0.047735 0.196919
0.044865 -0.047588 0.196349
0.045380 -0.047150 0.194581
0.045497 -0.046325 0.191211
0.045583 -0.045501 0.187842
0.046317 -0.045343 0.187225
0.047212 -0.045346 0.187270
0.047855 -0.045112 0.186331
0.048594 -0.044975 0.185797
0.049406 -0.044909 0.185552
0.050081 -0.044723 0.184809
0.050790 -0.044572 0.184213
0.051519 -0.044445 0.183712
0.052305 -0.044370 0.183424
0.053062 -0.044273 0.183045
0.053788 -0.044154 0.182572
0.054586 -0.044097 0.182350
0.055299 -0.043974 0.181859
0.056038 -0.043876 0.181463
0.056782 -0.043783 0.181092
0.057445 -0.043633 0.180477
0.057808 -0.043262 0.178948
0.058504 -0.043147 0.178476
0.059155 -0.043003 0.177882
0.059646 -0.042748 0.176826
0.060344 -0.042647 0.176403
0.060897 -0.042447 0.175569
0.061554 -0.042325 0.175053
0.061951 -0.042029 0.173816
0.062455 -0.041812 0.172903
0.062820 -0.041510 0.171635
0.063318 -0.041301 0.170749
0.063777 -0.041074 0.169783
0.064300 -0.040892 0.169001
0.064785 -0.040691 0.168137
0.065273 -0.040496 0.167297
0.065643 -0.040234 0.166175
0.065949 -0.039940 0.164917
0.066716 -0.039929 0.164821
0.068466 -0.040499 0.167121
0.069123 -0.040416 0.166723
0.069581 -0.040221 0.165857
0.070258 -0.040155 0.165518
0.070793 -0.040011 0.164852
0.071175 -0.039784 0.163842
0.071673 -0.039626 0.163110
0.072212 -0.039494 0.162481
0.072638 -0.039304 0.161608
0.073251 -0.039217 0.161157
0.073746 -0.039070 0.160452
0.074272 -0.038942 0.159819
0.074915 -0.038878 0.159441
0.075359 -0.038713 0.158645
0.075769 -0.038533 0.157784
0.076238 -0.038387 0.157055
0.076657 -0.038219 0.156229
0.077059 -0.038045 0.155377
0.077449 -0.037869 0.154508
0.077872 -0.037712 0.153710
0.078359 -0.037590 0.153046
0.078884 -0.037487 0.152454
0.079945 -0.037638 0.152889
0.080711 -0.037650 0.152744
-0.059104 -0.055736 0.235776
-0.058065 -0.055807 0.236017
-0.056239 -0.055110 0.233007
-0.053455 -0.053428 0.225832
-0.051405 -0.052426 0.221535
-0.050448 -0.052520 0.221871
-0.049513 -0.052642 0.222323
-0.048599 -0.052791 0.222889
-0.047610 -0.052864 0.223136
-0.046612 -0.052931 0.223353
-0.045728 -0.053132 0.224138
-0.044966 -0.053489 0.225577
-0.044352 -0.054044 0.227852
-0.043287 -0.054062 0.227863
-0.042260 -0.054132 0.228089
-0.041351 -0.054359 0.228981
-0.040362 -0.054491 0.229469
-0.039384 -0.054645 0.230052
-0.038413 -0.054818 0.230717
-0.037450 -0.055014 0.231476
-0.036537 -0.055296 0.232597
-0.035559 -0.055496 0.233373
-0.034496 -0.055571 0.233625
-0.033484 -0.055736 0.234256
-0.032555 -0.056056 0.235536
-0.031595 -0.056343 0.236681
-0.030618 -0.056620 0.237783
-0.029551 -0.056745 0.238248
-0.028467 -0.056847 0.238620
-0.027395 -0.056983 0.239132
-0.026288 -0.057054 0.239374
-0.025192 -0.057156 0.239748
-0.024105 -0.057291 0.240258
-0.022974 -0.057329 0.240367
-0.021860 -0.057415 0.240679
-0.020774 -0.057589 0.241357
-0.019660 -0.057702 0.241782
-0.018534 -0.057790 0.242107
-0.017405 -0.057881 0.242443
-0.016281 -0.058003 0.242915
-0.015155 -0.058139 0.243444
-0.014100 -0.058587 0.245282
-0.013069 -0.059232 0.247947
-0.012007 -0.059847 0.250487
-0.012251 -0.067830 0.283859
-0.010958 -0.068235 0.285521
-0.009484 -0.067463 0.282259
-0.008087 -0.067076 0.280611
-0.006695 -0.066587 0.278540
-0.005231 -0.064965 0.271733
-0.003630 -0.060002 0.250952
-0.002431 -0.060055 0.251157
-0.001314 -0.064260 0.268730
-0.000027 -0.063285 0.264637
0.001222 -0.062371 0.260808
0.002462 -0.062148 0.259865
0.003718 -0.062334 0.260641
0.004935 -0.061941 0.258993
0.006150 -0.061685 0.257922
0.007298 -0.060957 0.254881
0.008469 -0.060601 0.253396
0.009638 -0.060319 0.252225
0.010871 -0.060456 0.252805
0.012027 -0.060179 0.251660
0.013160 -0.059847 0.250285
0.014090 -0.058728 0.245618
0.015251 -0.058669 0.245392
0.016439 -0.058711 0.245587
0.017544 -0.058477 0.244627
0.018671 -0.058335 0.244056
0.019806 -0.058234 0.243662
0.020930 -0.058117 0.243196
0.022038 -0.057968 0.242604
0.023156 -0.057858 0.242173
0.024295 -0.057809 0.242000
0.025402 -0.057693 0.241549
0.026495 -0.057556 0.241009
0.027589 -0.057432 0.240525
0.028666 -0.057284 0.239943
0.029703 -0.057070 0.239086
0.030833 -0.057044 0.239017
0.031813 -0.056751 0.237833
0.032800 -0.056492 0.236791
0.033805 -0.056280 0.235945
0.034847 -0.056141 0.235407
0.035724 -0.055754 0.233825
0.036634 -0.055439 0.232552
0.037739 -0.055428 0.232552
0.038636 -0.055123 0.231316
0.039492 -0.054777 0.229913
0.040376 -0.054488 0.228745
0.041380 -0.054371 0.228302
0.042269 -0.054113 0.227267
0.043220 -0.053946 0.226610
0.044168 -0.053783 0.225973
0.044666 -0.053092 0.223119
0.044496 -0.051659 0.217140
0.043485 -0.049337 0.207422
0.043669 -0.048442 0.203704
0.044063 -0.047816 0.201113
0.044615 -0.047384 0.199333
0.043953 -0.045707 0.192318
0.044735 -0.045570 0.191778
0.045465 -0.045385 0.191039
0.046152 -0.045167 0.190155
0.046598 -0.044725 0.188329
0.047307 -0.044548 0.187617
0.047980 -0.044344 0.186792
0.048700 -0.044190 0.186173
0.049487 -0.044101 0.185831
0.050208 -0.043957 0.185252
0.050890 -0.043785 0.184554
0.051611 -0.043652 0.184018
0.052302 -0.043498 0.183394
0.053039 -0.043387 0.182947
0.053761 -0.043267 0.182464
0.054402 -0.043087 0.181722
0.055095 -0.042954 0.181176
0.055848 -0.042869 0.180836
0.056536 -0.042739 0.180299
0.057160 -0.042565 0.179575
0.057750 -0.042371 0.178765
0.058378 -0.042210 0.178091
0.059021 -0.042064 0.177478
0.059522 -0.041823 0.176461
0.059956 -0.041542 0.175273
0.060701 -0.041482 0.175012
0.061009 -0.041127 0.173509
0.061728 -0.041056 0.173198
0.062410 -0.040963 0.172790
0.062858 -0.040721 0.171751
0.063319 -0.040492 0.170767
0.063814 -0.040292 0.169898
0.064410 -0.040159 0.169308
0.064856 -0.039937 0.168344
0.065341 -0.039744 0.167495
0.065678 -0.039467 0.166288
0.066076 -0.039233 0.165261
0.066753 -0.039168 0.164941
0.068201 -0.039551 0.166504
0.069147 -0.039638 0.166815
0.069637 -0.039464 0.166025
0.070150 -0.039307 0.165302
0.070832 -0.039248 0.164983
0.071302 -0.039074 0.164177
0.071736 -0.038883 0.163299
0.072280 -0.038756 0.162682
0.072715 -0.038573 0.161827
0.073238 -0.038442 0.161181
0.073798 -0.038331 0.160618
0.074308 -0.038197 0.159952
0.074765 -0.038039 0.159181
0.075121 -0.037834 0.158205
0.075613 -0.037700 0.157522
0.076081 -0.037557 0.156797
0.076301 -0.037295 0.155572
0.076744 -0.037147 0.154812
0.077228 -0.037021 0.154141
0.077596 -0.036842 0.153243
0.078139 -0.036749 0.152695
0.078555 -0.036599 0.151901
0.079424 -0.036660 0.151978
0.080432 -0.036784 0.152305
-0.058225 -0.053805 0.232211
-0.056994 -0.053678 0.231602
-0.055202 -0.053009 0.228650
-0.053354 -0.052257 0.225344
-0.051511 -0.051479 0.221928
-0.050562 -0.051582 0.222306
-0.049623 -0.051699 0.222747
-0.048714 -0.051854 0.223351
-0.047753 -0.051959 0.223733
-0.046777 -0.052052 0.224070
-0.045891 -0.052251 0.224861
-0.044996 -0.052450 0.225649
-0.044305 -0.052903 0.227528
-0.043350 -0.053054 0.228113
-0.042420 -0.053245 0.228863
-0.041454 -0.053400 0.229464
-0.040480 -0.053552 0.230050
-0.039508 -0.053716 0.230687
-0.038579 -0.053949 0.231620
-0.037600 -0.054125 0.232306
-0.036584 -0.054256 0.232802
-0.035587 -0.054423 0.233453
-0.034557 -0.054551 0.233936
-0.033487 -0.054621 0.234171
-0.032659 -0.055104 0.236181
-0.031641 -0.055292 0.236919
-0.030615 -0.055477 0.237650
-0.029606 -0.055709 0.238585
-0.028543 -0.055853 0.239141
-0.027471 -0.055991 0.239673
-0.026374 -0.056088 0.240031
-0.025286 -0.056216 0.240520
-0.024192 -0.056341 0.241001
-0.023078 -0.056428 0.241321
-0.021960 -0.056516 0.241646
-0.020852 -0.056641 0.242128
-0.019729 -0.056739 0.242500
-0.018628 -0.056913 0.243199
-0.017498 -0.057017 0.243599
-0.016363 -0.057120 0.243994
-0.015251 -0.057327 0.244839
-0.014105 -0.057424 0.245214
-0.012941 -0.057465 0.245353
-0.011804 -0.057645 0.246087
-0.010677 -0.057915 0.247209
-0.009518 -0.058064 0.247812
-0.009501 -0.066212 0.282554
-0.007969 -0.064750 0.276285
-0.006629 -0.064589 0.275573
-0.004820 -0.058625 0.250105
-0.003595 -0.058186 0.248216
-0.002406 -0.058182 0.248179
-0.001225 -0.058582 0.249874
-0.000029 -0.060665 0.258744
0.001221 -0.061206 0.261042
0.002463 -0.061000 0.260156
0.003699 -0.060814 0.259360
0.004924 -0.060597 0.258432
0.006149 -0.060466 0.257871
0.007314 -0.059887 0.255405
0.008481 -0.059487 0.253705
0.009590 -0.058830 0.250911
0.010828 -0.059022 0.251738
0.012023 -0.058966 0.251511
0.013085 -0.058328 0.248801
0.014136 -0.057751 0.246359
0.015267 -0.057562 0.245572
0.016470 -0.057654 0.245983
0.017593 -0.057473 0.245230
0.018701 -0.057267 0.244376
0.019837 -0.057165 0.243967
0.020983 -0.057104 0.243735
0.022110 -0.056998 0.243311
0.023232 -0.056892 0.242892
0.024358 -0.056805 0.242552
0.025464 -0.056681 0.242059
0.026566 -0.056558 0.241569
0.027637 -0.056383 0.240858
0.028758 -0.056320 0.240629
0.029784 -0.056084 0.239660
0.030863 -0.055960 0.239175
0.031901 -0.055773 0.238415
0.032891 -0.055519 0.237374
0.033845 -0.055223 0.236152
0.034893 -0.055093 0.235643
0.035813 -0.054776 0.234333
0.036849 -0.054650 0.233841
0.037630 -0.054165 0.231815
0.038690 -0.054098 0.231575
0.039634 -0.053876 0.230674
0.040439 -0.053482 0.229036
0.041527 -0.053475 0.229054
0.042518 -0.053345 0.228547
0.043382 -0.053067 0.227403
0.044223 -0.052775 0.226199
0.044155 -0.051437 0.220512
0.043679 -0.049697 0.213102
0.043477 -0.048342 0.207336
0.044120 -0.047965 0.205762
0.043737 -0.046514 0.199580
0.044030 -0.045827 0.196675
0.044332 -0.045180 0.193937
0.044349 -0.044274 0.190085
0.045181 -0.044201 0.189810
0.046031 -0.044148 0.189621
0.046739 -0.043964 0.188866
0.047401 -0.043744 0.187959
0.048067 -0.043536 0.187098
0.048777 -0.043375 0.186440
0.049582 -0.043303 0.186161
0.050216 -0.043085 0.185256
0.050924 -0.042939 0.184655
0.051574 -0.042749 0.183865
0.052395 -0.042704 0.183700
0.053110 -0.042577 0.183175
0.053772 -0.042411 0.182485
0.054458 -0.042269 0.181896
0.055161 -0.042145 0.181379
0.055836 -0.042003 0.180786
0.056549 -0.041894 0.180330
0.057086 -0.041660 0.179334
0.057464 -0.041318 0.177873
0.058299 -0.041310 0.177847
0.058754 -0.041037 0.176674
0.059148 -0.040729 0.175352
0.059755 -0.040575 0.174686
0.060432 -0.040472 0.174238
0.061037 -0.040324 0.173595
0.061584 -0.040142 0.172803
0.062239 -0.040034 0.172328
0.062813 -0.039878 0.171639
0.063288 -0.039663 0.170697
0.063871 -0.039521 0.170065
0.064443 -0.039376 0.169413
0.064963 -0.039203 0.168640
0.065458 -0.039019 0.167818
0.065923 -0.038822 0.166932
0.066108 -0.038467 0.165366
0.066977 -0.038513 0.165521
0.068526 -0.038945 0.167329
0.069224 -0.038888 0.167033
0.069615 -0.038663 0.166007
0.070351 -0.038632 0.165812
0.070900 -0.038500 0.165180
0.071478 -0.038387 0.164623
0.071950 -0.038219 0.163829
0.072376 -0.038032 0.162944
0.072877 -0.037887 0.162237
0.073231 -0.037669 0.161215
0.073792 -0.037561 0.160657
0.074162 -0.037360 0.159693
0.074552 -0.037173 0.158785
0.075060 -0.037047 0.158136
0.075342 -0.036814 0.157021
0.075752 -0.036647 0.156183
0.076256 -0.036528 0.155546
0.076570 -0.036321 0.154529
0.077035 -0.036190 0.153826
0.077438 -0.036032 0.153005
0.077918 -0.035913 0.152339
0.078236 -0.035721 0.151363
0.079276 -0.035860 0.151778
0.080194 -0.035942 0.151941
-0.058561 -0.053007 0.233491
-0.057144 -0.052718 0.232154
-0.055693 -0.052385 0.230622
-0.053888 -0.051699 0.227533
-0.051486 -0.050401 0.221757
-0.050476 -0.050439 0.221861
-0.049632 -0.050650 0.222719
-0.048769 -0.050850 0.223532
-0.047886 -0.051036 0.224284
-0.046951 -0.051175 0.224826
-0.046024 -0.051330 0.225437
-0.045193 -0.051601 0.226561
-0.044331 -0.051849 0.227581
-0.043423 -0.052055 0.228412
-0.042531 -0.052291 0.229379
-0.041558 -0.052437 0.229949
-0.040602 -0.052613 0.230652
-0.039665 -0.052824 0.231509
-0.038733 -0.053054 0.232447
-0.037725 -0.053191 0.232980
-0.036711 -0.053328 0.233509
-0.035711 -0.053493 0.234165
-0.034659 -0.053591 0.234525
-0.033606 -0.053691 0.234898
-0.032600 -0.053877 0.235649
-0.031717 -0.054286 0.237373
-0.030651 -0.054402 0.237813
-0.029611 -0.054575 0.238508
-0.028553 -0.054727 0.239110
-0.027460 -0.054821 0.239463
-0.026385 -0.054960 0.240012
-0.025296 -0.055083 0.240491
-0.024203 -0.055209 0.240986
-0.023109 -0.055344 0.241521
-0.022003 -0.055465 0.241993
-0.020886 -0.055567 0.242390
-0.019774 -0.055699 0.242918
-0.018662 -0.055844 0.243499
-0.017548 -0.056004 0.244154
-0.016417 -0.056129 0.244655
-0.015304 -0.056339 0.245529
-0.014150 -0.056422 0.245850
-0.013000 -0.056537 0.246313
-0.011843 -0.056639 0.246725
-0.010673 -0.056699 0.246953
-0.009502 -0.056770 0.247229
-0.008374 -0.057147 0.248842
-0.007263 -0.057788 0.251607
-0.006045 -0.057667 0.251056
-0.004807 -0.057248 0.249212
-0.003620 -0.057352 0.249645
-0.002423 -0.057354 0.249638
-0.001229 -0.057420 0.249907
-0.000031 -0.057535 0.250399
0.001195 -0.058814 0.255955
0.002469 -0.059943 0.260860
0.003694 -0.059530 0.259057
0.004902 -0.059128 0.257305
0.006147 -0.059239 0.257791
0.007295 -0.058533 0.254721
0.008504 -0.058449 0.254358
0.009673 -0.058140 0.253023
0.010825 -0.057815 0.251618
0.011975 -0.057544 0.250450
0.013042 -0.056959 0.247917
0.014167 -0.056706 0.246832
0.015341 -0.056668 0.246689
0.016504 -0.056602 0.246422
0.017621 -0.056396 0.245547
0.018738 -0.056214 0.244779
0.019862 -0.056074 0.244198
0.021017 -0.056035 0.244054
0.022144 -0.055925 0.243605
0.023271 -0.055829 0.243220
0.024394 -0.055731 0.242830
0.025524 -0.055659 0.242549
0.026663 -0.055609 0.242372
0.027734 -0.055429 0.241626
0.028769 -0.055195 0.240646
0.029871 -0.055103 0.240284
0.030994 -0.055053 0.240110
0.031922 -0.054673 0.238499
0.032976 -0.054529 0.237912
0.033983 -0.054318 0.237038
0.035000 -0.054136 0.236291
0.035963 -0.053884 0.235242
0.036712 -0.053337 0.232902
0.037594 -0.053011 0.231525
0.038677 -0.052978 0.231430
0.039599 -0.052731 0.230402
0.040542 -0.052526 0.229557
0.041553 -0.052418 0.229133
0.042483 -0.052214 0.228294
0.043471 -0.052092 0.227809
0.044268 -0.051751 0.226367
0.045267 -0.051658 0.226011
0.043889 -0.048918 0.214074
0.044511 -0.048482 0.212214
0.043087 -0.045887 0.200899
0.043738 -0.045567 0.199540
0.043696 -0.044553 0.195143
0.044185 -0.044111 0.193250
0.044406 -0.043426 0.190289
0.045351 -0.043462 0.190485
0.046137 -0.043347 0.190023
0.046632 -0.042969 0.188401
0.047302 -0.042762 0.187531
0.048023 -0.042609 0.186899
0.048793 -0.042504 0.186472
0.049551 -0.042392 0.186015
0.050229 -0.042218 0.185280
0.050975 -0.042105 0.184815
0.051758 -0.042026 0.184497
0.052459 -0.041884 0.183902
0.053193 -0.041773 0.183443
0.053895 -0.041641 0.182885
0.054556 -0.041481 0.182207
0.055306 -0.041393 0.181841
0.055975 -0.041249 0.181224
0.056542 -0.041035 0.180299
0.057290 -0.040955 0.179965
0.057554 -0.040539 0.178146
0.058216 -0.040409 0.177587
0.058807 -0.040236 0.176831
0.059082 -0.039853 0.175154
0.059745 -0.039741 0.174659
0.060442 -0.039652 0.174270
0.061000 -0.039477 0.173493
0.061649 -0.039364 0.172991
0.062219 -0.039204 0.172279
0.062810 -0.039062 0.171641
0.063453 -0.038955 0.171155
0.063787 -0.038664 0.169854
0.064356 -0.038520 0.169200
0.065064 -0.038463 0.168921
0.065478 -0.038235 0.167889
0.065929 -0.038033 0.166970
0.066140 -0.037700 0.165468
0.067047 -0.037767 0.165721
0.068462 -0.038114 0.167200
0.069365 -0.038173 0.167404
0.069710 -0.037925 0.166266
0.070371 -0.037854 0.165894
0.070984 -0.037759 0.165413
0.071412 -0.037568 0.164508
0.071961 -0.037445 0.163894
0.072509 -0.037324 0.163284
0.072972 -0.037162 0.162492
0.073408 -0.036990 0.161651
0.073912 -0.036855 0.160968
0.074323 -0.036677 0.160091
0.074612 -0.036443 0.158967
0.074912 -0.036219 0.157878
0.075357 -0.036069 0.157109
0.075691 -0.035870 0.156119
0.075961 -0.035644 0.155007
0.076424 -0.035513 0.154301
0.076911 -0.035394 0.153647
0.077145 -0.035163 0.152495
0.077651 -0.035059 0.151889
0.078021 -0.034896 0.151022
0.078862 -0.034945 0.151064
0.080212 -0.035216 0.152057
-0.058630 -0.051961 0.233709
-0.056702 -0.051217 0.230294
-0.053379 -0.049159 0.220977
-0.052333 -0.049158 0.220909
-0.051334 -0.049202 0.221039
-0.050533 -0.049441 0.222047
-0.049717 -0.049677 0.223036
-0.048795 -0.049813 0.223578
-0.047997 -0.050085 0.224730
-0.047067 -0.050229 0.225308
-0.046127 -0.050369 0.225866
-0.045261 -0.050598 0.226819
-0.044347 -0.050783 0.227579
-0.043446 -0.050993 0.228451
-0.042529 -0.051194 0.229280
-0.041598 -0.051389 0.230081
-0.040634 -0.051554 0.230746
-0.039652 -0.051703 0.231344
-0.038656 -0.051842 0.231894
-0.037660 -0.051989 0.232482
-0.036677 -0.052164 0.233196
-0.035724 -0.052394 0.234155
-0.034703 -0.052535 0.234716
-0.033626 -0.052599 0.234935
-0.032657 -0.052841 0.235950
-0.031752 -0.053209 0.237526
-0.030701 -0.053350 0.238089
-0.029622 -0.053452 0.238482
-0.028574 -0.053620 0.239170
-0.027494 -0.053738 0.239635
-0.026390 -0.053820 0.239942
-0.025301 -0.053941 0.240423
-0.024206 -0.054058 0.240885
-0.023123 -0.054216 0.241536
-0.022044 -0.054404 0.242317
-0.020943 -0.054551 0.242922
-0.019810 -0.054628 0.243215
-0.018775 -0.055004 0.244842
-0.017629 -0.055081 0.245138
-0.016479 -0.055158 0.245435
-0.015351 -0.055325 0.246134
-0.014211 -0.055473 0.246753
-0.013045 -0.055537 0.247002
-0.011880 -0.055619 0.247330
-0.010709 -0.055691 0.247616
-0.009532 -0.055743 0.247817
-0.008356 -0.055821 0.248133
-0.007178 -0.055905 0.248478
-0.005996 -0.055987 0.248820
-0.004814 -0.056103 0.249311
-0.003622 -0.056159 0.249545
-0.002429 -0.056230 0.249840
-0.001232 -0.056282 0.250057
-0.000033 -0.056397 0.250556
0.001188 -0.057376 0.254895
0.002476 -0.058921 0.261751
0.003708 -0.058550 0.260101
0.004886 -0.057728 0.256445
0.006100 -0.057581 0.255794
0.007270 -0.057134 0.253813
0.008481 -0.057087 0.253608
0.009670 -0.056923 0.252888
0.010832 -0.056656 0.251709
0.011984 -0.056398 0.250580
0.013107 -0.056058 0.249083
0.014257 -0.055883 0.248322
0.015391 -0.055675 0.247418
0.016531 -0.055520 0.246747
0.017663 -0.055357 0.246046
0.018772 -0.055150 0.245153
0.019902 -0.055022 0.244612
0.021035 -0.054918 0.244178
0.022164 -0.054815 0.243752
0.023285 -0.054702 0.243284
0.024397 -0.054581 0.242781
0.025546 -0.054548 0.242674
0.026650 -0.054428 0.242178
0.027748 -0.054306 0.241673
0.028829 -0.054162 0.241072
0.029929 -0.054061 0.240666
0.031022 -0.053957 0.240248
0.032066 -0.053779 0.239499
0.033144 -0.053666 0.239045
0.034237 -0.053586 0.238735
0.035206 -0.053323 0.237611
0.035661 -0.052321 0.233196
0.036818 -0.052379 0.233504
0.037926 -0.052367 0.233500
0.038824 -0.052072 0.232237
0.039877 -0.051996 0.231952
0.040712 -0.051649 0.230452
0.041673 -0.051475 0.229728
0.042485 -0.051130 0.228242
0.043445 -0.050977 0.227612
0.044373 -0.050794 0.226848
0.045079 -0.050372 0.225013
0.044873 -0.048973 0.218817
0.045866 -0.048919 0.218623
0.044019 -0.045903 0.205193
0.043735 -0.044615 0.199478
0.043723 -0.043652 0.195219
0.044007 -0.043019 0.192432
0.044482 -0.042595 0.190576
0.045437 -0.042638 0.190809
0.046147 -0.042454 0.190027
0.046837 -0.042259 0.189194
0.047522 -0.042067 0.188374
0.048244 -0.041914 0.187725
0.048892 -0.041704 0.186820
0.049555 -0.041513 0.186001
0.050345 -0.041433 0.185679
0.051023 -0.041266 0.184963
0.051708 -0.041111 0.184298
0.052454 -0.041008 0.183863
0.053134 -0.040858 0.183219
0.053876 -0.040759 0.182800
0.054563 -0.040622 0.182213
0.055286 -0.040516 0.181760
0.055918 -0.040349 0.181028
0.056509 -0.040156 0.180183
0.056971 -0.039879 0.178955
0.057545 -0.039688 0.178108
0.058141 -0.039517 0.177352
0.058638 -0.039285 0.176319
0.059233 -0.039124 0.175602
0.059752 -0.038917 0.174678
0.060449 -0.038831 0.174291
0.061089 -0.038711 0.173750
0.061577 -0.038499 0.172796
0.062206 -0.038380 0.172250
0.062799 -0.038242 0.171620
0.063262 -0.038029 0.170650
0.063896 -0.037923 0.170157
0.064481 -0.037791 0.169545
0.065018 -0.037635 0.168817
0.065536 -0.037471 0.168055
0.065940 -0.037247 0.167018
0.066227 -0.036963 0.165709
0.067091 -0.037004 0.165851
0.068375 -0.037273 0.167013
0.069208 -0.037293 0.167053
0.069714 -0.037138 0.166306
0.070326 -0.037042 0.165820
0.070918 -0.036938 0.165294
0.071477 -0.036819 0.164695
0.071929 -0.036648 0.163860
0.072445 -0.036514 0.163182
0.072876 -0.036340 0.162322
0.073357 -0.036194 0.161585
0.073700 -0.035983 0.160553
0.074099 -0.035805 0.159659
0.074525 -0.035642 0.158832
0.074781 -0.035403 0.157657
0.075095 -0.035195 0.156620
0.075510 -0.035038 0.155802
0.075895 -0.034871 0.154933
0.076167 -0.034656 0.153844
0.076570 -0.034503 0.153030
0.076806 -0.034279 0.151892
0.077304 -0.034175 0.151281
0.077675 -0.034018 0.150425
0.078589 -0.034099 0.150616
0.079527 -0.034188 0.150837
-0.061857 -0.045877 0.211296
-0.060119 -0.045318 0.208671
-0.059265 -0.045416 0.209074
-0.057972 -0.045177 0.207920
-0.057754 -0.045782 0.210647
-0.056010 -0.047681 0.219146
-0.055048 -0.047745 0.219375
-0.054143 -0.047861 0.219843
-0.053209 -0.047956 0.220213
-0.052306 -0.048084 0.220734
-0.051487 -0.048295 0.221633
-0.050624 -0.048473 0.222379
-0.049839 -0.048735 0.223513
-0.048917 -0.048871 0.224067
-0.048012 -0.049031 0.224729
-0.047102 -0.049193 0.225399
-0.046181 -0.049351 0.226052
-0.045323 -0.049586 0.227053
-0.044466 -0.049832 0.228108
-0.043584 -0.050063 0.229092
-0.042684 -0.050284 0.230032
-0.041691 -0.050405 0.230511
-0.040730 -0.050572 0.231200
-0.039752 -0.050725 0.231831
-0.038828 -0.050959 0.232828
-0.037805 -0.051075 0.233282
-0.036828 -0.051260 0.234056
-0.035849 -0.051453 0.234871
-0.034836 -0.051609 0.235512
-0.033790 -0.051727 0.235978
-0.032782 -0.051910 0.236746
-0.031786 -0.052128 0.237673
-0.030705 -0.052217 0.238015
-0.029617 -0.052300 0.238326
-0.028550 -0.052430 0.238855
-0.027480 -0.052563 0.239399
-0.026413 -0.052715 0.240029
-0.025311 -0.052806 0.240387
-0.024250 -0.052998 0.241204
-0.023160 -0.053142 0.241800
-0.022093 -0.053355 0.242717
-0.020989 -0.053500 0.243320
-0.019864 -0.053605 0.243748
-0.018760 -0.053783 0.244510
-0.017653 -0.053974 0.245330
-0.016497 -0.054035 0.245561
-0.015368 -0.054200 0.246269
-0.014220 -0.054317 0.246759
-0.013064 -0.054423 0.247201
-0.011906 -0.054543 0.247712
-0.010740 -0.054650 0.248164
-0.009568 -0.054750 0.248585
-0.008396 -0.054876 0.249128
-0.007218 -0.055002 0.249673
-0.006029 -0.055070 0.249957
-0.004839 -0.055169 0.250384
-0.003640 -0.055196 0.250484
-0.002441 -0.055246 0.250696
-0.001240 -0.055339 0.251105
-0.000036 -0.055317 0.250990
0.001201 -0.056839 0.257888
0.002472 -0.057627 0.261455
0.003688 -0.057038 0.258781
0.004925 -0.056980 0.258515
0.006091 -0.056288 0.255376
0.007275 -0.055968 0.253924
0.008478 -0.055869 0.253481
0.009682 -0.055793 0.253146
0.010829 -0.055448 0.251593
0.011948 -0.055038 0.249743
0.013082 -0.054768 0.248536
0.014234 -0.054614 0.247853
0.015409 -0.054563 0.247642
0.016563 -0.054448 0.247141
0.017704 -0.054310 0.246538
0.018832 -0.054152 0.245849
0.019962 -0.054018 0.245268
0.021091 -0.053896 0.244744
0.022223 -0.053796 0.244322
0.023343 -0.053675 0.243809
0.024467 -0.053575 0.243393
0.025587 -0.053478 0.242988
0.026692 -0.053358 0.242481
0.027775 -0.053204 0.241823
0.028866 -0.053080 0.241302
0.029972 -0.052989 0.240933
0.031031 -0.052827 0.240241
0.032049 -0.052609 0.239296
0.033155 -0.052544 0.239049
0.034193 -0.052380 0.238352
0.035218 -0.052206 0.237612
0.036095 -0.051833 0.235964
0.037064 -0.051609 0.234994
0.038056 -0.051429 0.234226
0.039018 -0.051220 0.233330
0.039981 -0.051024 0.232489
0.040689 -0.050522 0.230255
0.041564 -0.050249 0.229062
0.042479 -0.050036 0.228147
0.043534 -0.049995 0.228013
0.044373 -0.049714 0.226787
0.044801 -0.048997 0.223569
0.043924 -0.046919 0.214137
0.044176 -0.046114 0.210515
0.043190 -0.044081 0.201281
0.043629 -0.043560 0.198948
0.043915 -0.042912 0.196033
0.044328 -0.042412 0.193794
0.044351 -0.041566 0.189972
0.045102 -0.041423 0.189364
0.045934 -0.041359 0.189114
0.046741 -0.041275 0.188770
0.047508 -0.041159 0.188280
0.048182 -0.040969 0.187451
0.048816 -0.040753 0.186496
0.049519 -0.040600 0.185835
0.050326 -0.040537 0.185581
0.051014 -0.040382 0.184906
0.051727 -0.040251 0.184341
0.052520 -0.040186 0.184073
0.053226 -0.040058 0.183515
0.053825 -0.039854 0.182609
0.054538 -0.039740 0.182113
0.055255 -0.039632 0.181643
0.055907 -0.039482 0.180975
0.056430 -0.039247 0.179916
0.056918 -0.038995 0.178778
0.057383 -0.038734 0.177598
0.057918 -0.038528 0.176666
0.058544 -0.038387 0.176031
0.059088 -0.038197 0.175166
0.059659 -0.038030 0.174404
0.060273 -0.037894 0.173786
0.060977 -0.037818 0.173435
0.061640 -0.037718 0.172974
0.062123 -0.037513 0.172027
0.062513 -0.037257 0.170844
0.063274 -0.037227 0.170691
0.063774 -0.037045 0.169843
0.064244 -0.036851 0.168932
0.065023 -0.036837 0.168845
0.065563 -0.036689 0.168140
0.065964 -0.036468 0.167097
0.066316 -0.036225 0.165952
0.067246 -0.036300 0.166258
0.068531 -0.036563 0.167418
0.069272 -0.036533 0.167234
0.069667 -0.036323 0.166222
0.070293 -0.036237 0.165773
0.070953 -0.036170 0.165407
0.071506 -0.036050 0.164796
0.072021 -0.035915 0.164106
0.072502 -0.035765 0.163350
0.073029 -0.035641 0.162704
0.073345 -0.035418 0.161600
0.073801 -0.035266 0.160818
0.074267 -0.035122 0.160067
0.074397 -0.034824 0.158608
0.074815 -0.034665 0.157780
0.075217 -0.034502 0.156927
0.075353 -0.034222 0.155534
0.075681 -0.034033 0.154554
0.076034 -0.033859 0.153635
0.076291 -0.033646 0.152535
0.076490 -0.033412 0.151333
0.077017 -0.033324 0.150787
0.077341 -0.033151 0.149847
0.078167 -0.033194 0.149880
0.079632 -0.033505 0.151111
-0.062828 -0.044860 0.211228
-0.061922 -0.044924 0.211482
-0.060644 -0.044716 0.210453
-0.059690 -0.044745 0.210533
-0.058654 -0.044712 0.210324
-0.057817 -0.044833 0.210834
-0.058055 -0.045806 0.215350
-0.057356 -0.046061 0.216487
-0.056411 -0.046124 0.216722
-0.056037 -0.046665 0.219200
-0.054903 -0.046581 0.218741
-0.054205 -0.046872 0.220038
-0.053387 -0.047068 0.220890
-0.052464 -0.047178 0.221338
-0.051589 -0.047335 0.222007
-0.050753 -0.047537 0.222882
-0.049997 -0.047824 0.224154
-0.049159 -0.048042 0.225106
-0.048207 -0.048157 0.225570
-0.047291 -0.048313 0.226228
-0.046408 -0.048513 0.227088
-0.045498 -0.048691 0.227851
-0.044626 -0.048921 0.228848
-0.043694 -0.049094 0.229585
-0.042746 -0.049259 0.230282
-0.041732 -0.049353 0.230647
-0.040730 -0.049468 0.231110
-0.039832 -0.049719 0.232209
-0.038881 -0.049915 0.233052
-0.037877 -0.050055 0.233631
-0.036945 -0.050300 0.234700
-0.035944 -0.050463 0.235392
-0.034916 -0.050599 0.235951
-0.033864 -0.050708 0.236390
-0.032814 -0.050826 0.236872
-0.031777 -0.050975 0.237495
-0.030705 -0.051077 0.237904
-0.029610 -0.051145 0.238155
-0.028560 -0.051301 0.238818
-0.027475 -0.051406 0.239241
-0.026396 -0.051530 0.239757
-0.025319 -0.051669 0.240346
-0.024225 -0.051787 0.240833
-0.023192 -0.052052 0.242008
-0.022237 -0.052529 0.244172
-0.021096 -0.052596 0.244430
-0.019945 -0.052645 0.244606
-0.018827 -0.052794 0.245247
-0.017688 -0.052897 0.245677
-0.016534 -0.052968 0.245962
-0.015374 -0.053030 0.246206
-0.014234 -0.053179 0.246855
-0.013071 -0.053259 0.247185
-0.011906 -0.053345 0.247547
-0.010749 -0.053496 0.248217
-0.009570 -0.053558 0.248468
-0.008399 -0.053682 0.249016
-0.007219 -0.053792 0.249498
-0.006037 -0.053920 0.250066
-0.004844 -0.053998 0.250406
-0.003646 -0.054042 0.250592
-0.002448 -0.054147 0.251060
-0.001244 -0.054187 0.251232
-0.000038 -0.054341 0.251933
0.001191 -0.055286 0.256303
0.002473 -0.056464 0.261756
0.003686 -0.055800 0.258674
0.004889 -0.055363 0.256647
0.006112 -0.055279 0.256257
0.007289 -0.054879 0.254407
0.008507 -0.054852 0.254291
0.009740 -0.054922 0.254620
0.010889 -0.054552 0.252918
0.012005 -0.054107 0.250869
0.013086 -0.053605 0.248555
0.014257 -0.053520 0.248180
0.015451 -0.053528 0.248238
0.016582 -0.053331 0.247346
0.017731 -0.053217 0.246843
0.018868 -0.053081 0.246240
0.020006 -0.052965 0.245733
0.021142 -0.052857 0.245260
0.022278 -0.052760 0.244846
0.023390 -0.052617 0.244217
0.024512 -0.052512 0.243765
0.025588 -0.052319 0.242909
0.026715 -0.052245 0.242607
0.027826 -0.052146 0.242188
0.028849 -0.051896 0.241074
0.029946 -0.051795 0.240647
0.031031 -0.051680 0.240162
0.032098 -0.051546 0.239584
0.033124 -0.051355 0.238746
0.034184 -0.051230 0.238215
0.035121 -0.050933 0.236885
0.036131 -0.050758 0.236122
0.037100 -0.050537 0.235151
0.038053 -0.050309 0.234141
0.038979 -0.050057 0.233025
0.039785 -0.049671 0.231282
0.040695 -0.049432 0.230222
0.041676 -0.049290 0.229614
0.042680 -0.049181 0.229166
0.043574 -0.048954 0.228160
0.044557 -0.048836 0.227665
0.045595 -0.048782 0.227471
0.042950 -0.044882 0.209336
0.042633 -0.043536 0.203109
0.043069 -0.043003 0.200670
0.043661 -0.042645 0.199047
0.043868 -0.041934 0.195779
0.043897 -0.041086 0.191863
0.044611 -0.040901 0.191044
0.045430 -0.040818 0.190702
0.046224 -0.040716 0.190269
0.047248 -0.040816 0.190780
0.048088 -0.040757 0.190546
0.048353 -0.040221 0.188082
0.048817 -0.039868 0.186469
0.049517 -0.039716 0.185800
0.050358 -0.039682 0.185674
0.051054 -0.039535 0.185023
0.051831 -0.039455 0.184685
0.052518 -0.039311 0.184043
0.053132 -0.039118 0.183168
0.053903 -0.039044 0.182854
0.054628 -0.038940 0.182394
0.055353 -0.038840 0.181950
0.055765 -0.038526 0.180501
0.056334 -0.038329 0.179599
0.056849 -0.038100 0.178549
0.057543 -0.037998 0.178084
0.058110 -0.037815 0.177244
0.058770 -0.037698 0.176704
0.059366 -0.037543 0.175987
0.059919 -0.037365 0.175161
0.060564 -0.037249 0.174623
0.061154 -0.037103 0.173937
0.061748 -0.036963 0.173280
0.062312 -0.036809 0.172553
0.062788 -0.036608 0.171603
0.063277 -0.036419 0.170707
0.063850 -0.036283 0.170056
0.064484 -0.036184 0.169575
0.065022 -0.036035 0.168856
0.065382 -0.035792 0.167690
0.066008 -0.035698 0.167225
0.066318 -0.035438 0.165974
0.067364 -0.035573 0.166571
0.068428 -0.035714 0.167191
0.069124 -0.035662 0.166901
0.069660 -0.035529 0.166232
0.070193 -0.035399 0.165567
0.070856 -0.035335 0.165212
0.071443 -0.035236 0.164685
0.071957 -0.035102 0.163995
0.072368 -0.034923 0.163083
0.072984 -0.034845 0.162642
0.073416 -0.034681 0.161798
0.073759 -0.034479 0.160769
0.074214 -0.034334 0.159999
0.074454 -0.034093 0.158778
0.074748 -0.033881 0.157687
0.074905 -0.033612 0.156326
0.075303 -0.033455 0.155484
0.075569 -0.033244 0.154380
0.075755 -0.033001 0.153130
0.076153 -0.032855 0.152319
0.076227 -0.032573 0.150874
0.076685 -0.032459 0.150201
0.077208 -0.032374 0.149656
0.078152 -0.032466 0.149921
0.079346 -0.032659 0.150641
-0.063353 -0.043536 0.209684
-0.062456 -0.043600 0.209940
-0.061907 -0.043912 0.211392
-0.060961 -0.043949 0.211514
-0.060084 -0.044037 0.211884
-0.059248 -0.044159 0.212413
-0.058426 -0.044295 0.213009
-0.058119 -0.044834 0.215537
-0.056987 -0.044744 0.215046
-0.056403 -0.045089 0.216638
-0.055826 -0.045453 0.218320
-0.055116 -0.045720 0.219533
-0.054307 -0.045913 0.220394
-0.053423 -0.046050 0.220981
-0.052472 -0.046133 0.221307
-0.051675 -0.046358 0.222314
-0.050797 -0.046517 0.223006
-0.050085 -0.046840 0.224478
-0.049227 -0.047036 0.225343
-0.048272 -0.047147 0.225800
-0.047387 -0.047332 0.226613
-0.046451 -0.047474 0.227218
-0.045504 -0.047612 0.227800
-0.044660 -0.047866 0.228940
-0.043761 -0.048074 0.229857
-0.042796 -0.048217 0.230465
-0.041839 -0.048377 0.231154
-0.040865 -0.048525 0.231787
-0.039941 -0.048742 0.232748
-0.038924 -0.048857 0.233220
-0.037895 -0.048962 0.233647
-0.036911 -0.049133 0.234390
-0.035900 -0.049278 0.235006
-0.034953 -0.049523 0.236101
-0.033928 -0.049670 0.236730
-0.032825 -0.049708 0.236842
-0.031802 -0.049876 0.237573
-0.030751 -0.050011 0.238149
-0.029636 -0.050048 0.238254
-0.028574 -0.050180 0.238819
-0.027496 -0.050296 0.239307
-0.026426 -0.050436 0.239909
-0.025346 -0.050568 0.240477
-0.024288 -0.050760 0.241330
-0.023135 -0.050762 0.241283
-0.022138 -0.051126 0.242953
-0.021113 -0.051462 0.244495
-0.019991 -0.051588 0.245040
-0.018852 -0.051679 0.245424
-0.017721 -0.051810 0.245996
-0.016576 -0.051916 0.246452
-0.015424 -0.052011 0.246858
-0.014268 -0.052110 0.247285
-0.013108 -0.052212 0.247730
-0.011938 -0.052291 0.248066
-0.010766 -0.052376 0.248434
-0.009594 -0.052481 0.248900
-0.008414 -0.052568 0.249284
-0.007237 -0.052707 0.249913
-0.006051 -0.052826 0.250455
-0.004858 -0.052924 0.250896
-0.003658 -0.052992 0.251196
-0.002459 -0.053129 0.251831
-0.001251 -0.053164 0.251980
-0.000041 -0.053244 0.252349
0.001175 -0.053442 0.253277
0.002421 -0.054088 0.256330
0.003740 -0.055386 0.262479
0.004982 -0.055189 0.261544
0.006102 -0.053982 0.255826
0.007308 -0.053810 0.255012
0.008499 -0.053596 0.254005
0.009751 -0.053772 0.254845
0.010906 -0.053433 0.253253
0.011937 -0.052615 0.249387
0.013108 -0.052506 0.248889
0.014273 -0.052395 0.248384
0.015455 -0.052357 0.248223
0.016628 -0.052297 0.247960
0.017771 -0.052157 0.247324
0.018914 -0.052032 0.246761
0.020048 -0.051902 0.246173
0.021211 -0.051855 0.245984
0.022308 -0.051659 0.245085
0.023416 -0.051508 0.244407
0.024539 -0.051403 0.243948
0.025634 -0.051252 0.243271
0.026755 -0.051162 0.242883
0.027826 -0.050989 0.242105
0.028903 -0.050840 0.241445
0.029997 -0.050731 0.240973
0.031104 -0.050653 0.240649
0.032144 -0.050474 0.239849
0.033185 -0.050307 0.239108
0.034259 -0.050202 0.238658
0.035267 -0.050009 0.237795
0.036157 -0.049666 0.236217
0.036920 -0.049175 0.233933
0.038007 -0.049132 0.233785
0.039015 -0.048992 0.233172
0.039947 -0.048766 0.232154
0.040775 -0.048430 0.230611
0.041666 -0.048183 0.229493
0.042633 -0.048036 0.228847
0.043602 -0.047898 0.228248
0.044408 -0.047591 0.226841
0.042921 -0.044901 0.214074
0.043194 -0.044134 0.210471
0.044020 -0.043954 0.209666
0.043385 -0.042356 0.202094
0.043769 -0.041801 0.199493
0.043722 -0.040866 0.195079
0.044186 -0.040438 0.193086
0.044551 -0.039939 0.190749
0.045503 -0.039975 0.190968
0.046259 -0.039842 0.190375
0.047216 -0.039882 0.190613
0.048252 -0.039987 0.191158
0.048297 -0.039282 0.187831
0.048937 -0.039078 0.186896
0.049577 -0.038881 0.185996
0.050459 -0.038877 0.186016
0.051181 -0.038753 0.185458
0.051792 -0.038550 0.184522
0.052568 -0.038474 0.184192
0.053252 -0.038334 0.183558
0.053964 -0.038219 0.183038
0.054707 -0.038130 0.182640
0.055352 -0.037976 0.181928
0.056070 -0.037876 0.181475
0.056433 -0.037542 0.179898
0.057072 -0.037400 0.179236
0.057569 -0.037170 0.178153
0.058220 -0.037044 0.177568
0.058885 -0.036932 0.177042
0.059390 -0.036723 0.176053
0.060023 -0.036598 0.175463
0.060444 -0.036349 0.174275
0.061237 -0.036327 0.174173
0.061856 -0.036204 0.173584
0.062238 -0.035948 0.172353
0.062336 -0.035536 0.170372
0.063129 -0.035527 0.170316
0.063807 -0.035453 0.169950
0.064441 -0.035357 0.169473
0.065014 -0.035230 0.168847
0.065727 -0.035181 0.168589
0.065900 -0.034848 0.166966
0.066309 -0.034646 0.165971
0.067328 -0.034764 0.166501
0.068441 -0.034927 0.167243
0.069156 -0.034886 0.167002
0.069561 -0.034690 0.166021
0.070187 -0.034608 0.165578
0.070803 -0.034524 0.165117
0.071264 -0.034366 0.164302
0.071662 -0.034181 0.163356
0.072171 -0.034053 0.162674
0.072738 -0.033955 0.162131
0.073108 -0.033768 0.161158
0.073612 -0.033646 0.160490
0.073966 -0.033459 0.159506
0.074326 -0.033278 0.158548
0.074690 -0.033102 0.157613
0.074805 -0.032821 0.156166
0.075105 -0.032626 0.155127
0.075308 -0.032392 0.153900
0.075487 -0.032154 0.152642
0.075813 -0.031981 0.151695
0.075959 -0.031737 0.150402
0.076250 -0.031558 0.149410
0.076728 -0.031458 0.148790
0.077831 -0.031614 0.149371
0.078740 -0.031689 0.149560
-0.068292 -0.045157 0.222578
-0.062888 -0.042233 0.208114
-0.062678 -0.042758 0.210652
-0.062067 -0.043022 0.211900
-0.061278 -0.043170 0.212573
-0.060335 -0.043213 0.212726
-0.059511 -0.043344 0.213309
-0.058653 -0.043454 0.213790
-0.057750 -0.043534 0.214123
-0.057007 -0.043740 0.215071
-0.056873 -0.044429 0.218390
-0.056108 -0.044641 0.219368
-0.055297 -0.044824 0.220196
-0.054402 -0.044945 0.220722
-0.053532 -0.045092 0.221370
-0.052607 -0.045197 0.221813
-0.051746 -0.045363 0.222556
-0.050884 -0.045535 0.223321
-0.050088 -0.045775 0.224424
-0.049252 -0.045988 0.225391
-0.048362 -0.046158 0.226148
-0.047363 -0.046229 0.226422
-0.046524 -0.046465 0.227500
-0.045508 -0.046530 0.227739
-0.044650 -0.046764 0.228808
-0.043744 -0.046958 0.229680
-0.042768 -0.047085 0.230224
-0.041767 -0.047192 0.230668
-0.040847 -0.047397 0.231594
-0.040090 -0.047809 0.233526
-0.039050 -0.047897 0.233879
-0.038012 -0.047992 0.234268
-0.037010 -0.048140 0.234916
-0.035962 -0.048236 0.235312
-0.034904 -0.048325 0.235669
-0.033893 -0.048486 0.236381
-0.032881 -0.048657 0.237146
-0.031846 -0.048805 0.237791
-0.030776 -0.048909 0.238229
-0.029719 -0.049042 0.238812
-0.028634 -0.049138 0.239211
-0.027558 -0.049258 0.239726
-0.026493 -0.049409 0.240399
-0.025407 -0.049532 0.240934
-0.024357 -0.049743 0.241899
-0.023281 -0.049917 0.242686
-0.022173 -0.050037 0.243213
-0.021122 -0.050307 0.244471
-0.019998 -0.050425 0.244988
-0.018860 -0.050521 0.245402
-0.017725 -0.050635 0.245907
-0.016564 -0.050689 0.246124
-0.015407 -0.050764 0.246441
-0.014281 -0.050964 0.247368
-0.013105 -0.051004 0.247525
-0.011949 -0.051137 0.248131
-0.010792 -0.051295 0.248863
-0.009614 -0.051383 0.249256
-0.008449 -0.051573 0.250148
-0.007251 -0.051590 0.250199
-0.006064 -0.051715 0.250783
-0.004873 -0.051859 0.251455
-0.003672 -0.051946 0.251858
-0.002466 -0.052033 0.252263
-0.001258 -0.052187 0.252991
-0.000043 -0.052229 0.253186
0.001174 -0.052263 0.253340
0.002394 -0.052333 0.253671
0.003632 -0.052607 0.254995
0.004898 -0.053039 0.257091
0.006133 -0.053036 0.257074
0.007309 -0.052610 0.255013
0.008577 -0.052871 0.256288
0.009809 -0.052874 0.256312
0.010956 -0.052469 0.254360
0.012082 -0.052050 0.252344
0.013149 -0.051481 0.249602
0.014347 -0.051475 0.249590
0.015514 -0.051370 0.249102
0.016675 -0.051257 0.248578
0.017813 -0.051096 0.247827
0.018939 -0.050922 0.247011
0.020090 -0.050830 0.246597
0.021247 -0.050764 0.246310
0.022348 -0.050580 0.245452
0.023403 -0.050313 0.244191
0.024545 -0.050251 0.243929
0.025703 -0.050224 0.243839
0.026814 -0.050113 0.243343
0.027866 -0.049904 0.242375
0.028953 -0.049773 0.241785
0.030071 -0.049704 0.241494
0.031139 -0.049559 0.240839
0.032178 -0.049380 0.240023
0.033222 -0.049221 0.239298
0.034272 -0.049081 0.238672
0.035264 -0.048869 0.237697
0.036221 -0.048625 0.236565
0.037202 -0.048426 0.235652
0.038160 -0.048209 0.234651
0.039076 -0.047955 0.233469
0.040024 -0.047751 0.232536
0.040844 -0.047410 0.230932
0.041788 -0.047228 0.230103
0.042636 -0.046949 0.228801
0.043495 -0.046694 0.227621
0.043582 -0.045646 0.222566
0.044637 -0.045635 0.222573
0.043710 -0.043646 0.212928
0.042555 -0.041526 0.202638
0.042932 -0.040961 0.199933
0.043274 -0.040389 0.197187
0.043884 -0.040086 0.195758
0.044193 -0.039526 0.193073
0.044699 -0.039161 0.191339
0.045417 -0.038993 0.190565
0.046021 -0.038735 0.189355
0.046804 -0.038636 0.188915
0.047623 -0.038569 0.188632
0.048368 -0.038446 0.188075
0.049131 -0.038341 0.187603
0.049821 -0.038184 0.186879
0.050528 -0.038046 0.186242
0.050918 -0.037677 0.184476
0.051695 -0.037603 0.184149
0.052420 -0.037494 0.183651
0.053091 -0.037350 0.182982
0.053604 -0.037102 0.181796
0.054358 -0.037026 0.181454
0.055158 -0.036983 0.181273
0.055803 -0.036839 0.180594
0.056510 -0.036739 0.180131
0.057025 -0.036520 0.179077
0.057522 -0.036295 0.177997
0.058006 -0.036070 0.176907
0.058741 -0.036004 0.176600
0.059361 -0.035871 0.175960
0.059994 -0.035749 0.175373
0.060581 -0.035603 0.174667
0.060945 -0.035332 0.173341
0.061617 -0.035245 0.172914
0.061982 -0.034987 0.171647
0.062665 -0.034912 0.171275
0.063175 -0.034744 0.170445
0.063782 -0.034633 0.169890
0.064475 -0.034571 0.169571
0.065160 -0.034506 0.169235
0.065047 -0.034025 0.166857
0.065825 -0.034017 0.166791
0.066264 -0.033835 0.165873
0.067318 -0.033969 0.166494
0.068581 -0.034203 0.167606
0.069313 -0.034170 0.167403
0.069737 -0.033988 0.166465
0.070158 -0.033808 0.165536
0.070752 -0.033714 0.165025
0.071293 -0.033598 0.164399
0.071542 -0.033349 0.163114
0.072112 -0.033252 0.162574
0.072429 -0.033043 0.161478
0.072810 -0.032866 0.160538
0.073335 -0.032758 0.159926
0.073497 -0.032491 0.158535
0.073985 -0.032372 0.157864
0.074226 -0.032149 0.156677
0.074571 -0.031975 0.155725
0.074992 -0.031836 0.154942
0.075003 -0.031528 0.153327
0.075289 -0.031340 0.152296
0.075586 -0.031161 0.151296
0.075418 -0.030795 0.149387
0.075851 -0.030679 0.148685
0.076327 -0.030582 0.148072
0.077296 -0.030683 0.148408
0.078736 -0.030967 0.149620
-0.069304 -0.044082 0.222481
-0.068358 -0.044147 0.222760
-0.062855 -0.041226 0.207969
-0.062832 -0.041864 0.211133
-0.060442 -0.040919 0.206317
-0.061667 -0.042432 0.213884
-0.060747 -0.042493 0.214135
-0.060066 -0.042728 0.215257
-0.059205 -0.042840 0.215757
-0.058393 -0.042992 0.216459
-0.057721 -0.043255 0.217712
-0.056837 -0.043365 0.218199
-0.056056 -0.043559 0.219107
-0.055264 -0.043753 0.220009
-0.054518 -0.043990 0.221131
-0.053647 -0.044135 0.221786
-0.052739 -0.044254 0.222309
