ply
format ascii 1.0
element vertex 1692
property float x
property float y
property float z
end_header
0.068144 -0.054539 0.176308
0.068726 -0.054333 0.175569
0.069278 -0.054108 0.174763
0.069826 -0.053886 0.173962
0.070152 -0.053500 0.172627
0.070783 -0.053353 0.172058
0.071976 -0.053627 0.172845
0.072971 -0.053750 0.173136
0.073538 -0.053558 0.172408
0.074003 -0.053297 0.171453
0.074513 -0.053074 0.170614
0.074918 -0.052781 0.169548
0.075398 -0.052547 0.168665
0.075783 -0.052252 0.167582
0.076217 -0.051997 0.166620
0.076742 -0.051809 0.165867
0.077428 -0.051732 0.165464
0.077981 -0.051569 0.164779
0.078595 -0.051449 0.164225
0.079250 -0.051358 0.163755
0.079835 -0.051224 0.163141
0.080403 -0.051081 0.162492
0.080909 -0.050903 0.161723
0.081285 -0.050646 0.160697
0.081642 -0.050383 0.159645
0.081959 -0.050100 0.158522
0.082243 -0.049803 0.157346
0.082301 -0.049376 0.155753
0.082627 -0.049115 0.154678
-0.063131 -0.087867 0.290669
-0.061134 -0.086977 0.287678
-0.060055 -0.087382 0.288966
-0.058855 -0.087626 0.289724
-0.057220 -0.087219 0.288327
-0.055698 -0.086968 0.287446
-0.054337 -0.086963 0.287378
-0.052932 -0.086885 0.287067
-0.051427 -0.086635 0.286189
-0.050028 -0.086555 0.285870
-0.048896 -0.086945 0.287105
-0.047468 -0.086816 0.286626
-0.046101 -0.086795 0.286504
-0.044796 -0.086892 0.286770
-0.043501 -0.087016 0.287125
-0.042397 -0.087543 0.288811
-0.041169 -0.087840 0.289740
-0.039960 -0.088199 0.290870
-0.038675 -0.088411 0.291517
-0.037452 -0.088785 0.292700
-0.036128 -0.088941 0.293162
-0.034778 -0.089043 0.293447
-0.033509 -0.089367 0.294468
-0.032099 -0.089330 0.294297
-0.030715 -0.089362 0.294352
-0.029313 -0.089347 0.294257
-0.027847 -0.089123 0.293474
-0.026417 -0.088995 0.293008
-0.024930 -0.088654 0.291845
-0.023541 -0.088642 0.291762
-0.022063 -0.088268 0.290491
-0.020639 -0.088080 0.289834
-0.019357 -0.088513 0.291221
-0.018008 -0.088682 0.291745
-0.016649 -0.088828 0.292188
-0.015294 -0.089019 0.292784
-0.013873 -0.088832 0.292138
-0.012487 -0.088852 0.292175
-0.011134 -0.089141 0.293099
-0.009762 -0.089341 0.293731
-0.008424 -0.089965 0.295759
-0.006980 -0.089494 0.294186
-0.005582 -0.089508 0.294212
-0.003987 -0.085331 0.280464
-0.002653 -0.085339 0.280477
-0.001319 -0.085386 0.280614
0.000016 -0.085223 0.280069
0.001344 -0.084936 0.279113
0.002663 -0.084635 0.278115
0.003962 -0.084104 0.276361
0.005255 -0.083739 0.275158
0.006532 -0.083324 0.273790
0.007778 -0.082713 0.271782
0.008951 -0.081613 0.268166
0.010180 -0.081228 0.266902
0.011425 -0.081050 0.266320
0.012594 -0.080416 0.264240
0.013728 -0.079695 0.261876
0.014835 -0.078948 0.259429
0.015918 -0.078201 0.256984
0.017011 -0.077606 0.255038
0.018161 -0.077328 0.254137
0.019290 -0.077005 0.253086
0.020427 -0.076752 0.252269
0.021446 -0.076105 0.250156
0.022500 -0.075642 0.248649
0.023456 -0.074916 0.246280
0.024567 -0.074728 0.245681
0.025664 -0.074517 0.245003
0.026691 -0.074129 0.243748
0.027727 -0.073798 0.242680
0.028813 -0.073621 0.242119
0.029876 -0.073400 0.241413
0.030563 -0.072309 0.237845
0.031160 -0.071086 0.233846
0.032084 -0.070670 0.232498
0.033124 -0.070529 0.232058
0.034152 -0.070372 0.231565
0.035111 -0.070087 0.230650
0.036059 -0.069798 0.229722
0.036903 -0.069330 0.228204
0.037897 -0.069162 0.227674
0.038871 -0.068969 0.227064
0.039787 -0.068684 0.226149
0.040644 -0.068317 0.224962
0.041521 -0.068001 0.223945
0.042398 -0.067700 0.222977
0.043216 -0.067323 0.221755
0.043730 -0.066500 0.219066
0.044373 -0.065909 0.217139
0.044993 -0.065310 0.215185
0.045733 -0.064908 0.213878
0.046244 -0.064205 0.211579
0.046297 -0.062911 0.207331
0.046837 -0.062318 0.205390
0.047524 -0.061941 0.204161
0.048220 -0.061589 0.203017
0.048367 -0.060565 0.199652
0.048540 -0.059612 0.196519
0.048874 -0.058890 0.194147
0.049646 -0.058711 0.193566
0.050129 -0.058204 0.191898
0.050847 -0.057982 0.191171
0.051614 -0.057823 0.190649
0.052277 -0.057555 0.189764
0.052966 -0.057325 0.189005
0.053763 -0.057216 0.188643
0.054310 -0.056851 0.187431
0.054988 -0.056630 0.186697
0.055706 -0.056459 0.186122
0.056443 -0.056311 0.185623
0.057199 -0.056186 0.185195
0.057931 -0.056042 0.184704
0.058627 -0.055868 0.184109
0.059374 -0.055747 0.183688
0.060029 -0.055544 0.182995
0.060686 -0.055350 0.182325
0.061405 -0.055215 0.181852
0.062011 -0.054985 0.181059
0.062731 -0.054860 0.180610
0.063463 -0.054750 0.180205
0.064130 -0.054586 0.179622
0.064825 -0.054451 0.179130
0.065520 -0.054319 0.178643
0.066254 -0.054223 0.178271
0.066890 -0.054049 0.177640
0.067459 -0.053827 0.176847
0.068106 -0.053671 0.176268
0.068633 -0.053426 0.175391
0.069105 -0.053145 0.174390
0.069225 -0.052602 0.172528
0.069851 -0.052452 0.171954
0.070550 -0.052360 0.171563
0.069692 -0.051128 0.167433
0.072209 -0.052372 0.171406
0.073277 -0.052548 0.171877
0.073444 -0.052082 0.170241
0.074101 -0.051969 0.169757
0.074776 -0.051871 0.169315
0.075219 -0.051617 0.168357
0.075524 -0.051273 0.167103
0.075956 -0.051023 0.166148
0.076450 -0.050819 0.165337
0.077127 -0.050739 0.164925
0.077746 -0.050624 0.164392
0.078358 -0.050506 0.163841
0.078924 -0.050361 0.163198
0.079771 -0.050396 0.163129
0.080237 -0.050193 0.162282
0.080881 -0.050103 0.161793
0.081324 -0.049892 0.160906
0.081742 -0.049670 0.159976
0.082307 -0.049540 0.159335
0.082255 -0.049045 0.157511
0.082583 -0.048784 0.156433
0.082927 -0.048536 0.155391
-0.063035 -0.086355 0.290157
-0.061415 -0.086005 0.288929
-0.059833 -0.085692 0.287824
-0.058950 -0.086390 0.290115
-0.057341 -0.086030 0.288856
-0.055790 -0.085744 0.287840
-0.054386 -0.085673 0.287548
-0.052998 -0.085627 0.287336
-0.051634 -0.085617 0.287247
-0.050207 -0.085500 0.286801
-0.048882 -0.085553 0.286923
-0.047563 -0.085622 0.287100
-0.046060 -0.085354 0.286146
-0.044766 -0.085468 0.286474
-0.043423 -0.085494 0.286505
-0.042210 -0.085786 0.287429
-0.041105 -0.086323 0.289173
-0.039854 -0.086582 0.289985
-0.038530 -0.086694 0.290308
-0.037308 -0.087054 0.291458
-0.035980 -0.087182 0.291836
-0.034667 -0.087361 0.292384
-0.033348 -0.087538 0.292925
-0.032045 -0.087775 0.293666
-0.030625 -0.087698 0.293361
-0.029207 -0.087619 0.293048
-0.027844 -0.087705 0.293290
-0.026357 -0.087393 0.292201
-0.024886 -0.087099 0.291176
-0.023445 -0.086884 0.290413
-0.021988 -0.086578 0.289349
-0.020578 -0.086428 0.288809
-0.019252 -0.086640 0.289480
-0.017926 -0.086881 0.290248
-0.016597 -0.087142 0.291085
-0.015255 -0.087384 0.291862
-0.013893 -0.087546 0.292370
-0.012527 -0.087713 0.292900
-0.011139 -0.087755 0.293011
-0.009781 -0.088077 0.294058
-0.008475 -0.089053 0.297292
-0.006997 -0.088252 0.294595
-0.005596 -0.088266 0.294621
-0.003988 -0.083944 0.280178
-0.002651 -0.083827 0.279771
-0.001318 -0.083757 0.279524
0.000013 -0.083676 0.279240
0.001338 -0.083458 0.278501
0.002658 -0.083242 0.277771
0.003957 -0.082751 0.276126
0.005248 -0.082373 0.274860
0.006515 -0.081848 0.273106
0.007753 -0.081189 0.270905
0.008994 -0.080753 0.269448
0.010205 -0.080184 0.267553
0.011426 -0.079812 0.266313
0.012577 -0.079068 0.263837
0.013744 -0.078558 0.262140
0.014752 -0.077295 0.257933
0.015816 -0.076502 0.255296
0.016973 -0.076235 0.254418
0.018133 -0.076015 0.253696
0.019253 -0.075668 0.252548
0.020125 -0.074446 0.248483
0.021323 -0.074497 0.248669
0.022390 -0.074106 0.247382
0.023431 -0.073674 0.245959
0.024531 -0.073462 0.245267
0.025615 -0.073221 0.244482
0.026644 -0.072849 0.243262
0.027768 -0.072759 0.242982
0.028799 -0.072442 0.241947
0.029460 -0.071253 0.237999
0.030301 -0.070574 0.235753
0.031282 -0.070255 0.234709
0.032262 -0.069957 0.233739
0.033226 -0.069647 0.232726
0.034192 -0.069358 0.231787
0.035139 -0.069050 0.230782
0.036130 -0.068846 0.230123
0.037040 -0.068505 0.229008
0.037933 -0.068150 0.227849
0.038881 -0.067911 0.227075
0.039805 -0.067646 0.226214
0.040700 -0.067347 0.225236
0.041555 -0.066997 0.224092
0.042502 -0.066809 0.223487
0.043367 -0.066506 0.222497
0.044061 -0.065960 0.220694
0.044577 -0.065180 0.218105
0.045288 -0.064714 0.216566
0.045896 -0.064124 0.214612
0.046387 -0.063400 0.212211
0.046641 -0.062391 0.208849
0.046893 -0.061420 0.205616
0.047628 -0.061109 0.204590
0.048193 -0.060595 0.202887
0.048808 -0.060165 0.201458
0.048416 -0.058533 0.196005
0.049151 -0.058299 0.195234
0.049554 -0.057689 0.193199
0.050282 -0.057471 0.192477
0.050894 -0.057130 0.191341
0.051640 -0.056950 0.190742
0.052413 -0.056806 0.190260
0.053012 -0.056479 0.189168
0.053671 -0.056227 0.188323
0.054448 -0.056105 0.187911
0.054946 -0.055705 0.186565
0.055766 -0.055638 0.186331
0.056452 -0.055442 0.185664
0.057214 -0.055324 0.185258
0.057959 -0.055194 0.184809
0.058578 -0.054951 0.183976
0.059264 -0.054776 0.183370
0.060093 -0.054736 0.183213
0.060689 -0.054489 0.182360
0.061304 -0.054264 0.181580
0.062040 -0.054152 0.181173
0.062716 -0.053991 0.180600
0.063362 -0.053809 0.179952
0.064058 -0.053675 0.179461
0.064726 -0.053519 0.178896
0.065371 -0.053350 0.178281
0.065987 -0.053162 0.177599
0.066608 -0.052982 0.176941
0.067186 -0.052773 0.176182
0.067725 -0.052538 0.175334
0.068244 -0.052294 0.174451
0.068604 -0.051936 0.173185
0.068902 -0.051539 0.171784
0.069392 -0.051294 0.170887
0.069870 -0.051046 0.169974
0.070215 -0.050708 0.168758
0.071913 -0.051343 0.170776
0.072909 -0.051468 0.171090
0.073346 -0.051200 0.170092
0.073870 -0.050998 0.169309
0.074449 -0.050839 0.168660
0.074904 -0.050598 0.167739
0.075411 -0.050398 0.166944
0.075800 -0.050124 0.165900
0.076391 -0.049988 0.165308
0.077088 -0.049922 0.164943
0.077718 -0.049816 0.164436
0.078299 -0.049680 0.163825
0.078970 -0.049604 0.163404
0.079607 -0.049508 0.162910
0.080205 -0.049390 0.162336
0.080785 -0.049263 0.161726
0.081229 -0.049056 0.160845
0.081643 -0.048835 0.159912
0.081877 -0.048512 0.158636
0.082392 -0.048360 0.157912
0.082345 -0.047884 0.156124
0.082384 -0.047466 0.154519
-0.063023 -0.084962 0.290031
-0.061617 -0.084911 0.289803
-0.059927 -0.084458 0.288202
-0.058771 -0.084753 0.289154
-0.057311 -0.084615 0.288625
-0.055819 -0.084419 0.287902
-0.054465 -0.084430 0.287881
-0.053158 -0.084516 0.288116
-0.051611 -0.084213 0.287028
-0.050544 -0.084699 0.288625
-0.049058 -0.084492 0.287861
-0.047796 -0.084669 0.288409
-0.046409 -0.084628 0.288212
-0.045007 -0.084557 0.287912
-0.043693 -0.084653 0.288180
-0.042420 -0.084835 0.288745
-0.041144 -0.085026 0.289337
-0.039874 -0.085241 0.290013
-0.038556 -0.085366 0.290381
-0.037298 -0.085638 0.291251
-0.035948 -0.085711 0.291445
-0.034677 -0.085987 0.292332
-0.033359 -0.086165 0.292885
-0.032023 -0.086311 0.293329
-0.030658 -0.086387 0.293537
-0.029235 -0.086300 0.293191
-0.027864 -0.086364 0.293362
-0.026384 -0.086081 0.292353
-0.024879 -0.085679 0.290943
-0.023491 -0.085658 0.290829
-0.022030 -0.085352 0.289748
-0.020613 -0.085186 0.289142
-0.019226 -0.085129 0.288912
-0.017964 -0.085661 0.290678
-0.016667 -0.086102 0.292140
-0.015294 -0.086197 0.292427
-0.014020 -0.086917 0.294839
-0.012634 -0.087032 0.295199
-0.011248 -0.087176 0.295658
-0.009974 -0.088359 0.299643
-0.008516 -0.088027 0.298490
-0.007097 -0.088043 0.298522
-0.005456 -0.084632 0.286937
-0.004008 -0.082954 0.281230
-0.002658 -0.082614 0.280060
-0.001323 -0.082501 0.279660
0.000009 -0.082248 0.278791
0.001334 -0.082040 0.278075
0.002647 -0.081702 0.276922
0.003950 -0.081358 0.275750
0.005246 -0.081088 0.274828
0.006511 -0.080543 0.272979
0.007745 -0.079850 0.270629
0.008980 -0.079372 0.269008
0.010182 -0.078759 0.266931
0.011404 -0.078415 0.265771
0.012604 -0.078004 0.264383
0.013526 -0.076103 0.257946
0.014711 -0.075872 0.257173
0.015821 -0.075323 0.255319
0.016977 -0.075055 0.254422
0.018113 -0.074740 0.253368
0.019145 -0.074060 0.251076
0.020216 -0.073603 0.249541
0.021260 -0.073105 0.247872
0.022447 -0.073124 0.247954
0.023445 -0.072557 0.246049
0.024510 -0.072241 0.244998
0.025640 -0.072136 0.244663
0.026680 -0.071798 0.243536
0.027714 -0.071473 0.242456
0.028740 -0.071152 0.241392
0.029531 -0.070299 0.238522
0.030458 -0.069819 0.236916
0.031386 -0.069376 0.235438
0.032309 -0.068954 0.234031
0.033252 -0.068599 0.232851
0.034260 -0.068398 0.232198
0.035247 -0.068167 0.231440
0.036214 -0.067915 0.230609
0.037192 -0.067696 0.229895
0.038129 -0.067418 0.228977
0.039081 -0.067181 0.228199
0.040020 -0.066935 0.227389
0.040717 -0.066308 0.225287
0.041651 -0.066089 0.224567
0.042569 -0.065856 0.223803
0.043428 -0.065545 0.222772
0.044121 -0.065005 0.220960
0.044772 -0.064429 0.219025
0.045508 -0.063998 0.217585
0.045982 -0.063227 0.214986
0.046484 -0.062527 0.212626
0.046346 -0.061014 0.207502
0.047172 -0.060807 0.206819
0.047811 -0.060372 0.205357
0.048618 -0.060163 0.204660
0.047915 -0.058129 0.197757
0.048434 -0.057627 0.196063
0.049228 -0.057466 0.195527
0.049758 -0.057008 0.193981
0.050403 -0.056696 0.192929
0.051102 -0.056456 0.192119
0.051848 -0.056273 0.191505
0.052436 -0.055930 0.190341
0.052940 -0.055510 0.188913
0.053446 -0.055105 0.187535
0.054457 -0.055226 0.187946
0.055089 -0.054965 0.187054
0.055755 -0.054745 0.186303
0.056610 -0.054715 0.186193
0.057240 -0.054473 0.185356
0.057988 -0.054347 0.184918
0.058762 -0.054249 0.184569
0.059318 -0.053957 0.183556
0.060006 -0.053791 0.182970
0.060739 -0.053669 0.182533
0.061314 -0.053413 0.181635
0.062049 -0.053302 0.181227
0.062729 -0.053147 0.180669
0.063361 -0.052956 0.179983
0.064069 -0.052833 0.179526
0.064709 -0.052658 0.178888
0.065279 -0.052431 0.178071
0.065842 -0.052204 0.177249
0.066594 -0.052131 0.176949
0.067068 -0.051845 0.175920
0.067499 -0.051533 0.174800
0.068109 -0.051363 0.174159
0.068353 -0.050926 0.172606
0.068656 -0.050541 0.171229
0.069262 -0.050387 0.170628
0.069654 -0.050081 0.169511
0.070472 -0.050087 0.169441
0.071780 -0.050435 0.170529
0.072621 -0.050452 0.170486
0.073241 -0.050317 0.169924
0.073689 -0.050067 0.168972
0.074268 -0.049911 0.168331
0.074745 -0.049690 0.167466
0.075203 -0.049462 0.166571
0.075665 -0.049241 0.165695
0.076189 -0.049065 0.164963
0.076822 -0.048961 0.164471
0.077445 -0.048854 0.163958
0.078080 -0.048756 0.163472
0.078881 -0.048762 0.163326
0.079562 -0.048695 0.162929
0.080208 -0.048608 0.162455
0.080774 -0.048475 0.161821
0.081264 -0.048299 0.161037
0.081641 -0.048060 0.160033
0.081798 -0.047697 0.158613
0.082354 -0.047571 0.157973
0.082279 -0.047087 0.156134
0.082074 -0.046537 0.154076
-0.062579 -0.082997 0.287915
-0.061572 -0.083475 0.289519
-0.059950 -0.083121 0.288233
-0.058656 -0.083217 0.288509
-0.057547 -0.083586 0.289728
-0.056198 -0.083615 0.289770
-0.054700 -0.083420 0.289035
-0.053329 -0.083413 0.288949
-0.051798 -0.083148 0.287971
-0.050287 -0.082902 0.287061
-0.049089 -0.083173 0.287940
-0.047729 -0.083179 0.287899
-0.046294 -0.083049 0.287390
-0.045001 -0.083174 0.287764
-0.043643 -0.083184 0.287738
-0.042278 -0.083181 0.287668
-0.041154 -0.083667 0.289291
-0.039926 -0.083968 0.290274
-0.038590 -0.084055 0.290517
-0.037293 -0.084237 0.291089
-0.036066 -0.084595 0.292273
-0.034743 -0.084753 0.292761
-0.033341 -0.084719 0.292592
-0.032007 -0.084863 0.293037
-0.030634 -0.084913 0.293157
-0.029228 -0.084874 0.292972
-0.027792 -0.084740 0.292459
-0.026356 -0.084590 0.291892
-0.024905 -0.084371 0.291092
-0.023523 -0.084375 0.291062
-0.022107 -0.084255 0.290603
-0.020626 -0.083848 0.289159
-0.019240 -0.083803 0.288963
-0.017878 -0.083859 0.289121
-0.016553 -0.084113 0.289959
-0.015184 -0.084173 0.290130
-0.013862 -0.084533 0.291339
-0.012582 -0.085250 0.293778
-0.011130 -0.084841 0.292340
-0.009866 -0.085954 0.296146
-0.008534 -0.086750 0.298863
-0.006706 -0.081813 0.281834
-0.005340 -0.081452 0.280568
-0.004005 -0.081470 0.280614
-0.002669 -0.081513 0.280743
-0.001329 -0.081337 0.280125
0.000006 -0.081128 0.279390
0.001333 -0.080920 0.278663
0.002651 -0.080606 0.277574
0.003947 -0.080053 0.275662
0.005240 -0.079737 0.274568
0.006501 -0.079163 0.272589
0.007730 -0.078449 0.270131
0.008954 -0.077890 0.268207
0.010145 -0.077228 0.265928
0.011391 -0.077083 0.265434
0.012315 -0.075000 0.258267
0.013491 -0.074698 0.257236
0.014659 -0.074401 0.256219
0.015807 -0.074057 0.255048
0.016948 -0.073732 0.253939
0.018069 -0.073365 0.252690
0.019094 -0.072684 0.250360
0.020172 -0.072269 0.248944
0.021226 -0.071819 0.247411
0.022352 -0.071648 0.246841
0.023454 -0.071422 0.246084
0.024490 -0.071025 0.244734
0.025578 -0.070806 0.244004
0.026597 -0.070426 0.242718
0.027573 -0.069967 0.241158
0.028545 -0.069536 0.239698
0.029461 -0.069006 0.237896
0.030353 -0.068461 0.236043
0.031300 -0.068076 0.234739
0.032310 -0.067848 0.233982
0.033301 -0.067596 0.233141
0.034260 -0.067299 0.232143
0.035239 -0.067057 0.231337
0.036233 -0.066859 0.230682
0.037129 -0.066495 0.229455
0.038060 -0.066214 0.228514
0.038997 -0.065959 0.227661
0.039925 -0.065702 0.226803
0.040868 -0.065484 0.226079
0.041770 -0.065212 0.225169
0.042705 -0.065003 0.224475
0.043620 -0.064776 0.223718
0.044301 -0.064219 0.221821
0.044809 -0.063444 0.219170
0.045568 -0.063052 0.217840
0.046120 -0.062396 0.215599
0.046742 -0.061862 0.213777
0.047146 -0.061068 0.211056
0.047452 -0.060183 0.208019
0.047790 -0.059374 0.205241
0.046968 -0.057185 0.197692
0.047735 -0.056978 0.196995
0.048503 -0.056781 0.196329
0.049229 -0.056542 0.195516
0.049668 -0.055989 0.193618
0.050245 -0.055608 0.192313
0.050903 -0.055330 0.191359
0.051602 -0.055105 0.190591
0.052120 -0.054698 0.189188
0.052807 -0.054478 0.188435
0.053614 -0.054388 0.188125
0.054343 -0.054223 0.187556
0.055106 -0.054096 0.187116
0.055800 -0.053907 0.186458
0.056488 -0.053718 0.185800
0.057341 -0.053689 0.185692
0.057964 -0.053450 0.184853
0.058640 -0.053265 0.184201
0.059356 -0.053121 0.183689
0.059961 -0.052884 0.182850
0.060680 -0.052753 0.182377
0.061292 -0.052534 0.181593
0.061886 -0.052306 0.180778
0.062557 -0.052147 0.180200
0.063181 -0.051954 0.179501
0.063700 -0.051682 0.178523
0.064458 -0.051608 0.178229
0.065043 -0.051400 0.177465
0.065624 -0.051193 0.176703
0.066308 -0.051071 0.176231
0.066687 -0.050719 0.174964
0.067275 -0.050534 0.174266
0.067831 -0.050329 0.173497
0.068175 -0.049974 0.172207
0.068336 -0.049495 0.170485
0.068887 -0.049307 0.169761
0.069473 -0.049146 0.169130
0.069958 -0.048920 0.168268
0.071197 -0.049220 0.169209
0.072304 -0.049422 0.169810
0.072746 -0.049171 0.168848
0.073312 -0.049008 0.168181
0.073954 -0.048899 0.167695
0.074487 -0.048721 0.166969
0.075018 -0.048545 0.166244
0.075482 -0.048331 0.165381
0.076036 -0.048177 0.164721
0.076636 -0.048056 0.164165
0.077349 -0.048007 0.163850
0.078127 -0.047999 0.163667
0.078728 -0.047883 0.163112
0.079379 -0.047801 0.162661
0.080090 -0.047755 0.162327
0.080596 -0.047589 0.161579
0.081130 -0.047442 0.160889
0.081660 -0.047297 0.160193
0.081863 -0.046966 0.158864
0.082636 -0.046965 0.158643
0.082670 -0.046548 0.157009
0.082717 -0.046147 0.155420
-0.063353 -0.080883 0.285264
-0.062074 -0.080972 0.285520
-0.060883 -0.081182 0.286202
-0.059181 -0.080703 0.284455
-0.058459 -0.081572 0.287457
-0.057215 -0.081734 0.287969
-0.055844 -0.081719 0.287854
-0.054682 -0.082018 0.288843
-0.053294 -0.081984 0.288661
-0.051849 -0.081858 0.288156
-0.050411 -0.081737 0.287668
-0.049180 -0.081954 0.288372
-0.047755 -0.081853 0.287952
-0.046199 -0.081512 0.286690
-0.044939 -0.081690 0.287257
-0.043670 -0.081862 0.287801
-0.042180 -0.081618 0.286881
-0.040987 -0.081953 0.287998
-0.039798 -0.082317 0.289220
-0.038573 -0.082631 0.290263
-0.037326 -0.082919 0.291217
-0.036063 -0.083193 0.292122
-0.034730 -0.083322 0.292518
-0.033384 -0.083427 0.292831
-0.032091 -0.083680 0.293664
-0.030652 -0.083561 0.293194
-0.029244 -0.083517 0.292988
-0.027867 -0.083563 0.293098
-0.026395 -0.083313 0.292172
-0.025000 -0.083292 0.292050
-0.023571 -0.083150 0.291505
-0.022119 -0.082903 0.290596
-0.020744 -0.082932 0.290655
-0.019249 -0.082449 0.288922
-0.017861 -0.082388 0.288671
-0.016537 -0.082639 0.289512
-0.015167 -0.082679 0.289618
-0.013873 -0.083190 0.291374
-0.012529 -0.083479 0.292353
-0.011145 -0.083537 0.292528
-0.009851 -0.084391 0.295491
-0.008446 -0.084410 0.295530
-0.006721 -0.080604 0.282182
-0.005351 -0.080227 0.280841
-0.004007 -0.080121 0.280452
-0.002676 -0.080271 0.280961
-0.001333 -0.080011 0.280036
0.000002 -0.079725 0.279022
0.001328 -0.079478 0.278145
0.002641 -0.079089 0.276777
0.003945 -0.078774 0.275668
0.005233 -0.078372 0.274257
0.006492 -0.077790 0.272216
0.007677 -0.076661 0.268264
0.008913 -0.076289 0.266966
0.010071 -0.075433 0.263970
0.011297 -0.075210 0.263196
0.012339 -0.073933 0.258734
0.013565 -0.073890 0.258592
0.014721 -0.073502 0.257243
0.015835 -0.072982 0.255436
0.016966 -0.072609 0.254142
0.018084 -0.072234 0.252842
0.019147 -0.071698 0.250984
0.020131 -0.070950 0.248382
0.021215 -0.070613 0.247221
0.022303 -0.070327 0.246237
0.023371 -0.070009 0.245143
0.024459 -0.069778 0.244360
0.025493 -0.069422 0.243133
0.026360 -0.068660 0.240490
0.027357 -0.068288 0.239211
0.028399 -0.068050 0.238405
0.029406 -0.067752 0.237386
0.030359 -0.067358 0.236032
0.031381 -0.067136 0.235281
0.032390 -0.066905 0.234501
0.033404 -0.066698 0.233805
0.034369 -0.066411 0.232827
0.035340 -0.066151 0.231944
0.036342 -0.065964 0.231320
0.037293 -0.065698 0.230417
0.038228 -0.065420 0.229472
0.039174 -0.065176 0.228648
0.040098 -0.064910 0.227743
0.041047 -0.064696 0.227024
0.041945 -0.064414 0.226063
0.042869 -0.064186 0.225292
0.043656 -0.063769 0.223859
0.044469 -0.063410 0.222626
0.045154 -0.062888 0.220823
0.045765 -0.062289 0.218746
0.046294 -0.061608 0.216382
0.046844 -0.060984 0.214213
0.046948 -0.059817 0.210141
0.047345 -0.059066 0.207524
0.047620 -0.058194 0.204485
0.047684 -0.057106 0.200682
0.047305 -0.055541 0.195201
0.048035 -0.055313 0.194415
0.048959 -0.055312 0.194430
0.049551 -0.054943 0.193145
0.050159 -0.054605 0.191971
0.050922 -0.054445 0.191421
0.051616 -0.054218 0.190633
0.052068 -0.053748 0.188991
0.052688 -0.053466 0.188004
0.053517 -0.053401 0.187781
0.054280 -0.053273 0.187335
0.054909 -0.053021 0.186449
0.055704 -0.052934 0.186141
0.056514 -0.052863 0.185890
0.057095 -0.052584 0.184904
0.057831 -0.052454 0.184438
0.058580 -0.052339 0.184024
0.059173 -0.052091 0.183136
0.059830 -0.051905 0.182467
0.060459 -0.051700 0.181729
0.061063 -0.051481 0.180936
0.061700 -0.051294 0.180255
0.062401 -0.051166 0.179778
0.062885 -0.050864 0.178688
0.063614 -0.050767 0.178312
0.064352 -0.050680 0.177968
0.064883 -0.050434 0.177062
0.065285 -0.050094 0.175827
0.066074 -0.050057 0.175647
0.066297 -0.049597 0.173982
0.066934 -0.049455 0.173428
0.067296 -0.049115 0.172175
0.067482 -0.048656 0.170505
0.068076 -0.048499 0.169887
0.068675 -0.048349 0.169291
0.069170 -0.048131 0.168449
0.069728 -0.047961 0.167773
0.070834 -0.048166 0.168407
0.071907 -0.048346 0.168943
0.072492 -0.048197 0.168325
0.072823 -0.047884 0.167131
0.073586 -0.047859 0.166934
0.074139 -0.047699 0.166264
0.074597 -0.047482 0.165390
0.075202 -0.047362 0.164848
0.075867 -0.047283 0.164439
0.076611 -0.047253 0.164201
0.077361 -0.047228 0.163968
0.078089 -0.047190 0.163684
0.078691 -0.047077 0.163135
0.079415 -0.047039 0.162836
0.079988 -0.046913 0.162226
0.080441 -0.046719 0.161377
0.081023 -0.046604 0.160789
0.081467 -0.046412 0.159931
0.081636 -0.046068 0.158542
0.082320 -0.046019 0.158161
0.082659 -0.045780 0.157117
0.082516 -0.045280 0.155173
-0.062509 -0.078471 0.281393
-0.061852 -0.079332 0.284424
-0.060952 -0.079913 0.286446
-0.058947 -0.079040 0.283253
-0.058193 -0.079840 0.286060
-0.056990 -0.080050 0.286749
-0.055380 -0.079685 0.285377
-0.054256 -0.080017 0.286504
-0.052942 -0.080079 0.286663
-0.051338 -0.079694 0.285221
-0.050060 -0.079808 0.285564
-0.048918 -0.080153 0.286735
-0.047648 -0.080300 0.287198
-0.046400 -0.080496 0.287833
-0.045112 -0.080630 0.288249
-0.043791 -0.080714 0.288486
-0.042518 -0.080892 0.289061
-0.041187 -0.080971 0.289280
-0.039904 -0.081152 0.289864
-0.038556 -0.081209 0.290008
-0.037338 -0.081555 0.291183
-0.035954 -0.081550 0.291109
-0.034744 -0.081955 0.292493
-0.033413 -0.082099 0.292950
-0.032043 -0.082153 0.293086
-0.030661 -0.082181 0.293131
-0.029391 -0.082528 0.294315
-0.027880 -0.082195 0.293077
-0.026483 -0.082184 0.292987
-0.025022 -0.081963 0.292151
-0.023597 -0.081838 0.291660
-0.022126 -0.081531 0.290520
-0.020679 -0.081278 0.289575
-0.019213 -0.080907 0.288211
-0.017800 -0.080720 0.287504
-0.016514 -0.081126 0.288913
-0.015143 -0.081155 0.288982
-0.013879 -0.081813 0.291291
-0.012450 -0.081542 0.290291
-0.011070 -0.081566 0.290348
-0.009871 -0.083120 0.295851
-0.008116 -0.079726 0.283746
-0.006733 -0.079360 0.282422
-0.005375 -0.079197 0.281818
-0.004026 -0.079081 0.281388
-0.002685 -0.079088 0.281393
-0.001339 -0.078868 0.280596
-0.000001 -0.078477 0.279192
0.001322 -0.077954 0.277321
0.002625 -0.077392 0.275315
0.003904 -0.076714 0.272897
0.005178 -0.076310 0.271452
0.006401 -0.075455 0.268411
0.007642 -0.075072 0.267046
0.008860 -0.074600 0.265368
0.010041 -0.073976 0.263153
0.011221 -0.073480 0.261396
0.012446 -0.073349 0.260936
0.013580 -0.072755 0.258831
0.014692 -0.072153 0.256698
0.015799 -0.071617 0.254805
0.016925 -0.071240 0.253476
0.018042 -0.070876 0.252197
0.019109 -0.070373 0.250422
0.020223 -0.070096 0.249454
0.021259 -0.069591 0.247676
0.022340 -0.069278 0.246585
0.023540 -0.069348 0.246855
0.024482 -0.068688 0.244527
0.025360 -0.067916 0.241804
0.026317 -0.067411 0.240031
0.027333 -0.067095 0.238933
0.028469 -0.067088 0.238933
0.029440 -0.066706 0.237601
0.030374 -0.066273 0.236087
0.031371 -0.066002 0.235150
0.032409 -0.065833 0.234578
0.033441 -0.065664 0.234007
0.034395 -0.065357 0.232943
0.035401 -0.065165 0.232291
0.036381 -0.064938 0.231512
0.037341 -0.064690 0.230659
0.038311 -0.064473 0.229919
0.039277 -0.064261 0.229195
0.040186 -0.063970 0.228190
0.041114 -0.063725 0.227345
0.042009 -0.063440 0.226361
0.042883 -0.063140 0.225322
0.043765 -0.062866 0.224376
0.044495 -0.062392 0.222713
0.045340 -0.062096 0.221689
0.045833 -0.061344 0.219033
0.046719 -0.061139 0.218330
0.047117 -0.060319 0.215429
0.047634 -0.059682 0.213179
0.048173 -0.059098 0.211121
0.047819 -0.057466 0.205314
0.047114 -0.055485 0.198259
0.047335 -0.054652 0.195303
0.047953 -0.054300 0.194064
0.048887 -0.054312 0.194126
0.049382 -0.053844 0.192470
0.050008 -0.053535 0.191380
0.050834 -0.053447 0.191079
0.051595 -0.053293 0.190543
0.052033 -0.052818 0.188856
0.052618 -0.052506 0.187748
0.053340 -0.052338 0.187156
0.054150 -0.052261 0.186885
0.054911 -0.052140 0.186453
0.055617 -0.051971 0.185851
0.056367 -0.051848 0.185410
0.057162 -0.051769 0.185125
0.057859 -0.051606 0.184535
0.058646 -0.051526 0.184243
0.059312 -0.051344 0.183579
0.059862 -0.051068 0.182578
0.060506 -0.050879 0.181886
0.061091 -0.050646 0.181036
0.061672 -0.050417 0.180195
0.062425 -0.050333 0.179869
0.063057 -0.050155 0.179203
0.063585 -0.049899 0.178260
0.064343 -0.049829 0.177972
0.064872 -0.049585 0.177063
0.065424 -0.049365 0.176236
0.066035 -0.049195 0.175582
0.066415 -0.048858 0.174333
0.066701 -0.048462 0.172865
0.067255 -0.048268 0.172115
0.067548 -0.047893 0.170717
0.067990 -0.047631 0.169721
0.068670 -0.047541 0.169331
0.069198 -0.047348 0.168570
0.069774 -0.047193 0.167939
0.070886 -0.047399 0.168590
0.071492 -0.047267 0.168030
0.072015 -0.047082 0.167281
0.072572 -0.046924 0.166621
0.073179 -0.046802 0.166082
0.073674 -0.046610 0.165294
0.074233 -0.046464 0.164659
0.074945 -0.046415 0.164364
0.075600 -0.046331 0.163942
0.076282 -0.046267 0.163580
0.077014 -0.046233 0.163321
0.077609 -0.046119 0.162770
0.078221 -0.046017 0.162256
0.079032 -0.046033 0.162150
0.079607 -0.045912 0.161555
0.080205 -0.045807 0.161009
0.080724 -0.045659 0.160305
0.081147 -0.045460 0.159415
0.081620 -0.045292 0.158627
0.082348 -0.045268 0.158334
0.082689 -0.045034 0.157295
0.082874 -0.044719 0.155972
-0.063621 -0.078508 0.286326
-0.062339 -0.078596 0.286583
-0.060761 -0.078306 0.285465
-0.059935 -0.078996 0.287916
-0.058367 -0.078716 0.286830
-0.057337 -0.079167 0.288407
-0.055749 -0.078849 0.287183
-0.054137 -0.078481 0.285778
-0.052948 -0.078725 0.286599
-0.051403 -0.078435 0.285479
-0.049775 -0.078002 0.283837
-0.048732 -0.078488 0.285539
-0.047586 -0.078830 0.286717
-0.046226 -0.078828 0.286643
-0.044948 -0.078968 0.287090
-0.043765 -0.079290 0.288193
-0.042387 -0.079268 0.288051
-0.041014 -0.079257 0.287946
-0.040033 -0.080025 0.290674
-0.038677 -0.080074 0.290789
-0.037330 -0.080146 0.290987
-0.036212 -0.080733 0.293058
-0.034844 -0.080789 0.293202
-0.033470 -0.080834 0.293306
-0.032045 -0.080755 0.292963
-0.030656 -0.080764 0.292937
-0.029282 -0.080815 0.293069
-0.027843 -0.080685 0.292543
-0.026406 -0.080545 0.291985
-0.024950 -0.080330 0.291155
-0.023569 -0.080343 0.291153
-0.022154 -0.080237 0.290724
-0.020714 -0.080020 0.289895
-0.019306 -0.079905 0.289434
-0.017884 -0.079712 0.288694
-0.016570 -0.080004 0.289713
-0.015200 -0.080056 0.289867
-0.013831 -0.080130 0.290100
-0.012449 -0.080130 0.290064
-0.011095 -0.080338 0.290788
-0.009711 -0.080358 0.290832
-0.008133 -0.078502 0.284087
-0.006741 -0.078073 0.282512
-0.005383 -0.077916 0.281921
-0.004036 -0.077871 0.281742
-0.002689 -0.077773 0.281369
-0.001341 -0.077468 0.280252
-0.000004 -0.077064 0.278777
0.001319 -0.076647 0.277257
0.002620 -0.076030 0.275015
0.003899 -0.075373 0.272634
0.005174 -0.075007 0.271307
0.006406 -0.074269 0.268634
0.007627 -0.073688 0.266531
0.008790 -0.072780 0.263252
0.009973 -0.072245 0.261320
0.011169 -0.071918 0.260143
0.012331 -0.071454 0.258470
0.013508 -0.071157 0.257406
0.014648 -0.070730 0.255871
0.015790 -0.070377 0.254606
0.016909 -0.069976 0.253170
0.018019 -0.069597 0.251817
0.019070 -0.069049 0.249849
0.020126 -0.068586 0.248192
0.021120 -0.067972 0.245991
0.022179 -0.067621 0.244742
0.023191 -0.067169 0.243129
0.024150 -0.066612 0.241139
0.025175 -0.066283 0.239971
0.026297 -0.066224 0.239784
0.027402 -0.066131 0.239472
0.028454 -0.065922 0.238744
0.029522 -0.065764 0.238202
0.030511 -0.065447 0.237082
0.031584 -0.065329 0.236685
0.032626 -0.065154 0.236085
0.033576 -0.064816 0.234890
0.034551 -0.064545 0.233940
0.035456 -0.064163 0.232590
0.036413 -0.063898 0.231661
0.037337 -0.063590 0.230578
0.038344 -0.063438 0.230060
0.039314 -0.063235 0.229357
0.040209 -0.062925 0.228268
0.041142 -0.062689 0.227445
0.042077 -0.062469 0.226683
0.042988 -0.062224 0.225827
0.043801 -0.061853 0.224513
0.044609 -0.061494 0.223241
0.045333 -0.061038 0.221617
0.045866 -0.060351 0.219153
0.046651 -0.060018 0.217977
0.047303 -0.059533 0.216243
0.047839 -0.058924 0.214062
0.047944 -0.057822 0.210086
0.047799 -0.056470 0.205199
0.047639 -0.055154 0.200440
0.047545 -0.053965 0.196142
0.047931 -0.053356 0.193951
0.048648 -0.053131 0.193154
0.049318 -0.052864 0.192201
0.049953 -0.052571 0.191154
0.050847 -0.052555 0.191110
0.051483 -0.052278 0.190118
0.051901 -0.051793 0.188365
0.052571 -0.051571 0.187570
0.053355 -0.051467 0.187201
0.054091 -0.051320 0.186675
0.054802 -0.051156 0.186082
0.055478 -0.050964 0.185386
0.056225 -0.050842 0.184944
0.057003 -0.050752 0.184615
0.057777 -0.050660 0.184278
0.058514 -0.050540 0.183833
0.059240 -0.050414 0.183367
0.059822 -0.050170 0.182469
0.060422 -0.049948 0.181647
0.061170 -0.049853 0.181286
0.061840 -0.049699 0.180704
0.062420 -0.049477 0.179874
0.063049 -0.049299 0.179202
0.063643 -0.049099 0.178445
0.064200 -0.048876 0.177603
0.064741 -0.048647 0.176734
0.065112 -0.048298 0.175427
0.065523 -0.047986 0.174253
0.065845 -0.047619 0.172872
0.066463 -0.047471 0.172286
0.067004 -0.047273 0.171513
0.067455 -0.047017 0.170526
0.067874 -0.046745 0.169478
0.068469 -0.046599 0.168882
0.069025 -0.046431 0.168201
0.069426 -0.046162 0.167154
0.069805 -0.045886 0.166074
0.070786 -0.046007 0.166428
0.071605 -0.046022 0.166391
0.071869 -0.045683 0.165070
0.072541 -0.045608 0.164699
0.073285 -0.045579 0.164491
0.073925 -0.045487 0.164047
0.074617 -0.045429 0.163720
0.075235 -0.045327 0.163229
0.076002 -0.045316 0.163061
0.076738 -0.045287 0.162820
0.077376 -0.045201 0.162367
0.078050 -0.045138 0.161991
0.078693 -0.045059 0.161547
0.079336 -0.044980 0.161102
0.079861 -0.044838 0.160419
0.080318 -0.044660 0.159604
0.081030 -0.044625 0.159292
0.081507 -0.044464 0.158520
0.082214 -0.044429 0.158192
0.082791 -0.044326 0.157609
0.083067 -0.044064 0.156458
-0.062414 -0.075685 0.280817
-0.061059 -0.075649 0.280619
-0.060285 -0.076347 0.283146
-0.059042 -0.076472 0.283541
-0.058005 -0.076873 0.284961
-0.056788 -0.077051 0.285555
-0.055306 -0.076867 0.284806
-0.053979 -0.076897 0.284848
-0.052672 -0.076956 0.285001
-0.051275 -0.076886 0.284671
-0.049861 -0.076783 0.284225
-0.048733 -0.077129 0.285437
-0.047473 -0.077279 0.285925
-0.046223 -0.077456 0.286510
-0.044798 -0.077340 0.286017
-0.043581 -0.077588 0.286865
-0.042258 -0.077658 0.287060
-0.041079 -0.078006 0.288279
-0.040096 -0.078763 0.291010
-0.038739 -0.078811 0.291125
-0.037390 -0.078882 0.291324
-0.036271 -0.079461 0.293398
-0.034901 -0.079517 0.293543
-0.033525 -0.079561 0.293647
-0.031947 -0.079111 0.291925
-0.030673 -0.079406 0.292956
-0.029312 -0.079492 0.293217
-0.027899 -0.079442 0.292978
-0.026414 -0.079168 0.291916
-0.025046 -0.079236 0.292114
-0.023583 -0.078991 0.291165
-0.022226 -0.079095 0.291500
-0.020805 -0.078972 0.290999
-0.019392 -0.078864 0.290560
-0.018013 -0.078885 0.290596
-0.016603 -0.078763 0.290105
-0.015214 -0.078731 0.289949
-0.013780 -0.078436 0.288828
-0.012503 -0.079067 0.291117
-0.011121 -0.079112 0.291253
-0.009570 -0.077794 0.286372
-0.008135 -0.077136 0.283925
-0.006750 -0.076790 0.282625
-0.005396 -0.076706 0.282295
-0.004042 -0.076583 0.281823
-0.002692 -0.076414 0.281182
-0.001345 -0.076179 0.280303
-0.000008 -0.075771 0.278787
0.001312 -0.075142 0.276465
0.002618 -0.074738 0.274969
0.003892 -0.074016 0.272305
0.005176 -0.073787 0.271460
0.006407 -0.073034 0.268689
0.007597 -0.072154 0.265453
0.008800 -0.071633 0.263535
0.009976 -0.071047 0.261385
0.011161 -0.070645 0.259910
0.012261 -0.069839 0.256956
0.013432 -0.069550 0.255901
0.014584 -0.069220 0.254697
0.015703 -0.068790 0.253129
0.016859 -0.068576 0.252358
0.017966 -0.068206 0.251012
0.019031 -0.067728 0.249272
0.020094 -0.067304 0.247729
0.021188 -0.067023 0.246715
0.022199 -0.066522 0.244893
0.023147 -0.065891 0.242596
0.024193 -0.065588 0.241504
0.025311 -0.065499 0.241203
0.026424 -0.065404 0.240879
0.027503 -0.065236 0.240291
0.028546 -0.064998 0.239443
0.029593 -0.064788 0.238701
0.030653 -0.064622 0.238119
0.031702 -0.064445 0.237501
0.032731 -0.064242 0.236783
0.033770 -0.064069 0.236181
0.034794 -0.063880 0.235518
0.035713 -0.063518 0.234217
0.036450 -0.062863 0.231838
0.037501 -0.062772 0.231536
0.038408 -0.062451 0.230388
0.039345 -0.062197 0.229486
0.040310 -0.061998 0.228787
0.041225 -0.061736 0.227854
0.042157 -0.061512 0.227063
0.043070 -0.061271 0.226210
0.043867 -0.060881 0.224804
0.044596 -0.060418 0.223129
0.045362 -0.060025 0.221711
0.046032 -0.059526 0.219903
0.046677 -0.059017 0.218055
0.047365 -0.058585 0.216489
0.047887 -0.057969 0.214242
0.047908 -0.056784 0.209894
0.048346 -0.056134 0.207518
0.047555 -0.054109 0.200060
0.047708 -0.053218 0.196789
0.047981 -0.052493 0.194130
0.048511 -0.052070 0.192589
0.049259 -0.051893 0.191954
0.050037 -0.051753 0.191455
0.050719 -0.051520 0.190614
0.051317 -0.051212 0.189489
0.051830 -0.050831 0.188094
0.052432 -0.050549 0.187063
0.053217 -0.050450 0.186708
0.053932 -0.050289 0.186121
0.054660 -0.050144 0.185593
0.055434 -0.050047 0.185238
0.056095 -0.049851 0.184516
0.056835 -0.049730 0.184070
0.057611 -0.049644 0.183751
0.058360 -0.049539 0.183356
0.058978 -0.049326 0.182562
0.059773 -0.049266 0.182330
0.060313 -0.048999 0.181332
0.061047 -0.048896 0.180936
0.061364 -0.048467 0.179330
0.061966 -0.048270 0.178583
0.062578 -0.048088 0.177884
0.063206 -0.047922 0.177244
0.063762 -0.047706 0.176416
0.064357 -0.047526 0.175715
0.064751 -0.047202 0.174483
0.065178 -0.046912 0.173368
0.065618 -0.046637 0.172309
0.066201 -0.046469 0.171642
0.066652 -0.046215 0.170652
0.067189 -0.046025 0.169894
0.067532 -0.045708 0.168667
0.068308 -0.045689 0.168531
0.068820 -0.045495 0.167748
0.069106 -0.045158 0.166433
0.069473 -0.044881 0.165337
0.070355 -0.044939 0.165470
0.071231 -0.044993 0.165580
0.071632 -0.044748 0.164586
0.072232 -0.044631 0.164061
0.072974 -0.044604 0.163858
0.073641 -0.044532 0.163487
0.074326 -0.044472 0.163152
0.074981 -0.044396 0.162754
0.075840 -0.044440 0.162790
0.076534 -0.044389 0.162467
0.077269 -0.044361 0.162227
0.077985 -0.044324 0.161943
0.078516 -0.044183 0.161275
0.079142 -0.044098 0.160803
0.079721 -0.043988 0.160235
0.080267 -0.043862 0.159601
0.080927 -0.043801 0.159195
0.081513 -0.043701 0.158637
0.082085 -0.043595 0.158055
0.082694 -0.043511 0.157540
0.082892 -0.043214 0.156247
-0.062500 -0.074454 0.281127
-0.061943 -0.075393 0.284603
-0.060453 -0.075212 0.283852
-0.059469 -0.075667 0.285503
-0.058097 -0.075639 0.285328
-0.057156 -0.076183 0.287311
-0.055392 -0.075630 0.285155
-0.053846 -0.075356 0.284051
-0.052346 -0.075132 0.283139
-0.051101 -0.075273 0.283600
-0.049824 -0.075374 0.283910
-0.048460 -0.075345 0.283732
-0.047333 -0.075693 0.284974
-0.046063 -0.075827 0.285408
-0.044625 -0.075683 0.284796
-0.043492 -0.076064 0.286161
-0.042231 -0.076240 0.286755
-0.040905 -0.076304 0.286931
-0.031620 -0.061017 0.229392
-0.030367 -0.060690 0.228110
-0.029334 -0.060793 0.228447
-0.028310 -0.060926 0.228897
-0.027169 -0.060806 0.228398
-0.025988 -0.060586 0.227522
-0.032000 -0.077841 0.292260
-0.030540 -0.077664 0.291536
-0.029204 -0.077800 0.291993
-0.027727 -0.077555 0.291016
-0.026472 -0.077938 0.292401
-0.025113 -0.078041 0.292733
-0.023691 -0.077948 0.292336
-0.022341 -0.078098 0.292847
-0.020981 -0.078227 0.293286
-0.019592 -0.078263 0.293373
-0.018045 -0.077623 0.290934
-0.015358 -0.078063 0.292501
-0.013968 -0.078089 0.292564
-0.012520 -0.077767 0.291324
-0.011142 -0.077847 0.291593
-0.009559 -0.076316 0.285829
-0.008134 -0.075741 0.283647
-0.006762 -0.075536 0.282854
-0.005398 -0.075340 0.282099
-0.004042 -0.075166 0.281428
-0.002691 -0.074970 0.280676
-0.001347 -0.074752 0.279845
-0.000011 -0.074249 0.277949
0.001308 -0.073778 0.276175
0.002610 -0.073304 0.274393
0.003886 -0.072654 0.271955
0.005135 -0.071955 0.269334
0.006364 -0.071312 0.266925
0.007606 -0.070997 0.265745
0.008800 -0.070395 0.263496
0.009982 -0.069858 0.261488
0.011165 -0.069446 0.259954
0.012266 -0.068656 0.257006
0.013423 -0.068298 0.255675
0.014585 -0.068020 0.254646
0.015751 -0.067801 0.253840
0.016840 -0.067307 0.252009
0.017913 -0.066821 0.250206
0.019020 -0.066511 0.249065
0.020095 -0.066133 0.247668
0.021269 -0.066105 0.247586
0.022272 -0.065577 0.245629
0.023150 -0.064752 0.242566
0.024258 -0.064615 0.242079
0.025325 -0.064391 0.241266
0.026439 -0.064298 0.240945
0.027515 -0.064123 0.240320
0.028610 -0.064007 0.239916
0.029694 -0.063874 0.239450
0.030740 -0.063674 0.238734
0.031822 -0.063559 0.238335
0.032828 -0.063305 0.237416
0.033826 -0.063054 0.236511
0.034843 -0.062852 0.235787
0.035676 -0.062343 0.233914
0.036661 -0.062121 0.233119
0.037497 -0.061667 0.231450
0.038429 -0.061393 0.230459
0.039382 -0.061166 0.229643
0.040353 -0.060979 0.228978
0.041271 -0.060723 0.228055
0.042198 -0.060493 0.227228
0.043108 -0.060251 0.226357
0.044026 -0.060032 0.225570
0.044776 -0.059600 0.223984
0.045435 -0.059069 0.222025
0.045950 -0.058380 0.219469
0.046799 -0.058135 0.218583
0.047593 -0.057835 0.217488
0.048272 -0.057412 0.215929
0.048575 -0.056566 0.212781
0.047226 -0.053873 0.202677
0.047343 -0.052924 0.199137
0.047666 -0.052240 0.196588
0.047857 -0.051439 0.193599
0.048747 -0.051406 0.193500
0.049261 -0.050985 0.191937
0.049834 -0.050639 0.190657
0.050426 -0.050325 0.189496
0.051167 -0.050167 0.188918
0.051707 -0.049822 0.187635
0.052444 -0.049675 0.187096
0.053141 -0.049495 0.186432
0.053819 -0.049303 0.185720
0.054576 -0.049190 0.185303
0.055342 -0.049087 0.184923
0.056001 -0.048895 0.184204
0.056769 -0.048802 0.183855
0.057625 -0.048787 0.183799
0.058311 -0.048629 0.183205
0.059040 -0.048512 0.182759
0.059764 -0.048395 0.182311
0.060347 -0.048168 0.181446
0.060778 -0.047827 0.180150
0.061424 -0.047663 0.179518
0.061943 -0.047407 0.178534
0.062632 -0.047286 0.178057
0.063320 -0.047167 0.177584
0.063792 -0.046892 0.176523
0.064229 -0.046599 0.175389
0.064331 -0.046074 0.173379
0.065095 -0.046030 0.173174
0.065516 -0.045748 0.172073
0.065994 -0.045512 0.171140
0.066552 -0.045336 0.170431
0.066855 -0.044993 0.169087
0.067602 -0.044954 0.168883
0.067939 -0.044645 0.167664
0.068540 -0.044515 0.167110
0.069028 -0.044316 0.166294
0.069599 -0.044174 0.165687
0.070029 -0.043947 0.164756
0.071270 -0.044228 0.165725
0.071698 -0.044004 0.164796
0.071920 -0.043659 0.163413
0.072848 -0.043746 0.163639
0.073647 -0.043755 0.163566
0.074160 -0.043595 0.162857
0.074852 -0.043542 0.162543
0.075617 -0.043533 0.162387
0.076475 -0.043577 0.162419
0.077143 -0.043513 0.162044
0.077851 -0.043472 0.161749
0.078452 -0.043373 0.161230
0.079140 -0.043323 0.160889
0.079671 -0.043190 0.160228
0.080356 -0.043141 0.159875
0.080890 -0.043013 0.159222
0.081455 -0.042904 0.158629
0.082159 -0.042870 0.158304
0.082472 -0.042633 0.157227
0.083027 -0.042525 0.156615
-0.061813 -0.072316 0.277958
-0.061124 -0.073062 0.280757
-0.059787 -0.073050 0.280641
-0.059197 -0.073970 0.284108
-0.058179 -0.074388 0.285640
-0.057237 -0.074924 0.287625
-0.055471 -0.074381 0.285468
-0.053939 -0.074133 0.284444
-0.052647 -0.074209 0.284666
-0.050801 -0.073490 0.281835
-0.049525 -0.073577 0.282099
-0.048339 -0.073809 0.282915
-0.046903 -0.073659 0.282272
-0.045719 -0.073910 0.283163
-0.044233 -0.073672 0.282180
-0.043306 -0.074380 0.284823
-0.042297 -0.074987 0.287076
-0.034127 -0.062518 0.239283
-0.031816 -0.060292 0.230708
-0.030811 -0.060470 0.231336
-0.029732 -0.060512 0.231442
-0.028685 -0.060625 0.231823
-0.027595 -0.060652 0.231874
-0.026346 -0.060317 0.230546
-0.032086 -0.076648 0.292906
-0.030713 -0.076699 0.293040
-0.029395 -0.076901 0.293751
-0.027757 -0.076243 0.291181
-0.026441 -0.076447 0.291907
-0.024989 -0.076259 0.291135
-0.023601 -0.076256 0.291071
-0.022277 -0.076471 0.291841
-0.021017 -0.076950 0.293622
-0.015853 -0.062185 0.237247
-0.014738 -0.062253 0.237469
-0.013809 -0.063185 0.240990
-0.013993 -0.076815 0.292899
-0.012544 -0.076499 0.291659
-0.010926 -0.074953 0.285733
-0.009517 -0.074596 0.284343
-0.008138 -0.074398 0.283563
-0.006767 -0.074207 0.282808
-0.005402 -0.074011 0.282039
-0.004041 -0.073758 0.281055
-0.002693 -0.073607 0.280463
-0.001344 -0.073065 0.278383
-0.000014 -0.072544 0.276384
0.001298 -0.072089 0.274641
0.002592 -0.071585 0.272713
0.003854 -0.070824 0.269807
0.005109 -0.070345 0.267980
0.006368 -0.070113 0.267093
0.007612 -0.069818 0.265969
0.008813 -0.069264 0.263864
0.009983 -0.068638 0.261483
0.011160 -0.068193 0.259793
0.012217 -0.067179 0.255939
0.013403 -0.066992 0.255238
0.014552 -0.066666 0.254009
0.015671 -0.066263 0.252490
0.016777 -0.065866 0.250994
0.017817 -0.065282 0.248785
0.018938 -0.065048 0.247914
0.020049 -0.064811 0.247032
0.021133 -0.064515 0.245927
0.022141 -0.064034 0.244115
0.023221 -0.063795 0.243232
0.024301 -0.063581 0.242442
0.025373 -0.063365 0.241646
0.026473 -0.063236 0.241182
0.027564 -0.063095 0.240676
0.028635 -0.062923 0.240052
0.029762 -0.062882 0.239928
0.030813 -0.062688 0.239225
0.031859 -0.062501 0.238545
0.032943 -0.062397 0.238183
0.034001 -0.062252 0.237667
0.034963 -0.061946 0.236535
0.035937 -0.061681 0.235560
0.036600 -0.060913 0.232668
0.037804 -0.061064 0.233283
0.038458 -0.060344 0.230570
0.039425 -0.060141 0.229834
0.040409 -0.059975 0.229238
0.041351 -0.059757 0.228443
0.042186 -0.059398 0.227111
0.043146 -0.059230 0.226504
0.044119 -0.059086 0.225994
0.044992 -0.058819 0.225012
0.045780 -0.058456 0.223661
0.046353 -0.057842 0.221347
0.047222 -0.057615 0.220515
0.047976 -0.057262 0.219200
0.047603 -0.055606 0.212896
0.047263 -0.054057 0.206997
0.047912 -0.053681 0.205588
0.048065 -0.052773 0.202143
0.048288 -0.051978 0.199126
0.047893 -0.050560 0.193718
0.048671 -0.050410 0.193173
0.049074 -0.049886 0.191186
0.049584 -0.049487 0.189681
0.050161 -0.049168 0.188479
0.051006 -0.049118 0.188307
0.051679 -0.048907 0.187518
0.052315 -0.048669 0.186620
0.053099 -0.048574 0.186271
0.053671 -0.048291 0.185199
0.054355 -0.048117 0.184543
0.055121 -0.048019 0.184177
0.055792 -0.047843 0.183512
0.056518 -0.047720 0.183042
0.057269 -0.047620 0.182661
0.058075 -0.047568 0.182464
0.058810 -0.047461 0.182052
0.059506 -0.047326 0.181527
0.060201 -0.047194 0.181015
0.060830 -0.047014 0.180316
0.061531 -0.046895 0.179845
0.062082 -0.046666 0.178950
0.062663 -0.046465 0.178161
0.063374 -0.046365 0.177754
0.063915 -0.046144 0.176883
0.063764 -0.045437 0.174142
0.064285 -0.045220 0.173279
0.064759 -0.044975 0.172308
0.065411 -0.044860 0.171826
0.065903 -0.044638 0.170934
0.066305 -0.044362 0.169831
0.066929 -0.044239 0.169311
0.067358 -0.043992 0.168310
0.068031 -0.043908 0.167931
0.068809 -0.043893 0.167810
0.069085 -0.043561 0.166477
0.069567 -0.043366 0.165657
0.070320 -0.043342 0.165491
0.071302 -0.043458 0.165852
0.071774 -0.043264 0.165024
0.072148 -0.043016 0.163988
0.073045 -0.043082 0.164142
0.073609 -0.042951 0.163543
0.074129 -0.042799 0.162854
0.074894 -0.042789 0.162702
0.075454 -0.042664 0.162107
0.076194 -0.042642 0.161897
0.077063 -0.042692 0.161954
0.077656 -0.042589 0.161423
0.078302 -0.042517 0.161006
0.078927 -0.042436 0.160542
0.079422 -0.042286 0.159816
0.079934 -0.042149 0.159128
0.080438 -0.042009 0.158427
0.081022 -0.041914 0.157884
0.081587 -0.041811 0.157305
0.082149 -0.041708 0.156717
0.082798 -0.041651 0.156293
-0.059279 -0.072721 0.284413
-0.045073 -0.056578 0.221222
-0.044075 -0.056640 0.221407
-0.043204 -0.056874 0.222261
-0.042015 -0.056690 0.221484
-0.052723 -0.072959 0.284975
-0.050628 -0.071901 0.280769
-0.049237 -0.071813 0.280352
-0.048045 -0.072019 0.281084
-0.046489 -0.071676 0.279674
-0.045400 -0.072053 0.281071
-0.044300 -0.072435 0.282490
-0.043372 -0.073132 0.285136
-0.035968 -0.062601 0.244014
-0.034180 -0.061470 0.239547
-0.031943 -0.059425 0.231524
-0.030911 -0.059558 0.231984
-0.029863 -0.059667 0.232354
-0.028780 -0.059713 0.232480
-0.027685 -0.059736 0.232520
-0.026299 -0.059106 0.230014
-0.029443 -0.075616 0.294079
-0.027601 -0.074426 0.289394
-0.026498 -0.075208 0.292379
-0.025275 -0.075717 0.294300
-0.023885 -0.075757 0.294405
-0.017591 -0.063224 0.245616
-0.016132 -0.062118 0.241281
-0.014970 -0.062071 0.241062
-0.013833 -0.062132 0.241262
-0.012678 -0.062111 0.241147
-0.011537 -0.062163 0.241320
-0.010400 -0.062255 0.241648
-0.010947 -0.073705 0.286057
-0.009515 -0.073196 0.284054
-0.008120 -0.072857 0.282708
-0.006766 -0.072810 0.282501
-0.005392 -0.072489 0.281233
-0.004039 -0.072312 0.280528
-0.002687 -0.072013 0.279349
-0.001347 -0.071768 0.278382
-0.000017 -0.071248 0.276352
0.001295 -0.070778 0.274519
0.002560 -0.069470 0.269438
0.003843 -0.069395 0.269140
0.005101 -0.069002 0.267613
0.006354 -0.068720 0.266520
0.007584 -0.068314 0.264948
0.008795 -0.067887 0.263294
0.009991 -0.067458 0.261637
0.011156 -0.066943 0.259647
0.012230 -0.066041 0.256157
0.013374 -0.065641 0.254617
0.014511 -0.065282 0.253236
0.015640 -0.064940 0.251926
0.016733 -0.064510 0.250275
0.017874 -0.064311 0.249522
0.018879 -0.063675 0.247074
0.020004 -0.063498 0.246407
0.021080 -0.063191 0.245240
0.022159 -0.062927 0.244243
0.023246 -0.062710 0.243426
0.024305 -0.062441 0.242408
0.025414 -0.062319 0.241965
0.026499 -0.062152 0.241347
0.027584 -0.061997 0.240779
0.028688 -0.061897 0.240424
0.029774 -0.061767 0.239951
0.030805 -0.061537 0.239095
0.031873 -0.061393 0.238573
0.032920 -0.061222 0.237944
0.033869 -0.060886 0.236676
0.034786 -0.060515 0.235273
0.035866 -0.060441 0.235024
0.036827 -0.060178 0.234041
0.037786 -0.059927 0.233106
0.038688 -0.059604 0.231887
0.039535 -0.059215 0.230417
0.040599 -0.059164 0.230258
0.041549 -0.058952 0.229475
0.042296 -0.058472 0.227647
0.043320 -0.058389 0.227364
0.044292 -0.058241 0.226828
0.045208 -0.058029 0.226043
0.046140 -0.057847 0.225373
0.046853 -0.057405 0.223689
0.047493 -0.056894 0.221735
0.046441 -0.054423 0.212142
0.047045 -0.053957 0.210361
0.047701 -0.053568 0.208880
0.048885 -0.053776 0.209725
0.047003 -0.050670 0.197643
0.047416 -0.050113 0.195499
0.048135 -0.049892 0.194668
0.048663 -0.049487 0.193116
0.049037 -0.048943 0.191016
0.049260 -0.048271 0.188418
0.050094 -0.048210 0.188205
0.050838 -0.048067 0.187669
