ply
format ascii 1.0
element vertex 1747
property float x
property float y
property float z
end_header
0.059970 0.060747 0.179998
0.060805 0.060725 0.179882
0.061267 0.060335 0.178676
0.061957 0.060177 0.178155
0.062726 0.060100 0.177866
0.062944 0.059503 0.176040
0.063735 0.059457 0.175836
0.064377 0.059274 0.175227
0.064913 0.059001 0.174346
0.065529 0.058805 0.173691
0.065837 0.058342 0.172241
0.066168 0.057909 0.170879
0.066316 0.057330 0.169079
0.066593 0.056874 0.167643
0.067197 0.056706 0.167050
0.067691 0.056449 0.166190
0.068180 0.056195 0.165335
0.068560 0.055856 0.164228
0.068852 0.055455 0.162932
0.069330 0.055211 0.162094
0.069812 0.054976 0.161276
0.070297 0.054748 0.160475
0.070854 0.054581 0.159847
0.072044 0.054899 0.160633
0.074685 0.056304 0.164589
0.075345 0.056202 0.164129
0.075907 0.056030 0.163454
0.075477 0.055137 0.160675
0.074106 0.053581 0.155964
0.074264 0.053151 0.154530
0.074747 0.052960 0.153783
0.075013 0.052620 0.152600
0.075408 0.052377 0.151689
0.075666 0.052044 0.150511
0.076184 0.051895 0.149859
0.076446 0.051575 0.148706
0.076728 0.051276 0.147605
0.077501 0.051306 0.147443
0.077732 0.050981 0.146253
0.078103 0.050751 0.145329
-0.999648 0.644785 1.834393
-0.990653 0.644724 1.837408
-0.981246 0.644392 1.839521
-0.973257 0.644994 1.844180
-0.963102 0.644160 1.844612
-0.954320 0.644237 1.847537
-1.043352 0.710969 2.041774
-1.034355 0.711535 2.046150
-1.013963 0.704200 2.027665
-0.986691 0.691898 1.994698
-0.977976 0.692496 1.998778
-0.861221 0.615849 1.779554
-0.852672 0.615821 1.781393
-0.843075 0.615029 1.780938
-0.837022 0.616832 1.787921
-0.826899 0.615642 1.786154
-0.927427 0.752450 2.196443
-0.914363 0.750269 2.191403
-0.901435 0.748151 2.186468
-0.890510 0.747666 2.186238
-0.882055 0.749268 2.192046
-0.871953 0.749494 2.193767
-0.856700 0.745244 2.182326
-0.705973 0.629271 1.844257
-0.688312 0.621190 1.821263
-0.679806 0.621271 1.822147
-0.673272 0.623179 1.828352
-0.664822 0.623341 1.829391
-0.657094 0.624193 1.832419
-0.651296 0.626927 1.840936
-0.314822 0.329370 0.968332
-0.309716 0.328789 0.966759
-0.307159 0.330938 0.973195
-0.301939 0.330240 0.971246
-0.298044 0.330990 0.973543
-0.292964 0.330429 0.971968
-0.289581 0.331795 0.976050
-0.283513 0.330078 0.971049
-0.065662 0.100835 0.296513
-0.063272 0.099276 0.291903
-0.061908 0.099294 0.291927
-0.061208 0.100403 0.295158
-0.058948 0.098944 0.290840
-0.057679 0.099119 0.291322
-0.056250 0.099022 0.291003
-0.054927 0.099109 0.291226
-0.038626 0.071484 0.210027
-0.037410 0.071056 0.208743
-0.036342 0.070892 0.208237
-0.035142 0.070456 0.206930
-0.034303 0.070742 0.207742
-0.033387 0.070878 0.208117
-0.032033 0.070064 0.205699
-0.035044 0.079047 0.232043
-0.033551 0.078122 0.229297
-0.032558 0.078338 0.229899
-0.029588 0.073647 0.216106
-0.028616 0.073773 0.216448
-0.027653 0.073934 0.216892
-0.026635 0.073954 0.216923
-0.025632 0.074018 0.217081
-0.024637 0.074112 0.217329
-0.023624 0.074159 0.217441
-0.022648 0.074328 0.217911
-0.021672 0.074516 0.218436
-0.020674 0.074645 0.218788
-0.019732 0.075000 0.219802
-0.018817 0.075499 0.221241
-0.017823 0.075725 0.221876
-0.016822 0.075947 0.222505
-0.015822 0.076206 0.223240
-0.014801 0.076393 0.223765
-0.013761 0.076501 0.224060
-0.012716 0.076597 0.224319
-0.011678 0.076758 0.224771
-0.010634 0.076908 0.225192
-0.009585 0.077057 0.225609
-0.008528 0.077164 0.225903
-0.007468 0.077273 0.226207
-0.006421 0.077578 0.227084
-0.005349 0.077638 0.227243
-0.004293 0.078023 0.228357
-0.003221 0.078292 0.229131
-0.002136 0.078321 0.229205
-0.001052 0.078597 0.229999
0.000038 0.078851 0.230733
0.001136 0.079075 0.231381
0.002239 0.079276 0.231961
0.003340 0.079284 0.231975
0.004461 0.079651 0.233043
0.005577 0.079796 0.233464
0.006690 0.079866 0.233665
0.007809 0.079965 0.233950
0.008925 0.080020 0.234109
0.010030 0.079976 0.233981
0.011155 0.080078 0.234279
0.012268 0.080084 0.234296
0.013357 0.079949 0.233901
0.015378 0.084982 0.248629
0.016603 0.085215 0.249315
0.017723 0.084910 0.248428
0.018860 0.084721 0.247880
0.020084 0.084921 0.248472
0.021186 0.084609 0.247565
0.022334 0.084510 0.247281
0.023321 0.083837 0.245322
0.024444 0.083694 0.244910
0.025809 0.084355 0.246855
0.026534 0.082959 0.242778
0.027590 0.082669 0.241939
0.028628 0.082352 0.241023
0.029616 0.081920 0.239769
0.030627 0.081581 0.238788
0.031581 0.081120 0.237447
0.032619 0.080897 0.236807
0.033158 0.079495 0.232713
0.033783 0.078381 0.229463
0.034316 0.077131 0.225813
0.035668 0.077742 0.227612
0.036603 0.077435 0.226723
0.037274 0.076600 0.224290
0.038265 0.076455 0.223873
0.038954 0.075728 0.221753
0.039797 0.075331 0.220599
0.040903 0.075438 0.220920
0.041621 0.074843 0.219185
0.042303 0.074214 0.217349
0.043074 0.073768 0.216050
0.044083 0.073740 0.215972
0.044884 0.073373 0.214902
0.045477 0.072690 0.212902
0.046524 0.072745 0.213067
0.047140 0.072140 0.211294
0.047105 0.070584 0.206736
0.048320 0.070926 0.207737
0.049201 0.070775 0.207288
0.049785 0.070209 0.205627
0.050641 0.070043 0.205134
0.051486 0.069867 0.204611
0.052174 0.069488 0.203490
0.052694 0.068904 0.201768
0.053111 0.068208 0.199716
0.053681 0.067730 0.198300
0.054171 0.067170 0.196641
0.054732 0.066713 0.195285
0.055002 0.065924 0.192954
0.055669 0.065629 0.192065
0.056192 0.065176 0.190714
0.056672 0.064688 0.189257
0.057253 0.064330 0.188176
0.057676 0.063807 0.186612
0.058014 0.063207 0.184823
0.058527 0.062813 0.183632
0.059027 0.062416 0.182429
0.059628 0.062138 0.181570
0.059860 0.061487 0.179620
0.060540 0.061308 0.179046
0.061231 0.061146 0.178518
0.061782 0.060849 0.177596
0.061998 0.060235 0.175743
0.063029 0.060420 0.176216
0.063285 0.059866 0.174531
0.063976 0.059732 0.174070
0.064700 0.059632 0.173703
0.065173 0.059306 0.172674
0.065803 0.059129 0.172074
0.066188 0.058740 0.170854
0.066691 0.058463 0.169956
0.066871 0.057913 0.168260
0.066954 0.057293 0.166358
0.067415 0.057008 0.165424
0.068076 0.056896 0.164989
0.068448 0.056547 0.163864
0.069026 0.056376 0.163246
0.069381 0.056027 0.162112
0.070072 0.055955 0.161772
0.070479 0.055660 0.160783
0.070934 0.055409 0.159917
0.071898 0.055557 0.160192
0.073725 0.056360 0.162352
0.074546 0.056386 0.162261
0.074841 0.056018 0.161031
0.074450 0.055149 0.158357
0.073963 0.054228 0.155529
0.074001 0.053706 0.153847
0.074543 0.053557 0.153224
0.074813 0.053217 0.152049
0.075232 0.052988 0.151186
0.075689 0.052790 0.150405
0.076134 0.052589 0.149604
0.076560 0.052377 0.148768
0.076845 0.052074 0.147663
0.077447 0.051990 0.147171
0.077817 0.051752 0.146237
0.078149 0.051494 0.145235
-0.998783 0.653192 1.830673
-0.990220 0.653410 1.834538
-0.979726 0.652347 1.834672
-0.970523 0.652132 1.837062
-0.960977 0.651682 1.838666
-0.952223 0.651766 1.841660
-0.941810 0.650706 1.841307
-1.032987 0.720482 2.041561
-1.022512 0.720019 2.042938
-1.013534 0.720611 2.047199
-0.860557 0.623937 1.776753
-0.851122 0.623255 1.776775
-0.841578 0.622479 1.776442
-0.836302 0.624877 1.785089
-0.825425 0.623096 1.781724
-0.930608 0.765538 2.202841
-0.916654 0.762616 2.195806
-0.902516 0.759473 2.188053
-0.891428 0.758853 2.187496
-0.882496 0.760076 2.192189
-0.871024 0.759115 2.190520
-0.843099 0.743619 2.146826
-0.833867 0.744435 2.150146
-0.705263 0.637388 1.841740
-0.692447 0.633619 1.831578
-0.683647 0.633477 1.831848
-0.676422 0.634809 1.836342
-0.667764 0.634814 1.836955
-0.658196 0.633943 1.834992
-0.651312 0.635669 1.840509
-0.315001 0.334145 0.968726
-0.311903 0.335721 0.973443
-0.307208 0.335599 0.973222
-0.302744 0.335730 0.973721
-0.298661 0.336294 0.975460
-0.293364 0.335488 0.973210
-0.289377 0.336179 0.975290
-0.283087 0.334172 0.969532
-0.065920 0.102642 0.297714
-0.063699 0.101339 0.293912
-0.062201 0.101155 0.293353
-0.061388 0.102102 0.296073
-0.059464 0.101203 0.293436
-0.057936 0.100949 0.292673
-0.056616 0.101056 0.292951
-0.055676 0.101864 0.295262
-0.054616 0.102487 0.297037
-0.037350 0.071931 0.208453
-0.036127 0.071457 0.207054
-0.035069 0.071293 0.206556
-0.033991 0.071075 0.205900
-0.033078 0.071203 0.206245
-0.036581 0.081129 0.234968
-0.035498 0.081189 0.235113
-0.033774 0.079739 0.230887
-0.032572 0.079466 0.230067
-0.031063 0.078401 0.226954
-0.029957 0.078312 0.226669
-0.028516 0.077309 0.223740
-0.026986 0.075975 0.219853
-0.025821 0.075608 0.218764
-0.024560 0.074914 0.216729
-0.023536 0.074917 0.216711
-0.022593 0.075189 0.217472
-0.021612 0.075354 0.217924
-0.020643 0.075577 0.218546
-0.019654 0.075750 0.219020
-0.018659 0.075920 0.219488
-0.017667 0.076118 0.220039
-0.016689 0.076405 0.220846
-0.015725 0.076804 0.221977
-0.014734 0.077115 0.222852
-0.013698 0.077224 0.223148
-0.012663 0.077359 0.223516
-0.011627 0.077505 0.223920
-0.010585 0.077639 0.224287
-0.009537 0.077760 0.224621
-0.008486 0.077878 0.224942
-0.007433 0.078012 0.225313
-0.006381 0.078199 0.225838
-0.005328 0.078452 0.226554
-0.004263 0.078606 0.226986
-0.003199 0.078919 0.227876
-0.002125 0.079114 0.228429
-0.001043 0.079248 0.228805
0.000041 0.079463 0.229414
0.001134 0.079774 0.230304
0.002244 0.080421 0.232163
0.003349 0.080522 0.232447
0.004455 0.080582 0.232613
0.005566 0.080695 0.232935
0.006677 0.080779 0.233174
0.007791 0.080860 0.233403
0.008900 0.080874 0.233442
0.010029 0.081051 0.233950
0.011131 0.080992 0.233779
0.012277 0.081236 0.234484
0.013464 0.081685 0.235781
0.014753 0.082640 0.238540
0.016619 0.086460 0.249567
0.017750 0.086202 0.248828
0.018858 0.085870 0.247872
0.020088 0.086098 0.248537
0.021204 0.085843 0.247805
0.022302 0.085543 0.246946
0.023410 0.085312 0.246286
0.024335 0.084466 0.243850
0.025475 0.084408 0.243692
0.026431 0.083771 0.241859
0.027428 0.083315 0.240551
0.028402 0.082824 0.239144
0.029318 0.082211 0.237383
0.030303 0.081829 0.236288
0.031328 0.081576 0.235567
0.032315 0.081249 0.234631
0.033127 0.080514 0.232519
0.034135 0.080290 0.231882
0.034558 0.078745 0.227427
0.035472 0.078380 0.226383
0.036616 0.078530 0.226824
0.037312 0.077736 0.224539
0.038124 0.077223 0.223063
0.038860 0.076586 0.221231
0.039710 0.076203 0.220130
0.040654 0.076013 0.219588
0.041397 0.075468 0.218018
0.042143 0.074954 0.216537
0.042829 0.074360 0.214825
0.043783 0.074248 0.214505
0.044822 0.074282 0.214606
0.045169 0.073195 0.211463
0.045912 0.072781 0.210268
0.046622 0.072333 0.208971
0.047315 0.071878 0.207655
0.048045 0.071497 0.206550
0.049040 0.071518 0.206602
0.049689 0.071042 0.205221
0.050347 0.070599 0.203931
0.051148 0.070368 0.203255
0.051820 0.069971 0.202094
0.052593 0.069722 0.201362
0.053050 0.069072 0.199467
0.053800 0.068819 0.198718
0.054382 0.068363 0.197381
0.054558 0.067421 0.194639
0.054831 0.066628 0.192326
0.055568 0.066416 0.191685
0.056144 0.066021 0.190517
0.056596 0.065495 0.188967
0.057117 0.065064 0.187691
0.057569 0.064568 0.186224
0.057824 0.063871 0.184173
0.058478 0.063628 0.183431
0.059117 0.063377 0.182662
0.059773 0.063150 0.181959
0.060255 0.062749 0.180753
0.060628 0.062246 0.179251
0.061169 0.061929 0.178280
0.061912 0.061821 0.177909
0.062430 0.061494 0.176905
0.062903 0.061133 0.175797
0.063591 0.060987 0.175306
0.063996 0.060577 0.174052
0.064788 0.060539 0.173865
0.065181 0.060134 0.172619
0.065375 0.059557 0.170876
0.066041 0.059420 0.170391
0.066670 0.059253 0.169816
0.066991 0.058820 0.168474
0.067286 0.058374 0.167093
0.067463 0.057838 0.165450
0.067871 0.057510 0.164397
0.068531 0.057399 0.163963
0.068772 0.056946 0.162544
0.069240 0.056688 0.161678
0.069977 0.056653 0.161445
0.070514 0.056458 0.160750
0.070788 0.056060 0.159471
0.072131 0.056508 0.160592
0.073595 0.057040 0.161941
0.074340 0.057009 0.161685
0.074462 0.056506 0.160083
0.073958 0.055543 0.157176
0.074066 0.055055 0.155609
0.074193 0.054591 0.154104
0.074169 0.054025 0.152310
0.074760 0.053915 0.151791
0.075145 0.053659 0.150858
0.075505 0.053391 0.149882
0.076087 0.053283 0.149349
0.076440 0.053019 0.148368
0.076955 0.052871 0.147704
0.077442 0.052706 0.146986
0.077756 0.052427 0.145940
0.078228 0.052260 0.145195
-1.000501 0.663297 1.831611
-0.991226 0.663053 1.834259
-0.982861 0.663418 1.838465
-0.973611 0.663188 1.840895
-0.956136 0.657300 1.827472
-0.944220 0.655159 1.824316
-0.956071 0.669626 1.867341
-1.029933 0.728213 2.033580
-1.017918 0.726622 2.031878
-0.986186 0.710791 1.990179
-0.977434 0.711376 1.994284
-0.861920 0.633503 1.778079
-0.853554 0.633615 1.780412
-0.842960 0.632059 1.777971
-0.836890 0.633899 1.784998
-0.825747 0.631895 1.781123
-0.919103 0.766452 2.174435
-0.913354 0.770301 2.186765
-0.900186 0.767910 2.181316
-0.888332 0.766598 2.178858
-0.880535 0.768798 2.186318
-0.869139 0.767871 2.184824
-0.855940 0.765309 2.178612
-0.846553 0.766136 2.181986
-0.706474 0.647248 1.844200
-0.692262 0.642147 1.830425
-0.682839 0.641415 1.829051
-0.676069 0.643189 1.834782
-0.668210 0.643960 1.837613
-0.658920 0.643354 1.836473
-0.649898 0.642998 1.836005
-0.314694 0.338404 0.967607
-0.309166 0.337345 0.964741
-0.304115 0.336784 0.963281
-0.301021 0.338405 0.968049
-0.296714 0.338691 0.968983
-0.291577 0.338024 0.967178
-0.287104 0.338119 0.967538
-0.280349 0.335487 0.960082
-0.066010 0.104196 0.298155
-0.063754 0.102823 0.294205
-0.062070 0.102331 0.292777
-0.061466 0.103639 0.296494
-0.059728 0.103050 0.294785
-0.058183 0.102774 0.293970
-0.056923 0.103002 0.294593
-0.055588 0.103101 0.294849
-0.054529 0.103731 0.296621
-0.054401 0.106213 0.303685
-0.053188 0.106651 0.304906
-0.046850 0.108631 0.310389
-0.033848 0.081015 0.231457
-0.032598 0.080627 0.230323
-0.031120 0.079627 0.227437
-0.029729 0.078786 0.225011
-0.028523 0.078394 0.223864
-0.027362 0.078098 0.222994
-0.026187 0.077739 0.221941
-0.024823 0.076762 0.219127
-0.023371 0.075418 0.215267
-0.022416 0.075629 0.215845
-0.021554 0.076189 0.217420
-0.020521 0.076172 0.217346
-0.019506 0.076221 0.217464
-0.018539 0.076476 0.218168
-0.017589 0.076835 0.219169
-0.016666 0.077360 0.220645
-0.015690 0.077698 0.221587
-0.014684 0.077924 0.222212
-0.013658 0.078071 0.222611
-0.012634 0.078256 0.223118
-0.011578 0.078256 0.223101
-0.010543 0.078414 0.223533
-0.009509 0.078620 0.224102
-0.008442 0.078559 0.223912
-0.007403 0.078791 0.224558
-0.006356 0.078998 0.225132
-0.005302 0.079191 0.225669
-0.004245 0.079409 0.226276
-0.003179 0.079560 0.226694
-0.002107 0.079647 0.226931
-0.001036 0.080028 0.228005
0.000045 0.080849 0.230333
0.001144 0.081381 0.231841
0.002261 0.082010 0.233623
0.003382 0.082350 0.234584
0.004491 0.082297 0.234428
0.005614 0.082457 0.234878
0.006738 0.082586 0.235240
0.007805 0.082073 0.233775
0.008871 0.081679 0.232649
0.009992 0.081825 0.233065
0.011128 0.082055 0.233716
0.012176 0.081649 0.232560
0.013304 0.081799 0.232988
0.014572 0.082722 0.235618
0.016537 0.087189 0.248343
0.017703 0.087131 0.248180
0.018826 0.086883 0.247477
0.019991 0.086841 0.247362
0.021149 0.086778 0.247188
0.022202 0.086311 0.245861
0.023131 0.085434 0.243369
0.024228 0.085230 0.242795
0.025340 0.085099 0.242427
0.026317 0.084541 0.240846
0.027367 0.084254 0.240034
0.028289 0.083614 0.238218
0.029192 0.082968 0.236385
0.030255 0.082808 0.235936
0.031007 0.081838 0.233182
0.031945 0.081407 0.231960
0.032798 0.080797 0.230228
0.033618 0.080149 0.228390
0.034432 0.079525 0.226620
0.035260 0.078970 0.225046
0.036310 0.078932 0.224942
0.037135 0.078418 0.223486
0.037973 0.077963 0.222194
0.038791 0.077489 0.220849
0.039641 0.077105 0.219758
0.040606 0.076956 0.219336
0.041321 0.076354 0.217623
0.042114 0.075922 0.216397
0.042733 0.075204 0.214350
0.043590 0.074927 0.213562
0.044467 0.074698 0.212908
0.045224 0.074280 0.211716
0.045720 0.073463 0.209383
0.046696 0.073434 0.209297
0.047363 0.072930 0.207856
0.048112 0.072572 0.206826
0.048920 0.072315 0.206087
0.049741 0.072086 0.205425
0.050250 0.071422 0.203520
0.051118 0.071285 0.203116
0.051853 0.070969 0.202203
0.052247 0.070209 0.200018
0.052844 0.069742 0.198669
0.053550 0.069432 0.197766
0.053708 0.068436 0.194905
0.054538 0.068314 0.194535
0.054881 0.067598 0.192467
0.055194 0.066867 0.190358
0.055597 0.066269 0.188624
0.056279 0.066016 0.187870
0.057070 0.065897 0.187493
0.057541 0.065417 0.186090
0.058135 0.065091 0.185119
0.058185 0.064173 0.182465
0.058551 0.063625 0.180860
0.059141 0.063334 0.179981
0.059787 0.063111 0.179293
0.060550 0.063015 0.178964
0.061181 0.062785 0.178253
0.061776 0.062526 0.177454
0.062477 0.062380 0.176972
0.063053 0.062114 0.176146
0.063597 0.061824 0.175249
0.064196 0.061595 0.174520
0.064838 0.061413 0.173921
0.065439 0.061196 0.173221
0.066004 0.060951 0.172437
0.066157 0.060337 0.170604
0.066796 0.060176 0.170049
0.067269 0.059870 0.169081
0.067325 0.059205 0.167095
0.067661 0.058799 0.165836
0.068078 0.058472 0.164798
0.068359 0.058037 0.163449
0.068727 0.057685 0.162330
0.069328 0.057534 0.161774
0.070023 0.057464 0.161437
0.070587 0.057288 0.160800
0.071197 0.057153 0.160271
0.072188 0.057324 0.160592
0.073529 0.057766 0.161664
0.074089 0.057592 0.161005
0.074556 0.057350 0.160147
0.073834 0.056206 0.156771
0.073769 0.055582 0.154840
0.074100 0.055266 0.153764
0.074304 0.054862 0.152437
0.074562 0.054506 0.151236
0.075061 0.054331 0.150531
0.075347 0.054007 0.149406
0.075848 0.053841 0.148713
0.076310 0.053651 0.147943
0.076663 0.053388 0.146965
0.077333 0.053350 0.146596
0.077691 0.053099 0.145631
0.078196 0.052951 0.144942
-0.999475 0.671591 1.827446
-0.990119 0.671282 1.829996
-0.980878 0.671046 1.832610
-0.973709 0.672237 1.838997
-0.964968 0.672355 1.842331
-0.952750 0.670031 1.838846
-0.950247 0.674560 1.854062
-1.034027 0.741008 2.039637
-1.020018 0.737981 2.034115
-0.993854 0.726018 2.003792
-0.985014 0.726600 2.007943
-0.862715 0.642674 1.778175
-0.852801 0.641629 1.777349
-0.842517 0.640282 1.775595
-0.835557 0.641460 1.780758
-0.826627 0.641135 1.781670
-0.919704 0.777340 2.174627
-0.912148 0.779702 2.182691
-0.899450 0.777673 2.178394
-0.890308 0.778709 2.182611
-0.880350 0.779046 2.184806
-0.869910 0.778961 2.185753
-0.860476 0.779785 2.189191
-0.708570 0.657961 1.848927
-0.694258 0.652721 1.834997
-0.684177 0.651377 1.831967
-0.678797 0.654532 1.841546
-0.669965 0.654398 1.841833
-0.658416 0.651571 1.834496
-0.652236 0.654054 1.842068
-0.308959 0.336738 0.949786
-0.308081 0.340716 0.961180
-0.304404 0.341672 0.964035
-0.299787 0.341585 0.963934
-0.294636 0.340876 0.962065
-0.289522 0.340191 0.960245
-0.281953 0.336554 0.950078
-0.278557 0.337860 0.953852
-0.066418 0.106263 0.300028
-0.064280 0.105077 0.296662
-0.062763 0.104878 0.296081
-0.062075 0.106085 0.299468
-0.060404 0.105632 0.298166
-0.058954 0.105551 0.297915
-0.057715 0.105854 0.298743
-0.056536 0.106284 0.299930
-0.055423 0.106865 0.301543
-0.054313 0.107482 0.303254
-0.053101 0.107924 0.304473
-0.052911 0.110527 0.311784
-0.048944 0.111540 0.314542
-0.046771 0.109922 0.309946
-0.045340 0.110000 0.310131
-0.043801 0.109811 0.309567
-0.031249 0.081046 0.228449
-0.029988 0.080556 0.227044
-0.028737 0.080059 0.225618
-0.027251 0.078842 0.222163
-0.025927 0.078015 0.219811
-0.024284 0.076121 0.214451
-0.023242 0.076024 0.214155
-0.022241 0.076063 0.214241
-0.021287 0.076272 0.214807
-0.020325 0.076474 0.215353
-0.019286 0.076390 0.215096
-0.018307 0.076550 0.215524
-0.017333 0.076749 0.216064
-0.016845 0.079265 0.223126
-0.015776 0.079195 0.222906
-0.014698 0.079067 0.222526
-0.013728 0.079552 0.223873
-0.012680 0.079621 0.224046
-0.011664 0.079926 0.224886
-0.010592 0.079865 0.224698
-0.009545 0.080006 0.225076
-0.008503 0.080235 0.225705
-0.007415 0.080022 0.225091
-0.006356 0.080115 0.225337
-0.005295 0.080204 0.225575
-0.004228 0.080229 0.225630
-0.003159 0.080216 0.225582
-0.002093 0.080317 0.225856
-0.001061 0.083355 0.234387
0.000049 0.083359 0.234388
0.001316 0.094576 0.265916
0.002570 0.094365 0.265315
0.003825 0.094292 0.265099
0.005059 0.093870 0.263905
0.006309 0.093863 0.263880
0.007461 0.092634 0.260419
0.007908 0.084239 0.236815
0.008828 0.082350 0.231502
0.009945 0.082510 0.231948
0.011076 0.082748 0.232616
0.012248 0.083213 0.233920
0.013490 0.084042 0.236251
0.014936 0.085913 0.241512
0.016462 0.087946 0.247226
0.017551 0.087530 0.246059
0.018598 0.086972 0.244492
0.019805 0.087180 0.245080
0.020896 0.086884 0.244251
0.021937 0.086417 0.242944
0.022926 0.085806 0.241230
0.023990 0.085521 0.240432
0.025000 0.085079 0.239195
0.025959 0.084506 0.237589
0.027108 0.084574 0.237788
0.028070 0.084077 0.236396
0.029075 0.083740 0.235454
0.030097 0.083477 0.234720
0.031006 0.082931 0.233192
0.031428 0.081162 0.228224
0.032375 0.080823 0.227277
0.033520 0.080984 0.227735
0.034195 0.080035 0.225070
0.035182 0.079852 0.224563
0.036233 0.079819 0.224474
0.036988 0.079156 0.222613
0.037938 0.078935 0.221994
0.038819 0.078586 0.221018
0.039658 0.078172 0.219855
0.040638 0.078050 0.219515
0.041495 0.077705 0.218545
0.041949 0.076640 0.215550
0.042704 0.076161 0.214203
0.043426 0.075648 0.212758
0.044261 0.075350 0.211917
0.045105 0.075080 0.211153
0.045893 0.074731 0.210166
0.046668 0.074376 0.209163
0.047103 0.073506 0.206707
0.047606 0.072774 0.204639
0.048792 0.073094 0.205530
0.048964 0.071913 0.202197
0.049845 0.071799 0.201862
0.050609 0.071524 0.201073
0.051271 0.071116 0.199909
0.051881 0.070653 0.198590
0.052705 0.070493 0.198117
0.053150 0.069841 0.196261
0.053808 0.069485 0.195237
0.053939 0.068473 0.192365
0.054100 0.067532 0.189694
0.054762 0.067237 0.188832
0.055474 0.067011 0.188165
0.055983 0.066551 0.186836
0.056646 0.066286 0.186054
0.057219 0.065926 0.184999
0.057413 0.065146 0.182767
0.058284 0.065147 0.182722
0.058836 0.064796 0.181686
0.059382 0.064447 0.180657
0.060045 0.064235 0.180004
0.060518 0.063828 0.178806
0.061246 0.063698 0.178377
0.061827 0.063420 0.177532
0.062157 0.062896 0.175994
0.062717 0.062615 0.175134
0.063409 0.062471 0.174655
0.063831 0.062069 0.173450
0.064535 0.061948 0.173027
0.065216 0.061808 0.172545
0.065610 0.061403 0.171319
0.066092 0.061089 0.170345
0.066661 0.060862 0.169609
0.067110 0.060532 0.168585
0.067427 0.060093 0.167249
0.067880 0.059783 0.166270
0.068137 0.059310 0.164834
0.068326 0.058789 0.163261
0.068988 0.058683 0.162834
0.068949 0.057989 0.160774
0.070120 0.058318 0.161541
0.070517 0.058002 0.160519
0.071151 0.057886 0.160042
0.072308 0.058192 0.160728
0.073082 0.058188 0.160546
0.073684 0.058048 0.159984
0.073904 0.057613 0.158603
0.073741 0.056892 0.156430
0.073639 0.056231 0.154420
0.073913 0.055869 0.153223
0.074150 0.055486 0.151966
0.074343 0.055077 0.150632
0.074822 0.054887 0.149888
0.075265 0.054674 0.149074
0.075553 0.054353 0.147961
0.076106 0.054228 0.147370
0.076493 0.053987 0.146458
0.076984 0.053824 0.145745
0.077429 0.053632 0.144946
0.077817 0.053404 0.144042
-0.998598 0.679969 1.823479
-0.990628 0.680602 1.828642
-0.982228 0.680949 1.832906
-0.973707 0.681219 1.836835
-0.964743 0.681181 1.839810
-0.956213 0.681452 1.843501
-0.949382 0.682952 1.850404
-1.028243 0.746710 2.026139
-1.011395 0.741521 2.014910
-0.990944 0.733565 1.995997
-0.982107 0.734136 2.000150
-0.862732 0.651274 1.776603
-0.852117 0.649681 1.774374
-0.843807 0.649831 1.776812
-0.836375 0.650668 1.781047
-0.825881 0.649116 1.778659
-0.918912 0.787049 2.171468
-0.908084 0.786602 2.171730
-0.896313 0.785317 2.169608
-0.886940 0.786129 2.173207
-0.879148 0.788379 2.180720
-0.866611 0.786378 2.176409
-0.704946 0.663344 1.838686
-0.694652 0.661820 1.835292
-0.685336 0.661201 1.834356
-0.678504 0.662994 1.840069
-0.670660 0.663832 1.843093
-0.661008 0.662880 1.841103
-0.651666 0.662217 1.839875
-0.307708 0.344854 0.959823
-0.297211 0.338058 0.941079
-0.299529 0.345854 0.962938
-0.290639 0.340749 0.948866
-0.289154 0.344302 0.958889
-0.282593 0.341829 0.952113
-0.273839 0.336579 0.937591
-0.066318 0.107523 0.299601
-0.064829 0.107393 0.299224
-0.063699 0.107867 0.300528
-0.062244 0.107799 0.300320
-0.060718 0.107602 0.299752
-0.059377 0.107732 0.300092
-0.058279 0.108320 0.301707
-0.057108 0.108798 0.303015
-0.056181 0.109777 0.305716
-0.054499 0.109296 0.304348
-0.053320 0.109821 0.305785
-0.052824 0.111825 0.311336
-0.050818 0.110655 0.308048
-0.049447 0.110836 0.308524
-0.048861 0.112846 0.314088
-0.046990 0.111918 0.311472
-0.045100 0.110885 0.308565
-0.043726 0.111095 0.309119
-0.042295 0.111169 0.309292
-0.029936 0.081497 0.226715
-0.028787 0.081276 0.226077
-0.027676 0.081148 0.225698
-0.025869 0.078887 0.219387
-0.024315 0.077242 0.214790
-0.023146 0.076731 0.213349
-0.022166 0.076827 0.213593
-0.021204 0.077000 0.214053
-0.020148 0.076830 0.213559
-0.019202 0.077085 0.214248
-0.018199 0.077125 0.214337
-0.017161 0.077018 0.214021
-0.016813 0.080185 0.222799
-0.019872 0.101106 0.280906
-0.018465 0.100681 0.279702
-0.017042 0.100095 0.278049
-0.012824 0.081619 0.226707
-0.011779 0.081814 0.227230
-0.010692 0.081718 0.226948
-0.009617 0.081713 0.226917
-0.008527 0.081558 0.226471
-0.007398 0.080936 0.224729
-0.006329 0.080872 0.224538
-0.005277 0.081044 0.225000
-0.004210 0.081012 0.224899
-0.003146 0.081030 0.224936
-0.002080 0.081034 0.224937
-0.001196 0.095462 0.264972
0.000060 0.095466 0.264973
0.001318 0.095669 0.265525
0.002570 0.095456 0.264925
0.003822 0.095381 0.264709
0.005065 0.095169 0.264111
0.006271 0.094479 0.262189
0.007452 0.093705 0.260035
0.008683 0.093694 0.260001
0.009783 0.092437 0.256509
0.009853 0.082808 0.229786
0.011303 0.085541 0.237366
0.013199 0.090848 0.252090
0.014097 0.088972 0.246885
0.015256 0.088904 0.246696
0.016374 0.088622 0.245912
0.017539 0.088620 0.245907
0.018604 0.088142 0.244582
0.019729 0.087985 0.244148
0.020868 0.087905 0.243929
0.021790 0.086970 0.241339
0.022733 0.086204 0.239217
0.023910 0.086357 0.239644
0.024897 0.085841 0.238217
0.025872 0.085333 0.236810
0.027031 0.085447 0.237130
0.027985 0.084928 0.235694
0.028977 0.084559 0.234676
0.029975 0.084236 0.233784
0.030929 0.083816 0.232623
0.031319 0.081950 0.227449
0.032346 0.081819 0.227090
0.033312 0.081546 0.226334
0.034120 0.080916 0.224589
0.035046 0.080595 0.223702
0.036095 0.080568 0.223630
0.036903 0.080018 0.222107
0.037904 0.079908 0.221802
0.038795 0.079576 0.220883
0.039765 0.079421 0.220452
0.040629 0.079066 0.219467
0.041339 0.078437 0.217721
0.042122 0.077974 0.216433
0.042555 0.076900 0.213450
0.043305 0.076435 0.212156
0.044270 0.076364 0.211953
0.045049 0.075981 0.210885
0.045581 0.075207 0.208729
0.046357 0.074860 0.207756
0.046887 0.074138 0.205742
0.047487 0.073553 0.204110
0.048306 0.073325 0.203464
0.049102 0.073072 0.202748
0.049792 0.072674 0.201626
0.050367 0.072126 0.200087
0.050866 0.071490 0.198305
0.051515 0.071085 0.197158
0.052041 0.070528 0.195590
0.052855 0.070374 0.195138
0.053539 0.070055 0.194227
0.054214 0.069735 0.193309
0.054735 0.069231 0.191878
0.054951 0.068363 0.189440
0.055037 0.067366 0.186639
0.055727 0.067126 0.185935
0.056506 0.067000 0.185544
0.057117 0.066682 0.184619
0.057584 0.066207 0.183258
0.058045 0.065740 0.181914
0.058736 0.065544 0.181318
0.059497 0.065429 0.180945
0.060116 0.065164 0.180153
0.060783 0.064959 0.179521
0.061360 0.064663 0.178639
0.061786 0.064220 0.177343
0.062087 0.063659 0.175721
0.062558 0.063285 0.174613
0.063157 0.063049 0.173882
0.063709 0.062773 0.173034
0.064407 0.062646 0.172597
0.064975 0.062397 0.171817
0.065477 0.062092 0.170880
0.065981 0.061796 0.169965
0.066464 0.061487 0.169010
0.067151 0.061374 0.168587
0.067504 0.060960 0.167334
0.067984 0.060670 0.166419
0.068154 0.060113 0.164766
0.068760 0.059949 0.164186
0.069196 0.059641 0.163208
0.069846 0.059524 0.162746
0.070513 0.059423 0.162323
0.071099 0.059257 0.161715
0.071585 0.059012 0.160887
0.072578 0.059186 0.161193
0.073252 0.059098 0.160779
0.073454 0.058635 0.159340
0.073704 0.058220 0.158025
0.073533 0.057485 0.155838
0.073554 0.056913 0.154088
0.073869 0.056577 0.152975
0.073837 0.055985 0.151163
0.074069 0.055603 0.149911
0.074455 0.055343 0.148982
0.074786 0.055048 0.147953
0.075168 0.054795 0.147029
0.075570 0.054561 0.146148
0.076124 0.054440 0.145562
0.076543 0.054226 0.144717
0.077018 0.054055 0.143977
0.077640 0.053990 0.143509
-0.997738 0.688345 1.819466
-0.989239 0.688612 1.823708
-0.980391 0.688640 1.827178
-0.972806 0.689565 1.832902
-0.962867 0.688823 1.834069
-0.953982 0.688829 1.837101
-0.947464 0.690561 1.844627
-1.030936 0.758539 2.029275
-1.012959 0.752462 2.015938
-0.990543 0.742939 1.993193
-0.981689 0.743501 1.997360
-0.860079 0.657834 1.769480
-0.852372 0.658446 1.773294
-0.842587 0.657449 1.772685
-0.835005 0.658169 1.776621
-0.827454 0.658929 1.780585
-0.906218 0.795339 2.165976
-0.894789 0.794322 2.164676
-0.886639 0.796228 2.171270
-0.876615 0.796477 2.173283
-0.866539 0.796683 2.175117
-0.708562 0.675542 1.847287
-0.695189 0.671069 1.835919
-0.684330 0.668941 1.830912
-0.682562 0.675758 1.850349
-0.671302 0.673234 1.844168
-0.660235 0.670839 1.838295
-0.652245 0.671550 1.840886
-0.267849 0.328270 0.902305
-0.273483 0.340579 0.936250
-0.066076 0.108546 0.298527
-0.064706 0.108607 0.298681
-0.063827 0.109513 0.301159
-0.062050 0.108883 0.299413
-0.060678 0.108953 0.299588
-0.059382 0.109165 0.300153
-0.058225 0.109651 0.301470
-0.057031 0.110089 0.302653
-0.056044 0.110959 0.305021
-0.055012 0.111783 0.307261
-0.053653 0.111970 0.307751
-0.052702 0.113042 0.310673
-0.051169 0.112893 0.310236
-0.049756 0.113008 0.310523
-0.048451 0.113380 0.311518
-0.046968 0.113348 0.311400
-0.045009 0.112129 0.308023
-0.043281 0.111422 0.306051
-0.041906 0.111605 0.306524
-0.041263 0.113822 0.312583
-0.038997 0.111560 0.306342
-0.025823 0.079792 0.219065
-0.024493 0.078842 0.216436
-0.023029 0.077358 0.212342
-0.022094 0.077595 0.212971
-0.021113 0.077688 0.213206
-0.020067 0.077541 0.212782
-0.019108 0.077728 0.213276
-0.018112 0.077782 0.213406
-0.017129 0.077898 0.213704
-0.019834 0.102260 0.280491
-0.018429 0.101830 0.279288
-0.017009 0.101237 0.277637
-0.015800 0.101909 0.279459
-0.014348 0.100995 0.276933
-0.010958 0.084879 0.232724
-0.009739 0.083872 0.229946
-0.008507 0.082468 0.226083
-0.007373 0.081764 0.224137
-0.006302 0.081635 0.223771
-0.005241 0.081607 0.223681
-0.004205 0.082044 0.224866
-0.003131 0.081796 0.224172
-0.002072 0.081913 0.224482
-0.001194 0.096935 0.265640
0.000064 0.096940 0.265641
0.001318 0.096647 0.264826
0.002575 0.096766 0.265145
0.003821 0.096515 0.264448
0.005049 0.096030 0.263111
0.006239 0.095173 0.260754
0.007455 0.094920 0.260055
0.008628 0.094278 0.258292
0.009770 0.093490 0.256128
0.010878 0.092594 0.253670
0.012063 0.092463 0.253306
0.013181 0.091883 0.251716
0.014140 0.090389 0.247620
0.015233 0.089914 0.246318
0.016405 0.089936 0.246377
0.017512 0.089624 0.245524
0.018583 0.089179 0.244304
0.019673 0.088873 0.243468
0.020690 0.088286 0.241860
0.021827 0.088246 0.241751
0.022676 0.087105 0.238630
0.023820 0.087152 0.238761
0.024698 0.086262 0.236324
0.025706 0.085888 0.235303
0.026845 0.085961 0.235506
0.027737 0.085270 0.233617
0.028771 0.085053 0.233024
0.029919 0.085175 0.233361
0.030732 0.084368 0.231152
0.031599 0.083761 0.229492
0.032254 0.082650 0.226452
0.033257 0.082474 0.225972
0.034083 0.081882 0.224351
0.034930 0.081376 0.222965
0.035988 0.081378 0.222973
0.036901 0.081059 0.222101
0.037791 0.080710 0.221142
0.038759 0.080542 0.220682
0.039630 0.080185 0.219704
0.040574 0.079990 0.219168
0.041326 0.079437 0.217648
0.041937 0.078647 0.215480
0.042930 0.078591 0.215323
0.043201 0.077249 0.211640
0.043567 0.076133 0.208573
0.044579 0.076170 0.208668
0.045178 0.075516 0.206867
0.046067 0.075363 0.206438
0.046894 0.075118 0.205753
0.047162 0.074006 0.202693
0.048177 0.074087 0.202900
0.048952 0.073801 0.202102
0.049656 0.073423 0.201047
0.050541 0.073321 0.200748
0.050536 0.071956 0.196989
0.051061 0.071381 0.195390
0.051698 0.070980 0.194267
0.052457 0.070757 0.193629
0.053214 0.070541 0.193008
0.053888 0.070223 0.192105
0.054438 0.069757 0.190794
0.054906 0.069202 0.189239
0.055463 0.068775 0.188033
0.055997 0.068335 0.186788
0.056441 0.067799 0.185277
0.057218 0.067674 0.184889
0.057878 0.067417 0.184135
0.058202 0.066781 0.182345
0.058595 0.066243 0.180820
0.059171 0.065923 0.179888
0.059870 0.065748 0.179347
0.060587 0.065597 0.178869
0.061210 0.065350 0.178128
0.061656 0.064924 0.176892
0.061540 0.063925 0.174095
0.062312 0.063862 0.173844
0.062993 0.063709 0.173345
0.063561 0.063447 0.172545
0.064126 0.063189 0.171752
0.064821 0.063065 0.171317
0.065510 0.062937 0.170871
0.065869 0.062499 0.169575
0.066255 0.062097 0.168376
0.066904 0.061949 0.167861
0.067440 0.061701 0.167068
0.068234 0.061691 0.166918
0.068839 0.061512 0.166305
0.068983 0.060932 0.164600
0.070459 0.061526 0.166065
0.070830 0.061154 0.164911
0.070464 0.060160 0.162079
0.071066 0.060005 0.161506
0.072048 0.060172 0.161789
0.072632 0.060005 0.161169
0.073372 0.059970 0.160896
0.073446 0.059398 0.159175
0.073925 0.059160 0.158347
0.073384 0.058120 0.155366
0.073298 0.057457 0.153392
0.073590 0.057102 0.152234
0.073778 0.056674 0.150875
0.073999 0.056279 0.149599
0.074415 0.056038 0.148727
0.074710 0.055712 0.147622
0.075137 0.055490 0.146783
0.075458 0.055194 0.145742
0.075815 0.054930 0.144776
0.076193 0.054686 0.143856
0.076594 0.054462 0.142979
0.077177 0.054371 0.142442
-0.994652 0.695150 1.811316
-0.985389 0.694863 1.814165
-0.977427 0.695496 1.819280
-0.969268 0.696001 1.823932
-0.961007 0.696442 1.828290
-0.951363 0.695881 1.829892
-0.943160 0.696373 1.834143
-1.030404 0.768017 2.025978
-1.014153 0.763157 2.016148
-0.985140 0.748506 1.980261
-0.976312 0.749055 1.984421
-0.860143 0.666448 1.767888
-0.850909 0.665873 1.768583
-0.844787 0.667747 1.775694
-0.836145 0.667647 1.777476
-0.829117 0.668849 1.782641
-0.904066 0.803780 2.159483
-0.891155 0.801397 2.154590
-0.879501 0.800102 2.152545
-0.875405 0.805733 2.169074
-0.863042 0.803800 2.165179
-0.711151 0.686839 1.853158
-0.696228 0.680823 1.837827
-0.686091 0.679395 1.834825
-0.682213 0.684207 1.848633
-0.671496 0.682197 1.843967
-0.661973 0.681364 1.842435
-0.067115 0.111691 0.303235
-0.064730 0.110065 0.298812
-0.064542 0.112185 0.304556
-0.062869 0.111762 0.303395
-0.060912 0.110802 0.300776
-0.059675 0.111137 0.301670
-0.058498 0.111603 0.302917
-0.057337 0.112125 0.304315
-0.056259 0.112838 0.306232
-0.055193 0.113617 0.308325
-0.054097 0.114373 0.310353
-0.053050 0.115277 0.312782
-0.052079 0.116402 0.315811
-0.050800 0.116887 0.317100
-0.049682 0.117781 0.319499
-0.048628 0.118888 0.322475
-0.047139 0.118969 0.322667
-0.043750 0.114102 0.309440
-0.042481 0.114618 0.310811
-0.041191 0.115111 0.312119
-0.038928 0.112823 0.305888
-0.037953 0.114234 0.309686
-0.024449 0.079733 0.216114
-0.022994 0.078252 0.212080
-0.022013 0.078325 0.212260
-0.021042 0.078444 0.212563
-0.020027 0.078402 0.212429
-0.019013 0.078358 0.212292
-0.018056 0.078561 0.212823
-0.019883 0.103867 0.281308
-0.018272 0.102294 0.277027
-0.016980 0.102400 0.277293
-0.015768 0.103054 0.279040
-0.014319 0.102130 0.276518
-0.011001 0.086350 0.233778
-0.009860 0.086042 0.232928
-0.008548 0.083985 0.227343
-0.007305 0.082096 0.222217
-0.006261 0.082197 0.222476
-0.005216 0.082329 0.222820
-0.004153 0.082146 0.222313
-0.003106 0.082299 0.222717
-0.002060 0.082636 0.223616
-0.001192 0.098383 0.266217
0.000068 0.098388 0.266218
0.001325 0.098148 0.265559
0.002580 0.098045 0.265270
0.003833 0.097961 0.265033
0.005048 0.097181 0.262916
0.006238 0.096334 0.260616
0.007390 0.095272 0.257738
0.008607 0.095229 0.257615
0.009806 0.095021 0.257047
0.010935 0.094254 0.254968
0.012079 0.093759 0.253624
0.013011 0.091848 0.248452
0.014157 0.091649 0.247912
0.015189 0.090797 0.245605
0.016364 0.090854 0.245757
0.017504 0.090727 0.245412
0.018557 0.090193 0.243968
0.019639 0.089852 0.243046
0.020696 0.089441 0.241933
0.021737 0.089007 0.240761
0.022761 0.088552 0.239530
0.023729 0.087932 0.237856
0.024785 0.087676 0.237165
0.025758 0.087166 0.235785
0.026755 0.086772 0.234721
0.027760 0.086439 0.233821
0.028728 0.086017 0.232683
0.029694 0.085620 0.231610
0.030734 0.085458 0.231173
0.031311 0.084065 0.227406
0.032202 0.083577 0.226087
0.033163 0.083299 0.225336
0.034044 0.082841 0.224097
0.034949 0.082469 0.223090
0.035913 0.082252 0.222504
0.036900 0.082100 0.222091
0.037753 0.081668 0.220918
0.038704 0.081463 0.220364
0.039749 0.081463 0.220358
0.040390 0.080654 0.218168
0.040610 0.079066 0.213867
0.041663 0.079140 0.214060
0.042622 0.079034 0.213766
0.043360 0.078534 0.212406
0.044103 0.078063 0.211124
0.044562 0.077124 0.208572
0.045512 0.077056 0.208378
0.046164 0.076497 0.206852
0.046822 0.075970 0.205415
0.047561 0.075595 0.204385
0.048144 0.074991 0.202734
0.048886 0.074653 0.201800
0.049693 0.074426 0.201164
0.050368 0.074013 0.200027
0.050953 0.073486 0.198578
0.051269 0.072597 0.196149
0.051715 0.071920 0.194290
0.052694 0.071996 0.194466
0.052513 0.070510 0.190419
0.053239 0.070273 0.189743
0.053921 0.069987 0.188934
0.054570 0.069666 0.188029
0.055253 0.069400 0.187269
0.055922 0.069125 0.186482
0.056543 0.068800 0.185557
0.057223 0.068555 0.184847
0.057749 0.068136 0.183663
0.058050 0.067468 0.181807
0.058707 0.067227 0.181097
0.059415 0.067050 0.180559
0.060203 0.066969 0.180274
0.060799 0.066678 0.179422
0.061425 0.066427 0.178675
0.062099 0.066236 0.178083
0.062527 0.065789 0.176802
0.062310 0.064685 0.173753
0.062929 0.064467 0.173080
0.063589 0.064296 0.172530
0.064081 0.063962 0.171537
0.064721 0.063782 0.170956
0.065430 0.063673 0.170560
0.065807 0.063247 0.169312
0.066304 0.062947 0.168395
0.066795 0.062647 0.167475
0.067295 0.062363 0.166594
0.067942 0.062221 0.166086
0.068575 0.062069 0.165546
0.068928 0.061670 0.164343
0.069499 0.061473 0.163674
0.070137 0.061338 0.163166
0.070739 0.061176 0.162578
0.071442 0.061103 0.162221
0.071896 0.060821 0.161304
0.072779 0.060905 0.161348
0.073167 0.060576 0.160295
0.073404 0.060131 0.158928
0.073347 0.059457 0.156949
0.073243 0.058759 0.154906
0.073221 0.058140 0.153067
0.073424 0.057710 0.151721
0.073564 0.057240 0.150264
0.073787 0.056843 0.148994
0.073948 0.056407 0.147614
0.074281 0.056108 0.146588
0.074515 0.055742 0.145378
0.074796 0.055417 0.144268
0.075026 0.055061 0.143071
0.075361 0.054788 0.142080
0.075844 0.054626 0.141369
0.076221 0.054392 0.140460
-0.991994 0.702204 1.803873
-0.983302 0.702304 1.807797
-0.975020 0.702702 1.812350
-0.966727 0.703099 1.816770
-0.957683 0.702955 1.819659
-0.949254 0.703263 1.823596
-0.941227 0.703878 1.828210
-1.015092 0.766329 1.993575
-1.006110 0.766835 1.997929
-0.988957 0.761064 1.985787
-0.980071 0.761604 1.989981
-0.859904 0.674826 1.765610
-0.851768 0.675112 1.768632
-0.850276 0.680724 1.785536
-0.835680 0.675853 1.774858
-0.829983 0.678153 1.782917
-0.906271 0.816097 2.163336
-0.892363 0.812798 2.156152
-0.879690 0.810560 2.151700
-0.871629 0.812570 2.158455
-0.865492 0.816443 2.170104
-0.710445 0.694978 1.850393
-0.698501 0.691826 1.842943
-0.688270 0.690314 1.839805
-0.683948 0.694766 1.852519
-0.672541 0.692044 1.846060
-0.664511 0.692770 1.848754
-0.067014 0.112959 0.302788
-0.065014 0.111972 0.300135
-0.064566 0.113671 0.304683
-0.062837 0.113143 0.303258
-0.061148 0.112663 0.301961
-0.060107 0.113384 0.303880
-0.059173 0.114347 0.306448
-0.058038 0.114959 0.308073
-0.057482 0.116779 0.312933
-0.056167 0.117113 0.313809
-0.055028 0.117840 0.315736
-0.054056 0.118978 0.318765
-0.052775 0.119480 0.320085
-0.050779 0.118347 0.317028
-0.049556 0.119000 0.318753
-0.048607 0.120373 0.322406
-0.046298 0.118358 0.316983
-0.044113 0.116535 0.312075
-0.042563 0.116323 0.311482
-0.041046 0.116189 0.311098
-0.039276 0.115304 0.308703
-0.037886 0.115508 0.309222
-0.036656 0.116236 0.311144
-0.022478 0.081019 0.216820
-0.021465 0.081059 0.216908
-0.020349 0.080695 0.215916
-0.018965 0.079175 0.211830
-0.017959 0.079153 0.211754
-0.021576 0.107018 0.286255
-0.019956 0.105605 0.282453
-0.018514 0.105001 0.280817
-0.017092 0.104426 0.279259
-0.015737 0.104196 0.278623
-0.014377 0.103889 0.277781
-0.013028 0.103604 0.277001
-0.011670 0.103176 0.275839
-0.010369 0.103215 0.275926
-0.007428 0.084594 0.226132
-0.006352 0.084510 0.225894
-0.005281 0.084478 0.225797
-0.004221 0.084634 0.226199
-0.003147 0.084544 0.225948
-0.002076 0.084462 0.225719
-0.001189 0.099678 0.266371
0.000072 0.099650 0.266282
0.001325 0.099108 0.264825
0.002584 0.099304 0.265339
0.003821 0.098798 0.263976
0.005047 0.098323 0.262699
0.006239 0.097512 0.260526
0.007418 0.096801 0.258619
0.008602 0.096348 0.257400
0.009793 0.096064 0.256637
0.010951 0.095564 0.255296
0.012088 0.094999 0.253783
0.013161 0.094072 0.251301
0.014329 0.093926 0.250909
0.015392 0.093160 0.248861
0.016428 0.092359 0.246718
0.017519 0.091950 0.245622
0.018586 0.091471 0.244343
0.019618 0.090888 0.242784
0.020641 0.090328 0.241288
0.021706 0.090004 0.240420
0.022707 0.089459 0.238965
0.023616 0.088618 0.236719
0.024562 0.087989 0.235039
0.025633 0.087840 0.234641
0.026751 0.087859 0.234691
0.027705 0.087361 0.233360
0.028672 0.086938 0.232231
0.029671 0.086640 0.231434
0.030738 0.086553 0.231203
0.031652 0.086059 0.229883
0.032031 0.084188 0.224885
0.033060 0.084094 0.224633
0.033991 0.083764 0.223749
0.034904 0.083409 0.222799
0.035856 0.083168 0.222151
0.036853 0.083039 0.221804
0.037733 0.082661 0.220791
0.038659 0.082404 0.220100
0.039692 0.082381 0.220033
0.040488 0.081879 0.218687
0.041282 0.081399 0.217398
0.041560 0.079948 0.213515
0.042668 0.080127 0.213984
0.043650 0.080066 0.213809
0.043527 0.078025 0.208348
0.044784 0.078494 0.209589
0.045194 0.077492 0.206898
0.046121 0.077400 0.206637
0.046937 0.077128 0.205895
0.047521 0.076494 0.204184
0.047957 0.075652 0.201916
0.048846 0.075543 0.201603
0.049596 0.075228 0.200739
0.050115 0.074580 0.198986
0.050752 0.074130 0.197757
0.050938 0.073047 0.194840
0.051560 0.072619 0.193668
0.052251 0.072301 0.192785
0.052979 0.072044 0.192064
0.053728 0.071823 0.191437
0.054241 0.071299 0.190001
0.054481 0.070440 0.187668
0.054989 0.069950 0.186319
0.055451 0.069417 0.184852
0.056062 0.069085 0.183917
0.056642 0.068724 0.182904
0.057358 0.068538 0.182354
0.058002 0.068271 0.181585
0.058750 0.068135 0.181159
0.059514 0.068019 0.180786
0.060148 0.067761 0.180031
0.060525 0.067223 0.178531
0.061328 0.067168 0.178308
0.061967 0.066938 0.177617
0.062545 0.066648 0.176764
0.062826 0.066054 0.175101
0.062826 0.065183 0.172705
0.063394 0.064918 0.171906
0.064011 0.064707 0.171251
0.064434 0.064309 0.170094
0.065009 0.064071 0.169358
0.065657 0.063909 0.168818
0.066258 0.063706 0.168164
0.066798 0.063450 0.167368
0.067339 0.063201 0.166584
0.067958 0.063030 0.166002
0.068389 0.062690 0.164971
0.069060 0.062576 0.164528
0.069668 0.062409 0.163938
0.070292 0.062259 0.163389
0.070996 0.062182 0.163027
0.071843 0.062231 0.162986
0.072480 0.062098 0.162463
0.072915 0.061797 0.161495
0.073375 0.061524 0.160593
0.073253 0.060774 0.158440
0.073186 0.060084 0.156442
0.073256 0.059519 0.154766
0.073137 0.058814 0.152721
0.073365 0.058399 0.151424
0.073520 0.057936 0.149997
0.073800 0.057579 0.148837
0.073872 0.057068 0.147275
0.074072 0.056665 0.145984
0.074220 0.056230 0.144606
0.074463 0.055874 0.143425
0.074690 0.055514 0.142224
0.074396 0.054777 0.140051
0.075132 0.054804 0.139825
0.075888 0.054845 0.139623
-0.994117 0.712640 1.805035
-0.986032 0.713193 1.810195
-0.976365 0.712603 1.812310
-0.967709 0.712747 1.816150
-0.961136 0.714443 1.823820
-0.950975 0.713480 1.824578
-0.941901 0.713322 1.827264
-1.014347 0.775486 1.989735
-1.005347 0.775979 1.994106
-0.984115 0.766950 1.973852
-0.975250 0.767476 1.978043
-0.859408 0.682996 1.762736
-0.856282 0.687304 1.776197
-0.851561 0.690405 1.786472
-0.835775 0.684508 1.773365
-0.839346 0.694507 1.801364
-0.898690 0.819542 2.143777
-0.889582 0.820549 2.148015
-0.870221 0.812013 2.127188
-0.868381 0.819817 2.149095
-0.861510 0.823003 2.158844
-0.695707 0.697807 1.834645
-0.686192 0.696967 1.833360
-0.680088 0.699615 1.841206
-0.671586 0.699834 1.842615
-0.662137 0.699060 1.841365
-0.066913 0.114224 0.302335
-0.064374 0.112280 0.297190
-0.064246 0.114548 0.303188
-0.063183 0.115213 0.304942
-0.061201 0.114196 0.302243
-0.060263 0.115125 0.304691
-0.059409 0.116265 0.307697
-0.058563 0.117475 0.310887
-0.057390 0.118077 0.312465
-0.056714 0.119759 0.316901
-0.055761 0.120932 0.319986
-0.054860 0.122285 0.323549
-0.053935 0.123662 0.327171
-0.052283 0.123404 0.326467
-0.050976 0.123969 0.327941
-0.049328 0.123716 0.327247
-0.047390 0.122693 0.324518
-0.045888 0.122772 0.324704
-0.043112 0.119326 0.315567
-0.042028 0.120489 0.318618
-0.039731 0.118129 0.312351
-0.038554 0.119046 0.314752
-0.037089 0.119112 0.314903
-0.021534 0.108187 0.285819
-0.019844 0.106369 0.280993
-0.018404 0.105721 0.279261
-0.017059 0.105565 0.278830
-0.015759 0.105687 0.279132
-0.014351 0.105041 0.277408
-0.013036 0.105014 0.277317
-0.011692 0.104720 0.276524
-0.010346 0.104340 0.275503
-0.009045 0.104360 0.275541
-0.002483 0.102489 0.270530
-0.001182 0.100764 0.265962
0.000076 0.100342 0.264840
0.001324 0.099941 0.263768
0.002575 0.100027 0.263987
0.003811 0.099671 0.263039
0.005041 0.099375 0.262247
0.006224 0.098453 0.259805
0.007403 0.097772 0.258002
0.008596 0.097442 0.257125
0.009774 0.097058 0.256105
0.010912 0.096396 0.254351
0.012085 0.096142 0.253677
0.013158 0.095214 0.251225
0.014262 0.094638 0.249701
0.015132 0.092726 0.244651
0.016390 0.093288 0.246133
0.017435 0.092645 0.244432
0.018445 0.091905 0.242478
0.019515 0.091536 0.241501
0.020504 0.090848 0.239684
0.021569 0.090550 0.238898
0.022609 0.090184 0.237931
0.023617 0.089731 0.236733
0.024655 0.089426 0.235927
0.025654 0.089012 0.234835
0.026522 0.088195 0.232678
0.027676 0.088360 0.233111
0.028411 0.087223 0.230110
0.029377 0.086854 0.229136
0.030287 0.086353 0.227812
0.031118 0.085666 0.225998
0.032092 0.085407 0.225312
0.032969 0.084914 0.224010
0.033980 0.084787 0.223670
0.034826 0.084266 0.222293
0.035783 0.084038 0.221686
0.036749 0.083844 0.221171
0.037598 0.083400 0.219992
0.038598 0.083307 0.219740
0.039558 0.083132 0.219272
0.040323 0.082569 0.217778
0.040936 0.081731 0.215559
0.041626 0.081082 0.213838
0.042589 0.080983 0.213565
0.043323 0.080465 0.212186
0.043987 0.079841 0.210528
0.044480 0.078941 0.208141
0.045225 0.078520 0.207012
0.046161 0.078441 0.206786
0.046646 0.077614 0.204587
0.047084 0.076743 0.202272
0.047656 0.076123 0.200614
0.048445 0.075865 0.199910
0.049198 0.075562 0.199087
0.049964 0.075291 0.198345
0.050683 0.074960 0.197444
0.051175 0.074310 0.195700
0.051345 0.073226 0.192812
0.051864 0.072668 0.191307
0.052688 0.072549 0.190955
0.053376 0.072250 0.190128
0.054024 0.071908 0.189185
0.054685 0.071594 0.188313
0.055240 0.071154 0.187107
0.055707 0.070616 0.185642
0.056005 0.069883 0.183662
0.056623 0.069567 0.182776
0.057423 0.069480 0.182489
0.058154 0.069313 0.181988
0.058862 0.069124 0.181428
0.059466 0.068821 0.180563
0.060071 0.068527 0.179719
0.060864 0.068452 0.179447
0.060941 0.067585 0.177097
0.060935 0.066652 0.174569
0.061354 0.066202 0.173306
0.061871 0.065869 0.172346
0.062540 0.065704 0.171820
0.063285 0.065622 0.171508
0.063813 0.065320 0.170618
0.064258 0.064941 0.169523
0.064923 0.064792 0.169022
0.065512 0.064572 0.168332
0.066305 0.064554 0.168166
0.066808 0.064259 0.167273
0.067228 0.063892 0.166186
0.068100 0.063957 0.166220
0.068460 0.063546 0.165011
0.068739 0.063070 0.163629
0.069538 0.063077 0.163493
0.070465 0.063198 0.163648
0.070715 0.062716 0.162235
0.071370 0.062600 0.161762
0.072295 0.062720 0.161894
0.072449 0.062176 0.160305
0.072678 0.061707 0.158903
0.072869 0.061217 0.157442
0.073083 0.060755 0.156050
0.072641 0.059763 0.153294
0.072748 0.059239 0.151733
0.072918 0.058775 0.150321
0.073288 0.058481 0.149338
0.073312 0.057919 0.147664
0.073514 0.057507 0.146367
0.073565 0.056986 0.144787
0.073670 0.056517 0.143333
0.073998 0.056226 0.142323
0.074067 0.055745 0.140827
0.074489 0.055537 0.140009
0.075310 0.055626 0.139932
0.075501 0.055254 0.138682
-0.989798 0.718439 1.794413
-0.981751 0.718999 1.799636
-0.973476 0.719401 1.804324
-0.964190 0.719057 1.807001
-0.956599 0.719984 1.812739
-0.948280 0.720376 1.817006
-0.939235 0.720219 1.819763
-1.010269 0.782050 1.979281
-1.001280 0.782527 1.983655
-0.992055 0.782828 1.987463
-0.983094 0.783346 1.991707
-0.859618 0.691726 1.761242
-0.857631 0.697015 1.777114
-0.853062 0.700291 1.787789
-0.835837 0.693139 1.771737
-0.838784 0.702742 1.798430
-0.907542 0.837989 2.163349
-0.896578 0.837369 2.163419
-0.880712 0.832104 2.151401
-0.874259 0.835713 2.162253
-0.867535 0.839147 2.172595
