ply
format ascii 1.0
element vertex 1747
property float x
property float y
property float z
end_header
0.056038 0.015345 0.213043
0.056868 0.015293 0.212414
0.057580 0.015212 0.211372
0.058324 0.015142 0.210485
0.058844 0.015017 0.208830
0.059529 0.014938 0.207810
0.060186 0.014855 0.206727
0.060915 0.014791 0.205921
0.061422 0.014677 0.204405
0.061887 0.014556 0.202793
0.062277 0.014422 0.200992
0.062956 0.014357 0.200161
0.063662 0.014301 0.199442
0.064293 0.014230 0.198509
0.064835 0.014141 0.197331
0.065279 0.014034 0.195893
0.065906 0.013968 0.195033
0.066612 0.013921 0.194426
0.067130 0.013836 0.193293
0.067781 0.013781 0.192570
0.068418 0.013724 0.191821
0.068697 0.013598 0.190101
0.069002 0.013480 0.188491
0.067810 0.013077 0.182885
0.068619 0.013065 0.182745
0.069346 0.013038 0.182389
0.070210 0.013037 0.182396
0.070691 0.012965 0.181417
0.071108 0.012884 0.180294
0.071154 0.012738 0.178266
0.071770 0.012697 0.177695
0.072326 0.012645 0.176985
0.072805 0.012582 0.176099
0.073299 0.012523 0.175266
0.073827 0.012471 0.174530
0.074477 0.012440 0.174089
0.074990 0.012388 0.173337
0.075467 0.012330 0.172513
0.076107 0.012300 0.172071
0.076623 0.012251 0.171355
0.077173 0.012209 0.170723
0.077687 0.012161 0.170021
0.078071 0.012095 0.169046
0.078480 0.012034 0.168138
0.078873 0.011971 0.167208
0.079624 0.011964 0.167041
0.080098 0.011915 0.166297
0.080657 0.011880 0.165732
0.082288 0.012002 0.167352
0.083536 0.012066 0.168161
0.085463 0.012226 0.170298
0.086830 0.012304 0.171278
0.087250 0.012247 0.170379
0.087169 0.012122 0.168519
0.087687 0.012081 0.167832
-0.079231 0.018182 0.239400
-0.077875 0.018129 0.238620
-0.076395 0.018046 0.237431
-0.075403 0.018077 0.237746
-0.070898 0.017254 0.226833
-0.069370 0.017142 0.225260
-0.067125 0.016846 0.221278
-0.065918 0.016805 0.220648
-0.064490 0.016706 0.219249
-0.060399 0.015902 0.208608
-0.058180 0.015573 0.204194
-0.057278 0.015591 0.204335
-0.056994 0.015780 0.206729
-0.056185 0.015829 0.207264
-0.055564 0.015933 0.208528
-0.054698 0.015969 0.208903
-0.053863 0.016016 0.209416
-0.053161 0.016105 0.210477
-0.052245 0.016131 0.210719
-0.051561 0.016232 0.211924
-0.050753 0.016296 0.212665
-0.050620 0.016585 0.216321
-0.049644 0.016603 0.216452
-0.048733 0.016645 0.216884
-0.047878 0.016707 0.217596
-0.046993 0.016762 0.218204
-0.046073 0.016807 0.218674
-0.045190 0.016867 0.219351
-0.044227 0.016900 0.219668
-0.043303 0.016949 0.220206
-0.042368 0.016997 0.220718
-0.041364 0.017019 0.220898
-0.040410 0.017063 0.221363
-0.039420 0.017094 0.221656
-0.038452 0.017136 0.222099
-0.037509 0.017192 0.222725
-0.036555 0.017246 0.223325
-0.035549 0.017279 0.223644
-0.034597 0.017340 0.224339
-0.033651 0.017409 0.225127
-0.032626 0.017440 0.225431
-0.031630 0.017489 0.225969
-0.030634 0.017541 0.226552
-0.029594 0.017571 0.226847
-0.028570 0.017613 0.227305
-0.027544 0.017658 0.227792
-0.026511 0.017701 0.228267
-0.025457 0.017734 0.228607
-0.024421 0.017783 0.229157
-0.023372 0.017826 0.229637
-0.022309 0.017863 0.230032
-0.021240 0.017899 0.230419
-0.020180 0.017947 0.230964
-0.019115 0.017995 0.231519
-0.018033 0.018032 0.231928
-0.016922 0.018044 0.232021
-0.015836 0.018086 0.232499
-0.014738 0.018119 0.232867
-0.013612 0.018121 0.232847
-0.012518 0.018169 0.233408
-0.011404 0.018195 0.233699
-0.010271 0.018194 0.233644
-0.009148 0.018212 0.233834
-0.008043 0.018277 0.234627
-0.007057 0.018679 0.239754
-0.005881 0.018637 0.239180
-0.004655 0.018372 0.235760
-0.003512 0.018378 0.235804
-0.002380 0.018471 0.236982
-0.001241 0.018634 0.239054
-0.000082 0.018834 0.241610
0.001090 0.018828 0.241527
0.002244 0.018682 0.239642
0.003405 0.018670 0.239492
0.004560 0.018640 0.239101
0.005770 0.018801 0.241181
0.006953 0.018833 0.241593
0.008136 0.018858 0.241926
0.009346 0.018929 0.242864
0.010537 0.018952 0.243168
0.011746 0.018998 0.243786
0.012961 0.019045 0.244418
0.014217 0.019139 0.245655
0.015463 0.019206 0.246544
0.016732 0.019289 0.247657
0.017939 0.019296 0.247778
0.019086 0.019239 0.247100
0.020432 0.019379 0.248949
0.021833 0.019553 0.251227
0.022853 0.019385 0.249121
0.024478 0.019721 0.253502
0.025781 0.019778 0.254292
0.027075 0.019822 0.254932
0.028292 0.019810 0.254840
0.029528 0.019810 0.254917
0.030781 0.019822 0.255146
0.032043 0.019839 0.255433
0.033280 0.019839 0.255516
0.034510 0.019835 0.255540
0.035791 0.019859 0.255944
0.037022 0.019856 0.255981
0.038253 0.019852 0.256024
0.039382 0.019797 0.255404
0.039748 0.019374 0.250036
0.040057 0.018948 0.244634
0.040948 0.018815 0.242999
0.041896 0.018714 0.241795
0.043043 0.018706 0.241775
0.044083 0.018652 0.241172
0.045104 0.018593 0.240508
0.046126 0.018537 0.239888
0.047136 0.018480 0.239240
0.048136 0.018421 0.238578
0.049077 0.018343 0.237667
0.049886 0.018221 0.236174
0.050786 0.018136 0.235176
0.051487 0.017986 0.233322
0.052353 0.017898 0.232280
0.052386 0.017535 0.227666
0.052680 0.017273 0.224352
0.053265 0.017114 0.222383
0.053827 0.016954 0.220403
0.054463 0.016824 0.218795
0.054249 0.016441 0.213901
0.055143 0.016401 0.213474
0.055913 0.016327 0.212592
0.056705 0.016262 0.211830
0.057395 0.016170 0.210717
0.058057 0.016073 0.209544
0.058605 0.015949 0.208006
0.059380 0.015890 0.207310
0.059988 0.015789 0.206066
0.060749 0.015730 0.205380
0.061377 0.015640 0.204270
0.061675 0.015469 0.202116
0.062164 0.015351 0.200644
0.062851 0.015285 0.199843
0.063626 0.015242 0.199344
0.064185 0.015149 0.198188
0.064890 0.015093 0.197512
0.065112 0.014927 0.195404
0.065697 0.014848 0.194425
0.066363 0.014790 0.193711
0.066914 0.014708 0.192682
0.067636 0.014665 0.192165
0.068039 0.014554 0.190765
0.068612 0.014483 0.189873
0.068908 0.014356 0.188240
0.069648 0.014324 0.187848
0.068625 0.013934 0.182766
0.069187 0.013872 0.181974
0.069874 0.013836 0.181528
0.070518 0.013792 0.180976
0.071028 0.013724 0.180095
0.071580 0.013665 0.179336
0.072111 0.013604 0.178541
0.072292 0.013479 0.176902
0.072632 0.013386 0.175681
0.073098 0.013318 0.174787
0.073740 0.013284 0.174323
0.074424 0.013257 0.173963
0.074985 0.013210 0.173322
0.075650 0.013181 0.172927
0.076242 0.013141 0.172371
0.076714 0.013081 0.171553
0.077365 0.013052 0.171142
0.077715 0.012974 0.170075
0.078018 0.012890 0.168924
0.078561 0.012846 0.168302
0.078790 0.012753 0.167023
0.079364 0.012717 0.166487
0.080039 0.012697 0.166164
0.080414 0.012631 0.165222
0.081677 0.012704 0.166098
0.083109 0.012802 0.167289
0.085989 0.013119 0.171332
0.086788 0.013115 0.171179
0.087044 0.013030 0.169960
0.087366 0.012956 0.168882
0.087693 0.012885 0.167826
-0.079568 0.019397 0.240439
-0.078282 0.019359 0.239887
-0.076586 0.019218 0.238046
-0.072646 0.018501 0.229077
-0.070562 0.018242 0.225783
-0.068305 0.017930 0.221825
-0.066928 0.017842 0.220653
-0.065969 0.017865 0.220843
-0.063904 0.017585 0.217282
-0.059920 0.016758 0.206977
-0.057549 0.016363 0.202004
-0.057218 0.016544 0.204148
-0.056679 0.016671 0.205612
-0.056137 0.016800 0.207114
-0.055470 0.016897 0.208205
-0.054801 0.016996 0.209327
-0.053923 0.017033 0.209682
-0.053187 0.017116 0.210612
-0.052531 0.017230 0.211904
-0.051622 0.017263 0.212208
-0.051268 0.017487 0.214857
-0.050423 0.017549 0.215514
-0.049533 0.017598 0.216007
-0.048712 0.017674 0.216831
-0.047820 0.017726 0.217370
-0.046892 0.017768 0.217773
-0.045983 0.017819 0.218287
-0.045086 0.017876 0.218890
-0.044128 0.017912 0.219221
-0.043180 0.017954 0.219623
-0.042262 0.018010 0.220210
-0.041307 0.018054 0.220639
-0.040351 0.018099 0.221084
-0.039374 0.018137 0.221445
-0.038435 0.018195 0.222049
-0.037490 0.018253 0.222658
-0.036548 0.018317 0.223330
-0.035588 0.018375 0.223942
-0.034600 0.018422 0.224409
-0.033610 0.018470 0.224902
-0.032621 0.018523 0.225446
-0.031618 0.018570 0.225933
-0.030614 0.018621 0.226454
-0.029591 0.018663 0.226880
-0.028577 0.018715 0.227419
-0.027527 0.018746 0.227712
-0.026487 0.018787 0.228125
-0.025441 0.018827 0.228522
-0.024365 0.018848 0.228694
-0.023330 0.018903 0.229284
-0.022270 0.018943 0.229695
-0.021191 0.018970 0.229948
-0.020119 0.019006 0.230322
-0.019077 0.019078 0.231124
-0.017996 0.019116 0.231521
-0.016896 0.019138 0.231729
-0.015819 0.019191 0.232310
-0.014734 0.019243 0.232878
-0.013638 0.019286 0.233349
-0.012517 0.019299 0.233459
-0.011397 0.019318 0.233631
-0.010282 0.019350 0.233976
-0.009160 0.019375 0.234236
-0.008041 0.019412 0.234648
-0.006918 0.019454 0.235125
-0.005791 0.019496 0.235609
-0.004646 0.019486 0.235452
-0.003511 0.019518 0.235817
-0.002379 0.019619 0.237017
-0.001267 0.020217 0.244230
-0.000082 0.020194 0.243939
0.001098 0.020136 0.243229
0.002266 0.020025 0.241881
0.003390 0.019735 0.238379
0.004562 0.019802 0.239193
0.005751 0.019902 0.240401
0.007088 0.020392 0.246335
0.008119 0.019987 0.241455
0.009322 0.020054 0.242272
0.010561 0.020175 0.243757
0.011752 0.020190 0.243961
0.012979 0.020256 0.244787
0.014231 0.020348 0.245934
0.015440 0.020370 0.246229
0.016647 0.020385 0.246449
0.017887 0.020436 0.247105
0.019132 0.020486 0.247751
0.020342 0.020494 0.247896
0.021574 0.020523 0.248295
0.023075 0.020791 0.251593
0.024447 0.020921 0.253225
0.025757 0.020988 0.254100
0.026983 0.020984 0.254116
0.028225 0.020992 0.254281
0.029482 0.021010 0.254571
0.030734 0.021023 0.254802
0.031965 0.021021 0.254856
0.033220 0.021035 0.255099
0.034475 0.021048 0.255333
0.035719 0.021053 0.255479
0.036977 0.021065 0.255716
0.038255 0.021088 0.256083
0.039420 0.021049 0.255699
0.039608 0.020507 0.249201
0.040104 0.020151 0.244968
0.040902 0.019963 0.242771
0.041953 0.019906 0.242165
0.043037 0.019867 0.241779
0.044104 0.019822 0.241329
0.045102 0.019749 0.240537
0.046156 0.019704 0.240084
0.047164 0.019642 0.239422
0.048151 0.019574 0.238692
0.049028 0.019466 0.237467
0.049803 0.019323 0.235818
0.050532 0.019169 0.234037
0.051398 0.019072 0.232955
0.052169 0.018945 0.231496
0.053000 0.018845 0.230368
0.053440 0.018612 0.227619
0.053205 0.018159 0.222165
0.052620 0.017606 0.215490
0.053491 0.017552 0.214920
0.054306 0.017483 0.214154
0.055080 0.017402 0.213256
0.055827 0.017317 0.212292
0.056514 0.017216 0.211140
0.057297 0.017147 0.210380
0.058004 0.017058 0.209374
0.058562 0.016930 0.207875
0.059075 0.016792 0.206266
0.059708 0.016693 0.205125
0.060463 0.016631 0.204433
0.060920 0.016490 0.202770
0.061200 0.016306 0.200578
0.062040 0.016275 0.200260
0.062754 0.016212 0.199550
0.063332 0.016116 0.198437
0.064034 0.016054 0.197737
0.064583 0.015957 0.196592
0.065080 0.015849 0.195320
0.065488 0.015723 0.193820
0.066183 0.015668 0.193197
0.066912 0.015623 0.192686
0.067441 0.015533 0.191620
0.068032 0.015459 0.190757
0.068287 0.015312 0.188982
0.068903 0.015249 0.188235
0.069465 0.015176 0.187360
0.069891 0.015075 0.186143
0.069564 0.014816 0.182972
0.070176 0.014761 0.182316
0.070420 0.014631 0.180727
0.070947 0.014562 0.179892
0.071182 0.014436 0.178341
0.071862 0.014402 0.177924
0.072180 0.014296 0.176626
0.072576 0.014209 0.175544
0.073143 0.014157 0.174893
0.073765 0.014116 0.174378
0.074198 0.014040 0.173432
0.074898 0.014016 0.173116
0.075426 0.013961 0.172410
0.076078 0.013930 0.171995
0.076792 0.013910 0.171721
0.077243 0.013844 0.170866
0.077842 0.013805 0.170346
0.078132 0.013713 0.169161
0.078360 0.013612 0.167863
0.078631 0.013520 0.166676
0.079255 0.013491 0.166246
0.079719 0.013435 0.165487
0.080357 0.013409 0.165093
0.082389 0.013613 0.167532
0.084284 0.013792 0.169639
0.086134 0.013960 0.171604
0.086472 0.013882 0.170540
0.086978 0.013832 0.169814
0.087408 0.013770 0.168945
0.087663 0.013683 0.167748
-0.079590 0.020540 0.240526
-0.078123 0.020453 0.239424
-0.076472 0.020314 0.237715
-0.075180 0.020269 0.237091
-0.071602 0.019596 0.229135
-0.069467 0.019304 0.225624
-0.066607 0.018798 0.219619
-0.065255 0.018708 0.218479
-0.063769 0.018577 0.216847
-0.062846 0.018607 0.217114
-0.057362 0.017266 0.201376
-0.056788 0.017383 0.202641
-0.057013 0.017752 0.206854
-0.056192 0.017803 0.207348
-0.055364 0.017853 0.207839
-0.054484 0.017888 0.208148
-0.053736 0.017969 0.208987
-0.052908 0.018025 0.209540
-0.052128 0.018100 0.210314
-0.052139 0.018458 0.214372
-0.051181 0.018481 0.214529
-0.050332 0.018544 0.215163
-0.049445 0.018596 0.215660
-0.048577 0.018658 0.216267
-0.047699 0.018718 0.216863
-0.046955 0.018835 0.218105
-0.046120 0.018919 0.218979
-0.045219 0.018980 0.219578
-0.044187 0.018988 0.219559
-0.043236 0.019031 0.219954
-0.042262 0.019066 0.220256
-0.041256 0.019089 0.220410
-0.040328 0.019149 0.221008
-0.039319 0.019174 0.221183
-0.038358 0.019223 0.221656
-0.037454 0.019305 0.222497
-0.036498 0.019365 0.223081
-0.035550 0.019432 0.223756
-0.034570 0.019485 0.224271
-0.033557 0.019522 0.224602
-0.032569 0.019577 0.225143
-0.031620 0.019660 0.226001
-0.030627 0.019721 0.226608
-0.029627 0.019781 0.227211
-0.028584 0.019817 0.227531
-0.027579 0.019883 0.228200
-0.026522 0.019915 0.228483
-0.025458 0.019944 0.228741
-0.024394 0.019976 0.229028
-0.023344 0.020023 0.229487
-0.022266 0.020050 0.229723
-0.021170 0.020063 0.229791
-0.020095 0.020097 0.230114
-0.019012 0.020127 0.230396
-0.017925 0.020158 0.230680
-0.016836 0.020189 0.230977
-0.014647 0.020251 0.231576
-0.013568 0.020314 0.232237
-0.012506 0.020415 0.233339
-0.011375 0.020412 0.233257
-0.010265 0.020450 0.233658
-0.009148 0.020485 0.234014
-0.008025 0.020511 0.234268
-0.006901 0.020545 0.234628
-0.005768 0.020560 0.234775
-0.004635 0.020579 0.234965
-0.003500 0.020603 0.235211
-0.002397 0.020935 0.238979
-0.001286 0.021737 0.248125
-0.000084 0.022122 0.252503
0.001093 0.021197 0.241938
0.002276 0.021285 0.242933
0.003367 0.020746 0.236778
0.004542 0.020867 0.238157
0.005864 0.021478 0.245146
0.007124 0.021694 0.247614
0.008220 0.021420 0.244497
0.009356 0.021304 0.243197
0.010550 0.021334 0.243550
0.011745 0.021358 0.243857
0.012989 0.021459 0.245035
0.014177 0.021458 0.245050
0.015428 0.021545 0.246080
0.016649 0.021581 0.246527
0.017867 0.021608 0.246870
0.019115 0.021666 0.247581
0.020391 0.021746 0.248544
0.021658 0.021809 0.249313
0.023080 0.022013 0.251697
0.024361 0.022068 0.252386
0.025684 0.022155 0.253439
0.026964 0.022198 0.253993
0.028227 0.022223 0.254357
0.029439 0.022209 0.254256
0.030694 0.022226 0.254526
0.031960 0.022249 0.254867
0.033209 0.022260 0.255065
0.034448 0.022263 0.255184
0.035672 0.022256 0.255190
0.036918 0.022264 0.255364
0.038161 0.022269 0.255504
0.039297 0.022213 0.254955
0.039818 0.021823 0.250567
0.039878 0.021212 0.243635
0.040752 0.021055 0.241924
0.041826 0.021008 0.241478
0.042962 0.020994 0.241402
0.044022 0.020944 0.240924
0.045083 0.020897 0.240480
0.046102 0.020834 0.239842
0.047143 0.020783 0.239355
0.047986 0.020650 0.237912
0.048788 0.020505 0.236343
0.049539 0.020347 0.234610
0.050385 0.020233 0.233395
0.051323 0.020160 0.232652
0.052207 0.020070 0.231704
0.052879 0.019904 0.229877
0.052885 0.019498 0.225287
0.053368 0.019282 0.222877
0.052854 0.018720 0.216477
0.053289 0.018510 0.214136
0.054107 0.018439 0.213396
0.055079 0.018422 0.213282
0.055777 0.018315 0.212129
0.056428 0.018197 0.210844
0.057250 0.018137 0.210234
0.057873 0.018017 0.208926
0.058588 0.017930 0.207992
0.059140 0.017796 0.206515
0.059716 0.017674 0.205175
0.060447 0.017601 0.204400
0.060759 0.017410 0.202252
0.061285 0.017286 0.200874
0.062052 0.017232 0.200316
0.062740 0.017158 0.199524
0.063126 0.017005 0.197806
0.063557 0.016869 0.196279
0.064341 0.016828 0.195868
0.065030 0.016765 0.195184
0.065323 0.016602 0.193343
0.065829 0.016498 0.192176
0.066617 0.016466 0.191849
0.067177 0.016379 0.190882
0.067805 0.016311 0.190128
0.068476 0.016255 0.189513
0.069004 0.016167 0.188520
0.069427 0.016057 0.187265
0.069742 0.015925 0.185753
0.069626 0.015698 0.183139
0.070185 0.015629 0.182345
0.070798 0.015572 0.181701
0.071268 0.015486 0.180708
0.071617 0.015376 0.179432
0.072308 0.015341 0.179030
0.072695 0.015243 0.177887
0.072964 0.015122 0.176482
0.073605 0.015081 0.175994
0.074234 0.015039 0.175485
0.074719 0.014968 0.174646
0.075260 0.014910 0.173950
0.075687 0.014831 0.173003
0.076288 0.014787 0.172463
0.076788 0.014725 0.171704
0.077262 0.014659 0.170901
0.077657 0.014580 0.169932
0.077966 0.014486 0.168793
0.078292 0.014398 0.167707
0.078086 0.014214 0.165509
0.078972 0.014231 0.165641
0.079616 0.014204 0.165261
0.080016 0.014135 0.164379
0.082190 0.014377 0.167113
0.083654 0.014492 0.168355
0.085976 0.014751 0.171273
0.086574 0.014713 0.170723
0.086673 0.014592 0.169199
0.087071 0.014522 0.168273
0.087280 0.014423 0.166996
-1.051222 0.180661 1.999869
-1.043232 0.180917 2.004026
-1.035237 0.181176 2.008144
-0.080123 0.021823 0.242161
-0.078122 0.021585 0.239444
-0.076818 0.021537 0.238816
-0.073840 0.021010 0.232892
-0.073122 0.021121 0.234022
-0.068660 0.020136 0.223028
-0.066848 0.019911 0.220439
-0.065306 0.019760 0.218676
-0.064223 0.019745 0.218421
-0.060832 0.019009 0.210184
-0.057585 0.018293 0.202185
-0.056863 0.018370 0.202939
-0.056112 0.018439 0.203615
-0.056131 0.018768 0.207153
-0.055338 0.018833 0.207774
-0.054597 0.018918 0.208613
-0.053730 0.018962 0.208997
-0.053067 0.019081 0.210206
-0.052248 0.019147 0.210833
-0.051457 0.019226 0.211604
-0.050693 0.019319 0.212523
-0.050036 0.019456 0.213937
-0.049498 0.019647 0.215931
-0.048552 0.019681 0.216200
-0.047681 0.019748 0.216823
-0.046916 0.019862 0.217970
-0.045981 0.019907 0.218363
-0.045215 0.020030 0.219604
-0.044199 0.020045 0.219662
-0.043212 0.020074 0.219880
-0.042299 0.020140 0.220499
-0.041326 0.020180 0.220834
-0.040319 0.020205 0.221008
-0.039358 0.020256 0.221456
-0.038412 0.020317 0.222018
-0.037400 0.020345 0.222232
-0.036494 0.020435 0.223112
-0.035506 0.020483 0.223534
-0.034472 0.020506 0.223690
-0.033523 0.020583 0.224435
-0.032563 0.020658 0.225158
-0.031537 0.020695 0.225472
-0.030552 0.020762 0.226112
-0.029541 0.020817 0.226614
-0.028546 0.020887 0.227296
-0.027493 0.020919 0.227553
-0.026447 0.020958 0.227898
-0.025413 0.021012 0.228403
-0.024349 0.021044 0.228669
-0.023346 0.021134 0.229575
-0.022268 0.021163 0.229812
-0.021169 0.021173 0.229851
-0.020097 0.021213 0.230213
-0.019012 0.021243 0.230468
-0.017919 0.021268 0.230676
-0.016815 0.021282 0.230767
-0.015718 0.021307 0.230983
-0.014620 0.021334 0.231225
-0.013540 0.021395 0.231833
-0.012413 0.021387 0.231690
-0.011337 0.021472 0.232572
-0.010236 0.021525 0.233099
-0.009130 0.021577 0.233623
-0.008025 0.021648 0.234356
-0.006903 0.021689 0.234771
-0.005771 0.021712 0.234985
-0.004645 0.021771 0.235595
-0.003520 0.021876 0.236711
-0.002436 0.022459 0.242998
-0.001300 0.023214 0.251156
-0.000081 0.022863 0.247342
0.001101 0.022508 0.243493
0.002252 0.022221 0.240379
0.003411 0.022176 0.239889
0.004571 0.022158 0.239698
0.005777 0.022326 0.241522
0.006972 0.022402 0.242349
0.008195 0.022533 0.243784
0.009373 0.022522 0.243681
0.010569 0.022553 0.244032
0.011790 0.022624 0.244823
0.012968 0.022608 0.244681
0.014191 0.022666 0.245340
0.015448 0.022766 0.246454
0.016689 0.022829 0.247173
0.017992 0.022962 0.248656
0.019208 0.022975 0.248835
0.020436 0.022999 0.249145
0.021766 0.023130 0.250613
0.023000 0.023150 0.250879
0.024254 0.023187 0.251338
0.025682 0.023378 0.253467
0.026946 0.023410 0.253881
0.028200 0.023430 0.254167
0.029443 0.023440 0.254340
0.030693 0.023455 0.254572
0.031953 0.023475 0.254870
0.033203 0.023487 0.255078
0.034421 0.023476 0.255039
0.035638 0.023466 0.255004
0.036895 0.023481 0.255252
0.038135 0.023485 0.255380
0.039266 0.023424 0.254802
0.039778 0.023008 0.250370
0.039597 0.022228 0.241963
0.040700 0.022192 0.241668
0.041719 0.022114 0.240904
0.042852 0.022099 0.240832
0.043899 0.022042 0.240298
0.044933 0.021981 0.239726
0.045962 0.021920 0.239160
0.046956 0.021847 0.238450
0.047992 0.021796 0.237987
0.048696 0.021599 0.235939
0.049625 0.021510 0.235058
0.050475 0.021391 0.233850
0.051303 0.021268 0.232596
0.052313 0.021224 0.232211
0.053175 0.021123 0.231198
0.053461 0.020801 0.227776
0.053479 0.020391 0.223375
0.053858 0.020132 0.220624
0.053371 0.019565 0.214496
0.053945 0.019401 0.212786
0.054741 0.019322 0.212002
0.055676 0.019294 0.211771
0.056306 0.019163 0.210415
0.056947 0.019040 0.209146
0.057831 0.019001 0.208800
0.058315 0.018834 0.207047
0.058845 0.018688 0.205509
0.059688 0.018644 0.205099
0.060490 0.018589 0.204564
0.060979 0.018441 0.203006
0.061000 0.018158 0.199960
0.061975 0.018163 0.200086
0.062783 0.018120 0.199678
0.063311 0.017999 0.198404
0.063877 0.017892 0.197283
0.064683 0.017855 0.196924
0.065340 0.017777 0.196128
0.065419 0.017547 0.193641
0.066004 0.017458 0.192699
0.066725 0.017406 0.192172
0.067252 0.017305 0.191106
0.067885 0.017235 0.190362
0.068373 0.017129 0.189236
0.068971 0.017054 0.188437
0.069476 0.016958 0.187403
0.069837 0.016829 0.186012
0.069994 0.016656 0.184114
0.070141 0.016484 0.182234
0.070937 0.016467 0.182062
0.071464 0.016388 0.181207
0.071968 0.016307 0.180313
0.072393 0.016209 0.179241
0.072446 0.016032 0.177278
0.072402 0.015837 0.175123
0.073103 0.015808 0.174794
0.073771 0.015773 0.174389
0.074350 0.015719 0.173779
0.075168 0.015717 0.173733
0.075696 0.015654 0.173018
0.076296 0.015608 0.172475
0.076758 0.015535 0.171631
0.076909 0.015400 0.170110
0.077528 0.015362 0.169640
0.077790 0.015254 0.168401
0.077757 0.015092 0.166551
0.078503 0.015082 0.166383
0.078901 0.015006 0.165480
0.079259 0.014924 0.164505
0.080040 0.014922 0.164413
0.081352 0.015019 0.165395
0.084228 0.015400 0.169493
0.086200 0.015609 0.171701
0.086478 0.015511 0.170513
0.086811 0.015425 0.169448
0.086991 0.015313 0.168098
0.087451 0.015252 0.167300
-1.050648 0.190046 1.998535
-1.042331 0.190253 2.002066
-1.029932 0.189713 1.997636
-1.017395 0.189137 1.992741
-0.080218 0.022995 0.242472
-0.078690 0.022884 0.241211
-0.077342 0.022822 0.240471
-0.075591 0.022637 0.238438
-0.075317 0.022897 0.241076
-0.068325 0.021090 0.221967
-0.066664 0.020898 0.219863
-0.065264 0.020784 0.218564
-0.062797 0.020320 0.213601
-0.061040 0.020075 0.210931
-0.057635 0.019270 0.202389
-0.056976 0.019372 0.203372
-0.056675 0.019601 0.205687
-0.056064 0.019730 0.206940
-0.055254 0.019791 0.207490
-0.054361 0.019825 0.207744
-0.053836 0.019996 0.209444
-0.053109 0.020098 0.210410
-0.052329 0.020183 0.211198
-0.051436 0.020226 0.211556
-0.050724 0.020345 0.212690
-0.049885 0.020416 0.213332
-0.049006 0.020473 0.213828
-0.048208 0.020567 0.214711
-0.047414 0.020667 0.215650
-0.046883 0.020889 0.217862
-0.045912 0.020920 0.218084
-0.045008 0.020984 0.218644
-0.044093 0.021046 0.219184
-0.043106 0.021076 0.219393
-0.042152 0.021124 0.219784
-0.041218 0.021184 0.220310
-0.040299 0.021255 0.220950
-0.039328 0.021302 0.221339
-0.038393 0.021372 0.221964
-0.037410 0.021418 0.222343
-0.036451 0.021482 0.222900
-0.035486 0.021545 0.223464
-0.034476 0.021584 0.223772
-0.033496 0.021645 0.224309
-0.032491 0.021694 0.224721
-0.031576 0.021808 0.225808
-0.030664 0.021932 0.227003
-0.029591 0.021947 0.227065
-0.028561 0.021995 0.227474
-0.027522 0.022040 0.227858
-0.026461 0.022071 0.228092
-0.025402 0.022105 0.228369
-0.024319 0.022122 0.228458
-0.023261 0.022163 0.228814
-0.022200 0.022205 0.229174
-0.021113 0.022226 0.229311
-0.020043 0.022266 0.229662
-0.018964 0.022302 0.229966
-0.017873 0.022326 0.230152
-0.016807 0.022388 0.230723
-0.015678 0.022369 0.230469
-0.013532 0.022506 0.231775
-0.012438 0.022554 0.232228
-0.011314 0.022554 0.232180
-0.010236 0.022655 0.233179
-0.009125 0.022698 0.233584
-0.008005 0.022732 0.233890
-0.006894 0.022803 0.234587
-0.005765 0.022831 0.234847
-0.004642 0.022905 0.235586
-0.003511 0.022971 0.236240
-0.002407 0.023363 0.240248
-0.001298 0.024414 0.251042
-0.000080 0.023843 0.245154
0.001100 0.023652 0.243181
0.002292 0.023790 0.244595
0.003417 0.023372 0.240301
0.004581 0.023370 0.240276
0.005758 0.023416 0.240758
0.006953 0.023511 0.241738
0.008142 0.023559 0.242247
0.009320 0.023568 0.242355
0.010548 0.023687 0.243597
0.011726 0.023681 0.243558
0.013007 0.023864 0.245470
0.014219 0.023901 0.245878
0.015442 0.023949 0.246405
0.016654 0.023974 0.246699
0.017847 0.023971 0.246709
0.019140 0.024093 0.248012
0.020377 0.024135 0.248486
0.021644 0.024206 0.249265
0.022985 0.024347 0.250776
0.024272 0.024420 0.251580
0.025616 0.024540 0.252877
0.026883 0.024579 0.253339
0.028149 0.024614 0.253764
0.029401 0.024634 0.254038
0.030657 0.024655 0.254329
0.031916 0.024677 0.254629
0.033167 0.024692 0.254856
0.034384 0.024681 0.254821
0.035603 0.024672 0.254808
0.036843 0.024677 0.254951
0.038051 0.024662 0.254873
0.038953 0.024455 0.252823
0.038460 0.023412 0.242125
0.039559 0.023371 0.241784
0.040668 0.023337 0.241525
0.041729 0.023279 0.241012
0.042807 0.023233 0.240624
0.043878 0.023186 0.240228
0.044856 0.023094 0.239362
0.045881 0.023029 0.238781
0.046976 0.023002 0.238598
0.047672 0.022785 0.236442
0.048413 0.022600 0.234610
0.049416 0.022542 0.234106
0.050347 0.022455 0.233297
0.051234 0.022353 0.232324
0.052085 0.022239 0.231236
0.052961 0.022141 0.230307
0.053712 0.021995 0.228881
0.053522 0.021478 0.223588
0.053564 0.021072 0.219450
0.053097 0.020486 0.213430
0.053938 0.020416 0.212791
0.054807 0.020360 0.212285
0.055637 0.020291 0.211652
0.056339 0.020180 0.210568
0.056797 0.019986 0.208622
0.057526 0.019892 0.207725
0.058264 0.019805 0.206889
0.058874 0.019678 0.205635
0.059531 0.019570 0.204583
0.060072 0.019429 0.203174
0.060381 0.019217 0.201035
0.061118 0.019147 0.200367
0.062067 0.019144 0.200402
0.062655 0.019032 0.199289
0.063241 0.018923 0.198202
0.063869 0.018829 0.197276
0.064446 0.018723 0.196220
0.065113 0.018645 0.195462
0.065507 0.018493 0.193916
0.066106 0.018402 0.193008
0.066837 0.018350 0.192506
0.067423 0.018260 0.191602
0.068035 0.018179 0.190793
0.068627 0.018095 0.189947
0.069140 0.017993 0.188907
0.069635 0.017888 0.187839
0.070109 0.017781 0.186742
0.070370 0.017624 0.185108
0.070237 0.017372 0.182487
0.070705 0.017274 0.181470
0.071249 0.017196 0.180664
0.071733 0.017106 0.179726
0.072277 0.017033 0.178955
0.072660 0.016923 0.177800
0.073204 0.016853 0.177061
0.073710 0.016776 0.176242
0.073925 0.016635 0.174748
0.074507 0.016579 0.174143
0.075110 0.016529 0.173592
0.075536 0.016441 0.172646
0.075976 0.016358 0.171746
0.076260 0.016244 0.170510
0.076460 0.016114 0.169108
0.077130 0.016085 0.168761
0.077582 0.016012 0.167942
0.077816 0.015896 0.166666
0.077773 0.015726 0.164822
0.078536 0.015720 0.164700
0.079164 0.015688 0.164295
0.079693 0.015638 0.163685
0.081810 0.015896 0.166309
0.084515 0.016263 0.170053
0.085830 0.016358 0.170945
0.086286 0.016289 0.170115
0.086692 0.016212 0.169194
0.086787 0.016079 0.167681
0.087081 0.015984 0.166568
-1.049906 0.197609 1.977620
-1.041976 0.197882 1.981783
-1.042055 0.199694 2.001290
-1.014207 0.196138 1.966908
-1.017113 0.198519 1.991972
-0.079288 0.023862 0.239684
-0.078241 0.023888 0.239860
-0.076991 0.023851 0.239406
-0.076210 0.023961 0.240421
-0.075277 0.024026 0.240978
-0.074263 0.024066 0.241289
-0.066629 0.021929 0.219774
-0.064763 0.021653 0.216917
-0.063614 0.021611 0.216410
-0.062693 0.021647 0.216675
-0.057716 0.020260 0.202705
-0.056908 0.020314 0.203162
-0.056493 0.020513 0.205058
-0.056180 0.020756 0.207401
-0.055285 0.020790 0.207641
-0.054492 0.020864 0.208284
-0.053676 0.020931 0.208859
-0.052944 0.021034 0.209793
-0.052246 0.021156 0.210904
-0.051406 0.021223 0.211472
-0.050774 0.021380 0.212944
-0.049963 0.021467 0.213709
-0.049071 0.021522 0.214154
-0.048235 0.021605 0.214873
-0.047491 0.021733 0.216047
-0.046744 0.021866 0.217261
-0.045937 0.021976 0.218251
-0.045017 0.022035 0.218741
-0.044052 0.022075 0.219032
-0.043113 0.022130 0.219477
-0.042151 0.022176 0.219830
-0.041191 0.022225 0.220216
-0.040226 0.022275 0.220603
-0.039275 0.022335 0.221099
-0.038317 0.022394 0.221581
-0.037385 0.022471 0.222252
-0.036432 0.022541 0.222842
-0.035468 0.022608 0.223406
-0.034491 0.022671 0.223933
-0.033489 0.022720 0.224325
-0.032510 0.022790 0.224919
-0.031519 0.022854 0.225467
-0.030529 0.022925 0.226070
-0.029512 0.022979 0.226522
-0.028506 0.023048 0.227109
-0.027472 0.023097 0.227510
-0.026440 0.023153 0.227982
-0.025389 0.023196 0.228326
-0.024316 0.023221 0.228496
-0.023256 0.023263 0.228833
-0.022172 0.023284 0.228958
-0.021069 0.023286 0.228907
-0.019988 0.023313 0.229110
-0.018888 0.023321 0.229125
-0.017783 0.023323 0.229080
-0.016699 0.023354 0.229322
-0.015598 0.023366 0.229380
-0.014504 0.023389 0.229559
-0.013433 0.023456 0.230164
-0.012328 0.023471 0.230265
-0.011312 0.023677 0.232239
-0.010213 0.023734 0.232759
-0.009085 0.023730 0.232671
-0.007985 0.023806 0.233381
-0.006878 0.023885 0.234128
-0.005755 0.023933 0.234566
-0.004631 0.023995 0.235150
-0.003498 0.024036 0.235530
-0.002389 0.024358 0.238664
-0.001250 0.024706 0.242061
-0.000078 0.024916 0.244099
0.001103 0.024875 0.243693
0.002259 0.024598 0.240976
0.003413 0.024501 0.240017
0.004576 0.024497 0.239981
0.005749 0.024539 0.240399
0.006941 0.024633 0.241333
0.008122 0.024669 0.241695
0.009322 0.024746 0.242459
0.010534 0.024830 0.243309
0.011758 0.024925 0.244255
0.012953 0.024946 0.244494
0.014167 0.024998 0.245028
0.015406 0.025082 0.245887
0.016657 0.025172 0.246803
0.018102 0.025524 0.250292
0.019240 0.025425 0.249367
0.020393 0.025357 0.248743
0.021809 0.025604 0.251219
0.023053 0.025634 0.251566
0.024337 0.025704 0.252309
0.025541 0.025687 0.252199
0.026821 0.025744 0.252817
0.028129 0.025821 0.253644
0.029380 0.025842 0.253914
0.030625 0.025856 0.254124
0.031887 0.025883 0.254462
0.033138 0.025899 0.254695
0.034363 0.025894 0.254720
0.035597 0.025896 0.254820
0.036838 0.025903 0.254972
0.038050 0.025890 0.254928
0.038033 0.025067 0.246911
0.038544 0.024632 0.242703
0.039478 0.024484 0.241337
0.040615 0.024468 0.241261
0.041641 0.024387 0.240553
0.042647 0.024300 0.239778
0.043680 0.024232 0.239196
0.044707 0.024163 0.238612
0.045678 0.024069 0.237775
0.046618 0.023964 0.236824
0.047370 0.023769 0.234990
0.048356 0.023698 0.234380
0.049366 0.023642 0.233916
0.050263 0.023535 0.232951
0.050951 0.023337 0.231081
0.051862 0.023247 0.230285
0.052931 0.023231 0.230216
0.053386 0.022951 0.227533
0.053583 0.022574 0.223879
0.053659 0.022161 0.219876
0.053175 0.021538 0.213775
0.053809 0.021383 0.212315
0.054621 0.021302 0.211598
0.055464 0.021236 0.211025
0.056113 0.021100 0.209751
0.056641 0.020924 0.208078
0.057431 0.020849 0.207408
0.058335 0.020817 0.207169
0.058814 0.020638 0.205452
0.059223 0.020439 0.203549
0.059686 0.020266 0.201893
0.060461 0.020202 0.201325
0.061187 0.020124 0.200615
0.061870 0.020035 0.199786
0.062601 0.019964 0.199137
0.063308 0.019887 0.198430
0.063835 0.019757 0.197189
0.064424 0.019649 0.196168
0.064959 0.019528 0.195013
0.065567 0.019432 0.194107
0.066267 0.019366 0.193492
0.066898 0.019282 0.192694
0.067373 0.019156 0.191472
0.067429 0.018915 0.189104
0.068014 0.018827 0.188260
0.068894 0.018822 0.188241
0.069463 0.018734 0.187382
0.069939 0.018623 0.186295
0.070342 0.018495 0.185039
0.070879 0.018405 0.184159
0.071437 0.018323 0.183350
0.071797 0.018193 0.182056
0.072058 0.018041 0.180542
0.072382 0.017908 0.179214
0.072909 0.017828 0.178410
0.073276 0.017711 0.177234
0.073591 0.017584 0.175955
0.074118 0.017510 0.175201
0.074665 0.017442 0.174507
0.075075 0.017345 0.173505
0.075506 0.017254 0.172572
0.075926 0.017162 0.171624
0.075993 0.016994 0.169905
0.076372 0.016898 0.168905
0.076987 0.016856 0.168437
0.077339 0.016758 0.167403
0.077886 0.016703 0.166804
0.078254 0.016612 0.165828
0.078700 0.016539 0.165031
0.079144 0.016467 0.164237
0.079811 0.016442 0.163911
0.081198 0.016564 0.165048
0.083979 0.016966 0.168955
0.085751 0.017158 0.170766
0.086454 0.017135 0.170424
0.086464 0.016976 0.168727
0.086259 0.016778 0.166638
0.086512 0.016672 0.165456
-1.045117 0.206057 1.968315
-1.035459 0.205990 1.969116
-1.027570 0.206277 1.973215
-1.011954 0.205003 1.962299
-1.001124 0.204685 1.960431
-0.993302 0.204981 1.964374
-0.911480 0.197304 1.895042
-0.900237 0.196797 1.890820
-0.892149 0.196977 1.893128
-0.886748 0.197760 1.901173
-0.871179 0.196267 1.887289
-0.079246 0.024982 0.239584
-0.079789 0.025518 0.244632
-0.078767 0.025561 0.244958
-0.070061 0.023074 0.221048
-0.075236 0.025153 0.240876
-0.064369 0.021851 0.209168
-0.059741 0.020596 0.197082
-0.059247 0.020749 0.198470
-0.058668 0.020878 0.199614
-0.057812 0.020909 0.199834
-0.057731 0.021227 0.202788
-0.056728 0.021212 0.202551
-0.056548 0.021508 0.205294
-0.055999 0.021672 0.206767
-0.055442 0.021839 0.208269
-0.054527 0.021869 0.208452
-0.053766 0.021962 0.209248
-0.053017 0.022064 0.210122
-0.052230 0.022154 0.210879
-0.051359 0.022211 0.211322
-0.050748 0.022384 0.212875
-0.049887 0.022453 0.213428
-0.049047 0.022534 0.214098
-0.048302 0.022663 0.215220
-0.047523 0.022781 0.216242
-0.046713 0.022889 0.217167
-0.045821 0.022961 0.217749
-0.044906 0.023025 0.218251
-0.044027 0.023111 0.218961
-0.043050 0.023147 0.219208
-0.042075 0.023188 0.219491
-0.041164 0.023266 0.220131
-0.040213 0.023326 0.220592
-0.039246 0.023378 0.220992
-0.038330 0.023465 0.221715
-0.037366 0.023527 0.222202
-0.036409 0.023597 0.222765
-0.035492 0.023698 0.223621
-0.034475 0.023737 0.223893
-0.033473 0.023788 0.224285
-0.032518 0.023878 0.225034
-0.031508 0.023932 0.225458
-0.030504 0.023994 0.225955
-0.029472 0.024039 0.226284
-0.028458 0.024102 0.226792
-0.027428 0.024155 0.227216
-0.026381 0.024199 0.227543
-0.025345 0.024256 0.227999
-0.024294 0.024303 0.228369
-0.023241 0.024353 0.228758
-0.022173 0.024391 0.229047
-0.021071 0.024395 0.229007
-0.020001 0.024437 0.229340
-0.018912 0.024460 0.229487
-0.015618 0.024507 0.229754
-0.014534 0.024552 0.230119
-0.013423 0.024553 0.230078
-0.012357 0.024645 0.230893
-0.011273 0.024718 0.231529
-0.010170 0.024757 0.231855
-0.009063 0.024797 0.232192
-0.007983 0.024935 0.233449
-0.006868 0.024988 0.233916
-0.005757 0.025082 0.234761
-0.004628 0.025124 0.235125
-0.003504 0.025223 0.236037
-0.002373 0.025354 0.237237
-0.001234 0.025570 0.239245
-0.000075 0.025576 0.239292
0.001083 0.025555 0.239086
0.002247 0.025622 0.239708
0.003409 0.025625 0.239730
0.004568 0.025613 0.239619
0.005744 0.025679 0.240243
0.006936 0.025782 0.241209
0.008131 0.025864 0.241992
0.009333 0.025946 0.242777
0.010537 0.026014 0.243427
0.011738 0.026061 0.243893
0.012947 0.026117 0.244439
0.014161 0.026172 0.244985
0.015400 0.026260 0.245842
0.016613 0.026295 0.246203
0.017789 0.026270 0.246013
0.018991 0.026285 0.246192
0.020228 0.026343 0.246784
0.021841 0.026858 0.251652
0.023114 0.026921 0.252297
0.024378 0.026969 0.252797
0.025590 0.026956 0.252740
0.026842 0.026985 0.253075
0.028120 0.027037 0.253626
0.029364 0.027052 0.253834
0.030616 0.027074 0.254110
0.031873 0.027098 0.254407
0.033121 0.027113 0.254619
0.034361 0.027121 0.254769
0.035612 0.027136 0.254990
0.036869 0.027155 0.255247
0.038133 0.027177 0.255540
0.037591 0.025951 0.244096
0.038504 0.025774 0.242509
0.039450 0.025628 0.241220
0.040497 0.025555 0.240615
0.041494 0.025454 0.239759
0.042500 0.025365 0.239004
0.043527 0.025292 0.238408
0.044506 0.025196 0.237591
0.045504 0.025115 0.236916
0.046561 0.025071 0.236584
0.047524 0.024978 0.235802
0.048477 0.024885 0.235012
0.049464 0.024813 0.234421
0.050366 0.024702 0.233469
0.051155 0.024543 0.232051
0.052095 0.024460 0.231363
0.052955 0.024345 0.230360
0.054021 0.024326 0.230277
0.053274 0.023509 0.222625
0.053827 0.023286 0.220601
0.052993 0.022483 0.213079
0.053861 0.022419 0.212553
0.054444 0.022241 0.210944
0.055393 0.022216 0.210788
0.055951 0.022038 0.209177
0.056666 0.021927 0.208198
0.057478 0.021856 0.207605
0.058278 0.021784 0.206990
0.058848 0.021630 0.205597
0.058983 0.021323 0.202748
0.059814 0.021273 0.202347
0.060624 0.021218 0.201891
0.061192 0.021081 0.200654
0.061845 0.020978 0.199729
0.062559 0.020897 0.199022
0.063208 0.020798 0.198135
0.063792 0.020680 0.197071
0.064394 0.020572 0.196094
0.065049 0.020484 0.195300
0.065620 0.020371 0.194277
0.066252 0.020281 0.193460
0.066954 0.020215 0.192868
0.067466 0.020093 0.191745
0.068183 0.020035 0.191230
0.067880 0.019682 0.187899
0.068724 0.019667 0.187785
0.069483 0.019629 0.187443
0.069927 0.019503 0.186268
0.070421 0.019395 0.185252
0.070920 0.019290 0.184270
0.070979 0.019070 0.182178
0.071604 0.019005 0.181569
0.072195 0.018933 0.180884
0.072456 0.018777 0.179396
0.072654 0.018609 0.177784
0.073006 0.018483 0.176578
0.073530 0.018404 0.175806
0.073932 0.018295 0.174758
0.074250 0.018169 0.173533
0.074651 0.018066 0.172521
0.075000 0.017952 0.171407
0.075535 0.017885 0.170734
0.075843 0.017766 0.169559
0.076018 0.017619 0.168112
0.076711 0.017593 0.167823
0.077144 0.017510 0.166970
0.077394 0.017386 0.165737
0.078010 0.017347 0.165297
0.078546 0.017291 0.164693
0.078915 0.017199 0.163745
0.079463 0.017148 0.163179
0.080673 0.017239 0.163960
0.084028 0.017782 0.169033
0.085812 0.017986 0.170866
0.086614 0.017982 0.170715
0.086560 0.017802 0.168889
0.086114 0.017545 0.166332
0.086086 0.017378 0.164615
-1.053824 0.217202 1.984408
-1.045851 0.217498 1.988590
-1.021149 0.214288 1.960613
-1.018362 0.215662 1.974467
-0.997402 0.213176 1.952903
-0.977846 0.210947 1.933585
-0.928551 0.208081 1.910931
-0.913087 0.206619 1.898232
-0.901236 0.205954 1.892779
-0.895423 0.206669 1.899949
-0.886429 0.206656 1.900375
-0.873286 0.205667 1.891752
-0.079344 0.025075 0.230276
-0.077157 0.024722 0.226966
-0.075325 0.024474 0.224625
-0.073129 0.024099 0.221112
-0.070974 0.023728 0.217630
-0.069308 0.023511 0.215567
-0.068677 0.023644 0.216709
-0.066032 0.023077 0.211436
-0.064331 0.022828 0.209075
-0.059624 0.021488 0.196723
-0.059076 0.021628 0.197926
-0.058439 0.021739 0.198862
-0.058009 0.021932 0.200546
-0.057131 0.021960 0.200715
-0.056450 0.022065 0.201592
-0.055889 0.022222 0.202937
-0.056151 0.022717 0.207366
-0.055453 0.022834 0.208347
-0.054577 0.022881 0.208683
-0.053672 0.022918 0.208922
-0.052969 0.023044 0.209974
-0.052233 0.023159 0.210932
-0.051373 0.023224 0.211423
-0.050641 0.023350 0.212474
-0.049926 0.023489 0.213639
-0.049063 0.023563 0.214213
-0.048168 0.023625 0.214671
-0.047434 0.023770 0.215888
-0.046620 0.023880 0.216786
-0.045791 0.023987 0.217658
-0.044833 0.024030 0.217947
-0.043926 0.024103 0.218513
-0.042981 0.024159 0.218914
-0.041998 0.024195 0.219142
-0.041073 0.024267 0.219698
-0.040156 0.024349 0.220336
-0.039229 0.024428 0.220952
-0.038269 0.024490 0.221421
-0.037329 0.024570 0.222042
-0.036386 0.024652 0.222687
-0.035450 0.024744 0.223423
-0.034483 0.024819 0.224011
-0.033483 0.024875 0.224420
-0.032489 0.024939 0.224906
-0.031509 0.025018 0.225532
-0.030499 0.025078 0.225986
-0.029516 0.025167 0.226696
-0.028480 0.025214 0.227041
-0.027439 0.025261 0.227381
-0.026409 0.025323 0.227855
-0.025353 0.025365 0.228151
-0.024287 0.025399 0.228384
-0.023217 0.025432 0.228606
-0.022143 0.025464 0.228823
-0.021066 0.025495 0.229030
-0.019985 0.025526 0.229237
-0.018897 0.025550 0.229392
-0.017807 0.025574 0.229549
-0.016730 0.025623 0.229924
-0.015634 0.025645 0.230073
-0.014543 0.025682 0.230344
-0.013461 0.025741 0.230824
-0.012364 0.025779 0.231116
-0.011262 0.025814 0.231389
-0.010185 0.025922 0.232313
-0.009084 0.025987 0.232855
-0.007981 0.026062 0.233493
-0.006872 0.026140 0.234159
-0.005742 0.026156 0.234272
-0.004616 0.026196 0.234613
-0.003493 0.026295 0.235474
-0.002359 0.026359 0.236032
-0.001217 0.026380 0.236203
-0.000074 0.026522 0.237459
0.001079 0.026598 0.238127
0.002236 0.026634 0.238443
0.003404 0.026739 0.239388
0.004575 0.026804 0.239969
0.005742 0.026825 0.240163
0.006916 0.026869 0.240561
0.008110 0.026963 0.241412
0.009298 0.027016 0.241909
0.010566 0.027265 0.244157
0.011754 0.027278 0.244289
0.012922 0.027246 0.244026
0.014146 0.027326 0.244774
0.015353 0.027365 0.245160
0.016549 0.027379 0.245315
0.017750 0.027400 0.245541
0.018905 0.027351 0.245147
0.020119 0.027388 0.245521
0.021810 0.028033 0.251353
0.023136 0.028166 0.252600
0.024394 0.028208 0.253027
0.025575 0.028160 0.252654
0.026823 0.028187 0.252958
0.028082 0.028223 0.253341
0.029333 0.028248 0.253632
0.030596 0.028282 0.254004
0.031841 0.028297 0.254217
0.033102 0.028325 0.254540
0.034364 0.028352 0.254855
0.035617 0.028369 0.255087
0.036896 0.028405 0.255495
0.038078 0.028367 0.255231
0.037855 0.027317 0.245865
0.038742 0.027108 0.244066
0.039393 0.026750 0.240930
0.040506 0.026718 0.240723
0.041552 0.026645 0.240149
0.042523 0.026528 0.239185
0.043475 0.026407 0.238176
0.044515 0.026343 0.237690
0.045469 0.026233 0.236784
0.046545 0.026197 0.236552
0.047560 0.026129 0.236027
0.048505 0.026027 0.235195
0.049514 0.025963 0.234709
0.050454 0.025867 0.233926
0.051260 0.025707 0.232571
0.052091 0.025566 0.231389
0.053048 0.025492 0.230805
0.053438 0.025154 0.227836
0.054315 0.025054 0.227016
0.053807 0.024332 0.220558
0.054043 0.023968 0.217337
0.053919 0.023460 0.212817
0.054809 0.023404 0.212391
0.055294 0.023181 0.210444
0.056248 0.023159 0.210319
0.056391 0.022809 0.207219
0.057281 0.022769 0.206924
0.057870 0.022612 0.205569
0.058325 0.022409 0.203795
0.058840 0.022235 0.202284
0.059735 0.022208 0.202104
0.060453 0.022117 0.201345
0.061051 0.021986 0.200213
0.061810 0.021916 0.199636
0.062484 0.021818 0.198806
0.063095 0.021702 0.197801
0.063787 0.021616 0.197074
0.064269 0.021463 0.195729
0.065006 0.021398 0.195186
0.065483 0.021250 0.193887
0.066117 0.021157 0.193081
0.066856 0.021100 0.192597
0.067409 0.020986 0.191596
0.068043 0.020900 0.190846
0.068459 0.020750 0.189509
0.068890 0.020609 0.188247
0.069423 0.020501 0.187289
0.069944 0.020392 0.186320
0.070367 0.020258 0.185113
0.070864 0.020149 0.184129
0.071175 0.019989 0.182683
0.071578 0.019860 0.181505
0.072056 0.019753 0.180537
0.072338 0.019597 0.179106
0.072714 0.019469 0.177931
0.072900 0.019293 0.176320
0.073529 0.019238 0.175800
0.073789 0.019088 0.174416
0.073973 0.018922 0.172879
0.074245 0.018782 0.171576
0.074934 0.018749 0.171248
0.075330 0.018645 0.170261
0.075579 0.018507 0.168960
0.076104 0.018438 0.168291
0.076559 0.018355 0.167477
0.077137 0.018302 0.166942
0.077529 0.018206 0.166010
0.077881 0.018103 0.165010
0.078461 0.018055 0.164498
0.078922 0.017981 0.163744
0.079521 0.017938 0.163280
0.080718 0.018031 0.164032
0.083721 0.018521 0.168395
0.085414 0.018715 0.170051
0.086292 0.018728 0.170058
0.086037 0.018497 0.167843
0.085955 0.018307 0.165998
0.085727 0.018090 0.163901
-1.044489 0.224622 1.966512
-1.033147 0.224181 1.964132
-1.023371 0.224076 1.964595
-1.012484 0.223723 1.962801
-0.997040 0.222347 1.951941
-0.984499 0.221600 1.946502
-0.951218 0.220276 1.937780
-0.928229 0.217036 1.910092
-0.916726 0.216445 1.905634
-0.901189 0.214880 1.892532
-0.895835 0.215737 1.900688
-0.890029 0.216500 1.907971
-0.883152 0.217016 1.913013
-0.880964 0.218707 1.928359
-0.866637 0.217389 1.917114
-0.860584 0.218139 1.924062
-0.858775 0.219993 1.940689
-0.845151 0.218827 1.930631
-0.838928 0.219574 1.937388
-0.829546 0.219501 1.936866
-0.818394 0.218952 1.932102
-0.809923 0.219117 1.933585
-0.079743 0.026294 0.231456
-0.077791 0.026006 0.228854
-0.075337 0.025540 0.224684
-0.073008 0.025103 0.220772
-0.070407 0.024559 0.215914
-0.069052 0.024440 0.214796
-0.067809 0.024358 0.213998
-0.065834 0.024006 0.210830
-0.063562 0.023534 0.206603
-0.059893 0.022521 0.197639
-0.059252 0.022633 0.198545
-0.058599 0.022744 0.199439
-0.057909 0.022844 0.200235
-0.057119 0.022907 0.200703
-0.056382 0.022994 0.201383
-0.055834 0.023163 0.202771
-0.054995 0.023214 0.203135
-0.055447 0.023822 0.208362
-0.054614 0.023890 0.208863
-0.053879 0.024005 0.209771
-0.052979 0.024048 0.210054
-0.052184 0.024142 0.210779
-0.051386 0.024238 0.211521
-0.050473 0.024282 0.211812
-0.049805 0.024449 0.213171
-0.048970 0.024539 0.213855
-0.048138 0.024634 0.214588
-0.047414 0.024790 0.215846
-0.046557 0.024882 0.216545
-0.045690 0.024972 0.217230
-0.044760 0.025032 0.217648
-0.043832 0.025095 0.218100
-0.042883 0.025149 0.218474
-0.041925 0.025201 0.218823
-0.040999 0.025275 0.219365
-0.040086 0.025361 0.220011
-0.039153 0.025438 0.220587
-0.038184 0.025496 0.220995
-0.037269 0.025595 0.221753
-0.036342 0.025690 0.222485
-0.035425 0.025799 0.223332
-0.034445 0.025867 0.223828
-0.033452 0.025930 0.224277
-0.032458 0.025996 0.224757
-0.031461 0.026064 0.225257
-0.030424 0.026103 0.225510
-0.029411 0.026165 0.225962
-0.028393 0.026229 0.226426
-0.027364 0.026286 0.226838
-0.026339 0.026352 0.227332
-0.025306 0.026417 0.227807
-0.024254 0.026465 0.228146
-0.023204 0.026521 0.228556
-0.022130 0.026553 0.228765
-0.021064 0.026599 0.229094
-0.019970 0.026614 0.229156
-0.018876 0.026630 0.229223
-0.017800 0.026675 0.229550
-0.016683 0.026660 0.229365
-0.015572 0.026654 0.229255
-0.014491 0.026701 0.229608
-0.013406 0.026750 0.229982
-0.012292 0.026744 0.229882
-0.010155 0.026968 0.231724
-0.009063 0.027054 0.232424
-0.007980 0.027193 0.233583
-0.006834 0.027125 0.232970
-0.005727 0.027221 0.233761
-0.004616 0.027341 0.234769
-0.003483 0.027368 0.234977
-0.002352 0.027439 0.235571
-0.001213 0.027452 0.235668
-0.000072 0.027513 0.236175
0.001079 0.027714 0.237890
0.002234 0.027755 0.238234
0.003393 0.027796 0.238588
0.004556 0.027845 0.239013
0.005714 0.027849 0.239049
0.006881 0.027887 0.239381
0.008093 0.028069 0.240955
0.009294 0.028173 0.241865
0.010535 0.028361 0.243495
0.011718 0.028369 0.243584
0.012898 0.028371 0.243628
0.014120 0.028456 0.244383
0.015330 0.028507 0.244856
0.016531 0.028534 0.245121
0.017751 0.028587 0.245616
0.018894 0.028518 0.245060
0.020088 0.028529 0.245201
0.021842 0.029290 0.251793
0.023111 0.029354 0.252391
0.024350 0.029376 0.252636
0.025567 0.029371 0.252647
0.026800 0.029383 0.252810
0.028043 0.029404 0.253055
0.029288 0.029426 0.253311
0.030554 0.029466 0.253722
0.031798 0.029483 0.253935
0.033085 0.029537 0.254476
0.034337 0.029557 0.254721
0.035588 0.029574 0.254948
0.036889 0.029630 0.255512
0.038070 0.029589 0.255240
0.038215 0.028771 0.248265
0.038663 0.028224 0.243623
0.039370 0.027893 0.240848
0.040514 0.027881 0.240826
0.041619 0.027844 0.240588
0.042546 0.027693 0.239372
0.043486 0.027557 0.238285
0.044537 0.027498 0.237858
0.045580 0.027437 0.237416
0.046558 0.027340 0.236670
0.047506 0.027231 0.235809
0.048553 0.027182 0.235476
0.049499 0.027080 0.234684
0.050347 0.026930 0.233476
0.051338 0.026862 0.232973
0.052303 0.026783 0.232375
0.053123 0.026635 0.231177
0.054170 0.026604 0.230998
0.053322 0.025662 0.222906
0.053611 0.025294 0.219792
0.053826 0.024906 0.216499
0.053876 0.024457 0.212681
0.054723 0.024381 0.212092
0.055484 0.024269 0.211197
0.056312 0.024190 0.210590
0.056857 0.023995 0.208963
0.057268 0.023750 0.206905
0.057712 0.023528 0.205037
0.058418 0.023418 0.204148
0.058955 0.023244 0.202704
0.059690 0.023153 0.201979
0.060431 0.023068 0.201293
0.061073 0.022947 0.200306
0.061893 0.022897 0.199924
0.062557 0.022791 0.199057
0.063094 0.022642 0.197816
0.063582 0.022481 0.196460
0.064248 0.022386 0.195682
0.064848 0.022272 0.194729
0.065410 0.022147 0.193687
0.066056 0.022054 0.192915
0.066698 0.021962 0.192153
0.067328 0.021869 0.191376
0.067790 0.021725 0.190147
0.068171 0.021559 0.188722
0.068489 0.021377 0.187160
0.069203 0.021322 0.186703
0.069810 0.021236 0.185968
0.070245 0.021100 0.184797
0.070730 0.020983 0.183783
0.071285 0.020888 0.182968
0.071767 0.020776 0.181987
0.071939 0.020577 0.180245
0.072294 0.020434 0.178996
0.072555 0.020268 0.177539
0.072641 0.020058 0.175691
0.072993 0.019926 0.174515
0.073144 0.019742 0.172886
0.073825 0.019703 0.172528
0.074263 0.019601 0.171610
0.074846 0.019540 0.171040
0.075217 0.019425 0.169996
0.075284 0.019234 0.168291
0.075786 0.019158 0.167578
0.076251 0.019074 0.166792
0.076709 0.018990 0.166002
0.077190 0.018913 0.165271
0.077704 0.018846 0.164617
0.078268 0.018792 0.164077
0.078873 0.018749 0.163623
0.079384 0.018684 0.162979
0.080140 0.018678 0.162837
0.083329 0.019234 0.167584
0.085825 0.019620 0.170844
0.086324 0.019547 0.170095
0.085869 0.019262 0.167489
0.085113 0.018915 0.164345
0.085378 0.018798 0.163204
-1.048290 0.234818 1.973330
-1.033339 0.233551 1.964178
-1.022987 0.233310 1.963555
-1.015951 0.233828 1.969234
-1.001378 0.232604 1.960164
-0.993534 0.232936 1.964112
-0.963178 0.230114 1.942364
-0.950882 0.229357 1.936890
-0.937725 0.228376 1.929444
-0.920863 0.226465 1.914060
-0.906971 0.225254 1.904515
-0.889188 0.223042 1.886440
-0.890150 0.225536 1.908098
-0.884148 0.226298 1.915054
