ply
format ascii 1.0
element vertex 1744
property float x
property float y
property float z
end_header
0.043018 0.053268 0.237227
0.044114 0.053222 0.237079
0.044979 0.052907 0.235731
0.045865 0.052631 0.234557
0.046232 0.051787 0.230848
0.046833 0.051238 0.228454
0.047690 0.050988 0.227396
0.048614 0.050818 0.226691
0.049486 0.050604 0.225786
0.050352 0.050392 0.224895
0.051229 0.050199 0.224086
0.052081 0.049992 0.223210
0.053008 0.049862 0.222680
0.053936 0.049739 0.222178
0.054747 0.049514 0.221222
0.055559 0.049298 0.220303
0.056336 0.049060 0.219286
0.056974 0.048712 0.217774
0.057736 0.048480 0.216780
0.058631 0.048366 0.216312
0.059366 0.048127 0.215283
0.059964 0.047786 0.213794
0.060532 0.047433 0.212251
0.060769 0.046837 0.209614
0.060753 0.046068 0.206205
0.060827 0.045390 0.203198
0.061696 0.045318 0.202904
0.062476 0.045183 0.202323
0.063153 0.044979 0.201433
0.063574 0.044602 0.199761
0.063384 0.043813 0.196246
0.063481 0.043243 0.193704
0.063905 0.042909 0.192218
0.064902 0.042963 0.192470
0.065387 0.042681 0.191214
0.065876 0.042410 0.190001
0.066050 0.041946 0.187922
0.066645 0.041758 0.187077
0.067399 0.041674 0.186690
0.067826 0.041392 0.185418
0.068244 0.041111 0.184147
0.068907 0.040984 0.183560
0.069618 0.040888 0.183110
0.070172 0.040703 0.182256
0.070465 0.040374 0.180753
0.070731 0.040036 0.179210
0.071406 0.039936 0.178724
0.071782 0.039673 0.177506
0.072464 0.039582 0.177057
0.071441 0.038574 0.172499
0.072048 0.038458 0.171929
0.072116 0.038061 0.170095
0.072646 0.037913 0.169375
0.073131 0.037746 0.168562
0.073540 0.037543 0.167585
0.074050 0.037396 0.166851
0.074463 0.037203 0.165910
0.074799 0.036976 0.164814
0.075116 0.036745 0.163692
0.075507 0.036554 0.162744
0.075687 0.036266 0.161362
0.076153 0.036119 0.160601
0.076729 0.036027 0.160079
0.077304 0.035936 0.159557
0.077696 0.035763 0.158663
0.078168 0.035630 0.157939
0.079666 0.035962 0.159272
0.083922 0.037521 0.166021
0.084591 0.037462 0.165598
0.084697 0.037157 0.164080
0.084289 0.036634 0.161596
0.084512 0.036392 0.160347
-0.995475 0.435680 1.898399
-0.982331 0.433863 1.892332
-0.981847 0.437656 1.910650
-0.977829 0.439929 1.922269
-0.967412 0.439340 1.921299
-0.960213 0.440215 1.926649
-0.955702 0.442351 1.937446
-0.949706 0.443835 1.945319
-0.942423 0.444740 1.950587
-0.941666 0.448774 1.969514
-0.933570 0.449356 1.973232
-0.924402 0.449430 1.974645
-0.907838 0.445872 1.960026
-0.866653 0.430024 1.891275
-0.846544 0.424413 1.867439
-0.842842 0.426997 1.879594
-0.829259 0.424577 1.869664
-0.812462 0.420442 1.852114
-1.426526 0.746225 3.288313
-1.413023 0.747270 3.293901
-1.399050 0.748087 3.298396
-1.386766 0.749835 3.306914
-1.371456 0.749970 3.308230
-1.361746 0.753205 3.323143
-0.868182 0.503310 2.221802
-0.858986 0.504041 2.225208
-0.846278 0.502705 2.219441
-0.836055 0.502831 2.220081
-0.300190 0.225605 0.994507
-0.295457 0.225567 0.994136
-0.291276 0.225957 0.995636
-0.287305 0.226525 0.997914
-0.282518 0.226458 0.997385
-0.276654 0.225510 0.992971
-0.272346 0.225821 0.994090
-0.064842 0.054707 0.240765
-0.063793 0.054782 0.241029
-0.062211 0.054393 0.239254
-0.060719 0.054070 0.237768
-0.059568 0.054045 0.237590
-0.057948 0.053585 0.235500
-0.056152 0.052941 0.232603
-0.054803 0.052701 0.231480
-0.053230 0.052231 0.229350
-0.051942 0.052028 0.228389
-0.050925 0.052093 0.228603
-0.045447 0.047499 0.208379
-0.044207 0.047228 0.207126
-0.043316 0.047327 0.207497
-0.042433 0.047439 0.207923
-0.041570 0.047578 0.208470
-0.040978 0.048043 0.210441
-0.040217 0.048329 0.211628
-0.039319 0.048459 0.212135
-0.038457 0.048642 0.212868
-0.037560 0.048790 0.213451
-0.036688 0.048980 0.214215
-0.035863 0.049244 0.215308
-0.034979 0.049440 0.216101
-0.034020 0.049540 0.216472
-0.033083 0.049679 0.217014
-0.032185 0.049888 0.217867
-0.031238 0.050031 0.218429
-0.030316 0.050227 0.219221
-0.029368 0.050391 0.219877
-0.028372 0.050483 0.220221
-0.027480 0.050772 0.221424
-0.026486 0.050890 0.221880
-0.025484 0.051004 0.222318
-0.024514 0.051191 0.223081
-0.023511 0.051325 0.223609
-0.022513 0.051483 0.224244
-0.021494 0.051606 0.224729
-0.020467 0.051721 0.225181
-0.019428 0.051819 0.225563
-0.018403 0.051968 0.226162
-0.017362 0.052085 0.226630
-0.016312 0.052192 0.227052
-0.015265 0.052322 0.227576
-0.014205 0.052425 0.227986
-0.013155 0.052589 0.228662
-0.012086 0.052695 0.229088
-0.011011 0.052795 0.229487
-0.009934 0.052907 0.229945
-0.008870 0.053129 0.230880
-0.007787 0.053278 0.231499
-0.006694 0.053401 0.232011
-0.005595 0.053517 0.232490
-0.004499 0.053716 0.233337
-0.003388 0.053829 0.233811
-0.002275 0.053974 0.234421
-0.001154 0.054084 0.234888
-0.000029 0.054104 0.234961
0.001105 0.054494 0.236647
0.002238 0.054469 0.236531
0.003380 0.054605 0.237117
0.004522 0.054682 0.237451
0.005678 0.054853 0.238192
0.006832 0.054949 0.238615
0.007987 0.055032 0.238979
0.009147 0.055118 0.239361
0.010319 0.055247 0.239931
0.011500 0.055398 0.240599
0.012688 0.055553 0.241283
0.013877 0.055681 0.241856
0.015044 0.055711 0.242007
0.016228 0.055795 0.242391
0.017424 0.055904 0.242888
0.018701 0.056244 0.244389
0.019903 0.056331 0.244795
0.021103 0.056404 0.245143
0.022316 0.056501 0.245596
0.023542 0.056620 0.246144
0.024757 0.056701 0.246533
0.025969 0.056769 0.246867
0.027174 0.056817 0.247115
0.028394 0.056889 0.247469
0.029650 0.057027 0.248108
0.030870 0.057086 0.248411
0.032099 0.057157 0.248765
0.033301 0.057175 0.248891
0.034479 0.057153 0.248844
0.035668 0.057150 0.248879
0.036832 0.057109 0.248749
0.038006 0.057086 0.248701
0.039132 0.056993 0.248348
0.040317 0.056989 0.248383
0.041372 0.056806 0.247641
0.040948 0.054660 0.238337
0.041928 0.054453 0.237488
0.042909 0.054259 0.236696
0.044022 0.054237 0.236652
0.044887 0.053917 0.235311
0.045787 0.053655 0.234219
0.046778 0.053509 0.233635
0.046834 0.052325 0.228519
0.047455 0.051812 0.226328
0.048360 0.051625 0.225563
0.049402 0.051589 0.225458
0.050297 0.051404 0.224698
0.051220 0.051255 0.224097
0.052141 0.051110 0.223511
0.052947 0.050860 0.222468
0.053859 0.050721 0.221904
0.054828 0.050638 0.221588
0.055595 0.050377 0.220490
0.056346 0.050110 0.219365
0.057180 0.049925 0.218598
0.057685 0.049465 0.216623
0.058617 0.049380 0.216293
0.059367 0.049149 0.215315
0.060055 0.048874 0.214146
0.060452 0.048375 0.211995
0.060718 0.047790 0.209464
0.061057 0.047281 0.207259
0.061776 0.047076 0.206390
0.062566 0.046932 0.205783
0.063043 0.046561 0.204177
0.063138 0.045923 0.201398
0.063765 0.045686 0.200375
0.063824 0.045054 0.197619
0.064257 0.044700 0.196080
0.063987 0.043875 0.192469
0.064768 0.043784 0.192077
0.065309 0.043535 0.190989
0.065811 0.043267 0.189813
0.066172 0.042916 0.188268
0.066763 0.042720 0.187405
0.067460 0.042597 0.186853
0.067720 0.042204 0.185119
0.068267 0.041998 0.184199
0.068910 0.041856 0.183558
0.069443 0.041651 0.182635
0.069878 0.041393 0.181478
0.070275 0.041119 0.180246
0.070643 0.040836 0.178968
0.071232 0.040684 0.178267
0.072018 0.040648 0.178065
0.072309 0.040337 0.176654
0.072842 0.040166 0.175854
0.071622 0.039042 0.170882
0.071967 0.038788 0.169712
0.072426 0.038601 0.168829
0.072809 0.038377 0.167782
0.073348 0.038240 0.167109
0.073799 0.038060 0.166246
0.074207 0.037862 0.165299
0.074841 0.037782 0.164860
0.075133 0.037533 0.163681
0.075280 0.037218 0.162207
0.075720 0.037052 0.161380
0.076129 0.036874 0.160498
0.076745 0.036800 0.160058
0.077369 0.036730 0.159633
0.077492 0.036427 0.158186
0.078485 0.036534 0.158516
0.079269 0.036542 0.158411
0.084072 0.038386 0.166246
0.084141 0.038054 0.164642
0.084330 0.037781 0.163292
0.084610 0.037554 0.162131
0.084576 0.037193 0.160387
-0.997621 0.445716 1.901640
-0.982876 0.443148 1.892568
-0.983813 0.447668 1.913686
-0.970980 0.445949 1.908053
-0.967419 0.448496 1.920588
-0.957434 0.448086 1.920382
-0.954048 0.450786 1.933430
-0.951246 0.453816 1.947836
-0.943210 0.454385 1.951608
-0.936182 0.460002 1.978198
-0.918819 0.456022 1.962197
-0.907464 0.454973 1.958725
-0.873025 0.442211 1.904728
-0.849970 0.435009 1.874578
-0.844439 0.436719 1.882761
-0.831847 0.434775 1.875131
-0.814439 0.430246 1.856283
-1.423706 0.760265 3.281259
-1.410212 0.761320 3.286836
-1.400390 0.764403 3.301084
-1.385634 0.764833 3.303787
-1.372202 0.766011 3.309640
-1.358557 0.767096 3.315013
-0.864088 0.511373 2.211201
-0.857161 0.513449 2.220381
-0.842837 0.511093 2.210345
-0.834917 0.512608 2.217012
-0.300970 0.230905 0.997243
-0.295559 0.230347 0.994636
-0.291865 0.231132 0.997818
-0.287509 0.231410 0.998801
-0.282401 0.231081 0.997159
-0.278083 0.231399 0.998298
-0.064760 0.055777 0.240514
-0.063477 0.055646 0.239888
-0.061853 0.055207 0.237933
-0.060758 0.055233 0.237982
-0.059292 0.054915 0.236549
-0.057066 0.053870 0.231979
-0.055471 0.053389 0.229844
-0.054160 0.053168 0.228828
-0.052919 0.053008 0.228075
-0.051655 0.052819 0.227195
-0.050162 0.052382 0.225248
-0.049156 0.052446 0.225455
-0.044094 0.048090 0.206667
-0.043337 0.048337 0.207667
-0.042415 0.048406 0.207903
-0.041602 0.048609 0.208708
-0.040884 0.048933 0.210038
-0.040129 0.049228 0.211240
-0.039289 0.049432 0.212053
-0.038378 0.049555 0.212516
-0.037443 0.049653 0.212872
-0.036707 0.050026 0.214409
-0.035801 0.050184 0.215021
-0.034873 0.050319 0.215537
-0.033940 0.050455 0.216057
-0.033000 0.050589 0.216568
-0.032096 0.050787 0.217356
-0.031088 0.050831 0.217483
-0.030118 0.050940 0.217891
-0.029302 0.051327 0.219485
-0.028359 0.051513 0.220223
-0.027400 0.051682 0.220888
-0.026419 0.051824 0.221435
-0.025443 0.051984 0.222065
-0.024443 0.052109 0.222545
-0.023432 0.052221 0.222973
-0.022424 0.052350 0.223471
-0.021400 0.052456 0.223872
-0.020407 0.052650 0.224652
-0.019388 0.052793 0.225217
-0.018371 0.052962 0.225892
-0.017347 0.053131 0.226571
-0.016319 0.053308 0.227283
-0.015248 0.053361 0.227470
-0.014192 0.053476 0.227920
-0.013129 0.053586 0.228354
-0.012062 0.053696 0.228789
-0.011003 0.053864 0.229471
-0.009929 0.053995 0.229997
-0.008883 0.054326 0.231379
-0.007784 0.054384 0.231600
-0.006691 0.054504 0.232086
-0.005593 0.054631 0.232607
-0.004489 0.054740 0.233050
-0.003385 0.054930 0.233839
-0.002269 0.055018 0.234197
-0.001151 0.055197 0.234949
-0.000026 0.055364 0.235646
0.001101 0.055297 0.235355
0.002243 0.055669 0.236929
0.003380 0.055703 0.237070
0.004520 0.055759 0.237307
0.005677 0.055956 0.238143
0.006828 0.056039 0.238501
0.007978 0.056091 0.238728
0.009142 0.056216 0.239264
0.010308 0.056323 0.239731
0.011471 0.056397 0.240056
0.012643 0.056495 0.240486
0.013869 0.056796 0.241785
0.015027 0.056797 0.241808
0.016211 0.056886 0.242206
0.017402 0.056986 0.242652
0.018635 0.057202 0.243599
0.019842 0.057319 0.244120
0.021042 0.057405 0.244516
0.022261 0.057527 0.245066
0.023497 0.057681 0.245754
0.024723 0.057796 0.246281
0.025949 0.057900 0.246761
0.027162 0.057968 0.247088
0.028385 0.058049 0.247471
0.029594 0.058098 0.247720
0.030820 0.058174 0.248086
0.032033 0.058221 0.248331
0.033182 0.058153 0.248087
0.034320 0.058070 0.247780
0.035563 0.058165 0.248231
0.036714 0.058107 0.248034
0.037889 0.058090 0.248010
0.039031 0.058024 0.247780
0.040141 0.057917 0.247374
0.040088 0.056185 0.240028
0.041066 0.055955 0.239095
0.041883 0.055524 0.237303
0.043010 0.055515 0.237316
0.043957 0.055280 0.236365
0.044719 0.054830 0.234494
0.045488 0.054411 0.232754
0.046520 0.054319 0.232410
0.047376 0.054029 0.231221
0.048028 0.053527 0.229122
0.048695 0.053062 0.227181
0.049480 0.052743 0.225866
0.050363 0.052541 0.225047
0.051358 0.052461 0.224752
0.052213 0.052244 0.223870
0.053070 0.052037 0.223030
0.053876 0.051790 0.222018
0.054771 0.051637 0.221403
0.055654 0.051477 0.220761
0.056358 0.051161 0.219449
0.057066 0.050861 0.218200
0.057718 0.050521 0.216781
0.058573 0.050368 0.216162
0.059301 0.050114 0.215106
0.059774 0.049656 0.213174
0.060476 0.049400 0.212107
0.060975 0.048989 0.210372
0.061357 0.048500 0.208297
0.061830 0.048096 0.206589
0.062324 0.047721 0.205001
0.062779 0.047329 0.203335
0.063673 0.047274 0.203118
0.063732 0.046610 0.200281
0.064197 0.046259 0.198782
0.063898 0.045374 0.194991
0.063906 0.044730 0.192230
0.064807 0.044720 0.192193
0.065578 0.044623 0.191775
0.065630 0.044045 0.189290
0.066001 0.043694 0.187776
0.066219 0.043252 0.185871
0.067037 0.043209 0.185674
0.067633 0.043026 0.184872
0.068028 0.042721 0.183544
0.068616 0.042543 0.182760
0.069280 0.042417 0.182191
0.069636 0.042107 0.180832
0.069572 0.041554 0.178425
0.069945 0.041272 0.177177
0.070482 0.041092 0.176366
0.071017 0.040916 0.175564
0.071011 0.040436 0.173455
0.071168 0.040058 0.171782
0.071417 0.039740 0.170362
0.071981 0.039602 0.169711
0.072515 0.039452 0.169001
0.072970 0.039262 0.168115
0.073336 0.039028 0.167042
0.073647 0.038771 0.165860
0.074073 0.038579 0.164954
0.074524 0.038404 0.164117
0.074697 0.038091 0.162682
0.075127 0.037914 0.161825
0.075486 0.037705 0.160830
0.075816 0.037486 0.159782
0.076452 0.037421 0.159388
0.077284 0.037453 0.159398
0.077257 0.037071 0.157642
0.078235 0.037174 0.157945
0.080434 0.037850 0.160669
0.084437 0.039354 0.166892
0.084796 0.039147 0.165845
0.084629 0.038703 0.163790
0.084488 0.038279 0.161814
0.084528 0.037945 0.160211
-0.997121 0.454585 1.899802
-0.976829 0.449411 1.880085
-0.975191 0.452802 1.896104
-0.971518 0.455303 1.908326
-0.961409 0.454807 1.907908
-0.956431 0.456752 1.917649
-0.950829 0.458434 1.926213
-0.945438 0.460251 1.935279
-0.936753 0.469676 1.978820
-0.928231 0.470096 1.981742
-0.902050 0.461489 1.946525
-0.870414 0.449886 1.898557
-0.846159 0.441897 1.865736
-0.844054 0.445429 1.881487
-0.827993 0.441594 1.866058
-0.809647 0.436443 1.845003
-1.429316 0.778839 3.293597
-1.412876 0.778326 3.292499
-1.399309 0.779403 3.298033
-1.385759 0.780513 3.303622
-1.372130 0.781604 3.309049
-1.355382 0.780923 3.306888
-0.865258 0.522517 2.214051
-0.853879 0.521924 2.211766
-0.833536 0.515769 2.185865
-0.832891 0.521802 2.211568
-0.309664 0.238700 1.010611
-0.301212 0.235808 0.998188
-0.295604 0.235086 0.994945
-0.292757 0.236571 1.001034
-0.287653 0.236253 0.999479
-0.282309 0.235722 0.997019
-0.277989 0.236044 0.998156
-0.064834 0.056981 0.240840
-0.063256 0.056585 0.239108
-0.061828 0.056312 0.237895
-0.059983 0.055642 0.235004
-0.058228 0.055032 0.232365
-0.056264 0.054197 0.228777
-0.055039 0.054055 0.228115
-0.053797 0.053890 0.227357
-0.052435 0.053596 0.226054
-0.051345 0.053574 0.225898
-0.049661 0.052918 0.223067
-0.048683 0.053002 0.223356
-0.045167 0.050266 0.211766
-0.043222 0.049193 0.207184
-0.042178 0.049120 0.206815
-0.041337 0.049286 0.207451
-0.040487 0.049448 0.208074
-0.039611 0.049585 0.208589
-0.038759 0.049762 0.209271
-0.038178 0.050304 0.211490
-0.037333 0.050518 0.212326
-0.036485 0.050740 0.213199
-0.035699 0.051064 0.214495
-0.034739 0.051150 0.214798
-0.033805 0.051282 0.215289
-0.032927 0.051508 0.216180
-0.032008 0.051685 0.216860
-0.031091 0.051875 0.217598
-0.030154 0.052045 0.218253
-0.029200 0.052195 0.218823
-0.028287 0.052434 0.219768
-0.027326 0.052598 0.220400
-0.026350 0.052744 0.220959
-0.025370 0.052896 0.221539
-0.024386 0.053053 0.222146
-0.023395 0.053207 0.222738
-0.022395 0.053353 0.223300
-0.021393 0.053511 0.223910
-0.020369 0.053629 0.224357
-0.019347 0.053764 0.224876
-0.018340 0.053957 0.225641
-0.017295 0.054057 0.226015
-0.016280 0.054272 0.226874
-0.015224 0.054371 0.227249
-0.014155 0.054434 0.227475
-0.013105 0.054588 0.228080
-0.012071 0.054838 0.229092
-0.010998 0.054948 0.229520
-0.009927 0.055099 0.230118
-0.008851 0.055250 0.230723
-0.007769 0.055399 0.231319
-0.006675 0.055501 0.231722
-0.005580 0.055639 0.232273
-0.004475 0.055709 0.232548
-0.003371 0.055852 0.233126
-0.002260 0.055983 0.233656
-0.001145 0.056107 0.234161
-0.000024 0.056151 0.234335
0.001103 0.056438 0.235524
0.002242 0.056716 0.236677
0.003385 0.056878 0.237349
0.004509 0.056728 0.236718
0.005674 0.057048 0.238055
0.006829 0.057177 0.238595
0.007983 0.057256 0.238932
0.009136 0.057309 0.239156
0.010306 0.057447 0.239741
0.011473 0.057543 0.240155
0.012632 0.057586 0.240347
0.013833 0.057795 0.241233
0.015005 0.057861 0.241527
0.016182 0.057931 0.241840
0.017370 0.058034 0.242290
0.018572 0.058164 0.242855
0.019845 0.058490 0.244245
0.021026 0.058522 0.244402
0.022213 0.058566 0.244618
0.023455 0.058744 0.245393
0.024666 0.058831 0.245787
0.025900 0.058962 0.246371
0.027147 0.059110 0.247026
0.028343 0.059141 0.247192
0.029575 0.059239 0.247641
0.030799 0.059314 0.247997
0.032019 0.059377 0.248304
0.033180 0.059329 0.248146
0.034358 0.059314 0.248128
0.035529 0.059289 0.248070
0.036669 0.059215 0.247807
0.037850 0.059210 0.247834
0.038988 0.059138 0.247584
0.040140 0.059092 0.247443
0.040192 0.057476 0.240723
0.040850 0.056792 0.237908
0.041923 0.056706 0.237596
0.043074 0.056728 0.237739
0.043915 0.056350 0.236204
0.044154 0.055239 0.231596
0.045018 0.054944 0.230410
0.046009 0.054814 0.229912
0.046956 0.054639 0.229230
0.047876 0.054441 0.228448
0.048714 0.054162 0.227322
0.049624 0.053973 0.226577
0.050445 0.053696 0.225463
0.051285 0.053452 0.224481
0.052114 0.053205 0.223491
0.052898 0.052924 0.222352
0.053730 0.052700 0.221457
0.054686 0.052604 0.221097
0.055558 0.052433 0.220419
0.056306 0.052154 0.219283
0.057079 0.051907 0.218283
0.057752 0.051579 0.216943
0.058611 0.051427 0.216335
0.059183 0.051031 0.214705
0.059876 0.050753 0.213564
0.060499 0.050424 0.212211
0.061154 0.050133 0.211013
0.061688 0.049753 0.209441
0.062460 0.049575 0.208712
0.063032 0.049246 0.207347
0.064060 0.049278 0.207500
0.063235 0.047904 0.201732
0.064062 0.047805 0.201327
0.063862 0.046954 0.197753
0.065418 0.047399 0.199636
0.066278 0.047334 0.199368
0.065063 0.045811 0.192955
0.065276 0.045322 0.190892
0.065568 0.044899 0.189108
0.065838 0.044473 0.187307
0.066301 0.044187 0.186093
0.066673 0.043849 0.184656
0.067345 0.043715 0.184075
0.068069 0.043617 0.183641
0.068586 0.043391 0.182664
0.069261 0.043269 0.182124
0.069874 0.043111 0.181429
0.070222 0.042796 0.180068
0.070108 0.042210 0.177566
0.070884 0.042168 0.177346
0.070624 0.041518 0.174564
0.070707 0.041082 0.172682
0.070960 0.040754 0.171248
0.071649 0.040681 0.170883
0.071827 0.040322 0.169312
0.072434 0.040210 0.168773
0.072781 0.039957 0.167639
0.073306 0.039807 0.166931
0.073789 0.039637 0.166136
0.074231 0.039448 0.165259
0.074710 0.039284 0.164477
0.074732 0.038885 0.162708
0.075147 0.038696 0.161815
0.075828 0.038647 0.161501
0.076147 0.038417 0.160423
0.076812 0.038363 0.160078
0.077423 0.038284 0.159620
0.078111 0.038244 0.159319
0.078263 0.037945 0.157932
0.079331 0.038092 0.158395
0.083865 0.039883 0.165683
0.084284 0.039703 0.164763
0.084496 0.039430 0.163450
0.084463 0.039048 0.161681
0.084237 0.038584 0.159570
-0.997074 0.463657 1.898794
-0.980802 0.460265 1.886855
-0.976090 0.462285 1.897004
-0.971560 0.464431 1.907593
-0.961528 0.463962 1.907363
-0.954769 0.465079 1.913566
-0.950039 0.467215 1.923893
-0.943745 0.468617 1.931123
-0.935746 0.469191 1.934873
-0.933988 0.477657 1.972371
-0.930858 0.480856 1.986768
-0.911945 0.475884 1.967330
-0.871099 0.459246 1.899552
-0.843249 0.449186 1.858857
-0.840361 0.452351 1.872818
-0.826587 0.449661 1.862481
-0.812562 0.446777 1.851269
-1.428239 0.793819 3.290487
-1.411160 0.792931 3.287919
-1.391343 0.790467 3.278720
-1.384207 0.795234 3.299429
-1.368276 0.795000 3.299304
-1.350372 0.793600 3.294257
-0.864506 0.532506 2.211964
-0.855291 0.533244 2.215288
-0.840806 0.530675 2.204820
-0.835737 0.534059 2.219045
-0.309326 0.243210 1.009639
-0.300975 0.240337 0.997545
-0.295272 0.239521 0.993978
-0.291535 0.240298 0.997018
-0.286377 0.239911 0.995215
-0.282153 0.240307 0.996652
-0.276456 0.239440 0.992843
-0.272142 0.239762 0.993957
-0.064757 0.058052 0.240605
-0.063467 0.057910 0.239959
-0.060133 0.055864 0.231425
-0.058793 0.055630 0.230397
-0.057333 0.055271 0.228851
-0.055837 0.054862 0.227100
-0.054457 0.054554 0.225767
-0.053326 0.054488 0.225433
-0.052321 0.054551 0.225630
-0.051107 0.054394 0.224920
-0.049827 0.054158 0.223883
-0.048349 0.053693 0.221897
-0.046965 0.053314 0.220266
-0.045976 0.053376 0.220460
-0.042255 0.050195 0.207264
-0.041310 0.050240 0.207388
-0.040607 0.050587 0.208763
-0.039590 0.050551 0.208555
-0.038886 0.050925 0.210036
-0.038114 0.051225 0.211214
-0.037277 0.051453 0.212092
-0.036444 0.051699 0.213045
-0.035607 0.051954 0.214035
-0.034680 0.052087 0.214524
-0.033742 0.052212 0.214982
-0.032834 0.052393 0.215666
-0.031897 0.052538 0.216205
-0.030977 0.052721 0.216899
-0.030081 0.052959 0.217823
-0.029213 0.053266 0.219027
-0.028225 0.053368 0.219393
-0.027286 0.053575 0.220186
-0.026367 0.053837 0.221212
-0.025365 0.053948 0.221614
-0.024366 0.054072 0.222073
-0.023373 0.054223 0.222641
-0.022382 0.054393 0.223289
-0.021378 0.054548 0.223880
-0.020352 0.054660 0.224292
-0.019365 0.054894 0.225206
-0.018322 0.054988 0.225547
-0.017287 0.055121 0.226051
-0.016237 0.055216 0.226403
-0.015197 0.055365 0.226972
-0.014127 0.055418 0.227153
-0.013066 0.055521 0.227540
-0.012033 0.055771 0.228533
-0.010996 0.056050 0.229643
-0.009914 0.056139 0.229977
-0.008829 0.056225 0.230302
-0.007760 0.056459 0.231238
-0.006670 0.056590 0.231749
-0.005568 0.056652 0.231981
-0.004472 0.056818 0.232640
-0.003367 0.056945 0.233145
-0.002256 0.057045 0.233539
-0.001142 0.057198 0.234152
-0.000022 0.057367 0.234833
0.001107 0.057618 0.235851
0.002241 0.057763 0.236438
0.003379 0.057882 0.236919
0.004522 0.057994 0.237377
0.005675 0.058171 0.238102
0.006830 0.058306 0.238655
0.007983 0.058383 0.238976
0.009136 0.058442 0.239220
0.010298 0.058535 0.239611
0.011459 0.058610 0.239929
0.012622 0.058678 0.240218
0.013810 0.058839 0.240893
0.014997 0.058974 0.241462
0.016178 0.059068 0.241867
0.017343 0.059091 0.241982
0.018588 0.059369 0.243142
0.019820 0.059576 0.244014
0.021014 0.059649 0.244341
0.022202 0.059700 0.244580
0.023408 0.059792 0.244985
0.024638 0.059934 0.245598
0.025927 0.060199 0.246717
0.027203 0.060410 0.247619
0.028374 0.060381 0.247537
0.029590 0.060447 0.247847
0.030770 0.060438 0.247851
0.031952 0.060432 0.247867
0.033165 0.060482 0.248113
0.034328 0.060441 0.247991
0.035460 0.060351 0.247665
0.036642 0.060349 0.247701
0.037808 0.060320 0.247629
0.038870 0.060133 0.246909
0.039809 0.059772 0.245475
0.040117 0.058510 0.240341
0.040748 0.057778 0.237380
0.041729 0.057568 0.236565
0.042947 0.057687 0.237104
0.043888 0.057437 0.236122
0.044768 0.057122 0.234875
0.044854 0.055834 0.229627
0.045887 0.055758 0.229362
0.046887 0.055646 0.228947
0.047812 0.055453 0.228201
0.048637 0.055154 0.227017
0.049496 0.054906 0.226043
0.050347 0.054660 0.225072
0.051134 0.054356 0.223866
0.052007 0.054154 0.223077
0.052744 0.053821 0.221748
0.053603 0.053624 0.220975
0.054572 0.053541 0.220675
0.055356 0.053284 0.219654
0.056195 0.053089 0.218887
0.057040 0.052905 0.218165
0.057818 0.052667 0.217220
0.058435 0.052294 0.215714
0.059267 0.052123 0.215038
0.060120 0.051975 0.214458
0.060821 0.051703 0.213363
0.061628 0.051529 0.212671
0.062111 0.051094 0.210896
0.062236 0.050383 0.207982
0.063123 0.050300 0.207662
0.063807 0.050062 0.206694
0.064566 0.049888 0.205990
0.063628 0.048428 0.199970
0.064005 0.047997 0.198200
0.064122 0.047387 0.195686
0.064759 0.047172 0.194801
0.065103 0.046753 0.193072
0.065497 0.046382 0.191534
0.065230 0.045558 0.188129
0.066231 0.045631 0.188421
0.066157 0.044971 0.185682
0.066244 0.044436 0.183459
0.066317 0.043906 0.181250
0.067203 0.043921 0.181290
0.068356 0.044107 0.182034
0.068784 0.043828 0.180849
0.069363 0.043650 0.180082
0.070086 0.043565 0.179697
0.070475 0.043278 0.178469
0.071018 0.043091 0.177655
0.071419 0.042823 0.176500
0.070970 0.042058 0.173293
0.071284 0.041757 0.171997
0.071894 0.041634 0.171430
0.072255 0.041372 0.170283
0.072855 0.041251 0.169714
0.073398 0.041100 0.169018
0.073813 0.040881 0.168039
0.074210 0.040659 0.167037
0.074422 0.040339 0.165636
0.074777 0.040104 0.164573
0.074958 0.039781 0.163146
0.075439 0.039622 0.162388
0.076110 0.039565 0.162044
0.076582 0.039407 0.161277
0.077159 0.039305 0.160738
0.077857 0.039267 0.160449
0.078421 0.039162 0.159883
0.079056 0.039094 0.159462
0.083556 0.040921 0.166752
0.084337 0.040908 0.166534
0.084518 0.040608 0.165137
0.084606 0.040269 0.163576
0.084379 0.039787 0.161430
0.084698 0.039569 0.160351
-0.990837 0.469793 1.885967
-0.973399 0.465750 1.871708
-0.969990 0.468406 1.884276
-0.967588 0.471603 1.898950
-0.958053 0.471352 1.899660
-0.950737 0.472198 1.904707
-0.947399 0.475055 1.917798
-0.942314 0.477083 1.927477
-0.932952 0.476965 1.928410
-0.945790 0.488306 1.975629
-0.937608 0.488913 1.979376
-0.920781 0.484979 1.964656
-0.909009 0.483655 1.960427
-0.870023 0.467675 1.896684
-0.843395 0.458075 1.858696
-0.839821 0.460926 1.871155
-0.826678 0.458531 1.862258
-0.808927 0.453501 1.842588
-1.427151 0.808771 3.287317
-1.383098 0.810181 3.296256
-1.368467 0.810704 3.299278
-1.354808 0.811822 3.304636
-0.852010 0.541617 2.206635
-0.842762 0.542342 2.209822
-0.834363 0.543638 2.215297
-0.306370 0.245612 1.000117
-0.300745 0.244865 0.996917
-0.295167 0.244133 0.993771
-0.291168 0.244704 0.995918
-0.286343 0.244589 0.995262
-0.282221 0.245081 0.997069
-0.276592 0.244258 0.993517
-0.269033 0.241674 0.982795
-0.265310 0.242505 0.985960
-0.060059 0.056890 0.231194
-0.058564 0.056500 0.229552
-0.056438 0.055475 0.225332
-0.054807 0.054907 0.222968
-0.053783 0.054936 0.223031
-0.052361 0.054552 0.221412
-0.051614 0.054870 0.222646
-0.050618 0.054931 0.222832
-0.049157 0.054479 0.220939
-0.047449 0.053728 0.217832
-0.045944 0.053178 0.215546
-0.043051 0.050961 0.206502
-0.041939 0.050798 0.205784
-0.041141 0.051017 0.206612
-0.040359 0.051266 0.207565
-0.039723 0.051717 0.209332
-0.038940 0.051996 0.210403
-0.037962 0.052023 0.210454
-0.037091 0.052201 0.211115
-0.036283 0.052482 0.212190
-0.035710 0.053126 0.214737
-0.034713 0.053161 0.214820
-0.033707 0.053183 0.214850
-0.032800 0.053367 0.215535
-0.031907 0.053587 0.216365
-0.030925 0.053667 0.216633
-0.029965 0.053791 0.217080
-0.029048 0.054006 0.217890
-0.028185 0.054340 0.219182
-0.027302 0.054660 0.220421
-0.026318 0.054795 0.220912
-0.025351 0.054978 0.221598
-0.024356 0.055113 0.222093
-0.023354 0.055245 0.222573
-0.022363 0.055416 0.223217
-0.021357 0.055567 0.223777
-0.020316 0.055638 0.224016
-0.019338 0.055896 0.225012
-0.018294 0.055985 0.225327
-0.017250 0.056087 0.225694
-0.016223 0.056256 0.226339
-0.015174 0.056373 0.226768
-0.014131 0.056532 0.227371
-0.013054 0.056567 0.227481
-0.012009 0.056762 0.228229
-0.010963 0.056988 0.229109
-0.009880 0.057055 0.229348
-0.008803 0.057173 0.229794
-0.007739 0.057426 0.230787
-0.006661 0.057643 0.231635
-0.005567 0.057774 0.232142
-0.004461 0.057820 0.232309
-0.003364 0.058054 0.233230
-0.002253 0.058146 0.233584
-0.001138 0.058279 0.234106
-0.000019 0.058515 0.235041
0.001108 0.058691 0.235741
0.002242 0.058847 0.236360
0.003379 0.058968 0.236840
0.004518 0.059044 0.237143
0.005670 0.059228 0.237882
0.006832 0.059440 0.238735
0.007980 0.059486 0.238924
0.009130 0.059530 0.239109
0.010291 0.059626 0.239501
0.011447 0.059682 0.239736
0.012604 0.059731 0.239944
0.013784 0.059866 0.240502
0.014970 0.060011 0.241100
0.016112 0.059968 0.240944
0.017342 0.060238 0.242049
0.018522 0.060307 0.242350
0.019794 0.060655 0.243772
0.020972 0.060688 0.243930
0.022180 0.060802 0.244414
0.023397 0.060927 0.244948
0.024608 0.061025 0.245374
0.025845 0.061177 0.246014
0.027114 0.061385 0.246888
0.028310 0.061420 0.247062
0.029491 0.061420 0.247102
0.030705 0.061485 0.247400
0.031915 0.061538 0.247653
0.033077 0.061499 0.247539
0.034212 0.061413 0.247233
0.035397 0.061418 0.247298
0.036543 0.061360 0.247106
0.037653 0.061246 0.246692
0.038794 0.061186 0.246498
0.039884 0.061053 0.246008
0.039599 0.058883 0.237310
0.040566 0.058642 0.236386
0.041559 0.058453 0.235669
0.042698 0.058473 0.235794
0.043661 0.058256 0.234965
0.044509 0.057900 0.233578
0.045251 0.057429 0.231721
0.046070 0.057073 0.230333
0.046965 0.056827 0.229386
0.047943 0.056691 0.228880
0.048783 0.056400 0.227748
0.049621 0.056120 0.226664
0.050334 0.055713 0.225063
0.051118 0.055401 0.223842
0.051998 0.055202 0.223081
0.052782 0.054912 0.221950
0.053649 0.054719 0.221207
0.054597 0.054613 0.220817
0.055447 0.054414 0.220052
0.056262 0.054191 0.219183
0.057090 0.053986 0.218390
0.057850 0.053727 0.217373
0.058572 0.053441 0.216247
0.059278 0.053152 0.215105
0.060123 0.052994 0.214494
0.060784 0.052682 0.213257
0.061634 0.052541 0.212709
0.062089 0.052074 0.210839
0.062214 0.051349 0.207921
0.062937 0.051133 0.207063
0.063553 0.050837 0.205879
0.064259 0.050622 0.205020
0.064213 0.049828 0.201815
0.064170 0.049062 0.198717
0.064366 0.048497 0.196433
0.064812 0.048134 0.194962
0.065091 0.047659 0.193036
0.065135 0.047027 0.190471
0.065964 0.046972 0.190240
0.066036 0.046387 0.187857
0.066072 0.045791 0.185432
0.066504 0.045483 0.184165
0.067111 0.045301 0.183407
0.067719 0.045124 0.182666
0.068389 0.044992 0.182104
0.068904 0.044763 0.181145
0.069375 0.044511 0.180091
0.070000 0.044363 0.179450
0.070405 0.044080 0.178265
0.070793 0.043795 0.177062
0.071172 0.043509 0.175857
0.071195 0.043016 0.173807
0.071512 0.042710 0.172510
0.071924 0.042466 0.171463
0.072442 0.042290 0.170683
0.072988 0.042134 0.169980
0.073493 0.041958 0.169192
0.073982 0.041777 0.168376
0.074360 0.041537 0.167323
0.074589 0.041221 0.165955
0.074818 0.040911 0.164610
0.074976 0.040569 0.163129
0.075570 0.040467 0.162612
0.076060 0.040312 0.161875
0.076653 0.040215 0.161362
0.077194 0.040092 0.160744
0.077812 0.040012 0.160287
0.078604 0.040021 0.160183
0.078743 0.039701 0.158756
0.082778 0.041333 0.165119
0.084276 0.041679 0.166330
0.084548 0.041417 0.165108
0.084188 0.040854 0.162678
0.084473 0.040611 0.161517
0.084300 0.040154 0.159503
-0.993507 0.480121 1.890061
-0.976811 0.476373 1.877326
-0.967988 0.476431 1.879480
-0.968252 0.481005 1.899374
-0.958484 0.480635 1.899671
-0.952683 0.482266 1.907794
-0.945912 0.483433 1.914009
-0.938342 0.484211 1.918606
-0.935405 0.487418 1.932762
-0.943393 0.496438 1.969923
-0.938435 0.498757 1.980453
-0.925154 0.496656 1.973354
-0.911078 0.494080 1.964289
-0.857962 0.470063 1.869850
-0.844954 0.467749 1.861622
-0.841187 0.470557 1.873714
-0.823905 0.465784 1.855558
-0.809082 0.462313 1.842519
-1.380870 0.824436 3.290381
-1.367270 0.825577 3.295871
-0.868841 0.556169 2.222668
-0.856587 0.555002 2.218313
-0.848264 0.556384 2.224104
-0.836249 0.555349 2.220184
-0.307553 0.251304 1.004097
-0.301016 0.249801 0.997944
-0.295443 0.249063 0.994838
-0.291585 0.249770 0.997495
-0.286583 0.249505 0.996257
-0.281697 0.249333 0.995385
-0.277122 0.249436 0.995601
-0.270802 0.247945 0.989450
-0.264988 0.246873 0.984962
-0.261315 0.247793 0.988419
-0.058969 0.057986 0.231193
-0.057951 0.058059 0.231432
-0.055859 0.057038 0.227306
-0.053687 0.055893 0.222690
-0.051746 0.054949 0.218872
-0.050365 0.054572 0.217316
-0.049730 0.055007 0.218988
-0.047602 0.053771 0.214015
-0.046379 0.053527 0.212986
-0.043447 0.051256 0.203895
-0.042580 0.051373 0.204307
-0.041783 0.051584 0.205088
-0.041002 0.051823 0.205984
-0.040006 0.051797 0.205822
-0.039162 0.051970 0.206453
-0.038663 0.052622 0.208987
-0.038107 0.053229 0.211340
-0.037254 0.053441 0.212127
-0.036295 0.053511 0.212346
-0.035435 0.053733 0.213171
-0.034563 0.053951 0.213978
-0.033618 0.054065 0.214373
-0.032725 0.054272 0.215137
-0.031737 0.054328 0.215305
-0.030848 0.054566 0.216192
-0.029967 0.054833 0.217197
-0.029122 0.055187 0.218546
-0.028165 0.055349 0.219133
-0.027172 0.055450 0.219479
-0.026246 0.055699 0.220414
-0.025282 0.055886 0.221102
-0.024296 0.056040 0.221662
-0.023288 0.056154 0.222065
-0.022339 0.056426 0.223095
-0.021328 0.056565 0.223599
-0.020300 0.056667 0.223957
-0.019276 0.056794 0.224417
-0.018257 0.056952 0.225000
-0.017213 0.057048 0.225335
-0.016164 0.057139 0.225657
-0.015158 0.057405 0.226670
-0.014082 0.057425 0.226714
-0.013042 0.057611 0.227415
-0.012001 0.057822 0.228218
-0.010936 0.057952 0.228698
-0.009886 0.058199 0.229647
-0.008796 0.058241 0.229784
-0.007742 0.058565 0.231038
-0.006653 0.058698 0.231539
-0.005552 0.058745 0.231702
-0.004458 0.058924 0.232392
-0.003353 0.059016 0.232736
-0.002246 0.059145 0.233230
-0.001134 0.059301 0.233833
-0.000017 0.059632 0.235125
0.001110 0.059789 0.235736
0.002240 0.059873 0.236060
0.003377 0.060027 0.236663
0.004513 0.060083 0.236879
0.005669 0.060328 0.237848
0.006821 0.060457 0.238358
0.007972 0.060545 0.238706
0.009125 0.060621 0.239014
0.010282 0.060707 0.239359
0.011440 0.060775 0.239638
0.012602 0.060854 0.239958
0.013772 0.060956 0.240375
0.014963 0.061122 0.241044
0.016162 0.061300 0.241765
0.017333 0.061351 0.241985
0.018592 0.061691 0.243349
0.019763 0.061716 0.243467
0.020949 0.061780 0.243746
0.022151 0.061882 0.244176
0.023332 0.061917 0.244342
0.024544 0.062029 0.244814
0.025729 0.062066 0.244989
0.026971 0.062230 0.245669
0.028185 0.062317 0.246047
0.029439 0.062482 0.246737
0.030608 0.062464 0.246702
0.031811 0.062511 0.246927
0.033027 0.062581 0.247242
0.034182 0.062532 0.247090
0.035354 0.062518 0.247076
0.036503 0.062465 0.246911
0.037619 0.062361 0.246543
0.038756 0.062297 0.246332
0.039701 0.061936 0.244950
0.040169 0.060873 0.240791
0.040733 0.060011 0.237425
0.041548 0.059556 0.235667
0.042801 0.059735 0.236423
0.043528 0.059190 0.234309
0.044438 0.058915 0.233265
0.045099 0.058331 0.230998
0.045995 0.058073 0.230017
0.046855 0.057780 0.228902
0.047781 0.057581 0.228155
0.048713 0.057397 0.227471
0.049479 0.057031 0.226060
0.050263 0.056701 0.224791
0.051031 0.056366 0.223504
0.051944 0.056201 0.222892
0.052714 0.055892 0.221704
0.053557 0.055671 0.220865
0.054518 0.055579 0.220535
0.055376 0.055387 0.219807
0.056251 0.055218 0.219172
0.057004 0.054939 0.218093
0.057836 0.054743 0.217346
0.058645 0.054533 0.216543
0.059290 0.054181 0.215170
0.060096 0.053986 0.214420
0.060798 0.053704 0.213324
0.061422 0.053364 0.211996
0.061891 0.052903 0.210182
0.062257 0.052370 0.208080
0.062899 0.052082 0.206950
0.063608 0.051857 0.206068
0.063985 0.051372 0.204152
0.063933 0.050563 0.200941
0.064672 0.050393 0.200272
0.064534 0.049556 0.196944
0.065477 0.049560 0.196962
0.065549 0.048914 0.194389
0.065799 0.048417 0.192407
0.065875 0.047808 0.189975
0.065876 0.047161 0.187392
0.066211 0.046768 0.185811
0.066714 0.046502 0.184732
0.067094 0.046158 0.183344
0.067718 0.045989 0.182645
0.068223 0.045744 0.181641
0.068805 0.045556 0.180862
0.069400 0.045381 0.180130
0.069742 0.045047 0.178762
0.070354 0.044894 0.178108
0.070808 0.044644 0.177066
0.071305 0.044427 0.176153
0.071436 0.043990 0.174361
0.071596 0.043580 0.172675
0.071983 0.043316 0.171563
0.072505 0.043139 0.170789
0.073094 0.043005 0.170182
0.073491 0.042762 0.169139
0.073965 0.042568 0.168289
0.074245 0.042269 0.167014
0.074570 0.042001 0.165858
0.075102 0.041854 0.165176
0.075281 0.041515 0.163733
0.075667 0.041296 0.162758
0.076235 0.041181 0.162185
0.076729 0.041027 0.161457
0.077318 0.040927 0.160931
0.077976 0.040865 0.160552
0.078501 0.040735 0.159898
0.079289 0.040743 0.159778
0.083415 0.042450 0.166304
0.083773 0.042224 0.165248
0.084104 0.041990 0.164150
0.084307 0.041696 0.162814
0.084373 0.041341 0.161230
0.084381 0.040964 0.159557
-0.994508 0.489676 1.890938
-0.983914 0.488894 1.889991
-0.976475 0.489680 1.895008
-0.967871 0.489891 1.897713
-0.958541 0.489736 1.898906
-0.951111 0.490558 1.903804
-0.944310 0.491723 1.909957
-0.937495 0.492904 1.916095
-0.937406 0.497680 1.936144
-0.945165 0.506758 1.972892
-0.936961 0.507373 1.976643
-0.934047 0.510894 1.991652
-0.910915 0.503316 1.963309
-0.859685 0.479897 1.873035
-0.839920 0.473739 1.849998
-0.840285 0.478924 1.871196
-0.824482 0.474907 1.856380
-0.810619 0.471934 1.845574
-0.868062 0.566159 2.220449
-0.861310 0.568596 2.230348
-0.856516 0.572401 2.245567
-0.840706 0.568848 2.231877
-0.831364 0.569637 2.235173
-0.307108 0.255679 1.002757
-0.300529 0.254106 0.996453
-0.296162 0.254384 0.997394
-0.291492 0.254406 0.997323
-0.286674 0.254297 0.996730
-0.281951 0.254271 0.996450
-0.276871 0.253916 0.994876
-0.271952 0.253699 0.993835
-0.266110 0.252600 0.989329
-0.260992 0.252160 0.987399
-0.256665 0.252483 0.988450
-0.057878 0.059081 0.231192
-0.056062 0.058327 0.228188
-0.054843 0.058176 0.227546
-0.053058 0.057407 0.224482
-0.051484 0.056839 0.222208
-0.048569 0.054737 0.213935
-0.047673 0.054868 0.214395
-0.043815 0.051523 0.201273
-0.043231 0.051965 0.202946
-0.042529 0.052282 0.204132
-0.041757 0.052525 0.205026
-0.040758 0.052488 0.204828
-0.040020 0.052794 0.205966
-0.039680 0.053652 0.209260
-0.038941 0.054002 0.210566
-0.038006 0.054090 0.210857
-0.037034 0.054130 0.210956
-0.036241 0.054440 0.212110
-0.035369 0.054648 0.212864
-0.034469 0.054821 0.213482
-0.033509 0.054909 0.213768
-0.032629 0.055136 0.214599
-0.031827 0.055513 0.216010
-0.030893 0.055679 0.216604
-0.029950 0.055839 0.217174
-0.029049 0.056091 0.218100
-0.028105 0.056275 0.218765
-0.027171 0.056497 0.219576
-0.026204 0.056662 0.220167
-0.025253 0.056880 0.220965
-0.024263 0.057023 0.221472
-0.023272 0.057178 0.222027
-0.022303 0.057403 0.222853
-0.021295 0.057547 0.223367
-0.020271 0.057659 0.223758
-0.019265 0.057839 0.224414
-0.018234 0.057961 0.224848
-0.017205 0.058103 0.225358
-0.016158 0.058201 0.225700
-0.015140 0.058428 0.226544
-0.014141 0.058763 0.227807
-0.013031 0.058656 0.227362
-0.011989 0.058866 0.228143
-0.010944 0.059099 0.229014
-0.009868 0.059204 0.229393
-0.008785 0.059284 0.229678
-0.007717 0.059496 0.230476
-0.006655 0.059842 0.231792
-0.005553 0.059896 0.231981
-0.004442 0.059857 0.231812
-0.003350 0.060111 0.232780
-0.002241 0.060202 0.233117
-0.001129 0.060256 0.233311
-0.000014 0.060541 0.234407
0.001111 0.060812 0.235446
0.002239 0.060885 0.235721
0.003372 0.061020 0.236240
0.004509 0.061125 0.236642
0.005654 0.061279 0.237236
0.006811 0.061490 0.238054
0.007966 0.061619 0.238556
0.009112 0.061662 0.238730
0.010271 0.061770 0.239155
0.011432 0.061865 0.239530
0.012588 0.061919 0.239753
0.013849 0.062439 0.241778
0.015016 0.062484 0.241967
0.016202 0.062599 0.242429
0.017388 0.062697 0.242829
0.018597 0.062860 0.243479
0.019776 0.062909 0.243693
0.020958 0.062964 0.243927
0.022155 0.063052 0.244294
0.023337 0.063092 0.244476
0.024514 0.063113 0.244588
0.025714 0.063191 0.244919
0.026939 0.063320 0.245452
0.028126 0.063352 0.245609
0.029377 0.063520 0.246296
0.030518 0.063448 0.246053
0.031716 0.063493 0.246264
0.032912 0.063532 0.246453
0.034046 0.063453 0.246184
0.035191 0.063398 0.246013
0.036362 0.063392 0.246029
0.037522 0.063367 0.245976
0.038600 0.063210 0.245408
0.039531 0.062829 0.243971
0.039473 0.060942 0.236685
0.040405 0.060646 0.235580
0.041499 0.060603 0.235454
0.042477 0.060397 0.234694
0.043487 0.060246 0.234151
0.044288 0.059820 0.232536
0.045048 0.059360 0.230792
0.045864 0.058995 0.229414
0.046711 0.058685 0.228252
0.047616 0.058461 0.227421
0.048591 0.058331 0.226955
0.049397 0.058007 0.225733
0.050210 0.057705 0.224598
0.050966 0.057352 0.223263
0.051871 0.057177 0.222620
0.052634 0.056857 0.221409
0.053504 0.056662 0.220682
0.054405 0.056506 0.220112
0.055233 0.056282 0.219270
0.056035 0.056040 0.218360
0.056851 0.055821 0.217536
0.057654 0.055597 0.216690
0.058382 0.055310 0.215600
0.059194 0.055111 0.214847
0.059993 0.054906 0.214072
0.060740 0.054662 0.213139
0.061574 0.054503 0.212538
0.062247 0.054208 0.211407
0.062270 0.053366 0.208136
0.062677 0.052874 0.206229
0.062972 0.052304 0.204016
0.063730 0.052130 0.203344
0.064072 0.051626 0.201382
0.064354 0.051089 0.199289
0.064703 0.050620 0.197460
0.065053 0.050165 0.195681
0.065241 0.049600 0.193470
0.065716 0.049267 0.192158
0.066180 0.048933 0.190844
0.066743 0.048681 0.189845
0.066795 0.048068 0.187436
0.066741 0.047396 0.184793
0.067076 0.047014 0.183276
0.067512 0.046711 0.182068
0.068169 0.046567 0.181474
0.068692 0.046337 0.180538
0.069120 0.046048 0.179375
0.069904 0.046001 0.179147
0.070404 0.045771 0.178202
0.070857 0.045515 0.177155
0.071457 0.045360 0.176492
0.071779 0.045033 0.175161
0.071781 0.044515 0.173082
0.072034 0.044163 0.171643
0.072575 0.043993 0.170908
0.073121 0.043830 0.170197
0.073527 0.043588 0.169173
0.074093 0.043445 0.168529
0.074473 0.043197 0.167472
0.074753 0.042896 0.166207
0.075108 0.042645 0.165131
0.075289 0.042301 0.163690
0.075620 0.042048 0.162594
0.076273 0.041976 0.162197
0.076822 0.041850 0.161583
0.077364 0.041722 0.160956
0.077997 0.041646 0.160519
0.078657 0.041585 0.160138
0.079354 0.041545 0.159829
0.082296 0.042669 0.163987
0.084277 0.043278 0.166150
0.084149 0.042803 0.164144
0.084006 0.042330 0.162136
0.084101 0.041983 0.160612
0.084220 0.041655 0.159150
-1.005645 0.499800 1.891638
-0.993998 0.498492 1.888902
-0.983298 0.497640 1.887783
-0.975637 0.498324 1.892396
-0.966559 0.498291 1.894191
-0.958539 0.498808 1.897989
-0.946720 0.497340 1.894142
-0.941173 0.499170 1.902772
-0.933845 0.500082 1.907828
-0.926822 0.501177 1.913509
-0.971726 0.530651 2.027549
-0.963277 0.531287 2.031410
-0.954821 0.531932 2.035230
-0.910280 0.512283 1.961283
-0.849927 0.483239 1.851184
-0.838435 0.481662 1.846169
-0.829557 0.481569 1.846776
-0.822455 0.482517 1.851316
-0.806800 0.478413 1.836409
-0.867276 0.576127 2.218191
-0.857875 0.576821 2.221233
-0.847694 0.577002 2.222248
-0.840198 0.579037 2.230364
-0.822797 0.574212 2.212006
-0.306023 0.259498 0.999323
-0.300584 0.258863 0.996751
-0.295464 0.258487 0.995169
-0.291569 0.259189 0.997723
-0.286690 0.259025 0.996934
-0.281853 0.258893 0.996262
-0.277033 0.258774 0.995628
-0.271173 0.257662 0.991169
-0.264737 0.255955 0.984413
-0.259323 0.255192 0.981284
-0.254180 0.254674 0.979091
-0.249878 0.254995 0.980115
-0.056689 0.060073 0.230797
-0.055721 0.060203 0.231246
-0.054509 0.060070 0.230681
-0.053484 0.060142 0.230902
-0.048504 0.055677 0.213707
-0.047422 0.055592 0.213330
-0.044120 0.052845 0.202737
-0.043075 0.052738 0.202276
-0.042335 0.053009 0.203266
-0.041432 0.053084 0.203500
-0.040530 0.053163 0.203751
-0.039580 0.053181 0.203768
-0.038765 0.053387 0.204506
-0.038794 0.054796 0.209850
-0.037925 0.054977 0.210487
-0.036970 0.055040 0.210675
-0.036115 0.055259 0.211458
-0.035222 0.055430 0.212059
-0.034471 0.055843 0.213586
-0.033522 0.055950 0.213939
-0.032481 0.055905 0.213716
-0.031612 0.056163 0.214649
-0.030721 0.056397 0.215490
-0.029795 0.056581 0.216143
-0.029012 0.057060 0.217920
-0.028036 0.057181 0.218333
-0.027137 0.057474 0.219402
-0.026143 0.057582 0.219767
-0.025238 0.057903 0.220940
-0.024243 0.058036 0.221402
-0.023241 0.058164 0.221844
-0.022245 0.058320 0.222394
-0.021258 0.058517 0.223103
-0.020236 0.058632 0.223499
-0.019219 0.058776 0.224005
-0.018209 0.058958 0.224660
-0.017171 0.059072 0.225053
-0.016149 0.059255 0.225716
-0.015112 0.059408 0.226261
-0.014073 0.059574 0.226860
-0.013057 0.059874 0.227970
-0.012001 0.060030 0.228531
-0.010926 0.060111 0.228812
-0.009855 0.060230 0.229238
-0.008777 0.060341 0.229635
-0.007692 0.060427 0.229936
-0.006611 0.060571 0.230464
-0.005532 0.060804 0.231329
-0.004443 0.061011 0.232099
-0.003343 0.061154 0.232626
-0.002237 0.061266 0.233037
-0.001127 0.061409 0.233569
-0.000011 0.061621 0.234363
0.001111 0.061808 0.235067
0.002239 0.061957 0.235624
0.003372 0.062092 0.236133
0.004508 0.062203 0.236552
0.005654 0.062383 0.237234
0.006812 0.062606 0.238083
0.007964 0.062727 0.238547
0.009111 0.062772 0.238722
0.010267 0.062868 0.239094
0.011422 0.062937 0.239367
0.012578 0.063003 0.239626
0.013742 0.063088 0.239964
0.014918 0.063214 0.240456
0.016135 0.063482 0.241492
0.017373 0.063793 0.242695
0.018583 0.063968 0.243378
0.019739 0.063946 0.243315
0.020913 0.063980 0.243468
0.022100 0.064051 0.243764
0.023276 0.064082 0.243909
0.024472 0.064165 0.244251
0.025655 0.064205 0.244431
0.026885 0.064356 0.245036
0.028121 0.064507 0.245644
0.029318 0.064560 0.245878
0.030497 0.064571 0.245958
0.031692 0.064613 0.246150
0.032850 0.064580 0.246063
0.034011 0.064554 0.246003
0.035164 0.064516 0.245894
0.036303 0.064454 0.245698
0.037441 0.064395 0.245514
0.038621 0.064410 0.245611
0.039655 0.064187 0.244802
0.040539 0.063742 0.243147
0.041292 0.063121 0.240818
0.041218 0.061302 0.233918
0.042183 0.061084 0.233128
0.043238 0.061006 0.232870
0.044130 0.060705 0.231764
0.044949 0.060322 0.230341
0.045847 0.060060 0.229380
0.046686 0.059736 0.228183
0.047628 0.059554 0.227526
0.048567 0.059377 0.226889
0.049252 0.058904 0.225119
0.050057 0.058591 0.223961
0.051079 0.058540 0.223800
0.051859 0.058220 0.222611
0.052763 0.058048 0.221990
0.053618 0.057831 0.221191
0.054501 0.057650 0.220534
0.055423 0.057518 0.220058
0.056193 0.057235 0.219005
0.056740 0.056740 0.217139
0.057519 0.056491 0.216210
0.058284 0.056237 0.215261
0.059129 0.056066 0.214633
0.059794 0.055734 0.213382
0.060592 0.055535 0.212637
0.061306 0.055267 0.211627
0.061976 0.054968 0.210498
0.062367 0.054435 0.208469
0.063057 0.054176 0.207487
0.063553 0.053761 0.205904
0.063809 0.053159 0.203601
0.063620 0.052208 0.199962
0.064444 0.052105 0.199567
0.065016 0.051804 0.198411
0.065233 0.051234 0.196219
0.065459 0.050685 0.194111
0.065342 0.049890 0.191053
0.065741 0.049506 0.189568
0.066346 0.049285 0.188703
0.066644 0.048845 0.186997
0.067094 0.048526 0.185751
0.067385 0.048103 0.184101
0.067764 0.047751 0.182725
0.067951 0.047275 0.180868
0.068579 0.047115 0.180214
0.069160 0.046926 0.179450
0.069756 0.046752 0.178738
0.070350 0.046581 0.178032
0.070934 0.046407 0.177312
0.071458 0.046198 0.176457
0.071861 0.045917 0.175319
0.071849 0.045380 0.173201
0.071909 0.044901 0.171299
0.072529 0.044777 0.170753
0.073006 0.044570 0.169880
0.073600 0.044437 0.169288
0.074008 0.044196 0.168280
0.074051 0.043745 0.166465
0.074603 0.043601 0.165816
0.074890 0.043306 0.164588
0.075176 0.043017 0.163378
0.075552 0.042786 0.162380
0.076166 0.042692 0.161900
0.076733 0.042574 0.161322
0.077265 0.042438 0.160673
0.077928 0.042377 0.160299
0.078465 0.042250 0.159665
0.079212 0.042236 0.159457
0.083598 0.044145 0.166489
0.084025 0.043946 0.165559
0.083795 0.043410 0.163355
0.084240 0.043232 0.162486
0.084492 0.042958 0.161255
0.084557 0.042595 0.159680
-1.016941 0.514609 1.911723
-0.993523 0.507318 1.886895
-0.994983 0.512714 1.909141
-0.982715 0.511070 1.905092
-0.966974 0.507573 1.894019
-0.958538 0.507881 1.897039
-0.952533 0.509496 1.904857
-0.938989 0.507070 1.897482
-0.931501 0.507900 1.902199
-0.937864 0.516373 1.935489
-0.967396 0.537896 2.017699
-0.976166 0.548189 2.057796
-0.953055 0.540606 2.030719
-0.944591 0.541262 2.034495
-0.845598 0.489524 1.841141
-0.835316 0.488600 1.838718
-0.834347 0.493160 1.856881
-0.820843 0.490331 1.847159
-0.812532 0.490576 1.848959
-0.863712 0.591311 2.236100
-0.857207 0.594092 2.246970
-0.846447 0.593957 2.246766
-0.837019 0.594764 2.250083
-0.307144 0.265188 1.003082
-0.300736 0.263707 0.997364
-0.295385 0.263121 0.995023
-0.291735 0.264057 0.998425
-0.286711 0.263759 0.997151
-0.281451 0.263229 0.994995
-0.276859 0.263319 0.995169
-0.271754 0.262914 0.993468
-0.265529 0.261393 0.987539
-0.260046 0.260562 0.984212
-0.253049 0.258156 0.974933
-0.246931 0.256575 0.968765
-0.044059 0.053733 0.202517
-0.043102 0.053733 0.202468
-0.042172 0.053766 0.202543
-0.041290 0.053866 0.202869
-0.040258 0.053767 0.202449
-0.039461 0.053988 0.203228
-0.039479 0.055361 0.208346
-0.038643 0.055577 0.209106
-0.037814 0.055814 0.209946
-0.036916 0.055960 0.210444
-0.036139 0.056304 0.211682
-0.035339 0.056628 0.212850
-0.034450 0.056826 0.213539
-0.033382 0.056731 0.213133
-0.032628 0.057182 0.214772
-0.031723 0.057387 0.215491
-0.030737 0.057456 0.215700
-0.029874 0.057766 0.216813
-0.029006 0.058090 0.217981
-0.028094 0.058346 0.218891
-0.027086 0.058413 0.219093
-0.026110 0.058560 0.219597
-0.025145 0.058742 0.220234
-0.024182 0.058947 0.220954
-0.023183 0.059078 0.221401
-0.022184 0.059224 0.221905
-0.021223 0.059488 0.222850
-0.020204 0.059611 0.223270
-0.019177 0.059721 0.223642
-0.018175 0.059925 0.224368
-0.017144 0.060058 0.224827
-0.016111 0.060199 0.225317
-0.015107 0.060473 0.226310
-0.014117 0.060857 0.227711
-0.013051 0.060942 0.227999
-0.011973 0.060987 0.228138
-0.010920 0.061179 0.228825
-0.009857 0.061353 0.229448
-0.008773 0.061422 0.229683
-0.007691 0.061535 0.230082
-0.006619 0.061765 0.230919
