ply
format ascii 1.0
element vertex 1687
property float x
property float y
property float z
end_header
-1.312614 -0.331596 3.357766
-1.299128 -0.332177 3.363227
-1.286245 -0.332928 3.370349
-1.274340 -0.333955 3.380194
-1.259362 -0.334193 3.381989
-1.248177 -0.335457 3.394107
-1.237150 -0.336797 3.406931
-1.224980 -0.337857 3.416868
-1.213034 -0.339008 3.427666
-1.201469 -0.340298 3.439818
-1.187590 -0.340960 3.445560
-1.175551 -0.342176 3.456852
-1.161434 -0.342813 3.462245
-1.149249 -0.344047 3.473615
-1.131061 -0.343494 3.466901
-1.124267 -0.346436 3.495416
-1.109633 -0.347015 3.500032
-0.015508 -0.026916 0.265669
-0.014230 -0.026929 0.265740
-0.012975 -0.026992 0.266316
-0.011711 -0.027049 0.266831
-0.010608 -0.027539 0.271614
-0.009296 -0.027548 0.271661
-0.007729 -0.026680 0.263072
-0.006398 -0.026443 0.260699
-0.004696 -0.024179 0.238355
-0.003529 -0.024102 0.237568
-0.002315 -0.023461 0.231237
-0.001183 -0.023240 0.229036
-0.000071 -0.022568 0.222407
0.001010 -0.022640 0.223110
0.002094 -0.022671 0.223412
0.003191 -0.022772 0.224402
0.004301 -0.022886 0.225521
0.005419 -0.022994 0.226592
0.006605 -0.023300 0.229613
0.007747 -0.023388 0.230496
0.008902 -0.023486 0.231476
0.010019 -0.023474 0.231376
0.011160 -0.023515 0.231797
0.012315 -0.023575 0.232417
0.013670 -0.023975 0.236386
0.014868 -0.024060 0.237251
0.016025 -0.024071 0.237393
0.017285 -0.024225 0.238953
0.018364 -0.024121 0.237962
0.019716 -0.024367 0.240440
0.020914 -0.024406 0.240865
0.022099 -0.024426 0.241116
0.023404 -0.024571 0.242597
0.024720 -0.024712 0.244043
0.025941 -0.024750 0.244480
0.027125 -0.024751 0.244544
0.028352 -0.024789 0.244989
0.029628 -0.024865 0.245804
0.031045 -0.025049 0.247695
0.032292 -0.025088 0.248144
0.033567 -0.025144 0.248779
0.034919 -0.025253 0.249928
0.036177 -0.025288 0.250352
0.037507 -0.025370 0.251243
0.038920 -0.025501 0.252625
0.040404 -0.025669 0.254375
0.041728 -0.025728 0.255052
0.043041 -0.025778 0.255630
0.044383 -0.025841 0.256350
0.045791 -0.025939 0.257406
0.047030 -0.025938 0.257497
0.048392 -0.026003 0.258236
0.049740 -0.026058 0.258877
0.051121 -0.026127 0.259657
0.052577 -0.026230 0.260779
0.054044 -0.026333 0.261904
0.055352 -0.026356 0.262233
0.056725 -0.026408 0.262852
0.058139 -0.026477 0.263639
0.059641 -0.026582 0.264784
0.060960 -0.026603 0.265093
0.062308 -0.026635 0.265515
0.063866 -0.026754 0.266803
0.065394 -0.026856 0.267917
0.066923 -0.026954 0.269002
0.068311 -0.026993 0.269489
0.069682 -0.027024 0.269898
0.071003 -0.027035 0.270103
0.072304 -0.027038 0.270230
0.073693 -0.027073 0.270677
0.075417 -0.027228 0.272319
0.077046 -0.027343 0.273572
0.078779 -0.027492 0.275149
0.079985 -0.027454 0.274864
0.081230 -0.027431 0.274722
0.082538 -0.027430 0.274794
0.083766 -0.027402 0.274602
0.084963 -0.027365 0.274317
0.086046 -0.027293 0.273674
0.087100 -0.027215 0.272961
0.087933 -0.027070 0.271586
0.088082 -0.026723 0.268165
0.088754 -0.026541 0.266408
0.089134 -0.026279 0.263836
0.090488 -0.026307 0.264174
0.091509 -0.026239 0.263543
0.092480 -0.026158 0.262785
0.093669 -0.026141 0.262654
0.094717 -0.026085 0.262134
0.095814 -0.026044 0.261758
0.096934 -0.026010 0.261449
0.097930 -0.025944 0.260815
0.099062 -0.025915 0.260551
0.099978 -0.025832 0.259726
0.100797 -0.025725 0.258668
0.101700 -0.025642 0.257844
0.102527 -0.025543 0.256843
0.103362 -0.025448 0.255882
0.104020 -0.025311 0.254502
0.104790 -0.025205 0.253419
0.105627 -0.025117 0.252516
0.106341 -0.025003 0.251335
0.107159 -0.024915 0.250415
0.107929 -0.024817 0.249400
0.108805 -0.024747 0.248641
0.109588 -0.024656 0.247680
0.110078 -0.024503 0.246077
0.110652 -0.024371 0.244683
0.111232 -0.024243 0.243327
0.111864 -0.024129 0.242100
0.112209 -0.023956 0.240275
0.112931 -0.023867 0.239278
0.113244 -0.023693 0.237433
0.113376 -0.023486 0.235241
0.113568 -0.023294 0.233206
0.113673 -0.023089 0.231022
0.113823 -0.022897 0.228964
0.114213 -0.022756 0.227412
0.114056 -0.022511 0.224803
0.114834 -0.022452 0.224055
0.115050 -0.022286 0.222224
0.115520 -0.022171 0.220902
-1.623127 -0.289748 3.057346
-1.588733 -0.286149 3.021661
-1.584488 -0.287964 3.043000
-1.572337 -0.288363 3.049258
-1.551605 -0.287182 3.038669
-1.553312 -0.290170 3.072089
-1.530063 -0.288510 3.056177
-1.528842 -0.291011 3.084235
-1.547745 -0.309266 3.284248
-1.526858 -0.308160 3.273472
-1.502391 -0.306302 3.254597
-1.507149 -0.310425 3.299189
-1.484093 -0.308847 3.283082
-1.465793 -0.308235 3.277159
-1.452247 -0.308621 3.281751
-1.436277 -0.308496 3.280812
-1.423394 -0.309038 3.286888
-1.411400 -0.309787 3.295085
-1.398346 -0.310318 3.300880
-1.385873 -0.310992 3.308112
-1.374722 -0.311982 3.318624
-1.362845 -0.312827 3.327533
-1.350435 -0.313569 3.335261
-1.339101 -0.314582 3.345796
-1.326636 -0.315350 3.353659
-1.313099 -0.315878 3.358908
-1.300501 -0.316649 3.366664
-1.287037 -0.317226 3.372292
-1.274024 -0.317929 3.379206
-1.259889 -0.318368 3.383238
-1.247828 -0.319348 3.392972
-1.236003 -0.320416 3.403570
-1.224241 -0.321528 3.414586
-1.213593 -0.322967 3.429009
-1.199619 -0.323548 3.434267
-1.187187 -0.324567 3.444118
-1.175526 -0.325827 3.456487
-1.161615 -0.326492 3.462476
-1.149127 -0.327581 3.472919
-1.133145 -0.327691 3.472946
-1.122011 -0.329228 3.488043
-0.014583 -0.026276 0.272227
-0.013271 -0.026287 0.272293
-0.011926 -0.026227 0.271615
-0.009629 -0.023799 0.246437
-0.008348 -0.023555 0.243865
-0.007101 -0.023337 0.241579
-0.005865 -0.023079 0.238878
-0.004640 -0.022747 0.235416
-0.003435 -0.022328 0.231061
-0.002297 -0.022155 0.229245
-0.001151 -0.021510 0.222563
-0.000072 -0.021513 0.222576
0.001009 -0.021570 0.223158
0.002103 -0.021687 0.224369
0.003214 -0.021846 0.226009
0.004336 -0.021979 0.227389
0.005471 -0.022110 0.228742
0.006607 -0.022198 0.229659
0.007736 -0.022243 0.230140
0.008879 -0.022311 0.230855
0.010018 -0.022354 0.231317
0.011156 -0.022386 0.231677
0.012421 -0.022645 0.234377
0.013678 -0.022846 0.236487
0.014864 -0.022906 0.237140
0.016043 -0.022949 0.237615
0.017249 -0.023021 0.238399
0.018496 -0.023135 0.239618
0.019656 -0.023134 0.239657
0.020906 -0.023232 0.240718
0.022138 -0.023302 0.241491
0.023361 -0.023355 0.242095
0.024688 -0.023503 0.243678
0.025967 -0.023592 0.244667
0.027202 -0.023636 0.245184
0.028407 -0.023652 0.245409
0.029637 -0.023686 0.245826
0.030964 -0.023791 0.246989
0.032338 -0.023924 0.248443
0.033635 -0.023993 0.249229
0.034824 -0.023982 0.249191
0.036168 -0.024075 0.250240
0.037458 -0.024127 0.250864
0.038960 -0.024308 0.252829
0.040387 -0.024433 0.254215
0.041748 -0.024512 0.255117
0.043005 -0.024526 0.255361
0.044278 -0.024550 0.255693
0.045772 -0.024690 0.257249
0.047106 -0.024740 0.257861
0.048376 -0.024753 0.258099
0.049704 -0.024796 0.258641
0.051112 -0.024875 0.259564
0.052470 -0.024927 0.260197
0.053900 -0.025009 0.261158
0.055335 -0.025090 0.262106
0.056660 -0.025119 0.262506
0.058007 -0.025156 0.262997
0.059421 -0.025220 0.263763
0.060901 -0.025308 0.264794
0.062307 -0.025363 0.265466
0.063721 -0.025419 0.266153
0.065370 -0.025565 0.267781
0.066915 -0.025664 0.268928
0.068362 -0.025724 0.269653
0.069762 -0.025763 0.270169
0.071075 -0.025770 0.270340
0.072424 -0.025790 0.270644
0.073789 -0.025814 0.270995
0.075210 -0.025857 0.271540
0.076850 -0.025972 0.272847
0.078674 -0.026144 0.274751
0.079939 -0.026129 0.274677
0.081176 -0.026104 0.274511
0.082482 -0.026103 0.274582
0.083788 -0.026101 0.274649
0.084989 -0.026067 0.274374
0.086153 -0.026023 0.273990
0.087293 -0.025973 0.273543
0.088294 -0.025884 0.272678
0.089210 -0.025773 0.271577
0.089459 -0.025475 0.268505
0.089495 -0.025126 0.264885
0.090471 -0.025046 0.264109
0.091686 -0.025034 0.264038
0.092608 -0.024944 0.263134
0.093630 -0.024882 0.262532
0.094747 -0.024848 0.262206
0.095754 -0.024785 0.261584
0.096774 -0.024728 0.261011
0.097838 -0.024682 0.260563
0.098771 -0.024606 0.259781
0.099635 -0.024514 0.258832
0.100488 -0.024422 0.257872
0.101396 -0.024346 0.257072
0.102325 -0.024276 0.256339
0.103035 -0.024156 0.255074
0.103838 -0.024061 0.254061
0.104614 -0.023962 0.252997
0.105277 -0.023839 0.251684
0.106225 -0.023783 0.251067
0.106977 -0.023685 0.249998
0.107723 -0.023588 0.248932
0.108565 -0.023514 0.248104
0.109452 -0.023451 0.247385
0.110177 -0.023354 0.246311
0.110478 -0.023171 0.244314
0.111155 -0.023070 0.243173
0.111671 -0.022938 0.241699
0.112279 -0.022827 0.240446
0.112539 -0.022649 0.238469
0.112938 -0.022502 0.236814
0.113320 -0.022354 0.235148
0.113718 -0.022212 0.233538
0.113518 -0.021958 0.230734
0.113588 -0.021760 0.228519
0.114395 -0.021705 0.227805
0.114238 -0.021471 0.225192
0.114679 -0.021352 0.223784
0.114822 -0.021180 0.221816
0.115391 -0.021090 0.220690
-1.623508 -0.275292 3.058479
-1.601309 -0.273959 3.045971
-1.583469 -0.273356 3.041414
-1.581638 -0.275531 3.067650
-1.570599 -0.276127 3.076201
-1.553721 -0.275699 3.073215
-1.561373 -0.279656 3.119016
-1.531274 -0.276864 3.089420
-1.545263 -0.290402 3.245812
-1.532393 -0.290849 3.251868
-1.527505 -0.292836 3.275039
-1.510941 -0.292602 3.273282
-1.500220 -0.293508 3.284164
-1.487371 -0.294011 3.290459
-1.467198 -0.293063 3.280407
-1.449016 -0.292497 3.274541
-1.436623 -0.293100 3.281675
-1.419762 -0.292795 3.278557
-1.406195 -0.293170 3.282973
-1.396385 -0.294346 3.296273
-1.382398 -0.294659 3.299822
-1.373098 -0.295989 3.314692
-1.360794 -0.296695 3.322496
-1.349658 -0.297675 3.333297
-1.337955 -0.298552 3.342869
-1.325372 -0.299252 3.350384
-1.312213 -0.299837 3.356547
-1.300328 -0.300731 3.366105
-1.286915 -0.301290 3.371841
-1.274547 -0.302110 3.380445
-1.263077 -0.303168 3.391635
-1.249969 -0.303854 3.398614
-1.237214 -0.304646 3.406708
-1.225467 -0.305710 3.417791
-1.213487 -0.306743 3.428478
-1.199635 -0.307326 3.434065
-1.188736 -0.308691 3.448348
-1.173466 -0.308944 3.450148
-1.158973 -0.309412 3.454303
-1.143178 -0.309541 3.454629
-1.128859 -0.310079 3.459482
-1.111241 -0.309714 3.454214
-0.013391 -0.022917 0.249897
-0.012187 -0.022927 0.249957
-0.010867 -0.022697 0.247410
-0.009582 -0.022495 0.245162
-0.008253 -0.022115 0.240991
-0.007038 -0.021967 0.239340
-0.005822 -0.021755 0.236997
-0.004552 -0.021191 0.230827
-0.003410 -0.021049 0.229258
-0.002247 -0.020581 0.224141
-0.001157 -0.020512 0.223379
-0.000073 -0.020496 0.223194
0.001011 -0.020544 0.223704
0.002108 -0.020656 0.224927
0.003217 -0.020772 0.226179
0.004331 -0.020857 0.227112
0.005466 -0.020985 0.228506
0.006609 -0.021095 0.229710
0.007782 -0.021254 0.231460
0.008903 -0.021250 0.231432
0.010054 -0.021310 0.232097
0.011219 -0.021386 0.232945
0.012480 -0.021613 0.235444
0.013673 -0.021693 0.236344
0.014887 -0.021793 0.237459
0.016117 -0.021900 0.238661
0.017300 -0.021932 0.239053
0.018483 -0.021960 0.239398
0.019695 -0.022018 0.240073
0.020938 -0.022102 0.241039
0.022149 -0.022145 0.241556
0.023397 -0.022219 0.242417
0.024640 -0.022281 0.243151
0.025984 -0.022425 0.244778
0.027189 -0.022441 0.245012
0.028363 -0.022431 0.244974
0.029630 -0.022493 0.245718
0.030958 -0.022595 0.246897
0.032307 -0.022703 0.248153
0.033610 -0.022773 0.248987
0.034916 -0.022840 0.249799
0.036253 -0.022922 0.250773
0.037567 -0.022984 0.251537
0.038879 -0.023042 0.252253
0.040271 -0.023142 0.253433
0.041630 -0.023217 0.254349
0.042990 -0.023289 0.255225
0.044345 -0.023354 0.256027
0.045668 -0.023399 0.256619
0.046979 -0.023436 0.257116
0.048311 -0.023481 0.257707
0.049637 -0.023521 0.258244
0.051059 -0.023603 0.259243
0.052566 -0.023720 0.260630
0.054118 -0.023852 0.262172
0.055418 -0.023868 0.262454
0.056714 -0.023882 0.262711
0.058073 -0.023922 0.263252
0.059577 -0.024018 0.264416
0.060960 -0.024063 0.265006
0.062414 -0.024133 0.265883
0.063999 -0.024250 0.267276
0.065366 -0.024281 0.267723
0.066714 -0.024305 0.268084
0.068151 -0.024359 0.268782
0.069675 -0.024441 0.269797
0.071135 -0.024499 0.270535
0.072349 -0.024471 0.270329
0.073734 -0.024502 0.270762
0.075323 -0.024597 0.271916
0.077309 -0.024817 0.274442
0.078755 -0.024859 0.275005
0.080041 -0.024850 0.274998
0.081374 -0.024856 0.275153
0.082638 -0.024841 0.275071
0.083913 -0.024829 0.275030
0.085099 -0.024792 0.274706
0.086299 -0.024760 0.274430
0.087482 -0.024724 0.274112
0.088552 -0.024658 0.273455
0.089557 -0.024576 0.272616
0.090350 -0.024439 0.271161
0.089461 -0.023857 0.264770
0.090449 -0.023785 0.264028
0.091549 -0.023744 0.263631
0.092693 -0.023715 0.263363
0.093654 -0.023641 0.262589
0.094675 -0.023584 0.261996
0.095770 -0.023546 0.261618
0.096735 -0.023479 0.260898
0.097713 -0.023415 0.260225
0.098688 -0.023353 0.259555
0.099583 -0.023273 0.258692
0.100529 -0.023208 0.257975
0.101356 -0.023116 0.256970
0.102236 -0.023039 0.256115
0.103079 -0.022955 0.255184
0.103823 -0.022852 0.254024
0.104515 -0.022739 0.252763
0.105345 -0.022659 0.251853
0.106171 -0.022580 0.250946
0.107033 -0.022510 0.250138
0.107819 -0.022426 0.249164
0.108661 -0.022355 0.248334
0.109438 -0.022272 0.247364
0.110094 -0.022167 0.246139
0.110709 -0.022056 0.244839
0.111127 -0.021908 0.243128
0.111765 -0.021807 0.241920
0.112079 -0.021645 0.240035
0.112505 -0.021507 0.238415
0.112993 -0.021384 0.236950
0.113263 -0.021223 0.235051
0.113401 -0.021040 0.232912
0.113626 -0.020877 0.230979
0.113617 -0.020674 0.228603
0.113981 -0.020543 0.227007
0.114385 -0.020421 0.225509
0.114954 -0.020331 0.224351
0.115055 -0.020160 0.222297
0.115377 -0.020031 0.220695
-1.641354 -0.263634 3.092493
-1.618690 -0.262322 3.079407
-1.596083 -0.260996 3.065995
-1.588334 -0.262098 3.080971
-1.576069 -0.262468 3.087232
-1.574143 -0.264584 3.113909
-1.561774 -0.264968 3.120098
-1.536448 -0.263140 3.100120
-1.504166 -0.267761 3.159684
-1.541322 -0.277105 3.271002
-1.517269 -0.275523 3.253260
-1.507397 -0.276510 3.265753
-1.499102 -0.277810 3.281848
-1.483309 -0.277733 3.281588
-1.467780 -0.277706 3.281810
-1.451101 -0.277458 3.279335
-1.440231 -0.278327 3.289984
-1.421829 -0.277745 3.283378
-1.405913 -0.277641 3.282348
-1.400752 -0.279682 3.306598
-1.382905 -0.279208 3.301033
-1.371898 -0.280120 3.311780
-1.360754 -0.281025 3.322366
-1.349189 -0.281864 3.332092
-1.335891 -0.282356 3.337650
-1.324105 -0.283184 3.347101
-1.311455 -0.283845 3.354514
-1.298969 -0.284557 3.362474
-1.286304 -0.285249 3.370114
-1.274241 -0.286093 3.379492
-1.262920 -0.287127 3.391053
-1.250046 -0.287830 3.398649
-1.237179 -0.288554 3.406421
-1.224279 -0.289289 3.414273
-1.212501 -0.290313 3.425472
-1.200134 -0.291221 3.435255
-1.185693 -0.291645 3.439267
-1.172774 -0.292460 3.447844
-1.157752 -0.292766 3.450379
-1.143938 -0.293392 3.456624
-1.127137 -0.293259 3.453887
-1.109215 -0.292826 3.447586
-0.113376 -0.063462 0.735397
-0.108822 -0.062871 0.728252
-0.106090 -0.063330 0.733260
-0.102138 -0.063067 0.729918
-0.098586 -0.063040 0.729325
-0.096439 -0.063944 0.739492
-0.018604 -0.022152 0.255193
-0.017299 -0.022062 0.254088
-0.015958 -0.021908 0.252261
-0.014650 -0.021778 0.250711
-0.013329 -0.021604 0.248651
-0.012070 -0.021506 0.247474
-0.010677 -0.021122 0.243010
-0.009354 -0.020797 0.239237
-0.008020 -0.020354 0.234096
-0.006833 -0.020197 0.232265
-0.005672 -0.020074 0.230815
-0.004548 -0.020051 0.230533
-0.003422 -0.020000 0.229915
-0.002295 -0.019898 0.228734
-0.001170 -0.019628 0.225614
-0.000075 -0.019529 0.224464
0.001015 -0.019540 0.224577
0.002108 -0.019578 0.225015
0.003206 -0.019618 0.225465
0.004319 -0.019704 0.226461
0.005457 -0.019846 0.228098
0.006635 -0.020061 0.230576
0.007806 -0.020195 0.232127
0.008974 -0.020291 0.233246
0.010103 -0.020286 0.233202
0.011254 -0.020321 0.233625
0.012449 -0.020421 0.234803
0.013679 -0.020559 0.236412
0.014873 -0.020624 0.237190
0.016078 -0.020694 0.238030
0.017306 -0.020782 0.239088
0.018483 -0.020802 0.239361
0.019696 -0.020858 0.240044
0.020915 -0.020913 0.240723
0.022161 -0.020988 0.241636
0.023405 -0.021054 0.242447
0.024646 -0.021110 0.243151
0.025923 -0.021191 0.244151
0.027135 -0.021214 0.244472
0.028354 -0.021241 0.244848
0.029580 -0.021270 0.245247
0.030960 -0.021404 0.246861
0.032301 -0.021501 0.248057
0.033531 -0.021520 0.248356
0.034882 -0.021613 0.249507
0.036259 -0.021715 0.250765
0.037569 -0.021772 0.251500
0.038874 -0.021823 0.252172
0.040250 -0.021908 0.253250
0.041753 -0.022057 0.255052
0.042983 -0.022056 0.255133
0.044216 -0.022057 0.255235
0.045656 -0.022158 0.256501
0.046969 -0.022194 0.257016
0.048297 -0.022235 0.257586
0.049664 -0.022292 0.258339
0.051030 -0.022345 0.259054
0.052401 -0.022397 0.259764
0.054008 -0.022547 0.261595
0.055370 -0.022588 0.262184
0.056673 -0.022605 0.262483
0.058031 -0.022643 0.263021
0.059574 -0.022749 0.264358
0.061055 -0.022828 0.265380
0.062394 -0.022852 0.265758
0.063855 -0.022918 0.266634
0.065326 -0.022986 0.267523
0.066767 -0.023040 0.268260
0.068171 -0.023080 0.268825
0.069661 -0.023147 0.269709
0.071107 -0.023197 0.270396
0.072540 -0.023241 0.271008
0.073849 -0.023245 0.271152
0.075349 -0.023307 0.271978
0.077090 -0.023441 0.273636
0.078592 -0.023498 0.274405
0.079995 -0.023525 0.274813
0.081336 -0.023533 0.274995
0.082632 -0.023528 0.275028
0.083863 -0.023505 0.274844
0.085155 -0.023499 0.274863
0.086336 -0.023463 0.274526
0.087481 -0.023419 0.274088
0.088624 -0.023376 0.273658
0.089486 -0.023260 0.272379
0.089625 -0.022963 0.268970
0.089573 -0.022626 0.265085
0.090458 -0.022532 0.264040
0.091658 -0.022518 0.263930
0.092611 -0.022444 0.263119
0.093497 -0.022356 0.262136
0.094567 -0.022314 0.261687
0.095527 -0.022247 0.260946
0.096503 -0.022186 0.260263
0.097448 -0.022119 0.259511
0.098540 -0.022087 0.259162
0.099545 -0.022037 0.258589
0.100467 -0.021969 0.257814
0.101384 -0.021902 0.257037
0.102244 -0.021825 0.256135
0.103252 -0.021780 0.255612
0.103879 -0.021658 0.254165
0.104571 -0.021551 0.252902
0.105364 -0.021467 0.251903
0.106308 -0.021416 0.251277
0.107197 -0.021355 0.250529
0.107971 -0.021272 0.249525
0.108855 -0.021213 0.248786
0.109713 -0.021150 0.247996
0.110530 -0.021081 0.247125
0.110439 -0.020841 0.244255
0.111459 -0.020815 0.243870
0.111767 -0.020657 0.241941
0.112111 -0.020509 0.240121
0.112582 -0.020386 0.238596
0.112724 -0.020208 0.236406
0.112905 -0.020040 0.234329
0.113169 -0.019889 0.232456
0.113303 -0.019720 0.230346
0.113512 -0.019566 0.228418
0.113641 -0.019401 0.226355
0.114105 -0.019297 0.224984
0.114681 -0.019213 0.223847
0.115280 -0.019134 0.222762
0.115666 -0.019022 0.221278
-1.648054 -0.249966 3.105489
-1.650788 -0.252623 3.140828
-1.616603 -0.249627 3.105749
-1.620677 -0.252538 3.144030
-1.582114 -0.248799 3.099370
-1.563468 -0.248151 3.093072
-1.542442 -0.247111 3.081739
-1.502535 -0.242997 3.031934
-1.548513 -0.257759 3.220174
-1.535762 -0.258155 3.226243
-1.507336 -0.255897 3.199044
-1.517691 -0.260245 3.254321
-1.503160 -0.260371 3.256713
-1.497400 -0.262034 3.278247
-1.482755 -0.262161 3.280470
-1.465548 -0.261834 3.276909
-1.451016 -0.261983 3.279219
-1.438152 -0.262440 3.285294
-1.422852 -0.262457 3.285786
-1.409837 -0.262902 3.291538
-1.396913 -0.263373 3.297549
-1.387290 -0.264485 3.311498
-1.375844 -0.265271 3.321289
-1.364161 -0.266029 3.330652
-1.353039 -0.266916 3.341552
-1.339919 -0.267425 3.347652
-1.327653 -0.268119 3.355992
-1.315274 -0.268806 3.364188
-1.302888 -0.269510 3.372512
-1.290483 -0.270227 3.380940
-1.277757 -0.270894 3.388680
-1.265449 -0.271667 3.397694
-1.252380 -0.272296 3.404826
-1.237958 -0.272643 3.408385
-1.224142 -0.273135 3.413694
-1.212901 -0.274222 3.426388
-1.197275 -0.274334 3.426845
-1.181622 -0.274443 3.427216
-1.168100 -0.275058 3.433846
-1.153188 -0.275358 3.436506
-1.137448 -0.275466 3.436728
-1.125446 -0.276496 3.448406
-1.098435 -0.273816 3.413770
-0.117813 -0.060386 0.741236
-0.113446 -0.059959 0.735681
-0.109682 -0.059834 0.733837
-0.106787 -0.060190 0.737902
-0.103417 -0.060294 0.738878
-0.100043 -0.060404 0.739924
-0.096501 -0.060416 0.739780
-0.093138 -0.060546 0.741092
-0.090008 -0.060843 0.744452
-0.086645 -0.061001 0.746120
-0.083693 -0.061476 0.751658
-0.021990 -0.021826 0.266366
-0.020716 -0.021841 0.266467
-0.018617 -0.020931 0.255295
-0.017200 -0.020712 0.252562
-0.015822 -0.020509 0.250030
-0.014538 -0.020405 0.248709
-0.013250 -0.020277 0.247096
-0.011622 -0.019552 0.238216
-0.010406 -0.019435 0.236749
-0.009163 -0.019235 0.234267
-0.008018 -0.019212 0.233957
-0.006877 -0.019191 0.233670
-0.005737 -0.019169 0.233374
-0.004601 -0.019149 0.233103
-0.003462 -0.019100 0.232487
-0.002320 -0.018987 0.231087
-0.001175 -0.018612 0.226512
-0.000076 -0.018509 0.225246
0.001015 -0.018468 0.224728
0.002108 -0.018492 0.225019
0.003213 -0.018570 0.225969
0.004323 -0.018626 0.226656
0.005440 -0.018684 0.227361
0.006575 -0.018773 0.228449
0.007827 -0.019124 0.232741
0.009003 -0.019222 0.233946
0.010139 -0.019225 0.233992
0.011295 -0.019259 0.234438
0.012479 -0.019331 0.235329
0.013669 -0.019399 0.236189
0.014855 -0.019451 0.236861
0.016082 -0.019546 0.238047
0.017273 -0.019587 0.238582
0.018483 -0.019643 0.239312
0.019635 -0.019635 0.239249
0.020854 -0.019690 0.239977
0.022154 -0.019813 0.241517
0.023403 -0.019879 0.242378
0.024642 -0.019931 0.243070
0.025888 -0.019984 0.243774
0.027137 -0.020034 0.244447
0.028361 -0.020062 0.244854
0.029616 -0.020109 0.245499
0.030896 -0.020169 0.246302
0.032235 -0.020261 0.247500
0.033585 -0.020354 0.248709
0.034952 -0.020450 0.249958
0.036261 -0.020506 0.250731
0.037514 -0.020529 0.251086
0.038843 -0.020590 0.251924
0.040169 -0.020646 0.252697
0.041485 -0.020693 0.253365
0.042849 -0.020762 0.254291
0.044192 -0.020816 0.255050
0.045593 -0.020894 0.256105
0.046927 -0.020938 0.256738
0.048219 -0.020962 0.257128
0.049550 -0.021001 0.257704
0.050872 -0.021034 0.258209
0.052221 -0.021077 0.258833
0.053589 -0.021125 0.259522
0.055225 -0.021274 0.261460
0.056625 -0.021327 0.262217
0.057997 -0.021368 0.262827
0.059392 -0.021416 0.263513
0.060934 -0.021513 0.264815
0.062540 -0.021629 0.266346
0.063898 -0.021655 0.266777
0.065312 -0.021700 0.267431
0.066707 -0.021736 0.267984
0.068135 -0.021782 0.268650
0.069608 -0.021840 0.269470
0.071129 -0.021911 0.270447
0.072544 -0.021947 0.270993
0.073937 -0.021975 0.271443
0.075441 -0.022035 0.272281
0.076857 -0.022067 0.272779
0.078467 -0.022153 0.273940
0.079847 -0.022173 0.274276
0.081159 -0.022173 0.274372
0.082509 -0.022184 0.274591
0.083851 -0.022192 0.274781
0.085053 -0.022163 0.274511
0.086275 -0.022140 0.274313
0.087498 -0.022118 0.274121
0.088634 -0.022076 0.273667
0.089601 -0.021992 0.272711
0.089941 -0.021760 0.269900
0.089985 -0.021464 0.266290
0.090643 -0.021320 0.264567
0.091673 -0.021266 0.263960
0.092738 -0.021222 0.263468
0.093629 -0.021140 0.262496
0.094645 -0.021088 0.261893
0.095445 -0.020990 0.260715
0.096436 -0.020936 0.260076
0.097584 -0.020916 0.259868
0.098481 -0.020844 0.259000
0.099480 -0.020795 0.258417
0.100411 -0.020734 0.257666
0.101338 -0.020673 0.256921
0.102285 -0.020617 0.256236
0.103140 -0.020545 0.255334
0.103973 -0.020470 0.254396
0.104657 -0.020367 0.253113
0.105302 -0.020259 0.251757
0.106183 -0.020199 0.250986
0.107082 -0.020144 0.250266
0.107792 -0.020054 0.249117
0.108720 -0.020007 0.248485
0.109390 -0.019913 0.247276
0.110193 -0.019846 0.246383
0.110748 -0.019736 0.244951
0.111452 -0.019654 0.243868
0.111779 -0.019508 0.241982
0.112244 -0.019389 0.240422
0.112630 -0.019259 0.238716
0.112653 -0.019070 0.236274
0.112703 -0.018890 0.233930
0.113025 -0.018758 0.232182
0.113449 -0.018645 0.230665
0.113241 -0.018432 0.227894
0.113479 -0.018295 0.226056
0.113783 -0.018171 0.224375
0.114672 -0.018141 0.223856
0.114902 -0.018009 0.222061
0.115419 -0.017924 0.220835
-1.660102 -0.236942 3.128544
-1.651128 -0.237771 3.141809
-1.637932 -0.238002 3.147042
-1.621026 -0.237693 3.145007
-1.599716 -0.236727 3.134134
-1.586995 -0.237027 3.139882
-1.553150 -0.234148 3.103380
-1.540850 -0.234493 3.109479
-1.524194 -0.238744 3.169788
-1.502276 -0.237628 3.156069
-1.527431 -0.244010 3.241851
-1.508896 -0.243472 3.235604
-1.500834 -0.244630 3.251801
-1.487736 -0.244982 3.257202
-1.490625 -0.248003 3.297982
-1.467879 -0.246777 3.282206
-1.447864 -0.245989 3.272164
-1.457796 -0.250327 3.330224
-1.419652 -0.246415 3.278435
-1.403770 -0.246324 3.277399
-1.401128 -0.248580 3.307510
-1.381352 -0.247813 3.297323
-1.370996 -0.248738 3.309567
-1.361336 -0.249812 3.323723
-1.349841 -0.250571 3.333609
-1.337951 -0.251273 3.342673
-1.325278 -0.251844 3.349915
-1.314009 -0.252699 3.360863
-1.302132 -0.253457 3.370453
-1.288665 -0.253920 3.376060
-1.275406 -0.254436 3.382313
-1.263049 -0.255149 3.391104
-1.250257 -0.255790 3.398894
-1.238631 -0.256690 3.410062
-1.223798 -0.256941 3.412545
-1.210976 -0.257627 3.420748
-1.196202 -0.257910 3.423557
-1.182514 -0.258439 3.429574
-1.165343 -0.258211 3.425498
-1.151685 -0.258766 3.431769
-1.138641 -0.259477 3.440059
-1.125963 -0.260294 3.449704
-1.111583 -0.260736 3.454331
-0.117881 -0.056852 0.741504
-0.114503 -0.056943 0.742374
-0.110838 -0.056893 0.741405
-0.107346 -0.056931 0.741596
-0.103850 -0.056970 0.741802
-0.100596 -0.057150 0.743837
-0.097278 -0.057305 0.745567
-0.094055 -0.057530 0.748206
-0.090992 -0.057875 0.752409
-0.087205 -0.057769 0.750758
-0.083745 -0.057880 0.751938
-0.080679 -0.058286 0.756947
-0.024345 -0.020353 0.264067
-0.023047 -0.020334 0.263739
-0.021552 -0.020128 0.260994
-0.020035 -0.019876 0.257649
-0.018464 -0.019531 0.253117
-0.017007 -0.019268 0.249649
-0.015687 -0.019132 0.247823
-0.014088 -0.018605 0.240942
-0.012859 -0.018516 0.239738
-0.011692 -0.018506 0.239564
-0.010548 -0.018536 0.239913
-0.009382 -0.018529 0.239779
-0.008238 -0.018571 0.240280
-0.007067 -0.018554 0.240029
-0.005872 -0.018457 0.238745
-0.004616 -0.018075 0.233777
-0.003479 -0.018059 0.233551
-0.002354 -0.018124 0.234364
-0.001215 -0.018095 0.233980
-0.000077 -0.017459 0.225744
0.001015 -0.017391 0.224858
0.002112 -0.017441 0.225491
0.003225 -0.017540 0.226775
0.004333 -0.017569 0.227155
0.005439 -0.017582 0.227318
0.006623 -0.017796 0.230092
0.007817 -0.017974 0.232415
0.008971 -0.018025 0.233091
0.010157 -0.018122 0.234358
0.011291 -0.018116 0.234303
0.012493 -0.018211 0.235562
0.013646 -0.018223 0.235745
0.014824 -0.018265 0.236318
0.016049 -0.018355 0.237520
0.017298 -0.018458 0.238892
0.018493 -0.018494 0.239392
0.019655 -0.018495 0.239452
0.020890 -0.018560 0.240345
0.022192 -0.018675 0.241876
0.023438 -0.018734 0.242697
0.024641 -0.018753 0.243009
0.025863 -0.018786 0.243490
0.027101 -0.018826 0.244071
0.028364 -0.018880 0.244837
0.029703 -0.018978 0.246171
0.030907 -0.018985 0.246338
0.032201 -0.019045 0.247195
0.033536 -0.019124 0.248294
0.034956 -0.019245 0.249943
0.036266 -0.019299 0.250720
0.037486 -0.019303 0.250855
0.038797 -0.019352 0.251579
0.040079 -0.019384 0.252084
0.041482 -0.019471 0.253308
0.042777 -0.019503 0.253821
0.044125 -0.019558 0.254621
0.045474 -0.019610 0.255393
0.046809 -0.019653 0.256054
0.048148 -0.019696 0.256705
0.049520 -0.019750 0.257507
0.050855 -0.019786 0.258083
0.052281 -0.019856 0.259091
0.053815 -0.019962 0.260578
0.055291 -0.020042 0.261731
0.056569 -0.020049 0.261921
0.057917 -0.020079 0.262428
0.059480 -0.020182 0.263866
0.061141 -0.020312 0.265679
0.062512 -0.020343 0.266187
0.063998 -0.020409 0.267161
0.065418 -0.020452 0.267832
0.066756 -0.020469 0.268148
0.068061 -0.020474 0.268326
0.069543 -0.020532 0.269186
0.071086 -0.020605 0.270253
0.072573 -0.020660 0.271072
0.073908 -0.020670 0.271308
0.075252 -0.020682 0.271569
0.076699 -0.020722 0.272192
0.078284 -0.020798 0.273277
0.079772 -0.020845 0.273994
0.081093 -0.020848 0.274126
0.082494 -0.020871 0.274520
0.083818 -0.020874 0.274650
0.085132 -0.020875 0.274745
0.086341 -0.020850 0.274502
0.087556 -0.020827 0.274283
0.088748 -0.020800 0.274000
0.089831 -0.020748 0.273395
0.090426 -0.020586 0.271339
0.089984 -0.020197 0.266271
0.090536 -0.020038 0.264241
0.091731 -0.020024 0.264114
0.092671 -0.019956 0.263266
0.093482 -0.019861 0.262072
0.094355 -0.019783 0.261081
0.095433 -0.019749 0.260672
0.096616 -0.019737 0.260553
0.097566 -0.019678 0.259814
0.098516 -0.019621 0.259089
0.099558 -0.019584 0.258614
0.100499 -0.019528 0.257890
0.101440 -0.019473 0.257177
0.102347 -0.019413 0.256390
0.103159 -0.019336 0.255384
0.104046 -0.019275 0.254577
0.104754 -0.019183 0.253350
0.105541 -0.019108 0.252334
0.106494 -0.019063 0.251726
0.107126 -0.018963 0.250373
0.107963 -0.018901 0.249520
0.108846 -0.018848 0.248781
0.109510 -0.018759 0.247558
0.110188 -0.018674 0.246382
0.110931 -0.018602 0.245368
0.111432 -0.018491 0.243837
0.112038 -0.018400 0.242557
0.112346 -0.018262 0.240654
0.112078 -0.018034 0.237561
0.111976 -0.017838 0.234871
0.112402 -0.017728 0.233322
0.112830 -0.017621 0.231799
0.113176 -0.017503 0.230130
0.113140 -0.017329 0.227712
0.113643 -0.017241 0.226406
0.114037 -0.017137 0.224899
0.114855 -0.017099 0.224237
0.115411 -0.017022 0.223069
0.115533 -0.016884 0.221081
-1.668031 -0.223152 3.143817
-1.655487 -0.223456 3.150418
-1.643286 -0.223813 3.157626
-1.634224 -0.224608 3.170896
-1.630022 -0.226092 3.193779
-1.599096 -0.223863 3.164074
-1.577438 -0.222902 3.152143
-1.537846 -0.225781 3.198355
-1.510900 -0.224009 3.174346
-1.493117 -0.223574 3.169168
-1.511968 -0.228672 3.242325
-1.496006 -0.228554 3.241460
-1.490412 -0.230035 3.263167
-1.480940 -0.230942 3.276645
-1.468924 -0.231468 3.284619
-1.454994 -0.231700 3.288342
-1.439860 -0.231744 3.289301
-1.428179 -0.232351 3.298163
-1.415062 -0.232735 3.303785
-1.400904 -0.232955 3.306992
-1.390494 -0.233810 3.319139
-1.377673 -0.234275 3.325667
-1.364053 -0.234613 3.330325
-1.351462 -0.235139 3.337566
-1.337908 -0.235507 3.342507
-1.324447 -0.235902 3.347743
-1.313960 -0.236842 3.360654
-1.299395 -0.237061 3.363268
-1.286793 -0.237649 3.371045
-1.273361 -0.238096 3.376763
-1.260578 -0.238678 3.384331
-1.249614 -0.239623 3.396995
-1.238405 -0.240546 3.409275
-1.222077 -0.240486 3.407568
-1.209241 -0.241121 3.415653
-1.197649 -0.242025 3.427492
-1.183685 -0.242467 3.432751
-1.167803 -0.242525 3.432499
-1.148004 -0.241759 3.420557
-1.138047 -0.243073 3.438009
-1.125225 -0.243806 3.447170
-0.119073 -0.053823 0.748851
-0.114701 -0.053461 0.743505
-0.110676 -0.053244 0.740168
-0.107725 -0.053546 0.744061
-0.104154 -0.053551 0.743816
-0.100686 -0.053610 0.744344
-0.097319 -0.053730 0.745713
-0.094031 -0.053905 0.747846
-0.090798 -0.054126 0.750635
-0.087427 -0.054280 0.752501
-0.083693 -0.054212 0.751291
-0.080097 -0.054232 0.751310
-0.024593 -0.019269 0.266686
-0.022763 -0.018822 0.260422
-0.021350 -0.018687 0.258483
-0.020017 -0.018611 0.257348
-0.018009 -0.017854 0.246818
-0.016679 -0.017710 0.244767
-0.015435 -0.017642 0.243773
-0.014212 -0.017590 0.242993
-0.013031 -0.017585 0.242871
-0.011873 -0.017613 0.243215
-0.010670 -0.017572 0.242605
-0.009467 -0.017522 0.241875
-0.008220 -0.017365 0.239676
-0.007057 -0.017365 0.239637
-0.005897 -0.017372 0.239697
-0.004715 -0.017301 0.238695
-0.003545 -0.017245 0.237900
-0.002382 -0.017182 0.237006
-0.001189 -0.016584 0.228752
-0.000078 -0.016412 0.226355
0.001014 -0.016293 0.224716
0.002105 -0.016295 0.224736
0.003219 -0.016411 0.226328
0.004326 -0.016441 0.226753
0.005441 -0.016486 0.227372
0.006668 -0.016794 0.231629
0.007815 -0.016843 0.232321
0.008974 -0.016902 0.233142
0.010125 -0.016932 0.233581
0.011275 -0.016957 0.233951
0.012431 -0.016985 0.234349
0.013641 -0.017075 0.235632
0.014841 -0.017140 0.236557
0.016062 -0.017218 0.237663
0.017294 -0.017297 0.238793
0.018474 -0.017317 0.239109
0.019669 -0.017348 0.239581
0.020909 -0.017412 0.240520
0.022286 -0.017578 0.242859
0.023467 -0.017580 0.242953
0.024654 -0.017587 0.243098
0.025871 -0.017613 0.243519
0.027080 -0.017632 0.243844
0.028304 -0.017658 0.244272
0.029572 -0.017709 0.245045
0.030894 -0.017787 0.246195
0.032209 -0.017855 0.247210
0.033515 -0.017914 0.248102
0.034936 -0.018027 0.249756
0.036277 -0.018094 0.250757
0.037507 -0.018102 0.250952
0.038756 -0.018119 0.251272
0.040009 -0.018136 0.251602
0.041359 -0.018195 0.252510
0.042854 -0.018313 0.254237
0.044143 -0.018339 0.254689
0.045417 -0.018357 0.255034
0.046772 -0.018406 0.255811
0.048074 -0.018432 0.256274
0.049414 -0.018471 0.256913
0.050821 -0.018533 0.257875
0.052156 -0.018566 0.258434
0.053610 -0.018638 0.259551
0.055221 -0.018761 0.261362
0.056669 -0.018824 0.262349
0.058145 -0.018894 0.263423
0.059665 -0.018974 0.264653
0.061097 -0.019024 0.265455
0.062417 -0.019038 0.265751
0.064016 -0.019135 0.267205
0.065387 -0.019160 0.267670
0.066741 -0.019180 0.268056
0.068093 -0.019199 0.268422
0.069513 -0.019236 0.269043
0.071041 -0.019300 0.270050
0.072520 -0.019350 0.270844
0.073961 -0.019388 0.271477
0.075437 -0.019433 0.272210
0.077014 -0.019503 0.273285
0.078261 -0.019487 0.273171
0.079602 -0.019496 0.273385
0.081016 -0.019522 0.273843
0.082491 -0.019561 0.274486
0.083828 -0.019567 0.274661
0.085166 -0.019573 0.274832
0.086416 -0.019559 0.274719
0.087570 -0.019524 0.274309
0.088845 -0.019516 0.274282
0.089928 -0.019468 0.273672
0.090574 -0.019327 0.271769
0.089744 -0.018880 0.265548
0.090720 -0.018820 0.264765
0.091763 -0.018775 0.264194
0.092818 -0.018734 0.263671
0.093820 -0.018683 0.263012
0.094792 -0.018628 0.262283
0.095830 -0.018587 0.261748
0.096817 -0.018538 0.261088
0.097628 -0.018456 0.259973
0.098545 -0.018396 0.259159
0.099513 -0.018347 0.258493
0.100445 -0.018293 0.257747
0.101447 -0.018253 0.257192
0.102328 -0.018192 0.256341
0.103263 -0.018142 0.255641
0.104535 -0.018152 0.255773
0.105059 -0.018033 0.254090
0.105483 -0.017900 0.252199
0.106149 -0.017810 0.250914
0.107243 -0.017794 0.250653
0.108054 -0.017731 0.249736
0.108829 -0.017664 0.248751
0.109624 -0.017601 0.247824
0.110339 -0.017528 0.246730
0.110896 -0.017431 0.245301
0.111522 -0.017346 0.244046
0.111891 -0.017224 0.242251
0.111350 -0.016966 0.238535
0.111876 -0.016874 0.237150
0.112095 -0.016737 0.235137
0.112325 -0.016606 0.233180
0.112736 -0.016503 0.231625
0.112901 -0.016366 0.229588
0.113283 -0.016264 0.228021
0.113187 -0.016095 0.225518
0.113542 -0.015993 0.223945
0.114290 -0.015948 0.223158
0.114407 -0.015817 0.221154
0.114816 -0.015727 0.219733
-1.661163 -0.207373 3.131179
-1.639133 -0.206454 3.119585
-1.632511 -0.207477 3.137199
-1.608167 -0.206246 3.120596
-1.599920 -0.207077 3.135044
-1.572995 -0.205483 3.112656
-1.577758 -0.208037 3.152999
-1.538184 -0.210726 3.199220
-1.508298 -0.208666 3.169025
-1.522954 -0.212789 3.232634
-1.510175 -0.213123 3.238602
-1.495020 -0.213126 3.239434
-1.484618 -0.213813 3.250577
-1.476029 -0.214779 3.265863
-1.463003 -0.215113 3.271451
-1.447837 -0.215137 3.272225
-1.436270 -0.215702 3.281143
-1.426142 -0.216497 3.293492
-1.414397 -0.217063 3.302252
-1.399696 -0.217182 3.304147
-1.388648 -0.217878 3.314727
-1.378055 -0.218661 3.326572
-1.365441 -0.219139 3.333683
-1.353393 -0.219720 3.342291
-1.339993 -0.220093 3.347661
-1.326250 -0.220417 3.352230
-1.312763 -0.220793 3.357510
-1.302400 -0.221710 3.370954
-1.288786 -0.222090 3.376157
-1.275506 -0.222538 3.382335
-1.262574 -0.223059 3.389558
-1.251489 -0.223924 3.401947
-1.239187 -0.224591 3.411270
-1.223930 -0.224733 3.412567
-1.210381 -0.225197 3.418694
-1.198872 -0.226058 3.430800
-1.187427 -0.226956 3.443395
-1.170084 -0.226736 3.438983
-1.151011 -0.226169 3.429286
-1.141408 -0.227475 3.447918
-1.121841 -0.226804 3.436549
-0.118613 -0.050025 0.745819
-0.115285 -0.050136 0.747150
-0.112112 -0.050323 0.749629
-0.108016 -0.050096 0.745924
-0.104494 -0.050128 0.746093
-0.101192 -0.050271 0.747929
-0.097599 -0.050276 0.747705
-0.094344 -0.050462 0.750179
-0.090861 -0.050536 0.750992
-0.087515 -0.050695 0.753090
-0.083894 -0.050703 0.752933
-0.079816 -0.050423 0.748511
-0.025135 -0.017460 0.259016
-0.023902 -0.017473 0.259132
-0.022117 -0.017063 0.252971
-0.020705 -0.016909 0.250611
-0.019321 -0.016760 0.248337
-0.018078 -0.016721 0.247699
-0.016883 -0.016726 0.247705
-0.015687 -0.016730 0.247701
-0.014471 -0.016711 0.247365
-0.013243 -0.016673 0.246760
-0.012027 -0.016645 0.246293
-0.010799 -0.016593 0.245483
-0.009601 -0.016580 0.245242
-0.008406 -0.016569 0.245035
-0.007167 -0.016452 0.243277
-0.005903 -0.016222 0.239849
-0.004720 -0.016156 0.238847
-0.003542 -0.016069 0.237534
-0.002380 -0.016012 0.236677
-0.001190 -0.015482 0.228815
-0.000079 -0.015298 0.226087
0.001013 -0.015211 0.224793
0.002116 -0.015287 0.225911
0.003230 -0.015369 0.227127
0.004342 -0.015401 0.227598
0.005442 -0.015385 0.227366
0.006584 -0.015474 0.228684
0.007806 -0.015699 0.232026
0.008973 -0.015769 0.233075
0.010131 -0.015809 0.233689
0.011274 -0.015821 0.233892
0.012436 -0.015855 0.234414
0.013624 -0.015913 0.235297
0.014842 -0.015994 0.236529
0.016030 -0.016034 0.237156
0.017271 -0.016118 0.238438
0.018468 -0.016153 0.238992
0.019669 -0.016186 0.239529
0.020823 -0.016180 0.239487
0.022294 -0.016407 0.242908
0.023427 -0.016375 0.242491
0.024641 -0.016401 0.242926
0.025854 -0.016424 0.243321
0.027088 -0.016457 0.243874
0.028321 -0.016487 0.244385
0.029619 -0.016550 0.245391
0.030894 -0.016596 0.246152
0.032185 -0.016648 0.246988
0.033654 -0.016784 0.249090
0.034949 -0.016827 0.249804
0.036259 -0.016874 0.250592
0.037519 -0.016896 0.250995
0.038791 -0.016921 0.251461
0.040065 -0.016946 0.251915
0.041390 -0.016990 0.252663
0.042685 -0.017020 0.253198
0.044068 -0.017082 0.254215
0.045398 -0.017121 0.254891
0.046740 -0.017162 0.255601
0.048022 -0.017180 0.255958
0.049427 -0.017239 0.256948
0.050826 -0.017294 0.257862
0.052138 -0.017317 0.258311
0.053457 -0.017341 0.258775
0.055241 -0.017512 0.261424
0.056552 -0.017528 0.261772
0.058001 -0.017586 0.262739
0.059427 -0.017634 0.263566
0.060717 -0.017641 0.263772
0.062157 -0.017690 0.264613
0.063762 -0.017783 0.266113
0.065561 -0.017926 0.268354
0.066823 -0.017919 0.268356
0.068155 -0.017930 0.268639
0.069526 -0.017952 0.269063
0.071057 -0.018013 0.270084
0.072472 -0.018043 0.270640
0.073854 -0.018064 0.271055
0.075312 -0.018102 0.271735
0.076834 -0.018155 0.272620
0.078332 -0.018200 0.273397
0.079693 -0.018212 0.273676
0.080988 -0.018209 0.273725
0.082438 -0.018240 0.274288
0.083854 -0.018263 0.274725
0.085198 -0.018270 0.274918
0.086509 -0.018270 0.274997
0.087707 -0.018246 0.274722
0.088964 -0.018235 0.274633
0.090050 -0.018190 0.274030
0.090921 -0.018103 0.272795
0.090235 -0.017713 0.266987
0.090970 -0.017609 0.265482
0.091774 -0.017521 0.264215
0.092845 -0.017486 0.263739
0.093798 -0.017429 0.262941
0.094776 -0.017379 0.262230
0.095728 -0.017325 0.261463
0.096564 -0.017252 0.260400
0.097504 -0.017200 0.259638
0.098421 -0.017144 0.258827
0.099325 -0.017088 0.258002
0.100287 -0.017043 0.257339
0.101248 -0.016998 0.256687
0.102122 -0.016941 0.255826
0.103101 -0.016902 0.255240
0.104123 -0.016871 0.254766
0.104706 -0.016770 0.253237
0.105314 -0.016676 0.251797
0.105874 -0.016576 0.250267
0.106876 -0.016547 0.249801
0.107629 -0.016480 0.248760
0.108479 -0.016429 0.247958
0.109258 -0.016369 0.247004
0.110087 -0.016318 0.246174
0.110679 -0.016233 0.244831
0.111366 -0.016164 0.243715
0.111914 -0.016075 0.242312
0.112285 -0.015964 0.240550
0.111512 -0.015694 0.236391
0.111634 -0.015554 0.234186
0.111933 -0.015441 0.232381
0.112551 -0.015374 0.231260
0.112649 -0.015238 0.229094
0.113097 -0.015151 0.227664
0.113254 -0.015028 0.225671
0.113494 -0.014918 0.223871
0.113572 -0.014788 0.221776
0.114024 -0.014710 0.220435
0.114850 -0.014680 0.219822
-1.661437 -0.192546 3.131980
-1.646877 -0.192566 3.134593
-1.632779 -0.192641 3.137969
-1.613577 -0.192110 3.131334
-1.592003 -0.191285 3.119754
-1.575993 -0.191120 3.118802
-1.585329 -0.194054 3.168331
-1.524050 -0.193824 3.169973
-1.511212 -0.194084 3.175286
-1.521353 -0.197329 3.229362
-1.520453 -0.199193 3.260760
-1.499282 -0.198412 3.248770
-1.485213 -0.198566 3.251970
-1.476516 -0.199448 3.267019
-1.465383 -0.200017 3.276838
-1.449767 -0.199980 3.276638
-1.439484 -0.200686 3.288526
-1.427144 -0.201117 3.295835
-1.410648 -0.200966 3.293516
-1.398059 -0.201375 3.300286
-1.385303 -0.201769 3.306736
-1.371445 -0.202010 3.310596
-1.359390 -0.202525 3.318880
-1.347625 -0.203096 3.328006
-1.334662 -0.203498 3.334288
-1.321018 -0.203805 3.338941
-1.307171 -0.204088 3.343132
-1.297328 -0.205010 3.357737
-1.286186 -0.205748 3.369247
-1.274196 -0.206367 3.378747
-1.265227 -0.207498 3.396557
-1.247283 -0.207166 3.390381
-1.235354 -0.207839 3.400573
-1.238683 -0.211130 3.453539
-1.207821 -0.208604 3.411292
-1.194532 -0.209086 3.418197
-1.185851 -0.210399 3.438632
-1.166040 -0.209746 3.426894
-1.146103 -0.209052 3.414449
-1.130116 -0.209070 3.413583
-1.122215 -0.210606 3.437457
-0.160827 -0.054700 0.880412
-0.154007 -0.053792 0.865392
-0.148830 -0.053423 0.859064
-0.144887 -0.053489 0.859734
-0.120877 -0.047321 0.759917
-0.115745 -0.046723 0.749993
-0.111584 -0.046491 0.745956
-0.108646 -0.046771 0.750130
-0.104910 -0.046715 0.748920
-0.101312 -0.046719 0.748676
-0.097864 -0.046794 0.749590
-0.094456 -0.046895 0.750919
-0.091009 -0.046985 0.752072
-0.087684 -0.047147 0.754389
-0.083887 -0.047060 0.752718
-0.080323 -0.047100 0.753104
-0.024820 -0.016004 0.255718
-0.023532 -0.015968 0.255065
-0.022325 -0.015987 0.255296
-0.021018 -0.015932 0.254344
-0.019828 -0.015964 0.254790
-0.018666 -0.016026 0.255702
-0.017169 -0.015788 0.251836
-0.015919 -0.015757 0.251294
-0.014674 -0.015728 0.250772
-0.013438 -0.015704 0.250326
-0.012146 -0.015603 0.248672
-0.010880 -0.015517 0.247257
-0.009608 -0.015400 0.245346
-0.008349 -0.015274 0.243304
-0.007149 -0.015232 0.242597
-0.005912 -0.015080 0.240150
-0.004704 -0.014945 0.237976
-0.003511 -0.014784 0.235384
-0.002358 -0.014722 0.234375
-0.001169 -0.014103 0.224516
-0.000079 -0.014113 0.224651
0.001013 -0.014116 0.224692
0.002107 -0.014139 0.225050
0.003214 -0.014198 0.225986
0.004315 -0.014208 0.226158
0.005462 -0.014337 0.228211
0.006594 -0.014387 0.229014
0.007781 -0.014526 0.231239
0.008936 -0.014578 0.232076
0.010103 -0.014636 0.233024
0.011276 -0.014689 0.233892
0.012451 -0.014735 0.234654
0.013663 -0.014814 0.235938
0.014827 -0.014832 0.236261
0.016027 -0.014881 0.237068
0.017249 -0.014942 0.238088
0.018481 -0.015004 0.239120
0.019727 -0.015070 0.240207
0.021038 -0.015174 0.241919
0.022245 -0.015197 0.242342
0.023448 -0.015215 0.242673
0.024640 -0.015224 0.242881
0.025850 -0.015243 0.243249
0.027063 -0.015262 0.243615
0.028275 -0.015279 0.243947
0.029517 -0.015310 0.244514
0.031051 -0.015484 0.247365
0.032317 -0.015517 0.247964
0.033645 -0.015576 0.248983
0.034928 -0.015610 0.249616
0.036205 -0.015640 0.250180
0.037482 -0.015668 0.250708
0.038728 -0.015682 0.251015
0.040058 -0.015728 0.251836
0.041389 -0.015771 0.252618
0.042703 -0.015806 0.253267
0.044002 -0.015833 0.253803
0.045358 -0.015879 0.254628
0.046673 -0.015908 0.255198
0.048048 -0.015956 0.256065
0.049406 -0.015996 0.256805
0.050896 -0.016075 0.258184
0.052267 -0.016115 0.258917
0.053674 -0.016163 0.259790
0.055088 -0.016211 0.260671
0.056420 -0.016233 0.261130
0.057752 -0.016254 0.261580
0.058921 -0.016230 0.261293
0.060578 -0.016338 0.263137
0.062205 -0.016434 0.264786
0.063713 -0.016495 0.265880
0.065208 -0.016550 0.266882
0.066825 -0.016634 0.268335
0.068238 -0.016665 0.268940
0.069644 -0.016692 0.269492
0.071057 -0.016721 0.270060
0.072474 -0.016749 0.270623
0.073881 -0.016775 0.271132
0.075333 -0.016809 0.271789
0.077075 -0.016906 0.273454
0.078366 -0.016902 0.273494
0.079654 -0.016897 0.273519
0.081054 -0.016917 0.273929
0.082432 -0.016931 0.274250
0.083787 -0.016940 0.274487
0.085306 -0.016981 0.275247
0.086622 -0.016982 0.275340
0.087716 -0.016939 0.274733
0.088993 -0.016933 0.274709
0.090113 -0.016897 0.274206
0.090967 -0.016813 0.272920
0.089750 -0.016354 0.265538
0.090620 -0.016283 0.264449
0.091714 -0.016254 0.264031
0.092902 -0.016242 0.263890
0.093732 -0.016168 0.262745
0.094640 -0.016110 0.261845
0.095505 -0.016046 0.260847
0.096465 -0.015999 0.260128
0.097477 -0.015962 0.259560
0.098389 -0.015910 0.258740
0.099328 -0.015863 0.258006
0.100310 -0.015824 0.257397
0.101304 -0.015789 0.256827
0.102281 -0.015751 0.256222
0.103208 -0.015707 0.255505
0.104191 -0.015672 0.254933
0.105038 -0.015617 0.254041
0.105838 -0.015557 0.253052
0.106387 -0.015462 0.251484
0.107090 -0.015391 0.250305
0.107755 -0.015317 0.249057
0.108638 -0.015274 0.248328
0.109376 -0.015212 0.247277
0.110112 -0.015152 0.246238
0.110519 -0.015048 0.244486
0.111123 -0.014972 0.243194
0.111760 -0.014903 0.241990
0.111898 -0.014769 0.239734
0.112163 -0.014654 0.237784
0.112393 -0.014537 0.235790
0.112248 -0.014375 0.233050
0.112283 -0.014238 0.230726
0.112494 -0.014127 0.228796
0.112466 -0.013987 0.226411
0.112333 -0.013838 0.223855
0.112190 -0.013690 0.221317
0.112869 -0.013644 0.220424
0.113165 -0.013553 0.218795
0.114149 -0.013545 0.218503
-1.669684 -0.178566 3.147790
-1.656463 -0.178736 3.153091
-1.632046 -0.177691 3.136796
-1.614088 -0.177337 3.132547
-1.603221 -0.177763 3.141948
-1.590744 -0.178017 3.148189
-1.585607 -0.179105 3.169073
-1.524339 -0.178893 3.170712
-1.531640 -0.181519 3.218334
-1.513437 -0.181145 3.212675
-1.504543 -0.181889 3.226743
-1.498237 -0.182964 3.246598
-1.485237 -0.183236 3.252105
-1.474896 -0.183845 3.263504
-1.465411 -0.184575 3.276961
-1.454737 -0.185169 3.287920
-1.441087 -0.185394 3.292228
-1.429551 -0.185898 3.301421
-1.415999 -0.186149 3.306024
-1.401274 -0.186250 3.307880
-1.389948 -0.186810 3.317817
-1.378156 -0.187319 3.326779
-1.363427 -0.187437 3.328708
-1.347649 -0.187412 3.328025
-1.333915 -0.187674 3.332371
-1.320346 -0.187967 3.337182
-1.304776 -0.187978 3.336935
-1.295368 -0.188888 3.352582
-1.285790 -0.189796 3.368116
-1.273822 -0.190369 3.377653
-1.258921 -0.190514 3.379514
-1.248067 -0.191282 3.392387
-1.239170 -0.192375 3.410940
-1.223843 -0.192485 3.412017
-1.211335 -0.193048 3.421061
-1.194879 -0.192988 3.419023
-1.186200 -0.194200 3.439465
-1.166520 -0.193620 3.428115
-1.146599 -0.192984 3.415727
-1.130461 -0.192975 3.414417
-0.184667 -0.052450 0.916520
-0.180508 -0.052515 0.917224
-0.173560 -0.051752 0.903468
-0.166899 -0.051038 0.890576
-0.160895 -0.050493 0.880651
-0.156572 -0.050460 0.879667
-0.151317 -0.050116 0.873282
-0.144790 -0.049320 0.859020
-0.140836 -0.049380 0.859673
-0.119812 -0.043277 0.753096
-0.115707 -0.043096 0.749620
-0.112644 -0.043304 0.752916
-0.108888 -0.043251 0.751675
-0.105134 -0.043195 0.750387
-0.101665 -0.043257 0.751150
-0.098053 -0.043259 0.750899
-0.094575 -0.043324 0.751733
-0.090924 -0.043311 0.751224
-0.087465 -0.043394 0.752371
-0.083895 -0.043425 0.752641
-0.025134 -0.014953 0.258898
-0.024082 -0.015077 0.260973
-0.022904 -0.015133 0.261857
-0.021526 -0.015055 0.260441
-0.020197 -0.015004 0.259485
-0.018874 -0.014951 0.258493
-0.017557 -0.014896 0.257475
-0.016206 -0.014801 0.255771
-0.014854 -0.014689 0.253786
-0.013565 -0.014626 0.252643
-0.012188 -0.014446 0.249477
-0.010835 -0.014257 0.246163
-0.009529 -0.014091 0.243255
-0.008329 -0.014058 0.242650
-0.007124 -0.014004 0.241693
-0.005911 -0.013911 0.240041
-0.004707 -0.013795 0.238026
-0.003541 -0.013757 0.237345
-0.002261 -0.013022 0.224635
-0.001165 -0.012959 0.223533
-0.000079 -0.012978 0.223851
0.001010 -0.012994 0.224120
0.002110 -0.013067 0.225379
0.003208 -0.013079 0.225589
0.004356 -0.013237 0.228301
0.005479 -0.013271 0.228895
0.006607 -0.013303 0.229465
0.007762 -0.013372 0.230656
0.008946 -0.013468 0.232332
0.010095 -0.013494 0.232810
0.011251 -0.013525 0.233355
0.012391 -0.013531 0.233493
0.013555 -0.013561 0.234029
0.014822 -0.013682 0.236151
0.016049 -0.013750 0.237359
0.017323 -0.013847 0.239075
0.018540 -0.013889 0.239844
0.019708 -0.013892 0.239941
0.021034 -0.013999 0.241846
0.022226 -0.014011 0.242093
0.023388 -0.014003 0.242022
0.024636 -0.014045 0.242801
0.025846 -0.014063 0.243168
0.027193 -0.014150 0.244748
0.028342 -0.014132 0.244493
0.029720 -0.014224 0.246159
0.030979 -0.014254 0.246756
0.032277 -0.014300 0.247620
0.033537 -0.014326 0.248147
0.034886 -0.014387 0.249281
0.036226 -0.014440 0.250293
0.037542 -0.014481 0.251080
0.038809 -0.014500 0.251504
0.040101 -0.014528 0.252073
0.041340 -0.014535 0.252290
0.042719 -0.014590 0.253327
0.043998 -0.014608 0.253742
0.045301 -0.014633 0.254277
0.046672 -0.014678 0.255161
0.048022 -0.014715 0.255891
0.049639 -0.014829 0.257983
0.051100 -0.014893 0.259186
0.052335 -0.014889 0.259222
0.053707 -0.014923 0.259923
0.055118 -0.014966 0.260780
0.056635 -0.015036 0.262097
0.057941 -0.015047 0.262409
0.059524 -0.015129 0.263936
0.060781 -0.015126 0.263994
0.062170 -0.015155 0.264614
0.063543 -0.015180 0.265144
0.065283 -0.015289 0.267163
0.066671 -0.015313 0.267694
