ply
format ascii 1.0
element vertex 1744
property float x
property float y
property float z
end_header
-0.972619 0.555956 2.049493
-0.966273 0.557897 2.058091
-0.858630 0.500796 1.848669
-0.843539 0.497057 1.836015
-0.833611 0.496314 1.834353
-0.829999 0.499356 1.846622
-0.817240 0.496901 1.838501
-1.272074 0.790236 2.926591
-1.259881 0.791247 2.931588
-1.247664 0.792266 2.936534
-0.880008 0.598654 2.222948
-0.869344 0.598514 2.222906
-0.865205 0.602917 2.239694
-0.861160 0.607497 2.257091
-0.833908 0.595615 2.213275
-0.303780 0.266971 0.992185
-0.299700 0.267496 0.994033
-0.295190 0.267648 0.994480
-0.290743 0.267863 0.995154
-0.286345 0.268130 0.996011
-0.281612 0.268089 0.995713
-0.276574 0.267750 0.994299
-0.271484 0.267349 0.992648
-0.266064 0.266603 0.989709
-0.260651 0.265838 0.986693
-0.253404 0.263140 0.976497
-0.249227 0.263591 0.977980
-0.050248 0.065209 0.241409
-0.048961 0.065016 0.240634
-0.046703 0.063492 0.234938
-0.039723 0.055319 0.204649
-0.038718 0.055265 0.204400
-0.043506 0.063691 0.235506
-0.042434 0.063755 0.235684
-0.041214 0.063594 0.235033
-0.040010 0.063450 0.234444
-0.038936 0.063510 0.234608
-0.034389 0.057742 0.213249
-0.033204 0.057439 0.212083
-0.032066 0.057204 0.211164
-0.031272 0.057584 0.212518
-0.030344 0.057737 0.213034
-0.029495 0.058055 0.214157
-0.028680 0.058466 0.215627
-0.027712 0.058584 0.216014
-0.026796 0.058824 0.216851
-0.025871 0.059065 0.217692
-0.024906 0.059227 0.218245
-0.023922 0.059358 0.218685
-0.022947 0.059525 0.219257
-0.021965 0.059691 0.219824
-0.020991 0.059893 0.220529
-0.019994 0.060050 0.221065
-0.018997 0.060224 0.221665
-0.017979 0.060347 0.222081
-0.017005 0.060641 0.223125
-0.016029 0.060971 0.224304
-0.015106 0.061561 0.226441
-0.014033 0.061582 0.226488
-0.012972 0.061666 0.226766
-0.011905 0.061735 0.226988
-0.010856 0.061922 0.227649
-0.009786 0.062014 0.227961
-0.008703 0.062041 0.228035
-0.007651 0.062327 0.229064
-0.006584 0.062568 0.229926
-0.005505 0.062758 0.230605
-0.004414 0.062877 0.231023
-0.003313 0.062901 0.231095
-0.002213 0.062979 0.231368
-0.001113 0.063189 0.232129
-0.000006 0.063391 0.232859
0.001107 0.063534 0.233376
0.002228 0.063724 0.234065
0.003355 0.063930 0.234819
0.004487 0.064087 0.235390
0.005623 0.064234 0.235928
0.006766 0.064398 0.236533
0.007913 0.064542 0.237064
0.009060 0.064652 0.237471
0.010215 0.064789 0.237980
0.011368 0.064884 0.238336
0.012523 0.064975 0.238679
0.013693 0.065122 0.239231
0.014888 0.065356 0.240102
0.016065 0.065479 0.240569
0.017237 0.065570 0.240921
0.018420 0.065687 0.241370
0.019602 0.065789 0.241762
0.020765 0.065817 0.241886
0.021947 0.065900 0.242212
0.023131 0.065979 0.242530
0.024333 0.066102 0.243005
0.025511 0.066150 0.243210
0.026684 0.066181 0.243352
0.027879 0.066262 0.243677
0.029062 0.066307 0.243875
0.030232 0.066322 0.243961
0.031415 0.066362 0.244142
0.032569 0.066342 0.244100
0.033722 0.066320 0.244055
0.034870 0.066290 0.243979
0.035986 0.066203 0.243696
0.037191 0.066278 0.244009
0.038599 0.066701 0.245604
0.040039 0.067154 0.247309
0.041177 0.067087 0.247099
0.042213 0.066862 0.246312
0.043230 0.066621 0.245461
0.042380 0.063591 0.234335
0.043235 0.063209 0.232964
0.043988 0.062699 0.231124
0.044705 0.062166 0.229195
0.045746 0.062098 0.228978
0.046673 0.061881 0.228213
0.047550 0.061609 0.227246
0.048507 0.061452 0.226700
0.049399 0.061219 0.225877
0.050267 0.060968 0.224983
0.051142 0.060735 0.224155
0.052028 0.060525 0.223411
0.052982 0.060400 0.222982
0.053734 0.060055 0.221735
0.054541 0.059783 0.220758
0.055179 0.059339 0.219146
0.056051 0.059160 0.218509
0.056903 0.058965 0.217814
0.057767 0.058790 0.217188
0.058543 0.058533 0.216259
0.059323 0.058288 0.215373
0.059919 0.057874 0.213859
0.060892 0.057833 0.213720
0.061468 0.057421 0.212210
0.061955 0.056941 0.210447
0.062395 0.056434 0.208578
0.063168 0.056239 0.207864
0.063568 0.055723 0.205959
0.064179 0.055404 0.204780
0.064779 0.055086 0.203603
0.065177 0.054608 0.201831
0.065708 0.054254 0.200512
0.066453 0.054083 0.199871
0.066691 0.053511 0.197741
0.065917 0.052154 0.192711
0.066134 0.051608 0.190671
0.066957 0.051542 0.190405
0.067492 0.051260 0.189336
0.067249 0.050402 0.186136
0.067655 0.050046 0.184790
0.067921 0.049597 0.183096
0.068636 0.049484 0.182637
0.069212 0.049274 0.181818
0.069229 0.048676 0.179563
0.069984 0.048606 0.179252
0.070606 0.048445 0.178604
0.071182 0.048258 0.177852
0.071766 0.048080 0.177132
0.072433 0.047961 0.176624
0.073074 0.047828 0.176060
0.073538 0.047583 0.175079
0.073905 0.047282 0.173889
0.073918 0.046763 0.171892
0.074259 0.046461 0.170690
0.074770 0.046271 0.169892
0.074965 0.045891 0.168397
0.075404 0.045667 0.167466
0.075862 0.045460 0.166591
0.076194 0.045181 0.165451
0.076513 0.044901 0.164300
0.076881 0.044656 0.163270
0.077421 0.044513 0.162613
0.077837 0.044304 0.161702
0.078216 0.044077 0.160726
0.078860 0.044003 0.160296
0.079263 0.043796 0.159380
0.079613 0.043565 0.158368
0.080208 0.043471 0.157846
0.082464 0.044271 0.160557
0.086562 0.046034 0.166746
0.088000 0.046364 0.167721
0.087978 0.045926 0.165907
-1.014120 0.531521 1.903968
-0.995102 0.526283 1.887553
-0.992019 0.529454 1.901183
-0.979057 0.527364 1.895824
-0.966817 0.525627 1.891622
-0.956545 0.524937 1.891088
-0.948316 0.525367 1.894491
-0.938068 0.524676 1.893768
-0.929237 0.524772 1.895796
-1.006095 0.573735 2.074430
-0.997383 0.574387 2.078453
-0.975603 0.567451 2.054914
-0.973698 0.572053 2.073070
-0.857613 0.508984 1.845771
-0.843612 0.505827 1.835501
-0.832549 0.504384 1.831378
-0.829332 0.507714 1.844525
-0.817690 0.505903 1.838934
-1.264506 0.790744 2.875774
-1.252502 0.791736 2.880750
-1.243328 0.794559 2.892302
-1.228530 0.793811 2.890774
-1.221142 0.797888 2.906740
-1.207088 0.797654 2.906923
-1.185759 0.792552 2.889281
-1.180389 0.798122 2.910471
-1.168213 0.799167 2.915093
-0.893267 0.618342 2.256076
-0.879033 0.615809 2.247350
-0.865573 0.613763 2.240348
-0.859997 0.617327 2.253773
-0.850687 0.618266 2.257571
-0.303665 0.271557 0.991894
-0.299675 0.272171 0.994041
-0.295102 0.272267 0.994289
-0.290563 0.272398 0.994653
-0.286036 0.272546 0.995066
-0.281227 0.272424 0.994487
-0.276073 0.271959 0.992647
-0.271428 0.271989 0.992602
-0.266119 0.271342 0.990083
-0.259879 0.269707 0.983948
-0.250571 0.264770 0.965766
-0.248901 0.267871 0.976900
-0.050287 0.066407 0.241670
-0.048566 0.065624 0.238764
-0.046881 0.064854 0.235911
-0.045608 0.064631 0.235042
-0.044302 0.064349 0.233963
-0.043215 0.064377 0.234010
-0.042023 0.064248 0.233485
-0.040844 0.064131 0.233008
-0.039738 0.064127 0.232938
-0.038612 0.064089 0.232747
-0.036480 0.062331 0.226307
-0.033434 0.058855 0.213640
-0.032206 0.058464 0.212170
-0.030975 0.058041 0.210589
-0.030149 0.058376 0.211757
-0.029288 0.058663 0.212750
-0.028472 0.059064 0.214157
-0.027704 0.059598 0.216048
-0.026768 0.059798 0.216727
-0.025801 0.059942 0.217203
-0.024832 0.060093 0.217709
-0.023871 0.060276 0.218329
-0.022882 0.060404 0.218747
-0.021917 0.060611 0.219457
-0.020947 0.060824 0.220187
-0.019956 0.060994 0.220765
-0.018962 0.061172 0.221371
-0.017963 0.061358 0.222005
-0.016982 0.061632 0.222960
-0.015975 0.061839 0.223677
-0.014962 0.062053 0.224417
-0.013983 0.062452 0.225828
-0.012878 0.062304 0.225262
-0.011853 0.062556 0.226144
-0.010831 0.062879 0.227285
-0.009767 0.062995 0.227679
-0.008690 0.063052 0.227861
-0.007632 0.063285 0.228679
-0.006564 0.063494 0.229415
-0.005488 0.063693 0.230114
-0.004398 0.063798 0.230476
-0.003303 0.063866 0.230705
-0.002208 0.063988 0.231131
-0.001107 0.064096 0.231508
-0.000003 0.064291 0.232203
0.001107 0.064494 0.232926
0.002223 0.064640 0.233446
0.003349 0.064883 0.234319
0.004479 0.065059 0.234951
0.005610 0.065180 0.235386
0.006759 0.065429 0.236287
0.007907 0.065596 0.236891
0.009046 0.065660 0.237126
0.010203 0.065828 0.237739
0.011345 0.065876 0.237918
0.012501 0.065981 0.238307
0.013656 0.066071 0.238641
0.014818 0.066173 0.239020
0.016047 0.066540 0.240361
0.017226 0.066665 0.240829
0.018403 0.066768 0.241216
0.019581 0.066862 0.241575
0.020749 0.066910 0.241770
0.021910 0.066935 0.241880
0.023081 0.066984 0.242081
0.024275 0.067093 0.242498
0.025465 0.067181 0.242843
0.026639 0.067220 0.243009
0.027824 0.067282 0.243263
0.029020 0.067367 0.243598
0.030205 0.067419 0.243817
0.031396 0.067480 0.244069
0.032522 0.067400 0.243812
0.033670 0.067371 0.243742
0.034813 0.067336 0.243647
0.035908 0.067211 0.243231
0.037116 0.067299 0.243583
0.038703 0.068048 0.246331
0.040023 0.068299 0.247274
0.041171 0.068248 0.247128
0.042117 0.067874 0.245812
0.043024 0.067461 0.244350
0.042726 0.065230 0.236305
0.043051 0.064039 0.232027
0.043860 0.063609 0.230505
0.044630 0.063146 0.228859
0.045574 0.062944 0.228162
0.046458 0.062671 0.227207
0.047387 0.062471 0.226513
0.048357 0.062331 0.226039
0.049330 0.062201 0.225600
0.050249 0.062010 0.224938
0.051139 0.061792 0.224179
0.052115 0.061685 0.223820
0.052991 0.061466 0.223053
0.053851 0.061237 0.222249
0.054328 0.060590 0.219927
0.055285 0.060493 0.219597
0.055945 0.060079 0.218119
0.056842 0.059931 0.217601
0.057714 0.059762 0.217008
0.058419 0.059430 0.215817
0.059246 0.059231 0.215111
0.059932 0.058899 0.213921
0.060409 0.058378 0.212038
0.060988 0.057969 0.210564
0.061858 0.057846 0.210124
0.062565 0.057577 0.209153
0.062973 0.057046 0.207224
0.063691 0.056807 0.206356
0.064169 0.056365 0.204748
0.064859 0.056119 0.203850
0.064840 0.055276 0.200779
0.065590 0.055103 0.200142
0.066168 0.054794 0.199003
0.066602 0.054375 0.197465
0.066227 0.053316 0.193601
0.066344 0.052677 0.191258
0.066577 0.052146 0.189305
0.066776 0.051604 0.187306
0.067411 0.051407 0.186560
0.067275 0.050636 0.183726
0.067930 0.050472 0.183091
0.068415 0.050187 0.182016
0.068650 0.049729 0.180307
0.069064 0.049410 0.179099
0.069667 0.049232 0.178401
0.070371 0.049129 0.177970
0.070869 0.048886 0.177027
0.071501 0.048740 0.176431
0.072167 0.048621 0.175927
0.072794 0.048478 0.175333
0.073406 0.048329 0.174712
0.073534 0.047867 0.172958
0.073952 0.047603 0.171914
0.073974 0.047093 0.169974
0.074639 0.046998 0.169531
0.074948 0.046684 0.168292
0.075419 0.046476 0.167431
0.075810 0.046223 0.166405
0.076077 0.045901 0.165123
0.076511 0.045686 0.164220
0.076900 0.045448 0.163230
0.077465 0.045318 0.162623
0.077946 0.045142 0.161843
0.078276 0.044883 0.160760
0.078836 0.044759 0.160155
0.079352 0.044613 0.159466
0.079519 0.044275 0.158082
0.080284 0.044274 0.157895
0.081910 0.044743 0.159374
0.086897 0.047022 0.167277
0.087908 0.047126 0.167424
0.088547 0.047032 0.166856
-1.015815 0.541595 1.905855
-0.993252 0.534368 1.882810
-0.990359 0.537688 1.896805
-0.979401 0.536651 1.895338
-0.966389 0.534459 1.889678
-0.955830 0.533595 1.888611
-0.947746 0.534110 1.892330
-0.938332 0.533879 1.893317
-0.927897 0.533056 1.892118
-1.013667 0.588027 2.089043
-1.004874 0.588686 2.093102
-0.986622 0.583762 2.077212
-0.973139 0.581589 2.071009
-0.855629 0.516568 1.840761
-0.840612 0.512724 1.828272
-0.831692 0.512558 1.828822
-0.827761 0.515495 1.840389
-0.815458 0.513226 1.833308
-1.264307 0.804261 2.874420
-1.252287 0.805259 2.879398
-1.239192 0.805580 2.881871
-1.222285 0.803403 2.875317
-1.215208 0.807711 2.891894
-1.198192 0.805437 2.884824
-1.180891 0.802917 2.876790
-1.166267 0.802179 2.875064
-1.148881 0.799504 2.866314
-0.892446 0.628434 2.253612
-0.874385 0.623122 2.235111
-0.867426 0.625691 2.244820
-0.861871 0.629348 2.258389
-0.846607 0.625919 2.246481
-0.303775 0.276344 0.992324
-0.299249 0.276476 0.992717
-0.295064 0.276931 0.994258
-0.290136 0.276693 0.993298
-0.285454 0.276687 0.993161
-0.280414 0.276327 0.991745
-0.275290 0.275870 0.989973
-0.270048 0.275278 0.987709
-0.265506 0.275391 0.987965
-0.258744 0.273165 0.979823
-0.254439 0.273499 0.980857
-0.134095 0.155434 0.557031
-0.051018 0.068536 0.245254
-0.049062 0.067440 0.241278
-0.046915 0.066023 0.236157
-0.045537 0.065645 0.234752
-0.044248 0.065381 0.233755
-0.042988 0.065146 0.232863
-0.041573 0.064659 0.231070
-0.040309 0.064385 0.230039
-0.039098 0.064185 0.229271
-0.038112 0.064354 0.229822
-0.036909 0.064153 0.229055
-0.035285 0.063188 0.225556
-0.032450 0.059926 0.213866
-0.031629 0.060293 0.215131
-0.029995 0.059082 0.210762
-0.029419 0.059945 0.213795
-0.028517 0.060182 0.214594
-0.027597 0.060395 0.215311
-0.026685 0.060644 0.216152
-0.025772 0.060910 0.217058
-0.024805 0.061067 0.217573
-0.023827 0.061209 0.218036
-0.022852 0.061370 0.218570
-0.021863 0.061509 0.219025
-0.020895 0.061724 0.219752
-0.019908 0.061903 0.220351
-0.018925 0.062116 0.221069
-0.017904 0.062219 0.221400
-0.016949 0.062579 0.222647
-0.015962 0.062863 0.223624
-0.014903 0.062881 0.223657
-0.013893 0.063130 0.224510
-0.012876 0.063381 0.225373
-0.011841 0.063585 0.226071
-0.010791 0.063739 0.226592
-0.009737 0.063901 0.227142
-0.008672 0.064025 0.227558
-0.007604 0.064155 0.227999
-0.006538 0.064358 0.228699
-0.005469 0.064593 0.229515
-0.004396 0.064901 0.230594
-0.003295 0.064864 0.230447
-0.002198 0.064876 0.230474
-0.001103 0.065104 0.231273
-0.000001 0.065396 0.232300
0.001111 0.065630 0.233122
0.002225 0.065724 0.233446
0.003347 0.065900 0.234068
0.004475 0.066080 0.234702
0.005614 0.066315 0.235536
0.006759 0.066524 0.236278
0.007902 0.066668 0.236789
0.009050 0.066805 0.237280
0.010205 0.066959 0.237832
0.011355 0.067050 0.238161
0.012507 0.067137 0.238477
0.013663 0.067231 0.238823
0.014834 0.067374 0.239344
0.016022 0.067569 0.240046
0.017200 0.067702 0.240535
0.018379 0.067818 0.240963
0.019553 0.067906 0.241295
0.020724 0.067970 0.241541
0.021899 0.068044 0.241825
0.023077 0.068118 0.242109
0.024248 0.068164 0.242295
0.025412 0.068186 0.242398
0.026605 0.068282 0.242765
0.027771 0.068304 0.242870
0.028931 0.068309 0.242915
0.030112 0.068362 0.243133
0.031290 0.068404 0.243311
0.032427 0.068356 0.243173
0.033583 0.068350 0.243184
0.034713 0.068292 0.243009
0.035791 0.068141 0.242502
0.037041 0.068314 0.243153
0.038852 0.069482 0.247344
0.039936 0.069318 0.246795
0.041022 0.069167 0.246291
0.042131 0.069062 0.245955
0.043089 0.068722 0.244778
0.042725 0.066347 0.236351
0.042853 0.064838 0.231011
0.043811 0.064629 0.230298
0.044552 0.064117 0.228508
0.045524 0.063954 0.227959
0.046436 0.063717 0.227144
0.047303 0.063430 0.226154
0.048282 0.063303 0.225731
0.049157 0.063047 0.224847
0.050145 0.062944 0.224511
0.051000 0.062683 0.223605
0.052010 0.062618 0.223400
0.053024 0.062560 0.223220
0.053757 0.062180 0.221888
0.054451 0.061770 0.220452
0.055240 0.061482 0.219442
0.056059 0.061236 0.218586
0.056757 0.060870 0.217299
0.057561 0.060628 0.216451
0.058332 0.060361 0.215514
0.059106 0.060105 0.214615
0.059692 0.059671 0.213076
0.060150 0.059125 0.211135
0.060806 0.058789 0.209942
0.061316 0.058325 0.208289
0.062094 0.058126 0.207581
0.062850 0.057913 0.206820
0.063508 0.057617 0.205761
0.064040 0.057218 0.204332
0.064111 0.056424 0.201491
0.064741 0.056140 0.200463
0.065391 0.055880 0.199524
0.066114 0.055690 0.198826
0.066659 0.055356 0.197616
0.066897 0.054781 0.195540
0.065871 0.053201 0.189874
0.066262 0.052792 0.188387
0.066917 0.052601 0.187677
0.067715 0.052526 0.187374
0.067932 0.052009 0.185491
0.067268 0.050839 0.181275
0.067840 0.050621 0.180454
0.068356 0.050367 0.179500
0.068904 0.050143 0.178647
0.069553 0.049996 0.178067
0.070169 0.049830 0.177414
0.070727 0.049627 0.176626
0.071275 0.049422 0.175825
0.071850 0.049240 0.175103
0.072559 0.049153 0.174715
0.073120 0.048968 0.173976
0.073398 0.048601 0.172581
0.073517 0.048137 0.170841
0.073954 0.047889 0.169864
0.074477 0.047703 0.169098
0.074904 0.047458 0.168124
0.075292 0.047196 0.167078
0.075772 0.046995 0.166246
0.076061 0.046681 0.165012
0.076212 0.046290 0.163498
0.076816 0.046179 0.162970
0.077327 0.046015 0.162247
0.077701 0.045774 0.161246
0.078213 0.045618 0.160539
0.078502 0.045336 0.159382
0.078984 0.045170 0.158627
0.079545 0.045052 0.158033
0.079980 0.044865 0.157192
0.082244 0.045698 0.159911
0.086138 0.047412 0.165696
0.087740 0.047845 0.166980
0.088719 0.047933 0.167050
-1.013385 0.549465 1.899955
-0.993142 0.543372 1.881323
-0.988361 0.545706 1.891740
-0.977035 0.544436 1.889567
-0.964752 0.542604 1.885333
-0.955365 0.542382 1.886588
-0.946556 0.542488 1.888892
-0.937193 0.542275 1.889996
-0.929061 0.542778 1.893508
-1.019518 0.601453 2.100054
-1.010658 0.602117 2.104142
-0.991115 0.596368 2.085715
-0.964073 0.585944 2.050814
-0.857943 0.526751 1.844963
-0.840518 0.521363 1.827335
-0.832686 0.521875 1.830307
-0.829309 0.525220 1.843158
-0.814368 0.521234 1.830220
-1.265645 0.818769 2.876510
-1.253593 0.819772 2.881498
-1.234585 0.816199 2.870304
-1.220812 0.816046 2.871047
-1.207762 0.816380 2.873416
-1.198383 0.819230 2.884567
-1.180821 0.816489 2.875951
-1.159068 0.810752 2.856699
-1.147835 0.812326 2.863127
-0.896374 0.641907 2.263108
-0.880204 0.637910 2.249598
-0.864949 0.634488 2.238057
-0.863458 0.641203 2.262224
-0.852250 0.640780 2.261162
-0.310531 0.282937 0.999167
-0.303696 0.280961 0.992131
-0.300225 0.282085 0.996030
-0.295212 0.281772 0.994844
-0.289854 0.281116 0.992433
-0.284860 0.280797 0.991203
-0.280020 0.280621 0.990471
-0.274553 0.279801 0.987455
-0.269070 0.278937 0.984275
-0.264130 0.278615 0.983001
-0.257491 0.276457 0.975241
-0.140115 0.165169 0.582165
-0.137528 0.165360 0.582728
-0.128426 0.157564 0.555149
-0.123992 0.155291 0.547033
-0.123087 0.157435 0.554473
-0.048990 0.068485 0.240998
-0.047413 0.067858 0.238739
-0.045983 0.067415 0.237129
-0.044221 0.066452 0.233691
-0.042744 0.065877 0.231621
-0.041524 0.065680 0.230876
-0.040291 0.065451 0.230020
-0.038768 0.064726 0.227423
-0.037285 0.064027 0.224918
-0.036083 0.063784 0.224017
-0.035291 0.064273 0.225684
-0.034030 0.063912 0.224369
-0.031646 0.061352 0.215334
-0.030573 0.061246 0.214917
-0.029458 0.061046 0.214170
-0.028454 0.061070 0.214213
-0.027583 0.061393 0.215301
-0.026652 0.061602 0.215990
-0.025697 0.061768 0.216532
-0.024773 0.062028 0.217400
-0.023772 0.062108 0.217640
-0.022787 0.062239 0.218060
-0.021817 0.062427 0.218678
-0.020843 0.062621 0.219318
-0.019873 0.062848 0.220078
-0.018873 0.063001 0.220575
-0.017870 0.063162 0.221105
-0.016883 0.063403 0.221914
-0.015895 0.063668 0.222811
-0.014921 0.064034 0.224059
-0.013903 0.064259 0.224814
-0.012888 0.064527 0.225723
-0.011831 0.064623 0.226031
-0.010784 0.064792 0.226596
-0.009727 0.064935 0.227072
-0.008662 0.065052 0.227457
-0.007599 0.065229 0.228054
-0.006531 0.065402 0.228640
-0.005453 0.065533 0.229079
-0.004371 0.065660 0.229505
-0.003284 0.065799 0.229976
-0.002193 0.065925 0.230404
-0.001097 0.065991 0.230623
0.000002 0.066342 0.231838
0.001110 0.066558 0.232584
0.002221 0.066642 0.232868
0.003341 0.066839 0.233553
0.004471 0.067096 0.234447
0.005604 0.067276 0.235072
0.006745 0.067487 0.235809
0.007887 0.067643 0.236357
0.009031 0.067769 0.236800
0.010172 0.067854 0.237102
0.011318 0.067944 0.237420
0.012486 0.068146 0.238134
0.013636 0.068216 0.238390
0.014801 0.068348 0.238861
0.015965 0.068458 0.239256
0.017132 0.068563 0.239640
0.018287 0.068610 0.239819
0.019451 0.068685 0.240099
0.020616 0.068751 0.240345
0.021783 0.068819 0.240603
0.022943 0.068858 0.240762
0.024122 0.068949 0.241099
0.025315 0.069069 0.241544
0.026489 0.069128 0.241774
0.027677 0.069217 0.242109
0.028857 0.069281 0.242361
0.030020 0.069300 0.242455
0.031219 0.069396 0.242818
0.032338 0.069315 0.242566
0.033474 0.069276 0.242457
0.034609 0.069236 0.242347
0.035634 0.068985 0.241502
0.036553 0.068552 0.240015
0.038269 0.069592 0.243691
0.039871 0.070372 0.246454
0.040991 0.070281 0.246168
0.041940 0.069908 0.244894
0.043090 0.069882 0.244838
0.042412 0.066971 0.234671
0.043044 0.066225 0.232087
0.043938 0.065909 0.231013
0.044957 0.065792 0.230632
0.045446 0.064921 0.227612
0.046442 0.064801 0.227218
0.047240 0.064414 0.225892
0.048101 0.064130 0.224924
0.049158 0.064113 0.224890
0.050035 0.063866 0.224052
0.050901 0.063616 0.223202
0.051829 0.063453 0.222653
0.052710 0.063240 0.221929
0.053604 0.063050 0.221285
0.054389 0.062741 0.220222
0.055103 0.062364 0.218918
0.055772 0.061951 0.217488
0.056522 0.061641 0.216415
0.057342 0.061417 0.215644
0.058126 0.061163 0.214764
0.058472 0.060465 0.212324
0.059076 0.060053 0.210886
0.059844 0.059818 0.210069
0.060675 0.059653 0.209495
0.061053 0.059055 0.207395
0.061978 0.058997 0.207193
0.062759 0.058806 0.206519
0.063188 0.058295 0.204722
0.063689 0.057865 0.203205
0.063914 0.057201 0.200863
0.064603 0.056967 0.200025
0.065272 0.056721 0.199145
0.065584 0.056176 0.197215
0.066156 0.055867 0.196109
0.066330 0.055234 0.193862
0.066347 0.054491 0.191224
0.066315 0.053727 0.188513
0.067071 0.053613 0.188081
0.067702 0.053404 0.187309
0.067198 0.052316 0.183454
0.067249 0.051684 0.181191
0.068007 0.051603 0.180862
0.068372 0.051230 0.179502
0.068758 0.050882 0.178227
0.069514 0.050813 0.177924
0.070125 0.050640 0.177257
0.070671 0.050425 0.176436
0.071396 0.050342 0.176072
0.072038 0.050202 0.175506
0.072650 0.050046 0.174877
0.073321 0.049933 0.174394
0.073927 0.049778 0.173760
0.074140 0.049365 0.172222
0.074083 0.048784 0.170094
0.074553 0.048558 0.169201
0.074914 0.048267 0.168074
0.075387 0.048054 0.167213
0.075809 0.047812 0.166249
0.076162 0.047533 0.165150
0.076472 0.047233 0.163972
0.076744 0.046915 0.162729
0.077481 0.046886 0.162480
0.077799 0.046606 0.161355
0.077861 0.046180 0.159721
0.078690 0.046212 0.159664
0.079109 0.046006 0.158775
0.079186 0.045606 0.157214
0.080250 0.045777 0.157613
0.082513 0.046622 0.160319
0.086375 0.048346 0.166028
0.087499 0.048520 0.166394
0.088091 0.048398 0.165734
-1.010176 0.556862 1.892555
-0.991618 0.551589 1.877113
-0.981580 0.551003 1.877485
-0.974047 0.551825 1.882554
-0.964149 0.551310 1.882965
-0.953635 0.550431 1.882029
-0.945688 0.551031 1.886057
-0.936621 0.550985 1.887781
-0.927486 0.550897 1.889277
-1.020869 0.612296 2.101745
-1.011980 0.612962 2.105846
-0.993767 0.607938 2.090296
-0.984951 0.608619 2.094266
-0.854566 0.533430 1.836895
-0.840296 0.529919 1.826084
-0.831367 0.529740 1.826674
-0.827269 0.532667 1.837919
-0.814047 0.529720 1.828831
-1.252576 0.832771 2.878211
-1.237522 0.831788 2.876232
-1.220306 0.829315 2.869008
-1.204172 0.827531 2.864073
-1.188578 0.826082 2.860213
-1.172997 0.824608 2.856187
-1.160996 0.825648 2.860786
-0.895541 0.652009 2.260549
-0.875184 0.644854 2.236353
-0.863893 0.644286 2.234942
-0.858808 0.648390 2.249688
-0.846714 0.647238 2.246155
-0.643653 0.539132 1.872626
-0.635669 0.539830 1.875150
-0.310165 0.287319 0.998029
-0.304761 0.286652 0.995667
-0.298888 0.285516 0.991662
-0.294882 0.286156 0.993813
-0.290184 0.286134 0.993656
-0.284960 0.285584 0.991654
-0.279703 0.284982 0.989463
-0.274358 0.284270 0.986878
-0.269601 0.284152 0.986351
-0.263324 0.282402 0.980147
-0.256746 0.280259 0.972576
-0.146499 0.172205 0.597225
-0.142013 0.170203 0.590180
-0.136584 0.166967 0.578856
-0.134005 0.167155 0.579404
-0.126826 0.161494 0.559674
-0.122911 0.159836 0.553824
-0.122441 0.162683 0.563579
-0.044155 0.067460 0.233414
-0.042854 0.067152 0.232297
-0.041477 0.066702 0.230694
-0.039840 0.065801 0.227530
-0.038160 0.064776 0.223936
-0.037042 0.064673 0.223534
-0.036046 0.064785 0.223872
-0.034870 0.064569 0.223081
-0.033632 0.064222 0.221835
-0.032543 0.064147 0.221529
-0.030939 0.063016 0.217581
-0.029158 0.061436 0.212081
-0.028289 0.061732 0.213061
-0.027429 0.062071 0.214190
-0.026561 0.062419 0.215347
-0.025613 0.062597 0.215923
-0.024644 0.062739 0.216372
-0.023695 0.062945 0.217040
-0.022716 0.063085 0.217484
-0.021720 0.063192 0.217817
-0.020764 0.063432 0.218605
-0.019777 0.063593 0.219127
-0.018800 0.063811 0.219842
-0.017812 0.064015 0.220510
-0.016851 0.064345 0.221615
-0.015848 0.064547 0.222277
-0.014844 0.064777 0.223038
-0.013834 0.065015 0.223828
-0.012805 0.065195 0.224421
-0.011770 0.065372 0.225001
-0.010734 0.065581 0.225695
-0.009690 0.065781 0.226362
-0.008634 0.065944 0.226897
-0.007584 0.066208 0.227785
-0.006516 0.066370 0.228323
-0.005438 0.066471 0.228651
-0.004361 0.066651 0.229255
-0.003276 0.066774 0.229662
-0.002183 0.066794 0.229717
-0.001092 0.066978 0.230340
0.000005 0.067077 0.230669
0.001108 0.067380 0.231699
0.002223 0.067698 0.232786
0.003341 0.067901 0.233480
0.004468 0.068119 0.234226
0.005602 0.068343 0.234994
0.006737 0.068494 0.235511
0.007870 0.068597 0.235865
0.009005 0.068680 0.236153
0.010156 0.068850 0.236744
0.011292 0.068903 0.236932
0.012454 0.069083 0.237555
0.013610 0.069204 0.237980
0.014769 0.069322 0.238396
0.015944 0.069493 0.238997
0.017115 0.069625 0.239462
0.018273 0.069688 0.239696
0.019433 0.069753 0.239935
0.020589 0.069794 0.240093
0.021745 0.069833 0.240245
0.022901 0.069867 0.240382
0.024065 0.069922 0.240591
0.025249 0.070026 0.240973
0.026473 0.070230 0.241695
0.027647 0.070286 0.241913
0.028809 0.070310 0.242023
0.030010 0.070422 0.242432
0.031199 0.070500 0.242727
0.032359 0.070510 0.242789
0.033443 0.070357 0.242291
0.034579 0.070321 0.242195
0.035588 0.070036 0.241246
0.036753 0.070068 0.241384
0.038199 0.070617 0.243306
0.039820 0.071446 0.246194
0.040718 0.070969 0.244581
0.041928 0.071047 0.244881
0.042865 0.070670 0.243614
0.042128 0.067626 0.233149
0.042402 0.066319 0.228672
0.043614 0.066508 0.229355
0.044620 0.066381 0.228947
0.045376 0.065898 0.227306
0.046000 0.065249 0.225096
0.047023 0.065183 0.224895
0.048018 0.065080 0.224568
0.048956 0.064909 0.224003
0.049935 0.064796 0.223639
0.050842 0.064597 0.222974
0.051742 0.064398 0.222310
0.052613 0.064170 0.221546
0.053522 0.063999 0.220973
0.054249 0.063618 0.219677
0.055054 0.063344 0.218747
0.055785 0.062994 0.217556
0.056146 0.062247 0.214990
0.056964 0.062025 0.214236
0.057753 0.061780 0.213399
0.058266 0.061252 0.211586
0.059077 0.061051 0.210897
0.059896 0.060864 0.210257
0.060278 0.060247 0.208126
0.061001 0.059984 0.207220
0.061759 0.059764 0.206457
0.062447 0.059484 0.205485
0.063110 0.059190 0.204460
0.063442 0.058599 0.202409
0.063759 0.058011 0.200365
0.064710 0.058009 0.200343
0.064728 0.057183 0.197471
0.065145 0.056727 0.195876
0.065910 0.056584 0.195357
0.066571 0.056356 0.194543
0.066999 0.055940 0.193078
0.066276 0.054587 0.188374
0.066850 0.054324 0.187431
0.067457 0.054095 0.186598
0.067833 0.053688 0.185153
0.067216 0.052517 0.181066
0.067674 0.052203 0.179935
0.068531 0.052203 0.179878
0.068847 0.051794 0.178414
0.069304 0.051501 0.177339
0.070032 0.051414 0.176973
0.070604 0.051215 0.176217
0.071137 0.050993 0.175379
0.071887 0.050930 0.175081
0.072412 0.050711 0.174243
0.073039 0.050567 0.173661
0.073660 0.050423 0.173069
0.073894 0.050019 0.171583
0.074177 0.049658 0.170239
0.074493 0.049325 0.168990
0.074937 0.049084 0.168049
0.075318 0.048808 0.166981
0.075816 0.048612 0.166184
0.076292 0.048405 0.165347
0.076662 0.048138 0.164293
0.076834 0.047751 0.162830
0.077184 0.047483 0.161764
0.077404 0.047140 0.160441
0.077481 0.046718 0.158842
0.077887 0.046501 0.157933
0.078240 0.046257 0.156927
0.078985 0.046246 0.156706
0.079607 0.046165 0.156238
0.082135 0.047180 0.159466
0.086458 0.049197 0.166058
0.087301 0.049215 0.165883
0.087890 0.049091 0.165219
-1.008871 0.565269 1.888677
-0.989607 0.559503 1.871935
-0.982085 0.560332 1.877125
-0.974151 0.560939 1.881475
-0.962811 0.559579 1.879121
-0.953644 0.559468 1.880858
-0.945195 0.559781 1.883928
-0.936328 0.559850 1.886086
-0.928768 0.560710 1.890824
-1.017043 0.620010 2.092735
-1.008170 0.620674 2.096827
-0.995253 0.618837 2.092378
-0.986408 0.619520 2.096361
-0.860878 0.546188 1.849615
-0.838091 0.537202 1.820494
-0.829647 0.537319 1.822132
-0.826719 0.541048 1.835962
-0.812916 0.537665 1.825593
-1.245841 0.851121 2.894614
-1.221614 0.843827 2.871185
-1.209539 0.844859 2.875989
-0.892547 0.660493 2.252506
-0.875040 0.655328 2.235538
-0.867780 0.657806 2.244584
-0.860852 0.660599 2.254660
-0.851295 0.661420 2.257957
-0.841742 0.662265 2.261289
-0.658818 0.553322 1.890610
-0.638855 0.543896 1.858560
-0.631405 0.545011 1.862492
-0.623443 0.545708 1.864968
-0.309497 0.291407 0.995913
-0.303915 0.290548 0.992945
-0.300070 0.291351 0.995640
-0.295051 0.291020 0.994449
-0.289915 0.290562 0.992815
-0.284753 0.290063 0.991028
-0.279554 0.289508 0.989041
-0.273967 0.288526 0.985588
-0.269330 0.288529 0.985488
-0.263235 0.286942 0.979952
-0.254875 0.282786 0.965633
-0.146298 0.174793 0.596521
-0.143650 0.174993 0.597106
-0.137444 0.170779 0.582629
-0.134848 0.170970 0.583179
-0.130156 0.168456 0.574503
-0.125496 0.165879 0.565610
-0.122264 0.165118 0.562909
-0.119412 0.164847 0.561880
-0.116964 0.165134 0.562752
-0.113420 0.163853 0.558275
-0.110897 0.164019 0.558733
-0.042789 0.068151 0.232018
-0.041244 0.067418 0.229475
-0.039860 0.066916 0.227720
-0.038400 0.066254 0.225421
-0.037047 0.065746 0.223646
-0.035585 0.065007 0.221088
-0.034726 0.065360 0.222245
-0.033563 0.065146 0.221469
-0.032335 0.064786 0.220202
-0.030807 0.063780 0.216739
-0.029162 0.062456 0.212200
-0.028105 0.062340 0.211766
-0.027209 0.062588 0.212567
-0.026374 0.063001 0.213929
-0.025430 0.063176 0.214483
-0.024562 0.063560 0.215749
-0.023600 0.063725 0.216270
-0.022652 0.063946 0.216982
-0.021675 0.064101 0.217471
-0.020708 0.064304 0.218124
-0.019724 0.064470 0.218654
-0.018750 0.064692 0.219370
-0.017758 0.064874 0.219954
-0.016793 0.065183 0.220971
-0.015807 0.065446 0.221830
-0.014796 0.065639 0.222456
-0.013766 0.065766 0.222857
-0.012739 0.065935 0.223403
-0.011722 0.066186 0.224227
-0.010711 0.066529 0.225365
-0.009645 0.066572 0.225485
-0.008605 0.066824 0.226317
-0.007554 0.067046 0.227048
-0.006494 0.067253 0.227731
-0.005424 0.067417 0.228266
-0.004350 0.067608 0.228898
-0.003271 0.067829 0.229630
-0.002180 0.067877 0.229778
-0.001087 0.067941 0.229982
0.000008 0.068137 0.230636
0.001110 0.068421 0.231589
0.002215 0.068491 0.231819
0.003341 0.068949 0.233362
0.004469 0.069201 0.234210
0.005602 0.069428 0.234976
0.006730 0.069514 0.235267
0.007858 0.069582 0.235496
0.008994 0.069694 0.235878
0.010132 0.069792 0.236215
0.011277 0.069921 0.236654
0.012425 0.070034 0.237044
0.013590 0.070219 0.237680
0.014734 0.070279 0.237891
0.015885 0.070358 0.238168
0.017036 0.070426 0.238411
0.018188 0.070488 0.238636
0.019329 0.070505 0.238706
0.020475 0.070536 0.238830
0.021665 0.070708 0.239428
0.022823 0.070763 0.239632
0.023976 0.070796 0.239764
0.025155 0.070901 0.240140
0.026370 0.071094 0.240816
0.027611 0.071337 0.241662
0.028766 0.071348 0.241724
0.029948 0.071421 0.241994
0.031207 0.071666 0.242850
0.032259 0.071435 0.242094
0.033371 0.071350 0.241832
0.034489 0.071280 0.241624
0.035565 0.071132 0.241150
0.036713 0.071133 0.241179
0.037900 0.071205 0.241453
0.039308 0.071678 0.243086
0.040632 0.071974 0.244119
0.041658 0.071740 0.243354
0.042615 0.071403 0.242241
0.042148 0.068761 0.233307
0.042747 0.067948 0.230577
0.043262 0.067048 0.227548
0.044363 0.067075 0.227668
0.045277 0.066826 0.226849
0.046088 0.066440 0.225564
0.047030 0.066255 0.224961
0.047988 0.066102 0.224464
0.048889 0.065877 0.223724
0.049859 0.065753 0.223327
0.050735 0.065513 0.222534
0.051657 0.065342 0.221971
0.052574 0.065170 0.221409
0.053427 0.064928 0.220602
0.054097 0.064476 0.219084
0.054746 0.064017 0.217539
0.055477 0.063669 0.216370
0.056162 0.063282 0.215068
0.056919 0.062988 0.214077
0.057760 0.062796 0.213434
0.058450 0.062449 0.212262
0.058380 0.061315 0.208412
0.059637 0.061591 0.209349
0.060160 0.061111 0.207719
0.060709 0.060672 0.206225
0.061407 0.060395 0.205277
0.062123 0.060142 0.204412
0.062638 0.059706 0.202920
0.063384 0.059501 0.202209
0.063599 0.058810 0.199847
0.064072 0.058375 0.198350
0.064507 0.057918 0.196778
0.065024 0.057547 0.195492
0.065531 0.057178 0.194212
0.066183 0.056943 0.193384
0.065976 0.055985 0.190099
0.066159 0.055381 0.188012
0.067099 0.055417 0.188095
0.067651 0.055137 0.187100
0.068008 0.054706 0.185592
0.066839 0.053075 0.180010
0.067288 0.052754 0.178868
0.068003 0.052647 0.178448
0.068805 0.052609 0.178258
0.069378 0.052399 0.177480
0.069977 0.052212 0.176780
0.070522 0.051991 0.175958
0.071170 0.051850 0.175403
0.071812 0.051709 0.174840
0.072359 0.051501 0.174052
0.072829 0.051246 0.173096
0.073312 0.051004 0.172182
0.073633 0.050657 0.170907
0.073969 0.050327 0.169687
0.074267 0.049980 0.168403
0.074687 0.049720 0.167409
0.075216 0.049538 0.166672
0.075690 0.049324 0.165822
0.076130 0.049092 0.164908
0.076265 0.048671 0.163352
0.076630 0.048403 0.162304
0.076999 0.048143 0.161280
0.077101 0.047723 0.159713
0.077386 0.047424 0.158546
0.077876 0.047254 0.157805
0.078451 0.047140 0.157241
0.079050 0.047041 0.156723
0.079794 0.047030 0.156488
0.083973 0.049024 0.162908
0.085965 0.049716 0.164978
0.086604 0.049620 0.164422
0.087617 0.049738 0.164564
-1.005324 0.572376 1.880557
-0.991031 0.569355 1.873207
-0.979191 0.567702 1.870226
-0.971490 0.568439 1.875012
-0.962143 0.568219 1.876539
-0.952372 0.567743 1.877119
-0.943318 0.567690 1.879000
-0.934681 0.567888 1.881624
-0.926646 0.568461 1.885400
-1.011006 0.626281 2.079144
-1.002169 0.626941 2.083219
-0.995037 0.628692 2.090836
-0.986177 0.629375 2.094824
-0.856695 0.552309 1.839747
-0.836386 0.544764 1.815956
-0.828244 0.545070 1.818251
-0.824558 0.548347 1.830395
-0.811847 0.545627 1.822461
-0.884598 0.665181 2.231933
-0.873651 0.664853 2.231510
-0.864290 0.665739 2.235110
-0.855100 0.666781 2.239183
-0.844399 0.666656 2.239288
-0.828230 0.662157 2.224647
-0.658104 0.561648 1.888403
-0.640619 0.554206 1.863562
-0.630323 0.552864 1.859196
-0.621582 0.552867 1.859322
-0.309985 0.296581 0.997505
-0.304585 0.295893 0.995169
-0.299159 0.295159 0.992664
-0.294858 0.295528 0.993857
-0.290129 0.295474 0.993617
-0.284876 0.294876 0.991538
-0.279623 0.294258 0.989380
-0.274239 0.293479 0.986673
-0.268460 0.292243 0.982419
-0.262602 0.290877 0.977720
-0.258304 0.291221 0.978762
-0.145120 0.176189 0.591832
-0.143304 0.177393 0.595784
-0.138116 0.174387 0.585597
-0.133631 0.172167 0.578045
-0.129970 0.170935 0.573812
-0.126737 0.170228 0.571340
-0.123418 0.169371 0.568363
-0.119988 0.168320 0.564737
-0.116518 0.167165 0.560758
-0.112322 0.164892 0.553028
-0.110203 0.165630 0.555401
-0.054586 0.090672 0.303810
-0.039798 0.067893 0.227441
-0.038404 0.067334 0.225526
-0.037086 0.066881 0.223965
-0.035824 0.066505 0.222660
-0.034245 0.065498 0.219246
-0.033017 0.065122 0.217946
-0.031845 0.064836 0.216948
-0.030553 0.064279 0.215042
-0.028822 0.062729 0.209815
-0.028018 0.063156 0.211206
-0.027247 0.063692 0.212959
-0.026250 0.063720 0.213013
-0.025315 0.063909 0.213607
-0.024405 0.064179 0.214472
-0.023554 0.064634 0.215954
-0.022629 0.064917 0.216862
-0.021667 0.065117 0.217497
-0.020685 0.065275 0.217988
-0.019689 0.065403 0.218381
-0.018686 0.065521 0.218742
-0.017699 0.065710 0.219341
-0.016722 0.065963 0.220155
-0.015721 0.066151 0.220750
-0.014729 0.066406 0.221575
-0.013742 0.066725 0.222611
-0.012713 0.066873 0.223076
-0.011675 0.067001 0.223478
-0.010669 0.067356 0.224638
-0.009625 0.067521 0.225165
-0.008585 0.067765 0.225957
-0.007534 0.067974 0.226634
-0.006473 0.068149 0.227198
-0.005407 0.068334 0.227798
-0.004331 0.068453 0.228178
-0.003251 0.068563 0.228529
-0.002170 0.068739 0.229102
-0.001080 0.068761 0.229165
0.000011 0.068882 0.229556
0.001106 0.069086 0.230227
0.002225 0.069823 0.232675
0.003333 0.069828 0.232686
0.004450 0.069977 0.233181
0.005573 0.070143 0.233729
0.006697 0.070259 0.234114
0.007823 0.070360 0.234453
0.008959 0.070516 0.234971
0.010105 0.070712 0.235629
0.011238 0.070783 0.235870
0.012388 0.070937 0.236389
0.013548 0.071114 0.236986
0.014709 0.071276 0.237536
0.015850 0.071317 0.237682
0.016989 0.071351 0.237806
0.018143 0.071436 0.238104
0.019283 0.071458 0.238189
0.020424 0.071482 0.238286
0.021589 0.071583 0.238639
0.022745 0.071646 0.238865
0.023893 0.071679 0.238995
0.025071 0.071794 0.239399
0.026342 0.072152 0.240613
0.027629 0.072526 0.241881
0.028995 0.073067 0.243707
0.030287 0.073386 0.244795
0.031721 0.074014 0.246914
0.032450 0.073010 0.243590
0.033436 0.072632 0.242355
0.034499 0.072444 0.241751
0.035709 0.072563 0.242177
0.037103 0.073040 0.243793
0.038320 0.073148 0.244183
0.039642 0.073446 0.245205
0.040411 0.072730 0.242842
0.041357 0.072364 0.241647
0.041958 0.071430 0.238555
0.041879 0.069419 0.231863
0.042790 0.069108 0.230854
0.043509 0.068512 0.228886
0.044448 0.068282 0.228142
0.045252 0.067860 0.226759
0.046101 0.067525 0.225661
0.046954 0.067210 0.224631
0.047916 0.067062 0.224160
0.048857 0.066891 0.223608
0.049684 0.066574 0.222570
0.050603 0.066393 0.221983
0.051502 0.066191 0.221328
0.052259 0.065820 0.220105
0.053135 0.065610 0.219416
0.053903 0.065276 0.218315
0.054713 0.065005 0.217422
0.055299 0.064484 0.215691
0.055744 0.063819 0.213475
0.056523 0.063554 0.212597
0.057498 0.063516 0.212474
0.057985 0.062947 0.210575
0.058460 0.062387 0.208702
0.058988 0.061899 0.207070
0.059784 0.061705 0.206418
0.060602 0.061539 0.205857
0.061289 0.061247 0.204876
0.062010 0.060998 0.204030
0.062709 0.060735 0.203139
0.062382 0.059502 0.199001
0.062887 0.059087 0.197596
0.064047 0.059290 0.198254
0.064475 0.058820 0.196660
0.064781 0.058253 0.194737
0.065408 0.057988 0.193821
0.066058 0.057749 0.192991
0.066468 0.057310 0.191487
0.065886 0.056039 0.187203
0.066266 0.055610 0.185726
0.066982 0.055469 0.185213
0.066843 0.054634 0.182375
0.067210 0.054228 0.180967
0.068276 0.054389 0.181449
0.068521 0.053901 0.179759
0.068887 0.053519 0.178421
0.069474 0.053315 0.177673
0.070148 0.053182 0.177158
0.070591 0.052879 0.176073
0.071207 0.052712 0.175434
0.071960 0.052648 0.175136
0.072391 0.052353 0.174064
0.072882 0.052107 0.173151
0.073522 0.051973 0.172603
0.074112 0.051806 0.171944
0.073928 0.051108 0.169516
0.074385 0.050864 0.168589
0.074792 0.050591 0.167563
0.075280 0.050378 0.166730
0.075674 0.050107 0.165700
0.076053 0.049831 0.164650
0.076298 0.049475 0.163328
0.076418 0.049045 0.161759
0.076919 0.048867 0.161012
0.077290 0.048610 0.160001
0.077335 0.048155 0.158334
0.077909 0.048035 0.157764
0.078608 0.047994 0.157442
0.079052 0.047799 0.156609
0.080275 0.048074 0.157308
0.083827 0.049726 0.162495
0.086572 0.050873 0.166006
0.086809 0.050538 0.164669
0.087028 0.050198 0.163311
-1.008373 0.583235 1.884724
-0.988257 0.576783 1.866494
-0.976336 0.575041 1.863356
-0.970994 0.577177 1.872682
-0.960997 0.576561 1.872980
-0.951727 0.576374 1.874571
-0.942587 0.576264 1.876312
-0.934341 0.576703 1.879750
-0.926689 0.577521 1.884340
-0.999566 0.629033 2.054412
-0.998501 0.634572 2.074424
-0.989093 0.634866 2.077220
-0.971647 0.629956 2.062887
-0.855484 0.560292 1.836229
-0.836463 0.553472 1.815255
-0.825467 0.551875 1.811323
-0.823568 0.556391 1.827392
-0.811455 0.554030 1.820817
-0.892922 0.682111 2.252381
-0.871418 0.673693 2.225295
-0.862402 0.674842 2.229750
-0.856386 0.678396 2.242104
-0.841546 0.674962 2.231311
-0.832077 0.675805 2.234604
-0.663126 0.567273 1.877052
-0.645582 0.559719 1.852293
-0.638808 0.561424 1.858140
-0.627800 0.559404 1.851626
-0.620878 0.561019 1.857114
-0.309612 0.300934 0.996317
-0.303852 0.299875 0.992800
-0.299630 0.300323 0.994260
-0.294220 0.299577 0.991756
-0.289680 0.299707 0.992138
-0.285136 0.299838 0.992515
-0.279477 0.298781 0.988948
-0.273925 0.297805 0.985637
-0.269484 0.298023 0.986273
-0.263771 0.296819 0.982192
-0.146709 0.180952 0.598416
-0.144051 0.181154 0.599000
-0.139388 0.178794 0.591109
-0.135088 0.176812 0.584465
-0.131055 0.175105 0.578733
-0.128307 0.175079 0.578550
-0.124732 0.173898 0.574551
-0.121893 0.173714 0.573846
-0.118418 0.172595 0.570050
-0.115890 0.172837 0.570747
-0.111597 0.170396 0.562585
-0.056067 0.092189 0.304207
-0.054501 0.091972 0.303434
-0.053296 0.092368 0.304682
-0.051670 0.092038 0.303536
-0.050021 0.091645 0.302183
-0.035768 0.067459 0.222391
-0.034545 0.067125 0.221249
-0.033232 0.066591 0.219447
-0.031746 0.065664 0.216355
-0.030117 0.064373 0.212059
-0.028892 0.063882 0.210406
-0.027988 0.064094 0.211064
-0.027083 0.064319 0.211767
-0.026050 0.064245 0.211486
-0.025154 0.064516 0.212342
-0.024496 0.065447 0.215368
-0.023549 0.065653 0.216010
-0.022594 0.065853 0.216634
-0.021603 0.065964 0.216965
-0.020634 0.066155 0.217557
-0.019654 0.066331 0.218103
-0.018645 0.066421 0.218368
-0.017673 0.066663 0.219132
-0.016705 0.066951 0.220049
-0.015719 0.067201 0.220842
-0.014688 0.067284 0.221085
-0.013674 0.067461 0.221640
-0.012661 0.067670 0.222301
-0.011661 0.067998 0.223352
-0.010650 0.068318 0.224378
-0.009600 0.068435 0.224741
-0.008545 0.068538 0.225057
-0.007500 0.068767 0.225792
-0.006451 0.069022 0.226608
-0.005387 0.069198 0.227171
-0.004318 0.069362 0.227694
-0.003242 0.069525 0.228213
-0.002160 0.069613 0.228488
-0.001077 0.069824 0.229169
0.000013 0.069868 0.229304
0.001107 0.070064 0.229939
0.002209 0.070318 0.230763
0.003322 0.070638 0.231808
0.004434 0.070785 0.232287
0.005554 0.070972 0.232897
0.006685 0.071219 0.233704
0.007803 0.071266 0.233859
0.008941 0.071466 0.234515
0.010076 0.071606 0.234978
0.011214 0.071728 0.235382
0.012360 0.071877 0.235878
0.013516 0.072055 0.236469
0.014662 0.072159 0.236818
0.015801 0.072213 0.237002
0.016949 0.072299 0.237296
0.018099 0.072379 0.237570
0.019230 0.072379 0.237585
0.020378 0.072443 0.237807
0.021535 0.072526 0.238095
0.022663 0.072511 0.238065
0.023805 0.072539 0.238171
0.024974 0.072641 0.238527
0.026270 0.073090 0.240018
0.027880 0.074335 0.244129
0.029267 0.074913 0.246049
0.031080 0.076493 0.251261
0.032428 0.076856 0.252475
0.032990 0.075395 0.247699
0.033296 0.073469 0.241396
0.034402 0.073377 0.241120
0.035828 0.073953 0.243038
0.037203 0.074391 0.244500
0.038171 0.074014 0.243286
0.039057 0.073504 0.241635
0.040270 0.073620 0.242045
0.041256 0.073326 0.241101
0.042060 0.072734 0.239180
0.042045 0.070793 0.232823
0.042674 0.070010 0.230271
0.043181 0.069069 0.227198
0.044209 0.068987 0.226952
0.045271 0.068962 0.226892
0.046031 0.068488 0.225353
0.046796 0.068043 0.223910
0.047707 0.067824 0.223209
0.048647 0.067656 0.222676
0.049601 0.067513 0.222224
0.050501 0.067305 0.221557
0.051393 0.067095 0.220883
0.051910 0.066413 0.218652
0.053033 0.066518 0.219011
0.053807 0.066190 0.217943
0.054519 0.065799 0.216665
0.055297 0.065501 0.215691
0.055981 0.065104 0.214391
0.056255 0.064253 0.211594
0.057103 0.064076 0.211015
0.057691 0.063618 0.209510
0.058474 0.063388 0.208751
0.059444 0.063364 0.208670
0.059664 0.062555 0.206000
0.060225 0.062123 0.204568
0.060821 0.061741 0.203302
0.061474 0.061427 0.202257
0.062279 0.061273 0.201733
0.062965 0.061008 0.200844
0.063469 0.060577 0.199405
0.063087 0.059325 0.195262
0.063890 0.059208 0.194850
0.064437 0.058861 0.193679
0.065028 0.058562 0.192665
0.065380 0.058060 0.190977
0.066199 0.057981 0.190680
0.066973 0.057865 0.190254
0.067380 0.057438 0.188808
0.067497 0.056780 0.186594
0.066220 0.054981 0.180632
0.066998 0.054912 0.180351
0.067785 0.054853 0.180097
0.068432 0.054682 0.179475
0.069009 0.054461 0.178683
0.069541 0.054210 0.177789
0.070027 0.053930 0.176795
0.070410 0.053578 0.175561
0.070856 0.053282 0.174506
0.071594 0.053209 0.174178
0.072058 0.052937 0.173195
0.072513 0.052664 0.172204
0.073123 0.052509 0.171593
0.073513 0.052201 0.170477
0.074063 0.052012 0.169745
0.074525 0.051766 0.168823
0.075073 0.051585 0.168107
0.075430 0.051277 0.166971
0.075837 0.051009 0.165963
0.076177 0.050702 0.164822
0.076584 0.050446 0.163841
0.076719 0.050018 0.162296
0.076812 0.049571 0.160684
0.077221 0.049335 0.159752
0.077472 0.049004 0.158504
0.077891 0.048784 0.157612
0.078402 0.048626 0.156911
0.079132 0.048605 0.156647
0.080248 0.048819 0.157130
0.084999 0.051220 0.164629
0.086268 0.051496 0.165279
0.086422 0.051109 0.163788
0.087241 0.051117 0.163558
-1.006191 0.591077 1.879055
-0.990406 0.587081 1.869027
-0.977866 0.584952 1.864806
-0.969157 0.585098 1.867719
-0.960924 0.585536 1.871466
-0.950907 0.584886 1.871630
-0.941942 0.584877 1.873748
-0.933624 0.585275 1.877073
-0.925994 0.586116 1.881735
-0.988109 0.631551 2.029626
-0.994800 0.642110 2.065524
-0.988758 0.644579 2.075345
-0.970118 0.638804 2.058523
-0.861421 0.573006 1.848008
-0.835437 0.561440 1.812121
-0.824449 0.559817 1.808222
-0.822341 0.564253 1.823832
-0.810489 0.562027 1.817847
-0.884045 0.685896 2.229405
-0.869468 0.682702 2.219769
-0.866038 0.688290 2.238636
-0.850172 0.684011 2.225360
-0.840147 0.684383 2.227159
-0.827806 0.682855 2.222726
-0.670400 0.574814 1.872168
-0.662410 0.575527 1.874792
-0.649225 0.571685 1.862541
-0.639693 0.570999 1.860537
-0.628448 0.568744 1.853387
-0.617735 0.566914 1.847588
-0.303921 0.304637 0.993034
-0.298892 0.304273 0.991838
-0.294088 0.304130 0.991347
-0.289673 0.304391 0.992163
-0.284558 0.303914 0.990561
-0.279190 0.303147 0.988003
-0.274175 0.302744 0.986623
-0.269431 0.302630 0.986177
-0.263763 0.301457 0.982270
-0.152706 0.191298 0.622981
-0.146780 0.187477 0.610457
-0.141285 0.184066 0.599268
-0.137034 0.182169 0.593005
-0.133499 0.181165 0.589648
-0.129998 0.180165 0.586304
-0.126974 0.179798 0.585016
-0.123856 0.179278 0.583232
-0.120067 0.177742 0.578137
-0.117352 0.177761 0.578101
-0.113609 0.176186 0.572882
-0.111013 0.176357 0.573339
-0.055980 0.093489 0.303826
-0.054078 0.092690 0.301175
-0.053212 0.093668 0.304299
-0.051588 0.093333 0.303154
-0.049941 0.092933 0.301803
-0.048805 0.093489 0.303552
-0.047397 0.093543 0.303673
-0.033177 0.067525 0.219170
-0.030724 0.064549 0.209472
-0.029729 0.064541 0.209408
-0.028695 0.064443 0.209056
-0.027842 0.064761 0.210048
-0.026867 0.064808 0.210166
-0.025820 0.064677 0.209704
-0.024922 0.064925 0.210472
-0.023961 0.065023 0.210758
-0.023849 0.067534 0.218859
-0.022816 0.067547 0.218867
-0.021700 0.067303 0.218042
-0.020624 0.067166 0.217566
-0.019596 0.067176 0.217566
-0.018605 0.067324 0.218015
-0.017588 0.067389 0.218193
-0.016615 0.067643 0.218986
-0.015627 0.067864 0.219673
-0.014623 0.068043 0.220225
-0.013606 0.068185 0.220660
-0.012598 0.068399 0.221327
-0.011562 0.068491 0.221601
-0.010619 0.069203 0.223882
-0.009569 0.069298 0.224167
-0.008511 0.069357 0.224335
-0.007472 0.069606 0.225121
-0.006430 0.069908 0.226082
-0.005378 0.070192 0.226982
-0.004305 0.070285 0.227266
-0.003231 0.070433 0.227730
-0.002154 0.070590 0.228225
-0.001071 0.070747 0.228721
0.000016 0.070928 0.229297
0.001108 0.070987 0.229479
0.002207 0.071258 0.230346
0.003313 0.071488 0.231085
0.004428 0.071738 0.231887
0.005549 0.071978 0.232661
0.006666 0.072088 0.233012
0.007796 0.072286 0.233655
0.008916 0.072357 0.233885
0.010048 0.072494 0.234329
0.011192 0.072687 0.234955
0.012323 0.072766 0.235217
0.013466 0.072892 0.235630
0.014610 0.073010 0.236019
0.015745 0.073064 0.236200
0.016890 0.073156 0.236508
0.018032 0.073227 0.236748
0.019165 0.073250 0.236836
0.020303 0.073289 0.236976
0.021442 0.073329 0.237120
0.022608 0.073454 0.237538
0.023851 0.073801 0.238677
0.025278 0.074664 0.241485
0.026997 0.076274 0.246709
0.028418 0.076946 0.248902
0.029852 0.077593 0.251018
0.030915 0.077268 0.249987
0.032028 0.077083 0.249410
0.033176 0.076994 0.249144
0.034170 0.076568 0.247788
0.034951 0.075706 0.245023
0.036270 0.076029 0.246090
0.037269 0.075680 0.244985
0.038083 0.074989 0.242773
0.039039 0.074610 0.241567
0.040154 0.074547 0.241388
0.041017 0.074034 0.239749
0.041741 0.073304 0.237409
0.041974 0.071772 0.232470
0.042720 0.071173 0.230553
0.043609 0.070837 0.229486
0.044261 0.070142 0.227254
0.045059 0.069705 0.225860
0.045912 0.069372 0.224800
0.046632 0.068858 0.223151
0.047474 0.068542 0.222148
0.048409 0.068371 0.221609
0.049356 0.068225 0.221152
0.050201 0.067946 0.220262
0.051172 0.067845 0.219950
0.052047 0.067624 0.219245
0.052936 0.067430 0.218626
0.053639 0.067010 0.217275
0.054354 0.066621 0.216022
0.055143 0.066335 0.215100
0.055640 0.065714 0.213093
0.056025 0.064986 0.210734
0.056941 0.064888 0.210418
0.057546 0.064446 0.208984
0.058087 0.063948 0.207364
0.058716 0.063562 0.206109
0.059545 0.063401 0.205578
0.060110 0.062970 0.204170
0.060660 0.062535 0.202749
0.061419 0.062327 0.202059
0.062098 0.062045 0.201129
0.062912 0.061905 0.200652
0.063628 0.061674 0.199882
0.064019 0.061139 0.198121
0.063815 0.060059 0.194594
0.064799 0.060112 0.194736
0.064828 0.059292 0.192042
0.065538 0.059107 0.191406
0.065748 0.058482 0.189343
0.066559 0.058402 0.189039
0.065745 0.056917 0.184186
0.066618 0.056913 0.184121
