ply
format ascii 1.0
element vertex 1744
property float x
property float y
property float z
end_header
0.024962 0.046503 0.247814
0.026175 0.046542 0.248066
0.027377 0.046557 0.248196
0.028590 0.046590 0.248422
0.029815 0.046638 0.248731
0.031032 0.046671 0.248960
0.032255 0.046710 0.249223
0.033470 0.046733 0.249408
0.034690 0.046764 0.249629
0.035913 0.046795 0.249860
0.037126 0.046812 0.250014
0.038332 0.046819 0.250115
0.039538 0.046825 0.250213
0.040831 0.046932 0.250850
0.042003 0.046897 0.250731
0.043182 0.046871 0.250660
0.044392 0.046880 0.250779
0.045448 0.046729 0.250042
0.045416 0.045497 0.243519
0.046095 0.045020 0.241036
0.047105 0.044882 0.240368
0.048225 0.044853 0.240280
0.049199 0.044693 0.239492
0.049773 0.044184 0.236835
0.050276 0.043636 0.233970
0.050545 0.042914 0.230166
0.051212 0.042554 0.228299
0.052376 0.042612 0.228679
0.053220 0.042413 0.227677
0.054154 0.042293 0.227096
0.054945 0.042068 0.225952
0.055920 0.041989 0.225593
0.056815 0.041854 0.224930
0.057578 0.041630 0.223784
0.058495 0.041522 0.223264
0.059239 0.041297 0.222115
0.059977 0.041077 0.220984
0.060617 0.040797 0.219538
0.061354 0.040592 0.218486
0.062105 0.040403 0.217520
0.062737 0.040143 0.216172
0.063183 0.039775 0.214237
0.062007 0.038414 0.206948
0.062548 0.038142 0.205527
0.063005 0.037828 0.203874
0.063621 0.037618 0.202779
0.064006 0.037280 0.200988
0.064838 0.037207 0.200629
0.065629 0.037114 0.200158
0.066199 0.036901 0.199033
0.067096 0.036872 0.198903
0.067782 0.036730 0.198160
0.068333 0.036521 0.197046
0.068968 0.036360 0.196198
0.069105 0.035946 0.193970
0.069484 0.035666 0.192472
0.070208 0.035568 0.191949
0.070903 0.035459 0.191359
0.071435 0.035271 0.190345
0.072142 0.035174 0.189815
0.072814 0.035062 0.189203
0.073144 0.034790 0.187721
0.073508 0.034541 0.186361
0.073582 0.034163 0.184299
0.074212 0.034049 0.183659
0.074716 0.033880 0.182719
0.074923 0.033582 0.181080
0.075369 0.033397 0.180045
0.075139 0.032920 0.177430
0.076162 0.032996 0.177794
0.076753 0.032886 0.177148
0.077129 0.032686 0.176017
0.077647 0.032550 0.175225
0.077715 0.032231 0.173441
0.077534 0.031817 0.171138
0.077891 0.031629 0.170054
0.078214 0.031432 0.168912
0.078425 0.031194 0.167545
0.078862 0.031049 0.166678
0.079183 0.030863 0.165580
0.079191 0.030559 0.163848
0.079406 0.030340 0.162566
0.079960 0.030254 0.161989
0.080340 0.030105 0.161066
0.080584 0.029907 0.159882
0.081004 0.029778 0.159059
0.081607 0.029718 0.158596
0.082091 0.029616 0.157903
0.082506 0.029492 0.157082
-1.008464 0.371188 1.948273
-0.998937 0.371078 1.949259
-0.986677 0.369943 1.944765
-0.977962 0.370127 1.947123
-0.967202 0.369534 1.945309
-0.961544 0.370898 1.953718
-0.956042 0.372349 1.962523
-0.961153 0.381738 2.014162
-0.949133 0.380727 2.009790
-0.936432 0.379419 2.003781
-0.917212 0.375417 1.983463
-0.874020 0.361419 1.910233
-0.853608 0.356649 1.885677
-0.849855 0.358812 1.897715
-0.829708 0.354026 1.872939
-1.413809 0.630017 3.335951
-1.400236 0.630968 3.341492
-1.378019 0.628001 3.326202
-1.358446 0.626184 3.316924
-0.888614 0.434545 2.302228
-0.267495 0.146908 0.777651
-0.264245 0.147136 0.778719
-0.262618 0.148286 0.784658
-0.258988 0.148322 0.784690
-0.255514 0.148450 0.785200
-0.252293 0.148730 0.786505
-0.248376 0.148603 0.785644
-0.244799 0.148678 0.785847
-0.241462 0.148904 0.786837
-0.300479 0.188189 0.994159
-0.290757 0.184987 0.976967
-0.292329 0.188981 0.997777
-0.058422 0.042567 0.224244
-0.057443 0.042627 0.224486
-0.054188 0.040969 0.215679
-0.052287 0.040291 0.212034
-0.049542 0.038923 0.204761
-0.047932 0.038410 0.201993
-0.046423 0.037959 0.199547
-0.045415 0.037907 0.199200
-0.044785 0.038175 0.200538
-0.045323 0.039472 0.207277
-0.044154 0.039307 0.206336
-0.043086 0.039227 0.205838
-0.042378 0.039478 0.207078
-0.041572 0.039647 0.207892
-0.040653 0.039715 0.208171
-0.039775 0.039827 0.208684
-0.038975 0.040025 0.209642
-0.038261 0.040324 0.211132
-0.037598 0.040694 0.212996
-0.036816 0.040952 0.214270
-0.035879 0.041049 0.214699
-0.034935 0.041142 0.215110
-0.034032 0.041291 0.215819
-0.033135 0.041457 0.216611
-0.032224 0.041615 0.217367
-0.031345 0.041827 0.218399
-0.030385 0.041940 0.218922
-0.029452 0.042102 0.219694
-0.028461 0.042188 0.220078
-0.027477 0.042293 0.220558
-0.026465 0.042363 0.220854
-0.025456 0.042440 0.221194
-0.024459 0.042549 0.221697
-0.023408 0.042567 0.221729
-0.022388 0.042645 0.222079
-0.021484 0.042966 0.223689
-0.020557 0.043269 0.225210
-0.019503 0.043325 0.225449
-0.018454 0.043400 0.225787
-0.017411 0.043498 0.226247
-0.016346 0.043553 0.226486
-0.015302 0.043673 0.227063
-0.014226 0.043714 0.227233
-0.013146 0.043751 0.227384
-0.012087 0.043870 0.227961
-0.011026 0.044004 0.228620
-0.009966 0.044171 0.229456
-0.008882 0.044259 0.229881
-0.007796 0.044366 0.230404
-0.006711 0.044515 0.231150
-0.005614 0.044624 0.231692
-0.004505 0.044669 0.231904
-0.003406 0.044872 0.232941
-0.002288 0.044917 0.233155
-0.001172 0.045122 0.234204
-0.000046 0.045204 0.234621
0.001082 0.045174 0.234455
0.002217 0.045323 0.235225
0.003355 0.045415 0.235695
0.004511 0.045643 0.236880
0.005672 0.045813 0.237765
0.006819 0.045835 0.237883
0.007992 0.046001 0.238752
0.009160 0.046096 0.239255
0.010343 0.046239 0.240011
0.011533 0.046380 0.240756
0.012742 0.046565 0.241738
0.013931 0.046654 0.242215
0.015115 0.046711 0.242536
0.016315 0.046809 0.243070
0.017524 0.046913 0.243642
0.018734 0.047009 0.244172
0.020003 0.047234 0.245373
0.021238 0.047357 0.246048
0.022449 0.047415 0.246388
0.023685 0.047518 0.246964
0.024901 0.047573 0.247294
0.026119 0.047626 0.247613
0.027359 0.047715 0.248122
0.028564 0.047735 0.248275
0.029750 0.047724 0.248273
0.030979 0.047780 0.248615
0.032201 0.047822 0.248889
0.033449 0.047897 0.249334
0.034672 0.047932 0.249579
0.035902 0.047975 0.249863
0.037122 0.048003 0.250066
0.038321 0.048001 0.250123
0.039532 0.048014 0.250254
0.040775 0.048064 0.250580
0.041968 0.048055 0.250597
0.043138 0.048019 0.250479
0.044336 0.048017 0.250535
0.045503 0.047981 0.250417
0.046166 0.047430 0.247611
0.046041 0.046116 0.240821
0.046869 0.045798 0.239226
0.047951 0.045737 0.238978
0.049067 0.045712 0.238912
0.049907 0.045435 0.237536
0.049863 0.044385 0.232110
0.050001 0.043538 0.227747
0.051111 0.043556 0.227905
0.052363 0.043691 0.228678
0.053286 0.043552 0.228014
0.053945 0.043207 0.226271
0.054937 0.043137 0.225967
0.055827 0.042991 0.225262
0.056763 0.042885 0.224770
0.057664 0.042757 0.224159
0.058476 0.042570 0.223232
0.059436 0.042494 0.222893
0.060183 0.042272 0.221784
0.060893 0.042032 0.220577
0.061631 0.041819 0.219510
0.062081 0.041420 0.217469
0.062746 0.041176 0.216233
0.063408 0.040938 0.215029
0.063704 0.040474 0.212639
0.063530 0.039732 0.208779
0.062964 0.038771 0.203766
0.063687 0.038620 0.203009
0.064567 0.038568 0.202767
0.065226 0.038387 0.201848
0.065864 0.038200 0.200889
0.066220 0.037856 0.199108
0.066739 0.037614 0.197857
0.067452 0.037487 0.197206
0.068263 0.037417 0.196854
0.068948 0.037280 0.196148
0.069288 0.036963 0.194491
0.069590 0.036634 0.192768
0.069370 0.036043 0.189658
0.069735 0.035767 0.188205
0.070632 0.035767 0.188203
0.071243 0.035624 0.187446
0.071784 0.035450 0.186519
0.072268 0.035253 0.185466
0.072956 0.035158 0.184950
0.073147 0.034830 0.183198
0.073923 0.034784 0.182931
0.074564 0.034676 0.182333
0.075004 0.034478 0.181259
0.075682 0.034394 0.180773
0.076111 0.034199 0.179705
0.076444 0.033966 0.178430
0.076774 0.033736 0.177172
0.077256 0.033577 0.176280
0.077618 0.033371 0.175134
0.077698 0.033049 0.173375
0.078015 0.032833 0.172170
0.078456 0.032674 0.171254
0.078551 0.032375 0.169603
0.078439 0.031997 0.167538
0.078692 0.031775 0.166280
0.079134 0.031633 0.165437
0.079122 0.031314 0.163663
0.079528 0.031165 0.162772
0.079953 0.031026 0.161929
0.080328 0.030870 0.160993
0.080612 0.030683 0.159887
0.080950 0.030520 0.158900
0.081556 0.030460 0.158443
0.082021 0.030349 0.157713
0.082430 0.030219 0.156879
-1.009114 0.380708 1.948924
-0.996643 0.379477 1.944208
-0.987657 0.379564 1.946148
-0.976940 0.378979 1.944566
-0.967313 0.378811 1.945036
-0.960802 0.379873 1.951741
-0.954188 0.380913 1.958270
-0.942739 0.387611 1.995871
-0.932157 0.387124 1.994277
-0.910377 0.381930 1.968353
-0.876136 0.371347 1.914562
-0.863412 0.369759 1.907062
-0.851853 0.368642 1.901925
-0.831618 0.363707 1.877024
-1.431826 0.646814 3.340517
-1.418230 0.647778 3.346126
-1.397284 0.645370 3.334227
-1.375152 0.642353 3.319098
-1.359238 0.642204 3.318708
-1.345678 0.643178 3.324041
-0.886244 0.444215 2.296099
-0.876799 0.444898 2.299591
-0.265945 0.151783 0.783808
-0.261813 0.151525 0.782339
-0.259164 0.152131 0.785316
-0.255140 0.151937 0.784149
-0.251443 0.151933 0.783961
-0.248410 0.152337 0.785866
-0.244651 0.152302 0.785495
-0.305878 0.193342 0.996907
-0.300192 0.192708 0.993379
-0.295808 0.192903 0.994115
-0.292043 0.193515 0.996991
-0.287247 0.193452 0.996380
-0.283151 0.193866 0.998219
-0.278405 0.193843 0.997795
-0.273545 0.193737 0.996941
-0.270023 0.194593 1.001025
-0.060532 0.046909 0.240992
-0.059178 0.046740 0.240042
-0.057711 0.046474 0.238591
-0.047880 0.039327 0.201830
-0.046429 0.038912 0.199630
-0.045467 0.038899 0.199492
-0.049870 0.043572 0.223379
-0.048217 0.043042 0.220581
-0.044759 0.040842 0.209229
-0.042820 0.039959 0.204632
-0.042349 0.040437 0.207006
-0.041471 0.040540 0.207462
-0.040638 0.040693 0.208171
-0.039728 0.040775 0.208513
-0.039237 0.041302 0.211133
-0.038192 0.041258 0.210833
-0.037492 0.041595 0.212480
-0.036593 0.041723 0.213059
-0.035662 0.041821 0.213487
-0.034895 0.042123 0.214956
-0.034005 0.042289 0.215732
-0.033097 0.042444 0.216450
-0.032208 0.042635 0.217350
-0.031300 0.042811 0.218178
-0.030353 0.042945 0.218793
-0.029349 0.043005 0.219027
-0.028367 0.043102 0.219453
-0.027404 0.043237 0.220076
-0.026416 0.043342 0.220545
-0.025407 0.043420 0.220878
-0.024411 0.043527 0.221362
-0.023409 0.043635 0.221849
-0.022395 0.043727 0.222262
-0.021403 0.043875 0.222955
-0.020415 0.044047 0.223773
-0.019499 0.044402 0.225525
-0.018449 0.044474 0.225841
-0.017378 0.044504 0.225940
-0.016368 0.044704 0.226910
-0.015304 0.044774 0.227220
-0.014232 0.044831 0.227466
-0.013172 0.044937 0.227963
-0.012096 0.045003 0.228260
-0.011020 0.045086 0.228641
-0.009944 0.045181 0.229093
-0.008865 0.045287 0.229597
-0.007783 0.045407 0.230175
-0.006699 0.045553 0.230889
-0.005613 0.045749 0.231856
-0.004501 0.045768 0.231930
-0.003398 0.045919 0.232677
-0.002285 0.046026 0.233203
-0.001168 0.046158 0.233859
-0.000044 0.046260 0.234363
0.001083 0.046272 0.234415
0.002215 0.046374 0.234928
0.003357 0.046546 0.235796
0.004515 0.046802 0.237088
0.005668 0.046911 0.237642
0.006814 0.046933 0.237758
0.007979 0.047057 0.238393
0.009164 0.047257 0.239415
0.010332 0.047332 0.239811
0.011520 0.047476 0.240554
0.012703 0.047574 0.241070
0.013894 0.047684 0.241644
0.015071 0.047732 0.241911
0.016281 0.047871 0.242642
0.017497 0.048006 0.243352
0.018751 0.048223 0.244484
0.019971 0.048330 0.245061
0.021204 0.048455 0.245731
0.022415 0.048520 0.246096
0.023604 0.048533 0.246204
0.024807 0.048573 0.246445
0.026045 0.048673 0.246997
0.027260 0.048724 0.247305
0.028468 0.048759 0.247528
0.029729 0.048877 0.248181
0.030960 0.048939 0.248544
0.032225 0.049048 0.249154
0.033445 0.049084 0.249390
0.034650 0.049095 0.249504
0.035894 0.049159 0.249890
0.037114 0.049187 0.250089
0.038329 0.049207 0.250252
0.039496 0.049165 0.250106
0.040687 0.049155 0.250118
0.041956 0.049237 0.250600
0.043096 0.049168 0.250315
0.044247 0.049114 0.250108
0.045426 0.049093 0.250067
0.045371 0.047774 0.243416
0.046129 0.047356 0.241352
0.046886 0.046957 0.239383
0.047923 0.046850 0.238907
0.049014 0.046801 0.238720
0.050005 0.046660 0.238067
0.050403 0.045984 0.234684
0.050240 0.044836 0.228891
0.051046 0.044584 0.227668
0.051877 0.044364 0.226607
0.053041 0.044432 0.227015
0.053929 0.044271 0.226256
0.054724 0.044041 0.225139
0.055713 0.043973 0.224850
0.056642 0.043861 0.224338
0.057568 0.043751 0.223832
0.058504 0.043652 0.223382
0.059396 0.043524 0.222785
0.060348 0.043445 0.222429
0.060847 0.043047 0.220446
0.061405 0.042704 0.218739
0.061876 0.042313 0.216783
0.062621 0.042118 0.215833
0.063412 0.041961 0.215072
0.063902 0.041613 0.213327
0.064150 0.041120 0.210840
0.063656 0.040174 0.206027
0.063724 0.039606 0.203148
0.064622 0.039563 0.202958
0.065284 0.039380 0.202046
0.065828 0.039131 0.200795
0.066146 0.038757 0.198899
0.067022 0.038716 0.198709
0.067300 0.038335 0.196772
0.068051 0.038230 0.196248
0.068705 0.038075 0.195462
0.069214 0.037844 0.194287
0.069883 0.037706 0.193582
0.070469 0.037527 0.192663
0.070728 0.037181 0.190884
0.070362 0.036519 0.187482
0.071329 0.036557 0.187666
0.072149 0.036519 0.187462
0.072538 0.036267 0.186150
0.073069 0.036091 0.185228
0.073696 0.035966 0.184560
0.074361 0.035863 0.184001
0.074728 0.035619 0.182718
0.075149 0.035407 0.181592
0.075898 0.035352 0.181270
0.076229 0.035106 0.179963
0.076486 0.034832 0.178505
0.076882 0.034627 0.177396
0.077275 0.034424 0.176297
0.077229 0.034032 0.174225
0.077394 0.033741 0.172666
0.077735 0.033531 0.171517
0.078156 0.033361 0.170565
0.078252 0.033056 0.168921
0.078111 0.032658 0.166799
0.078468 0.032475 0.165768
0.078955 0.032349 0.165019
0.079105 0.032088 0.163584
0.079486 0.031925 0.162639
0.080105 0.031860 0.162189
0.080307 0.031632 0.160901
0.080604 0.031446 0.159819
0.080875 0.031253 0.158699
0.081665 0.031262 0.158598
0.082055 0.031119 0.157719
0.082436 0.030975 0.156830
-1.004673 0.388274 1.939721
-0.996677 0.388743 1.943676
-0.985356 0.387911 1.941042
-0.973968 0.387038 1.938109
-0.962467 0.386103 1.934778
-0.955166 0.386851 1.939803
-0.953669 0.389987 1.956736
-0.936913 0.394607 1.983139
-0.927478 0.394572 1.983896
-0.909637 0.390923 1.966408
-0.875302 0.380038 1.912428
-0.865406 0.379648 1.911174
-0.852972 0.378125 1.904157
-0.833690 0.373502 1.881459
-1.418355 0.656349 3.308775
-1.417250 0.663112 3.343536
-1.374173 0.657544 3.316528
-1.356935 0.656746 3.312916
-1.341747 0.656933 3.314195
-1.334762 0.661189 3.335925
-0.877590 0.450601 2.273678
-0.875960 0.455308 2.297416
-0.265710 0.155345 0.783189
-0.261932 0.155290 0.782777
-0.256561 0.154275 0.777520
-0.254956 0.155529 0.783682
-0.251971 0.155964 0.785712
-0.247954 0.155765 0.784537
-0.309814 0.197570 0.994861
-0.305584 0.197865 0.996110
-0.301250 0.198102 0.997049
-0.297026 0.198420 0.998389
-0.292495 0.198540 0.998720
-0.288180 0.198812 0.999811
-0.283807 0.199054 1.000738
-0.279402 0.199280 1.001581
-0.274439 0.199110 1.000421
-0.269740 0.199129 1.000209
-0.265392 0.199412 1.001315
-0.060466 0.048001 0.240794
-0.059113 0.047828 0.239844
-0.057647 0.047555 0.238394
-0.056594 0.047619 0.238633
-0.054956 0.047183 0.236366
-0.053316 0.046726 0.234000
-0.050922 0.045577 0.228163
-0.049244 0.045031 0.225353
-0.048236 0.045088 0.225559
-0.043286 0.041379 0.206929
-0.042124 0.041204 0.205981
-0.041435 0.041493 0.207352
-0.040553 0.041598 0.207808
-0.039689 0.041728 0.208381
-0.038953 0.042003 0.209682
-0.038282 0.042364 0.211410
-0.037402 0.042507 0.212049
-0.036536 0.042674 0.212811
-0.035652 0.042829 0.213512
-0.034794 0.043026 0.214422
-0.033980 0.043290 0.215667
-0.033054 0.043425 0.216266
-0.032159 0.043609 0.217111
-0.031256 0.043795 0.217969
-0.030310 0.043931 0.218579
-0.029330 0.044026 0.218984
-0.028360 0.044144 0.219504
-0.027378 0.044250 0.219969
-0.026375 0.044331 0.220305
-0.025380 0.044434 0.220754
-0.024397 0.044565 0.221346
-0.023358 0.044603 0.221477
-0.022347 0.044699 0.221893
-0.021359 0.044855 0.222612
-0.020485 0.045278 0.224657
-0.019445 0.045362 0.225020
-0.018419 0.045488 0.225597
-0.017378 0.045592 0.226065
-0.016307 0.045628 0.226192
-0.015272 0.045775 0.226880
-0.014207 0.045850 0.227206
-0.013140 0.045928 0.227556
-0.012071 0.046012 0.227931
-0.010993 0.046079 0.228227
-0.009925 0.046203 0.228806
-0.008846 0.046303 0.229271
-0.007773 0.046468 0.230062
-0.006695 0.046648 0.230926
-0.005604 0.046796 0.231634
-0.004505 0.046937 0.232311
-0.003390 0.046951 0.232362
-0.002282 0.047116 0.233158
-0.001165 0.047241 0.233767
-0.000042 0.047344 0.234261
0.001085 0.047377 0.234418
0.002220 0.047559 0.235312
0.003349 0.047544 0.235234
0.004510 0.047865 0.236820
0.005661 0.047971 0.237346
0.006808 0.048014 0.237563
0.007973 0.048153 0.238259
0.009149 0.048317 0.239079
0.010333 0.048481 0.239905
0.011507 0.048571 0.240363
0.012711 0.048756 0.241293
0.013892 0.048831 0.241688
0.015073 0.048893 0.242017
0.016267 0.048987 0.242506
0.017469 0.049088 0.243034
0.018699 0.049253 0.243880
0.019900 0.049327 0.244275
0.021181 0.049577 0.245550
0.022423 0.049714 0.246265
0.023783 0.050089 0.248161
0.024916 0.049970 0.247615
0.026025 0.049816 0.246896
0.027279 0.049942 0.247564
0.028482 0.049967 0.247733
0.029699 0.050014 0.248017
0.030959 0.050126 0.248621
0.032230 0.050247 0.249276
0.033433 0.050258 0.249386
0.034656 0.050297 0.249633
0.035885 0.050341 0.249910
0.037124 0.050396 0.250243
0.038324 0.050395 0.250298
0.039471 0.050328 0.250029
0.040739 0.050414 0.250515
0.041915 0.050385 0.250437
0.043033 0.050289 0.250025
0.044247 0.050307 0.250181
0.045395 0.050252 0.249968
0.046033 0.049649 0.247038
0.045991 0.048362 0.240697
0.046862 0.048073 0.239326
0.047836 0.047902 0.238539
0.048818 0.047747 0.237828
0.049568 0.047376 0.236048
0.050345 0.047047 0.234472
0.050666 0.046316 0.230891
0.051182 0.045790 0.228332
0.051920 0.045481 0.226848
0.053007 0.045483 0.226921
0.053847 0.045278 0.225960
0.054664 0.045062 0.224941
0.055532 0.044896 0.224166
0.056558 0.044861 0.224048
0.057441 0.044715 0.223379
0.058344 0.044591 0.222813
0.059312 0.044520 0.222510
0.060081 0.044304 0.221483
0.060846 0.044093 0.220479
0.061450 0.043774 0.218932
0.062186 0.043559 0.217899
0.062789 0.043259 0.216442
0.063587 0.043100 0.215693
0.064162 0.042798 0.214220
0.064599 0.042415 0.212339
0.064053 0.041408 0.207332
0.064461 0.041039 0.205518
0.065173 0.040871 0.204708
0.065427 0.040426 0.202504
0.065559 0.039919 0.199988
0.066206 0.039736 0.199090
0.066764 0.039505 0.197953
0.067453 0.039357 0.197229
0.068152 0.039219 0.196548
0.068729 0.039015 0.195535
0.069426 0.038884 0.194885
0.070050 0.038716 0.194046
0.070369 0.038385 0.192390
0.069495 0.037422 0.187556
0.070277 0.037362 0.187250
0.071216 0.037387 0.187362
0.071618 0.037133 0.186074
0.072280 0.037017 0.185478
0.073119 0.036995 0.185341
0.073305 0.036646 0.183569
0.074106 0.036609 0.183353
0.074538 0.036393 0.182235
0.074850 0.036125 0.180851
0.075433 0.035991 0.180139
0.076091 0.035895 0.179612
0.076415 0.035647 0.178315
0.076827 0.035444 0.177242
0.077063 0.035165 0.175783
0.077371 0.034925 0.174516
0.077178 0.034465 0.172149
0.077506 0.034247 0.170980
0.077769 0.034003 0.169682
0.077983 0.033744 0.168302
0.078098 0.033448 0.166733
0.078535 0.033294 0.165867
0.078791 0.033067 0.164633
0.079157 0.032891 0.163645
0.079330 0.032638 0.162272
0.079621 0.032439 0.161158
0.080137 0.032334 0.160509
0.080536 0.032184 0.159631
0.080884 0.032017 0.158661
0.081545 0.031976 0.158306
0.082001 0.031855 0.157553
0.082423 0.031724 0.156741
-1.010366 0.399768 1.950054
-0.995434 0.397499 1.940627
-0.985992 0.397400 1.941700
-0.973135 0.395911 1.935886
-0.961969 0.395088 1.933240
-0.953704 0.395452 1.936322
-0.930407 0.401193 1.968953
-0.922311 0.401712 1.972452
-0.909177 0.400024 1.965049
-0.878927 0.390694 1.920014
-0.865799 0.388860 1.911736
-0.853029 0.387150 1.904001
-0.834504 0.382765 1.883039
-1.436844 0.673343 3.314411
-1.411510 0.668727 3.292470
-1.409542 0.675201 3.325048
-1.395964 0.676198 3.330569
-1.372365 0.672308 3.311937
-1.358764 0.673283 3.317189
-1.347382 0.675393 3.327957
-1.333751 0.676412 3.333277
-0.874578 0.459742 2.265864
-0.872292 0.464192 2.287806
-0.265470 0.158899 0.782557
-0.260849 0.158329 0.779622
-0.258470 0.159122 0.783392
-0.255398 0.159506 0.785136
-0.251082 0.159113 0.783045
-0.247766 0.159352 0.784052
-0.305285 0.202377 0.995295
-0.300951 0.202616 0.996227
-0.296552 0.202819 0.996971
-0.292950 0.203582 1.000460
-0.288177 0.203543 0.999998
-0.283562 0.203616 1.000076
-0.279050 0.203768 1.000533
-0.274123 0.203616 0.999493
-0.269488 0.203679 0.999504
-0.264086 0.203155 0.996627
-0.258556 0.202511 0.993157
-0.254214 0.202792 0.994220
-0.060900 0.049496 0.242585
-0.058613 0.048553 0.237882
-0.057184 0.048296 0.236547
-0.056106 0.048332 0.236643
-0.054893 0.048251 0.236165
-0.053574 0.048071 0.235207
-0.051772 0.047441 0.232043
-0.050035 0.046844 0.229047
-0.047955 0.045893 0.224320
-0.046950 0.045950 0.224521
-0.042242 0.042303 0.206627
-0.041425 0.042471 0.207377
-0.040545 0.042580 0.207839
-0.039585 0.042611 0.207915
-0.038833 0.042871 0.209112
-0.038232 0.043316 0.211213
-0.037448 0.043573 0.212392
-0.036545 0.043702 0.212951
-0.035674 0.043876 0.213729
-0.034720 0.043957 0.214052
-0.033839 0.044138 0.214865
-0.032937 0.044302 0.215593
-0.032052 0.044499 0.216483
-0.031120 0.044643 0.217117
-0.030163 0.044761 0.217619
-0.029173 0.044834 0.217908
-0.028229 0.044988 0.218592
-0.027299 0.045176 0.219442
-0.026352 0.045349 0.220221
-0.025344 0.045428 0.220543
-0.024368 0.045574 0.221195
-0.023356 0.045662 0.221565
-0.022342 0.045755 0.221958
-0.021368 0.045944 0.222820
-0.020442 0.046263 0.224310
-0.019445 0.046445 0.225144
-0.018396 0.046518 0.225445
-0.017350 0.046608 0.225837
-0.016322 0.046760 0.226525
-0.015269 0.046860 0.226967
-0.014207 0.046946 0.227339
-0.013138 0.047020 0.227657
-0.012060 0.047072 0.227874
-0.010992 0.047178 0.228350
-0.009906 0.047222 0.228529
-0.008835 0.047355 0.229143
-0.007760 0.047503 0.229829
-0.006686 0.047714 0.230824
-0.005602 0.047911 0.231755
-0.004497 0.047993 0.232129
-0.003391 0.048110 0.232677
-0.002278 0.048198 0.233086
-0.001161 0.048285 0.233494
-0.000040 0.048508 0.234559
0.001088 0.048581 0.234902
0.002223 0.048725 0.235592
0.003358 0.048765 0.235785
0.004500 0.048870 0.236289
0.005652 0.049021 0.237020
0.006801 0.049094 0.237377
0.007968 0.049258 0.238178
0.009145 0.049434 0.239039
0.010322 0.049572 0.239717
0.011483 0.049610 0.239915
0.012663 0.049718 0.240454
0.013857 0.049858 0.241149
0.015097 0.050129 0.242483
0.016298 0.050241 0.243047
0.017509 0.050365 0.243673
0.018719 0.050472 0.244222
0.019923 0.050550 0.244630
0.021143 0.050660 0.245195
0.022367 0.050764 0.245734
0.023581 0.050839 0.246134
0.024767 0.050847 0.246215
0.025969 0.050887 0.246448
0.027200 0.050976 0.246925
0.028422 0.051043 0.247295
0.029680 0.051166 0.247939
0.030913 0.051237 0.248335
0.032215 0.051414 0.249242
0.033420 0.051429 0.249371
0.034635 0.051457 0.249561
0.035832 0.051458 0.249619
0.037030 0.051460 0.249688
0.038288 0.051543 0.250149
0.039424 0.051460 0.249807
0.040554 0.051375 0.249456
0.041855 0.051507 0.250156
0.043000 0.051443 0.249909
0.044096 0.051325 0.249400
0.045362 0.051407 0.249865
0.046314 0.051138 0.248620
0.045839 0.049346 0.239970
0.046834 0.049184 0.239248
0.047748 0.048948 0.238162
0.048808 0.048869 0.237841
0.049940 0.048865 0.237881
0.050765 0.048565 0.236487
0.050533 0.047291 0.230343
0.050928 0.046644 0.227252
0.051775 0.046430 0.226268
0.052923 0.046489 0.226616
0.053712 0.046237 0.225444
0.054682 0.046147 0.225062
0.055585 0.046006 0.224427
0.056504 0.045882 0.223880
0.057466 0.045797 0.223519
0.058412 0.045703 0.223112
0.059304 0.045571 0.222517
0.060158 0.045414 0.221805
0.060965 0.045228 0.220945
0.061732 0.045019 0.219970
0.062392 0.044741 0.218655
0.062897 0.044362 0.216843
0.063439 0.044021 0.215218
0.064251 0.043875 0.214542
0.064881 0.043612 0.213290
0.065527 0.043367 0.212126
0.066393 0.043273 0.211697
0.065919 0.042321 0.207069
0.066210 0.041881 0.204942
0.066592 0.041511 0.203155
0.067065 0.041207 0.201686
0.067395 0.040825 0.199833
0.067050 0.040051 0.196057
0.067946 0.040029 0.195958
0.068730 0.039942 0.195542
0.069288 0.039728 0.194500
0.069937 0.039572 0.193733
0.070377 0.039302 0.192412
0.070338 0.038775 0.189827
0.070536 0.038391 0.187936
0.071627 0.038496 0.188438
0.072080 0.038260 0.187265
0.072215 0.037863 0.185300
0.072701 0.037657 0.184268
0.073159 0.037442 0.183187
0.073939 0.037395 0.182924
0.074462 0.037220 0.182031
0.074841 0.036978 0.180808
0.075718 0.036985 0.180795
0.076165 0.036784 0.179762
0.076488 0.036528 0.178457
0.077015 0.036374 0.177646
0.077345 0.036132 0.176397
0.077468 0.035799 0.174702
0.077207 0.035298 0.172181
0.077566 0.035087 0.171076
0.078086 0.034953 0.170337
0.078287 0.034681 0.168918
0.078259 0.034313 0.167035
0.078714 0.034163 0.166200
0.079032 0.033957 0.165092
0.079204 0.033692 0.163693
0.079658 0.033552 0.162894
0.079757 0.033266 0.161381
0.080167 0.033115 0.160515
0.080592 0.032972 0.159685
0.080943 0.032802 0.158717
0.081780 0.032830 0.158701
0.082233 0.032704 0.157936
0.082688 0.032583 0.157180
-1.011797 0.405925 1.932663
-1.003811 0.406408 1.936722
-0.989851 0.404459 1.929095
-0.979550 0.403983 1.928395
-0.969319 0.403527 1.927705
-0.957550 0.402416 1.923798
-0.951103 0.403542 1.930507
-0.943202 0.404068 1.934270
-0.932044 0.411243 1.971980
-0.926201 0.412785 1.980359
-0.912223 0.410696 1.971247
-0.877694 0.399216 1.916971
-0.864008 0.397077 1.907456
-0.853460 0.396351 1.904662
-0.833842 0.391353 1.881273
-1.476962 0.700633 3.369041
-1.435853 0.688522 3.311721
-1.412881 0.684938 3.295307
-1.411172 0.691697 3.328565
-1.390292 0.689106 3.316747
-1.373156 0.688334 3.313596
-1.355083 0.687069 3.307990
-1.347687 0.691251 3.328534
-1.334025 0.692280 3.333820
-0.871619 0.468839 2.258174
-0.870284 0.473890 2.282540
-0.301760 0.207885 0.999072
-0.296922 0.207794 0.998391
-0.292770 0.208188 1.000031
-0.288301 0.208366 1.000621
-0.283588 0.208370 1.000371
-0.279028 0.208489 1.000664
-0.274243 0.208441 1.000149
-0.268186 0.207408 0.994901
-0.262569 0.206685 0.991135
-0.255885 0.205080 0.983141
-0.250994 0.204880 0.981875
-0.246689 0.205160 0.982907
-0.059241 0.050214 0.240496
-0.057401 0.049607 0.237512
-0.056064 0.049419 0.236534
-0.055111 0.049569 0.237174
-0.053620 0.049231 0.235480
-0.051925 0.048687 0.232801
-0.050385 0.048269 0.230723
-0.048360 0.047357 0.226289
-0.046792 0.046862 0.223845
-0.043253 0.044323 0.211645
-0.041457 0.043492 0.207608
-0.040508 0.043532 0.207726
-0.039637 0.043659 0.208262
-0.038806 0.043838 0.209046
-0.038122 0.044197 0.210687
-0.037289 0.044397 0.211574
-0.036409 0.044552 0.212241
-0.035464 0.044634 0.212561
-0.034572 0.044789 0.213231
-0.033757 0.045055 0.214430
-0.032880 0.045255 0.215313
-0.031977 0.045429 0.216075
-0.031073 0.045613 0.216883
-0.030149 0.045781 0.217616
-0.029178 0.045887 0.218052
-0.028207 0.045998 0.218519
-0.027229 0.046109 0.218983
-0.026259 0.046242 0.219552
-0.025277 0.046364 0.220070
-0.024310 0.046524 0.220774
-0.023306 0.046627 0.221206
-0.022343 0.046824 0.222082
-0.021322 0.046914 0.222458
-0.020313 0.047041 0.223008
-0.019347 0.047288 0.224126
-0.018369 0.047532 0.225232
-0.017335 0.047655 0.225769
-0.016300 0.047789 0.226359
-0.015249 0.047891 0.226800
-0.014192 0.047991 0.227230
-0.013125 0.048068 0.227558
-0.012054 0.048146 0.227890
-0.010982 0.048238 0.228286
-0.009900 0.048299 0.228543
-0.008826 0.048419 0.229080
-0.007744 0.048519 0.229525
-0.006657 0.048624 0.229999
-0.005582 0.048868 0.231130
-0.004485 0.048998 0.231722
-0.003386 0.049190 0.232609
-0.002272 0.049224 0.232755
-0.001156 0.049304 0.233122
-0.000038 0.049501 0.234041
0.001089 0.049627 0.234628
0.002220 0.049730 0.235105
0.003352 0.049786 0.235367
0.004488 0.049854 0.235688
0.005645 0.050071 0.236714
0.006794 0.050165 0.237161
0.007950 0.050275 0.237688
0.009130 0.050488 0.238705
0.010313 0.050667 0.239562
0.011489 0.050778 0.240102
0.012662 0.050862 0.240516
0.013838 0.050939 0.240895
0.015034 0.051073 0.241550
0.016241 0.051219 0.242268
0.017422 0.051274 0.242550
0.018659 0.051473 0.243521
0.019846 0.051518 0.243765
0.021115 0.051763 0.244955
0.022348 0.051895 0.245619
0.023542 0.051928 0.245807
0.024728 0.051942 0.245913
0.025939 0.052003 0.246245
0.027157 0.052073 0.246619
0.028401 0.052185 0.247197
0.029623 0.052250 0.247549
0.030887 0.052380 0.248214
0.032150 0.052498 0.248822
0.033385 0.052564 0.249189
0.034587 0.052576 0.249299
0.035730 0.052500 0.248994
0.037042 0.052669 0.249851
0.038194 0.052606 0.249610
0.039345 0.052546 0.249384
0.040592 0.052615 0.249771
0.041735 0.052548 0.249514
0.042892 0.052502 0.249357
0.044094 0.052513 0.249467
0.045120 0.052317 0.248603
0.045562 0.051472 0.244649
0.045873 0.050527 0.240215
0.046730 0.050212 0.238781
0.047639 0.049969 0.237685
0.048641 0.049831 0.237090
0.049562 0.049619 0.236141
0.050422 0.049355 0.234949
0.051338 0.049158 0.234069
0.050999 0.047793 0.227626
0.051713 0.047450 0.226051
0.052593 0.047270 0.225252
0.053696 0.047295 0.225426
0.054555 0.047108 0.224589
0.055437 0.046947 0.223874
0.056338 0.046808 0.223266
0.057336 0.046753 0.223058
0.058268 0.046647 0.222602
0.059078 0.046450 0.221710
0.060067 0.046397 0.221505
0.060912 0.046237 0.220787
0.061533 0.045915 0.219295
0.062156 0.045606 0.217859
0.062730 0.045270 0.216298
0.063462 0.045058 0.215323
0.064320 0.044941 0.214798
0.064972 0.044686 0.213611
0.065591 0.044416 0.212353
0.066085 0.044071 0.210735
0.066223 0.043502 0.208040
0.066756 0.043206 0.206649
0.067113 0.042806 0.204755
0.067924 0.042703 0.204280
0.068567 0.042499 0.203318
0.069259 0.042330 0.202521
0.067829 0.040887 0.195626
0.068696 0.040848 0.195448
0.069211 0.040605 0.194284
0.069737 0.040374 0.193178
0.070434 0.040246 0.192562
0.070809 0.039940 0.191092
0.071189 0.039645 0.189668
0.071486 0.039312 0.188057
0.071930 0.039066 0.186864
0.072300 0.038787 0.185506
0.072749 0.038556 0.184377
0.073509 0.038494 0.184046
0.074112 0.038352 0.183333
0.074736 0.038224 0.182681
0.075081 0.037958 0.181366
0.075528 0.037748 0.180317
0.076238 0.037674 0.179908
0.076550 0.037406 0.178575
0.076881 0.037154 0.177307
0.076820 0.036720 0.175167
0.076702 0.036268 0.172941
0.076887 0.035967 0.171430
0.077245 0.035753 0.170330
0.077754 0.035612 0.169573
0.078007 0.035359 0.168273
0.078213 0.035089 0.166892
0.078444 0.034836 0.165584
0.078910 0.034691 0.164789
0.079303 0.034517 0.163849
0.079561 0.034289 0.162643
0.079901 0.034100 0.161618
0.080196 0.033895 0.160516
0.080627 0.033751 0.159694
0.081079 0.033619 0.158922
0.081838 0.033615 0.158748
0.082295 0.033489 0.157989
0.082667 0.033330 0.157070
-1.008074 0.413622 1.924817
-1.006652 0.416819 1.941493
-0.991032 0.414143 1.930722
-0.978041 0.412526 1.924783
-0.967286 0.411831 1.923050
-0.957257 0.411434 1.922627
-0.950798 0.412579 1.929331
-0.940777 0.412186 1.928767
-0.926582 0.418122 1.959967
-0.925164 0.421691 1.977707
-0.913176 0.420466 1.972900
-0.870971 0.405160 1.901922
-0.858810 0.403656 1.895639
-0.851134 0.404252 1.899155
-0.834572 0.400595 1.882626
-1.475946 0.716058 3.366243
-1.430310 0.701447 3.298507
-1.410993 0.699565 3.290514
-1.410151 0.706902 3.325802
-1.389355 0.704289 3.314199
-1.372970 0.703878 3.312870
-1.359936 0.705196 3.319597
-1.346308 0.706234 3.324926
-0.874463 0.481056 2.265505
-0.865861 0.482195 2.270927
-0.302089 0.212841 1.000325
-0.297494 0.212926 1.000487
-0.293165 0.213207 1.001562
-0.288481 0.213234 1.001437
-0.283859 0.213309 1.001527
-0.279210 0.213367 1.001528
-0.274196 0.213143 1.000199
-0.268523 0.212389 0.996381
-0.263315 0.211983 0.994187
-0.255706 0.209595 0.982696
-0.253490 0.211620 0.991892
-0.249140 0.211907 0.992932
-0.059507 0.051586 0.241639
-0.057671 0.050973 0.238696
-0.056510 0.050945 0.238487
-0.055269 0.050841 0.237923
-0.053896 0.050609 0.236761
-0.052236 0.050092 0.234268
-0.050681 0.049657 0.232154
-0.048957 0.049031 0.229155
-0.047289 0.048436 0.226297
-0.046272 0.048494 0.226495
-0.042157 0.045232 0.211188
-0.040477 0.044488 0.207643
-0.039608 0.044619 0.208188
-0.038720 0.044736 0.208663
-0.037915 0.044956 0.209625
-0.037137 0.045222 0.210794
-0.036293 0.045421 0.211652
-0.035366 0.045523 0.212059
-0.034510 0.045726 0.212938
-0.033657 0.045944 0.213888
-0.032810 0.046186 0.214946
-0.031911 0.046367 0.215722
-0.031024 0.046578 0.216641
-0.030088 0.046728 0.217270
-0.029140 0.046869 0.217863
-0.028161 0.046969 0.218267
-0.027195 0.047100 0.218816
-0.026224 0.047231 0.219364
-0.025234 0.047340 0.219809
-0.024268 0.047502 0.220504
-0.023276 0.047628 0.221035
-0.022303 0.047806 0.221804
-0.021357 0.048062 0.222939
-0.020350 0.048202 0.223536
-0.019387 0.048466 0.224713
-0.018363 0.048601 0.225289
-0.017324 0.048711 0.225751
-0.016280 0.048818 0.226203
-0.015205 0.048844 0.226280
-0.014155 0.048960 0.226778
-0.013092 0.049044 0.227126
-0.012014 0.049085 0.227282
-0.010946 0.049179 0.227682
-0.009874 0.049273 0.228085
-0.008797 0.049363 0.228474
-0.007729 0.049538 0.229257
-0.006648 0.049674 0.229857
-0.005570 0.049885 0.230813
-0.004481 0.050089 0.231734
-0.003381 0.050267 0.232539
-0.002267 0.050282 0.232593
-0.001153 0.050354 0.232913
-0.000035 0.050576 0.233927
0.001089 0.050674 0.234370
0.002218 0.050762 0.234773
0.003353 0.050896 0.235388
0.004486 0.050927 0.235532
0.005637 0.051119 0.236419
0.006783 0.051200 0.236799
0.007934 0.051296 0.237249
0.009107 0.051490 0.238154
0.010303 0.051753 0.239381
0.011470 0.051837 0.239782
0.012644 0.051931 0.240230
0.013827 0.052043 0.240769
0.015012 0.052148 0.241273
0.016202 0.052251 0.241772
0.017394 0.052346 0.242240
0.018597 0.052461 0.242797
0.019818 0.052609 0.243512
0.021056 0.052783 0.244350
0.022303 0.052960 0.245204
0.023506 0.053020 0.245515
0.024723 0.053104 0.245945
0.025901 0.053100 0.245966
0.027109 0.053156 0.246269
0.028347 0.053264 0.246813
0.029649 0.053477 0.247844
0.030887 0.053565 0.248297
0.032107 0.053614 0.248575
0.033340 0.053682 0.248939
0.034547 0.053703 0.249090
0.035740 0.053702 0.249139
0.036960 0.053741 0.249376
0.038152 0.053738 0.249417
0.039333 0.053720 0.249390
0.040509 0.053696 0.249338
0.041706 0.053701 0.249418
0.042841 0.053626 0.249132
0.043954 0.053530 0.248744
0.045123 0.053505 0.248691
0.045835 0.052954 0.246190
0.045527 0.051281 0.238471
0.046497 0.051094 0.237659
0.047596 0.051054 0.237531
0.048634 0.050952 0.237117
0.049451 0.050629 0.235671
0.050427 0.050478 0.235031
0.050756 0.049701 0.231469
0.051306 0.049169 0.229048
0.052014 0.048807 0.227418
0.052850 0.048577 0.226403
0.053744 0.048410 0.225676
0.054562 0.048181 0.224663
0.055459 0.048029 0.224007
0.056294 0.047831 0.223136
0.057172 0.047676 0.222461
0.058171 0.047625 0.222273
0.058980 0.047423 0.221378
0.059835 0.047265 0.220684
0.060683 0.047107 0.219992
0.061527 0.046951 0.219303
0.062040 0.046552 0.217479
0.062725 0.046293 0.216308
0.063435 0.046060 0.215256
0.064260 0.045917 0.214624
0.065007 0.045723 0.213750
0.065735 0.045522 0.212840
0.066126 0.045098 0.210881
0.066415 0.044617 0.208659
0.067065 0.044390 0.207618
0.067474 0.044012 0.205868
0.067738 0.043551 0.203730
0.068041 0.043129 0.201768
0.068715 0.042950 0.200937
0.069009 0.042541 0.199032
0.069377 0.042189 0.197389
0.070020 0.042011 0.196556
0.070482 0.041730 0.195240
0.070445 0.041165 0.192590
0.070587 0.040718 0.190486
0.070444 0.040120 0.187676
0.071100 0.039986 0.187032
0.071604 0.039771 0.186005
0.071968 0.039484 0.184641
0.072328 0.039202 0.183293
0.073214 0.039209 0.183291
0.073886 0.039102 0.182753
0.074293 0.038859 0.181576
0.074627 0.038584 0.180245
0.075237 0.038456 0.179597
0.075990 0.038403 0.179296
0.076432 0.038196 0.178269
0.077066 0.038088 0.177700
0.077174 0.037725 0.175941
0.076767 0.037121 0.173051
0.076997 0.036835 0.171638
0.077509 0.036689 0.170872
0.077996 0.036533 0.170058
0.078277 0.036286 0.168810
0.078603 0.036063 0.167677
0.078546 0.035672 0.165751
0.078767 0.035413 0.164439
0.079311 0.035304 0.163812
0.079725 0.035139 0.162924
0.080062 0.034943 0.161887
0.080240 0.034683 0.160545
0.080711 0.034553 0.159801
0.081186 0.034427 0.159068
0.081904 0.034405 0.158810
0.082505 0.034336 0.158323
0.082870 0.034170 0.157384
-1.008502 0.422991 1.924867
-1.000707 0.423564 1.929292
-0.987445 0.421812 1.923032
-0.977457 0.421440 1.922963
-0.966421 0.420604 1.920690
-0.955531 0.419817 1.918551
-0.950840 0.421765 1.928834
-0.941947 0.421868 1.930611
-0.954849 0.436098 1.998194
-0.936753 0.432103 1.980999
-0.925791 0.431352 1.978593
-0.915822 0.431053 1.978188
-0.864739 0.411198 1.887929
-0.857801 0.412140 1.893053
-0.850055 0.412710 1.896411
-0.831364 0.407921 1.875082
-1.455356 0.721756 3.318778
-1.429927 0.716840 3.297165
-1.412952 0.716101 3.294664
-1.413960 0.724560 3.334403
-1.392808 0.721726 3.322094
-1.377181 0.721724 3.322729
-1.366086 0.724125 3.334345
-1.352381 0.725182 3.339698
-1.338640 0.726244 3.344999
-0.879784 0.488786 2.251694
-0.870486 0.489508 2.255149
-0.863919 0.491803 2.265807
-0.854536 0.492532 2.269204
-0.303071 0.218278 1.003737
-0.297489 0.217654 1.000641
-0.293120 0.217911 1.001589
-0.288834 0.218240 1.002854
-0.283777 0.217987 1.001439
-0.279036 0.217972 1.001110
-0.273925 0.217664 0.999425
-0.269076 0.217557 0.998659
-0.263688 0.217002 0.995831
-0.258800 0.216846 0.994827
-0.254446 0.217140 0.995886
-0.060477 0.052582 0.241090
-0.059417 0.052652 0.241339
-0.057616 0.052057 0.238536
-0.056090 0.051690 0.236780
-0.055077 0.051790 0.237166
-0.053754 0.051598 0.236209
-0.052096 0.051069 0.233714
-0.050798 0.050878 0.232764
-0.049166 0.050336 0.230209
-0.047510 0.049744 0.227430
-0.046131 0.049422 0.225884
-0.045113 0.049480 0.226077
-0.040595 0.045610 0.208326
-0.039506 0.045494 0.207731
-0.038566 0.045549 0.207914
-0.037728 0.045730 0.208672
-0.036949 0.045994 0.209813
-0.036144 0.046239 0.210864
-0.035380 0.046554 0.212230
-0.034434 0.046639 0.212555
-0.033570 0.046845 0.213427
-0.032713 0.047074 0.214404
-0.031817 0.047258 0.215179
-0.030908 0.047437 0.215929
-0.029989 0.047611 0.216657
-0.029016 0.047709 0.217042
-0.028042 0.047811 0.217446
-0.027098 0.047977 0.218140
-0.026162 0.048169 0.218953
-0.025183 0.048296 0.219471
-0.024227 0.048478 0.220243
-0.023237 0.048607 0.220775
-0.022249 0.048754 0.221387
-0.021266 0.048924 0.222110
-0.020281 0.049110 0.222900
-0.019313 0.049359 0.223982
-0.018300 0.049514 0.224638
-0.017290 0.049698 0.225427
-0.016238 0.049778 0.225748
-0.015191 0.049889 0.226210
-0.014148 0.050027 0.226794
-0.013080 0.050094 0.227060
-0.012013 0.050178 0.227404
-0.010951 0.050301 0.227930
-0.009873 0.050372 0.228216
-0.008799 0.050483 0.228691
-0.007722 0.050603 0.229209
-0.006634 0.050682 0.229540
-0.005545 0.050786 0.229987
-0.004450 0.050870 0.230349
-0.003378 0.051363 0.232561
-0.002267 0.051458 0.232977
-0.001151 0.051511 0.233205
-0.000033 0.051596 0.233574
0.001090 0.051746 0.234248
0.002220 0.051889 0.234885
0.003350 0.051948 0.235152
0.004489 0.052068 0.235693
0.005628 0.052147 0.236050
0.006780 0.052299 0.236741
0.007938 0.052449 0.237427
0.009121 0.052701 0.238572
0.010285 0.052798 0.239023
0.011460 0.052932 0.239645
0.012625 0.052994 0.239941
0.013789 0.053043 0.240181
0.014965 0.053130 0.240593
0.016176 0.053317 0.241460
0.017390 0.053488 0.242259
0.018616 0.053671 0.243117
0.019820 0.053774 0.243609
0.021026 0.053871 0.244082
0.022254 0.054011 0.244749
0.023461 0.054088 0.245132
0.024686 0.054198 0.245666
0.025857 0.054183 0.245638
0.027085 0.054284 0.246137
0.028375 0.054496 0.247141
0.029608 0.054584 0.247587
0.030843 0.054670 0.248024
0.032004 0.054624 0.247861
0.033265 0.054745 0.248457
0.034494 0.054807 0.248789
0.035514 0.054544 0.247650
0.036893 0.054830 0.249001
0.038095 0.054845 0.249124
0.039266 0.054815 0.249044
0.040437 0.054787 0.248970
0.041581 0.054725 0.248746
0.042759 0.054709 0.248731
0.043894 0.054640 0.248479
0.044781 0.054276 0.246878
0.044498 0.052547 0.239075
0.045433 0.052308 0.238043
0.046408 0.052125 0.237266
0.047563 0.052148 0.237430
0.048492 0.051928 0.236487
0.049356 0.051650 0.235277
0.050227 0.051391 0.234156
0.051340 0.051386 0.234189
0.051961 0.050900 0.232027
0.052371 0.050230 0.229031
0.052918 0.049717 0.226745
0.053711 0.049452 0.225586
0.054532 0.049221 0.224586
0.055490 0.049121 0.224180
0.056290 0.048887 0.223159
0.057265 0.048812 0.222864
0.058114 0.048633 0.222095
0.059012 0.048500 0.221535
0.059996 0.048443 0.221317
0.060717 0.048178 0.220148
0.061361 0.047862 0.218744
0.062142 0.047662 0.217869
0.062779 0.047359 0.216521
0.063436 0.047081 0.215285
0.064259 0.046934 0.214643
0.065123 0.046820 0.214151
0.065941 0.046677 0.213526
0.065882 0.045927 0.210121
0.066224 0.045475 0.208075
0.066637 0.045084 0.206305
0.067178 0.044791 0.204978
0.067660 0.044466 0.203507
0.068026 0.044075 0.201728
0.068420 0.043713 0.200080
0.069089 0.043534 0.199265
0.069654 0.043296 0.198175
0.070131 0.043010 0.196865
0.069765 0.042221 0.193250
0.071201 0.042529 0.194651
0.070419 0.041522 0.190026
0.070972 0.041317 0.189073
0.071305 0.040990 0.187560
0.071574 0.040635 0.185913
0.072004 0.040379 0.184716
0.072591 0.040217 0.183942
0.073171 0.040055 0.183164
0.073952 0.040004 0.182895
0.074479 0.039820 0.182008
0.074717 0.039486 0.180435
0.074847 0.039104 0.178639
0.075936 0.039226 0.179137
0.076160 0.038904 0.177603
0.076602 0.038698 0.176597
0.075690 0.037820 0.172522
0.076496 0.037811 0.172402
0.077085 0.037695 0.171795
0.077256 0.037380 0.170270
0.077847 0.037272 0.169690
0.078297 0.037100 0.168807
0.078394 0.036765 0.167183
0.078809 0.036585 0.166257
0.079085 0.036345 0.165051
0.079313 0.036087 0.163760
0.079856 0.035977 0.163134
0.080292 0.035821 0.162293
0.080505 0.035569 0.161014
0.080903 0.035403 0.160116
0.081279 0.035231 0.159183
0.081922 0.035176 0.158775
0.082467 0.035081 0.158178
0.083008 0.034986 0.157573
-1.008009 0.431975 1.923130
-0.994978 0.430294 1.917487
-0.983157 0.429110 1.913954
-0.972795 0.428547 1.913097
-0.963422 0.428413 1.914066
-0.956239 0.429260 1.919338
-0.950116 0.430604 1.926758
-0.938806 0.429601 1.923595
-0.962451 0.444730 1.992636
-0.954269 0.445307 1.996440
-0.945507 0.445621 1.998999
-0.929604 0.442543 1.986261
-0.917079 0.441027 1.980452
-0.862823 0.419205 1.883343
-0.846141 0.415374 1.866947
-0.842964 0.418163 1.880239
-0.828580 0.415392 1.868478
-1.463590 0.741617 3.337018
-1.426553 0.738709 3.325924
-1.412908 0.739758 3.331511
-1.391755 0.736856 3.319212
-1.374341 0.735891 3.315547
-1.362262 0.737794 3.324722
-1.349403 0.739312 3.332090
-1.336179 0.740665 3.338635
-1.322410 0.741745 3.343874
-0.878447 0.498651 2.248178
-0.868067 0.498759 2.248817
-0.859843 0.500123 2.255075
-0.851215 0.501283 2.260369
-0.302375 0.222512 1.001592
-0.297404 0.222323 1.000524
-0.292999 0.222557 1.001352
-0.288550 0.222766 1.002055
-0.283707 0.222671 1.001386
-0.278845 0.222560 1.000634
-0.274115 0.222551 1.000333
-0.269046 0.222263 0.998770
-0.263614 0.221659 0.995784
-0.259265 0.221960 0.996859
-0.061668 0.053771 0.241427
-0.060122 0.053410 0.239737
-0.058519 0.052984 0.237756
-0.057007 0.052626 0.236078
-0.055928 0.052661 0.236164
-0.054449 0.052314 0.234532
-0.052982 0.051964 0.232892
-0.051673 0.051756 0.231889
-0.050217 0.051389 0.230174
-0.048747 0.050993 0.228326
-0.047342 0.050647 0.226706
-0.046035 0.050392 0.225494
-0.044835 0.050245 0.224766
-0.043819 0.050303 0.224953
-0.039311 0.046254 0.206780
-0.038484 0.046441 0.207549
-0.037603 0.046570 0.208060
-0.036782 0.046782 0.208945
-0.036175 0.047287 0.211134
-0.035192 0.047314 0.211191
-0.034404 0.047613 0.212459
-0.033556 0.047845 0.213430
-0.032657 0.048016 0.214127
-0.031771 0.048218 0.214965
-0.030867 0.048406 0.215740
-0.029927 0.048548 0.216311
-0.028998 0.048717 0.217004
-0.028053 0.048872 0.217636
-0.027085 0.048999 0.218139
-0.026113 0.049127 0.218655
-0.025164 0.049311 0.219417
-0.024207 0.049493 0.220171
-0.023196 0.049579 0.220497
-0.022218 0.049747 0.221191
-0.021226 0.049896 0.221805
-0.020194 0.049965 0.222060
-0.019183 0.050096 0.222593
-0.018178 0.050258 0.223270
-0.017209 0.050546 0.224503
-0.016184 0.050699 0.225139
-0.015114 0.050721 0.225197
-0.014094 0.050925 0.226063
-0.013063 0.051123 0.226905
-0.012004 0.051240 0.227390
-0.010932 0.051317 0.227698
-0.009863 0.051427 0.228155
-0.008794 0.051563 0.228729
-0.007719 0.051697 0.229296
-0.006634 0.051800 0.229726
-0.005544 0.051900 0.230148
-0.004463 0.052156 0.231262
-0.003368 0.052351 0.232110
-0.002258 0.052421 0.232405
-0.001146 0.052496 0.232725
-0.000031 0.052642 0.233359
0.001090 0.052763 0.233885
0.002220 0.052972 0.234808
0.003353 0.053075 0.235258
0.004480 0.053065 0.235214
0.005624 0.053225 0.235923
0.006765 0.053297 0.236246
0.007904 0.053340 0.236441
0.009072 0.053543 0.237348
0.010282 0.053919 0.239026
0.011448 0.054013 0.239455
0.012609 0.054068 0.239713
0.013788 0.054182 0.240236
0.014947 0.054210 0.240378
0.016127 0.054299 0.240796
0.017320 0.054422 0.241363
0.018532 0.054583 0.242104
0.019754 0.054753 0.242884
0.020935 0.054796 0.243107
0.022184 0.055004 0.244062
0.023419 0.055157 0.244773
0.024627 0.055236 0.245160
0.025823 0.055281 0.245399
0.027040 0.055366 0.245813
0.028284 0.055496 0.246432
0.029615 0.055779 0.247734
0.030832 0.055834 0.248023
0.032012 0.055819 0.248004
0.033232 0.055875 0.248299
0.034443 0.055909 0.248501
0.035597 0.055855 0.248308
0.036836 0.055930 0.248697
0.037997 0.055888 0.248561
0.039203 0.055911 0.248719
0.040336 0.055834 0.248428
0.041474 0.055766 0.248181
0.042687 0.055800 0.248390
0.043731 0.055617 0.247633
0.044567 0.055186 0.245772
0.044841 0.054099 0.240983
0.045358 0.053353 0.237716
0.046359 0.053198 0.237084
0.047450 0.053152 0.236932
0.048467 0.053026 0.236429
0.049280 0.052688 0.234977
0.050001 0.052269 0.233162
0.051022 0.052175 0.232795
0.051655 0.051696 0.230712
0.052546 0.051491 0.229851
0.053293 0.051154 0.228401
0.053764 0.050573 0.225855
0.054442 0.050205 0.224259
0.055416 0.050118 0.223922
0.056213 0.049878 0.222898
0.057089 0.049716 0.222217
0.057987 0.049578 0.221645
0.058869 0.049431 0.221033
0.059728 0.049272 0.220362
0.060479 0.049029 0.219317
0.061127 0.048713 0.217940
0.062005 0.048588 0.217417
0.062756 0.048368 0.216468
0.063441 0.048106 0.215327
0.064262 0.047953 0.214673
0.065128 0.047839 0.214189
0.065948 0.047694 0.213567
0.066335 0.047245 0.211580
0.066452 0.046621 0.208805
0.066968 0.046291 0.207342
0.067344 0.045874 0.205493
0.067860 0.045564 0.204114
0.068140 0.045107 0.202073
0.068717 0.044855 0.200953
0.069188 0.044542 0.199554
0.069532 0.044158 0.197829
0.069981 0.043848 0.196440
0.070100 0.043344 0.194172
0.069882 0.042647 0.191039
0.070491 0.042466 0.190213
0.071166 0.042328 0.189578
0.071653 0.042084 0.188463
0.071899 0.041705 0.186743
0.072324 0.041439 0.185522
0.072684 0.041142 0.184158
0.073314 0.041003 0.183501
0.073896 0.040841 0.182733
0.074192 0.040526 0.181280
0.074713 0.040341 0.180398
0.075082 0.040078 0.179170
0.075699 0.039952 0.178547
0.075742 0.039529 0.176594
0.076481 0.039475 0.176283
0.076526 0.039067 0.174388
0.076872 0.038820 0.173209
0.077241 0.038591 0.172101
0.077465 0.038294 0.170687
0.077846 0.038080 0.169640
0.078296 0.037904 0.168757
0.078541 0.037633 0.167445
0.078679 0.037317 0.165929
0.079018 0.037102 0.164856
0.079348 0.036887 0.163776
0.079706 0.036688 0.162767
0.080249 0.036578 0.162144
0.080630 0.036397 0.161199
0.080941 0.036188 0.160123
0.081376 0.036038 0.159304
0.081884 0.035923 0.158631
0.082361 0.035796 0.157899
0.082784 0.035648 0.157068
-0.999956 0.437641 1.906945
-0.988397 0.436542 1.904018
-0.982741 0.438054 1.912388
-0.973375 0.437925 1.913513
-0.963098 0.437381 1.912732
-0.952311 0.436592 1.910793
-0.949705 0.439576 1.925290
-0.938292 0.438501 1.921939
-0.956386 0.455790 2.000303
-0.948164 0.456381 2.004079
-0.932788 0.453507 1.992559
-0.924607 0.454108 1.996231
-0.851526 0.422518 1.858264
-0.840135 0.421200 1.853302
-0.836626 0.423848 1.865732
-0.824027 0.421898 1.857867
-1.462542 0.756853 3.334056
-1.448857 0.757906 3.339787
-1.417173 0.749464 3.303573
-1.412324 0.755184 3.329690
-1.394492 0.754013 3.325339
-1.373052 0.750842 3.312079
-1.359501 0.751963 3.317664
-1.345033 0.752596 3.321021
-1.335090 0.755807 3.335676
-0.877710 0.508833 2.246184
-0.866406 0.508396 2.244431
-0.859604 0.510621 2.254390
-0.851776 0.512286 2.261828
-0.302150 0.227078 1.001000
-0.296934 0.226695 0.999106
-0.292710 0.227069 1.000538
-0.288225 0.227250 1.001110
-0.283359 0.227132 1.000354
-0.278570 0.227072 0.999847
-0.274016 0.227206 1.000185
-0.268449 0.226489 0.996775
-0.262507 0.225425 0.991830
-0.258173 0.225729 0.992898
-0.061596 0.054851 0.241203
-0.059391 0.053884 0.236884
-0.058524 0.054118 0.237843
-0.057077 0.053812 0.236433
-0.055483 0.053355 0.234354
-0.054349 0.053330 0.234173
