ply
format ascii 1.0
element vertex 1689
property float x
property float y
property float z
end_header
-0.021797 -0.060969 0.228777
-0.020725 -0.061019 0.228923
-0.019751 -0.061378 0.230229
-0.018720 -0.061594 0.230999
-0.017661 -0.061739 0.231505
-0.016679 -0.062189 0.233156
-0.015597 -0.062304 0.233550
-0.014498 -0.062365 0.233744
-0.013436 -0.062607 0.234622
-0.012338 -0.062714 0.234991
-0.011252 -0.062906 0.235680
-0.010143 -0.063002 0.236010
-0.009043 -0.063180 0.236654
-0.007940 -0.063386 0.237399
-0.006842 -0.063711 0.238596
-0.005720 -0.063896 0.239266
-0.004582 -0.063951 0.239454
-0.003452 -0.064196 0.240356
-0.002311 -0.064395 0.241083
-0.001165 -0.064627 0.241940
-0.000009 -0.064841 0.242730
0.001153 -0.065021 0.243396
0.002323 -0.065225 0.244153
0.003504 -0.065505 0.245195
0.004685 -0.065652 0.245741
0.005864 -0.065704 0.245935
0.007055 -0.065853 0.246490
0.008246 -0.065962 0.246901
0.009439 -0.066056 0.247259
0.010632 -0.066128 0.247536
0.011824 -0.066185 0.247756
0.013045 -0.066373 0.248468
0.014245 -0.066433 0.248707
0.015549 -0.066933 0.250591
0.016733 -0.066879 0.250405
0.018045 -0.067310 0.252037
0.019342 -0.067637 0.253278
0.020780 -0.068388 0.256114
0.022038 -0.068496 0.256541
0.025028 -0.073690 0.276021
0.024626 -0.068878 0.258022
0.025331 -0.067475 0.252792
0.026428 -0.067195 0.251772
0.027667 -0.067285 0.252139
0.028865 -0.067269 0.252110
0.030053 -0.067235 0.252014
0.032543 -0.070004 0.262428
0.033667 -0.069735 0.261458
0.034683 -0.069273 0.259760
0.035905 -0.069238 0.259669
0.036834 -0.068661 0.257542
0.037928 -0.068418 0.256667
0.038867 -0.067919 0.254834
0.039957 -0.067706 0.254077
0.040998 -0.067425 0.253062
0.041931 -0.066987 0.251460
0.042777 -0.066438 0.249437
0.043856 -0.066271 0.248852
0.045004 -0.066216 0.248683
0.046013 -0.065962 0.247771
0.047103 -0.065835 0.247334
0.048171 -0.065684 0.246809
0.049230 -0.065528 0.246263
0.050313 -0.065412 0.245863
0.051388 -0.065288 0.245439
0.052472 -0.065183 0.245081
0.053523 -0.065042 0.244591
0.054561 -0.064891 0.244057
0.055519 -0.064653 0.243201
0.056540 -0.064497 0.242648
0.057582 -0.064371 0.242207
0.058561 -0.064180 0.241522
0.059598 -0.064059 0.241096
0.060505 -0.063806 0.240175
0.061400 -0.063549 0.239237
0.062273 -0.063280 0.238248
0.063210 -0.063084 0.237535
0.064347 -0.063090 0.237584
0.065128 -0.062754 0.236338
0.065398 -0.061945 0.233309
0.066048 -0.061516 0.231710
0.067025 -0.061401 0.231293
0.068027 -0.061313 0.230973
0.068737 -0.060968 0.229681
0.069653 -0.060814 0.229108
0.070660 -0.060743 0.228845
0.071358 -0.060413 0.227601
0.071957 -0.060010 0.226080
0.072925 -0.059921 0.225740
0.073751 -0.059721 0.224977
0.072544 -0.057903 0.218116
0.070578 -0.055539 0.209198
0.071095 -0.055168 0.207783
0.070860 -0.054231 0.204234
0.070266 -0.053049 0.199759
0.070084 -0.052205 0.196553
0.070774 -0.052025 0.195843
0.071070 -0.051562 0.194069
0.071527 -0.051228 0.192773
0.072030 -0.050934 0.191624
0.072659 -0.050736 0.190834
0.073347 -0.050583 0.190208
0.073850 -0.050308 0.189120
0.074429 -0.050090 0.188244
0.075163 -0.049981 0.187769
0.075804 -0.049813 0.187071
0.076464 -0.049662 0.186430
0.077133 -0.049520 0.185820
0.077902 -0.049444 0.185452
0.078572 -0.049308 0.184856
0.079232 -0.049169 0.184239
0.080006 -0.049102 0.183891
0.080677 -0.048975 0.183309
0.081325 -0.048837 0.182681
0.081954 -0.048690 0.182015
0.082520 -0.048509 0.181216
0.083049 -0.048310 0.180343
0.083709 -0.048192 0.179764
0.084410 -0.048098 0.179273
0.084901 -0.047889 0.178340
0.085510 -0.047748 0.177661
0.086013 -0.047553 0.176769
0.086609 -0.047412 0.176073
0.087242 -0.047294 0.175454
0.087741 -0.047106 0.174568
0.088309 -0.046958 0.173824
0.088787 -0.046766 0.172908
0.089565 -0.046734 0.172574
0.089969 -0.046509 0.171519
0.090075 -0.046135 0.169909
-1.474433 -0.725277 2.744232
-1.472011 -0.730581 2.767759
-1.465011 -0.733689 2.782854
-1.447716 -0.731652 2.778286
-1.437832 -0.733358 2.787787
-1.431380 -0.736864 2.804009
-1.416632 -0.736125 2.803955
-1.408690 -0.738944 2.817327
-1.397102 -0.739886 2.823429
-1.387753 -0.742044 2.834061
-1.384399 -0.747483 2.857121
-1.370241 -0.747139 2.857977
-1.390944 -0.765986 2.932181
-1.378886 -0.834208 3.208879
-1.387211 -0.848543 3.265263
-1.379216 -0.853106 3.283976
-1.371468 -0.857928 3.303607
-1.365944 -0.864268 3.329011
-1.351100 -0.864791 3.331930
-1.338902 -0.867040 3.341419
-1.322739 -0.866745 3.341026
-1.306495 -0.866390 3.340323
-1.293046 -0.867904 3.346749
-1.281090 -0.870469 3.357162
-1.266056 -0.870983 3.359590
-1.259034 -0.877091 3.383533
-1.249446 -0.881545 3.401033
-1.241359 -0.887189 3.423060
-0.032363 -0.063516 0.242989
-0.030466 -0.062006 0.237159
-0.029919 -0.063232 0.241794
-0.028139 -0.061847 0.236446
-0.026495 -0.060657 0.231845
-0.025006 -0.059734 0.228270
-0.023899 -0.059684 0.228030
-0.022866 -0.059819 0.228500
-0.021699 -0.059603 0.227631
-0.020965 -0.060615 0.231452
-0.019899 -0.060725 0.231832
-0.018842 -0.060878 0.232372
-0.017767 -0.060991 0.232765
-0.016693 -0.061119 0.233217
-0.015633 -0.061322 0.233952
-0.014546 -0.061443 0.234382
-0.013449 -0.061538 0.234711
-0.012366 -0.061720 0.235371
-0.011270 -0.061869 0.235909
-0.010166 -0.062000 0.236383
-0.009064 -0.062178 0.237035
-0.007952 -0.062331 0.237592
-0.006851 -0.062634 0.238726
-0.005732 -0.062863 0.239576
-0.004596 -0.062974 0.239980
-0.003463 -0.063197 0.240812
-0.002322 -0.063467 0.241827
-0.001170 -0.063599 0.242317
-0.000012 -0.063709 0.242726
0.001150 -0.063865 0.243311
0.002318 -0.064019 0.243887
0.003494 -0.064213 0.244623
0.004678 -0.064415 0.245388
0.005875 -0.064686 0.246420
0.007062 -0.064765 0.246720
0.008255 -0.064881 0.247164
0.009462 -0.065052 0.247822
0.010658 -0.065126 0.248111
0.011866 -0.065245 0.248571
0.013098 -0.065465 0.249422
0.014305 -0.065534 0.249695
0.015521 -0.065629 0.250072
0.016730 -0.065684 0.250299
0.017951 -0.065775 0.250662
0.019175 -0.065865 0.251028
0.020392 -0.065919 0.251254
0.021632 -0.066040 0.251738
0.022838 -0.066048 0.251795
0.024078 -0.066151 0.252214
0.025311 -0.066222 0.252514
0.026544 -0.066289 0.252799
0.027756 -0.066299 0.252867
0.028962 -0.066296 0.252886
0.030248 -0.066467 0.253572
0.032398 -0.068452 0.261182
0.033724 -0.068611 0.261826
0.034735 -0.068143 0.260079
0.035863 -0.067927 0.259293
0.036918 -0.067592 0.258053
0.037921 -0.067186 0.256545
0.039042 -0.067009 0.255911
0.040029 -0.066619 0.254463
0.041093 -0.066376 0.253577
0.041926 -0.065786 0.251365
0.043041 -0.065657 0.250912
0.044144 -0.065519 0.250427
0.045135 -0.065225 0.249346
0.046123 -0.064941 0.248304
0.047149 -0.064724 0.247518
0.048180 -0.064526 0.246800
0.049252 -0.064389 0.246321
0.050302 -0.064232 0.245758
0.051397 -0.064136 0.245433
0.052495 -0.064048 0.245139
0.053574 -0.063942 0.244773
0.054614 -0.063796 0.244252
0.055623 -0.063620 0.243615
0.056641 -0.063460 0.243040
0.057594 -0.063236 0.242218
0.058623 -0.063103 0.241743
0.059639 -0.062960 0.241232
0.060600 -0.062766 0.240520
0.061529 -0.062547 0.239712
0.062567 -0.062445 0.239347
0.063456 -0.062200 0.238435
0.064338 -0.061957 0.237529
0.065242 -0.061742 0.236730
0.066005 -0.061405 0.235457
0.066723 -0.061036 0.234064
0.067470 -0.060707 0.232817
0.068147 -0.060326 0.231370
0.068853 -0.059982 0.230064
0.069651 -0.059728 0.229098
0.070511 -0.059534 0.228361
0.071252 -0.059247 0.227262
0.071926 -0.058913 0.225983
0.072771 -0.058728 0.225268
0.073291 -0.058289 0.223580
0.071312 -0.055904 0.214423
0.070883 -0.054784 0.210114
0.071218 -0.054277 0.208155
0.069446 -0.052201 0.200176
0.069698 -0.051681 0.198161
0.070122 -0.051301 0.196681
0.070919 -0.051201 0.196268
0.071018 -0.050605 0.193953
0.071487 -0.050286 0.192693
0.072024 -0.050021 0.191638
0.072569 -0.049769 0.190630
0.073209 -0.049587 0.189885
0.073798 -0.049375 0.189022
0.074445 -0.049207 0.188323
0.075227 -0.049131 0.187973
0.075889 -0.048979 0.187326
0.076542 -0.048826 0.186669
0.077254 -0.048712 0.186160
0.078023 -0.048637 0.185793
0.078837 -0.048591 0.185534
0.079479 -0.048442 0.184872
0.080283 -0.048393 0.184590
0.080980 -0.048282 0.184062
0.081642 -0.048152 0.183459
0.082402 -0.048082 0.183080
0.082846 -0.047832 0.182005
0.083436 -0.047669 0.181260
0.084119 -0.047563 0.180722
0.084353 -0.047208 0.179232
0.084959 -0.047066 0.178546
0.085377 -0.046824 0.177474
0.085819 -0.046599 0.176462
0.086352 -0.046427 0.175644
0.086807 -0.046218 0.174676
0.087246 -0.046004 0.173684
0.087640 -0.045771 0.172613
0.088070 -0.045560 0.171619
0.088726 -0.045470 0.171069
0.089301 -0.045340 0.170361
0.089788 -0.045168 0.169488
-1.476104 -0.712867 2.749041
-1.469687 -0.716135 2.765035
-1.469824 -0.722685 2.793594
-1.451055 -0.719976 2.786229
-1.440996 -0.721579 2.795403
-1.437542 -0.726550 2.817514
-1.426109 -0.727545 2.824094
-1.414219 -0.728325 2.829711
-1.405585 -0.730813 2.841851
-1.400182 -0.735046 2.860677
-1.390081 -0.736873 2.870034
-1.380455 -0.738990 2.880416
-1.383478 -0.821730 3.220313
-1.387386 -0.833182 3.266383
-1.377963 -0.836796 3.281658
-1.372829 -0.843126 3.307508
-1.364222 -0.847445 3.325392
-1.353169 -0.850327 3.337565
-1.338214 -0.850798 3.340189
-1.324420 -0.852027 3.345716
-1.307593 -0.851312 3.343529
-1.293260 -0.852223 3.347656
-1.280334 -0.854097 3.355492
-1.266755 -0.855577 3.361713
-1.251194 -0.855739 3.362687
-1.250594 -0.866270 3.404345
-1.242574 -0.871867 3.426554
-1.232724 -0.876312 3.444173
-0.034093 -0.055745 0.217402
-0.033091 -0.055796 0.217543
-0.031485 -0.054799 0.213603
-0.030705 -0.055222 0.215198
-0.032413 -0.062452 0.243258
-0.031127 -0.062193 0.242193
-0.029656 -0.061530 0.239554
-0.027373 -0.059062 0.229894
-0.026062 -0.058574 0.227944
-0.024841 -0.058254 0.226650
-0.023874 -0.058529 0.227671
-0.022894 -0.058796 0.228665
-0.021890 -0.059027 0.229516
-0.020828 -0.059114 0.229811
-0.019828 -0.059400 0.230878
-0.018824 -0.059705 0.232025
-0.017723 -0.059721 0.232043
-0.016736 -0.060150 0.233673
-0.015641 -0.060225 0.233929
-0.014552 -0.060338 0.234330
-0.013470 -0.060501 0.234931
-0.012368 -0.060592 0.235252
-0.011269 -0.060721 0.235721
-0.010172 -0.060893 0.236359
-0.009083 -0.061155 0.237350
-0.007984 -0.061419 0.238348
-0.006864 -0.061589 0.238985
-0.005744 -0.061812 0.239831
-0.004606 -0.061914 0.240207
-0.003466 -0.062068 0.240787
-0.002326 -0.062336 0.241811
-0.001175 -0.062563 0.242676
-0.000015 -0.062833 0.243714
0.001150 -0.062823 0.243666
0.002321 -0.062989 0.244301
0.003499 -0.063180 0.245038
0.004683 -0.063344 0.245669
0.005870 -0.063479 0.246195
0.007066 -0.063646 0.246843
0.008263 -0.063776 0.247350
0.009467 -0.063920 0.247911
0.010666 -0.064003 0.248241
0.011870 -0.064093 0.248599
0.013086 -0.064227 0.249130
0.014319 -0.064414 0.249870
0.015529 -0.064478 0.250133
0.016738 -0.064531 0.250356
0.017980 -0.064690 0.250990
0.019187 -0.064713 0.251102
0.020420 -0.064817 0.251527
0.021647 -0.064890 0.251834
0.022852 -0.064894 0.251877
0.024108 -0.065033 0.252445
0.025327 -0.065067 0.252605
0.026568 -0.065148 0.252949
0.027783 -0.065163 0.253038
0.028992 -0.065162 0.253071
0.030321 -0.065421 0.254113
0.032309 -0.067027 0.260386
0.033688 -0.067296 0.261469
0.034791 -0.067016 0.260420
0.035767 -0.066517 0.258524
0.036765 -0.066092 0.256912
0.037713 -0.065607 0.255068
0.038933 -0.065611 0.255126
0.039970 -0.065315 0.254018
0.040982 -0.064998 0.252828
0.041994 -0.064697 0.251703
0.043013 -0.064424 0.250683
0.044120 -0.064294 0.250223
0.045228 -0.064173 0.249797
0.046195 -0.063863 0.248635
0.047243 -0.063677 0.247955
0.048299 -0.063511 0.247351
0.049412 -0.063426 0.247063
0.050429 -0.063224 0.246320
0.051491 -0.063087 0.245829
0.052583 -0.062991 0.245500
0.053596 -0.062808 0.244827
0.054656 -0.062686 0.244394
0.055664 -0.062511 0.243750
0.056689 -0.062361 0.243208
0.057698 -0.062199 0.242614
0.058709 -0.062047 0.242059
0.059761 -0.061943 0.241686
0.060762 -0.061791 0.241130
0.061737 -0.061618 0.240489
0.062619 -0.061361 0.239516
0.063644 -0.061250 0.239113
0.064588 -0.061067 0.238425
0.065430 -0.060795 0.237389
0.066259 -0.060521 0.236343
0.066832 -0.060025 0.234429
0.067623 -0.059739 0.233330
0.068375 -0.059428 0.232131
0.068896 -0.058929 0.230197
0.069567 -0.058572 0.228812
0.070426 -0.058382 0.228078
0.071251 -0.058169 0.227254
0.071440 -0.057453 0.224457
0.071592 -0.056727 0.221623
0.071105 -0.055523 0.216917
0.071011 -0.054657 0.213524
0.071159 -0.053998 0.210942
0.071079 -0.053187 0.207762
0.069790 -0.051506 0.201180
0.070124 -0.051052 0.199389
0.070114 -0.050363 0.196675
0.070309 -0.049838 0.194598
0.071058 -0.049713 0.194084
0.071483 -0.049369 0.192706
0.071816 -0.048970 0.191112
0.072264 -0.048659 0.189858
0.072990 -0.048540 0.189348
0.073707 -0.048418 0.188826
0.074382 -0.048272 0.188202
0.075107 -0.048161 0.187713
0.075860 -0.048070 0.187296
0.076623 -0.047989 0.186911
0.077365 -0.047896 0.186477
0.078116 -0.047810 0.186064
0.078859 -0.047721 0.185638
0.079634 -0.047654 0.185289
0.080225 -0.047479 0.184514
0.080969 -0.047398 0.184099
0.081740 -0.047334 0.183744
0.082276 -0.047136 0.182866
0.082928 -0.047009 0.182255
0.083391 -0.046778 0.181236
0.084023 -0.046645 0.180592
0.084519 -0.046441 0.179663
0.084945 -0.046203 0.178598
0.085515 -0.046047 0.177845
0.085660 -0.045667 0.176222
0.086207 -0.045507 0.175440
0.086653 -0.045298 0.174461
0.087072 -0.045078 0.173435
0.087422 -0.044827 0.172284
0.087779 -0.044585 0.171155
0.088579 -0.044569 0.170892
0.089016 -0.044374 0.169928
0.089486 -0.044198 0.169033
-1.482266 -0.702558 2.762163
-1.470548 -0.703256 2.768242
-1.463914 -0.706421 2.783897
-1.448707 -0.705469 2.783195
-1.439388 -0.707396 2.793707
-1.430063 -0.709355 2.804228
-1.422977 -0.712474 2.819217
-1.413615 -0.714501 2.829780
-1.402733 -0.715793 2.837311
-1.399661 -0.721135 2.860795
-1.396221 -0.726390 2.883851
-1.386837 -0.728627 2.894829
-1.374821 -0.729512 2.900332
-1.379606 -0.804219 3.212004
-1.389528 -0.818977 3.272096
-1.380699 -0.822892 3.288799
-1.375897 -0.829323 3.315484
-1.367961 -0.833992 3.335049
-1.356315 -0.836482 3.345822
-1.341865 -0.837281 3.349757
-1.326256 -0.837368 3.350761
-1.310828 -0.837574 3.352165
-1.297325 -0.839030 3.358499
-1.282379 -0.839578 3.361130
-1.270715 -0.842316 3.372456
-1.265442 -0.849414 3.401174
-1.251199 -0.850596 3.406143
-1.243779 -0.856508 3.429989
-0.034681 -0.054018 0.214625
-0.033694 -0.054068 0.214769
-0.033015 -0.054632 0.216955
-0.031745 -0.054222 0.215272
-0.030752 -0.054276 0.215432
-0.033339 -0.060868 0.241533
-0.032217 -0.060918 0.241673
-0.031176 -0.061130 0.242457
-0.028074 -0.057162 0.226667
-0.026952 -0.057070 0.226249
-0.025896 -0.057118 0.226386
-0.024957 -0.057435 0.227594
-0.023934 -0.057582 0.228126
-0.022931 -0.057793 0.228914
-0.021941 -0.058058 0.229919
-0.020856 -0.058090 0.230000
-0.019816 -0.058255 0.230608
-0.018794 -0.058497 0.231525
-0.017720 -0.058598 0.231882
-0.016711 -0.058939 0.233192
-0.015656 -0.059156 0.234013
-0.014579 -0.059319 0.234621
-0.013492 -0.059464 0.235160
-0.012413 -0.059672 0.235950
-0.011313 -0.059816 0.236486
-0.010209 -0.059964 0.237045
-0.009102 -0.060131 0.237675
-0.007992 -0.060323 0.238409
-0.006883 -0.060584 0.239416
-0.005753 -0.060740 0.240014
-0.004615 -0.060860 0.240467
-0.003475 -0.061013 0.241055
-0.002328 -0.061178 0.241689
-0.001176 -0.061329 0.242273
-0.000017 -0.061425 0.242643
0.001146 -0.061605 0.243343
0.002320 -0.061869 0.244379
0.003500 -0.062061 0.245133
0.004690 -0.062306 0.246097
0.005879 -0.062428 0.246579
0.007074 -0.062567 0.247127
0.008284 -0.062778 0.247967
0.009502 -0.062985 0.248788
0.010707 -0.063077 0.249159
0.011911 -0.063138 0.249411
0.013134 -0.063280 0.249983
0.014344 -0.063345 0.250254
0.015568 -0.063454 0.250698
0.016796 -0.063561 0.251140
0.018021 -0.063645 0.251493
0.019267 -0.063789 0.252084
0.020489 -0.063840 0.252305
0.021733 -0.063950 0.252766
0.022962 -0.064006 0.253016
0.024192 -0.064058 0.253252
0.025430 -0.064127 0.253553
0.026624 -0.064082 0.253407
0.027859 -0.064136 0.253654
0.029086 -0.064167 0.253813
0.030311 -0.064191 0.253945
0.032452 -0.066080 0.261455
0.033706 -0.066090 0.261533
0.034755 -0.065710 0.260074
0.035857 -0.065453 0.259097
0.036835 -0.064994 0.257323
0.037774 -0.064499 0.255404
0.038988 -0.064490 0.255415
0.040106 -0.064326 0.254810
0.040996 -0.063818 0.252843
0.041956 -0.063444 0.251407
0.043089 -0.063345 0.251061
0.044225 -0.063256 0.250753
0.045287 -0.063069 0.250057
0.046324 -0.062857 0.249265
0.047292 -0.062565 0.248151
0.048502 -0.062599 0.248334
0.049614 -0.062507 0.248015
0.050639 -0.062313 0.247291
0.051722 -0.062198 0.246879
0.052750 -0.062023 0.246229
0.053747 -0.061821 0.245470
0.054667 -0.061539 0.244396
0.055702 -0.061397 0.243872
0.056715 -0.061235 0.243273
0.057752 -0.061106 0.242801
0.058742 -0.060934 0.242154
0.059790 -0.060827 0.241769
0.060796 -0.060682 0.241229
0.061698 -0.060441 0.240305
0.062666 -0.060271 0.239666
0.063529 -0.060008 0.238652
0.064543 -0.059896 0.238234
0.065431 -0.059671 0.237369
0.066150 -0.059303 0.235930
0.066839 -0.058921 0.234436
0.067445 -0.058480 0.232700
0.068324 -0.058285 0.231943
0.068943 -0.057878 0.230343
0.069580 -0.057499 0.228847
0.070301 -0.057200 0.227666
0.071085 -0.056960 0.226721
0.071455 -0.056401 0.224503
0.071523 -0.055623 0.221408
0.070284 -0.053867 0.214415
0.070289 -0.053100 0.211359
0.069882 -0.052047 0.207163
0.070924 -0.052089 0.207319
0.069797 -0.050558 0.201211
0.070040 -0.050047 0.199162
0.070299 -0.049562 0.197212
0.070371 -0.048958 0.194788
0.071024 -0.048771 0.194014
0.071550 -0.048501 0.192911
0.071831 -0.048074 0.191178
0.072091 -0.047644 0.189429
0.072927 -0.047601 0.189217
0.073666 -0.047495 0.188751
0.074272 -0.047308 0.187957
0.075055 -0.047237 0.187619
0.075794 -0.047140 0.187176
0.076518 -0.047036 0.186697
0.077340 -0.046994 0.186461
0.078107 -0.046920 0.186092
0.078875 -0.046848 0.185727
0.079613 -0.046759 0.185292
0.080335 -0.046664 0.184823
0.081141 -0.046619 0.184549
0.081914 -0.046556 0.184196
0.082603 -0.046447 0.183657
0.083175 -0.046276 0.182866
0.083689 -0.046076 0.181952
0.084182 -0.045869 0.181006
0.084548 -0.045597 0.179803
0.084987 -0.045370 0.178765
0.085198 -0.045027 0.177268
0.085458 -0.044716 0.175891
0.085856 -0.044483 0.174812
0.086377 -0.044318 0.173995
0.086752 -0.044081 0.172891
0.087261 -0.043916 0.172062
0.087715 -0.043728 0.171130
0.088189 -0.043552 0.170242
0.088884 -0.043488 0.169783
0.089420 -0.043348 0.169018
-1.477851 -0.687220 2.755517
-1.469225 -0.689337 2.767280
-1.462540 -0.692412 2.782763
-1.446151 -0.690909 2.779705
-1.437014 -0.692875 2.790469
-1.426502 -0.694209 2.798565
-1.418306 -0.696706 2.811232
-1.409107 -0.698755 2.821977
-1.399387 -0.700582 2.831718
-1.388924 -0.702071 2.839978
-1.383620 -0.706222 2.858909
-1.377540 -0.710056 2.876465
-1.364205 -0.710190 2.878930
-1.412779 -0.807981 3.289918
-1.399179 -0.809069 3.295458
-1.382468 -0.808363 3.293602
-1.375007 -0.813111 3.313884
-1.369318 -0.819029 3.338861
-1.356805 -0.820957 3.347493
-1.342120 -0.821600 3.350811
-1.327179 -0.822101 3.353467
-1.311864 -0.822380 3.355146
-1.291384 -0.819389 3.343405
-1.283792 -0.824604 3.365077
-1.268657 -0.825045 3.367200
-0.034399 -0.052562 0.212789
-0.034027 -0.053567 0.216799
-0.033105 -0.053742 0.217451
-0.032120 -0.053823 0.217723
-0.031172 -0.053973 0.218273
-0.030569 -0.054753 0.221371
-0.029582 -0.054875 0.221807
-0.028584 -0.054984 0.222195
-0.027748 -0.055427 0.223930
-0.026941 -0.055965 0.226050
-0.026019 -0.056298 0.227344
-0.024980 -0.056397 0.227691
-0.023993 -0.056628 0.228575
-0.023005 -0.056877 0.229531
-0.021939 -0.056952 0.229783
-0.020921 -0.057164 0.230591
-0.019870 -0.057302 0.231106
-0.018805 -0.057418 0.231531
-0.017768 -0.057638 0.232373
-0.016708 -0.057806 0.233011
-0.015677 -0.058109 0.234192
-0.014606 -0.058295 0.234905
-0.013503 -0.058378 0.235207
-0.012421 -0.058571 0.235948
-0.011316 -0.058689 0.236392
-0.010216 -0.058859 0.237047
-0.009117 -0.059075 0.237889
-0.008000 -0.059222 0.238458
-0.006880 -0.059397 0.239139
-0.005754 -0.059571 0.239815
-0.004617 -0.059696 0.240299
-0.003474 -0.059802 0.240710
-0.002329 -0.059960 0.241329
-0.001179 -0.060185 0.242220
-0.000020 -0.060444 0.243251
0.001146 -0.060581 0.243794
0.002320 -0.060783 0.244600
0.003500 -0.060940 0.245225
0.004687 -0.061119 0.245941
0.005876 -0.061241 0.246434
0.007068 -0.061349 0.246871
0.008261 -0.061435 0.247220
0.009477 -0.061650 0.248092
0.010694 -0.061824 0.248797
0.011915 -0.061981 0.249439
0.013133 -0.062093 0.249903
0.014362 -0.062235 0.250490
0.015583 -0.062327 0.250878
0.016822 -0.062469 0.251466
0.018052 -0.062559 0.251848
0.019282 -0.062642 0.252207
0.020537 -0.062787 0.252815
0.021760 -0.062826 0.252998
0.023020 -0.062962 0.253573
0.024248 -0.063000 0.253756
0.025480 -0.063044 0.253967
0.026733 -0.063136 0.254367
0.027927 -0.063083 0.254192
0.029159 -0.063119 0.254371
0.030437 -0.063246 0.254922
0.032229 -0.064392 0.259579
0.033661 -0.064760 0.261105
0.034904 -0.064749 0.261103
0.035771 -0.064068 0.258400
0.036960 -0.063988 0.258120
0.037911 -0.063514 0.256256
0.039147 -0.063534 0.256380
0.040249 -0.063340 0.255644
0.041220 -0.062959 0.254153
0.042144 -0.062529 0.252466
0.043132 -0.062214 0.251242
0.044332 -0.062216 0.251297
0.045416 -0.062058 0.250707
0.046424 -0.061807 0.249740
0.047493 -0.061647 0.249143
0.048572 -0.061509 0.248632
0.049651 -0.061376 0.248143
0.050691 -0.061202 0.247488
0.051712 -0.061015 0.246779
0.052738 -0.060840 0.246119
0.053744 -0.060651 0.245402
0.054772 -0.060495 0.244814
0.055811 -0.060357 0.244301
0.056843 -0.060216 0.243775
0.057853 -0.060060 0.243183
0.058827 -0.059871 0.242463
0.059889 -0.059779 0.242129
0.060844 -0.059585 0.241382
0.061724 -0.059326 0.240369
0.062723 -0.059188 0.239848
0.063663 -0.059002 0.239127
0.064530 -0.058755 0.238158
0.065425 -0.058541 0.237323
0.066170 -0.058203 0.235981
0.066954 -0.057910 0.234818
0.067781 -0.057663 0.233840
0.068409 -0.057257 0.232217
0.068989 -0.056824 0.230481
0.069612 -0.056441 0.228941
0.070250 -0.056080 0.227492
0.070880 -0.055725 0.226062
0.071579 -0.055433 0.224885
0.070436 -0.053745 0.218043
0.070247 -0.052823 0.214303
0.070973 -0.052605 0.213418
0.071282 -0.052089 0.211321
0.069037 -0.049747 0.201810
0.069370 -0.049301 0.199990
0.069749 -0.048900 0.198349
0.070335 -0.048652 0.197326
0.070672 -0.048240 0.195637
0.070960 -0.047807 0.193856
0.071371 -0.047467 0.192447
0.071626 -0.047033 0.190656
0.072362 -0.046921 0.190169
0.073011 -0.046757 0.189462
0.073655 -0.046593 0.188754
0.074369 -0.046476 0.188235
0.075079 -0.046361 0.187716
0.075850 -0.046285 0.187349
0.076594 -0.046195 0.186922
0.077322 -0.046097 0.186460
0.078122 -0.046044 0.186173
0.078859 -0.045955 0.185737
0.079608 -0.045875 0.185332
0.080354 -0.045795 0.184922
0.081013 -0.045668 0.184312
0.081765 -0.045595 0.183920
0.082469 -0.045497 0.183420
0.082944 -0.045277 0.182420
0.083386 -0.045043 0.181361
0.083929 -0.044868 0.180533
0.084013 -0.044454 0.178736
0.084664 -0.044345 0.178162
0.085081 -0.044117 0.177101
0.085423 -0.043855 0.175898
0.085808 -0.043620 0.174800
0.086190 -0.043388 0.173705
0.086663 -0.043205 0.172803
0.087110 -0.043013 0.171856
0.087477 -0.042786 0.170761
0.088054 -0.042665 0.170082
0.088598 -0.042530 0.169339
0.089015 -0.042338 0.168359
-1.479823 -0.674875 2.760722
-1.462641 -0.673023 2.756346
-1.457143 -0.676562 2.773913
-1.448817 -0.678843 2.786199
-1.433225 -0.677729 2.784424
-1.431976 -0.683442 2.810575
-1.420259 -0.684220 2.816326
-1.410391 -0.685912 2.825724
-1.400537 -0.687644 2.835173
-1.396646 -0.692368 2.856854
-1.384827 -0.693215 2.862443
-1.378413 -0.696812 2.879285
-1.377319 -0.764145 3.172083
-1.404211 -0.787601 3.270603
-1.390712 -0.788671 3.276109
-1.385809 -0.794696 3.302114
-1.378720 -0.799591 3.323346
-1.369125 -0.803128 3.338861
-1.357976 -0.805826 3.350809
-1.343260 -0.806446 3.354039
-1.328042 -0.806776 3.355988
-1.313758 -0.807690 3.360287
-1.295675 -0.806263 3.354773
-1.281250 -0.807106 3.358631
-1.266070 -0.807488 3.360506
-0.034559 -0.051787 0.213696
-0.034124 -0.052682 0.217329
-0.033360 -0.053110 0.219036
-0.032208 -0.052928 0.218225
-0.031229 -0.053028 0.218580
-0.030317 -0.053251 0.219442
-0.029772 -0.054160 0.223131
-0.028931 -0.054576 0.224790
-0.028162 -0.055167 0.227165
-0.027060 -0.055126 0.226941
-0.026036 -0.055246 0.227384
-0.025054 -0.055470 0.228254
-0.024025 -0.055605 0.228758
-0.023012 -0.055794 0.229483
-0.021964 -0.055912 0.229922
-0.020914 -0.056037 0.230387
-0.019869 -0.056191 0.230973
-0.018804 -0.056302 0.231386
-0.017783 -0.056566 0.232429
-0.016731 -0.056762 0.233193
-0.015731 -0.057175 0.234849
-0.014636 -0.057281 0.235249
-0.013528 -0.057349 0.235491
-0.012448 -0.057556 0.236308
-0.011345 -0.057690 0.236823
-0.010240 -0.057844 0.237425
-0.009130 -0.058004 0.238055
-0.008021 -0.058216 0.238900
-0.006892 -0.058332 0.239349
-0.005764 -0.058504 0.240032
-0.004625 -0.058616 0.240474
-0.003483 -0.058760 0.241047
-0.002336 -0.058935 0.241747
-0.001185 -0.059207 0.242851
-0.000023 -0.059421 0.243715
0.001148 -0.059630 0.244563
0.002322 -0.059712 0.244893
0.003502 -0.059848 0.245444
0.004689 -0.060000 0.246067
0.005876 -0.060095 0.246456
0.007072 -0.060229 0.247009
0.008294 -0.060518 0.248195
0.009508 -0.060681 0.248872
0.010722 -0.060808 0.249402
0.011919 -0.060823 0.249472
0.013141 -0.060946 0.249989
0.014365 -0.061061 0.250476
0.015594 -0.061179 0.250978
0.016824 -0.061283 0.251423
0.018070 -0.061425 0.252027
0.019311 -0.061534 0.252497
0.020540 -0.061597 0.252783
0.021804 -0.061749 0.253435
0.023042 -0.061814 0.253731
0.024274 -0.061861 0.253952
0.025545 -0.061995 0.254535
0.026756 -0.061979 0.254504
0.027982 -0.061997 0.254616
0.029224 -0.062047 0.254855
0.030431 -0.062023 0.254797
0.031832 -0.062379 0.256298
0.033427 -0.063076 0.259206
0.034634 -0.063016 0.259003
0.035751 -0.062804 0.258177
0.036926 -0.062703 0.257807
0.038091 -0.062591 0.257395
0.039224 -0.062437 0.256809
0.040227 -0.062090 0.255429
0.041152 -0.061648 0.253659
0.042113 -0.061283 0.252207
0.043267 -0.061211 0.251959
0.044355 -0.061053 0.251359
0.045453 -0.060915 0.250841
0.046568 -0.060807 0.250447
0.047597 -0.060596 0.249628
0.048678 -0.060459 0.249111
0.049851 -0.060440 0.249085
0.050845 -0.060209 0.248183
0.051717 -0.059848 0.246745
0.052766 -0.059704 0.246197
0.053805 -0.059555 0.245630
0.054809 -0.059373 0.244931
0.055813 -0.059200 0.244260
0.056820 -0.059036 0.243632
0.057860 -0.058913 0.243169
0.058857 -0.058751 0.242544
0.059903 -0.058644 0.242145
0.060861 -0.058457 0.241413
0.061831 -0.058287 0.240750
0.062720 -0.058049 0.239805
0.063655 -0.057861 0.239066
0.064566 -0.057657 0.238259
0.065328 -0.057331 0.236945
0.066291 -0.057189 0.236386
0.066847 -0.056706 0.234421
0.067587 -0.056392 0.233149
0.068387 -0.056138 0.232123
0.069026 -0.055762 0.230588
0.069676 -0.055407 0.229137
0.070190 -0.054956 0.227289
0.070966 -0.054720 0.226327
0.071714 -0.054470 0.225305
0.072425 -0.054200 0.224194
0.073392 -0.054127 0.223897
0.069442 -0.050481 0.208815
0.069035 -0.049477 0.204662
0.068953 -0.048731 0.201571
0.069660 -0.048556 0.200836
0.069845 -0.048026 0.198631
0.070331 -0.047714 0.197327
0.070510 -0.047205 0.195205
0.070909 -0.046854 0.193732
0.071514 -0.046648 0.192854
0.071899 -0.046304 0.191402
0.072484 -0.046096 0.190512
0.073105 -0.045917 0.189731
0.073767 -0.045767 0.189070
0.074524 -0.045678 0.188659
0.075263 -0.045581 0.188208
0.075954 -0.045457 0.187643
0.076736 -0.045390 0.187306
0.077357 -0.045231 0.186585
0.078094 -0.045142 0.186148
0.078854 -0.045069 0.185771
0.079587 -0.044981 0.185330
0.080257 -0.044860 0.184748
0.080932 -0.044745 0.184182
0.081669 -0.044666 0.183761
0.082299 -0.044531 0.183103
0.082789 -0.044324 0.182142
0.083276 -0.044119 0.181186
0.083491 -0.043776 0.179658
0.083944 -0.043563 0.178658
0.084413 -0.043363 0.177705
0.084858 -0.043155 0.176712
0.085258 -0.042928 0.175636
0.085732 -0.042743 0.174724
0.086184 -0.042551 0.173776
0.086556 -0.042322 0.172675
0.087009 -0.042137 0.171746
0.087447 -0.041949 0.170795
0.088199 -0.041914 0.170457
0.088801 -0.041808 0.169826
0.089283 -0.041648 0.168966
-1.470421 -0.657411 2.744644
-1.461291 -0.659190 2.755213
-1.450211 -0.660113 2.762077
-1.437157 -0.660148 2.765083
-1.430128 -0.662977 2.779669
-1.419368 -0.664114 2.787043
-1.421050 -0.671148 2.819070
-1.406757 -0.670702 2.819570
-1.398658 -0.673228 2.832453
-1.396535 -0.678708 2.857670
-1.397968 -0.686042 2.890614
-1.394345 -0.691015 2.913532
-1.385276 -0.753455 3.191039
-1.390206 -0.764421 3.238579
-1.403084 -0.780050 3.305817
-1.386637 -0.779543 3.304605
-1.380272 -0.784757 3.327563
-1.373392 -0.789797 3.349704
-1.360268 -0.791320 3.356858
-1.346994 -0.792793 3.363716
-1.333127 -0.793948 3.369149
-1.317690 -0.794184 3.370613
-1.301777 -0.794138 3.370800
-1.287771 -0.795268 3.375910
-0.039468 -0.053283 0.224384
-0.038442 -0.053338 0.224549
-0.037413 -0.053391 0.224710
-0.034384 -0.050510 0.212525
-0.033559 -0.050790 0.213642
-0.033471 -0.052238 0.219671
-0.032504 -0.052362 0.220136
-0.031542 -0.052503 0.220667
-0.030585 -0.052664 0.221286
-0.029848 -0.053227 0.223593
-0.029214 -0.054024 0.226881
-0.028196 -0.054143 0.227325
-0.027101 -0.054120 0.227174
-0.026102 -0.054294 0.227847
-0.025078 -0.054427 0.228353
-0.024054 -0.054574 0.228917
-0.023005 -0.054677 0.229299
-0.021999 -0.054896 0.230166
-0.020931 -0.054975 0.230448
-0.019867 -0.055074 0.230818
-0.018822 -0.055242 0.231477
-0.017763 -0.055387 0.232039
-0.016759 -0.055734 0.233450
-0.015749 -0.056110 0.234986
-0.014653 -0.056213 0.235378
-0.013552 -0.056313 0.235762
-0.012464 -0.056489 0.236462
-0.011364 -0.056641 0.237067
-0.010259 -0.056799 0.237696
-0.009147 -0.056958 0.238334
-0.008025 -0.057083 0.238829
-0.006909 -0.057305 0.239735
-0.005772 -0.057411 0.240157
-0.004633 -0.057534 0.240649
-0.003491 -0.057706 0.241351
-0.002345 -0.057921 0.242234
-0.001190 -0.058197 0.243373
-0.000025 -0.058305 0.243815
0.001145 -0.058437 0.244355
0.002321 -0.058588 0.244980
0.003500 -0.058681 0.245363
0.004687 -0.058830 0.245984
0.005873 -0.058908 0.246312
0.007066 -0.059014 0.246755
0.008268 -0.059161 0.247377
0.009513 -0.059538 0.248958
0.010746 -0.059761 0.249900
0.011947 -0.059779 0.249988
0.013169 -0.059892 0.250473
0.014399 -0.060017 0.251013
0.015623 -0.060098 0.251366
0.016873 -0.060261 0.252071
0.018104 -0.060343 0.252434
0.019346 -0.060446 0.252888
0.020582 -0.060516 0.253210
0.021828 -0.060611 0.253632
0.023104 -0.060771 0.254332
0.024320 -0.060768 0.254351
0.025566 -0.060834 0.254661
0.026847 -0.060975 0.255290
0.028081 -0.061000 0.255430
0.029294 -0.060980 0.255387
0.030544 -0.061035 0.255656
0.031805 -0.061108 0.256003
0.033134 -0.061301 0.256855
0.034595 -0.061715 0.258636
0.035866 -0.061773 0.258926
0.036952 -0.061519 0.257908
0.038122 -0.061417 0.257530
0.039255 -0.061263 0.256931
0.040347 -0.061057 0.256117
0.041254 -0.060591 0.254214
0.042280 -0.060321 0.253132
0.043358 -0.060140 0.252422
0.044435 -0.059966 0.251743
0.045537 -0.059833 0.251237
0.046578 -0.059630 0.250438
0.047665 -0.059494 0.249917
0.048737 -0.059346 0.249350
0.049816 -0.059214 0.248847
0.050852 -0.059038 0.248156
0.051888 -0.058871 0.247505
0.052829 -0.058604 0.246437
0.053886 -0.058476 0.245945
0.054907 -0.058314 0.245316
0.055873 -0.058102 0.244474
0.056899 -0.057960 0.243924
0.057850 -0.057749 0.243079
0.058853 -0.057597 0.242486
0.059893 -0.057486 0.242063
0.060817 -0.057270 0.241198
0.061789 -0.057106 0.240550
0.062774 -0.056960 0.239976
0.063531 -0.056616 0.238565
0.064485 -0.056457 0.237930
0.065445 -0.056308 0.237339
0.065947 -0.055777 0.235134
0.066506 -0.055311 0.233200
0.067204 -0.054974 0.231808
0.068171 -0.054864 0.231370
0.068802 -0.054492 0.229824
0.069713 -0.054350 0.229245
0.070380 -0.054024 0.227891
0.071112 -0.053758 0.226782
0.072093 -0.053685 0.226489
0.068337 -0.050139 0.211536
0.068809 -0.049753 0.209913
0.068751 -0.048999 0.206736
0.068978 -0.048468 0.204496
0.068863 -0.047714 0.201311
0.068845 -0.047046 0.198490
0.069129 -0.046602 0.196604
0.070143 -0.046654 0.196811
0.070818 -0.046482 0.196070
0.071119 -0.046072 0.194322
0.071483 -0.045713 0.192784
0.072050 -0.045492 0.191825
0.072722 -0.045341 0.191157
0.073297 -0.045134 0.190252
0.073951 -0.044981 0.189566
0.074568 -0.044809 0.188797
0.075255 -0.044683 0.188218
0.075978 -0.044580 0.187734
0.076662 -0.044458 0.187161
0.077381 -0.044358 0.186680
0.078116 -0.044270 0.186241
0.078786 -0.044147 0.185653
0.079525 -0.044065 0.185231
0.080138 -0.043915 0.184521
0.080751 -0.043770 0.183821
0.081483 -0.043691 0.183396
0.082040 -0.043521 0.182582
0.082437 -0.043270 0.181425
0.083219 -0.043225 0.181123
0.083408 -0.042875 0.179542
0.083783 -0.042628 0.178382
0.084291 -0.042452 0.177517
0.084673 -0.042217 0.176397
0.085315 -0.042115 0.175828
0.085724 -0.041901 0.174785
0.086139 -0.041695 0.173765
0.086580 -0.041504 0.172806
0.086865 -0.041243 0.171547
0.087315 -0.041065 0.170626
0.088217 -0.041100 0.170584
0.088639 -0.040914 0.169611
0.089004 -0.040705 0.168538
-1.465269 -0.641979 2.736431
-1.458964 -0.644949 2.752182
-1.447801 -0.645808 2.758794
-1.436375 -0.646565 2.764836
-1.430711 -0.649954 2.782016
-1.420943 -0.651526 2.791304
-1.420117 -0.657265 2.818349
-1.408438 -0.658045 2.824022
-1.402195 -0.661403 2.840656
-1.397115 -0.665381 2.859858
-1.395813 -0.671255 2.887121
-1.395212 -0.677585 2.916270
-1.386904 -0.680263 2.929611
-1.396896 -0.744545 3.218405
-1.383658 -0.745569 3.223882
-1.386556 -0.755408 3.267395
-1.385060 -0.763047 3.301329
-1.377298 -0.767369 3.320838
-1.367219 -0.770485 3.335049
-1.356586 -0.773358 3.348133
-1.344019 -0.775184 3.356607
-1.330209 -0.776328 3.362054
-1.316363 -0.777479 3.367459
-1.301162 -0.777848 3.369404
-1.286420 -0.778506 3.372529
-0.041093 -0.052935 0.227463
-0.039136 -0.051774 0.222409
-0.038109 -0.051813 0.222514
-0.036723 -0.051354 0.220476
-0.035283 -0.050790 0.217991
-0.033970 -0.050378 0.216163
-0.033380 -0.051048 0.218975
-0.032603 -0.051465 0.220704
-0.031642 -0.051611 0.221269
-0.030803 -0.051973 0.222759
-0.029901 -0.052250 0.223888
-0.029127 -0.052781 0.226101
-0.028210 -0.053081 0.227331
-0.027169 -0.053165 0.227630
-0.026116 -0.053231 0.227858
-0.025112 -0.053406 0.228553
-0.024065 -0.053501 0.228906
-0.023058 -0.053700 0.229706
-0.022015 -0.053829 0.230208
-0.020969 -0.053966 0.230741
-0.019929 -0.054135 0.231419
-0.018863 -0.054248 0.231854
-0.017863 -0.054576 0.233214
-0.016785 -0.054696 0.233682
-0.015706 -0.054826 0.234198
-0.014644 -0.055042 0.235081
-0.013556 -0.055189 0.235671
-0.012468 -0.055363 0.236377
-0.011373 -0.055540 0.237102
-0.010259 -0.055652 0.237546
-0.009149 -0.055812 0.238202
-0.008033 -0.055984 0.238907
-0.006904 -0.056095 0.239357
-0.005778 -0.056296 0.240191
-0.004639 -0.056432 0.240749
-0.003497 -0.056609 0.241487
-0.002346 -0.056738 0.242023
-0.001190 -0.056898 0.242689
-0.000028 -0.057145 0.243734
0.001142 -0.057224 0.244062
0.002318 -0.057393 0.244772
0.003500 -0.057550 0.245439
0.004680 -0.057591 0.245609
0.005875 -0.057766 0.246359
0.007064 -0.057839 0.246670
0.008297 -0.058199 0.248210
0.009480 -0.058156 0.248037
0.010705 -0.058354 0.248887
0.011940 -0.058561 0.249782
0.013163 -0.058677 0.250293
0.014397 -0.058816 0.250900
0.015624 -0.058908 0.251312
0.016891 -0.059129 0.252277
0.018132 -0.059233 0.252742
0.019369 -0.059311 0.253101
0.020620 -0.059423 0.253603
0.021873 -0.059526 0.254072
0.023121 -0.059605 0.254440
0.024374 -0.059687 0.254826
0.025603 -0.059708 0.254947
0.026910 -0.059900 0.255805
0.028130 -0.059889 0.255795
0.029344 -0.059866 0.255738
0.030651 -0.060027 0.256469
0.031861 -0.059995 0.256373
0.033098 -0.060013 0.256496
0.034355 -0.060063 0.256754
0.035585 -0.060065 0.256813
0.036988 -0.060350 0.258079
0.038500 -0.060789 0.260005
0.039441 -0.060325 0.258072
0.040355 -0.059850 0.256093
0.041334 -0.059496 0.254630
0.042397 -0.059281 0.253762
0.043452 -0.059067 0.252898
0.044403 -0.058726 0.251492
0.045461 -0.058540 0.250748
0.046559 -0.058415 0.250267
0.047670 -0.058312 0.249881
0.048725 -0.058147 0.249225
0.049789 -0.057999 0.248647
0.050902 -0.057915 0.248340
0.051897 -0.057704 0.247488
0.052927 -0.057540 0.246836
0.054010 -0.057439 0.246456
0.054950 -0.057194 0.245456
0.055918 -0.056987 0.244620
0.056938 -0.056840 0.244039
0.057899 -0.056643 0.243241
0.058896 -0.056487 0.242618
0.059861 -0.056307 0.241892
0.060890 -0.056192 0.241445
0.061894 -0.056060 0.240920
0.062670 -0.055729 0.239540
0.063654 -0.055592 0.238995
0.064334 -0.055199 0.237341
0.065346 -0.055099 0.236951
0.065727 -0.054480 0.234323
0.066371 -0.054095 0.232701
0.067173 -0.053850 0.231676
0.067725 -0.053416 0.229837
0.068744 -0.053358 0.229614
0.069371 -0.053002 0.228104
0.070064 -0.052707 0.226854
0.070630 -0.052326 0.225236
0.071605 -0.052255 0.224944
0.068737 -0.049423 0.212766
0.069219 -0.049048 0.211158
0.070683 -0.049369 0.212544
0.068004 -0.046827 0.201606
0.068525 -0.046530 0.200326
0.068687 -0.046000 0.198041
0.069364 -0.045825 0.197278
0.070202 -0.045759 0.196986
0.070586 -0.045403 0.195439
0.071017 -0.045086 0.194057
0.071638 -0.044896 0.193218
0.072060 -0.044588 0.191867
0.072690 -0.044415 0.191095
0.073384 -0.044285 0.190501
0.073964 -0.044089 0.189623
0.074630 -0.043949 0.188981
0.075329 -0.043832 0.188431
0.076046 -0.043728 0.187934
0.076696 -0.043588 0.187279
0.077343 -0.043450 0.186624
0.077985 -0.043312 0.185967
0.078755 -0.043247 0.185619
0.079518 -0.043180 0.185258
0.080138 -0.043037 0.184568
0.080789 -0.042914 0.183954
0.081471 -0.042811 0.183419
0.082092 -0.042677 0.182750
0.082560 -0.042468 0.181752
0.083165 -0.042332 0.181063
0.083506 -0.042067 0.179812
0.083646 -0.041707 0.178153
0.084141 -0.041529 0.177266
0.084709 -0.041390 0.176541
0.085201 -0.041218 0.175666
0.085851 -0.041124 0.175118
0.086334 -0.040953 0.174235
0.086659 -0.040711 0.173043
0.087110 -0.040533 0.172115
0.087617 -0.040383 0.171301
0.088292 -0.040313 0.170818
0.088840 -0.040186 0.170088
0.089328 -0.040036 0.169246
-1.476911 -0.633847 2.759537
-1.472039 -0.637422 2.778167
-1.464166 -0.639752 2.791250
-1.446041 -0.637605 2.784660
-1.435231 -0.638674 2.791976
-1.426968 -0.640908 2.804266
-1.419592 -0.643586 2.818390
-1.409945 -0.645276 2.828082
-1.403508 -0.648483 2.844316
-1.400392 -0.653302 2.867527
-1.392122 -0.655788 2.880406
-1.394352 -0.663319 2.915359
-1.387776 -0.666769 2.932299
-1.387386 -0.724351 3.197058
-1.404141 -0.741131 3.272137
-1.390695 -0.742166 3.277640
-1.384969 -0.747391 3.301565
-1.378785 -0.752484 3.324834
-1.368910 -0.755658 3.339546
-1.355009 -0.756658 3.344574
-1.342699 -0.758581 3.353602
-1.328148 -0.759269 3.357097
-1.315481 -0.761064 3.365414
-1.297791 -0.759962 3.360847
-1.287537 -0.763242 3.375590
-0.043965 -0.052705 0.231266
-0.041954 -0.051582 0.226269
-0.041149 -0.051921 0.227686
-0.039292 -0.050915 0.223209
-0.038298 -0.051004 0.223531
-0.037160 -0.050900 0.223010
-0.036102 -0.050903 0.222956
-0.034814 -0.050572 0.221443
-0.033807 -0.050641 0.221682
-0.032799 -0.050714 0.221938
-0.031759 -0.050740 0.221989
-0.030825 -0.050943 0.222814
-0.029980 -0.051314 0.224377
-0.028979 -0.051435 0.224847
-0.028122 -0.051830 0.226511
-0.027144 -0.052025 0.227308
-0.026126 -0.052157 0.227827
-0.025106 -0.052297 0.228380
-0.024093 -0.052464 0.229057
-0.023054 -0.052588 0.229545
-0.022055 -0.052820 0.230505
-0.021010 -0.052961 0.231069
-0.019957 -0.053096 0.231611
-0.018893 -0.053218 0.232096
-0.017856 -0.053434 0.232993
-0.016804 -0.053629 0.233799
-0.015729 -0.053779 0.234411
-0.014665 -0.053987 0.235277
-0.013567 -0.054097 0.235719
-0.012476 -0.054260 0.236393
-0.011371 -0.054384 0.236898
-0.010288 -0.054657 0.238057
-0.009153 -0.054681 0.238131
-0.008036 -0.054843 0.238812
-0.006914 -0.055012 0.239522
-0.005776 -0.055101 0.239886
-0.004641 -0.055274 0.240617
-0.003501 -0.055466 0.241436
-0.002353 -0.055691 0.242397
-0.001196 -0.055913 0.243349
-0.000030 -0.056075 0.244043
0.001141 -0.056166 0.244431
0.002320 -0.056320 0.245096
0.003497 -0.056357 0.245249
0.004694 -0.056619 0.246386
0.005879 -0.056655 0.246545
0.007087 -0.056857 0.247428
0.008304 -0.057071 0.248361
0.009506 -0.057135 0.248648
0.010743 -0.057379 0.249720
0.011965 -0.057498 0.250249
0.013188 -0.057596 0.250691
0.014415 -0.057698 0.251153
0.015652 -0.057818 0.251692
0.016888 -0.057920 0.252157
0.018133 -0.058034 0.252681
0.019392 -0.058177 0.253326
0.020629 -0.058239 0.253627
0.021880 -0.058335 0.254074
0.023140 -0.058442 0.254572
0.024407 -0.058554 0.255093
0.025644 -0.058588 0.255278
0.026960 -0.058790 0.256195
0.028261 -0.058943 0.256902
0.029476 -0.058911 0.256804
0.030723 -0.058944 0.256991
0.031982 -0.058996 0.257259
0.033218 -0.059003 0.257337
0.034427 -0.058964 0.257217
0.035684 -0.059006 0.257448
0.036888 -0.058961 0.257300
0.038110 -0.058947 0.257290
0.039347 -0.058956 0.257382
0.040324 -0.058586 0.255819
0.041510 -0.058533 0.255643
0.042647 -0.058416 0.255184
0.043523 -0.057958 0.253238
0.044469 -0.057614 0.251790
0.045550 -0.057460 0.251173
0.046643 -0.057328 0.250652
0.047720 -0.057182 0.250072
0.048831 -0.057085 0.249701
0.049779 -0.056807 0.248539
0.050866 -0.056695 0.248104
0.051956 -0.056591 0.247708
0.052958 -0.056400 0.246923
0.053997 -0.056254 0.246342
0.054923 -0.056000 0.245279
0.055947 -0.055854 0.244693
0.056945 -0.055688 0.244020
0.057936 -0.055523 0.243347
0.058964 -0.055399 0.242854
0.059940 -0.055231 0.242165
0.060940 -0.055091 0.241602
0.061931 -0.054949 0.241024
0.062729 -0.054644 0.239729
0.063506 -0.054331 0.238402
0.064412 -0.054138 0.237597
0.065182 -0.053840 0.236324
0.065865 -0.053480 0.234784
0.066234 -0.052883 0.232196
0.066944 -0.052572 0.230863
0.067680 -0.052291 0.229661
0.068615 -0.052171 0.229161
0.069541 -0.052048 0.228645
0.069483 -0.051203 0.224958
0.070701 -0.051310 0.225447
0.068225 -0.048773 0.214318
0.069115 -0.048681 0.213928
0.069839 -0.048478 0.213045
0.068846 -0.047104 0.207017
0.068505 -0.046210 0.203090
0.068916 -0.045841 0.201470
0.069264 -0.045440 0.199706
0.069705 -0.045110 0.198252
0.070518 -0.045027 0.197878
0.071072 -0.044783 0.196794
0.071438 -0.044428 0.195219
0.071900 -0.044141 0.193939
0.072364 -0.043863 0.192693
0.072865 -0.043613 0.191571
0.073551 -0.043480 0.190954
0.074103 -0.043271 0.190004
0.074757 -0.043126 0.189327
0.075455 -0.043010 0.188775
0.075979 -0.042798 0.187798
0.076673 -0.042686 0.187253
0.077366 -0.042575 0.186713
0.078000 -0.042436 0.186039
0.078774 -0.042374 0.185703
0.079496 -0.042287 0.185246
0.080174 -0.042178 0.184693
0.080769 -0.042028 0.183955
0.081415 -0.041908 0.183341
0.082106 -0.041813 0.182832
0.082647 -0.041645 0.181995
0.083135 -0.041454 0.181053
0.083673 -0.041291 0.180232
0.083792 -0.040927 0.178524
0.084168 -0.040695 0.177387
0.084761 -0.040570 0.176715
0.085331 -0.040438 0.176001
0.085770 -0.040247 0.175024
0.086254 -0.040080 0.174148
0.086673 -0.039887 0.173148
0.087040 -0.039673 0.172055
0.087620 -0.039560 0.171389
0.088372 -0.039526 0.171059
0.088880 -0.039384 0.170254
0.089488 -0.039289 0.169641
-1.479171 -0.621565 2.765075
-1.472735 -0.624411 2.780752
-1.464879 -0.626702 2.793835
-1.452897 -0.627255 2.799041
-1.445477 -0.629805 2.813042
-1.435802 -0.631413 2.822715
-1.424885 -0.632500 2.829944
-1.419810 -0.636226 2.848876
-1.409421 -0.637621 2.857261
-1.400125 -0.639542 2.867901
-1.397409 -0.644536 2.892229
-1.395201 -0.649866 2.917981
-1.413236 -0.722441 3.257162
-1.394523 -0.720686 3.250221
-1.393446 -0.728107 3.284582
-1.389831 -0.734354 3.313576
-1.377545 -0.736110 3.322227
-1.367596 -0.739169 3.336684
-1.355343 -0.741041 3.345701
-1.343205 -0.743021 3.355130
-1.326501 -0.742492 3.353158
-1.315610 -0.745245 3.365928
-1.299963 -0.745338 3.366618
-1.287634 -0.747360 3.375951
-0.045303 -0.051878 0.232488
-0.044024 -0.051671 0.231488
-0.042767 -0.051481 0.230566
-0.040677 -0.050252 0.224987
-0.039343 -0.049915 0.223411
-0.038207 -0.049819 0.222913
-0.037250 -0.049957 0.223461
-0.036088 -0.049819 0.222778
-0.034920 -0.049664 0.222021
-0.033844 -0.049636 0.221828
-0.032804 -0.049660 0.221871
-0.031796 -0.049737 0.222150
-0.030914 -0.050021 0.223357
-0.029955 -0.050198 0.224084
-0.029032 -0.050451 0.225151
-0.028080 -0.050669 0.226065
-0.027097 -0.050848 0.226807
-0.026096 -0.051007 0.227458
-0.025068 -0.051124 0.227922
-0.024073 -0.051321 0.228746
-0.023042 -0.051460 0.229309
-0.022050 -0.051702 0.230333
-0.021041 -0.051928 0.231291
-0.019984 -0.052052 0.231794
-0.018939 -0.052226 0.232520
-0.017935 -0.052544 0.233889
-0.016861 -0.052682 0.234462
-0.015770 -0.052785 0.234876
-0.014701 -0.052982 0.235713
-0.013599 -0.053084 0.236129
-0.012491 -0.053182 0.236525
-0.011382 -0.053292 0.236981
-0.010271 -0.053413 0.237486
-0.009156 -0.053546 0.238046
-0.008027 -0.053624 0.238367
-0.006907 -0.053793 0.239091
-0.005783 -0.053995 0.239966
-0.004651 -0.054204 0.240876
-0.003508 -0.054392 0.241689
-0.002356 -0.054529 0.242286
-0.001197 -0.054651 0.242811
-0.000032 -0.054771 0.243331
0.001137 -0.054888 0.243845
0.002315 -0.055083 0.244701
0.003498 -0.055232 0.245359
0.004681 -0.055313 0.245719
0.005872 -0.055427 0.246226
0.007069 -0.055555 0.246798
0.008277 -0.055716 0.247518
0.009493 -0.055886 0.248281
0.010728 -0.056112 0.249296
0.011979 -0.056371 0.250459
0.013221 -0.056547 0.251257
0.014444 -0.056616 0.251577
0.015678 -0.056715 0.252036
0.016923 -0.056837 0.252601
0.018172 -0.056954 0.253145
0.019426 -0.057069 0.253683
0.020669 -0.057143 0.254040
0.021903 -0.057185 0.254260
0.023165 -0.057290 0.254759
0.024441 -0.057419 0.255366
0.025666 -0.057420 0.255410
0.026940 -0.057527 0.255923
0.028235 -0.057666 0.256582
0.029491 -0.057716 0.256849
0.030777 -0.057820 0.257356
0.032017 -0.057834 0.257463
0.033278 -0.057881 0.257719
0.034538 -0.057923 0.257957
0.035799 -0.057965 0.258193
0.037034 -0.057964 0.258239
0.038245 -0.057925 0.258119
0.039417 -0.057832 0.257759
0.040605 -0.057767 0.257526
0.041843 -0.057775 0.257616
0.042993 -0.057664 0.257178
0.043880 -0.057216 0.255238
0.044681 -0.056684 0.252922
0.045584 -0.056305 0.251288
0.046620 -0.056107 0.250458
0.047822 -0.056112 0.250541
0.048877 -0.055950 0.249873
0.049875 -0.055730 0.248949
0.050937 -0.055592 0.248388
0.052035 -0.055497 0.248024
0.053063 -0.055335 0.247355
0.054121 -0.055209 0.246848
0.055072 -0.054983 0.245892
0.055981 -0.054724 0.244790
0.056990 -0.054572 0.244161
0.058045 -0.054469 0.243755
0.059007 -0.054285 0.242982
0.059999 -0.054134 0.242359
0.061016 -0.054011 0.241860
0.061929 -0.053803 0.240975
0.062803 -0.053569 0.239973
0.063576 -0.053259 0.238629
0.064369 -0.052975 0.237403
0.065163 -0.052703 0.236225
0.065856 -0.052359 0.234721
0.066451 -0.051950 0.232926
0.066965 -0.051493 0.230912
0.067700 -0.051217 0.229705
0.068486 -0.050988 0.228709
0.069337 -0.050814 0.227955
0.069475 -0.050131 0.224914
0.070183 -0.049873 0.223780
0.068784 -0.048148 0.216061
0.068505 -0.047247 0.212033
0.068990 -0.046890 0.210445
0.068751 -0.046060 0.206727
0.069107 -0.045645 0.204872
0.068118 -0.044366 0.199134
0.068918 -0.044271 0.198709
0.069850 -0.044262 0.198668
0.070448 -0.044045 0.197688
0.070917 -0.043754 0.196372
0.071650 -0.043632 0.195808
0.072279 -0.043449 0.194973
0.072220 -0.042864 0.192325
0.072771 -0.042650 0.191341
0.073432 -0.042505 0.190664
0.074102 -0.042369 0.190021
0.074767 -0.042233 0.189375
0.075292 -0.042023 0.188391
0.075879 -0.041851 0.187577
0.076605 -0.041759 0.187116
0.077266 -0.041635 0.186504
0.077922 -0.041510 0.185886
0.078665 -0.041435 0.185484
0.079346 -0.041328 0.184936
0.079984 -0.041201 0.184296
0.080655 -0.041095 0.183739
0.081337 -0.040996 0.183212
0.081986 -0.040882 0.182613
0.082400 -0.040656 0.181503
0.082850 -0.040451 0.180486
0.083431 -0.040314 0.179767
0.083898 -0.040125 0.178807
0.084356 -0.039936 0.177843
0.084837 -0.039761 0.176937
0.085283 -0.039573 0.175968
0.085708 -0.039380 0.174965
0.085955 -0.039109 0.173614
0.086392 -0.038929 0.172660
0.086892 -0.038781 0.171838
0.087477 -0.038673 0.171190
0.088195 -0.038625 0.170798
0.088708 -0.038489 0.170009
0.089324 -0.038400 0.169419
-1.486317 -0.611253 2.779708
-1.475353 -0.612186 2.786920
-1.473567 -0.616979 2.811590
-1.457067 -0.615644 2.808209
-1.446859 -0.616968 2.816823
-1.441348 -0.620338 2.834669
-1.431251 -0.621781 2.843596
-1.419721 -0.622623 2.849663
-1.411357 -0.624884 2.862110
-1.395021 -0.623625 2.858327
-1.384402 -0.624923 2.866148
-1.389652 -0.633481 2.907184
-1.408999 -0.697361 3.212072
-1.395851 -0.698339 3.217595
-1.394203 -0.705157 3.249940
-1.390235 -0.710939 3.277441
-1.382580 -0.714945 3.296678
-1.372950 -0.718009 3.311495
-1.362038 -0.720467 3.323436
