ply
format ascii 1.0
element vertex 1689
property float x
property float y
property float z
end_header
0.008175 -0.074533 0.244902
0.009375 -0.074810 0.245813
0.010576 -0.075023 0.246516
0.011776 -0.075193 0.247078
0.012967 -0.075276 0.247355
0.014158 -0.075346 0.247594
0.015362 -0.075471 0.248012
0.016563 -0.075561 0.248319
0.017748 -0.075573 0.248368
0.018940 -0.075608 0.248496
0.020201 -0.075900 0.249468
0.021501 -0.076299 0.250794
0.022960 -0.077190 0.253739
0.024429 -0.078022 0.256492
0.028256 -0.085950 0.282573
0.028957 -0.084077 0.276436
0.030411 -0.084462 0.277725
0.029046 -0.077309 0.254227
0.030151 -0.077041 0.253365
0.031268 -0.076821 0.252664
0.032523 -0.076945 0.253097
0.034110 -0.077817 0.255988
0.036074 -0.079459 0.261415
0.037146 -0.079093 0.260237
0.038163 -0.078637 0.258759
0.039364 -0.078576 0.258587
0.040415 -0.078230 0.257472
0.041357 -0.077698 0.255749
0.042401 -0.077382 0.254734
0.043422 -0.077044 0.253648
0.044476 -0.076779 0.252803
0.045611 -0.076667 0.252458
0.046529 -0.076204 0.250958
0.047365 -0.075632 0.249101
0.048423 -0.075435 0.248476
0.049603 -0.075432 0.248490
0.050626 -0.075196 0.247734
0.051701 -0.075047 0.247265
0.052735 -0.074846 0.246626
0.053793 -0.074686 0.246118
0.054895 -0.074594 0.245833
0.055902 -0.074379 0.245143
0.056937 -0.074210 0.244601
0.058011 -0.074096 0.244241
0.058977 -0.073851 0.243448
0.059954 -0.073630 0.242732
0.060951 -0.073441 0.242119
0.062001 -0.073322 0.241736
0.063021 -0.073172 0.241247
0.064007 -0.072989 0.240649
0.064995 -0.072813 0.240073
0.065888 -0.072541 0.239175
0.066804 -0.072302 0.238384
0.067710 -0.072059 0.237579
0.068454 -0.071656 0.236242
0.069176 -0.071243 0.234871
0.070051 -0.070997 0.234048
0.070985 -0.070819 0.233446
0.071757 -0.070487 0.232331
0.072601 -0.070234 0.231476
0.073499 -0.070041 0.230815
0.074324 -0.069784 0.229940
0.075054 -0.069447 0.228799
0.075843 -0.069173 0.227861
0.076520 -0.068807 0.226616
0.076898 -0.068186 0.224526
0.077469 -0.067749 0.223042
0.076986 -0.066416 0.218603
0.075073 -0.063901 0.210275
0.074975 -0.062977 0.207177
0.074751 -0.061972 0.203814
0.074062 -0.060613 0.199281
0.074488 -0.060189 0.197820
0.074997 -0.059841 0.196607
0.075315 -0.059352 0.194924
0.075493 -0.058766 0.192921
0.075948 -0.058407 0.191657
0.076426 -0.058074 0.190476
0.076930 -0.057768 0.189380
0.077517 -0.057531 0.188506
0.078055 -0.057263 0.187525
0.078666 -0.057055 0.186732
0.079304 -0.056870 0.186014
0.080015 -0.056741 0.185472
0.080754 -0.056635 0.184997
0.081542 -0.056565 0.184636
0.082360 -0.056517 0.184340
0.083023 -0.056365 0.183695
0.083702 -0.056227 0.183092
0.084562 -0.056212 0.182882
0.085267 -0.056094 0.182332
0.085936 -0.055956 0.181707
0.086550 -0.055786 0.180971
0.087227 -0.055659 0.180366
0.087936 -0.055555 0.179827
0.088519 -0.055373 0.179031
0.089187 -0.055249 0.178410
0.089841 -0.055117 0.177758
0.090467 -0.054971 0.177051
0.091185 -0.054884 0.176521
0.091970 -0.054837 0.176115
0.092656 -0.054734 0.175513
0.093336 -0.054628 0.174896
-1.477192 -0.832611 2.733354
-1.462517 -0.831734 2.734460
-1.453040 -0.833826 2.745165
-1.443722 -0.836049 2.756159
-1.424089 -0.832286 2.747255
-1.418523 -0.836751 2.765364
-1.406474 -0.837441 2.770869
-1.398034 -0.840315 2.783473
-1.386129 -0.841141 2.789171
-1.375867 -0.842992 2.798140
-1.369365 -0.847205 2.814843
-1.357294 -0.848024 2.820157
-1.346562 -0.849705 2.828223
-1.347382 -0.858783 2.860823
-1.331786 -0.857478 2.858739
-1.374954 -0.974536 3.266884
-1.354775 -0.971119 3.256887
-1.358585 -0.985017 3.304884
-1.342592 -0.984713 3.305161
-1.330199 -0.987075 3.314298
-1.319030 -0.990413 3.326633
-1.306527 -0.992819 3.335760
-1.295076 -0.996092 3.347728
-1.283283 -0.999181 3.359005
-1.270805 -1.001809 3.368656
-1.258131 -1.004346 3.377937
-1.247587 -1.008672 3.393166
-1.235560 -1.011896 3.404623
-1.223289 -1.015004 3.415625
-1.213981 -1.020686 3.435228
-0.025661 -0.070287 0.235158
-0.024551 -0.070303 0.235171
-0.023498 -0.070493 0.235770
-0.022238 -0.070048 0.234242
-0.021001 -0.069632 0.232818
-0.019635 -0.068722 0.229738
-0.018436 -0.068319 0.228360
-0.017392 -0.068482 0.228873
-0.016380 -0.068798 0.229895
-0.015324 -0.068962 0.230415
-0.014280 -0.069210 0.231213
-0.013257 -0.069610 0.232521
-0.012221 -0.070005 0.233817
-0.011135 -0.070169 0.234337
-0.010045 -0.070340 0.234883
-0.008949 -0.070500 0.235397
-0.007848 -0.070673 0.235953
-0.006738 -0.070804 0.236371
-0.005625 -0.070948 0.236834
-0.004512 -0.071179 0.237586
-0.003392 -0.071402 0.238316
-0.002263 -0.071567 0.238853
-0.001130 -0.071804 0.239632
0.000011 -0.072046 0.240430
0.001160 -0.072306 0.241286
0.002316 -0.072533 0.242038
0.003478 -0.072728 0.242681
0.004650 -0.072993 0.243559
0.005843 -0.073407 0.244939
0.007024 -0.073556 0.245434
0.008193 -0.073560 0.245448
0.009381 -0.073711 0.245952
0.010574 -0.073855 0.246437
0.011757 -0.073914 0.246638
0.012960 -0.074076 0.247185
0.014148 -0.074133 0.247383
0.015344 -0.074218 0.247675
0.016568 -0.074414 0.248340
0.017766 -0.074478 0.248563
0.018967 -0.074546 0.248805
0.020180 -0.074649 0.249162
0.021403 -0.074776 0.249602
0.022652 -0.074974 0.250281
0.024058 -0.075645 0.252537
0.025388 -0.076026 0.253830
0.026642 -0.076157 0.254285
0.027843 -0.076128 0.254212
0.028960 -0.075883 0.253414
0.030087 -0.075682 0.252766
0.031211 -0.075490 0.252148
0.032419 -0.075508 0.252233
0.033612 -0.075489 0.252197
0.035297 -0.076539 0.255728
0.037044 -0.077649 0.259465
0.038224 -0.077537 0.259119
0.039090 -0.076816 0.256736
0.040450 -0.077078 0.257640
0.041435 -0.076632 0.256176
0.042427 -0.076224 0.254843
0.043456 -0.075903 0.253797
0.044565 -0.075735 0.253262
0.045581 -0.075423 0.252248
0.046507 -0.074981 0.250795
0.047551 -0.074746 0.250037
0.048581 -0.074502 0.249247
0.049709 -0.074416 0.248985
0.050741 -0.074192 0.248262
0.051748 -0.073944 0.247457
0.052800 -0.073771 0.246898
0.053885 -0.073649 0.246512
0.054911 -0.073453 0.245881
0.055971 -0.073310 0.245421
0.057018 -0.073156 0.244925
0.058058 -0.073000 0.244419
0.059122 -0.072879 0.244031
0.060094 -0.072651 0.243284
0.061113 -0.072488 0.242749
0.062075 -0.072264 0.242011
0.063122 -0.072147 0.241628
0.064110 -0.071966 0.241028
0.065024 -0.071710 0.240178
0.065986 -0.071516 0.239530
0.067027 -0.071411 0.239179
0.067837 -0.071068 0.238030
0.068667 -0.070757 0.236985
0.069442 -0.070401 0.235783
0.070355 -0.070193 0.235078
0.071176 -0.069902 0.234089
0.071999 -0.069621 0.233135
0.072778 -0.069307 0.232062
0.073611 -0.069053 0.231190
0.074454 -0.068815 0.230369
0.075268 -0.068558 0.229479
0.075875 -0.068123 0.227990
0.076604 -0.067808 0.226900
0.077397 -0.067557 0.226020
0.077292 -0.066540 0.222573
0.076457 -0.064930 0.217143
0.075314 -0.063106 0.210994
0.075283 -0.062249 0.208074
0.074530 -0.060825 0.203261
0.074165 -0.059750 0.199609
0.074661 -0.059387 0.198332
0.075480 -0.059287 0.197930
0.075617 -0.058660 0.195765
0.075193 -0.057619 0.192215
0.075743 -0.057340 0.191205
0.076249 -0.057035 0.190102
0.076782 -0.056757 0.189086
0.077403 -0.056550 0.188302
0.078021 -0.056345 0.187520
0.078661 -0.056161 0.186801
0.079299 -0.055979 0.186086
0.079983 -0.055833 0.185483
0.080704 -0.055717 0.184973
0.081552 -0.055689 0.184750
0.082302 -0.055596 0.184305
0.083115 -0.055546 0.183999
0.083858 -0.055452 0.183537
0.084527 -0.055311 0.182912
0.085386 -0.055296 0.182698
0.086011 -0.055131 0.181982
0.086580 -0.054934 0.181151
0.087235 -0.054795 0.180505
0.087905 -0.054669 0.179892
0.088619 -0.054571 0.179366
0.089324 -0.054470 0.178819
0.089975 -0.054338 0.178164
0.090701 -0.054254 0.177655
0.091422 -0.054168 0.177131
0.092192 -0.054112 0.176696
0.092881 -0.054010 0.176099
0.093410 -0.053818 0.175198
-1.477874 -0.819738 2.736874
-1.462264 -0.818355 2.736166
-1.448914 -0.818225 2.739475
-1.438701 -0.819881 2.748610
-1.427549 -0.821029 2.755901
-1.419315 -0.823893 2.768817
-1.406901 -0.824362 2.773556
-1.396750 -0.826180 2.782698
-1.387325 -0.828467 2.793300
-1.379350 -0.831674 2.806890
-1.368311 -0.833079 2.814286
-1.361044 -0.836832 2.829505
-1.341458 -0.833011 2.818992
-1.348323 -0.845704 2.864274
-1.365072 -0.952130 3.244441
-1.362918 -0.961404 3.277456
-1.347179 -0.961197 3.278074
-1.344001 -0.970054 3.309520
-1.332242 -0.972852 3.320229
-1.318615 -0.974339 3.326377
-1.306572 -0.977046 3.336615
-1.294455 -0.979763 3.346815
-1.280304 -0.980990 3.351847
-1.268059 -0.983728 3.361970
-1.253835 -0.984980 3.366946
-1.243137 -0.989070 3.381557
-1.232968 -0.993695 3.397930
-1.219612 -0.995839 3.405758
-1.207362 -0.998956 3.416854
-1.194579 -1.001711 3.426648
-0.028286 -0.070141 0.238460
-0.027173 -0.070188 0.238575
-0.025705 -0.069281 0.235451
-0.024669 -0.069512 0.236196
-0.023538 -0.069482 0.236055
-0.022003 -0.068197 0.231651
-0.020742 -0.067671 0.229828
-0.019493 -0.067131 0.227957
-0.018426 -0.067188 0.228119
-0.017414 -0.067468 0.229037
-0.016368 -0.067643 0.229597
-0.015324 -0.067853 0.230281
-0.014289 -0.068137 0.231214
-0.013250 -0.068450 0.232248
-0.012191 -0.068706 0.233090
-0.011117 -0.068924 0.233804
-0.010049 -0.069229 0.234814
-0.008955 -0.069408 0.235398
-0.007856 -0.069597 0.236017
-0.006757 -0.069844 0.236834
-0.005648 -0.070069 0.237578
-0.004528 -0.070249 0.238173
-0.003403 -0.070436 0.238789
-0.002273 -0.070655 0.239517
-0.001135 -0.070799 0.239993
0.000008 -0.070989 0.240628
0.001157 -0.071178 0.241259
0.002315 -0.071451 0.242177
0.003479 -0.071655 0.242862
0.004646 -0.071816 0.243402
0.005826 -0.072074 0.244274
0.007007 -0.072250 0.244869
0.008189 -0.072382 0.245318
0.009374 -0.072505 0.245737
0.010571 -0.072684 0.246345
0.011772 -0.072850 0.246915
0.012975 -0.073003 0.247439
0.014175 -0.073108 0.247802
0.015379 -0.073219 0.248187
0.016584 -0.073318 0.248536
0.017793 -0.073421 0.248896
0.019007 -0.073528 0.249273
0.020212 -0.073588 0.249493
0.021430 -0.073689 0.249851
0.022671 -0.073853 0.250426
0.023984 -0.074226 0.251708
0.025321 -0.074629 0.253097
0.026563 -0.074731 0.253463
0.027765 -0.074717 0.253437
0.028955 -0.074673 0.253311
0.030137 -0.074611 0.253128
0.031339 -0.074601 0.253118
0.032497 -0.074493 0.252777
0.033639 -0.074356 0.252340
0.034830 -0.074333 0.252289
0.037013 -0.076359 0.259192
0.038222 -0.076307 0.259045
0.039200 -0.075813 0.257399
0.040406 -0.075776 0.257304
0.041166 -0.074931 0.254464
0.042441 -0.075043 0.254874
0.043488 -0.074757 0.253932
0.044417 -0.074289 0.252374
0.045444 -0.074006 0.251439
0.046510 -0.073799 0.250765
0.047544 -0.073552 0.249957
0.048582 -0.073324 0.249208
0.049683 -0.073200 0.248815
0.050735 -0.073010 0.248198
0.051823 -0.072879 0.247780
0.052822 -0.072632 0.246966
0.053905 -0.072510 0.246574
0.054979 -0.072380 0.246156
0.056001 -0.072188 0.245526
0.057033 -0.072016 0.244963
0.058099 -0.071894 0.244569
0.059170 -0.071783 0.244208
0.060253 -0.071690 0.243909
0.061239 -0.071487 0.243236
0.062252 -0.071323 0.242690
0.063324 -0.071230 0.242388
0.064297 -0.071032 0.241722
0.065262 -0.070833 0.241052
0.066210 -0.070621 0.240339
0.067145 -0.070403 0.239600
0.068016 -0.070127 0.238662
0.068788 -0.069759 0.237407
0.069590 -0.069434 0.236295
0.070486 -0.069209 0.235525
0.071390 -0.069001 0.234805
0.072079 -0.068594 0.233409
0.072867 -0.068292 0.232364
0.073640 -0.067986 0.231303
0.074283 -0.067569 0.229864
0.074934 -0.067172 0.228488
0.075585 -0.066786 0.227146
0.076114 -0.066306 0.225478
0.076814 -0.065985 0.224353
0.076843 -0.065105 0.221320
0.076895 -0.064267 0.218427
0.074403 -0.061354 0.208481
0.074803 -0.060871 0.206791
0.075315 -0.060491 0.205447
0.074382 -0.058975 0.200240
0.074425 -0.058261 0.197757
0.074283 -0.057422 0.194846
0.075088 -0.057326 0.194451
0.075614 -0.057023 0.193350
0.075758 -0.056443 0.191305
0.076228 -0.056116 0.190115
0.076885 -0.055932 0.189406
0.077448 -0.055686 0.188481
0.077957 -0.055406 0.187438
0.078641 -0.055256 0.186827
0.079299 -0.055092 0.186164
0.080012 -0.054968 0.185634
0.080723 -0.054846 0.185100
0.081421 -0.054718 0.184543
0.082328 -0.054731 0.184456
0.083122 -0.054671 0.184112
0.083905 -0.054603 0.183739
0.084669 -0.054525 0.183323
0.085319 -0.054377 0.182663
0.086060 -0.054288 0.182197
0.086618 -0.054087 0.181345
0.087276 -0.053952 0.180709
0.087984 -0.053850 0.180176
0.088709 -0.053760 0.179674
0.089437 -0.053674 0.179176
0.090049 -0.053520 0.178445
0.090815 -0.053460 0.178017
0.091566 -0.053393 0.177554
0.092311 -0.053323 0.177073
0.093079 -0.053267 0.176629
0.093731 -0.053147 0.175961
-1.463484 -0.805793 2.740556
-1.450068 -0.805634 2.743691
-1.442614 -0.808816 2.758059
-1.429334 -0.808761 2.761250
-1.418493 -0.810099 2.769053
-1.405235 -0.810070 2.772046
-1.397038 -0.812986 2.784989
-1.385261 -0.813857 2.790803
-1.370183 -0.812786 2.789830
-1.361865 -0.815745 2.802567
-1.342567 -0.812122 2.792567
-1.341641 -0.819651 2.820807
-1.355792 -0.836636 2.881544
-1.358078 -0.931930 3.228797
-1.366286 -0.948190 3.286495
-1.352480 -0.949370 3.291861
-1.343321 -0.953880 3.308686
-1.331674 -0.956707 3.319603
-1.318975 -0.958839 3.328025
-1.304747 -0.959898 3.332644
-1.292902 -0.962757 3.343438
-1.281551 -0.966060 3.355705
-1.264080 -0.964776 3.351963
-1.250255 -0.966278 3.357827
-1.238276 -0.969264 3.368785
-1.227569 -0.973337 3.383453
-1.217397 -0.977948 3.399931
-1.206305 -0.981933 3.414173
-1.195861 -0.986561 3.430594
-0.029891 -0.062863 0.217316
-0.028714 -0.062543 0.216168
-0.027539 -0.062204 0.214953
-0.029059 -0.068160 0.235490
-0.027961 -0.068208 0.235610
-0.027072 -0.068790 0.237576
-0.025917 -0.068717 0.237281
-0.024372 -0.067557 0.233234
-0.022513 -0.065375 0.225665
-0.021512 -0.065589 0.226365
-0.020496 -0.065782 0.226992
-0.019489 -0.066023 0.227788
-0.018460 -0.066214 0.228413
-0.017429 -0.066424 0.229104
-0.016417 -0.066738 0.230152
-0.015380 -0.066990 0.230990
-0.014334 -0.067236 0.231810
-0.013284 -0.067504 0.232702
-0.012215 -0.067713 0.233396
-0.011132 -0.067884 0.233958
-0.010050 -0.068096 0.234665
-0.008951 -0.068230 0.235103
-0.007860 -0.068478 0.235934
-0.006748 -0.068601 0.236339
-0.005646 -0.068876 0.237269
-0.004534 -0.069153 0.238202
-0.003410 -0.069378 0.238964
-0.002281 -0.069639 0.239848
-0.001140 -0.069769 0.240284
0.000005 -0.069934 0.240842
0.001156 -0.070156 0.241595
0.002315 -0.070403 0.242437
0.003484 -0.070669 0.243350
0.004653 -0.070807 0.243819
0.005829 -0.070972 0.244385
0.007017 -0.071216 0.245225
0.008195 -0.071293 0.245490
0.009380 -0.071402 0.245868
0.010578 -0.071581 0.246489
0.011786 -0.071782 0.247186
0.013005 -0.072006 0.247965
0.014208 -0.072110 0.248332
0.015406 -0.072177 0.248573
0.016621 -0.072306 0.249027
0.017836 -0.072419 0.249431
0.019046 -0.072499 0.249719
0.020271 -0.072624 0.250169
0.021480 -0.072680 0.250377
0.022727 -0.072850 0.250983
0.023981 -0.073026 0.251608
0.025328 -0.073454 0.253107
0.026510 -0.073386 0.252895
0.027706 -0.073363 0.252839
0.028956 -0.073477 0.253257
0.030143 -0.073429 0.253116
0.031347 -0.073424 0.253125
0.032514 -0.073335 0.252846
0.033689 -0.073271 0.252655
0.035302 -0.074130 0.255645
0.037017 -0.075140 0.259157
0.038243 -0.075123 0.259129
0.039156 -0.074512 0.257055
0.040305 -0.074373 0.256608
0.041384 -0.074117 0.255756
0.042383 -0.073736 0.254473
0.043496 -0.073570 0.253930
0.044519 -0.073263 0.252904
0.045402 -0.072749 0.251161
0.046546 -0.072668 0.250910
0.047563 -0.072399 0.250014
0.048584 -0.072148 0.249177
0.049691 -0.072033 0.248811
0.050756 -0.071865 0.248259
0.051812 -0.071692 0.247690
0.052922 -0.071600 0.247399
0.054008 -0.071479 0.247010
0.055062 -0.071322 0.246495
0.056148 -0.071212 0.246139
0.057209 -0.071076 0.245693
0.058225 -0.070890 0.245072
0.059264 -0.070740 0.244574
0.060285 -0.070573 0.244018
0.061240 -0.070337 0.243219
0.062256 -0.070179 0.242690
0.063297 -0.070054 0.242272
0.064296 -0.069888 0.241710
0.065226 -0.069653 0.240909
0.066078 -0.069345 0.239852
0.067080 -0.069203 0.239365
0.068035 -0.069017 0.238725
0.068871 -0.068718 0.237695
0.069758 -0.068480 0.236868
0.070645 -0.068249 0.236064
0.071617 -0.068105 0.235560
0.072212 -0.067614 0.233851
0.072986 -0.067302 0.232760
0.073798 -0.067034 0.231817
0.074485 -0.066661 0.230508
0.075276 -0.066392 0.229553
0.075765 -0.065867 0.227714
0.076550 -0.065612 0.226800
0.077032 -0.065106 0.225020
0.078007 -0.065026 0.224706
0.074478 -0.061244 0.211598
0.074141 -0.060153 0.207784
0.074941 -0.060002 0.207215
0.074509 -0.058880 0.203292
0.074362 -0.058009 0.200232
0.073911 -0.056926 0.196437
0.074128 -0.056379 0.194488
0.074941 -0.056292 0.194123
0.075380 -0.055931 0.192808
0.075773 -0.055544 0.191400
0.076191 -0.055184 0.190082
0.076872 -0.055022 0.189439
0.077480 -0.054811 0.188624
0.078028 -0.054563 0.187677
0.078625 -0.054355 0.186862
0.079331 -0.054226 0.186314
0.080006 -0.054078 0.185697
0.080764 -0.053990 0.185277
0.081445 -0.053852 0.184683
0.082199 -0.053765 0.184255
0.083077 -0.053760 0.184103
0.083820 -0.053669 0.183649
0.084536 -0.053563 0.183135
0.085255 -0.053460 0.182628
0.085937 -0.053337 0.182043
0.086578 -0.053191 0.181373
0.087283 -0.053087 0.180837
0.088050 -0.053022 0.180428
0.088792 -0.052944 0.179966
0.089420 -0.052799 0.179270
0.090149 -0.052717 0.178775
0.090786 -0.052582 0.178096
0.091466 -0.052475 0.177500
0.092339 -0.052480 0.177270
0.092932 -0.052326 0.176499
0.093640 -0.052240 0.175942
-1.464197 -0.792935 2.743923
-1.452035 -0.793467 2.749377
-1.451104 -0.800204 2.776203
-1.433942 -0.798033 2.771993
-1.421805 -0.798645 2.777296
-1.411134 -0.800100 2.785398
-1.402008 -0.802469 2.796556
-1.392341 -0.804571 2.806669
-1.389014 -0.810414 2.829726
-1.375416 -0.810321 2.831949
-1.362842 -0.810836 2.836175
-1.362437 -0.818675 2.865925
-1.356735 -0.823457 2.884894
-1.392439 -0.929386 3.273339
-1.378720 -0.930542 3.278813
-1.360142 -0.928408 3.272601
-1.356705 -0.936680 3.302985
-1.345757 -0.939899 3.315479
-1.333879 -0.942537 3.325841
-1.320577 -0.944220 3.332759
-1.306574 -0.945438 3.337954
-1.292807 -0.946859 3.343790
-1.279019 -0.948300 3.349623
-1.265131 -0.949702 3.355248
-1.250748 -0.950765 3.359603
-1.237087 -0.952412 3.365956
-1.228827 -0.958314 3.387282
-1.214374 -0.959478 3.391802
-1.206790 -0.966174 3.415814
-1.197138 -0.971374 3.434480
-0.030646 -0.061275 0.215333
-0.029940 -0.061927 0.217578
-0.028926 -0.061964 0.217666
-0.028006 -0.062214 0.218501
-0.027063 -0.062431 0.219219
-0.028008 -0.067193 0.235895
-0.027118 -0.067767 0.237865
-0.024911 -0.064959 0.227966
-0.023605 -0.064351 0.225790
-0.022563 -0.064436 0.226047
-0.021568 -0.064674 0.226845
-0.020543 -0.064840 0.227387
-0.019537 -0.065091 0.228231
-0.018513 -0.065307 0.228952
-0.017507 -0.065617 0.230004
-0.016482 -0.065892 0.230933
-0.015437 -0.066120 0.231702
-0.014376 -0.066312 0.232344
-0.013313 -0.066526 0.233063
-0.012244 -0.066746 0.233805
-0.011158 -0.066910 0.234354
-0.010077 -0.067138 0.235125
-0.008969 -0.067225 0.235406
-0.007887 -0.067561 0.236561
-0.006783 -0.067796 0.237363
-0.005654 -0.067806 0.237379
-0.004538 -0.068037 0.238169
-0.003415 -0.068276 0.238988
-0.002287 -0.068607 0.240133
-0.001145 -0.068766 0.240678
0.000002 -0.068898 0.241129
0.001154 -0.069069 0.241718
0.002314 -0.069281 0.242452
0.003481 -0.069515 0.243266
0.004654 -0.069714 0.243957
0.005832 -0.069881 0.244539
0.007020 -0.070101 0.245311
0.008206 -0.070244 0.245812
0.009393 -0.070355 0.246202
0.010600 -0.070569 0.246954
0.011797 -0.070685 0.247366
0.013024 -0.070942 0.248272
0.014227 -0.071038 0.248619
0.015423 -0.071084 0.248791
0.016654 -0.071277 0.249479
0.017873 -0.071393 0.249901
0.019098 -0.071516 0.250347
0.020312 -0.071585 0.250606
0.021541 -0.071701 0.251028
0.022768 -0.071794 0.251376
0.024011 -0.071928 0.251863
0.025294 -0.072161 0.252703
0.026543 -0.072282 0.253149
0.027755 -0.072295 0.253222
0.028977 -0.072332 0.253378
0.030219 -0.072412 0.253684
0.031407 -0.072364 0.253543
0.032627 -0.072390 0.253665
0.033827 -0.072369 0.253622
0.035495 -0.073319 0.256980
0.036993 -0.073865 0.258927
0.038155 -0.073726 0.258472
0.039247 -0.073465 0.257591
0.040392 -0.073315 0.257099
0.041321 -0.072795 0.255307
0.042519 -0.072764 0.255233
0.043704 -0.072712 0.255084
0.044539 -0.072098 0.252964
0.045466 -0.071661 0.251463
0.046501 -0.071411 0.250618
0.047610 -0.071286 0.250213
0.048656 -0.071074 0.249501
0.049737 -0.070921 0.248998
0.050831 -0.070794 0.248582
0.051897 -0.070635 0.248056
0.053027 -0.070567 0.247849
0.054111 -0.070444 0.247445
0.055188 -0.070316 0.247022
0.056279 -0.070211 0.246684
0.057294 -0.070017 0.246027
0.058328 -0.069854 0.245479
0.059341 -0.069672 0.244865
0.060357 -0.069501 0.244285
0.061369 -0.069332 0.243710
0.062342 -0.069126 0.243005
0.063314 -0.068926 0.242322
0.064355 -0.068807 0.241917
0.065299 -0.068590 0.241168
0.066107 -0.068241 0.239950
0.067010 -0.068000 0.239111
0.067976 -0.067828 0.238515
0.068815 -0.067539 0.237501
0.069669 -0.067273 0.236567
0.070531 -0.067023 0.235687
0.071336 -0.066727 0.234644
0.071992 -0.066304 0.233147
0.072741 -0.065978 0.231990
0.073642 -0.065797 0.231341
0.074311 -0.065417 0.229990
0.074861 -0.064945 0.228310
0.075355 -0.064439 0.226506
0.076037 -0.064105 0.225305
0.076862 -0.063899 0.224551
0.077118 -0.063233 0.222176
0.073481 -0.059435 0.208798
0.073770 -0.058872 0.206781
0.074031 -0.058302 0.204736
0.074262 -0.057724 0.202656
0.074283 -0.056998 0.200060
0.074674 -0.056573 0.198511
0.074273 -0.055564 0.194914
0.074624 -0.055136 0.193352
0.074997 -0.054736 0.191880
0.075496 -0.054434 0.190753
0.076199 -0.054286 0.190159
0.076741 -0.054028 0.189176
0.077408 -0.053863 0.188512
0.078045 -0.053681 0.187783
0.078728 -0.053535 0.187177
0.079386 -0.053374 0.186514
0.080132 -0.053276 0.186064
0.080807 -0.053134 0.185453
0.081592 -0.053066 0.185097
0.082274 -0.052933 0.184509
0.082999 -0.052830 0.184018
0.083905 -0.052844 0.183927
0.084541 -0.052689 0.183241
0.085215 -0.052560 0.182641
0.085988 -0.052494 0.182252
0.086634 -0.052353 0.181595
0.087322 -0.052240 0.181027
0.088017 -0.052134 0.180474
0.088702 -0.052024 0.179900
0.089402 -0.051924 0.179355
0.090134 -0.051844 0.178870
0.090739 -0.051694 0.178134
0.091416 -0.051587 0.177536
0.092220 -0.051554 0.177182
0.092888 -0.051445 0.176558
0.093544 -0.051332 0.175912
-1.487711 -0.785164 2.761452
-1.469038 -0.782264 2.754964
-1.454154 -0.781349 2.755289
-1.447700 -0.784988 2.771532
-1.434853 -0.785197 2.775529
-1.424627 -0.786859 2.784525
-1.416560 -0.789757 2.797769
-1.407297 -0.792037 2.808710
-1.397277 -0.793932 2.818166
-1.389887 -0.797373 2.832999
-1.383380 -0.801394 2.849791
-1.378584 -0.806497 2.870333
-1.367236 -0.807830 2.877362
-1.355306 -0.808843 2.883142
-1.366613 -0.896905 3.213552
-1.372878 -0.911114 3.265807
-1.355917 -0.910057 3.263270
-1.355810 -0.920418 3.301597
-1.346143 -0.924455 3.317172
-1.334729 -0.927375 3.328658
-1.321876 -0.929352 3.336684
-1.309992 -0.932067 3.347285
-1.295470 -0.932950 3.351229
-1.282690 -0.935125 3.359740
-1.268547 -0.936349 3.364765
-1.254500 -0.937676 3.370091
-1.239193 -0.938085 3.372049
-1.225136 -0.939463 3.377425
-1.208423 -0.938815 3.375453
-1.208053 -0.951016 3.419619
-0.031508 -0.059946 0.214213
-0.030517 -0.059995 0.214340
-0.030257 -0.061534 0.219791
-0.029107 -0.061306 0.218933
-0.028137 -0.061457 0.219424
-0.027181 -0.061650 0.220070
-0.026711 -0.063007 0.224871
-0.025648 -0.063019 0.224870
-0.024666 -0.063241 0.225616
-0.023666 -0.063431 0.226254
-0.022662 -0.063633 0.226933
-0.021626 -0.063758 0.227336
-0.020595 -0.063911 0.227843
-0.019580 -0.064136 0.228609
-0.018547 -0.064324 0.229241
-0.017546 -0.064655 0.230386
-0.016524 -0.064949 0.231397
-0.015466 -0.065128 0.232001
-0.014392 -0.065267 0.232467
-0.013345 -0.065560 0.233480
-0.012272 -0.065769 0.234195
-0.011185 -0.065937 0.234763
-0.010086 -0.066058 0.235170
-0.008999 -0.066303 0.236018
-0.007903 -0.066550 0.236873
-0.006787 -0.066673 0.237291
-0.005670 -0.066832 0.237837
-0.004547 -0.066990 0.238379
-0.003422 -0.067219 0.239180
-0.002296 -0.067632 0.240635
-0.001151 -0.067769 0.241109
-0.000001 -0.067871 0.241461
0.001153 -0.068031 0.242021
0.002312 -0.068165 0.242489
0.003478 -0.068342 0.243113
0.004645 -0.068447 0.243481
0.005825 -0.068673 0.244284
0.007008 -0.068843 0.244889
0.008193 -0.068988 0.245407
0.009391 -0.069183 0.246103
0.010590 -0.069345 0.246684
0.011798 -0.069529 0.247346
0.013027 -0.069790 0.248282
0.014248 -0.069971 0.248935
0.015454 -0.070052 0.249236
0.016682 -0.070216 0.249832
0.017914 -0.070372 0.250405
0.019157 -0.070552 0.251061
0.020415 -0.070762 0.251824
0.021633 -0.070816 0.252035
0.022876 -0.070939 0.252497
0.024090 -0.070969 0.252627
0.025323 -0.071048 0.252929
0.026567 -0.071146 0.253306
0.027802 -0.071217 0.253583
0.029016 -0.071228 0.253648
0.030246 -0.071276 0.253849
0.031510 -0.071397 0.254309
0.032717 -0.071384 0.254295
0.033893 -0.071308 0.254053
0.035296 -0.071696 0.255470
0.036825 -0.072308 0.257684
0.038217 -0.072620 0.258828
0.039377 -0.072484 0.258378
0.040466 -0.072230 0.257511
0.041620 -0.072103 0.257091
0.042765 -0.071969 0.256649
0.043811 -0.071680 0.255655
0.044832 -0.071366 0.254572
0.045442 -0.070432 0.251275
0.046526 -0.070262 0.250702
0.047640 -0.070144 0.250316
0.048674 -0.069917 0.249542
0.049766 -0.069782 0.249095
0.050855 -0.069649 0.248655
0.051966 -0.069553 0.248345
0.053078 -0.069461 0.248046
0.054209 -0.069397 0.247851
0.055334 -0.069329 0.247640
0.056384 -0.069171 0.247105
0.057392 -0.068970 0.246417
0.058403 -0.068780 0.245763
0.059400 -0.068582 0.245081
0.060373 -0.068363 0.244324
0.061364 -0.068173 0.243669
0.062418 -0.068058 0.243280
0.063340 -0.067807 0.242399
0.064401 -0.067711 0.242075
0.065399 -0.067552 0.241524
0.066232 -0.067232 0.240391
0.067141 -0.066998 0.239567
0.068036 -0.066759 0.238721
0.068951 -0.066546 0.237967
0.069630 -0.066116 0.236434
0.070530 -0.065906 0.235685
0.071479 -0.065748 0.235118
0.072047 -0.065250 0.233332
0.072979 -0.065092 0.232759
0.073524 -0.064598 0.230981
0.074328 -0.064343 0.230057
0.074584 -0.063628 0.227482
0.075182 -0.063221 0.226007
0.075854 -0.062886 0.224787
0.076668 -0.062676 0.224010
0.077463 -0.062458 0.223197
0.073503 -0.058463 0.208889
0.073990 -0.058065 0.207428
0.074433 -0.057643 0.205882
0.074830 -0.057196 0.204243
0.074618 -0.056303 0.201003
0.074281 -0.055338 0.197507
0.074601 -0.054880 0.195818
0.074907 -0.054424 0.194131
0.075198 -0.053968 0.192442
0.075769 -0.053722 0.191495
0.076270 -0.053432 0.190390
0.076820 -0.053183 0.189427
0.077445 -0.052991 0.188660
0.078135 -0.052848 0.188063
0.078874 -0.052741 0.187589
0.079508 -0.052566 0.186869
0.080162 -0.052409 0.186207
0.080929 -0.052328 0.185809
0.081579 -0.052174 0.185146
0.082304 -0.052070 0.184656
0.083087 -0.052006 0.184299
0.083847 -0.051928 0.183887
0.084712 -0.051916 0.183703
0.085354 -0.051769 0.183033
0.086042 -0.051653 0.182467
0.086693 -0.051517 0.181821
0.087257 -0.051333 0.180999
0.088000 -0.051256 0.180549
0.088630 -0.051116 0.179867
0.089351 -0.051030 0.179369
0.089940 -0.050871 0.178606
0.090701 -0.050812 0.178183
0.091366 -0.050701 0.177568
0.092068 -0.050611 0.177022
0.092868 -0.050578 0.176660
0.093687 -0.050554 0.176324
-1.488413 -0.772188 2.764731
-1.471321 -0.770167 2.761148
-1.460292 -0.771315 2.768758
-1.448581 -0.772120 2.774994
-1.439981 -0.774614 2.787168
-1.427887 -0.775259 2.792553
-1.417550 -0.776880 2.801324
-1.410049 -0.780102 2.815749
-1.396909 -0.780236 2.818910
-1.389921 -0.783844 2.834505
-1.378042 -0.784737 2.840176
-1.369352 -0.787483 2.852442
-1.367136 -0.794045 2.878439
-1.356242 -0.795649 2.886371
-1.390281 -0.896931 3.270096
-1.357809 -0.885799 3.230788
-1.351224 -0.891494 3.252758
-1.353350 -0.903134 3.296351
-1.341805 -0.905815 3.307178
-1.330724 -0.908877 3.319317
-1.319609 -0.911990 3.331565
-1.306976 -0.914116 3.340133
-1.292906 -0.915278 3.345103
-1.280540 -0.917690 3.354571
-1.267766 -0.919866 3.363108
-1.255303 -0.922328 3.372619
-1.245359 -0.926727 3.389153
-1.230085 -0.927224 3.391348
-1.215757 -0.928457 3.396174
-0.034384 -0.062295 0.226424
-0.031558 -0.059018 0.214463
-0.030925 -0.059760 0.217111
-0.030146 -0.060262 0.218888
-0.029198 -0.060450 0.219523
-0.028193 -0.060530 0.219768
-0.027190 -0.060619 0.220045
-0.026270 -0.060910 0.221055
-0.025722 -0.062122 0.225411
-0.024728 -0.062317 0.226071
-0.023729 -0.062515 0.226746
-0.022731 -0.062734 0.227501
-0.021688 -0.062847 0.227869
-0.020650 -0.062986 0.228332
-0.019615 -0.063154 0.228900
-0.018581 -0.063339 0.229534
-0.017557 -0.063588 0.230400
-0.016549 -0.063931 0.231609
-0.015490 -0.064112 0.232230
-0.014424 -0.064289 0.232838
-0.013364 -0.064524 0.233657
-0.012294 -0.064750 0.234446
-0.011210 -0.064945 0.235124
-0.010105 -0.065041 0.235446
-0.009000 -0.065168 0.235879
-0.007893 -0.065312 0.236378
-0.006784 -0.065486 0.236985
-0.005664 -0.065594 0.237356
-0.004547 -0.065817 0.238144
-0.003426 -0.066094 0.239132
-0.002297 -0.066433 0.240341
-0.001153 -0.066588 0.240890
-0.000004 -0.066796 0.241633
0.001151 -0.066928 0.242101
0.002312 -0.067079 0.242639
0.003478 -0.067245 0.243235
0.004656 -0.067499 0.244149
0.005830 -0.067593 0.244488
0.007016 -0.067776 0.245150
0.008203 -0.067916 0.245657
0.009387 -0.068006 0.245985
0.010588 -0.068174 0.246598
0.011790 -0.068320 0.247135
0.013060 -0.068794 0.248857
0.014284 -0.068971 0.249507
0.015496 -0.069062 0.249851
0.016716 -0.069177 0.250279
0.017962 -0.069375 0.251011
0.019171 -0.069416 0.251180
0.020414 -0.069567 0.251744
0.021647 -0.069666 0.252121
0.022845 -0.069652 0.252092
0.024110 -0.069831 0.252766
0.025340 -0.069895 0.253023
0.026596 -0.070024 0.253513
0.027829 -0.070082 0.253752
0.029092 -0.070209 0.254239
0.030332 -0.070272 0.254500
0.031571 -0.070328 0.254732
0.032865 -0.070497 0.255376
0.034050 -0.070428 0.255161
0.035332 -0.070559 0.255670
0.036645 -0.070740 0.256358
0.038028 -0.071040 0.257483
0.039417 -0.071332 0.258577
0.040530 -0.071122 0.257853
0.041595 -0.070842 0.256874
0.042856 -0.070903 0.257132
0.044031 -0.070822 0.256877
0.044828 -0.070154 0.254490
0.045624 -0.069518 0.252223
0.046534 -0.069086 0.250691
0.047685 -0.069023 0.250502
0.048768 -0.068867 0.249973
0.049793 -0.068640 0.249184
0.050916 -0.068554 0.248907
0.052030 -0.068461 0.248603
0.053171 -0.068405 0.248438
0.054299 -0.068337 0.248223
0.055381 -0.068214 0.247811
0.056451 -0.068082 0.247362
0.057446 -0.067867 0.246612
0.058507 -0.067737 0.246169
0.059499 -0.067534 0.245460
0.060419 -0.067258 0.244484
0.061472 -0.067137 0.244069
0.062461 -0.066953 0.243424
0.063439 -0.066763 0.242757
0.064472 -0.066638 0.242321
0.065456 -0.066467 0.241719
0.066364 -0.066226 0.240857
0.067266 -0.065987 0.240004
0.068126 -0.065715 0.239027
0.068753 -0.065232 0.237277
0.069670 -0.065034 0.236564
0.070527 -0.064788 0.235673
0.071222 -0.064403 0.234274
0.072067 -0.064163 0.233401
0.072656 -0.063707 0.231735
0.073539 -0.063517 0.231039
0.074074 -0.063037 0.229282
0.074745 -0.062685 0.227987
0.074792 -0.061828 0.224851
0.075725 -0.061716 0.224423
0.075832 -0.060943 0.221590
0.077540 -0.061462 0.223446
0.073320 -0.057330 0.208396
0.074187 -0.057234 0.208011
0.074873 -0.057002 0.207129
0.074390 -0.055897 0.203076
0.073468 -0.054495 0.197939
0.073823 -0.054065 0.196328
0.074701 -0.054023 0.196122
0.075217 -0.053724 0.194979
0.075578 -0.053322 0.193460
0.075822 -0.052849 0.191679
0.076605 -0.052758 0.191277
0.077215 -0.052552 0.190455
0.077570 -0.052178 0.189022
0.078323 -0.052078 0.188576
0.079018 -0.051942 0.187994
0.079678 -0.051786 0.187334
0.080245 -0.051575 0.186467
0.080826 -0.051376 0.185642
0.081589 -0.051296 0.185242
0.082280 -0.051173 0.184680
0.082971 -0.051053 0.184120
0.083802 -0.051021 0.183873
0.084608 -0.050974 0.183565
0.085428 -0.050936 0.183283
0.086055 -0.050786 0.182588
0.086731 -0.050667 0.182000
0.087311 -0.050494 0.181212
0.087991 -0.050383 0.180636
0.088636 -0.050253 0.179987
0.089304 -0.050140 0.179388
0.089944 -0.050012 0.178731
0.090718 -0.049961 0.178338
0.091386 -0.049853 0.177733
0.092021 -0.049729 0.177061
0.092853 -0.049713 0.176764
0.093609 -0.049657 0.176315
-1.483139 -0.756153 2.756835
-1.473796 -0.758130 2.767632
-1.463067 -0.759424 2.775794
-1.452712 -0.760939 2.784624
-1.443731 -0.763209 2.796085
-1.436891 -0.766664 2.811768
-1.425000 -0.767465 2.817595
-1.414651 -0.769121 2.826432
-1.404956 -0.771168 2.836588
-1.395727 -0.773514 2.847733
-1.382174 -0.773486 2.850023
-1.368430 -0.773351 2.851798
-1.361534 -0.777123 2.867874
-1.380254 -0.795740 2.938679
-1.359053 -0.861628 3.197468
-1.364145 -0.874548 3.246649
-1.352869 -0.877149 3.257456
-1.351745 -0.886468 3.293137
-1.348339 -0.894490 3.323937
-1.333453 -0.894996 3.326730
-1.323838 -0.899095 3.342802
-1.309848 -0.900287 3.347988
-1.294787 -0.900762 3.350438
-1.281175 -0.902271 3.356657
-1.267230 -0.903580 3.362063
-1.254220 -0.905599 3.370043
-1.240550 -0.907187 3.376353
-1.231320 -0.912107 3.394997
-0.035297 -0.060938 0.225359
-0.034259 -0.060992 0.225505
-0.032005 -0.058816 0.217409
-0.031051 -0.058964 0.217907
-0.030103 -0.059132 0.218481
-0.029268 -0.059543 0.219948
-0.028339 -0.059787 0.220802
-0.027344 -0.059904 0.221188
-0.026388 -0.060121 0.221941
-0.025503 -0.060524 0.223384
-0.024671 -0.061093 0.225440
-0.023728 -0.061427 0.226626
-0.022759 -0.061722 0.227672
-0.021713 -0.061828 0.228020
-0.020698 -0.062035 0.228741
-0.019670 -0.062229 0.229417
-0.018620 -0.062370 0.229897
-0.017627 -0.062730 0.231189
-0.016573 -0.062909 0.231810
-0.015526 -0.063141 0.232630
-0.014458 -0.063318 0.233251
-0.013379 -0.063469 0.233775
-0.012299 -0.063645 0.234393
-0.011208 -0.063799 0.234928
-0.010109 -0.063928 0.235380
-0.009000 -0.064024 0.235707
-0.007907 -0.064273 0.236598
-0.006797 -0.064447 0.237217
-0.005686 -0.064683 0.238067
-0.004554 -0.064733 0.238233
-0.003433 -0.065032 0.239316
-0.002301 -0.065321 0.240363
-0.001159 -0.065620 0.241452
-0.000007 -0.065746 0.241905
0.001149 -0.065825 0.242185
0.002310 -0.065956 0.242658
0.003480 -0.066168 0.243434
0.004645 -0.066209 0.243581
0.005840 -0.066580 0.244945
0.007020 -0.066675 0.245295
0.008205 -0.066789 0.245715
0.009397 -0.066918 0.246195
0.010593 -0.067049 0.246681
0.011804 -0.067236 0.247378
0.013044 -0.067542 0.248514
0.014294 -0.067841 0.249623
0.015503 -0.067916 0.249912
0.016748 -0.068124 0.250694
0.017952 -0.068151 0.250810
0.019206 -0.068351 0.251564
0.020425 -0.068412 0.251809
0.021650 -0.068482 0.252089
0.022890 -0.068592 0.252515
0.024120 -0.068663 0.252801
0.025366 -0.068769 0.253216
0.026636 -0.068926 0.253825
0.027943 -0.069163 0.254723
0.029220 -0.069309 0.255291
0.030494 -0.069435 0.255787
0.031733 -0.069474 0.255964
0.033008 -0.069587 0.256416
0.034245 -0.069615 0.256553
0.035485 -0.069646 0.256703
0.036724 -0.069675 0.256844
0.037956 -0.069687 0.256925
0.039219 -0.069754 0.257213
0.040671 -0.070142 0.258682
0.041885 -0.070110 0.258603
0.043134 -0.070136 0.258736
0.043909 -0.069411 0.256104
0.045165 -0.069465 0.256341
0.045582 -0.068261 0.251937
0.046704 -0.068146 0.251553
0.047818 -0.068026 0.251149
0.048821 -0.067757 0.250195
0.049901 -0.067606 0.249675
0.051009 -0.067497 0.249313
0.052104 -0.067379 0.248911
0.053164 -0.067219 0.248360
0.054269 -0.067124 0.248044
0.055360 -0.067015 0.247674
0.056350 -0.066790 0.246880
0.057367 -0.066608 0.246238
0.058483 -0.066543 0.246032
0.059464 -0.066332 0.245281
0.060418 -0.066099 0.244448
0.061431 -0.065937 0.243879
0.062426 -0.065763 0.243262
0.063450 -0.065625 0.242776
0.064411 -0.065428 0.242069
0.065385 -0.065252 0.241437
0.066369 -0.065090 0.240859
0.067145 -0.064734 0.239557
0.067818 -0.064292 0.237935
0.068625 -0.063989 0.236827
0.069561 -0.063814 0.236189
0.070226 -0.063401 0.234665
0.070901 -0.063009 0.233218
0.071681 -0.062720 0.232151
0.072334 -0.062332 0.230713
0.073147 -0.062090 0.229813
0.073749 -0.061679 0.228284
0.074385 -0.061309 0.226901
0.075080 -0.060996 0.225730
0.075759 -0.060680 0.224541
0.076164 -0.060156 0.222582
0.072783 -0.056697 0.209757
0.073140 -0.056204 0.207909
0.074315 -0.056344 0.208395
0.075181 -0.056250 0.208011
0.073183 -0.054043 0.199813
0.073303 -0.053437 0.197529
0.074080 -0.053318 0.197044
0.074680 -0.053077 0.196104
0.074953 -0.052613 0.194335
0.075266 -0.052187 0.192704
0.075808 -0.051929 0.191687
0.076488 -0.051770 0.191034
0.077170 -0.051616 0.190395
0.077787 -0.051423 0.189606
0.078401 -0.051232 0.188820
0.079234 -0.051187 0.188568
0.079871 -0.051018 0.187852
0.080408 -0.050789 0.186911
0.080912 -0.050545 0.185910
0.081762 -0.050519 0.185707
0.082704 -0.050551 0.185707
0.083294 -0.050369 0.184916
0.084049 -0.050290 0.184496
0.084966 -0.050308 0.184427
0.085579 -0.050148 0.183696
0.086200 -0.049995 0.182986
0.086766 -0.049813 0.182166
0.087334 -0.049638 0.181358
0.087828 -0.049423 0.180403
0.088525 -0.049326 0.179867
0.089064 -0.049143 0.179013
0.089817 -0.049081 0.178591
0.090628 -0.049052 0.178278
0.091267 -0.048930 0.177622
0.091809 -0.048760 0.176778
0.092681 -0.048766 0.176566
0.093403 -0.048694 0.176059
-1.476332 -0.739446 2.746007
-1.477439 -0.746639 2.776251
-1.467316 -0.748236 2.785574
-1.448208 -0.745240 2.777641
-1.443507 -0.749671 2.797249
-1.435173 -0.752281 2.809951
-1.424855 -0.753892 2.818798
-1.416347 -0.756501 2.831257
-1.406895 -0.758651 2.841888
-1.400513 -0.762516 2.858836
-1.392450 -0.765533 2.872501
-1.384835 -0.768859 2.887227
-1.379759 -0.773675 2.907457
-1.381199 -0.782280 2.941848
-1.357008 -0.845199 3.193434
-1.356776 -0.854524 3.229850
-1.355070 -0.863123 3.263453
-1.351924 -0.870991 3.294230
-1.343946 -0.875894 3.313718
-1.335180 -0.880392 3.331606
-1.323938 -0.883347 3.343575
-1.309632 -0.884304 3.347909
-1.297221 -0.886580 3.357164
-1.284937 -0.889001 3.366897
-1.269465 -0.889250 3.368332
-1.258863 -0.892961 3.382813
-1.243082 -0.893046 3.383494
-0.036533 -0.060138 0.226356
-0.035255 -0.059791 0.224996
-0.033744 -0.059015 0.222023
-0.032102 -0.057953 0.217975
-0.030955 -0.057743 0.217134
-0.030057 -0.058000 0.218051
-0.029266 -0.058488 0.219834
-0.028436 -0.058933 0.221458
-0.027411 -0.058991 0.221626
-0.026425 -0.059142 0.222146
-0.025469 -0.059377 0.222981
-0.024662 -0.059992 0.225245
-0.023748 -0.060392 0.226702
-0.022810 -0.060767 0.228063
-0.021772 -0.060898 0.228511
-0.020721 -0.061006 0.228876
-0.019686 -0.061176 0.229474
-0.018653 -0.061373 0.230172
-0.017598 -0.061516 0.230670
-0.016623 -0.061979 0.232370
-0.015543 -0.062088 0.232743
-0.014462 -0.062210 0.233166
-0.013396 -0.062422 0.233928
-0.012310 -0.062573 0.234462
-0.011214 -0.062695 0.234890
-0.010110 -0.062798 0.235246
-0.009008 -0.062935 0.235733
-0.007904 -0.063105 0.236347
-0.006802 -0.063344 0.237219
-0.005687 -0.063526 0.237883
-0.004557 -0.063610 0.238179
-0.003431 -0.063804 0.238888
-0.002295 -0.063943 0.239392
-0.001156 -0.064168 0.240223
-0.000009 -0.064333 0.240830
0.001146 -0.064630 0.241932
0.002306 -0.064761 0.242412
0.003474 -0.064943 0.243088
0.004647 -0.065112 0.243719
0.005821 -0.065229 0.244156
0.007019 -0.065524 0.245260
0.008202 -0.065616 0.245607
0.009389 -0.065706 0.245946
0.010603 -0.065952 0.246874
0.011811 -0.066109 0.247469
0.013042 -0.066358 0.248413
0.014281 -0.066601 0.249336
0.015560 -0.066978 0.250760
0.016756 -0.066971 0.250748
0.018027 -0.067244 0.251790
0.019245 -0.067298 0.252009
0.020471 -0.067370 0.252300
0.021714 -0.067488 0.252765
0.022947 -0.067563 0.253069
0.024183 -0.067639 0.253381
0.025420 -0.067711 0.253678
0.026658 -0.067778 0.253958
0.027949 -0.067968 0.254700
0.029244 -0.068152 0.255421
0.030511 -0.068260 0.255856
0.031806 -0.068418 0.256484
0.033059 -0.068477 0.256741
0.034305 -0.068518 0.256928
0.035570 -0.068592 0.257245
0.036826 -0.068646 0.257486
0.038028 -0.068597 0.257341
0.039242 -0.068573 0.257290
0.040599 -0.068793 0.258154
0.041765 -0.068686 0.257794
0.043185 -0.068990 0.258978
0.044129 -0.068539 0.257325
0.045156 -0.068237 0.256233
0.046202 -0.067977 0.255300
0.046745 -0.067012 0.251715
0.047890 -0.066935 0.251469
0.048893 -0.066669 0.250510
0.049921 -0.066448 0.249719
0.051012 -0.066320 0.249277
0.052139 -0.066243 0.249029
0.053224 -0.066117 0.248593
0.054238 -0.065910 0.247855
0.055384 -0.065870 0.247742
0.056433 -0.065718 0.247205
0.057389 -0.065465 0.246291
0.058436 -0.065326 0.245800
0.059423 -0.065125 0.245079
0.060402 -0.064923 0.244351
0.061391 -0.064740 0.243691
0.062433 -0.064618 0.243262
0.063401 -0.064426 0.242564
0.064405 -0.064276 0.242027
0.065428 -0.064150 0.241575
0.066349 -0.063931 0.240769
0.067219 -0.063669 0.239804
0.067979 -0.063315 0.238485
0.068769 -0.062999 0.237311
0.069536 -0.062673 0.236096
0.070169 -0.062238 0.234466
0.070921 -0.061921 0.233279
0.071587 -0.061541 0.231848
0.072368 -0.061268 0.230822
0.072838 -0.060745 0.228848
0.073344 -0.060266 0.227038
0.073811 -0.059770 0.225160
0.074553 -0.059507 0.224159
0.074637 -0.058733 0.221229
0.075903 -0.058899 0.221835
0.072759 -0.055684 0.209707
0.072950 -0.055075 0.207388
0.074205 -0.055275 0.208110
0.075015 -0.055142 0.207577
0.073467 -0.053302 0.200617
0.073747 -0.052818 0.198756
0.074376 -0.052593 0.197867
0.075002 -0.052371 0.196985
0.075391 -0.051992 0.195509
0.075523 -0.051448 0.193404
0.075695 -0.050942 0.191446
0.076517 -0.050882 0.191154
0.077172 -0.050712 0.190449
0.077759 -0.050503 0.189588
0.078494 -0.050393 0.189097
0.079247 -0.050298 0.188655
0.079965 -0.050182 0.188132
0.080594 -0.050014 0.187405
0.081297 -0.049895 0.186858
0.082173 -0.049883 0.186708
0.082953 -0.049814 0.186337
0.083768 -0.049768 0.186044
0.084393 -0.049610 0.185328
0.085088 -0.049497 0.184771
0.085865 -0.049433 0.184393
0.086307 -0.049179 0.183301
0.086828 -0.048975 0.182388
0.087276 -0.048734 0.181330
0.087850 -0.048569 0.180544
0.088454 -0.048422 0.179823
0.088932 -0.048210 0.178853
0.089563 -0.048084 0.178192
0.090357 -0.048047 0.177856
0.090927 -0.047893 0.177075
0.091544 -0.047767 0.176387
0.092350 -0.047740 0.176059
0.093123 -0.047697 0.175660
-1.476849 -0.726466 2.748730
-1.473228 -0.731185 2.770048
-1.473208 -0.737794 2.798423
-1.449567 -0.732588 2.781838
-1.441683 -0.735322 2.795253
-1.436037 -0.739261 2.813131
-1.422532 -0.739191 2.815634
-1.411966 -0.740662 2.823878
-1.402109 -0.742538 2.833549
-1.392752 -0.744717 2.844270
-1.393335 -0.752308 2.875565
-1.373043 -0.748666 2.863820
-1.380678 -0.760333 2.910539
-1.349051 -0.750395 2.874454
-1.363118 -0.833806 3.208553
-1.370092 -0.847463 3.262251
-1.354156 -0.847098 3.261905
-1.347122 -0.852359 3.283139
-1.342001 -0.858967 3.309489
-1.330390 -0.861528 3.320175
-1.316661 -0.862763 3.325675
-1.310820 -0.869259 3.351382
-1.291621 -0.866947 3.343061
-1.280260 -0.869906 3.354988
-1.267801 -0.872183 3.364219
-1.255698 -0.874767 3.374567
-1.245388 -0.878682 3.389987
-0.037483 -0.058865 0.225579
-0.036317 -0.058710 0.224927
-0.034857 -0.058056 0.222366
-0.033665 -0.057820 0.221411
-0.032638 -0.057864 0.221524
-0.031480 -0.057668 0.220720
-0.030457 -0.057716 0.220854
-0.029508 -0.057913 0.221553
-0.028515 -0.058036 0.221973
-0.027538 -0.058200 0.222553
-0.026585 -0.058432 0.223389
-0.025615 -0.058643 0.224149
-0.024676 -0.058947 0.225263
-0.023717 -0.059230 0.226295
-0.022750 -0.059515 0.227341
-0.021759 -0.059767 0.228258
-0.020874 -0.060351 0.230444
-0.019820 -0.060483 0.230905
-0.018757 -0.060605 0.231331
-0.017719 -0.060824 0.232126
-0.016602 -0.060787 0.231949
-0.015584 -0.061130 0.233221
-0.014527 -0.061361 0.234069
-0.013429 -0.061445 0.234353
-0.012337 -0.061574 0.234817
-0.011243 -0.061721 0.235346
-0.010130 -0.061776 0.235529
-0.009026 -0.061920 0.236048
-0.007921 -0.062088 0.236666
-0.006809 -0.062243 0.237236
-0.005688 -0.062378 0.237728
-0.004564 -0.062532 0.238296
-0.003437 -0.062723 0.239005
-0.002301 -0.062878 0.239583
-0.001160 -0.063072 0.240307
-0.000012 -0.063203 0.240798
0.001143 -0.063437 0.241677
0.002303 -0.063606 0.242316
0.003471 -0.063783 0.242984
0.004644 -0.063941 0.243581
0.005828 -0.064165 0.244435
0.007017 -0.064355 0.245157
0.008210 -0.064528 0.245819
0.009402 -0.064639 0.246250
0.010601 -0.064776 0.246777
0.011808 -0.064927 0.247360
0.013032 -0.065135 0.248163
0.014288 -0.065457 0.249404
0.015505 -0.065561 0.249816
0.016715 -0.065626 0.250078
0.017951 -0.065775 0.250666
0.019176 -0.065867 0.251035
0.020408 -0.065971 0.251451
0.021663 -0.066134 0.252098
0.022894 -0.066209 0.252410
0.024173 -0.066412 0.253207
0.025422 -0.066514 0.253624
0.026682 -0.066634 0.254114
0.027947 -0.066757 0.254612
0.029267 -0.066993 0.255547
0.030578 -0.067193 0.256342
0.031848 -0.067289 0.256744
0.033144 -0.067430 0.257321
0.034398 -0.067481 0.257552
0.035660 -0.067542 0.257823
0.036933 -0.067620 0.258161
0.038213 -0.067705 0.258524
0.039387 -0.067602 0.258174
0.040613 -0.067591 0.258173
0.041791 -0.067504 0.257886
0.042935 -0.067369 0.257413
0.044038 -0.067178 0.256724
0.045216 -0.067109 0.256506
0.046382 -0.067027 0.256235
0.047124 -0.066351 0.253695
0.048044 -0.065953 0.252217
0.048932 -0.065533 0.250652
0.049967 -0.065324 0.249897
0.051109 -0.065262 0.249700
0.052235 -0.065181 0.249434
0.053269 -0.064993 0.248755
0.054321 -0.064834 0.248188
0.055476 -0.064803 0.248106
0.056482 -0.064602 0.247378
0.057485 -0.064406 0.246663
0.058484 -0.064213 0.245962
0.059439 -0.063981 0.245108
0.060503 -0.063872 0.244725
0.061435 -0.063631 0.243832
0.062444 -0.063477 0.243274
0.063481 -0.063357 0.242843
0.064461 -0.063184 0.242210
0.065439 -0.063017 0.241594
0.066362 -0.062802 0.240794
0.067084 -0.062408 0.239304
0.067810 -0.062031 0.237878
0.068627 -0.061747 0.236808
0.069337 -0.061379 0.235410
0.070105 -0.061073 0.234246
0.070838 -0.060746 0.233001
0.071482 -0.060354 0.231504
0.072110 -0.059960 0.229997
0.072791 -0.059622 0.228702
0.073331 -0.059180 0.227004
0.073901 -0.058774 0.225441
0.074706 -0.058565 0.224629
0.075512 -0.058361 0.223835
0.072481 -0.055240 0.211847
0.072925 -0.054816 0.210202
0.072733 -0.053932 0.206791
0.073805 -0.053996 0.207011
0.073405 -0.052995 0.203146
0.073475 -0.052356 0.200663
0.074255 -0.052233 0.200153
0.074843 -0.051979 0.199138
0.074933 -0.051390 0.196839
0.075411 -0.051078 0.195595
0.075720 -0.050661 0.193946
0.076036 -0.050258 0.192348
0.076548 -0.049994 0.191274
0.077279 -0.049876 0.190759
0.077909 -0.049697 0.190001
0.078505 -0.049501 0.189176
0.079452 -0.049528 0.189197
0.080046 -0.049336 0.188379
0.080779 -0.049234 0.187895
0.081545 -0.049154 0.187490
0.082269 -0.049050 0.186993
0.083047 -0.048981 0.186617
0.083845 -0.048924 0.186286
0.084429 -0.048745 0.185481
0.085150 -0.048648 0.184983
0.085828 -0.048529 0.184394
0.086306 -0.048301 0.183382
0.086822 -0.048098 0.182462
0.087214 -0.047831 0.181291
0.087779 -0.047663 0.180492
0.088371 -0.047513 0.179752
0.088842 -0.047302 0.178771
0.089320 -0.047098 0.177814
0.089956 -0.046980 0.177173
0.090626 -0.046883 0.176599
0.091192 -0.046734 0.175824
0.091965 -0.046692 0.175443
0.092839 -0.046703 0.175247
-1.477715 -0.713646 2.752043
-1.473304 -0.717898 2.771840
-1.469716 -0.722633 2.793390
-1.454461 -0.721666 2.792768
-1.445318 -0.723743 2.803787
-1.437647 -0.726603 2.817719
-1.426334 -0.727660 2.824540
-1.413357 -0.727881 2.827988
-1.404421 -0.730208 2.839499
-1.392096 -0.730801 2.844157
-1.384825 -0.734086 2.859181
-1.374172 -0.735627 2.867307
-1.360449 -0.735539 2.868976
-1.339889 -0.731716 2.855959
-1.356589 -0.814687 3.193878
-1.358695 -0.825095 3.235770
-1.356375 -0.833020 3.267864
-1.348966 -0.837968 3.288205
-1.340086 -0.842106 3.305297
-1.331251 -0.846371 3.322810
-1.318591 -0.848277 3.330990
-1.306916 -0.850871 3.341797
-1.293497 -0.852380 3.348271
-1.280313 -0.854083 3.355437
-1.271502 -0.858783 3.374310
-1.256539 -0.859395 3.377053
-1.246591 -0.863496 3.393445
-0.039212 -0.058779 0.229408
-0.037538 -0.057876 0.225825
-0.036224 -0.057490 0.224264
-0.034972 -0.057183 0.223008
-0.034041 -0.057398 0.223789
-0.033164 -0.057722 0.224996
-0.031631 -0.056887 0.221687
-0.030515 -0.056770 0.221178
-0.029570 -0.056974 0.221920
-0.028537 -0.057017 0.222035
-0.027619 -0.057303 0.223098
-0.026736 -0.057689 0.224549
-0.025748 -0.057869 0.225200
-0.024758 -0.058059 0.225893
-0.023776 -0.058289 0.226737
-0.022813 -0.058589 0.227857
-0.021805 -0.058797 0.228621
-0.020775 -0.058964 0.229229
-0.019746 -0.059154 0.229924
-0.018697 -0.059302 0.230458
-0.017670 -0.059542 0.231350
-0.016656 -0.059864 0.232564
-0.015563 -0.059924 0.232759
-0.014489 -0.060077 0.233317
-0.013409 -0.060223 0.233852
-0.012312 -0.060320 0.234194
-0.011213 -0.060418 0.234545
-0.010122 -0.060592 0.235191
-0.009014 -0.060694 0.235561
-0.007931 -0.061015 0.236782
-0.006819 -0.061184 0.237413
-0.005701 -0.061358 0.238068
-0.004574 -0.061495 0.238579
-0.003446 -0.061696 0.239343
-0.002309 -0.061889 0.240077
-0.001165 -0.062057 0.240717
-0.000015 -0.062221 0.241338
