ply
format ascii 1.0
element vertex 1748
property float x
property float y
property float z
end_header
-0.041384 0.000064 0.215245
-0.040448 0.000064 0.215649
-0.039509 0.000064 0.216062
-0.038584 0.000065 0.216584
-0.037638 0.000065 0.217022
-0.036728 0.000065 0.217702
-0.035831 0.000066 0.218514
-0.034858 0.000066 0.218901
-0.033934 0.000067 0.219633
-0.033077 0.000067 0.220871
-0.032085 0.000067 0.221269
-0.031140 0.000068 0.222035
-0.030188 0.000068 0.222816
-0.029140 0.000068 0.222928
-0.028151 0.000069 0.223521
-0.027150 0.000069 0.224077
-0.026131 0.000069 0.224534
-0.025096 0.000069 0.224895
-0.024076 0.000070 0.225442
-0.023058 0.000070 0.226071
-0.022038 0.000070 0.226745
-0.020972 0.000070 0.227010
-0.019926 0.000071 0.227542
-0.018886 0.000071 0.228229
-0.017826 0.000071 0.228749
-0.016863 0.000072 0.230675
-0.015740 0.000072 0.230533
-0.014661 0.000072 0.231089
-0.013582 0.000072 0.231762
-0.012461 0.000072 0.231769
-0.011352 0.000073 0.232053
-0.010242 0.000073 0.232362
-0.009121 0.000073 0.232508
-0.007997 0.000073 0.232637
-0.006874 0.000073 0.232846
-0.005752 0.000073 0.233193
-0.004623 0.000073 0.233373
-0.003492 0.000073 0.233569
-0.002363 0.000074 0.234092
-0.001226 0.000074 0.234341
-0.000087 0.000074 0.235035
0.001060 0.000074 0.235818
0.002212 0.000074 0.236457
0.003364 0.000074 0.236546
0.004529 0.000075 0.237315
0.005695 0.000075 0.237802
0.006861 0.000075 0.238136
0.008027 0.000075 0.238401
0.009231 0.000075 0.239564
0.010486 0.000076 0.241660
0.011696 0.000076 0.242396
0.012901 0.000076 0.242925
0.014031 0.000076 0.242060
0.015213 0.000076 0.242184
0.016397 0.000076 0.242320
0.017624 0.000076 0.243042
0.018953 0.000076 0.244992
0.020268 0.000077 0.246550
0.021476 0.000077 0.246722
0.022610 0.000076 0.246076
0.023893 0.000077 0.247035
0.025129 0.000077 0.247462
0.026340 0.000077 0.247617
0.027586 0.000077 0.248075
0.028851 0.000077 0.248677
0.030154 0.000077 0.249546
0.031480 0.000077 0.250549
0.032822 0.000077 0.251597
0.034280 0.000078 0.253443
0.035670 0.000078 0.254682
0.036918 0.000078 0.254872
0.038204 0.000078 0.255302
0.039581 0.000078 0.256307
0.040932 0.000078 0.257096
0.042237 0.000078 0.257568
0.043467 0.000078 0.257576
0.044720 0.000078 0.257719
0.045951 0.000077 0.257741
0.047181 0.000077 0.257760
0.048354 0.000077 0.257479
0.049381 0.000076 0.256463
0.049525 0.000075 0.251025
0.050110 0.000073 0.248036
0.050746 0.000072 0.245429
0.051609 0.000072 0.244020
0.052692 0.000072 0.243696
0.053697 0.000071 0.243038
0.054671 0.000071 0.242270
0.055637 0.000070 0.241508
0.056532 0.000070 0.240477
0.057514 0.000069 0.239852
0.058457 0.000069 0.239094
0.059139 0.000068 0.237323
0.060119 0.000068 0.236793
0.060961 0.000067 0.235753
0.061904 0.000067 0.235135
0.062732 0.000066 0.234115
0.063561 0.000066 0.233132
0.064467 0.000065 0.232462
0.065345 0.000065 0.231720
0.065978 0.000064 0.230146
0.066037 0.000063 0.226655
0.064970 0.000061 0.219471
0.064830 0.000059 0.215595
0.065281 0.000059 0.213773
0.066047 0.000058 0.213021
0.066733 0.000058 0.212039
0.067537 0.000057 0.211454
0.068163 0.000057 0.210336
0.068533 0.000056 0.208474
0.068968 0.000055 0.206856
0.069707 0.000055 0.206180
0.070483 0.000054 0.205631
0.070981 0.000054 0.204295
0.071631 0.000053 0.203425
0.072250 0.000053 0.202486
0.072996 0.000052 0.201925
0.073643 0.000052 0.201103
0.074164 0.000051 0.199961
0.074825 0.000051 0.199218
0.075441 0.000050 0.198371
0.076026 0.000050 0.197465
0.076665 0.000050 0.196711
0.077433 0.000049 0.196303
0.078095 0.000049 0.195633
0.078735 0.000048 0.194920
0.079484 0.000048 0.194489
0.080348 0.000048 0.194339
0.080961 0.000047 0.193588
0.081326 0.000047 0.192263
0.081720 0.000046 0.191030
0.082179 0.000045 0.189969
0.082563 0.000045 0.188756
0.082800 0.000044 0.187231
0.083094 0.000044 0.185861
0.083595 0.000043 0.184970
0.084184 0.000043 0.184286
0.084176 0.000042 0.182317
0.084341 0.000041 0.180752
0.084578 0.000041 0.179366
0.084902 0.000040 0.178184
0.085140 0.000039 0.176839
0.085528 0.000039 0.175822
0.085788 0.000038 0.174559
0.086283 0.000038 0.173783
0.086434 0.000037 0.172332
0.086825 0.000037 0.171373
0.087199 0.000036 0.170389
0.087477 0.000036 0.169232
0.087869 0.000035 0.168303
-0.663400 0.007417 1.499532
-0.672465 0.007601 1.536401
-0.667865 0.007633 1.542468
-0.661025 0.007640 1.543402
-0.661890 0.007737 1.562509
-0.656534 0.007763 1.567158
-0.648250 0.007754 1.564811
-0.639484 0.007739 1.561201
-0.633252 0.007754 1.563739
-0.603158 0.007658 1.542400
-0.594507 0.007642 1.538471
-0.583200 0.007591 1.527471
-0.573645 0.007562 1.520828
-0.066922 0.001181 0.234636
-0.065921 0.001183 0.234920
-0.063715 0.001163 0.230852
-0.061923 0.001150 0.228176
-0.060045 0.001136 0.225087
-0.057366 0.001105 0.218835
-0.055518 0.001089 0.215590
-0.053881 0.001077 0.213065
-0.052205 0.001064 0.210292
-0.049687 0.001032 0.203958
-0.048141 0.001020 0.201451
-0.047500 0.001027 0.202713
-0.046809 0.001034 0.203812
-0.046084 0.001039 0.204805
-0.045564 0.001050 0.206779
-0.044709 0.001053 0.207293
-0.044001 0.001060 0.208529
-0.043324 0.001069 0.209974
-0.042741 0.001079 0.211961
-0.041900 0.001084 0.212734
-0.041039 0.001088 0.213455
-0.040148 0.001092 0.214052
-0.039364 0.001099 0.215271
-0.038457 0.001103 0.215877
-0.037554 0.001107 0.216540
-0.036653 0.001111 0.217261
-0.035756 0.001116 0.218059
-0.034803 0.001119 0.218558
-0.033869 0.001123 0.219221
-0.032967 0.001128 0.220145
-0.032069 0.001134 0.221163
-0.031109 0.001138 0.221823
-0.030127 0.001142 0.222371
-0.029143 0.001145 0.222953
-0.028139 0.001148 0.223436
-0.027128 0.001151 0.223899
-0.026119 0.001155 0.224439
-0.025089 0.001157 0.224834
-0.024063 0.001160 0.225324
-0.023059 0.001165 0.226087
-0.022035 0.001168 0.226721
-0.020972 0.001170 0.227016
-0.019920 0.001173 0.227478
-0.018880 0.001177 0.228156
-0.017819 0.001180 0.228653
-0.016797 0.001186 0.229771
-0.015749 0.001191 0.230674
-0.014646 0.001192 0.230859
-0.013551 0.001195 0.231232
-0.012466 0.001198 0.231864
-0.011345 0.001199 0.231906
-0.010230 0.001200 0.232094
-0.009117 0.001202 0.232420
-0.007993 0.001203 0.232509
-0.006874 0.001205 0.232827
-0.005751 0.001206 0.233143
-0.004625 0.001208 0.233474
-0.003497 0.001210 0.233862
-0.002361 0.001211 0.233994
-0.001226 0.001214 0.234448
-0.000087 0.001216 0.234934
0.001060 0.001221 0.235804
0.002209 0.001222 0.236110
0.003362 0.001224 0.236418
0.004519 0.001226 0.236820
0.005690 0.001230 0.237626
0.006849 0.001231 0.237746
0.008011 0.001231 0.237920
0.009190 0.001234 0.238507
0.010361 0.001236 0.238782
0.011560 0.001240 0.239575
0.012816 0.001248 0.241323
0.014019 0.001251 0.241864
0.015218 0.001253 0.242269
0.016454 0.001257 0.243157
0.017690 0.001261 0.243954
0.018926 0.001264 0.244642
0.020162 0.001267 0.245267
0.021405 0.001270 0.245908
0.022625 0.001272 0.246240
0.023832 0.001272 0.246413
0.025064 0.001274 0.246825
0.026333 0.001277 0.247553
0.027592 0.001280 0.248133
0.028866 0.001283 0.248808
0.030096 0.001283 0.249068
0.031411 0.001288 0.249998
0.032976 0.001302 0.252780
0.034419 0.001310 0.254474
0.035675 0.001310 0.254723
0.036946 0.001312 0.255063
0.038241 0.001314 0.255552
0.039583 0.001317 0.256322
0.040949 0.001321 0.257211
0.042240 0.001322 0.257592
0.043487 0.001322 0.257696
0.044717 0.001321 0.257703
0.045951 0.001321 0.257743
0.047173 0.001320 0.257719
0.048353 0.001318 0.257480
0.049472 0.001315 0.256938
0.050268 0.001303 0.254798
0.049975 0.001264 0.247370
0.050743 0.001254 0.245416
0.051760 0.001249 0.244739
0.052688 0.001243 0.243680
0.053581 0.001237 0.242512
0.054624 0.001234 0.242064
0.055432 0.001225 0.240619
0.056367 0.001220 0.239777
0.057312 0.001216 0.239011
0.058378 0.001214 0.238776
0.059265 0.001208 0.237831
0.060108 0.001202 0.236752
0.061003 0.001197 0.235917
0.061817 0.001191 0.234808
0.062603 0.001184 0.233634
0.063460 0.001179 0.232763
0.064374 0.001175 0.232128
0.065212 0.001170 0.231247
0.065707 0.001159 0.229200
0.065816 0.001142 0.225897
0.065379 0.001115 0.220853
0.064552 0.001084 0.214670
0.065513 0.001082 0.214532
0.066105 0.001075 0.213211
0.066862 0.001071 0.212451
0.067613 0.001066 0.211692
0.068263 0.001060 0.210646
0.068807 0.001053 0.209307
0.069351 0.001046 0.208005
0.070053 0.001041 0.207204
0.070787 0.001037 0.206519
0.071209 0.001029 0.204952
0.072057 0.001027 0.204633
0.072678 0.001022 0.203687
0.073173 0.001015 0.202416
0.073663 0.001008 0.201160
0.074316 0.001004 0.200374
0.075034 0.001000 0.199775
0.075580 0.000995 0.198740
0.076174 0.000990 0.197850
0.076834 0.000986 0.197146
0.077395 0.000981 0.196206
0.078129 0.000978 0.195718
0.078795 0.000974 0.195070
0.079498 0.000971 0.194521
0.080052 0.000967 0.193622
0.080645 0.000962 0.192832
0.081272 0.000959 0.192135
0.081638 0.000952 0.190839
0.082261 0.000948 0.190161
0.082428 0.000940 0.188449
0.082671 0.000932 0.186940
0.083178 0.000927 0.186048
0.083685 0.000923 0.185171
0.084170 0.000918 0.184256
0.084398 0.000911 0.182798
0.084656 0.000904 0.181427
0.084909 0.000897 0.180067
0.085080 0.000890 0.178557
0.085189 0.000882 0.176941
0.085605 0.000877 0.175982
0.085949 0.000872 0.174885
0.086160 0.000865 0.173537
0.086638 0.000861 0.172738
0.086917 0.000856 0.171553
0.087180 0.000850 0.170353
0.087319 0.000843 0.168926
0.087571 0.000837 0.167734
-0.678692 0.014816 1.534101
-0.672625 0.014844 1.536770
-0.668203 0.014908 1.543254
-0.662087 0.014936 1.545887
-0.662649 0.015116 1.564307
-0.655919 0.015133 1.565697
-0.650714 0.015185 1.570765
-0.644454 0.015213 1.573344
-0.633197 0.015123 1.563610
-0.625270 0.015111 1.561943
-0.621498 0.015200 1.570711
-0.606738 0.015020 1.551565
-0.598350 0.014994 1.548427
-0.588728 0.014937 1.541960
-0.576590 0.014813 1.528647
-0.068914 0.002288 0.234064
-0.067660 0.002283 0.233455
-0.066276 0.002274 0.232373
-0.064469 0.002249 0.229750
-0.062721 0.002226 0.227255
-0.060259 0.002177 0.222048
-0.058778 0.002161 0.220342
-0.056885 0.002130 0.217004
-0.055341 0.002110 0.214905
-0.053679 0.002086 0.212269
-0.052422 0.002076 0.211170
-0.049448 0.001997 0.202980
-0.048504 0.001998 0.202975
-0.047642 0.002002 0.203322
-0.046840 0.002010 0.203948
-0.046001 0.002016 0.204443
-0.045294 0.002028 0.205561
-0.044597 0.002041 0.206776
-0.043862 0.002053 0.207871
-0.043175 0.002068 0.209257
-0.042353 0.002077 0.210040
-0.041835 0.002102 0.212411
-0.040946 0.002108 0.212974
-0.040066 0.002116 0.213617
-0.039227 0.002126 0.214527
-0.038346 0.002135 0.215260
-0.037465 0.002143 0.216031
-0.036617 0.002155 0.217052
-0.035682 0.002161 0.217612
-0.034785 0.002171 0.218448
-0.033913 0.002183 0.219509
-0.033228 0.002207 0.221889
-0.032030 0.002199 0.220896
-0.031104 0.002208 0.221787
-0.030167 0.002218 0.222669
-0.029114 0.002220 0.222737
-0.028125 0.002227 0.223326
-0.027130 0.002234 0.223926
-0.026148 0.002242 0.224689
-0.025113 0.002247 0.225055
-0.024092 0.002253 0.225605
-0.023119 0.002265 0.226681
-0.022077 0.002271 0.227157
-0.021008 0.002274 0.227415
-0.019980 0.002282 0.228176
-0.018907 0.002286 0.228495
-0.017868 0.002295 0.229299
-0.016794 0.002300 0.229737
-0.015705 0.002304 0.230044
-0.014653 0.002314 0.230982
-0.013552 0.002317 0.231258
-0.012452 0.002321 0.231611
-0.011344 0.002325 0.231891
-0.010232 0.002328 0.232151
-0.009111 0.002330 0.232272
-0.007990 0.002332 0.232435
-0.006867 0.002334 0.232613
-0.005745 0.002337 0.232891
-0.004620 0.002340 0.233217
-0.003491 0.002343 0.233494
-0.002361 0.002348 0.233958
-0.001227 0.002355 0.234581
-0.000087 0.002361 0.235223
0.001059 0.002365 0.235562
0.002209 0.002370 0.236061
0.003365 0.002375 0.236614
0.004536 0.002386 0.237687
0.005705 0.002392 0.238234
0.006857 0.002389 0.238021
0.008028 0.002393 0.238418
0.009208 0.002399 0.238984
0.010365 0.002397 0.238875
0.011520 0.002396 0.238755
0.012794 0.002417 0.240919
0.013975 0.002419 0.241107
0.015231 0.002432 0.242481
0.016357 0.002424 0.241740
0.017660 0.002442 0.243543
0.018884 0.002447 0.244109
0.020304 0.002475 0.246995
0.021448 0.002469 0.246407
0.022619 0.002466 0.246177
0.023885 0.002473 0.246963
0.025125 0.002477 0.247427
0.026347 0.002479 0.247685
0.027579 0.002481 0.248021
0.028820 0.002485 0.248414
0.030128 0.002493 0.249344
0.031379 0.002496 0.249748
0.032848 0.002516 0.251810
0.034251 0.002529 0.253240
0.035699 0.002545 0.254896
0.036892 0.002542 0.254699
0.038157 0.002544 0.255002
0.039495 0.002550 0.255762
0.040888 0.002560 0.256832
0.042201 0.002564 0.257358
0.043459 0.002564 0.257531
0.044683 0.002563 0.257515
0.045922 0.002563 0.257583
0.047142 0.002561 0.257555
0.048336 0.002558 0.257392
0.049486 0.002553 0.257019
0.050447 0.002539 0.255707
0.049831 0.002448 0.246661
0.050702 0.002433 0.245222
0.051611 0.002420 0.244036
0.052807 0.002420 0.244235
0.053621 0.002404 0.242699
0.054567 0.002394 0.241816
0.055459 0.002382 0.240742
0.056435 0.002374 0.240068
0.057370 0.002365 0.239258
0.058275 0.002355 0.238357
0.059303 0.002350 0.237987
0.060229 0.002341 0.237232
0.061183 0.002334 0.236617
0.062100 0.002326 0.235885
0.062928 0.002314 0.234850
0.063765 0.002304 0.233884
0.064605 0.002293 0.232966
0.065366 0.002281 0.231797
0.065978 0.002263 0.230151
0.066356 0.002239 0.227753
0.067335 0.002235 0.227465
0.064635 0.002111 0.214949
0.065170 0.002095 0.213412
0.066040 0.002090 0.213002
0.066837 0.002083 0.212373
0.067519 0.002072 0.211400
0.068176 0.002061 0.210382
0.068814 0.002050 0.209332
0.069423 0.002038 0.208223
0.070052 0.002027 0.207203
0.070684 0.002017 0.206221
0.071406 0.002009 0.205520
0.072026 0.001999 0.204548
0.072718 0.001991 0.203802
0.073499 0.001986 0.203319
0.074098 0.001976 0.202348
0.074766 0.001968 0.201588
0.075394 0.001959 0.200735
0.075851 0.001946 0.199453
0.076223 0.001931 0.197976
0.077075 0.001928 0.197765
0.077694 0.001920 0.196966
0.078374 0.001913 0.196332
0.079188 0.001910 0.196043
0.080039 0.001908 0.195846
0.080871 0.001905 0.195604
0.081214 0.001891 0.194193
0.080979 0.001864 0.191445
0.081602 0.001857 0.190756
0.082064 0.001847 0.189706
0.082563 0.001838 0.188758
0.082750 0.001822 0.187119
0.083246 0.001813 0.186202
0.083794 0.001805 0.185410
0.084225 0.001795 0.184377
0.084612 0.001784 0.183262
0.084621 0.001766 0.181351
0.084567 0.001747 0.179343
0.084942 0.001737 0.178266
0.085119 0.001723 0.176795
0.085536 0.001714 0.175840
0.085792 0.001702 0.174566
0.086100 0.001691 0.173414
0.086372 0.001680 0.172207
0.086857 0.001673 0.171434
0.087122 0.001662 0.170237
0.087098 0.001646 0.168498
0.087305 0.001634 0.167222
-0.672592 0.022083 1.536698
-0.659720 0.021898 1.523667
-0.654938 0.021979 1.529202
-0.662615 0.022486 1.564233
-0.655221 0.022486 1.564038
-0.648188 0.022499 1.564678
-0.640525 0.022490 1.563762
-0.636709 0.022617 1.572295
-0.628147 0.022577 1.569142
-0.621463 0.022604 1.570635
-0.611988 0.022529 1.565005
-0.605695 0.022571 1.567450
-0.069048 0.003406 0.234525
-0.067549 0.003387 0.233078
-0.065872 0.003358 0.230963
-0.064008 0.003318 0.228113
-0.061990 0.003269 0.224615
-0.059642 0.003200 0.219782
-0.058338 0.003186 0.218696
-0.057125 0.003177 0.217927
-0.056215 0.003184 0.218307
-0.054968 0.003172 0.217372
-0.053058 0.003121 0.213738
-0.050011 0.003000 0.205300
-0.048476 0.002966 0.202862
-0.047845 0.002987 0.204197
-0.047076 0.003000 0.204983
-0.046292 0.003013 0.205743
-0.045315 0.003013 0.205662
-0.044520 0.003026 0.206424
-0.043868 0.003050 0.207909
-0.043237 0.003076 0.209563
-0.042585 0.003101 0.211197
-0.041736 0.003114 0.211915
-0.040871 0.003125 0.212594
-0.039986 0.003136 0.213198
-0.039412 0.003172 0.215550
-0.038544 0.003186 0.216376
-0.037634 0.003197 0.217016
-0.036652 0.003203 0.217272
-0.035725 0.003213 0.217881
-0.034820 0.003227 0.218679
-0.033909 0.003240 0.219488
-0.032991 0.003254 0.220319
-0.032022 0.003263 0.220854
-0.031064 0.003275 0.221516
-0.030093 0.003285 0.222134
-0.029099 0.003294 0.222635
-0.028095 0.003303 0.223100
-0.027095 0.003312 0.223646
-0.026104 0.003323 0.224322
-0.025109 0.003335 0.225037
-0.024116 0.003349 0.225841
-0.023103 0.003360 0.226536
-0.022070 0.003370 0.227097
-0.021023 0.003378 0.227586
-0.019967 0.003386 0.228032
-0.018906 0.003394 0.228489
-0.017835 0.003401 0.228885
-0.016779 0.003412 0.229541
-0.015733 0.003426 0.230459
-0.014639 0.003432 0.230777
-0.013532 0.003435 0.230920
-0.012430 0.003440 0.231218
-0.011332 0.003447 0.231662
-0.010223 0.003453 0.231964
-0.009105 0.003456 0.232140
-0.007994 0.003463 0.232564
-0.006879 0.003470 0.233037
-0.005757 0.003476 0.233406
-0.004627 0.003479 0.233569
-0.003498 0.003485 0.233965
-0.002364 0.003491 0.234330
-0.001227 0.003495 0.234578
-0.000086 0.003500 0.234867
0.001058 0.003509 0.235505
0.002207 0.003515 0.235901
0.003361 0.003522 0.236349
0.004519 0.003529 0.236805
0.005718 0.003558 0.238799
0.006896 0.003567 0.239363
0.008054 0.003564 0.239215
0.009237 0.003572 0.239747
0.010396 0.003569 0.239589
0.011560 0.003569 0.239600
0.012874 0.003610 0.242419
0.014053 0.003610 0.242455
0.015236 0.003611 0.242566
0.016450 0.003619 0.243122
0.017642 0.003621 0.243305
0.018847 0.003625 0.243633
0.020106 0.003639 0.244601
0.021418 0.003660 0.246075
0.022643 0.003665 0.246453
0.023829 0.003663 0.246394
0.025069 0.003669 0.246884
0.026308 0.003675 0.247330
0.027543 0.003679 0.247705
0.028841 0.003691 0.248605
0.030067 0.003694 0.248843
0.031382 0.003706 0.249782
0.032869 0.003737 0.251977
0.034339 0.003765 0.253897
0.035673 0.003775 0.254721
0.036878 0.003772 0.254612
0.038117 0.003773 0.254743
0.039434 0.003781 0.255376
0.040809 0.003793 0.256342
0.042113 0.003799 0.256831
0.043389 0.003802 0.257130
0.044633 0.003802 0.257235
0.045842 0.003799 0.257141
0.047068 0.003797 0.257157
0.048256 0.003793 0.256972
0.049389 0.003784 0.256522
0.049474 0.003698 0.250786
0.049823 0.003635 0.246627
0.050440 0.003594 0.243966
0.051504 0.003586 0.243540
0.052641 0.003583 0.243473
0.053537 0.003565 0.242326
0.054511 0.003552 0.241577
0.055537 0.003543 0.241085
0.056516 0.003532 0.240421
0.057460 0.003518 0.239639
0.058419 0.003506 0.238950
0.059376 0.003495 0.238284
0.060306 0.003482 0.237540
0.061242 0.003471 0.236851
0.062065 0.003453 0.235757
0.062711 0.003426 0.234045
0.063756 0.003422 0.233858
0.064744 0.003415 0.233471
0.065380 0.003389 0.231852
0.065629 0.003345 0.228937
0.066616 0.003339 0.228652
0.064481 0.003180 0.217828
0.064538 0.003132 0.214632
0.065216 0.003115 0.213568
0.066164 0.003111 0.213408
0.066785 0.003093 0.212212
0.067331 0.003071 0.210816
0.067925 0.003052 0.209611
0.068669 0.003041 0.208894
0.069333 0.003026 0.207955
0.070175 0.003019 0.207571
0.070588 0.002994 0.205943
0.071226 0.002980 0.205003
0.071061 0.002932 0.201810
0.072400 0.002947 0.202911
0.073410 0.002949 0.203074
0.074104 0.002938 0.202367
0.074726 0.002924 0.201482
0.075480 0.002916 0.200965
0.075971 0.002898 0.199769
0.076323 0.002875 0.198237
0.076897 0.002861 0.197311
0.077537 0.002849 0.196568
0.078217 0.002840 0.195940
0.078795 0.002827 0.195070
0.079645 0.002824 0.194882
0.080007 0.002803 0.193516
0.080698 0.002795 0.192959
0.081299 0.002784 0.192199
0.081654 0.002765 0.190878
0.082110 0.002749 0.189813
0.082751 0.002740 0.189188
0.083194 0.002725 0.188123
0.083584 0.002708 0.186956
0.083927 0.002690 0.185706
0.084458 0.002679 0.184886
0.084779 0.002661 0.183623
0.085146 0.002645 0.182477
0.085226 0.002620 0.180740
0.085082 0.002589 0.178561
0.085720 0.002582 0.178042
0.085886 0.002561 0.176558
0.085955 0.002538 0.174896
0.085891 0.002512 0.172993
0.086081 0.002493 0.171626
0.086074 0.002469 0.169887
0.086681 0.002462 0.169374
0.086686 0.002439 0.167698
0.086984 0.002425 0.166604
-0.659675 0.029074 1.523567
-0.643489 0.028674 1.502475
-0.646372 0.029124 1.525895
-0.645593 0.029417 1.541066
-0.643109 0.029638 1.552427
-0.640478 0.029857 1.563658
-0.636661 0.030026 1.572190
-0.629305 0.030029 1.572049
-0.623007 0.030084 1.574554
-0.613210 0.029968 1.568147
-0.603155 0.029838 1.560894
-0.599733 0.030036 1.570822
-0.068246 0.004467 0.231808
-0.067687 0.004503 0.233561
-0.066563 0.004502 0.233393
-0.065342 0.004495 0.232876
-0.063814 0.004465 0.231231
-0.059520 0.004238 0.219338
-0.058076 0.004209 0.217722
-0.057079 0.004212 0.217760
-0.056086 0.004215 0.217815
-0.054723 0.004191 0.216411
-0.053121 0.004146 0.214001
-0.051308 0.004083 0.210631
-0.048813 0.003962 0.204280
-0.047595 0.003942 0.203137
-0.046658 0.003945 0.203173
-0.045903 0.003964 0.204023
-0.045106 0.003979 0.204724
-0.044414 0.004005 0.205942
-0.043803 0.004040 0.207611
-0.043321 0.004088 0.209980
-0.042606 0.004117 0.211314
-0.041721 0.004129 0.211849
-0.040822 0.004141 0.212346
-0.039965 0.004158 0.213098
-0.039227 0.004188 0.214547
-0.038362 0.004207 0.215367
-0.037513 0.004228 0.216330
-0.036641 0.004247 0.217214
-0.035703 0.004260 0.217759
-0.034770 0.004274 0.218373
-0.033822 0.004287 0.218938
-0.032902 0.004305 0.219737
-0.031964 0.004321 0.220463
-0.031039 0.004340 0.221345
-0.030073 0.004355 0.221999
-0.029083 0.004367 0.222526
-0.028111 0.004383 0.223239
-0.027112 0.004396 0.223801
-0.026123 0.004412 0.224500
-0.025132 0.004428 0.225251
-0.024096 0.004438 0.225664
-0.023102 0.004457 0.226537
-0.022048 0.004465 0.226891
-0.021032 0.004483 0.227694
-0.019979 0.004494 0.228184
-0.018906 0.004502 0.228506
-0.017840 0.004512 0.228955
-0.016764 0.004521 0.229354
-0.015718 0.004540 0.230253
-0.014628 0.004548 0.230612
-0.013524 0.004553 0.230808
-0.012424 0.004560 0.231122
-0.011322 0.004568 0.231477
-0.010214 0.004575 0.231775
-0.009098 0.004580 0.231981
-0.007986 0.004588 0.232351
-0.006873 0.004599 0.232852
-0.005759 0.004612 0.233500
-0.004657 0.004645 0.235124
-0.003516 0.004647 0.235197
-0.002375 0.004651 0.235390
-0.001234 0.004663 0.235959
-0.000087 0.004664 0.236025
0.001063 0.004674 0.236495
0.002220 0.004688 0.237221
0.003374 0.004689 0.237289
0.004552 0.004714 0.238552
0.005738 0.004736 0.239642
0.006895 0.004730 0.239353
0.008078 0.004741 0.239932
0.009260 0.004749 0.240335
0.010430 0.004749 0.240390
0.011619 0.004757 0.240828
0.012837 0.004775 0.241751
0.014059 0.004791 0.242582
0.015245 0.004793 0.242720
0.016433 0.004795 0.242877
0.017646 0.004804 0.243364
0.018867 0.004813 0.243911
0.020086 0.004822 0.244371
0.021377 0.004845 0.245612
0.022599 0.004851 0.245985
0.023822 0.004857 0.246329
0.025066 0.004866 0.246870
0.026297 0.004872 0.247239
0.027536 0.004879 0.247659
0.028736 0.004878 0.247717
0.030002 0.004889 0.248322
0.031279 0.004900 0.248971
0.032958 0.004971 0.252668
0.034325 0.004991 0.253802
0.035611 0.004999 0.254292
0.036874 0.005003 0.254593
0.038165 0.005011 0.255074
0.039460 0.005018 0.255553
0.040791 0.005030 0.256244
0.042065 0.005034 0.256549
0.043320 0.005035 0.256732
0.044561 0.005035 0.256831
0.045803 0.005035 0.256933
0.046997 0.005030 0.256781
0.048197 0.005025 0.256673
0.049379 0.005019 0.256481
0.049886 0.004947 0.252881
0.049834 0.004823 0.246692
0.050579 0.004781 0.244644
0.051564 0.004763 0.243834
0.052696 0.004759 0.243739
0.053616 0.004736 0.242691
0.054588 0.004719 0.241924
0.055590 0.004705 0.241324
0.056458 0.004681 0.240181
0.057377 0.004661 0.239299
0.058372 0.004649 0.238769
0.059369 0.004637 0.238266
0.060269 0.004618 0.237405
0.061279 0.004608 0.237001
0.062254 0.004595 0.236482
0.063010 0.004568 0.235170
0.063823 0.004545 0.234109
0.064713 0.004529 0.233367
0.065530 0.004508 0.232390
0.065785 0.004449 0.229489
0.065930 0.004386 0.226302
0.064474 0.004219 0.217809
0.064697 0.004166 0.215165
0.065109 0.004127 0.213221
0.066260 0.004135 0.213720
0.066736 0.004101 0.212062
0.067305 0.004074 0.210739
0.068025 0.004057 0.209922
0.068719 0.004038 0.209050
0.069441 0.004022 0.208285
0.070164 0.004006 0.207542
0.070923 0.003993 0.206922
0.071631 0.003977 0.206174
0.072183 0.003953 0.204998
0.072929 0.003941 0.204398
0.073727 0.003931 0.203955
0.074307 0.003910 0.202925
0.074966 0.003894 0.202132
0.075573 0.003875 0.201215
0.076251 0.003861 0.200508
0.076580 0.003829 0.198909
0.077278 0.003816 0.198289
0.077669 0.003789 0.196905
0.078179 0.003768 0.195847
0.078767 0.003751 0.195003
0.079500 0.003742 0.194530
0.080122 0.003728 0.193794
0.080745 0.003713 0.193074
0.081079 0.003686 0.191680
0.081763 0.003676 0.191133
0.082040 0.003647 0.189649
0.082685 0.003636 0.189037
0.082924 0.003607 0.187511
0.083427 0.003589 0.186605
0.083786 0.003567 0.185394
0.084201 0.003547 0.184323
0.084719 0.003531 0.183492
0.085112 0.003511 0.182403
0.085397 0.003487 0.181099
0.085767 0.003466 0.179995
0.086081 0.003444 0.178789
0.086280 0.003418 0.177365
0.086364 0.003388 0.175726
0.086104 0.003344 0.173418
0.085937 0.003306 0.171335
0.086049 0.003278 0.169835
0.086413 0.003261 0.168848
0.086783 0.003244 0.167881
0.087137 0.003227 0.166895
-0.643432 0.035750 1.502347
-0.628348 0.035301 1.483355
-0.634980 0.036075 1.515741
-0.638612 0.036695 1.541583
-0.638163 0.037092 1.558021
-0.633650 0.037259 1.564770
-0.631608 0.037576 1.577821
-0.625287 0.037644 1.580335
-0.617651 0.037633 1.579526
-0.608279 0.037515 1.574179
-0.599672 0.037442 1.570686
-0.593329 0.037510 1.573091
-0.069874 0.005701 0.237348
-0.067675 0.005612 0.233528
-0.066230 0.005584 0.232235
-0.064940 0.005568 0.231451
-0.063902 0.005573 0.231558
-0.063026 0.005593 0.232268
-0.063086 0.005699 0.236517
-0.060268 0.005543 0.229936
-0.059140 0.005540 0.229685
-0.057499 0.005488 0.227403
-0.056060 0.005453 0.225850
-0.052108 0.005168 0.213926
-0.050253 0.005084 0.210319
-0.051891 0.005356 0.221481
-0.049788 0.005246 0.216814
-0.048997 0.005273 0.217786
-0.047954 0.005273 0.217661
-0.044479 0.004999 0.206258
-0.043655 0.005018 0.206919
-0.043038 0.005062 0.208620
-0.042293 0.005092 0.209770
-0.041670 0.005139 0.211602
-0.040836 0.005162 0.212433
-0.040040 0.005191 0.213513
-0.039177 0.005213 0.214285
-0.038342 0.005239 0.215268
-0.037461 0.005261 0.216041
-0.036519 0.005275 0.216507
-0.035611 0.005295 0.217216
-0.034679 0.005312 0.217818
-0.033781 0.005336 0.218689
-0.032912 0.005366 0.219816
-0.032043 0.005398 0.221026
-0.031051 0.005411 0.221452
-0.030078 0.005428 0.222051
-0.029101 0.005445 0.222673
-0.028087 0.005457 0.223064
-0.027097 0.005475 0.223693
-0.026103 0.005493 0.224345
-0.025142 0.005520 0.225365
-0.024106 0.005532 0.225774
-0.023087 0.005550 0.226411
-0.022102 0.005577 0.227458
-0.021034 0.005586 0.227742
-0.020002 0.005606 0.228470
-0.018927 0.005615 0.228780
-0.017847 0.005624 0.229066
-0.016773 0.005636 0.229495
-0.015676 0.005642 0.229662
-0.014594 0.005654 0.230098
-0.013505 0.005665 0.230501
-0.012421 0.005681 0.231085
-0.011323 0.005693 0.231509
-0.010222 0.005705 0.231972
-0.009122 0.005722 0.232597
-0.008003 0.005730 0.232885
-0.006894 0.005748 0.233575
-0.005769 0.005757 0.233945
-0.004637 0.005763 0.234140
-0.003507 0.005776 0.234648
-0.002372 0.005790 0.235196
-0.001232 0.005801 0.235641
-0.000086 0.005800 0.235558
0.001072 0.005870 0.238403
0.002209 0.005812 0.236025
0.003408 0.005901 0.239650
0.004570 0.005897 0.239514
0.005740 0.005902 0.239708
0.006917 0.005912 0.240130
0.008092 0.005917 0.240343
0.009269 0.005923 0.240598
0.010454 0.005931 0.240948
0.011641 0.005939 0.241305
0.012852 0.005956 0.242032
0.014065 0.005972 0.242692
0.015262 0.005978 0.243006
0.016451 0.005981 0.243159
0.017698 0.006003 0.244105
0.018926 0.006017 0.244690
0.020210 0.006045 0.245889
0.021425 0.006051 0.246180
0.022639 0.006055 0.246436
0.023858 0.006061 0.246719
0.025077 0.006066 0.246990
0.026326 0.006077 0.247526
0.027556 0.006084 0.247856
0.028810 0.006094 0.248362
0.030067 0.006105 0.248873
0.031410 0.006131 0.250033
0.032921 0.006187 0.252400
0.034265 0.006209 0.253378
0.035538 0.006217 0.253786
0.036883 0.006236 0.254672
0.038146 0.006241 0.254963
0.039430 0.006249 0.255376
0.040704 0.006254 0.255707
0.042011 0.006265 0.256233
0.043273 0.006268 0.256468
0.044506 0.006267 0.256528
0.045719 0.006263 0.256479
0.046963 0.006263 0.256609
0.048148 0.006256 0.256421
0.049267 0.006241 0.255910
0.049678 0.006139 0.251843
0.049816 0.006009 0.246615
0.050645 0.005966 0.244976
0.051596 0.005939 0.243993
0.052755 0.005937 0.244022
0.053746 0.005917 0.243290
0.054656 0.005888 0.242236
0.055580 0.005863 0.241294
0.056528 0.005841 0.240490
0.057413 0.005813 0.239459
0.058329 0.005789 0.238602
0.059301 0.005772 0.238003
0.060232 0.005752 0.237269
0.061203 0.005736 0.236717
0.062098 0.005713 0.235899
0.063013 0.005693 0.235187
0.063877 0.005670 0.234316
0.064721 0.005645 0.233402
0.065497 0.005616 0.232281
0.066172 0.005578 0.230846
0.066661 0.005527 0.228818
0.064266 0.005242 0.217114
0.064649 0.005189 0.215014
0.065061 0.005140 0.213072
0.065848 0.005122 0.212398
0.066656 0.005106 0.211812
0.067348 0.005081 0.210881
0.068057 0.005059 0.210027
0.068669 0.005030 0.208903
0.069456 0.005015 0.208334
0.070229 0.004999 0.207737
0.070897 0.004976 0.206852
0.071648 0.004959 0.206227
0.072325 0.004938 0.205405
0.073062 0.004921 0.204774
0.073796 0.004905 0.204148
0.074444 0.004883 0.203301
0.075165 0.004867 0.202671
0.075784 0.004844 0.201779
0.076364 0.004820 0.200808
0.076785 0.004786 0.199443
0.077297 0.004759 0.198340
0.078043 0.004747 0.197854
0.078609 0.004724 0.196925
0.079101 0.004697 0.195830
0.079804 0.004683 0.195274
0.080471 0.004668 0.194640
0.080864 0.004637 0.193358
0.081226 0.004605 0.192028
0.081782 0.004584 0.191176
0.082081 0.004550 0.189745
0.082647 0.004531 0.188948
0.082936 0.004498 0.187538
0.083353 0.004472 0.186439
0.083705 0.004443 0.185213
0.084310 0.004428 0.184559
0.084789 0.004407 0.183641
0.085309 0.004388 0.182824
0.085712 0.004364 0.181767
0.086303 0.004350 0.181118
0.086771 0.004330 0.180221
0.087205 0.004308 0.179263
0.088032 0.004306 0.179116
0.085891 0.004161 0.172987
0.085910 0.004122 0.171279
0.085856 0.004080 0.169451
0.086316 0.004063 0.168654
0.086903 0.004052 0.168111
0.086889 0.004014 0.166416
-0.645771 0.044452 1.558877
-0.639556 0.044531 1.561435
-0.636789 0.044855 1.572538
-0.633901 0.045177 1.583568
-0.626376 0.045173 1.583111
-0.625488 0.045653 1.599591
-0.608205 0.044934 1.574013
-0.601485 0.044986 1.575464
-0.592384 0.044860 1.570615
-0.586026 0.044941 1.572996
-0.569264 0.044216 1.547142
-0.069863 0.006827 0.237321
-0.068452 0.006799 0.236222
-0.067332 0.006799 0.236108
-0.066291 0.006807 0.236279
-0.065245 0.006815 0.236435
-0.064196 0.006823 0.236594
-0.063076 0.006824 0.236490
-0.062035 0.006833 0.236690
-0.060696 0.006809 0.235742
-0.059256 0.006773 0.234364
-0.056871 0.006625 0.229131
-0.054439 0.006466 0.223507
-0.053360 0.006465 0.223335
-0.051881 0.006414 0.221455
-0.050157 0.006330 0.218432
-0.048922 0.006305 0.217467
-0.047297 0.006228 0.214692
-0.044603 0.006003 0.206844
-0.043715 0.006017 0.207217
-0.043051 0.006064 0.208698
-0.042353 0.006107 0.210083
-0.041608 0.006146 0.211302
-0.040839 0.006183 0.212465
-0.040008 0.006212 0.213356
-0.039253 0.006255 0.214717
-0.038330 0.006272 0.215214
-0.037480 0.006303 0.216171
-0.036546 0.006321 0.216683
-0.035610 0.006340 0.217222
-0.034701 0.006365 0.217974
-0.033737 0.006381 0.218423
-0.032829 0.006410 0.219283
-0.031888 0.006433 0.219976
-0.031042 0.006478 0.221408
-0.030062 0.006496 0.221953
-0.029045 0.006508 0.222270
-0.028108 0.006540 0.223254
-0.027128 0.006563 0.223965
-0.026087 0.006574 0.224229
-0.025071 0.006591 0.224742
-0.024053 0.006610 0.225297
-0.023020 0.006626 0.225768
-0.021981 0.006643 0.226237
-0.020977 0.006671 0.227141
-0.019946 0.006694 0.227854
-0.018881 0.006708 0.228243
-0.017809 0.006721 0.228608
-0.016737 0.006735 0.229028
-0.015651 0.006745 0.229322
-0.014567 0.006758 0.229693
-0.013483 0.006773 0.230144
-0.012383 0.006782 0.230398
-0.011290 0.006797 0.230857
-0.010199 0.006817 0.231494
-0.009102 0.006837 0.232124
-0.007999 0.006857 0.232771
-0.006901 0.006890 0.233864
-0.005782 0.006910 0.234513
-0.004647 0.006916 0.234689
-0.003513 0.006928 0.235052
-0.002377 0.006948 0.235719
-0.001234 0.006960 0.236119
-0.000086 0.006961 0.236115
0.001065 0.006983 0.236871
0.002240 0.007056 0.239329
0.003385 0.007017 0.238021
0.004582 0.007079 0.240111
0.005752 0.007083 0.240250
0.006919 0.007081 0.240201
0.008112 0.007103 0.240949
0.009299 0.007115 0.241380
0.010490 0.007127 0.241809
0.011669 0.007129 0.241900
0.012868 0.007141 0.242364
0.014070 0.007153 0.242791
0.015262 0.007159 0.243014
0.016469 0.007170 0.243435
0.017686 0.007184 0.243947
0.018976 0.007223 0.245346
0.020186 0.007230 0.245618
0.021433 0.007248 0.246287
0.022624 0.007246 0.246285
0.023883 0.007265 0.246995
0.025094 0.007269 0.247178
0.026305 0.007271 0.247342
0.027551 0.007284 0.247829
0.028789 0.007292 0.248205
0.030148 0.007330 0.249562
0.031402 0.007340 0.249982
0.032962 0.007418 0.252735
0.034287 0.007440 0.253556
0.035649 0.007468 0.254594
0.036893 0.007470 0.254756
0.038158 0.007476 0.255056
0.039407 0.007478 0.255242
0.040683 0.007486 0.255594
0.041954 0.007492 0.255904
0.043214 0.007495 0.256131
0.044486 0.007501 0.256429
0.045713 0.007499 0.256463
0.046925 0.007494 0.256418
0.048146 0.007491 0.256429
0.049272 0.007474 0.255953
0.049325 0.007299 0.250066
0.049936 0.007213 0.247224
0.050544 0.007130 0.244504
0.051502 0.007100 0.243566
0.052561 0.007084 0.243136
0.053623 0.007070 0.242746
0.054517 0.007034 0.241634
0.055422 0.007001 0.240621
0.056433 0.006983 0.240098
0.057379 0.006957 0.239330
0.058307 0.006931 0.238525
0.059284 0.006911 0.237948
0.060250 0.006890 0.237349
0.061177 0.006866 0.236625
0.062135 0.006846 0.236051
0.063007 0.006818 0.235175
0.063872 0.006790 0.234307
0.064834 0.006773 0.233822
0.065647 0.006741 0.232822
0.065834 0.006647 0.229675
0.065755 0.006530 0.225717
0.064665 0.006317 0.218471
0.064354 0.006187 0.214039
0.064817 0.006133 0.212279
0.065602 0.006112 0.211611
0.066371 0.006089 0.210912
0.066971 0.006052 0.209705
0.067763 0.006033 0.209127
0.068542 0.006014 0.208521
0.069237 0.005987 0.207681
0.070112 0.005977 0.207397
0.070857 0.005956 0.206740
0.071659 0.005941 0.206262
0.072349 0.005917 0.205478
0.073097 0.005898 0.204876
0.073901 0.005884 0.204442
0.074537 0.005857 0.203560
0.075266 0.005838 0.202946
0.075871 0.005810 0.202016
0.076423 0.005778 0.200966
0.076740 0.005730 0.199328
0.077238 0.005697 0.198190
0.077858 0.005673 0.197386
0.078344 0.005640 0.196263
0.078981 0.005618 0.195535
0.079731 0.005605 0.195097
0.080236 0.005575 0.194070
0.080744 0.005547 0.193073
0.081217 0.005516 0.192007
0.081834 0.005496 0.191298
0.082250 0.005462 0.190134
0.082789 0.005438 0.189273
0.083178 0.005404 0.188085
0.083611 0.005374 0.187015
0.083839 0.005332 0.185506
0.084144 0.005295 0.184195
0.084671 0.005273 0.183384
0.085184 0.005250 0.182553
0.085493 0.005215 0.181299
0.085805 0.005182 0.180070
0.086049 0.005144 0.178718
0.086592 0.005126 0.178000
0.086280 0.005057 0.175549
0.086295 0.005009 0.173796
0.085710 0.004927 0.170874
0.085968 0.004895 0.169667
0.086764 0.004893 0.169524
0.086953 0.004858 0.168202
0.087173 0.004825 0.166953
-0.640138 0.052541 1.580829
-0.633814 0.052634 1.583372
-0.631781 0.053091 1.596797
-0.625400 0.053188 1.599393
-0.610311 0.053187 1.598614
-0.594897 0.052492 1.577315
-0.585819 0.052346 1.572476
-0.576633 0.052186 1.567209
-0.065766 0.008004 0.238338
-0.064742 0.008017 0.238617
-0.063896 0.008053 0.239580
-0.062578 0.008031 0.238775
-0.061238 0.008004 0.237863
-0.057192 0.007616 0.226214
-0.055810 0.007575 0.224869
-0.054337 0.007519 0.223103
-0.053196 0.007508 0.222665
-0.051581 0.007429 0.220188
-0.050111 0.007367 0.218248
-0.048869 0.007337 0.217247
-0.047568 0.007297 0.215937
-0.044487 0.006976 0.206324
-0.043583 0.006989 0.206606
-0.042924 0.007043 0.208098
-0.042352 0.007114 0.210095
-0.041635 0.007164 0.211459
-0.040827 0.007201 0.212418
-0.039945 0.007225 0.213038
-0.039152 0.007268 0.214183
-0.038256 0.007293 0.214821
-0.037374 0.007322 0.215576
-0.036477 0.007350 0.216292
-0.035624 0.007389 0.217329
-0.034679 0.007411 0.217856
-0.033781 0.007444 0.218728
-0.032848 0.007471 0.219431
-0.031931 0.007504 0.220292
-0.030982 0.007531 0.220996
-0.030011 0.007555 0.221601
-0.029053 0.007584 0.222350
-0.028056 0.007604 0.222861
-0.027104 0.007639 0.223790
-0.026087 0.007658 0.224254
-0.025035 0.007668 0.224449
-0.024018 0.007689 0.224998
-0.022986 0.007708 0.225467
-0.021931 0.007721 0.225753
-0.020927 0.007753 0.226628
-0.019934 0.007794 0.227738
-0.018873 0.007811 0.228176
-0.017798 0.007824 0.228492
-0.016734 0.007844 0.229012
-0.015655 0.007860 0.229398
-0.014569 0.007874 0.229756
-0.013486 0.007892 0.230239
-0.012402 0.007913 0.230784
-0.011326 0.007944 0.231636
-0.010222 0.007959 0.232030
-0.009110 0.007972 0.232361
-0.008012 0.008002 0.233205
-0.006907 0.008033 0.234077
-0.005787 0.008057 0.234758
-0.004655 0.008071 0.235141
-0.003521 0.008090 0.235650
-0.002381 0.008107 0.236128
-0.001235 0.008119 0.236468
-0.000086 0.008131 0.236815
0.001066 0.008139 0.237015
0.002225 0.008163 0.237709
0.003388 0.008182 0.238283
0.004563 0.008211 0.239112
0.005736 0.008227 0.239590
0.006920 0.008250 0.240263
0.008098 0.008259 0.240549
0.009284 0.008274 0.240998
0.010486 0.008298 0.241718
0.011674 0.008307 0.242020
0.012863 0.008315 0.242284
0.014087 0.008342 0.243104
0.015310 0.008365 0.243799
0.016541 0.008388 0.244520
0.017787 0.008416 0.245363
0.019013 0.008431 0.245850
0.020250 0.008449 0.246418
0.021438 0.008445 0.246364
0.022658 0.008454 0.246683
0.023897 0.008468 0.247166
0.025105 0.008471 0.247305
0.026343 0.008483 0.247726
0.027602 0.008500 0.248301
0.028999 0.008557 0.250031
0.030150 0.008539 0.249594
0.031494 0.008576 0.250739
0.032871 0.008618 0.252057
0.034221 0.008650 0.253088
0.035546 0.008674 0.253881
0.036846 0.008691 0.254456
0.038175 0.008712 0.255189
0.039436 0.008718 0.255450
0.040677 0.008719 0.255573
0.041970 0.008731 0.256020
0.043244 0.008738 0.256331
0.044478 0.008737 0.256403
0.045707 0.008734 0.256444
0.046924 0.008730 0.256431
0.048120 0.008722 0.256308
0.049259 0.008705 0.255902
0.050169 0.008649 0.254365
0.050024 0.008418 0.247675
0.050647 0.008324 0.245017
0.051514 0.008273 0.243635
0.052660 0.008269 0.243614
0.053597 0.008232 0.242647
0.054569 0.008202 0.241879
0.055520 0.008171 0.241058
0.056420 0.008133 0.240060
0.057340 0.008100 0.239185
0.058342 0.008079 0.238679
0.059280 0.008051 0.237945
0.060229 0.008025 0.237279
0.061172 0.007999 0.236620
0.062076 0.007969 0.235841
0.062976 0.007939 0.235074
0.063824 0.007904 0.234142
0.064798 0.007886 0.233702
0.065459 0.007831 0.232168
0.066138 0.007780 0.230747
0.065776 0.007610 0.225799
0.066307 0.007547 0.224027
0.065414 0.007327 0.217573
0.065198 0.007188 0.213535
0.065679 0.007129 0.211868
0.066470 0.007105 0.211236
0.067324 0.007089 0.210819
0.068017 0.007056 0.209915
0.068499 0.007002 0.208397
0.069301 0.006983 0.207882
0.070062 0.006959 0.207257
0.070785 0.006933 0.206537
0.071542 0.006911 0.205932
0.072272 0.006886 0.205266
0.072943 0.006857 0.204451
0.073766 0.006843 0.204074
0.074519 0.006822 0.203513
0.075197 0.006796 0.202764
0.075828 0.006765 0.201904
0.076451 0.006735 0.201042
0.076964 0.006696 0.199913
0.077322 0.006645 0.198409
0.077778 0.006603 0.197186
0.078414 0.006577 0.196439
0.078972 0.006546 0.195514
0.079577 0.006519 0.194721
0.080173 0.006492 0.193920
0.080769 0.006465 0.193132
0.081219 0.006428 0.192012
0.081866 0.006406 0.191372
0.082145 0.006357 0.189891
0.082634 0.006325 0.188917
0.083074 0.006290 0.187848
0.083626 0.006264 0.187045
0.084116 0.006233 0.186117
0.084487 0.006195 0.184943
0.084763 0.006151 0.183580
0.085342 0.006129 0.182888
0.085032 0.006045 0.180317
0.085479 0.006015 0.179382
0.085892 0.005984 0.178387
0.086146 0.005942 0.177078
0.086312 0.005896 0.175609
0.086635 0.005860 0.174476
0.086579 0.005800 0.172602
0.086713 0.005754 0.171131
0.086775 0.005704 0.169540
0.086959 0.005662 0.168206
0.087387 0.005637 0.167356
-1.068953 0.079018 2.075158
-1.060739 0.079138 2.079364
-0.646164 0.061269 1.614250
-0.639693 0.061378 1.616821
-0.630944 0.061268 1.613604
-0.624451 0.061377 1.616123
-0.610209 0.060718 1.598385
-0.600207 0.060469 1.591434
-0.590347 0.060229 1.584674
-0.584813 0.060429 1.589488
-0.064551 0.009126 0.237929
-0.063318 0.009111 0.237427
-0.062190 0.009111 0.237311
-0.060149 0.008975 0.233650
-0.057992 0.008816 0.229395
-0.056500 0.008755 0.227669
-0.055382 0.008749 0.227413
-0.053634 0.008642 0.224516
-0.052140 0.008573 0.222592
-0.050428 0.008464 0.219645
-0.049115 0.008419 0.218359
-0.048017 0.008409 0.217995
-0.047115 0.008434 0.218530
-0.043493 0.007962 0.206198
-0.042772 0.008012 0.207381
-0.042091 0.008072 0.208821
-0.041460 0.008145 0.210590
-0.040841 0.008223 0.212509
-0.040022 0.008264 0.213472
-0.039163 0.008299 0.214264
-0.038223 0.008319 0.214655
-0.037336 0.008351 0.215380
-0.036420 0.008378 0.215981
-0.035537 0.008415 0.216821
-0.034718 0.008470 0.218128
-0.033748 0.008489 0.218541
-0.032819 0.008521 0.219256
-0.031897 0.008557 0.220084
-0.030951 0.008589 0.220805
-0.029986 0.008617 0.221437
-0.029015 0.008646 0.222090
-0.028027 0.008672 0.222655
-0.027049 0.008703 0.223363
-0.026022 0.008720 0.223718
-0.025013 0.008745 0.224273
-0.023975 0.008762 0.224621
-0.022946 0.008784 0.225096
-0.021941 0.008817 0.225877
-0.020920 0.008848 0.226583
-0.019929 0.008895 0.227712
-0.018857 0.008909 0.228010
-0.017794 0.008930 0.228467
-0.016729 0.008952 0.228982
-0.015650 0.008969 0.229357
-0.014580 0.008995 0.229958
-0.013474 0.009001 0.230058
-0.012399 0.009031 0.230763
-0.011321 0.009064 0.231563
-0.010228 0.009091 0.232214
-0.009123 0.009114 0.232741
-0.008010 0.009132 0.233182
-0.006900 0.009161 0.233888
-0.005788 0.009199 0.234822
-0.004651 0.009207 0.234979
-0.003515 0.009221 0.235332
-0.002378 0.009244 0.235892
-0.001235 0.009269 0.236511
-0.000086 0.009280 0.236781
0.001066 0.009289 0.237007
0.002223 0.009311 0.237558
0.003391 0.009348 0.238490
0.004560 0.009368 0.239001
0.005736 0.009391 0.239600
0.006909 0.009402 0.239903
0.008092 0.009421 0.240401
0.009296 0.009457 0.241343
0.010494 0.009480 0.241939
0.011694 0.009499 0.242442
0.012915 0.009530 0.243280
0.014108 0.009537 0.243491
0.015340 0.009568 0.244306
0.016558 0.009585 0.244795
0.017812 0.009620 0.245729
0.019017 0.009626 0.245920
0.020266 0.009652 0.246630
0.021462 0.009651 0.246666
0.022684 0.009661 0.246990
0.023938 0.009683 0.247607
0.025232 0.009719 0.248580
0.026441 0.009720 0.248674
0.027635 0.009715 0.248624
0.028891 0.009732 0.249128
0.030058 0.009718 0.248856
0.031286 0.009725 0.249110
0.032977 0.009870 0.252894
0.034322 0.009904 0.253858
0.035551 0.009904 0.253940
0.036835 0.009918 0.254402
0.038124 0.009933 0.254877
0.039421 0.009949 0.255377
0.040687 0.009956 0.255663
0.041930 0.009957 0.255800
0.043227 0.009971 0.256253
0.044488 0.009976 0.256477
0.045703 0.009970 0.256443
0.046909 0.009963 0.256371
0.048110 0.009956 0.256278
0.049253 0.009936 0.255896
0.050200 0.009880 0.254543
0.051154 0.009827 0.253294
0.050571 0.009488 0.244669
0.051555 0.009452 0.243848
0.052597 0.009428 0.243341
0.053712 0.009418 0.243185
0.054534 0.009358 0.241745
0.055530 0.009330 0.241121
0.056514 0.009300 0.240473
0.057324 0.009244 0.239132
0.058169 0.009196 0.237987
0.059138 0.009169 0.237389
0.060128 0.009146 0.236897
0.061033 0.009111 0.236099
0.061931 0.009076 0.235304
0.062846 0.009045 0.234601
0.063765 0.009016 0.233940
0.064680 0.008987 0.233289
0.065614 0.008962 0.232729
0.066063 0.008872 0.230498
0.066305 0.008758 0.227626
0.066161 0.008597 0.223543
0.065276 0.008347 0.217125
0.065234 0.008211 0.213664
0.065807 0.008155 0.212290
0.066684 0.008138 0.211925
0.067564 0.008122 0.211580
0.068146 0.008071 0.210323
0.068608 0.008007 0.208738
0.069328 0.007975 0.207968
0.070084 0.007948 0.207329
0.070782 0.007915 0.206533
0.071504 0.007886 0.205830
0.072235 0.007858 0.205166
0.073048 0.007840 0.204749
0.073818 0.007818 0.204222
0.074580 0.007796 0.203685
0.075299 0.007769 0.203042
0.075989 0.007741 0.202337
0.076656 0.007711 0.201583
0.077347 0.007684 0.200910
0.077826 0.007636 0.199705
0.078283 0.007588 0.198470
0.078667 0.007534 0.197075
0.079304 0.007505 0.196338
0.079862 0.007470 0.195419
0.080282 0.007422 0.194185
0.080844 0.007389 0.193312
0.081505 0.007365 0.192688
0.082031 0.007330 0.191758
0.082369 0.007278 0.190408
0.082713 0.007229 0.189096
0.083224 0.007195 0.188185
0.083771 0.007165 0.187368
0.083958 0.007104 0.185765
0.084355 0.007063 0.184650
0.084811 0.007028 0.183680
0.085216 0.006989 0.182615
0.085493 0.006940 0.181290
0.085575 0.006877 0.179578
0.085826 0.006828 0.178245
0.086266 0.006795 0.177319
0.086415 0.006740 0.175811
0.086178 0.006657 0.173549
0.086346 0.006606 0.172131
0.086275 0.006537 0.170260
0.086776 0.006513 0.169535
0.087181 0.006483 0.168628
0.087388 0.006438 0.167351
-1.084683 0.087730 2.045467
-1.076549 0.087857 2.049754
-1.068411 0.087987 2.054002
-1.043643 0.086737 2.025940
-1.046145 0.087751 2.050675
-1.038034 0.087886 2.054787
-0.619324 0.069277 1.622301
-0.613212 0.069450 1.625962
-0.598717 0.068667 1.607190
-0.584699 0.067919 1.589228
-0.065118 0.010348 0.240040
-0.063509 0.010273 0.238163
-0.062474 0.010289 0.238414
-0.061259 0.010275 0.237980
-0.059914 0.010239 0.237017
-0.058057 0.010112 0.233963
-0.056334 0.010004 0.231343
-0.054497 0.009871 0.228151
-0.052539 0.009710 0.224317
-0.051058 0.009633 0.222410
-0.049380 0.009514 0.219559
-0.048152 0.009479 0.218629
-0.046448 0.009346 0.215457
-0.043488 0.008949 0.206195
-0.042625 0.008975 0.206692
-0.042091 0.009073 0.208844
-0.041390 0.009139 0.210255
-0.040804 0.009235 0.212341
-0.039969 0.009277 0.213212
-0.039154 0.009327 0.214240
-0.038205 0.009346 0.214582
-0.037303 0.009378 0.215217
-0.036394 0.009411 0.215853
-0.035480 0.009444 0.216503
-0.034582 0.009483 0.217296
-0.033745 0.009541 0.218544
-0.032771 0.009564 0.218964
-0.031809 0.009592 0.219505
-0.030866 0.009628 0.220223
-0.029969 0.009681 0.221347
-0.028925 0.009689 0.221427
-0.027946 0.009719 0.222042
-0.027001 0.009765 0.222998
-0.026029 0.009805 0.223815
-0.024987 0.009820 0.224073
-0.023961 0.009843 0.224520
-0.022946 0.009873 0.225131
-0.021908 0.009896 0.225569
-0.020887 0.009929 0.226253
-0.019894 0.009981 0.227346
-0.018861 0.010017 0.228098
-0.017795 0.010038 0.228523
-0.016731 0.010064 0.229045
-0.015654 0.010085 0.229466
-0.014582 0.010112 0.230027
-0.013491 0.010130 0.230384
-0.012394 0.010147 0.230706
-0.011339 0.010205 0.231976
-0.010221 0.010213 0.232105
-0.009103 0.010221 0.232253
-0.008005 0.010259 0.233072
-0.006894 0.010289 0.233731
-0.005787 0.010339 0.234826
-0.004653 0.010354 0.235147
-0.003518 0.010375 0.235595
-0.002382 0.010410 0.236383
-0.001236 0.010429 0.236784
-0.000085 0.010443 0.237096
0.001069 0.010461 0.237499
0.002225 0.010473 0.237764
0.003389 0.010499 0.238347
0.004566 0.010542 0.239327
0.005743 0.010567 0.239904
0.006933 0.010603 0.240734
0.008084 0.010578 0.240171
0.009291 0.010624 0.241227
0.010503 0.010664 0.242160
0.011708 0.010689 0.242769
0.012891 0.010692 0.242858
0.014129 0.010736 0.243878
0.015341 0.010754 0.244342
0.016574 0.010784 0.245060
0.017790 0.010800 0.245453
0.019035 0.010829 0.246176
0.020286 0.010859 0.246904
0.021531 0.010883 0.247489
0.022752 0.010892 0.247753
0.024000 0.010912 0.248278
0.025309 0.010957 0.249364
0.026500 0.010949 0.249248
0.027741 0.010962 0.249609
0.029047 0.010997 0.250495
0.030199 0.010975 0.250051
0.031646 0.011056 0.251996
0.032960 0.011088 0.252789
0.034283 0.011119 0.253597
0.035553 0.011132 0.253979
0.036865 0.011157 0.254635
0.038146 0.011171 0.255046
0.039461 0.011194 0.255660
0.040712 0.011197 0.255846
0.041956 0.011199 0.255979
0.043222 0.011206 0.256245
0.044472 0.011209 0.256414
0.045668 0.011198 0.256274
0.046887 0.011194 0.256272
0.048105 0.011189 0.256276
0.049246 0.011167 0.255882
0.050240 0.011114 0.254766
0.050137 0.010826 0.248276
0.050517 0.010654 0.244429
0.051395 0.010592 0.243115
0.052556 0.010589 0.243171
0.053383 0.010521 0.241716
0.054439 0.010500 0.241340
0.055388 0.010460 0.240520
0.056282 0.010411 0.239505
0.057316 0.010390 0.239117
0.058281 0.010357 0.238466
0.059209 0.010319 0.237693
0.060134 0.010282 0.236938
0.061022 0.010239 0.236072
0.061929 0.010202 0.235311
0.062825 0.010164 0.234537
0.063704 0.010125 0.233731
0.064602 0.010090 0.233024
0.065519 0.010059 0.232408
0.066138 0.009984 0.230771
0.066240 0.009835 0.227417
0.066347 0.009691 0.224185
0.065649 0.009437 0.218375
0.065564 0.009277 0.214755
0.065618 0.009141 0.211690
0.066168 0.009077 0.210293
0.066895 0.009039 0.209494
0.067709 0.009014 0.208983
0.068496 0.008986 0.208405
0.069186 0.008947 0.207550
0.069928 0.008915 0.206872
0.070639 0.008880 0.206124
