ply
format ascii 1.0
element vertex 1745
property float x
property float y
property float z
end_header
-0.018540 0.030511 0.225510
-0.017478 0.030554 0.225770
-0.016427 0.030623 0.226221
-0.015380 0.030710 0.226811
-0.014326 0.030795 0.227389
-0.013243 0.030829 0.227595
-0.012193 0.030950 0.228444
-0.011134 0.031071 0.229291
-0.010089 0.031262 0.230662
-0.008995 0.031332 0.231141
-0.007894 0.031389 0.231531
-0.006792 0.031465 0.232059
-0.005682 0.031527 0.232491
-0.004562 0.031549 0.232631
-0.003448 0.031640 0.233278
-0.002330 0.031764 0.234176
-0.001203 0.031884 0.235045
-0.000067 0.031965 0.235625
0.001074 0.032021 0.236032
0.002220 0.032091 0.236538
0.003371 0.032160 0.237047
0.004539 0.032317 0.238206
0.005701 0.032372 0.238617
0.006861 0.032403 0.238848
0.008034 0.032474 0.239385
0.009236 0.032632 0.240563
0.010432 0.032733 0.241326
0.011633 0.032829 0.242054
0.012819 0.032871 0.242381
0.014024 0.032949 0.242983
0.015226 0.033007 0.243445
0.016430 0.033062 0.243879
0.017630 0.033101 0.244203
0.018821 0.033120 0.244382
0.020031 0.033167 0.244775
0.021250 0.033225 0.245243
0.022517 0.033346 0.246186
0.023862 0.033565 0.247851
0.025140 0.033673 0.248706
0.026354 0.033690 0.248882
0.027588 0.033729 0.249232
0.028818 0.033760 0.249523
0.030055 0.033796 0.249853
0.031272 0.033809 0.250011
0.032587 0.033922 0.250918
0.033836 0.033960 0.251271
0.035223 0.034131 0.252602
0.036500 0.034186 0.253089
0.037758 0.034220 0.253416
0.038942 0.034188 0.253258
0.040195 0.034216 0.253543
0.041490 0.034277 0.254077
0.042711 0.034274 0.254141
0.043882 0.034234 0.253926
0.045086 0.034220 0.253912
0.046265 0.034188 0.253760
0.047429 0.034148 0.253548
0.048524 0.034060 0.252989
0.049525 0.033913 0.251984
0.049821 0.033301 0.247527
0.050266 0.032816 0.244005
0.051064 0.032577 0.242317
0.052188 0.032552 0.242221
0.052751 0.032186 0.239582
0.053659 0.032042 0.238598
0.054581 0.031912 0.237715
0.055218 0.031624 0.235652
0.056159 0.031518 0.234945
0.057034 0.031380 0.234001
0.057895 0.031239 0.233035
0.058762 0.031108 0.232135
0.059620 0.030976 0.231231
0.060407 0.030812 0.230090
0.061327 0.030722 0.229493
0.062136 0.030580 0.228508
0.062798 0.030371 0.227024
0.063850 0.030355 0.226976
0.064757 0.030272 0.226426
0.065590 0.030157 0.225639
0.066412 0.030042 0.224842
0.067232 0.029928 0.224059
0.067896 0.029751 0.222792
0.068555 0.029576 0.221546
0.069320 0.029451 0.220672
0.070069 0.029324 0.219774
0.070623 0.029120 0.218300
0.071229 0.028943 0.217024
0.071908 0.028801 0.216002
0.072295 0.028546 0.214141
0.072657 0.028290 0.212257
0.073092 0.028068 0.210632
0.073686 0.027913 0.209500
0.074084 0.027688 0.207846
0.074510 0.027480 0.206312
0.074584 0.027149 0.203849
0.074895 0.026911 0.202089
0.074694 0.026498 0.199003
0.075472 0.026439 0.198568
0.075604 0.026157 0.196462
0.075892 0.025935 0.194802
0.076093 0.025690 0.192959
0.075950 0.025335 0.190293
0.076516 0.025223 0.189441
0.077149 0.025134 0.188768
0.077691 0.025019 0.187885
0.078006 0.024834 0.186478
0.078456 0.024696 0.185414
0.079053 0.024606 0.184713
0.079644 0.024517 0.184007
0.080240 0.024431 0.183322
0.080671 0.024297 0.182273
0.081010 0.024138 0.181036
0.081545 0.024041 0.180253
0.081788 0.023860 0.178839
0.081985 0.023670 0.177349
0.082175 0.023482 0.175869
0.082326 0.023287 0.174330
0.082793 0.023184 0.173478
0.083078 0.023032 0.172256
0.083385 0.022889 0.171098
0.083666 0.022743 0.169902
0.084288 0.022690 0.169405
0.084555 0.022544 0.168205
0.084934 0.022431 0.167238
0.085533 0.022377 0.166710
0.086143 0.022327 0.166205
0.086776 0.022284 0.165742
-1.012031 0.265279 1.922251
-1.018019 0.269270 1.952648
-1.010146 0.269635 1.956682
-0.991226 0.267030 1.939072
-0.989718 0.269111 1.955407
-0.982291 0.269607 1.960157
-0.972341 0.269414 1.959816
-0.960625 0.268723 1.955779
-0.953459 0.269303 1.960923
-0.953211 0.271868 1.980458
-0.945287 0.272273 1.984197
-0.935634 0.274928 2.004940
-0.929985 0.276052 2.013739
-0.912975 0.273792 1.997791
-0.872245 0.264298 1.928974
-0.854523 0.261649 1.910040
-0.848624 0.262603 1.917348
-0.827529 0.258824 1.890049
-0.808807 0.255714 1.867570
-1.434871 0.458628 3.349868
-1.418447 0.458408 3.348514
-1.403127 0.458543 3.349675
-1.389388 0.459205 3.354602
-1.373137 0.459042 3.353426
-1.357787 0.459180 3.354375
-1.341474 0.458991 3.352868
-1.324966 0.458731 3.350768
-1.311518 0.459537 3.356386
-0.883761 0.317290 2.316933
-0.866298 0.314903 2.299182
-0.858369 0.315963 2.306570
-0.306275 0.141318 1.027100
-0.300331 0.140806 1.023006
-0.294649 0.140403 1.019691
-0.289691 0.140337 1.018822
-0.285484 0.140639 1.020616
-0.280817 0.140721 1.020802
-0.275921 0.140689 1.020160
-0.271093 0.140691 1.019760
-0.266047 0.140578 1.018522
-0.261165 0.140549 1.017885
-0.255764 0.140235 1.015185
-0.251072 0.140305 1.015259
-0.244713 0.139427 1.008478
-0.238707 0.138720 1.002934
-0.056861 0.034418 0.248623
-0.055744 0.034458 0.248805
-0.053652 0.033885 0.244561
-0.051978 0.033555 0.242077
-0.049284 0.032538 0.234636
-0.047908 0.032363 0.233275
-0.046584 0.032217 0.232122
-0.045484 0.032222 0.232056
-0.044221 0.032108 0.231139
-0.043130 0.032118 0.231106
-0.041913 0.032031 0.230386
-0.040229 0.031573 0.226997
-0.038882 0.031362 0.225387
-0.037778 0.031340 0.225137
-0.036620 0.031271 0.224547
-0.033601 0.029560 0.212180
-0.032486 0.029470 0.211452
-0.031574 0.029565 0.212045
-0.030628 0.029633 0.212453
-0.029721 0.029744 0.213172
-0.029152 0.030214 0.216462
-0.028184 0.030290 0.216927
-0.027255 0.030415 0.217746
-0.026321 0.030544 0.218594
-0.025381 0.030678 0.219477
-0.024391 0.030759 0.219987
-0.023452 0.030914 0.221027
-0.022514 0.031087 0.222195
-0.021531 0.031212 0.223019
-0.020526 0.031316 0.223701
-0.019542 0.031464 0.224696
-0.018538 0.031597 0.225585
-0.017459 0.031610 0.225621
-0.016404 0.031672 0.226011
-0.015367 0.031781 0.226734
-0.014282 0.031797 0.226799
-0.013269 0.031993 0.228149
-0.012196 0.032065 0.228617
-0.011141 0.032201 0.229544
-0.010094 0.032397 0.230905
-0.008992 0.032442 0.231190
-0.007883 0.032470 0.231352
-0.006783 0.032548 0.231879
-0.005674 0.032612 0.232305
-0.004558 0.032653 0.232572
-0.003439 0.032699 0.232882
-0.002326 0.032860 0.234010
-0.001199 0.032963 0.234729
-0.000065 0.033039 0.235255
0.001075 0.033135 0.235931
0.002218 0.033184 0.236274
0.003369 0.033270 0.236883
0.004539 0.033456 0.238206
0.005707 0.033554 0.238907
0.006864 0.033565 0.238993
0.008040 0.033652 0.239622
0.009233 0.033778 0.240539
0.010420 0.033856 0.241108
0.011603 0.033909 0.241503
0.012803 0.033996 0.242144
0.014001 0.034062 0.242640
0.015196 0.034114 0.243039
0.016399 0.034172 0.243487
0.017596 0.034212 0.243811
0.018799 0.034257 0.244169
0.020025 0.034337 0.244780
0.021237 0.034384 0.245156
0.022512 0.034525 0.246206
0.023812 0.034685 0.247401
0.025093 0.034805 0.248310
0.026336 0.034864 0.248787
0.027597 0.034941 0.249388
0.028803 0.034943 0.249465
0.030034 0.034975 0.249756
0.031306 0.035050 0.250357
0.032538 0.035076 0.250609
0.033786 0.035117 0.250976
0.035061 0.035182 0.251511
0.036412 0.035318 0.252552
0.037667 0.035352 0.252876
0.038880 0.035348 0.252919
0.040145 0.035389 0.253296
0.041408 0.035426 0.253641
0.042634 0.035430 0.253752
0.043848 0.035425 0.253797
0.045029 0.035393 0.253653
0.046187 0.035345 0.253398
0.047388 0.035333 0.253393
0.048523 0.035273 0.253049
0.049454 0.035070 0.251685
0.049851 0.034508 0.247735
0.050126 0.033890 0.243383
0.050857 0.033600 0.241389
0.052155 0.033690 0.242124
0.052918 0.033438 0.240395
0.053643 0.033173 0.238578
0.054443 0.032965 0.237163
0.055247 0.032767 0.235824
0.056126 0.032621 0.234857
0.056881 0.032410 0.233418
0.057728 0.032258 0.232407
0.058771 0.032220 0.232211
0.059454 0.031990 0.230630
0.060345 0.031877 0.229897
0.061294 0.031799 0.229408
0.062086 0.031643 0.228360
0.062921 0.031514 0.227504
0.063750 0.031387 0.226659
0.064691 0.031318 0.226230
0.065473 0.031176 0.225269
0.066309 0.031063 0.224522
0.067164 0.030963 0.223864
0.067917 0.030820 0.222888
0.068552 0.030628 0.221562
0.069160 0.030430 0.220186
0.069841 0.030270 0.219082
0.070450 0.030083 0.217785
0.071137 0.029935 0.216762
0.071837 0.029797 0.215805
0.072500 0.029647 0.214763
0.072999 0.029436 0.213272
0.073345 0.029169 0.211376
0.073645 0.028891 0.209396
0.074168 0.028707 0.208094
0.074510 0.028459 0.206321
0.074876 0.028226 0.204657
0.074710 0.027801 0.201596
0.075295 0.027663 0.200611
0.075324 0.027327 0.198183
0.075493 0.027049 0.196174
0.075578 0.026748 0.193997
0.075192 0.026290 0.190673
0.075762 0.026173 0.189820
0.076458 0.026101 0.189293
0.077103 0.026015 0.188651
0.077678 0.025906 0.187849
0.078191 0.025780 0.186912
0.078644 0.025637 0.185848
0.079108 0.025500 0.184829
0.079727 0.025417 0.184186
0.080359 0.025339 0.183580
0.080758 0.025190 0.182457
0.081090 0.025023 0.181199
0.081512 0.024887 0.180161
0.082046 0.024788 0.179384
0.082220 0.024584 0.177839
0.082291 0.024353 0.176097
0.082317 0.024114 0.174288
0.083217 0.024133 0.174341
0.083533 0.023984 0.173176
0.083159 0.023641 0.170608
0.083759 0.023579 0.170062
0.084327 0.023510 0.169454
0.084427 0.023313 0.167920
0.084758 0.023182 0.166859
0.085440 0.023149 0.166495
0.086053 0.023098 0.165995
0.086570 0.023023 0.165309
-0.994877 0.277244 1.945868
-0.988263 0.277971 1.952205
-0.981383 0.278635 1.958033
-0.969420 0.277855 1.953638
-0.958483 0.277357 1.951144
-0.956234 0.279389 1.966373
-0.945266 0.278887 1.963713
-0.944243 0.281339 1.981782
-0.936306 0.281759 1.985485
-0.926338 0.281570 1.984831
-0.924569 0.283896 2.001837
-0.922145 0.286066 2.017698
-0.870714 0.272920 1.925453
-0.849068 0.268932 1.897729
-0.846848 0.271077 1.913232
-0.829136 0.268257 1.893631
-1.453061 0.475222 3.355056
-1.439578 0.475977 3.360756
-1.419662 0.474599 3.351307
-1.406167 0.475361 3.356884
-1.391275 0.475663 3.359134
-1.377715 0.476432 3.364609
-1.355559 0.474212 3.348897
-1.345065 0.476068 3.361899
-1.331436 0.476845 3.367210
-1.309824 0.474747 3.352154
-1.296190 0.475525 3.357340
-0.883228 0.328018 2.315642
-0.868527 0.326584 2.305218
-0.849980 0.323649 2.284163
-0.305903 0.146006 1.026025
-0.299644 0.145321 1.020845
-0.294453 0.145141 1.019198
-0.289431 0.145039 1.018099
-0.285197 0.145335 1.019788
-0.280653 0.145481 1.020413
-0.275744 0.145439 1.019717
-0.270859 0.145410 1.019099
-0.265670 0.145212 1.017301
-0.260707 0.145134 1.016335
-0.255573 0.144955 1.014662
-0.250407 0.144751 1.012812
-0.244782 0.144269 1.009014
-0.237231 0.142610 0.996983
-0.055694 0.035613 0.248653
-0.053972 0.035261 0.246087
-0.052207 0.034864 0.243214
-0.050004 0.034150 0.238131
-0.048397 0.033820 0.235729
-0.047080 0.033682 0.234663
-0.045663 0.033463 0.233041
-0.043817 0.032911 0.229102
-0.042456 0.032705 0.227571
-0.040693 0.032170 0.223754
-0.039490 0.032061 0.222905
-0.036660 0.030588 0.212576
-0.035768 0.030694 0.213229
-0.034048 0.030076 0.208851
-0.033293 0.030298 0.210307
-0.032364 0.030371 0.210736
-0.031451 0.030464 0.211299
-0.030492 0.030517 0.211588
-0.029555 0.030598 0.212064
-0.028657 0.030725 0.212870
-0.027848 0.030960 0.214420
-0.027252 0.031460 0.217808
-0.026368 0.031654 0.219075
-0.025389 0.031744 0.219627
-0.024360 0.031778 0.219793
-0.023409 0.031922 0.220716
-0.022472 0.032099 0.221874
-0.021533 0.032290 0.223130
-0.020528 0.032398 0.223813
-0.019498 0.032476 0.224288
-0.018470 0.032566 0.224856
-0.017435 0.032656 0.225421
-0.016371 0.032699 0.225663
-0.015311 0.032757 0.226010
-0.014281 0.032893 0.226901
-0.013179 0.032871 0.226702
-0.012181 0.033130 0.228441
-0.011132 0.033288 0.229493
-0.010085 0.033487 0.230823
-0.008982 0.033524 0.231045
-0.007881 0.033584 0.231420
-0.006777 0.033649 0.231842
-0.005668 0.033704 0.232193
-0.004552 0.033744 0.232443
-0.003433 0.033779 0.232663
-0.002314 0.033835 0.233031
-0.001195 0.034018 0.234274
-0.000063 0.034165 0.235273
0.001077 0.034303 0.236215
0.002220 0.034334 0.236426
0.003375 0.034459 0.237281
0.004535 0.034564 0.238005
0.005693 0.034611 0.238334
0.006860 0.034692 0.238895
0.008047 0.034834 0.239885
0.009223 0.034898 0.240337
0.010417 0.035007 0.241104
0.011604 0.035072 0.241577
0.012787 0.035117 0.241903
0.013983 0.035186 0.242408
0.015182 0.035250 0.242874
0.016386 0.035316 0.243366
0.017578 0.035349 0.243623
0.018783 0.035403 0.244035
0.019989 0.035452 0.244414
0.021216 0.035529 0.244988
0.022469 0.035642 0.245810
0.023767 0.035809 0.247012
0.025040 0.035924 0.247860
0.026258 0.035955 0.248123
0.027511 0.036027 0.248679
0.028767 0.036098 0.249229
0.029988 0.036121 0.249445
0.031230 0.036167 0.249827
0.032530 0.036273 0.250626
0.033796 0.036335 0.251123
0.035040 0.036370 0.251435
0.036302 0.036421 0.251861
0.037557 0.036461 0.252212
0.038843 0.036528 0.252750
0.040037 0.036507 0.252688
0.041253 0.036507 0.252762
0.042510 0.036541 0.253084
0.043662 0.036487 0.252790
0.044850 0.036464 0.252712
0.046042 0.036446 0.252671
0.047179 0.036386 0.252340
0.048336 0.036344 0.252134
0.049359 0.036206 0.251261
0.049482 0.035430 0.245964
0.050091 0.035030 0.243269
0.051051 0.034888 0.242369
0.051919 0.034691 0.241084
0.053072 0.034688 0.241149
0.053768 0.034394 0.239186
0.054180 0.033933 0.236067
0.054998 0.033741 0.234812
0.055783 0.033537 0.233470
0.056616 0.033368 0.232377
0.057533 0.033255 0.231670
0.058521 0.033187 0.231269
0.059418 0.033069 0.230530
0.060234 0.032913 0.229516
0.061149 0.032815 0.228905
0.062105 0.032742 0.228469
0.062979 0.032628 0.227749
0.063785 0.032485 0.226818
0.064687 0.032393 0.226248
0.065588 0.032304 0.225696
0.066318 0.032136 0.224583
0.067104 0.031999 0.223691
0.067795 0.031823 0.222517
0.068139 0.031490 0.220252
0.068981 0.031395 0.219643
0.069641 0.031221 0.218478
0.070267 0.031037 0.217241
0.070849 0.030840 0.215905
0.071655 0.030744 0.215277
0.072297 0.030581 0.214181
0.072868 0.030393 0.212904
0.073323 0.030163 0.211324
0.073603 0.029868 0.209289
0.073919 0.029595 0.207404
0.074686 0.029507 0.206817
0.074980 0.029238 0.204949
0.074810 0.028796 0.201873
0.074194 0.028196 0.197681
0.074844 0.028087 0.196924
0.075734 0.028069 0.196802
0.076214 0.027901 0.195628
0.076319 0.027602 0.193530
0.075972 0.027148 0.190343
0.076371 0.026969 0.189074
0.077046 0.026890 0.188506
0.077521 0.026744 0.187463
0.078030 0.026612 0.186518
0.078524 0.026478 0.185555
0.079042 0.026356 0.184666
0.079632 0.026260 0.183954
0.080208 0.026161 0.183222
0.080528 0.025982 0.181921
0.081234 0.025930 0.181504
0.081523 0.025747 0.180168
0.081160 0.025365 0.177428
0.081229 0.025124 0.175674
0.081159 0.024845 0.173651
0.081835 0.024797 0.173244
0.082706 0.024810 0.173245
0.083075 0.024673 0.172197
0.083441 0.024537 0.171157
0.084070 0.024481 0.170664
0.084436 0.024350 0.169642
0.084639 0.024175 0.168307
0.085072 0.024069 0.167444
0.085677 0.024012 0.166921
0.086128 0.023914 0.166102
0.086666 0.023842 0.165454
-0.985110 0.283663 1.926403
-0.983718 0.285904 1.942882
-0.979340 0.287313 1.953631
-0.971142 0.287616 1.956798
-0.962910 0.287915 1.959865
-0.957092 0.288949 1.967865
-0.952373 0.290339 1.978221
-0.952453 0.293233 1.998774
-0.951237 0.295782 2.016924
-0.943152 0.296226 2.020652
-0.936627 0.297173 2.027757
-0.930087 0.298135 2.034905
-0.864985 0.280150 1.912640
-0.845512 0.276721 1.889656
-0.845235 0.279568 1.909477
-0.827463 0.276628 1.889716
-0.810677 0.273957 1.871739
-1.449723 0.495289 3.384327
-1.413269 0.488190 3.336129
-1.398641 0.488557 3.338860
-1.389587 0.490901 3.355026
-1.371070 0.489917 3.348373
-1.356579 0.490367 3.351437
-1.344625 0.491754 3.360843
-1.330989 0.492553 3.366150
-1.316835 0.493177 3.370196
-1.303117 0.493981 3.375406
-0.880809 0.338009 2.309403
-0.871376 0.338562 2.312898
-0.850604 0.334668 2.285977
-0.309397 0.152589 1.037923
-0.300223 0.150449 1.023001
-0.294229 0.149858 1.018612
-0.289278 0.149788 1.017758
-0.285164 0.150156 1.019873
-0.280455 0.150218 1.019902
-0.275541 0.150170 1.019182
-0.270675 0.150148 1.018628
-0.265504 0.149953 1.016895
-0.260314 0.149739 1.015038
-0.254698 0.149268 1.011427
-0.249548 0.149057 1.009583
-0.244644 0.148988 1.008696
-0.238335 0.148043 1.001881
-0.053923 0.036401 0.245932
-0.052788 0.036426 0.245993
-0.050911 0.035927 0.242521
-0.049065 0.035428 0.239055
-0.047509 0.035120 0.236875
-0.046250 0.035022 0.236111
-0.044793 0.034764 0.234277
-0.043342 0.034499 0.232395
-0.040748 0.033286 0.224131
-0.039366 0.033024 0.222277
-0.037493 0.032324 0.217479
-0.035231 0.031240 0.210101
-0.033751 0.030807 0.207102
-0.033090 0.031117 0.209107
-0.032301 0.031322 0.210401
-0.031336 0.031364 0.210607
-0.030399 0.031438 0.211025
-0.029885 0.031970 0.214515
-0.028931 0.032051 0.214982
-0.028062 0.032237 0.216157
-0.027172 0.032412 0.217254
-0.026326 0.032656 0.218813
-0.025386 0.032799 0.219698
-0.024393 0.032881 0.220181
-0.023361 0.032918 0.220361
-0.022402 0.033065 0.221277
-0.021467 0.033264 0.222546
-0.020470 0.033384 0.223286
-0.019439 0.033457 0.223715
-0.018426 0.033573 0.224432
-0.017395 0.033668 0.225009
-0.016331 0.033707 0.225214
-0.015284 0.033790 0.225719
-0.014247 0.033909 0.226465
-0.013193 0.034005 0.227060
-0.012135 0.034108 0.227703
-0.011072 0.034214 0.228371
-0.010056 0.034505 0.230274
-0.008973 0.034610 0.230937
-0.007870 0.034657 0.231219
-0.006768 0.034728 0.231666
-0.005666 0.034824 0.232280
-0.004552 0.034876 0.232601
-0.003437 0.034951 0.233078
-0.002316 0.035022 0.233538
-0.001193 0.035135 0.234274
-0.000062 0.035261 0.235100
0.001076 0.035338 0.235609
0.002218 0.035415 0.236112
0.003365 0.035480 0.236543
0.004520 0.035586 0.237252
0.005698 0.035788 0.238600
0.006865 0.035861 0.239095
0.008021 0.035866 0.239139
0.009235 0.036098 0.240700
0.010416 0.036162 0.241144
0.011587 0.036182 0.241293
0.012793 0.036296 0.242075
0.013969 0.036314 0.242220
0.015174 0.036400 0.242820
0.016383 0.036481 0.243393
0.017607 0.036582 0.244101
0.018815 0.036639 0.244517
0.020061 0.036760 0.245363
0.021344 0.036930 0.246541
0.022593 0.037028 0.247242
0.023794 0.037039 0.247367
0.025027 0.037098 0.247813
0.026291 0.037194 0.248506
0.027553 0.037280 0.249137
0.028793 0.037330 0.249527
0.030004 0.037340 0.249657
0.031248 0.037389 0.250043
0.032497 0.037439 0.250448
0.033744 0.037484 0.250813
0.034973 0.037506 0.251029
0.036252 0.037578 0.251584
0.037561 0.037676 0.252316
0.038820 0.037719 0.252675
0.039981 0.037667 0.252402
0.041240 0.037707 0.252753
0.042451 0.037704 0.252806
0.043662 0.037699 0.252857
0.044824 0.037654 0.252637
0.045972 0.037599 0.252353
0.047177 0.037594 0.252397
0.048308 0.037530 0.252057
0.049236 0.037316 0.250703
0.049952 0.036955 0.248363
0.050173 0.036253 0.243727
0.050428 0.035607 0.239466
0.051630 0.035644 0.239799
0.052641 0.035550 0.239246
0.053334 0.035250 0.237309
0.054152 0.035044 0.236000
0.055016 0.034874 0.234938
0.055880 0.034712 0.233924
0.056674 0.034513 0.232665
0.057642 0.034426 0.232155
0.058575 0.034321 0.231528
0.059385 0.034150 0.230447
0.060238 0.034009 0.229571
0.061132 0.033896 0.228880
0.062027 0.033787 0.228221
0.062855 0.033646 0.227339
0.063642 0.033489 0.226343
0.064504 0.033375 0.225642
0.065358 0.033262 0.224940
0.066086 0.033088 0.223831
0.066768 0.032898 0.222603
0.067731 0.032849 0.222333
0.067923 0.032434 0.219581
0.068667 0.032292 0.218669
0.069440 0.032166 0.217871
0.070189 0.032034 0.217022
0.070729 0.031811 0.215561
0.071512 0.031703 0.214868
0.072260 0.031582 0.214087
0.072709 0.031335 0.212455
0.073183 0.031106 0.210935
0.073374 0.030765 0.208650
0.073961 0.030596 0.207534
0.074450 0.030392 0.206173
0.074968 0.030205 0.204923
0.075190 0.029905 0.202904
0.074558 0.029277 0.198657
0.075125 0.029130 0.197665
0.075678 0.028981 0.196660
0.074787 0.028289 0.191965
0.075205 0.028104 0.190704
0.075623 0.027922 0.189467
0.076316 0.027846 0.188935
0.076915 0.027737 0.188180
0.077305 0.027556 0.186931
0.077746 0.027397 0.185831
0.078231 0.027257 0.184852
0.078763 0.027136 0.184001
0.079396 0.027053 0.183395
0.079949 0.026944 0.182616
0.080565 0.026859 0.181989
0.081099 0.026748 0.181184
0.081502 0.026597 0.180101
0.081934 0.026458 0.179099
0.082401 0.026334 0.178185
0.082783 0.026185 0.177103
0.083048 0.026002 0.175787
0.083328 0.025828 0.174522
0.083795 0.025714 0.173661
0.084185 0.025580 0.172654
0.084395 0.025393 0.171291
0.084603 0.025210 0.169943
0.084835 0.025038 0.168662
0.085016 0.024853 0.167296
0.085825 0.024854 0.167171
0.086356 0.024775 0.166501
0.086653 0.024631 0.165387
-1.002887 0.292677 1.922421
-1.003461 0.295526 1.942578
-0.995610 0.295924 1.946553
-0.979531 0.293861 1.934252
-0.975324 0.295354 1.945278
-0.967025 0.295625 1.948180
-0.960281 0.296381 1.954210
-0.954200 0.297359 1.961633
-0.952441 0.299715 1.978093
-0.952698 0.302759 1.999037
-0.952390 0.305683 2.019130
-0.944286 0.306138 2.022863
-0.941974 0.308499 2.039131
-0.925491 0.306220 2.024667
-0.917363 0.306687 2.028292
-0.846270 0.285893 1.891213
-0.842305 0.287575 1.902737
-0.828558 0.285919 1.892113
-0.808836 0.282142 1.867402
-1.448926 0.510965 3.382337
-1.435294 0.511773 3.388022
-1.400240 0.504874 3.342607
-1.393643 0.508196 3.364774
-1.373512 0.506603 3.354322
-1.358576 0.506911 3.356382
-1.345485 0.507923 3.363032
-1.329296 0.507775 3.361933
-1.315722 0.508635 3.367436
-1.302004 0.509460 3.372640
-0.878615 0.348030 2.303748
-0.868179 0.348187 2.304527
-0.850289 0.345322 2.285261
-0.309604 0.157611 1.038800
-0.299997 0.155179 1.022414
-0.294041 0.154587 1.018153
-0.289142 0.154541 1.017476
-0.285007 0.154908 1.019518
-0.280206 0.154920 1.019211
-0.275309 0.154878 1.018544
-0.270335 0.154791 1.017576
-0.265060 0.154525 1.015430
-0.259860 0.154294 1.013507
-0.253703 0.153475 1.007723
-0.247909 0.152849 1.003203
-0.240360 0.151095 0.991287
-0.238119 0.152675 1.001237
-0.047882 0.036536 0.238806
-0.046804 0.036583 0.239012
-0.044800 0.035891 0.234394
-0.043515 0.035753 0.233400
-0.041838 0.035278 0.230205
-0.040376 0.034963 0.228057
-0.038685 0.034427 0.224474
-0.037244 0.034090 0.222186
-0.034068 0.032098 0.209120
-0.033306 0.032329 0.210543
-0.032181 0.032211 0.209700
-0.031244 0.032280 0.210066
-0.030230 0.032271 0.209931
-0.029400 0.032465 0.211114
-0.028595 0.032700 0.212573
-0.028069 0.033285 0.216300
-0.027077 0.033340 0.216584
-0.026153 0.033488 0.217468
-0.025236 0.033656 0.218493
-0.024278 0.033783 0.219244
-0.023323 0.033924 0.220096
-0.022374 0.034090 0.221104
-0.021420 0.034262 0.222160
-0.020444 0.034417 0.223097
-0.019433 0.034527 0.223753
-0.018418 0.034640 0.224431
-0.017377 0.034719 0.224886
-0.016323 0.034779 0.225217
-0.015288 0.034890 0.225891
-0.014233 0.034971 0.226363
-0.013170 0.035042 0.226779
-0.012136 0.035213 0.227839
-0.011064 0.035294 0.228325
-0.010038 0.035557 0.229991
-0.008965 0.035698 0.230864
-0.007855 0.035713 0.230931
-0.006757 0.035797 0.231442
-0.005655 0.035887 0.232000
-0.004539 0.035910 0.232123
-0.003424 0.035959 0.232419
-0.002307 0.036025 0.232826
-0.001193 0.036307 0.234636
-0.000060 0.036472 0.235687
0.001079 0.036539 0.236112
0.002220 0.036556 0.236220
0.003364 0.036600 0.236500
0.004511 0.036641 0.236764
0.005670 0.036745 0.237443
0.006844 0.036897 0.238431
0.008054 0.037166 0.240174
0.009236 0.037258 0.240787
0.010407 0.037289 0.241003
0.011583 0.037329 0.241278
0.012769 0.037390 0.241692
0.013957 0.037449 0.242097
0.015159 0.037531 0.242653
0.016377 0.037638 0.243378
0.017575 0.037688 0.243735
0.018790 0.037766 0.244277
0.020010 0.037844 0.244817
0.021309 0.038054 0.246218
0.022527 0.038104 0.246590
0.023773 0.038196 0.247230
0.024983 0.038223 0.247455
0.026213 0.038276 0.247854
0.027463 0.038352 0.248401
0.028706 0.038414 0.248859
0.029951 0.038473 0.249297
0.031213 0.038547 0.249841
0.032461 0.038599 0.250243
0.033719 0.038660 0.250701
0.034928 0.038661 0.250781
0.036178 0.038707 0.251146
0.037407 0.038727 0.251350
0.038728 0.038839 0.252152
0.039889 0.038788 0.251895
0.041093 0.038781 0.251927
0.042350 0.038823 0.252276
0.043510 0.038776 0.252046
0.044708 0.038764 0.252053
0.045877 0.038728 0.251899
0.047065 0.038710 0.251864
0.048261 0.038699 0.251875
0.048991 0.038325 0.249520
0.050033 0.038205 0.248826
0.050273 0.037493 0.244272
0.050825 0.037042 0.241414
0.051256 0.036524 0.238115
0.052212 0.036394 0.237352
0.052832 0.036041 0.235128
0.053623 0.035817 0.233743
0.054640 0.035750 0.233385
0.055687 0.035704 0.233165
0.056506 0.035518 0.232023
0.057411 0.035390 0.231269
0.058396 0.035317 0.230867
0.059290 0.035192 0.230123
0.060194 0.035078 0.229448
0.061045 0.034937 0.228598
0.062056 0.034890 0.228365
0.062793 0.034695 0.227153
0.063553 0.034518 0.226062
0.064425 0.034407 0.225400
0.065232 0.034266 0.224539
0.065889 0.034051 0.223195
0.066769 0.033956 0.222633
0.067530 0.033806 0.221703
0.068142 0.033586 0.220314
0.068601 0.033298 0.218481
0.069079 0.033029 0.216760
0.069857 0.032908 0.216016
0.070721 0.032831 0.215554
0.071269 0.032612 0.214156
0.071786 0.032384 0.212700
0.072605 0.032298 0.212167
0.073130 0.032084 0.210796
0.073445 0.031786 0.208864
0.073525 0.031395 0.206321
0.074426 0.031360 0.206114
0.075193 0.031270 0.205544
0.075630 0.031048 0.204095
0.075215 0.030486 0.200410
0.073909 0.029581 0.194469
0.074280 0.029361 0.193027
0.074641 0.029143 0.191591
0.075074 0.028957 0.190368
0.075577 0.028803 0.189347
0.076086 0.028655 0.188359
0.076697 0.028548 0.187639
0.076956 0.028314 0.186080
0.077488 0.028185 0.185204
0.078213 0.028128 0.184798
0.078776 0.028014 0.184018
0.079442 0.027940 0.183487
0.080084 0.027858 0.182907
0.080547 0.027717 0.181930
0.081227 0.027653 0.181451
0.081377 0.027411 0.179805
0.082075 0.027357 0.179384
0.082598 0.027246 0.178587
0.082966 0.027087 0.177468
0.083653 0.027035 0.177040
0.083417 0.026688 0.174680
0.083801 0.026544 0.173644
0.084280 0.026433 0.172817
0.084472 0.026235 0.171414
0.084878 0.026106 0.170460
0.084890 0.025860 0.168736
0.085083 0.025673 0.167389
0.085953 0.025692 0.167379
0.086317 0.025561 0.166384
0.086702 0.025439 0.165438
-0.996767 0.299973 1.910252
-0.997736 0.303014 1.931076
-0.979580 0.300249 1.914819
-0.974876 0.301595 1.924684
-0.971195 0.303285 1.936685
-0.963787 0.303833 1.941320
-0.957089 0.304618 1.947397
-0.952105 0.305968 1.957025
-0.947704 0.307534 1.967973
-0.952246 0.312062 1.997821
-0.948656 0.317155 2.031992
-0.938768 0.317046 2.031978
-0.935526 0.319203 2.046425
-0.927302 0.319687 2.050090
-0.843196 0.293746 1.884197
-0.838294 0.295140 1.893548
-0.827481 0.294460 1.889542
-0.811392 0.291868 1.873209
-1.448108 0.526618 3.380286
-1.416805 0.520949 3.344266
-1.406110 0.522816 3.356535
-1.392541 0.523645 3.362058
-1.378933 0.524478 3.367533
-1.358942 0.522874 3.357287
-1.346536 0.524186 3.365686
-1.333839 0.525414 3.373478
-1.321688 0.526890 3.382790
-1.307896 0.527740 3.388014
-0.869176 0.355037 2.279089
-0.865249 0.357844 2.296862
-0.843576 0.353289 2.267347
-0.308584 0.161995 1.035560
-0.300029 0.160040 1.022714
-0.294145 0.159469 1.018707
-0.288984 0.159278 1.017122
-0.285080 0.159784 1.019986
-0.280340 0.159832 1.019914
-0.275307 0.159712 1.018760
-0.270325 0.159617 1.017766
-0.264430 0.158970 1.013250
-0.258137 0.158056 1.007028
-0.250979 0.156567 0.997149
-0.245374 0.156009 0.993195
-0.241010 0.156234 0.994228
-0.118172 0.084915 0.539272
-0.118415 0.086977 0.552141
-0.044197 0.037447 0.237137
-0.043118 0.037492 0.237329
-0.042035 0.037537 0.237516
-0.039336 0.036100 0.228335
-0.037889 0.035763 0.226117
-0.036850 0.035803 0.226282
-0.033318 0.033351 0.210704
-0.032032 0.033064 0.208808
-0.030995 0.033022 0.208471
-0.030080 0.033114 0.208971
-0.029080 0.033114 0.208900
-0.029621 0.034932 0.220289
-0.028376 0.034701 0.218756
-0.027206 0.034545 0.217703
-0.026221 0.034623 0.218121
-0.025270 0.034755 0.218881
-0.024275 0.034834 0.219312
-0.023263 0.034894 0.219623
-0.022307 0.035049 0.220534
-0.021327 0.035180 0.221293
-0.020327 0.035290 0.221929
-0.019335 0.035427 0.222730
-0.018318 0.035531 0.223328
-0.017325 0.035698 0.224320
-0.016281 0.035774 0.224746
-0.015226 0.035836 0.225084
-0.014194 0.035967 0.225862
-0.013193 0.036204 0.227306
-0.012147 0.036349 0.228173
-0.011082 0.036459 0.228822
-0.010003 0.036544 0.229321
-0.008945 0.036738 0.230503
-0.007848 0.036801 0.230864
-0.006749 0.036879 0.231327
-0.005648 0.036967 0.231849
-0.004541 0.037059 0.232401
-0.003428 0.037138 0.232880
-0.002306 0.037158 0.232987
-0.001187 0.037324 0.234012
-0.000058 0.037376 0.234325
0.001076 0.037508 0.235142
0.002221 0.037688 0.236270
0.003370 0.037790 0.236903
0.004520 0.037850 0.237278
0.005674 0.037904 0.237624
0.006834 0.037979 0.238097
0.008010 0.038111 0.238932
0.009249 0.038467 0.241176
0.010402 0.038427 0.240945
0.011574 0.038455 0.241140
0.012769 0.038552 0.241768
0.013950 0.038591 0.242033
0.015142 0.038654 0.242456
0.016354 0.038752 0.243103
0.017582 0.038874 0.243901
0.018777 0.038913 0.244182
0.019989 0.038979 0.244631
0.021257 0.039142 0.245698
0.022477 0.039203 0.246127
0.023746 0.039339 0.247026
0.024957 0.039371 0.247276
0.026214 0.039469 0.247944
0.027428 0.039496 0.248166
0.028711 0.039616 0.248976
0.029952 0.039671 0.249381
0.031194 0.039723 0.249767
0.032440 0.039776 0.250165
0.033675 0.039812 0.250457
0.034922 0.039858 0.250816
0.036147 0.039878 0.251007
0.037389 0.039914 0.251307
0.038645 0.039963 0.251685
0.039862 0.039970 0.251802
0.041052 0.039949 0.251746
0.042243 0.039931 0.251711
0.043436 0.039916 0.251691
0.044590 0.039866 0.251458
0.045769 0.039841 0.251376
0.046948 0.039817 0.251307
0.048017 0.039703 0.250672
0.049131 0.039631 0.250296
0.050107 0.039453 0.249257
0.050413 0.038770 0.245018
0.050397 0.037874 0.239437
0.051439 0.037796 0.239025
0.052421 0.037679 0.238361
0.053343 0.037524 0.237457
0.054057 0.037232 0.235691
0.054734 0.036927 0.233837
0.055683 0.036814 0.233199
0.056516 0.036631 0.232112
0.057361 0.036462 0.231115
0.058297 0.036356 0.230518
0.059238 0.036257 0.229965
0.060117 0.036124 0.229195
0.060982 0.035988 0.228402
0.061845 0.035856 0.227628
0.062590 0.035661 0.226458
0.063451 0.035537 0.225737
0.064289 0.035404 0.224959
0.064976 0.035195 0.223690
0.065581 0.034948 0.222183
0.066211 0.034722 0.220803
0.067123 0.034649 0.220394
0.067748 0.034433 0.219068
0.068322 0.034197 0.217617
0.068934 0.033987 0.216329
0.069681 0.033848 0.215493
0.070157 0.033585 0.213856
0.070850 0.033431 0.212915
0.071532 0.033276 0.211965
0.072116 0.033080 0.210752
0.072667 0.032875 0.209474
0.073060 0.032605 0.207780
0.073795 0.032493 0.207090
0.074171 0.032227 0.205417
0.074853 0.032100 0.204622
0.075132 0.031805 0.202756
0.074676 0.031211 0.198976
0.074278 0.030655 0.195441
0.074453 0.030347 0.193477
0.074450 0.029975 0.191100
0.075073 0.029860 0.190363
0.075502 0.029672 0.189154
0.076003 0.029516 0.188148
0.076455 0.029346 0.187040
0.076884 0.029170 0.185897
0.077418 0.029038 0.185026
0.077992 0.028923 0.184264
0.078653 0.028843 0.183717
0.079247 0.028740 0.183022
0.079921 0.028669 0.182519
0.080531 0.028576 0.181875
0.081034 0.028447 0.180999
0.081609 0.028346 0.180295
0.082020 0.028191 0.179240
0.082498 0.028062 0.178346
0.083036 0.027956 0.177590
0.083200 0.027727 0.176052
0.083300 0.027481 0.174404
0.083826 0.027380 0.173665
0.084202 0.027232 0.172623
0.084589 0.027091 0.171616
0.084989 0.026956 0.170648
0.085147 0.026747 0.169206
0.085367 0.026563 0.167908
0.085955 0.026494 0.167341
0.086485 0.026410 0.166664
0.086696 0.026230 0.165379
-0.999267 0.309830 1.914586
-0.991494 0.310234 1.918557
-0.982268 0.310188 1.919657
-0.969653 0.309061 1.913980
-0.968116 0.311476 1.930170
-0.962295 0.312547 1.937960
-0.955398 0.313285 1.943620
-0.949770 0.314458 1.951911
-0.948168 0.316999 1.968638
-0.948525 0.320253 1.989732
-0.949470 0.323772 2.012428
-0.941375 0.324248 2.016151
-0.940201 0.327143 2.034853
-0.918661 0.322937 2.009327
-0.863452 0.306686 1.908754
-0.839478 0.301304 1.875733
-0.839688 0.304580 1.896556
-0.822810 0.301661 1.878753
-0.807891 0.299406 1.865023
-1.435865 0.537972 3.351550
-1.413967 0.535644 3.337441
-1.397644 0.535399 3.336228
-1.389420 0.538287 3.354455
-1.370780 0.537159 3.347583
-1.355121 0.537187 3.347837
-1.342254 0.538336 3.355000
-1.330126 0.539812 3.364134
-1.320827 0.542485 3.380661
-0.864855 0.363966 2.267848
-0.862797 0.367631 2.290459
-0.843119 0.363786 2.266242
-0.308327 0.166760 1.034880
-0.299242 0.164452 1.020220
-0.293824 0.164117 1.017791
-0.288849 0.164023 1.016850
-0.284645 0.164370 1.018642
-0.279928 0.164429 1.018633
-0.275013 0.164371 1.017897
-0.269914 0.164199 1.016452
-0.263521 0.163220 1.010006
-0.257139 0.162211 1.003377
-0.251505 0.161645 0.999486
-0.245508 0.160819 0.993993
-0.236117 0.157696 0.974299
-0.120644 0.089316 0.550716
-0.118297 0.089521 0.551759
-0.114188 0.088372 0.544454
-0.114591 0.090742 0.558830
-0.042541 0.041371 0.253973
-0.039731 0.040974 0.251350
-0.032350 0.034403 0.210960
-0.031191 0.034238 0.209873
-0.029869 0.033878 0.207589
-0.033123 0.038860 0.238036
-0.032014 0.038897 0.238182
-0.030365 0.038257 0.234181
-0.027412 0.035862 0.219449
-0.026209 0.035656 0.218117
-0.025197 0.035704 0.218342
-0.024223 0.035812 0.218936
-0.023204 0.035861 0.219169
-0.022213 0.035959 0.219706
-0.021246 0.036109 0.220557
-0.020270 0.036257 0.221405
-0.019293 0.036421 0.222344
-0.018285 0.036542 0.223030
-0.017291 0.036708 0.223988
-0.016262 0.036816 0.224593
-0.015225 0.036921 0.225187
-0.014191 0.037050 0.225926
-0.013156 0.037199 0.226789
-0.012097 0.037298 0.227354
-0.011021 0.037359 0.227687
-0.009958 0.037485 0.228415
-0.008862 0.037503 0.228492
-0.007785 0.037619 0.229164
-0.006722 0.037849 0.230535
-0.005634 0.038005 0.231462
-0.004538 0.038166 0.232421
-0.003425 0.038250 0.232912
-0.002305 0.038295 0.233166
-0.001185 0.038424 0.233936
-0.000057 0.038499 0.234383
0.001076 0.038607 0.235031
0.002218 0.038754 0.235920
0.003362 0.038824 0.236344
0.004504 0.038835 0.236411
0.005662 0.038963 0.237190
0.006827 0.039077 0.237894
0.008034 0.039371 0.239689
0.009212 0.039466 0.240279
0.010400 0.039575 0.240957
0.011570 0.039602 0.241140
0.012752 0.039659 0.241510
0.013941 0.039728 0.241956
0.015128 0.039780 0.242297
0.016362 0.039941 0.243305
0.017581 0.040044 0.243965
0.018786 0.040105 0.244371
0.020012 0.040201 0.244994
0.021275 0.040356 0.245983
0.022534 0.040489 0.246832
0.023782 0.040588 0.247483
0.024992 0.040615 0.247700
0.026212 0.040656 0.248000
0.027455 0.040728 0.248488
0.028713 0.040814 0.249071
0.029933 0.040842 0.249300
0.031144 0.040856 0.249447
0.032383 0.040904 0.249798
0.033594 0.040915 0.249932
0.034822 0.040944 0.250176
0.036048 0.040970 0.250399
0.037274 0.040993 0.250610
0.038538 0.041056 0.251067
0.039754 0.041065 0.251195
0.040959 0.041062 0.251252
0.042139 0.041035 0.251162
0.043318 0.041010 0.251080
0.044487 0.040975 0.250947
0.045650 0.040937 0.250792
0.046910 0.040986 0.251172
0.048382 0.041213 0.252641
0.049417 0.041066 0.251819
0.050468 0.040938 0.251118
0.050407 0.039936 0.245050
0.050170 0.038843 0.238420
0.051066 0.038656 0.237351
0.051968 0.038482 0.236357
0.053022 0.038425 0.236083
0.053909 0.038252 0.235097
0.054645 0.037981 0.233507
0.055611 0.037878 0.232950
0.056392 0.037655 0.231652
0.057300 0.037524 0.230919
0.058254 0.037427 0.230396
0.059172 0.037311 0.229753
0.060110 0.037212 0.229209
0.061001 0.037087 0.228514
0.061920 0.036984 0.227944
0.062556 0.036718 0.226372
0.063104 0.036411 0.224540
0.063960 0.036288 0.223844
0.064900 0.036216 0.223461
0.065450 0.035932 0.221768
0.066053 0.035687 0.220307
0.067021 0.035642 0.220087
0.067528 0.035358 0.218383
0.068282 0.035210 0.217514
0.068416 0.034751 0.214727
0.069171 0.034617 0.213939
0.070033 0.034538 0.213496
0.070511 0.034276 0.211914
0.071298 0.034169 0.211287
0.071591 0.033832 0.209233
0.072450 0.033767 0.208862
0.072816 0.033478 0.207098
0.073485 0.033334 0.206227
0.074217 0.033222 0.205551
0.074696 0.033001 0.204200
0.075332 0.032854 0.203301
0.074651 0.032144 0.198912
0.074132 0.031520 0.195056
0.074280 0.031192 0.193026
0.074528 0.030913 0.191297
0.075071 0.030762 0.190355
0.075617 0.030616 0.189438
0.076115 0.030454 0.188419
0.076480 0.030243 0.187092
0.076839 0.030034 0.185777
0.077502 0.029948 0.185216
0.078195 0.029875 0.184732
0.078847 0.029789 0.184156
0.079451 0.029686 0.183476
0.080229 0.029649 0.183202
0.080804 0.029539 0.182470
0.081244 0.029383 0.181446
0.081650 0.029218 0.180363
0.081913 0.029006 0.178982
0.082261 0.028828 0.177808
0.082589 0.028646 0.176607
0.082939 0.028476 0.175471
0.083264 0.028300 0.174297
0.083766 0.028188 0.173506
0.084314 0.028093 0.172817
0.084786 0.027975 0.171979
0.085252 0.027857 0.171136
0.085733 0.027746 0.170332
0.086036 0.027580 0.169182
0.086390 0.027434 0.168144
0.086720 0.027283 0.167071
0.087096 0.027148 0.166095
-0.989388 0.318673 1.914026
-0.975572 0.317127 1.906140
-0.975415 0.320034 1.924941
-0.965299 0.319697 1.924163
-0.960013 0.320968 1.932993
-0.952461 0.321499 1.937294
-0.946525 0.322592 1.944911
-0.943885 0.324841 1.959434
-0.941993 0.327393 1.975737
-0.947407 0.332562 2.007775
-0.939320 0.333047 2.011491
-0.939527 0.336514 2.033154
-0.931339 0.337014 2.036836
-0.862982 0.315526 1.907526
-0.843826 0.311764 1.885282
-0.834221 0.311488 1.884058
-0.823724 0.310870 1.880710
-0.807655 0.308113 1.864364
-1.432657 0.552542 3.343890
-1.412741 0.550904 3.334405
-1.394087 0.549728 3.327626
-1.387396 0.553295 3.349486
-1.369834 0.552560 3.345220
-1.355329 0.553056 3.348329
-1.341598 0.553883 3.353368
-1.327550 0.554597 3.357654
-0.870266 0.377004 2.282118
-0.860539 0.377443 2.284568
-0.846587 0.376015 2.275685
-0.299594 0.169484 1.021611
-0.293850 0.168955 1.018080
-0.288745 0.168782 1.016691
-0.284798 0.169291 1.019402
-0.279763 0.169161 1.018252
-0.274838 0.169093 1.017478
-0.269857 0.168988 1.016471
-0.263899 0.168257 1.011693
-0.256946 0.166852 1.002871
-0.250319 0.165611 0.995026
-0.245958 0.165849 0.996074
-0.130012 0.096976 0.581282
-0.126276 0.096233 0.576600
-0.122936 0.095766 0.573572
-0.118920 0.094739 0.567194
-0.114472 0.093312 0.558431
-0.110907 0.092555 0.553677
-0.108333 0.092607 0.553773
-0.105028 0.092023 0.550059
-0.102350 0.091971 0.549537
-0.100658 0.092826 0.554427
-0.043804 0.042636 0.254456
-0.042494 0.042540 0.253788
-0.041100 0.042352 0.252574
-0.039686 0.042132 0.251166
-0.038527 0.042176 0.251339
-0.037013 0.041823 0.249146
-0.035746 0.041735 0.248531
-0.032269 0.040361 0.240182
-0.030975 0.040174 0.238992
-0.029634 0.039910 0.237341
-0.026469 0.037069 0.220376
-0.025144 0.036677 0.217978
-0.024028 0.036569 0.217272
-0.023085 0.036727 0.218147
-0.022121 0.036865 0.218904
-0.021135 0.036977 0.219506
-0.020184 0.037166 0.220569
-0.019203 0.037319 0.221418
-0.018261 0.037568 0.222844
-0.017243 0.037683 0.223475
-0.016246 0.037863 0.224490
-0.015201 0.037950 0.224953
-0.014176 0.038102 0.225809
-0.013128 0.038212 0.226419
-0.012070 0.038311 0.226961
-0.011010 0.038425 0.227600
-0.009937 0.038512 0.228081
-0.008859 0.038597 0.228547
-0.007776 0.038686 0.229045
-0.006704 0.038866 0.230081
-0.005635 0.039140 0.231675
-0.004535 0.039281 0.232487
-0.003422 0.039352 0.232886
-0.002308 0.039505 0.233776
-0.001182 0.039524 0.233874
-0.000055 0.039658 0.234657
0.001079 0.039776 0.235342
0.002217 0.039838 0.235705
0.003360 0.039917 0.236171
0.004502 0.039946 0.236342
0.005648 0.039994 0.236625
0.006804 0.040081 0.237148
0.008003 0.040362 0.238818
0.009202 0.040570 0.240061
0.010392 0.040698 0.240835
0.011559 0.040717 0.240962
0.012741 0.040781 0.241365
0.013931 0.040858 0.241842
0.015116 0.040912 0.242188
0.016348 0.041073 0.243171
0.017559 0.041164 0.243738
0.018769 0.041242 0.244235
0.019981 0.041314 0.244701
0.021224 0.041438 0.245474
0.022521 0.041649 0.246764
0.023745 0.041710 0.247172
0.024960 0.041751 0.247462
0.026175 0.041788 0.247729
0.027380 0.041806 0.247890
0.028594 0.041836 0.248121
0.029823 0.041884 0.248464
0.031053 0.041930 0.248796
0.032295 0.041988 0.249202
0.033500 0.041996 0.249309
0.034769 0.042081 0.249877
0.035972 0.042082 0.249951
0.037171 0.042078 0.249997
0.038403 0.042111 0.250260
0.039612 0.042118 0.250375
0.040781 0.042082 0.250235
0.041961 0.042060 0.250173
0.043113 0.042012 0.249964
0.044276 0.041976 0.249826
0.045498 0.041997 0.250028
0.047296 0.042535 0.253308
0.048402 0.042439 0.252815
0.049648 0.042467 0.253065
0.050652 0.042293 0.252102
0.051536 0.042028 0.250604
0.050410 0.040173 0.239620
0.051064 0.039788 0.237397
0.051741 0.039437 0.235380
0.052703 0.039314 0.234721
0.053495 0.039071 0.233345
0.054373 0.038900 0.232397
0.055335 0.038795 0.231842
0.056259 0.038667 0.231153
0.057186 0.038548 0.230507
0.058162 0.038464 0.230078
0.059053 0.038328 0.229334
0.060034 0.038255 0.228963
0.060971 0.038157 0.228444
0.061747 0.037963 0.227348
0.062182 0.037569 0.225056
0.063254 0.037568 0.225109
0.063873 0.037302 0.223574
0.064489 0.037043 0.222079
0.065125 0.036803 0.220698
0.065921 0.036660 0.219896
0.066378 0.036336 0.218004
0.067203 0.036220 0.217356
0.067873 0.036026 0.216237
0.068375 0.035749 0.214619
0.068742 0.035411 0.212631
0.069509 0.035286 0.211920
0.070407 0.035230 0.211617
0.070826 0.034939 0.209904
0.071600 0.034829 0.209272
0.071774 0.034434 0.206925
0.072557 0.034338 0.206373
0.073077 0.034122 0.205093
0.073721 0.033968 0.204184
0.074095 0.033696 0.202562
0.075067 0.033699 0.202589
0.075064 0.033270 0.200015
0.075518 0.033051 0.198703
0.074977 0.032408 0.194836
0.074828 0.031949 0.192066
0.075014 0.031641 0.190205
0.075322 0.031391 0.188693
0.075709 0.031180 0.187406
0.076098 0.030975 0.186149
0.076760 0.030884 0.185575
0.077289 0.030742 0.184693
0.077921 0.030644 0.184070
0.078562 0.030552 0.183474
0.079139 0.030437 0.182739
0.079571 0.030269 0.181680
0.080488 0.030288 0.181736
0.080922 0.030126 0.180705
0.081090 0.029870 0.179102
0.081575 0.029734 0.178218
0.082075 0.029607 0.177378
0.082493 0.029453 0.176372
0.082786 0.029258 0.175115
0.082950 0.029021 0.173605
0.083455 0.028908 0.172827
0.083891 0.028773 0.171914
0.084369 0.028654 0.171094
0.084939 0.028569 0.170467
0.085209 0.028386 0.169246
0.085587 0.028242 0.168253
0.085789 0.028043 0.166927
0.086367 0.027969 0.166342
0.086704 0.027820 0.165298
-0.990336 0.328085 1.915383
-0.982549 0.328513 1.919316
-0.971279 0.327774 1.916347
-0.964694 0.328617 1.922547
-0.957396 0.329232 1.927336
-0.950212 0.329897 1.932352
-0.945832 0.331558 1.943138
-0.940632 0.332962 1.952351
-0.936706 0.334849 1.964337
-0.929675 0.335654 1.969910
-0.935311 0.341093 2.002635
-0.932783 0.343636 2.018306
-0.924644 0.344143 2.021961
-0.858455 0.322830 1.897319
-0.841672 0.319845 1.880290
-0.839546 0.322425 1.895923
-0.823838 0.319789 1.880827
-0.808536 0.317254 1.866275
-1.429059 0.566887 3.335303
-1.410757 0.565834 3.329566
-1.392337 0.564710 3.323322
-1.383995 0.567695 3.341181
-1.368834 0.567918 3.342712
-1.354430 0.568466 3.346071
-1.336786 0.567650 3.341333
-1.325484 0.569540 3.352452
-1.316972 0.572689 3.370911
-0.873346 0.389138 2.290273
-0.862785 0.389230 2.290625
-0.858968 0.392405 2.309082
-0.298743 0.173826 1.018898
-0.293850 0.173778 1.018280
-0.289346 0.173961 1.019013
-0.284588 0.173996 1.018866
-0.279674 0.173935 1.018153
-0.274666 0.173812 1.017072
-0.269699 0.173711 1.016113
-0.264280 0.173310 1.013397
-0.258393 0.172582 1.008768
-0.252437 0.171780 1.003702
-0.248037 0.172026 1.004757
-0.129879 0.099643 0.580861
-0.126919 0.099485 0.579714
-0.123482 0.098938 0.576300
-0.119423 0.097857 0.569778
-0.115130 0.096529 0.561825
-0.111497 0.095704 0.556807
-0.108871 0.095725 0.556712
-0.105754 0.095305 0.554053
-0.103147 0.095335 0.554012
-0.100546 0.095372 0.554015
-0.098019 0.095483 0.554448
-0.043755 0.043804 0.254266
-0.042227 0.043480 0.252287
-0.040752 0.043192 0.250528
-0.039402 0.043026 0.249469
-0.038086 0.042885 0.248564
-0.036970 0.042968 0.248958
-0.035704 0.042877 0.248343
-0.034550 0.042919 0.248499
-0.032233 0.041467 0.240014
-0.030973 0.041320 0.239081
-0.029795 0.041273 0.238734
-0.028535 0.041105 0.237690
-0.025914 0.038880 0.224753
-0.024291 0.038027 0.219756
-0.023012 0.037657 0.217557
-0.022087 0.037860 0.218667
-0.021115 0.037999 0.219408
-0.020151 0.038168 0.220325
-0.019096 0.038173 0.220298
-0.018173 0.038457 0.221880
-0.017237 0.038748 0.223510
-0.016231 0.038911 0.224401
-0.015199 0.039030 0.225039
-0.014134 0.039076 0.225258
-0.013103 0.039231 0.226108
-0.012059 0.039375 0.226897
-0.011003 0.039502 0.227589
-0.009919 0.039546 0.227807
-0.008842 0.039629 0.228249
-0.007762 0.039723 0.228764
-0.006669 0.039777 0.229047
-0.005596 0.039989 0.230240
-0.004523 0.040305 0.232037
-0.003417 0.040442 0.232804
-0.002302 0.040544 0.233372
-0.001181 0.040681 0.234150
-0.000053 0.040728 0.234404
0.001078 0.040805 0.234844
0.002218 0.040952 0.235680
0.003361 0.041050 0.236241
0.004509 0.041129 0.236695
0.005661 0.041217 0.237207
0.006821 0.041318 0.237791
0.007982 0.041395 0.238246
0.009173 0.041589 0.239373
0.010377 0.041792 0.240553
0.011544 0.041819 0.240729
0.012717 0.041861 0.240991
0.013914 0.041968 0.241627
0.015096 0.042016 0.241928
0.016309 0.042138 0.242660
0.017536 0.042277 0.243493
0.018765 0.042405 0.244260
0.019975 0.042476 0.244707
0.021201 0.042569 0.245283
0.022438 0.042675 0.245934
0.023695 0.042807 0.246742
0.024945 0.042914 0.247401
0.026155 0.042944 0.247622
0.027348 0.042945 0.247681
0.028563 0.042980 0.247934
0.029790 0.043028 0.248271
0.030995 0.043043 0.248414
0.032215 0.043076 0.248663
0.033425 0.043095 0.248832
0.034649 0.043128 0.249091
0.035881 0.043169 0.249392
0.037097 0.043190 0.249580
0.038304 0.043199 0.249697
0.039515 0.043211 0.249836
0.040708 0.043204 0.249865
0.041858 0.043152 0.249639
0.043005 0.043100 0.249409
0.044153 0.043052 0.249209
0.045311 0.043016 0.249073
0.047260 0.043713 0.253186
0.048322 0.043575 0.252467
0.049614 0.043647 0.252960
0.050653 0.043498 0.252172
0.051540 0.043228 0.250688
0.050470 0.041366 0.239965
0.050833 0.040736 0.236382
0.051668 0.040503 0.235107
0.052777 0.040491 0.235107
0.053503 0.040190 0.233436
0.054253 0.039920 0.231939
0.055245 0.039836 0.231518
0.056215 0.039738 0.231022
0.057092 0.039581 0.230176
0.058057 0.039488 0.229708
0.058970 0.039365 0.229059
0.059871 0.039238 0.228386
0.060811 0.039141 0.227885
0.061621 0.038965 0.226924
0.062294 0.038710 0.225500
0.062737 0.038322 0.223304
0.063598 0.038199 0.222645
0.064268 0.037967 0.221349
0.064795 0.037660 0.219610
0.065517 0.037474 0.218575
0.066079 0.037203 0.217049
0.066835 0.037049 0.216193
0.067597 0.036902 0.215382
0.068011 0.036572 0.213499
0.068739 0.036419 0.212644
0.069341 0.036204 0.211426
0.070055 0.036053 0.210578
0.070789 0.035916 0.209809
0.071379 0.035711 0.208640
0.071851 0.035453 0.207158
0.071962 0.035027 0.204689
0.072876 0.034998 0.204536
0.073068 0.034627 0.202382
0.073744 0.034492 0.201607
0.074300 0.034305 0.200523
0.074872 0.034131 0.199504
0.074465 0.033520 0.195934
0.074678 0.033199 0.194057
0.074930 0.032904 0.192323
0.074738 0.032423 0.189499
0.075057 0.032173 0.188021
0.075449 0.031959 0.186754
0.076101 0.031859 0.186145
0.076789 0.031777 0.185635
0.077365 0.031650 0.184862
0.077963 0.031535 0.184152
0.078613 0.031443 0.183576
0.079201 0.031329 0.182862
0.079857 0.031244 0.182314
0.080473 0.031145 0.181679
0.080810 0.030942 0.180429
0.081136 0.030739 0.179176
0.081302 0.030480 0.177593
0.081866 0.030373 0.176895
0.082425 0.030267 0.176194
0.082794 0.030095 0.175099
0.083030 0.029878 0.173740
0.083533 0.029760 0.172951
0.083972 0.029622 0.172042
0.084255 0.029432 0.170824
0.084775 0.029328 0.170097
0.085235 0.029205 0.169255
0.085347 0.028966 0.167737
0.085724 0.028821 0.166753
0.086059 0.028664 0.165699
0.086539 0.028558 0.164931
-0.983649 0.334915 1.901955
-0.975904 0.335349 1.905864
-0.977608 0.339067 1.928380
-0.965269 0.337940 1.923263
-0.956567 0.338077 1.925260
-0.949615 0.338841 1.930754
-0.943676 0.339985 1.938345
-0.939258 0.341704 1.949155
-0.938185 0.344687 1.967115
-0.941363 0.349307 1.994366
-0.935763 0.350730 2.003314
-0.941207 0.356364 2.036263
-0.934815 0.357586 2.043953
-0.856184 0.330913 1.892089
-0.833850 0.325667 1.862624
-0.831338 0.328134 1.877213
-0.823385 0.328484 1.879639
-0.805893 0.324994 1.860040
-1.428175 0.582260 3.333032
-1.406199 0.579660 3.318635
-1.389392 0.579156 3.316152
-1.380227 0.581862 3.331972
-1.365447 0.582236 3.334360
-1.350097 0.582374 3.335316
-1.337269 0.583615 3.342522
-1.326255 0.585687 3.354413
-1.316054 0.588173 3.368603
-1.302271 0.589099 3.373793
-0.861404 0.394470 2.259024
-0.861452 0.399415 2.287178
-0.844510 0.396507 2.270324
-0.835903 0.397490 2.275704
-0.307760 0.181127 1.033534
-0.298511 0.178513 1.018300
-0.293062 0.178122 1.015749
-0.288283 0.178133 1.015477
