ply
format ascii 1.0
element vertex 1744
property float x
property float y
property float z
end_header
0.053506 0.057892 0.229598
0.054362 0.057640 0.228638
0.055257 0.057438 0.227875
0.056103 0.057195 0.226946
0.056980 0.056991 0.226173
0.057471 0.056416 0.223926
0.058058 0.055954 0.222125
0.058869 0.055721 0.221229
0.059685 0.055500 0.220383
0.060257 0.055065 0.218683
0.060855 0.054667 0.217127
0.061549 0.054368 0.215962
0.061765 0.053662 0.213180
0.062574 0.053486 0.212501
0.063223 0.053183 0.211310
0.063599 0.052661 0.209252
0.064346 0.052458 0.208457
0.065353 0.052470 0.208516
0.066059 0.052244 0.207624
0.066818 0.052066 0.206919
0.067393 0.051751 0.205670
0.068343 0.051729 0.205581
0.068723 0.051283 0.203803
0.069093 0.050842 0.202041
0.069608 0.050518 0.200741
0.070110 0.050192 0.199435
0.070789 0.050002 0.198660
0.071329 0.049718 0.197512
0.071738 0.049353 0.196033
0.072091 0.048958 0.194439
0.072613 0.048687 0.193330
0.072672 0.048116 0.191027
0.073384 0.047986 0.190469
0.074357 0.048028 0.190591
0.074836 0.047754 0.189454
0.075480 0.047589 0.188750
0.076101 0.047415 0.188001
0.076683 0.047221 0.187168
0.077202 0.046992 0.186196
0.077768 0.046797 0.185350
0.078449 0.046675 0.184791
0.078973 0.046464 0.183869
0.079528 0.046274 0.183034
0.080155 0.046131 0.182372
0.080868 0.046039 0.181912
0.081372 0.045832 0.180988
0.081711 0.045537 0.179713
0.081943 0.045189 0.178222
0.082459 0.045003 0.177369
0.083173 0.044928 0.176943
0.083298 0.044539 0.175278
0.083778 0.044347 0.174378
0.084164 0.044108 0.173293
0.084693 0.043949 0.172512
0.084980 0.043668 0.171247
0.085593 0.043558 0.170646
0.086011 0.043352 0.169662
0.086567 0.043220 0.168957
0.087397 0.043225 0.168781
0.087908 0.043073 0.167985
0.088520 0.042973 0.167383
-1.006442 0.491098 1.894248
-0.994305 0.489576 1.890551
-0.983400 0.488639 1.889003
-0.971921 0.487396 1.886170
-0.964372 0.488120 1.890852
-0.956226 0.488553 1.894320
-0.946853 0.488362 1.895281
-0.939101 0.489011 1.899422
-0.930737 0.489351 1.902284
-0.922193 0.489603 1.904722
-1.007113 0.539971 2.102198
-0.998371 0.540627 2.106196
-0.988440 0.540645 2.107634
-0.973825 0.538076 2.098900
-0.965117 0.538752 2.102745
-0.836553 0.471840 1.842582
-0.828915 0.472444 1.845877
-0.815985 0.470013 1.837249
-0.810808 0.472044 1.846002
-0.799797 0.470686 1.841450
-0.890175 0.580582 2.277015
-0.866296 0.571887 2.243258
-0.855917 0.572001 2.243999
-0.847964 0.573759 2.251144
-0.837725 0.573996 2.252277
-0.826900 0.573831 2.251791
-0.649172 0.474811 1.863417
-0.641919 0.475929 1.867772
-0.634218 0.476741 1.870902
-0.625877 0.477088 1.872174
-0.616622 0.476739 1.870690
-0.301995 0.259393 1.017036
-0.295421 0.257835 1.010766
-0.291502 0.258580 1.013516
-0.287053 0.258872 1.014480
-0.281154 0.257844 1.010268
-0.276275 0.257733 1.009636
-0.271111 0.257347 1.007921
-0.266298 0.257287 1.007475
-0.260628 0.256382 1.003714
-0.252852 0.253333 0.991558
-0.156240 0.176081 0.688199
-0.152259 0.175241 0.684745
-0.147235 0.173139 0.676357
-0.143726 0.172763 0.674715
-0.140191 0.172341 0.672888
-0.137049 0.172391 0.672910
-0.133988 0.172551 0.673353
-0.130517 0.172175 0.671711
-0.127040 0.171774 0.669968
-0.123613 0.171422 0.668417
-0.120255 0.171149 0.667176
-0.117686 0.172015 0.670376
-0.113805 0.170957 0.666079
-0.110754 0.171123 0.666551
-0.049953 0.081853 0.318667
-0.048774 0.082418 0.320782
-0.047099 0.082151 0.319663
-0.045705 0.082374 0.320452
-0.044923 0.083753 0.325739
-0.043578 0.084146 0.327184
-0.043749 0.087601 0.340538
-0.042115 0.087569 0.340335
-0.041258 0.089215 0.346654
-0.040168 0.090474 0.351468
-0.038469 0.090411 0.351147
-0.036933 0.090743 0.352362
-0.035269 0.090776 0.352417
-0.033483 0.090484 0.351210
-0.031711 0.090201 0.350045
-0.029961 0.089953 0.349015
-0.028218 0.089697 0.347958
-0.026467 0.089384 0.346687
-0.024764 0.089200 0.345912
-0.023122 0.089229 0.345971
-0.021402 0.088938 0.344788
-0.019688 0.088623 0.343517
-0.018045 0.088603 0.343393
-0.016415 0.088644 0.343506
-0.014860 0.089153 0.345439
-0.013245 0.089378 0.346268
-0.011619 0.089581 0.347020
-0.010020 0.090106 0.349019
-0.008346 0.090019 0.348652
-0.006679 0.089994 0.348525
-0.004218 0.075690 0.293107
-0.002810 0.075498 0.292346
-0.001412 0.075367 0.291822
-0.000017 0.075457 0.292158
0.001375 0.075260 0.291384
0.002758 0.075016 0.290432
0.004125 0.074637 0.288958
0.005476 0.074238 0.287407
0.006831 0.074038 0.286634
0.008171 0.073760 0.285557
0.009504 0.073515 0.284612
0.010811 0.073157 0.283234
0.012088 0.072697 0.281461
0.013373 0.072370 0.280207
0.014660 0.072110 0.279210
0.015893 0.071655 0.277464
0.017139 0.071320 0.276185
0.018391 0.071056 0.275180
0.019610 0.070711 0.273866
0.020858 0.070504 0.273089
0.022082 0.070245 0.272110
0.023222 0.069762 0.270266
0.024403 0.069448 0.269078
0.025439 0.068773 0.266490
0.026670 0.068664 0.266100
0.027767 0.068235 0.264472
0.028787 0.067664 0.262289
0.029792 0.067104 0.260156
0.030888 0.066788 0.258966
0.031994 0.066516 0.257951
0.033022 0.066108 0.256405
0.034080 0.065786 0.255197
0.035069 0.065359 0.253582
0.036035 0.064919 0.251915
0.037149 0.064763 0.251352
0.038145 0.064420 0.250060
0.039026 0.063908 0.248116
0.040007 0.063585 0.246907
0.040810 0.063006 0.244702
0.041720 0.062620 0.243247
0.042666 0.062308 0.242077
0.043728 0.062175 0.241606
0.044479 0.061620 0.239491
0.045415 0.061342 0.238455
0.046299 0.061008 0.237201
0.047269 0.060802 0.236444
0.048046 0.060362 0.234774
0.048835 0.059957 0.233240
0.049853 0.059845 0.232847
0.050731 0.059573 0.231828
0.051562 0.059260 0.230650
0.052396 0.058962 0.229530
0.053365 0.058824 0.229032
0.054180 0.058527 0.227913
0.055069 0.058319 0.227139
0.056018 0.058181 0.226636
0.056652 0.057728 0.224904
0.057251 0.057256 0.223098
0.058026 0.056975 0.222034
0.058824 0.056725 0.221087
0.059627 0.056489 0.220195
0.060352 0.056189 0.219050
0.061038 0.055863 0.217803
0.061741 0.055563 0.216653
0.062286 0.055133 0.214995
0.062697 0.054600 0.212934
0.063310 0.054257 0.211611
0.064162 0.054127 0.211116
0.064549 0.053614 0.209126
0.065297 0.053412 0.208343
0.066114 0.053271 0.207801
0.066878 0.053093 0.207105
0.067582 0.052873 0.206247
0.067956 0.052404 0.204413
0.068459 0.052047 0.203013
0.069021 0.051744 0.201822
0.069706 0.051540 0.201011
0.070270 0.051254 0.199879
0.070897 0.051020 0.198945
0.071476 0.050759 0.197903
0.072098 0.050534 0.196999
0.072649 0.050265 0.195921
0.073111 0.049943 0.194630
0.073547 0.049612 0.193300
0.074055 0.049336 0.192184
0.074671 0.049139 0.191366
0.075066 0.048801 0.190001
0.075613 0.048571 0.189047
0.076241 0.048396 0.188307
0.076904 0.048248 0.187666
0.077416 0.048010 0.186668
0.078058 0.047856 0.185996
0.078693 0.047702 0.185316
0.079345 0.047561 0.184685
0.079890 0.047360 0.183814
0.080449 0.047172 0.182985
0.081043 0.047007 0.182245
0.081563 0.046804 0.181350
0.081632 0.046349 0.179474
0.081874 0.046001 0.178007
0.082597 0.045927 0.177595
0.083152 0.045762 0.176825
0.083604 0.045545 0.175848
0.084223 0.045421 0.175225
0.084822 0.045290 0.174566
0.085305 0.045100 0.173673
0.085593 0.044811 0.172394
0.086051 0.044616 0.171468
0.086545 0.044443 0.170623
0.086820 0.044162 0.169354
0.087589 0.044135 0.169050
0.088205 0.044032 0.168448
0.088653 0.043848 0.167528
-1.012575 0.503245 1.904674
-1.004480 0.503749 1.908822
-0.983442 0.497713 1.888060
-0.970798 0.495853 1.883009
-0.963088 0.496502 1.887390
-0.953982 0.496437 1.888967
-0.946047 0.496986 1.892794
-0.938493 0.497748 1.897354
-0.930071 0.498060 1.900117
-0.921515 0.498307 1.902552
-1.010244 0.551685 2.107920
-1.001461 0.552347 2.111934
-0.984939 0.548711 2.099428
-0.972501 0.547299 2.095344
-0.963792 0.547979 2.099187
-0.835182 0.479793 1.839006
-0.823398 0.477994 1.833066
-0.814759 0.478001 1.833992
-0.807238 0.478672 1.837406
-0.797013 0.477738 1.834601
-0.789396 0.478362 1.837729
-0.889370 0.590804 2.274699
-0.865956 0.582255 2.242155
-0.855612 0.582391 2.243005
-0.845527 0.582710 2.244512
-0.837159 0.584235 2.250617
-0.827796 0.585097 2.254125
-0.649987 0.484217 1.865760
-0.640348 0.483561 1.863228
-0.632574 0.484316 1.866098
-0.625633 0.485740 1.871515
-0.617283 0.486094 1.872787
-0.300404 0.262809 1.011809
-0.295772 0.262925 1.012106
-0.290118 0.262122 1.008855
-0.285918 0.262627 1.010632
-0.280672 0.262173 1.008705
-0.275660 0.261926 1.007571
-0.270794 0.261811 1.006935
-0.265923 0.261688 1.006260
-0.259898 0.260403 1.001113
-0.253564 0.258756 0.994573
-0.158568 0.182019 0.698651
-0.154084 0.180630 0.693152
-0.150107 0.179789 0.689753
-0.145057 0.177598 0.681175
-0.141549 0.177237 0.679621
-0.138711 0.177719 0.681296
-0.135792 0.178117 0.682645
-0.132720 0.178329 0.683284
-0.129417 0.178234 0.682746
-0.125760 0.177634 0.680273
-0.122638 0.177778 0.680649
-0.119953 0.178581 0.683547
-0.115993 0.177479 0.679154
-0.050332 0.084007 0.321223
-0.048871 0.084114 0.321553
-0.047356 0.084133 0.321549
-0.046240 0.084887 0.324351
-0.045331 0.086084 0.328846
-0.044245 0.087020 0.332343
-0.043153 0.088014 0.336061
-0.042468 0.089944 0.343353
-0.042086 0.092698 0.353788
-0.040811 0.093630 0.357267
-0.038948 0.093238 0.355696
-0.037254 0.093233 0.355600
-0.035577 0.093272 0.355677
-0.033634 0.092583 0.352983
-0.031787 0.092100 0.351072
-0.030007 0.091769 0.349747
-0.028275 0.091552 0.348857
-0.026517 0.091221 0.347536
-0.024824 0.091085 0.346962
-0.023157 0.091032 0.346703
-0.021474 0.090900 0.346151
-0.019841 0.090982 0.346411
-0.018128 0.090676 0.345199
-0.016469 0.090603 0.344877
-0.014854 0.090786 0.345536
-0.013201 0.090754 0.345374
-0.011587 0.091019 0.346347
-0.009981 0.091451 0.347955
-0.008351 0.091782 0.349187
-0.006686 0.091798 0.349218
-0.004215 0.077098 0.293274
-0.002809 0.076952 0.292703
-0.001408 0.076765 0.291974
-0.000014 0.076774 0.291995
0.001380 0.076739 0.291850
0.002761 0.076401 0.290555
0.004133 0.076103 0.289416
0.005473 0.075522 0.287203
0.006835 0.075415 0.286797
0.008192 0.075291 0.286324
0.009523 0.074999 0.285217
0.010826 0.074594 0.283682
0.012148 0.074388 0.282908
0.013445 0.074087 0.281771
0.014712 0.073692 0.280284
0.015939 0.073176 0.278333
0.017174 0.072773 0.276819
0.018423 0.072485 0.275740
0.019643 0.072127 0.274399
0.020853 0.071779 0.273097
0.022044 0.071411 0.271721
0.023223 0.071048 0.270366
0.024349 0.070568 0.268564
0.025404 0.069942 0.266212
0.026451 0.069352 0.263994
0.027663 0.069231 0.263566
0.028812 0.068969 0.262602
0.029794 0.068345 0.260261
0.030826 0.067881 0.258529
0.031860 0.067457 0.256949
0.033027 0.067334 0.256518
0.033999 0.066839 0.254669
0.035060 0.066545 0.253588
0.036073 0.066183 0.252248
0.037103 0.065876 0.251118
0.038147 0.065610 0.250146
0.039108 0.065223 0.248711
0.039983 0.064719 0.246830
0.040932 0.064360 0.245502
0.041953 0.064130 0.244670
0.042724 0.063541 0.242465
0.043632 0.063183 0.241137
0.044454 0.062721 0.239418
0.045432 0.062496 0.238603
0.046268 0.062092 0.237099
0.047242 0.061888 0.236361
0.048069 0.061505 0.234939
0.048954 0.061212 0.233861
0.049863 0.060961 0.232940
0.050796 0.060750 0.232173
0.051659 0.060465 0.231125
0.052523 0.060194 0.230126
0.053328 0.059868 0.228914
0.054050 0.059464 0.227403
0.054905 0.059219 0.226501
0.055925 0.059157 0.226297
0.056603 0.058743 0.224745
0.057163 0.058223 0.222786
0.057911 0.057912 0.221621
0.058742 0.057692 0.220806
0.059557 0.057464 0.219961
0.060350 0.057224 0.219065
0.061083 0.056936 0.217981
0.061784 0.056627 0.216821
0.062386 0.056240 0.215354
0.062878 0.055768 0.213560
0.063611 0.055521 0.212629
0.064046 0.055026 0.210741
0.065351 0.055281 0.211727
0.066095 0.055063 0.210893
0.066285 0.054395 0.208338
0.066971 0.054148 0.207391
0.067779 0.054006 0.206843
0.068342 0.053675 0.205569
0.068652 0.053158 0.203578
0.069137 0.052788 0.202151
0.069801 0.052564 0.201274
0.070513 0.052380 0.200553
0.071201 0.052185 0.199781
0.071611 0.051793 0.198256
0.071886 0.051316 0.196398
0.072328 0.050967 0.195031
0.072968 0.050766 0.194224
0.073629 0.050584 0.193485
0.074330 0.050434 0.192864
0.074875 0.050183 0.191853
0.075581 0.050044 0.191269
0.076337 0.049942 0.190818
0.076747 0.049617 0.189516
0.077196 0.049326 0.188334
0.077703 0.049077 0.187313
0.078319 0.048903 0.186570
0.078899 0.048710 0.185749
0.079507 0.048538 0.185006
0.080069 0.048343 0.184168
0.080672 0.048176 0.183432
0.081165 0.047948 0.182457
0.081731 0.047767 0.181658
0.082036 0.047439 0.180294
0.082346 0.047121 0.178962
0.082713 0.046841 0.177770
0.083300 0.046691 0.177065
0.083902 0.046551 0.176394
0.084377 0.046345 0.175465
0.084990 0.046218 0.174826
0.085578 0.046080 0.174140
0.086021 0.045867 0.173163
0.086363 0.045605 0.171996
0.086734 0.045363 0.170897
0.087050 0.045097 0.169701
0.087808 0.045062 0.169368
0.088311 0.044899 0.168543
0.088727 0.044695 0.167555
-1.008252 0.510212 1.895388
-0.993589 0.507352 1.887019
-0.978159 0.504044 1.876859
-0.971561 0.505269 1.883469
-0.962746 0.505354 1.885736
-0.953241 0.505075 1.886556
-0.944865 0.505394 1.889523
-0.936687 0.505827 1.892831
-0.926972 0.505431 1.892951
-0.919935 0.506501 1.898487
-1.008381 0.560685 2.103182
-0.999599 0.561348 2.107193
-0.983279 0.557750 2.095118
-0.973815 0.558008 2.097438
-0.965079 0.558693 2.101290
-0.838158 0.490262 1.844972
-0.821861 0.485781 1.829094
-0.813448 0.485913 1.830519
-0.804663 0.485825 1.831054
-0.792631 0.483753 1.824051
-0.778906 0.480592 1.812876
-0.899010 0.608073 2.299073
-0.865637 0.592629 2.241083
-0.853799 0.591730 2.238036
-0.843814 0.592109 2.239777
-0.835906 0.593974 2.247092
-0.825428 0.594037 2.247547
-0.666140 0.498551 1.886609
-0.651479 0.494158 1.870029
-0.642864 0.494294 1.870558
-0.634576 0.494689 1.872036
-0.625923 0.494807 1.872436
-0.618337 0.495784 1.876061
-0.301178 0.268282 1.014540
-0.292765 0.264988 1.001948
-0.289409 0.266241 1.006535
-0.285743 0.267244 1.010170
-0.279781 0.266098 1.005672
-0.275030 0.266083 1.005442
-0.270280 0.266070 1.005211
-0.265119 0.265645 1.003414
-0.259355 0.264589 0.999230
-0.253213 0.263101 0.993409
-0.248835 0.263426 0.994428
-0.147835 0.184295 0.694432
-0.144713 0.184500 0.695035
-0.141420 0.184490 0.694825
-0.138668 0.185202 0.697337
-0.135084 0.184812 0.695694
-0.131400 0.184263 0.693453
-0.128056 0.184174 0.692944
-0.125253 0.184878 0.695422
-0.121796 0.184630 0.694317
-0.118141 0.184060 0.692000
-0.115381 0.184890 0.694950
-0.050177 0.085275 0.320367
-0.049140 0.086119 0.323462
-0.047161 0.085314 0.320361
-0.046777 0.087439 0.328263
-0.045257 0.087511 0.328457
-0.044235 0.088588 0.332422
-0.044995 0.093446 0.350571
-0.043363 0.093516 0.350758
-0.042254 0.094766 0.355366
-0.041021 0.095831 0.359284
-0.039141 0.095413 0.357642
-0.037373 0.095240 0.356921
-0.035584 0.094997 0.355940
-0.033775 0.094670 0.354648
-0.031966 0.094313 0.353245
-0.030177 0.093977 0.351922
-0.028479 0.093900 0.351574
-0.026774 0.093792 0.351111
-0.024979 0.093334 0.349340
-0.023307 0.093300 0.349156
-0.021643 0.093297 0.349097
-0.019992 0.093354 0.349259
-0.018393 0.093690 0.350471
-0.016643 0.093246 0.348764
-0.014964 0.093141 0.348332
-0.013381 0.093688 0.350339
-0.011695 0.093567 0.349850
-0.010040 0.093698 0.350309
-0.008392 0.093952 0.351225
-0.006718 0.093968 0.351257
-0.004221 0.078666 0.294036
-0.002806 0.078334 0.292778
-0.001407 0.078251 0.292454
-0.000011 0.078205 0.292267
0.001381 0.078042 0.291648
0.002767 0.077850 0.290921
0.004138 0.077519 0.289678
0.005502 0.077248 0.288661
0.006851 0.076924 0.287449
0.008207 0.076772 0.286881
0.009540 0.076476 0.285779
0.010849 0.076088 0.284331
0.012178 0.075903 0.283650
0.013466 0.075529 0.282262
0.014734 0.075123 0.280757
0.015956 0.074571 0.278707
0.017221 0.074284 0.277649
0.018511 0.074139 0.277125
0.019694 0.073618 0.275195
0.020908 0.073264 0.273895
0.022092 0.072857 0.272397
0.023263 0.072454 0.270914
0.024380 0.071933 0.268990
0.025517 0.071521 0.267476
0.026622 0.071060 0.265784
0.027638 0.070417 0.263409
0.028702 0.069945 0.261674
0.029768 0.069517 0.260107
0.030875 0.069216 0.259014
0.031949 0.068867 0.257743
0.033002 0.068499 0.256400
0.034001 0.068052 0.254762
0.035060 0.067749 0.253665
0.036139 0.067504 0.252786
0.037271 0.067370 0.252324
0.038284 0.067037 0.251117
0.038972 0.066172 0.247916
0.039834 0.065644 0.245976
0.040909 0.065487 0.245429
0.041950 0.065286 0.244718
0.042795 0.064799 0.242933
0.043628 0.064321 0.241179
0.044569 0.064021 0.240094
0.045364 0.063532 0.238299
0.046337 0.063310 0.237507
0.047248 0.063016 0.236442
0.048085 0.062639 0.235067
0.048780 0.062099 0.233079
0.049742 0.061915 0.232425
0.050683 0.061712 0.231703
0.051573 0.061458 0.230784
0.052300 0.061025 0.229191
0.053051 0.060636 0.227764
0.053915 0.060389 0.226871
0.054751 0.060122 0.225897
0.055613 0.059893 0.225068
0.056405 0.059598 0.223989
0.057127 0.059241 0.222676
0.057895 0.058945 0.221588
0.058692 0.058687 0.220644
0.059506 0.058456 0.219796
0.060262 0.058176 0.218764
0.061049 0.057935 0.217878
0.061777 0.057647 0.216811
0.062339 0.057216 0.215205
0.062581 0.056510 0.212563
0.063351 0.056297 0.211768
0.064018 0.055999 0.210656
0.064505 0.055555 0.208992
0.065641 0.055675 0.209447
0.066262 0.055362 0.208268
0.066926 0.055093 0.207250
0.067753 0.054963 0.206758
0.068421 0.054711 0.205798
0.068883 0.054304 0.204255
0.069233 0.053819 0.202418
0.069947 0.053629 0.201682
0.070599 0.053395 0.200783
0.071165 0.053104 0.199663
0.071779 0.052856 0.198701
0.072142 0.052432 0.197072
0.072444 0.051975 0.195319
0.072998 0.051708 0.194275
0.073665 0.051527 0.193549
0.074236 0.051283 0.192586
0.075005 0.051181 0.192151
0.075557 0.050935 0.191170
0.076277 0.050807 0.190626
0.076855 0.050588 0.189739
0.077239 0.050248 0.188393
0.077875 0.050078 0.187680
0.078544 0.049933 0.187054
0.079010 0.049663 0.185956
0.079669 0.049519 0.185326
0.080195 0.049297 0.184397
0.080737 0.049089 0.183518
0.081204 0.048841 0.182481
0.081686 0.048606 0.181490
0.082279 0.048442 0.180757
0.082708 0.048186 0.179675
0.082998 0.047855 0.178307
0.083456 0.047626 0.177316
0.084060 0.047485 0.176643
0.084439 0.047220 0.175508
0.084966 0.047043 0.174688
0.085522 0.046885 0.173934
0.086002 0.046688 0.173030
0.086446 0.046477 0.172063
0.086966 0.046309 0.171252
0.087257 0.046024 0.169998
0.088120 0.046043 0.169862
0.088548 0.045837 0.168882
0.089050 0.045671 0.168048
-1.015378 0.522999 1.907581
-1.007227 0.523505 1.911759
-0.976645 0.512256 1.872858
-0.969095 0.512992 1.877630
-0.961876 0.513919 1.883014
-0.953171 0.514061 1.885436
-0.943688 0.513784 1.886227
-0.934363 0.513588 1.887230
-0.925479 0.513633 1.889034
-0.917353 0.514104 1.892325
-1.009808 0.571510 2.105271
-1.000998 0.572178 2.109293
-0.980181 0.565927 2.087713
-0.967281 0.564167 2.082599
-0.958589 0.564851 2.086428
-0.838547 0.499253 1.845214
-0.820228 0.493477 1.824881
-0.811437 0.493373 1.825446
-0.803262 0.493644 1.827346
-0.797670 0.495527 1.835156
-0.790024 0.496161 1.838290
-0.898184 0.618369 2.296649
-0.867186 0.604298 2.244823
-0.853614 0.602173 2.237311
-0.842614 0.601833 2.236382
-0.835109 0.604012 2.244769
-0.824031 0.603629 2.243593
-0.665455 0.506939 1.884614
-0.651045 0.502654 1.868754
-0.642086 0.502519 1.868286
-0.635984 0.504647 1.876207
-0.627129 0.504620 1.876083
-0.618108 0.504458 1.875429
-0.300534 0.272493 1.012484
-0.292669 0.269637 1.001744
-0.290444 0.271969 1.010270
-0.284372 0.270716 1.005469
-0.278885 0.269987 1.002608
-0.274783 0.270598 1.004711
-0.268887 0.269431 1.000209
-0.263203 0.268441 0.996352
-0.256028 0.265865 0.986608
-0.248880 0.263223 0.976617
-0.239486 0.258062 0.957276
-0.235257 0.258375 0.958239
-0.140588 0.195784 0.724284
-0.134290 0.191685 0.708949
-0.129491 0.189570 0.700959
-0.126213 0.189629 0.701007
-0.123052 0.189873 0.701737
-0.118984 0.188692 0.697205
-0.115206 0.187915 0.694168
-0.112020 0.188088 0.694642
-0.051246 0.088651 0.327327
-0.049594 0.088472 0.326587
-0.048685 0.089650 0.330859
-0.046560 0.088591 0.326877
-0.045225 0.089016 0.328370
-0.044165 0.090032 0.332044
-0.044689 0.098103 0.361651
-0.042541 0.097122 0.357959
-0.041428 0.098518 0.363027
-0.039500 0.098014 0.361099
-0.037540 0.097383 0.358702
-0.035763 0.097188 0.357916
-0.033915 0.096769 0.356305
-0.032113 0.096449 0.355062
-0.030333 0.096160 0.353935
-0.028578 0.095923 0.353003
-0.026867 0.095812 0.352539
-0.025100 0.095472 0.351230
-0.023361 0.095202 0.350186
-0.021747 0.095438 0.351001
-0.020100 0.095555 0.351386
-0.018441 0.095629 0.351609
-0.016757 0.095581 0.351390
-0.015034 0.095273 0.350218
-0.013418 0.095652 0.351574
-0.011713 0.095413 0.350658
-0.010071 0.095700 0.351679
-0.008404 0.095812 0.352064
-0.006727 0.095828 0.352096
-0.004222 0.080159 0.294502
-0.002807 0.079859 0.293380
-0.001403 0.079637 0.292551
-0.000008 0.079652 0.292592
0.001386 0.079536 0.292155
0.002769 0.079224 0.291001
0.004149 0.079045 0.290334
0.005513 0.078740 0.289213
0.006865 0.078416 0.288019
0.008226 0.078287 0.287545
0.009562 0.077989 0.286453
0.010876 0.077611 0.285071
0.012177 0.077229 0.283675
0.013460 0.076827 0.282208
0.014724 0.076393 0.280625
0.015988 0.076038 0.279333
0.017252 0.075733 0.278225
0.018500 0.075405 0.277039
0.019711 0.074981 0.275500
0.020888 0.074489 0.273712
0.022103 0.074182 0.272605
0.023263 0.073736 0.270989
0.024410 0.073297 0.269401
0.025537 0.072844 0.267761
0.026689 0.072503 0.266538
0.027800 0.072084 0.265026
0.028754 0.071314 0.262227
0.029753 0.070714 0.260052
0.030863 0.070417 0.258989
0.031941 0.070071 0.257751
0.032819 0.069328 0.255052
0.033965 0.069185 0.254560
0.034991 0.068816 0.253240
0.035912 0.068271 0.251268
0.036894 0.067873 0.249842
0.037970 0.067667 0.249121
0.038941 0.067294 0.247785
0.039932 0.066974 0.246646
0.040725 0.066351 0.244389
0.041591 0.065878 0.242686
0.042612 0.065668 0.241951
0.043529 0.065315 0.240690
0.044566 0.065155 0.240136
0.045356 0.064649 0.238311
0.046285 0.064364 0.237296
0.047204 0.064076 0.236273
0.048028 0.063678 0.234842
0.048713 0.063116 0.232807
0.049589 0.062821 0.231754
0.050735 0.062874 0.231983
0.051555 0.062529 0.230745
0.052267 0.062070 0.229084
0.053062 0.061728 0.227853
0.053887 0.061432 0.226790
0.054892 0.061349 0.226516
0.055743 0.061100 0.225623
0.056277 0.060520 0.223510
0.057069 0.060234 0.222475
0.057884 0.059981 0.221568
0.058682 0.059721 0.220628
0.059495 0.059485 0.219776
0.060299 0.059248 0.218918
0.060926 0.058847 0.217454
0.061552 0.058460 0.216036
0.061935 0.057857 0.213823
0.062767 0.057688 0.213206
0.063424 0.057365 0.212020
0.064019 0.056997 0.210664
0.064659 0.056679 0.209494
0.065409 0.056466 0.208706
0.066177 0.056275 0.207997
0.066968 0.056108 0.207375
0.067634 0.055844 0.206388
0.068399 0.055667 0.205723
0.069084 0.055432 0.204839
0.069591 0.055061 0.203450
0.070043 0.054658 0.201940
0.070769 0.054477 0.201247
0.071372 0.054207 0.200220
0.071912 0.053897 0.199044
0.072403 0.053559 0.197759
0.072863 0.053206 0.196418
0.073290 0.052839 0.195021
0.073961 0.052655 0.194293
0.074375 0.052295 0.192912
0.075017 0.052101 0.192143
0.075570 0.051851 0.191161
0.076177 0.051644 0.190333
0.076720 0.051398 0.189358
0.077167 0.051096 0.188168
0.077781 0.050908 0.187400
0.078393 0.050724 0.186638
0.079082 0.050594 0.186069
0.079669 0.050402 0.185267
0.080247 0.050208 0.184454
0.080822 0.050016 0.183645
0.081244 0.049735 0.182502
0.081770 0.049523 0.181604
0.082198 0.049256 0.180504
0.082549 0.048950 0.179252
0.082993 0.048704 0.178215
0.083491 0.048495 0.177308
0.084022 0.048309 0.176478
0.084597 0.048151 0.175745
0.085100 0.047956 0.174871
0.085538 0.047729 0.173871
0.086006 0.047522 0.172939
0.086408 0.047284 0.171885
0.087052 0.047180 0.171314
0.087458 0.046952 0.170281
0.088097 0.046851 0.169704
0.088588 0.046674 0.168842
0.089106 0.046514 0.168033
-1.021310 0.535289 1.917467
-1.013093 0.535798 1.921680
-0.975866 0.520833 1.870227
-0.967983 0.521399 1.874380
-0.961003 0.522466 1.880247
-0.952899 0.522936 1.883879
-0.943608 0.522759 1.885087
-0.934566 0.522717 1.886697
-0.925221 0.522504 1.887602
-0.916268 0.522511 1.889219
-0.911050 0.524669 1.898542
-0.998786 0.580936 2.103745
-0.983991 0.578100 2.094985
-0.976466 0.579522 2.101567
-0.967677 0.580216 2.105438
-0.838700 0.508110 1.844906
-0.821889 0.503158 1.827972
-0.813546 0.503339 1.829616
-0.805436 0.503670 1.831746
-0.795900 0.503107 1.830566
-0.778299 0.497379 1.810524
-0.897828 0.628976 2.295402
-0.869436 0.616503 2.250348
-0.853694 0.612803 2.237256
-0.842075 0.612007 2.234716
-0.834410 0.614102 2.242684
-0.823983 0.614192 2.243287
-0.681114 0.521040 1.903412
-0.666040 0.516293 1.886196
-0.651410 0.511767 1.869750
-0.641184 0.510625 1.865637
-0.636252 0.513725 1.876994
-0.626879 0.513277 1.875356
-0.617121 0.512497 1.872477
-0.609124 0.513177 1.874908
-0.307061 0.283301 1.034583
-0.302583 0.283668 1.035802
-0.291148 0.277416 1.012847
-0.285084 0.276160 1.008127
-0.280334 0.276157 1.007967
-0.274930 0.275498 1.005409
-0.269605 0.274897 1.003053
-0.263468 0.273431 0.997537
-0.255430 0.269904 0.984496
-0.248572 0.267517 0.975610
-0.241001 0.264258 0.963540
-0.232517 0.259853 0.947293
-0.228321 0.260161 0.948228
-0.214070 0.248797 0.906622
-0.206670 0.245095 0.892941
-0.202689 0.245376 0.893776
-0.193864 0.239682 0.872843
-0.185937 0.234874 0.855145
-0.182602 0.235783 0.858259
-0.140382 0.198935 0.723465
-0.135908 0.197406 0.717739
-0.130400 0.194258 0.706125
-0.126545 0.193471 0.703103
-0.123832 0.194437 0.706447
-0.119583 0.192977 0.700978
-0.115059 0.190977 0.693553
-0.111876 0.191152 0.694026
-0.051156 0.090052 0.326881
-0.049622 0.090080 0.326910
-0.048596 0.091060 0.330390
-0.046704 0.090430 0.328033
-0.045302 0.090739 0.329079
-0.047124 0.101374 0.367490
-0.045278 0.101147 0.366592
-0.043060 0.100038 0.362495
-0.041805 0.101166 0.366509
-0.039912 0.100783 0.365047
-0.038146 0.100698 0.364672
-0.036208 0.100131 0.362549
-0.034421 0.099948 0.361821
-0.032647 0.099783 0.361157
-0.030658 0.098907 0.357924
-0.028704 0.098048 0.354758
-0.026979 0.097911 0.354207
-0.025228 0.097659 0.353238
-0.023366 0.096908 0.350472
-0.021690 0.096870 0.350284
-0.020089 0.097193 0.351404
-0.018452 0.097384 0.352050
-0.016805 0.097556 0.352632
-0.015119 0.097516 0.352445
-0.013384 0.097114 0.350953
-0.011787 0.097738 0.353174
-0.010125 0.097939 0.353870
-0.008373 0.097170 0.351062
-0.006700 0.097187 0.351094
-0.004213 0.081464 0.294276
-0.002799 0.081139 0.293082
-0.001398 0.080916 0.292262
-0.000004 0.080980 0.292479
0.001387 0.080752 0.291643
0.002767 0.080440 0.290510
0.004138 0.080161 0.289495
0.005503 0.079925 0.288638
0.006856 0.079650 0.287644
0.008218 0.079547 0.287270
0.009568 0.079380 0.286669
0.010885 0.079011 0.285341
0.012197 0.078695 0.284207
0.013480 0.078272 0.282688
0.014767 0.077946 0.281519
0.016013 0.077474 0.279830
0.017272 0.077135 0.278616
0.018501 0.076720 0.277133
0.019709 0.076275 0.275545
0.020889 0.075787 0.273802
0.022086 0.075415 0.272478
0.023266 0.075028 0.271103
0.024407 0.074562 0.269442
0.025519 0.074058 0.267645
0.026632 0.073606 0.266040
0.027640 0.072918 0.263582
0.028708 0.072441 0.261884
0.029806 0.072076 0.260597
0.030946 0.071836 0.259758
0.031947 0.071306 0.257876
0.032893 0.070698 0.255707
0.033867 0.070189 0.253899
0.034847 0.069727 0.252263
0.035941 0.069517 0.251540
0.036928 0.069121 0.250143
0.037895 0.068712 0.248696
0.038995 0.068563 0.248194
0.039973 0.068212 0.246961
0.040944 0.067871 0.245764
0.041922 0.067561 0.244678
0.042661 0.066893 0.242293
0.043603 0.066568 0.241154
0.044525 0.066231 0.239970
0.045400 0.065843 0.238597
0.046275 0.065473 0.237293
0.047164 0.065140 0.236123
0.047878 0.064587 0.234155
0.048761 0.064282 0.233081
0.049604 0.063938 0.231868
0.050674 0.063896 0.231749
0.051634 0.063720 0.231140
0.052296 0.063190 0.229250
0.053031 0.062770 0.227754
0.053844 0.062456 0.226645
0.054803 0.062320 0.226177
0.055495 0.061892 0.224650
0.056414 0.061728 0.224082
0.056963 0.061172 0.222087
0.057778 0.060919 0.221187
0.058537 0.060615 0.220104
0.059370 0.060397 0.219331
0.060209 0.060193 0.218607
0.060966 0.059916 0.217612
0.061466 0.059399 0.215746
0.061725 0.058669 0.213107
0.062261 0.058223 0.211494
0.063271 0.058226 0.211510
0.063965 0.057944 0.210487
0.064666 0.057676 0.209515
0.065516 0.057548 0.209045
0.066260 0.057331 0.208251
0.067011 0.057126 0.207501
0.067634 0.056820 0.206378
0.068400 0.056641 0.205714
0.069002 0.056334 0.204579
0.069657 0.056077 0.203627
0.070269 0.055794 0.202574
0.070882 0.055518 0.201545
0.071548 0.055291 0.200692
0.072023 0.054924 0.199324
0.072537 0.054596 0.198095
0.072942 0.054196 0.196602
0.073522 0.053934 0.195605
0.073989 0.053596 0.194329
0.074530 0.053320 0.193274
0.075206 0.053146 0.192584
0.075673 0.052830 0.191378
0.076322 0.052648 0.190649
0.076946 0.052452 0.189867
0.077334 0.052102 0.188523
0.077915 0.051889 0.187669
0.078658 0.051787 0.187213
0.079140 0.051517 0.186144
0.079745 0.051332 0.185379
0.080287 0.051111 0.184479
0.080880 0.050927 0.183706
0.081284 0.050630 0.182519
0.081798 0.050407 0.181592
0.082305 0.050184 0.180662
0.082723 0.049912 0.179549
0.083101 0.049621 0.178365
0.083507 0.049353 0.177256
0.084076 0.049185 0.176500
0.084592 0.048991 0.175643
0.085057 0.048771 0.174686
0.085658 0.048632 0.174014
0.086195 0.048460 0.173217
0.086735 0.048293 0.172428
0.087238 0.048109 0.171570
0.087710 0.047911 0.170657
0.088305 0.047783 0.169986
0.088701 0.047552 0.168936
0.089147 0.047350 0.167986
-1.014382 0.540831 1.903166
-0.997089 0.536433 1.890084
-0.981116 0.532670 1.879103
-0.969909 0.531450 1.876968
-0.961681 0.531855 1.880474
-0.953018 0.532026 1.883056
-0.944189 0.532106 1.885228
-0.934878 0.531913 1.886346
-0.926008 0.531971 1.888267
-0.917282 0.532114 1.890405
-0.915164 0.536131 1.906240
-0.997756 0.590350 2.100653
-0.986085 0.589326 2.098561
-0.976821 0.589735 2.101486
-0.968014 0.590432 2.105362
-0.836222 0.515350 1.838784
-0.824789 0.513645 1.833781
-0.814438 0.512584 1.831014
-0.805300 0.512274 1.830861
-0.796793 0.512362 1.832075
-0.789132 0.513003 1.835209
-0.896990 0.639232 2.292895
-0.867614 0.625826 2.245306
-0.853091 0.622937 2.235384
-0.842153 0.622625 2.234660
-0.833949 0.624354 2.241214
-0.822910 0.623977 2.240164
-0.813449 0.624802 2.243387
-0.680412 0.529485 1.901331
-0.665435 0.524725 1.884388
-0.650737 0.520061 1.867750
-0.641345 0.519567 1.866061
-0.635022 0.521581 1.873346
-0.626137 0.521517 1.873139
-0.617042 0.521275 1.872264
-0.606930 0.520154 1.868203
-0.274581 0.279899 1.004288
-0.269919 0.279969 1.004388
-0.263199 0.277869 0.996694
-0.256078 0.275261 0.987176
-0.247602 0.271074 0.971991
-0.240688 0.268471 0.962487
-0.232617 0.264454 0.947907
-0.222865 0.258331 0.925784
-0.213777 0.252748 0.905598
-0.207647 0.250506 0.897382
-0.200607 0.247050 0.884822
-0.193592 0.243480 0.871851
-0.188591 0.242341 0.867589
-0.182342 0.239513 0.857281
-0.177126 0.237946 0.851484
-0.170779 0.234750 0.839862
-0.140175 0.202074 0.722634
-0.134150 0.198220 0.708692
-0.130106 0.197170 0.704779
-0.126768 0.197164 0.704597
-0.123835 0.197804 0.706724
-0.119939 0.196898 0.703328
-0.115208 0.194532 0.694720
-0.112020 0.194708 0.695192
-0.050983 0.091300 0.325909
-0.049774 0.091919 0.328045
-0.048621 0.092684 0.330703
-0.046389 0.091374 0.325957
-0.045403 0.092514 0.329953
-0.048751 0.102883 0.366858
-0.047047 0.102961 0.367058
-0.044986 0.102237 0.364401
-0.042552 0.100570 0.358389
-0.041722 0.102714 0.365957
-0.040214 0.103304 0.367988
-0.038225 0.102658 0.365616
-0.036410 0.102436 0.364761
-0.034780 0.102741 0.365779
-0.032894 0.102281 0.364080
-0.030886 0.101371 0.360779
-0.028944 0.100583 0.357918
-0.027196 0.100412 0.357253
-0.025434 0.100167 0.356327
-0.023642 0.099758 0.354821
-0.021869 0.099374 0.353404
-0.020188 0.099374 0.353358
-0.018619 0.099982 0.355476
-0.016909 0.099879 0.355069
-0.015209 0.099812 0.354790
-0.013579 0.100257 0.356335
-0.011846 0.099950 0.355210
-0.010204 0.100444 0.356934
-0.008437 0.099659 0.354116
-0.006751 0.099676 0.354148
-0.004208 0.082825 0.294258
-0.002799 0.082629 0.293542
-0.001396 0.082390 0.292679
-0.000001 0.082411 0.292738
0.001390 0.082153 0.291810
0.002775 0.081953 0.291093
0.004149 0.081696 0.290171
0.005519 0.081495 0.289452
0.006874 0.081197 0.288393
0.008219 0.080894 0.287317
0.009579 0.080810 0.287018
0.010891 0.080395 0.285549
0.012198 0.080034 0.284274
0.013473 0.079557 0.282587
0.014766 0.079261 0.281546
0.016092 0.079179 0.281266
0.017339 0.078751 0.279757
0.018506 0.078046 0.277268
0.019659 0.077381 0.274923
0.020911 0.077160 0.274157
0.022118 0.076811 0.272937
0.023239 0.076219 0.270854
0.024350 0.075658 0.268883
0.025492 0.075246 0.267445
0.026660 0.074944 0.266397
0.027740 0.074434 0.264609
0.028747 0.073781 0.262317
0.029845 0.073404 0.261004
0.031058 0.073331 0.260774
0.032078 0.072824 0.259004
0.033054 0.072259 0.257026
0.033509 0.070635 0.251280
0.034803 0.070832 0.252014
0.035851 0.070531 0.250975
0.036820 0.070100 0.249476
0.037912 0.069921 0.248874
0.038910 0.069586 0.247716
0.039890 0.069238 0.246511
0.040940 0.069030 0.245804
0.041818 0.068549 0.244128
0.042607 0.067954 0.242043
0.043614 0.067727 0.241268
0.044650 0.067556 0.240694
0.045537 0.067175 0.239371
0.046415 0.066798 0.238061
0.047266 0.066401 0.236681
0.048125 0.066035 0.235409
0.048787 0.065419 0.233246
0.049599 0.065030 0.231888
0.050563 0.064851 0.231281
0.051440 0.064570 0.230310
0.052262 0.064233 0.229137
0.052887 0.063674 0.227167
0.053700 0.063358 0.226067
0.054556 0.063104 0.225188
0.055442 0.062894 0.224463
0.056297 0.062657 0.223639
0.056991 0.062253 0.222218
0.057730 0.061913 0.221024
0.058466 0.061581 0.219855
0.059246 0.061306 0.218889
0.060109 0.061126 0.218258
0.060856 0.060835 0.217233
0.061517 0.060469 0.215934
0.062120 0.060059 0.214477
0.062704 0.059645 0.213004
0.063309 0.059263 0.211643
0.064183 0.059141 0.211207
0.064816 0.058804 0.210000
0.065551 0.058568 0.209154
0.066333 0.058381 0.208476
0.067093 0.058179 0.207745
0.067812 0.057949 0.206909
0.068518 0.057715 0.206057
0.069184 0.057453 0.205104
0.069733 0.057103 0.203830
0.070387 0.056848 0.202892
0.070807 0.056413 0.201309
0.071626 0.056303 0.200883
0.072260 0.056052 0.199951
0.072621 0.055599 0.198294
0.072929 0.055117 0.196530
0.073260 0.054665 0.194870
0.073852 0.054417 0.193932
0.074484 0.054203 0.193112
0.075070 0.053962 0.192192
0.075645 0.053718 0.191259
0.076181 0.053453 0.190245
0.076715 0.053194 0.189245
0.077249 0.052939 0.188261
0.077850 0.052737 0.187454
0.078547 0.052602 0.186886
0.079152 0.052410 0.186109
0.079656 0.052156 0.185106
0.080345 0.052028 0.184544
0.080903 0.051818 0.183687
0.081238 0.051471 0.182340
0.081819 0.051287 0.181561
0.082327 0.051060 0.180629
0.082855 0.050851 0.179751
0.083250 0.050565 0.178597
0.083756 0.050352 0.177694
0.084204 0.050108 0.176677
0.084578 0.049825 0.175517
0.085151 0.049664 0.174778
0.085639 0.049458 0.173873
0.086190 0.049291 0.173099
0.086673 0.049088 0.172194
0.087165 0.048895 0.171313
0.087710 0.048735 0.170540
0.088343 0.048626 0.169938
0.088789 0.048417 0.168976
0.089274 0.048233 0.168095
-1.018918 0.552465 1.910329
-0.999653 0.546935 1.893657
-0.983748 0.543159 1.882912
-0.969082 0.540004 1.874186
-0.960185 0.540036 1.876409
-0.952298 0.540641 1.880533
-0.943743 0.540876 1.883279
-0.935779 0.541457 1.887145
-0.927131 0.541651 1.889576
-0.918538 0.541881 1.892050
-0.913895 0.544469 1.902686
-0.995549 0.599036 2.095046
-0.984473 0.598343 2.094211
-0.970176 0.595658 2.086314
-0.961414 0.596353 2.090168
-0.837490 0.524886 1.840866
-0.824730 0.522320 1.832981
-0.813420 0.520628 1.828091
-0.807737 0.522540 1.835795
-0.796441 0.520823 1.830692
-0.869352 0.637718 2.249449
-0.854142 0.634285 2.237815
-0.842391 0.633367 2.235004
-0.833876 0.634891 2.240761
-0.821163 0.633215 2.235181
-0.679706 0.537910 1.899218
-0.666068 0.534136 1.886066
-0.651276 0.529322 1.869208
-0.640168 0.527413 1.862572
-0.634329 0.529851 1.871259
-0.625978 0.530232 1.872648
-0.616456 0.529617 1.870493
-0.608451 0.530306 1.872917
-0.272641 0.282638 0.997336
-0.269826 0.284623 1.004197
-0.261287 0.280533 0.989619
-0.254866 0.278609 0.982679
-0.247365 0.275412 0.971246
-0.239572 0.271764 0.958219
-0.231915 0.268132 0.945246
-0.223582 0.263562 0.928967
-0.214796 0.258265 0.910125
-0.206629 0.253511 0.893201
-0.199666 0.250068 0.880896
-0.193555 0.247568 0.871914
-0.186977 0.244348 0.860399
-0.181332 0.242233 0.852776
-0.175119 0.239246 0.842083
-0.168384 0.235390 0.828334
-0.135400 0.203467 0.715533
-0.130586 0.201261 0.707621
-0.126379 0.199899 0.702677
-0.124281 0.201890 0.709522
-0.120252 0.200768 0.705424
-0.117021 0.200952 0.705915
-0.053606 0.094760 0.332805
-0.051692 0.094143 0.330568
-0.049812 0.093554 0.328429
-0.048954 0.094905 0.333101
-0.047098 0.094349 0.331080
-0.045606 0.094509 0.331571
-0.048107 0.103251 0.362166
-0.046424 0.103328 0.362363
-0.044294 0.102378 0.358961
-0.042940 0.103216 0.361830
-0.041720 0.104460 0.366118
-0.040144 0.104883 0.367534
-0.038343 0.104728 0.366922
-0.036585 0.104683 0.366699
-0.035050 0.105305 0.368811
-0.033059 0.104550 0.366105
-0.031123 0.103893 0.363745
-0.029077 0.102771 0.359759
-0.027327 0.102619 0.359175
-0.025609 0.102578 0.358977
-0.023797 0.102131 0.357363
-0.022057 0.101944 0.356661
-0.020382 0.102050 0.356986
-0.018692 0.102098 0.357110
-0.017086 0.102654 0.359011
-0.015403 0.102827 0.359578
-0.013597 0.102114 0.357048
-0.011928 0.102380 0.357945
-0.010262 0.102769 0.359272
-0.008478 0.101887 0.356160
-0.006783 0.101904 0.356192
-0.004200 0.084144 0.294096
-0.002796 0.084054 0.293761
-0.001393 0.083795 0.292840
0.000003 0.083800 0.292845
0.001396 0.083685 0.292434
0.002779 0.083381 0.291361
0.004151 0.083042 0.290171
0.005519 0.082818 0.289383
0.006874 0.082525 0.288358
0.008222 0.082265 0.287447
0.009568 0.082058 0.286725
0.010894 0.081753 0.285661
0.012195 0.081348 0.284252
0.013500 0.081046 0.283205
0.014765 0.080580 0.281587
0.016067 0.080378 0.280889
0.017297 0.079875 0.279145
0.018512 0.079379 0.277426
0.019682 0.078769 0.275311
0.020950 0.078603 0.274748
0.022142 0.078187 0.273312
0.023288 0.077663 0.271501
0.024360 0.076960 0.269067
0.025435 0.076339 0.266918
0.026579 0.075972 0.265659
0.027768 0.075761 0.264947
0.028874 0.075352 0.263541
0.029880 0.074727 0.261384
0.031014 0.074460 0.260478
0.032149 0.074214 0.259648
0.033009 0.073377 0.256748
0.033924 0.072715 0.254464
0.034748 0.071912 0.251684
0.036032 0.072081 0.252308
0.036810 0.071261 0.249470
0.037806 0.070900 0.248237
0.038813 0.070582 0.247155
0.039847 0.070329 0.246303
0.040858 0.070052 0.245368
0.041691 0.069493 0.243442
0.042590 0.069072 0.241999
0.043599 0.068845 0.241239
0.044580 0.068588 0.240369
0.045553 0.068331 0.239502
0.046460 0.067990 0.238339
0.047312 0.067587 0.236957
0.048123 0.067146 0.235441
0.048887 0.066660 0.233767
0.049636 0.066177 0.232101
0.050646 0.066053 0.231698
0.051572 0.065828 0.230936
0.052504 0.065620 0.230232
0.053409 0.065388 0.229444
0.053905 0.064674 0.226961
0.053931 0.063434 0.222633
0.055044 0.063497 0.222878
0.056316 0.063736 0.223737
0.056877 0.063178 0.221795
0.057568 0.062782 0.220421
0.058314 0.062458 0.219299
0.059267 0.062363 0.218980
0.060069 0.062116 0.218123
0.060857 0.061863 0.217242
0.061494 0.061467 0.215860
0.061997 0.060953 0.214060
0.062634 0.060584 0.212766
0.063434 0.060382 0.212058
0.064222 0.060176 0.211331
0.064755 0.059741 0.209797
0.065551 0.059557 0.209146
0.066278 0.059318 0.208293
0.067083 0.059153 0.207704
0.067864 0.058973 0.207055
0.068565 0.058730 0.206180
0.069343 0.058558 0.205554
0.069905 0.058211 0.204310
0.070568 0.057957 0.203390
0.071030 0.057546 0.201915
0.071751 0.057354 0.201204
0.072304 0.057034 0.200040
0.072808 0.056684 0.198770
0.073197 0.056255 0.197215
0.073717 0.055935 0.196045
0.073878 0.055356 0.193958
0.074508 0.055137 0.193131
0.075265 0.055017 0.192645
0.075777 0.054722 0.191543
0.076222 0.054386 0.190294
0.076874 0.054204 0.189580
0.077396 0.053936 0.188559
0.077912 0.053670 0.187542
0.078553 0.053495 0.186837
0.079163 0.053303 0.186067
0.079787 0.053125 0.185340
0.080316 0.052888 0.184404
0.080911 0.052699 0.183630
0.081406 0.052450 0.182639
0.081963 0.052245 0.181798
0.082435 0.051991 0.180781
0.082987 0.051793 0.179949
0.083348 0.051480 0.178716
0.083745 0.051195 0.177575
0.084272 0.050996 0.176722
0.084540 0.050645 0.175338
0.084926 0.050370 0.174213
0.085502 0.050213 0.173486
0.086054 0.050045 0.172714
0.086582 0.049866 0.171898
0.087041 0.049651 0.170951
0.087452 0.049413 0.169915
0.088259 0.049401 0.169648
0.088773 0.049227 0.168817
0.089144 0.048977 0.167715
-1.007103 0.555168 1.886798
-0.999665 0.556065 1.892344
-0.982965 0.551780 1.880133
-0.969330 0.549153 1.873438
-0.958898 0.548308 1.872710
-0.951380 0.549130 1.877580
-0.943774 0.549916 1.882240
-0.935090 0.550084 1.884694
-0.926510 0.550317 1.887290
-0.918928 0.551154 1.891871
-0.911781 0.552270 1.897339
-0.993480 0.607762 2.089691
-0.983589 0.607777 2.091371
-0.971006 0.606113 2.087183
-0.962221 0.606810 2.091046
-0.842522 0.536848 1.851184
-0.822004 0.529278 1.826224
-0.813619 0.529442 1.827871
-0.807842 0.531325 1.835396
-0.796066 0.529262 1.829227
-0.869755 0.648658 2.250108
-0.854822 0.645380 2.239246
-0.843921 0.645103 2.238745
-0.835920 0.647065 2.245965
-0.823662 0.645739 2.241729
-0.664232 0.541551 1.880733
-0.650513 0.537523 1.866908
-0.640636 0.536605 1.863848
-0.632045 0.536753 1.864461
-0.625409 0.538589 1.870907
-0.615716 0.537808 1.868234
-0.275544 0.290417 1.008097
-0.268859 0.288337 1.000747
-0.265224 0.289513 1.004690
-0.255347 0.283796 0.984704
-0.247799 0.280501 0.973125
-0.239261 0.275942 0.957155
-0.231876 0.272564 0.945281
-0.224361 0.268897 0.932402
-0.216832 0.265066 0.918956
-0.209344 0.261131 0.905148
-0.203171 0.258707 0.896576
-0.196665 0.255746 0.886146
-0.190338 0.252895 0.876096
-0.184374 0.250411 0.867319
-0.176226 0.244781 0.847647
-0.170846 0.242823 0.840695
-0.167047 0.243072 0.841386
-0.135196 0.206556 0.714687
-0.130341 0.204240 0.706527
-0.125927 0.202513 0.700405
-0.124012 0.204821 0.708236
-0.120264 0.204145 0.705750
-0.117031 0.204330 0.706240
-0.053521 0.096192 0.332407
-0.051619 0.095583 0.330232
-0.049997 0.095472 0.329779
-0.048873 0.096334 0.332690
-0.047191 0.096117 0.331872
-0.045641 0.096165 0.331968
-0.047214 0.103032 0.355603
-0.045563 0.103108 0.355797
-0.044717 0.105086 0.362552
-0.043196 0.105569 0.364149
-0.041797 0.106406 0.366967
-0.040344 0.107170 0.369536
-0.038693 0.107457 0.370458
-0.037013 0.107685 0.371178
-0.035223 0.107600 0.370824
-0.033389 0.107365 0.369953
-0.031506 0.106937 0.368419
-0.029411 0.105699 0.364096
-0.027498 0.105000 0.361636
-0.025746 0.104861 0.361105
-0.023942 0.104481 0.359747
-0.022211 0.104384 0.359367
-0.020555 0.104651 0.360240
-0.018997 0.105513 0.363163
-0.017227 0.105255 0.362235
-0.015647 0.106224 0.365528
-0.014004 0.106961 0.368029
-0.012090 0.105538 0.363099
-0.010497 0.106910 0.367787
-0.008669 0.105963 0.364499
-0.006935 0.105980 0.364531
-0.004185 0.085306 0.293400
-0.002793 0.085455 0.293897
-0.001388 0.085156 0.292851
0.000006 0.085137 0.292773
0.001398 0.084978 0.292214
0.002784 0.084798 0.291588
0.004147 0.084271 0.289768
0.005515 0.084082 0.289114
0.006868 0.083783 0.288082
0.008214 0.083518 0.287170
0.009572 0.083425 0.286853
0.010895 0.083092 0.285708
0.012221 0.082854 0.284895
0.013531 0.082564 0.283904
0.014792 0.082054 0.282161
0.016071 0.081723 0.281030
0.017306 0.081234 0.279361
0.018518 0.080713 0.277584
0.019785 0.080486 0.276818
0.021006 0.080111 0.275546
0.022157 0.079531 0.273569
0.023268 0.078877 0.271338
0.024368 0.078257 0.269225
0.025509 0.077824 0.267759
0.026607 0.077308 0.266006
0.027764 0.077004 0.264982
0.028812 0.076434 0.263048
0.029854 0.075897 0.261225
0.030880 0.075364 0.259418
0.032081 0.075283 0.259167
0.033052 0.074688 0.257146
0.033954 0.073985 0.254757
0.034894 0.073409 0.252802
0.035863 0.072932 0.251188
0.036829 0.072480 0.249661
0.037790 0.072045 0.248195
0.038778 0.071686 0.246991
0.039847 0.071496 0.246365
0.040716 0.070965 0.244568
0.041713 0.070683 0.243626
0.042568 0.070181 0.241926
0.043536 0.069886 0.240942
0.044503 0.069605 0.240004
0.045471 0.069340 0.239121
0.046436 0.069082 0.238262
0.047270 0.068648 0.236793
0.047944 0.068005 0.234606
0.048464 0.067179 0.231783
0.049470 0.067049 0.231362
0.050391 0.066811 0.230565
0.051222 0.066467 0.229404
0.052124 0.066226 0.228597
0.053012 0.065979 0.227768
0.053808 0.065629 0.226580
0.054684 0.065387 0.225767
0.055427 0.065000 0.224450
0.056350 0.064834 0.223896
0.056707 0.064035 0.221150
0.057407 0.063645 0.219820
0.058116 0.063279 0.218567
0.059087 0.063206 0.218326
0.059858 0.062926 0.217367
0.060632 0.062657 0.216446
0.061527 0.062522 0.215983
0.062055 0.062023 0.214262
0.062715 0.061670 0.213044
0.063617 0.061562 0.212667
0.064381 0.061327 0.211849
0.065126 0.061081 0.210991
0.065739 0.060720 0.209734
0.066306 0.060328 0.208369
0.067056 0.060111 0.207604
0.067911 0.059995 0.207182
0.068541 0.059684 0.206089
0.069302 0.059495 0.205411
0.069912 0.059184 0.204308
0.070506 0.058868 0.203183
0.070935 0.058424 0.201615
0.071868 0.058402 0.201501
0.072601 0.058219 0.200827
0.072904 0.057702 0.198995
0.073484 0.057414 0.197949
0.073819 0.056944 0.196275
0.074294 0.056593 0.195005
0.074706 0.056202 0.193596
0.075307 0.055962 0.192702
0.075945 0.055755 0.191915
0.076170 0.055252 0.190110
0.076789 0.055044 0.189312
0.077434 0.054860 0.188591
0.077839 0.054511 0.187301
0.078421 0.054293 0.186456
0.079193 0.054210 0.186070
0.079508 0.053819 0.184620
0.080231 0.053710 0.184132
0.080661 0.053410 0.182984
0.081313 0.053261 0.182349
0.081942 0.053100 0.181667
0.082287 0.052761 0.180368
0.082974 0.052645 0.179828
0.083360 0.052343 0.178646
0.083656 0.051991 0.177289
0.084075 0.051722 0.176206
0.084373 0.051384 0.174885
0.084775 0.051117 0.173796
0.085209 0.050873 0.172781
0.085761 0.050703 0.172012
0.086331 0.050548 0.171281
0.086835 0.050357 0.170423
0.087381 0.050194 0.169652
0.088238 0.050210 0.169478
0.088766 0.050041 0.168667
0.089284 0.049869 0.167838
-1.006608 0.564001 1.884441
-0.996459 0.563377 1.884896
-0.985775 0.562438 1.884179
-0.969047 0.558001 1.871619
-0.959651 0.557743 1.872954
-0.951621 0.558281 1.876869
-0.943845 0.558982 1.881237
-0.935356 0.559269 1.884129
-0.926920 0.559595 1.887062
-0.919047 0.560270 1.891094
-0.912366 0.561693 1.897571
-0.992797 0.617310 2.087215
-0.981599 0.616500 2.086141
-0.970776 0.615913 2.085733
-0.961978 0.616611 2.089599
-0.835214 0.540924 1.834357
-0.823335 0.538834 1.828448
-0.813100 0.537786 1.826005
-0.807196 0.539612 1.833261
-0.796620 0.538320 1.829864
-0.870242 0.659672 2.250951
-0.853383 0.654867 2.235098
-0.844650 0.656257 2.240332
-0.837282 0.658755 2.249307
-0.823087 0.655879 2.239880
-0.663111 0.549510 1.877399
-0.651436 0.547121 1.869424
-0.639885 0.544773 1.861556
-0.634578 0.547750 1.871851
-0.625496 0.547505 1.871109
-0.615553 0.546491 1.867706
-0.275188 0.294804 1.006920
-0.268814 0.293023 1.000718
-0.267955 0.297298 1.015188
-0.256294 0.289526 0.988514
-0.248153 0.285516 0.974685
-0.239052 0.280230 0.956498
-0.232471 0.277752 0.947890
-0.224783 0.273828 0.934348
-0.217566 0.270333 0.922266
-0.210721 0.267167 0.911307
-0.203700 0.263642 0.899123
-0.197139 0.260575 0.888502
-0.190580 0.257379 0.877441
-0.184682 0.254952 0.869003
-0.178082 0.251424 0.856812
-0.170961 0.246980 0.841505
-0.163279 0.241495 0.822652
-0.159553 0.241736 0.823311
-0.134576 0.208989 0.711635
-0.130029 0.207101 0.705066
-0.125663 0.205412 0.699173
-0.123784 0.207807 0.707179
-0.120047 0.207128 0.704726
-0.116818 0.207314 0.705214
-0.052785 0.096430 0.327955
-0.051443 0.096825 0.329234
-0.050100 0.097243 0.330587
-0.048630 0.097433 0.331170
-0.047130 0.097573 0.331578
-0.045849 0.098195 0.333626
-0.046619 0.103407 0.351267
-0.044987 0.103483 0.351457
-0.044124 0.105400 0.357903
-0.042889 0.106546 0.361727
-0.041342 0.106984 0.363146
-0.040270 0.108739 0.369040
-0.038666 0.109153 0.370378
-0.036846 0.108967 0.369687
-0.035311 0.109650 0.371942
-0.033390 0.109141 0.370156
-0.031572 0.108933 0.369392
-0.029573 0.108038 0.366303
-0.027614 0.107184 0.363356
-0.025788 0.106772 0.361905
-0.024054 0.106708 0.361640
-0.022331 0.106685 0.361516
-0.020625 0.106752 0.361699
-0.019006 0.107319 0.363578
-0.017283 0.107353 0.363654
-0.016358 0.112899 0.382399
-0.014576 0.113191 0.383350
-0.012458 0.110572 0.374446
-0.010541 0.109162 0.369640
-0.008663 0.107682 0.364600
-0.006929 0.107700 0.364632
-0.004206 0.087215 0.295259
-0.002790 0.086874 0.294086
-0.001385 0.086553 0.292984
0.000010 0.086731 0.293575
