ply
format ascii 1.0
element vertex 1744
property float x
property float y
property float z
end_header
0.082774 0.038865 0.172692
0.083033 0.038599 0.171381
0.083309 0.038347 0.170126
0.083710 0.038156 0.169136
0.084085 0.037957 0.168106
0.084458 0.037761 0.167082
0.085117 0.037695 0.166627
0.085892 0.037681 0.166395
0.086301 0.037509 0.165454
0.086962 0.037447 0.164995
-1.007323 0.440865 1.920993
-0.986281 0.435608 1.899942
-0.974464 0.434365 1.896281
-0.966734 0.434938 1.900459
-0.958502 0.435294 1.903604
-0.949035 0.435090 1.904220
-0.940624 0.435372 1.906881
-0.932375 0.435736 1.909820
-0.923653 0.435883 1.911739
-1.002988 0.482770 2.119959
-0.994280 0.483403 2.123913
-0.972598 0.477677 2.099843
-0.968145 0.480383 2.112758
-0.837192 0.419725 1.846810
-0.827467 0.419208 1.845307
-0.819759 0.419713 1.848244
-0.812931 0.420685 1.853183
-0.800423 0.418706 1.845070
-1.272610 0.673013 2.966583
-1.260422 0.673961 2.971567
-1.248207 0.674915 2.976503
-1.227269 0.671122 2.960422
-1.214349 0.671677 2.963441
-1.202137 0.672641 2.968198
-0.876722 0.514449 2.271154
-0.866881 0.514944 2.273475
-0.859220 0.516763 2.281594
-0.846925 0.515806 2.277414
-0.838614 0.517282 2.283933
-0.641609 0.422827 1.866422
-0.633756 0.423445 1.868963
-0.628431 0.425791 1.879111
-0.617246 0.424179 1.871759
-0.304190 0.232234 1.023520
-0.296169 0.229752 1.012360
-0.291408 0.229760 1.012164
-0.287402 0.230373 1.014627
-0.281992 0.229861 1.012129
-0.276980 0.229663 1.011004
-0.271832 0.229344 1.009336
-0.267384 0.229613 1.010256
-0.262205 0.229254 1.008404
-0.255773 0.227767 1.001583
-0.148031 0.148276 0.650890
-0.143540 0.146832 0.644357
-0.139025 0.145301 0.637444
-0.134402 0.143587 0.629730
-0.131108 0.143246 0.628043
-0.128043 0.143146 0.627409
-0.125126 0.143212 0.627504
-0.122565 0.143697 0.629433
-0.119311 0.143375 0.627828
-0.116555 0.143649 0.628836
-0.113486 0.143542 0.628175
-0.111216 0.144468 0.632032
-0.108121 0.144343 0.631293
-0.104610 0.143641 0.628032
-0.101727 0.143784 0.628473
-0.050459 0.073478 0.321075
-0.048838 0.073338 0.320367
-0.047349 0.073393 0.320514
-0.046141 0.073900 0.322639
-0.044536 0.073786 0.322051
-0.043283 0.074267 0.324060
-0.044096 0.078460 0.342261
-0.042767 0.079018 0.344607
-0.041033 0.078841 0.343746
-0.039790 0.079635 0.347118
-0.038329 0.080041 0.348802
-0.036608 0.079916 0.348173
-0.034637 0.079209 0.345011
-0.032530 0.078102 0.340113
-0.030844 0.077946 0.339358
-0.029241 0.077992 0.339489
-0.015988 0.054799 0.238352
-0.014855 0.054824 0.238419
-0.013419 0.053642 0.233239
-0.012085 0.052691 0.229070
-0.010864 0.052091 0.226428
-0.009715 0.051744 0.224889
-0.008523 0.051050 0.221844
-0.007441 0.050913 0.221223
-0.006405 0.051091 0.221976
-0.005360 0.051262 0.222694
-0.004309 0.051446 0.223476
-0.003250 0.051627 0.224246
-0.002182 0.051785 0.224914
-0.001132 0.053064 0.230459
-0.000028 0.053342 0.231655
0.001079 0.053213 0.231085
0.002188 0.053263 0.231296
0.003304 0.053377 0.231784
0.004415 0.053384 0.231814
0.005538 0.053501 0.232323
0.006652 0.053507 0.232349
0.007779 0.053593 0.232730
0.008882 0.053523 0.232434
0.010018 0.053637 0.232937
0.011157 0.053744 0.233415
0.012278 0.053757 0.233486
0.013426 0.053870 0.233992
0.014594 0.054043 0.234759
0.015756 0.054172 0.235339
0.017052 0.054711 0.237707
0.020361 0.061237 0.266085
0.021579 0.061074 0.265407
0.022766 0.060849 0.264460
0.023785 0.060220 0.261759
0.023164 0.055709 0.242185
0.024310 0.055677 0.242080
0.025355 0.055428 0.241034
0.026498 0.055403 0.240966
0.027613 0.055325 0.240665
0.028769 0.055332 0.240737
0.030034 0.055539 0.241678
0.031517 0.056121 0.244255
0.033960 0.058306 0.253815
0.035337 0.058575 0.255035
0.036399 0.058322 0.253983
0.037466 0.058092 0.253032
0.038679 0.058096 0.253102
0.039441 0.057443 0.250307
0.040544 0.057310 0.249784
0.041567 0.057075 0.248813
0.042504 0.056738 0.247396
0.043451 0.056431 0.246116
0.044356 0.056089 0.244676
0.045369 0.055897 0.243894
0.046164 0.055452 0.242008
0.046773 0.054811 0.239264
0.047484 0.054317 0.237163
0.048433 0.054112 0.236324
0.049301 0.053828 0.235134
0.050036 0.053414 0.233380
0.050829 0.053080 0.231971
0.051802 0.052942 0.231422
0.052556 0.052592 0.229941
0.053254 0.052202 0.228286
0.054059 0.051929 0.227140
0.054803 0.051610 0.225794
0.055685 0.051429 0.225052
0.056445 0.051146 0.223858
0.057309 0.050966 0.223112
0.058289 0.050893 0.222838
0.059053 0.050638 0.221763
0.059574 0.050187 0.219825
0.059707 0.049430 0.216549
0.060432 0.049181 0.215492
0.061301 0.049055 0.214975
0.061740 0.048595 0.212990
0.062544 0.048432 0.212304
0.062917 0.047946 0.210202
0.063710 0.047790 0.209543
0.064557 0.047679 0.209081
0.065294 0.047491 0.208275
0.065947 0.047249 0.207231
0.066637 0.047039 0.206327
0.067396 0.046884 0.205659
0.067687 0.046412 0.203599
0.068214 0.046113 0.202294
0.068822 0.045877 0.201260
0.069594 0.045755 0.200726
0.070050 0.045430 0.199299
0.070412 0.045055 0.197647
0.070708 0.044648 0.195851
0.071379 0.044484 0.195120
0.072037 0.044318 0.194372
0.072471 0.044019 0.193041
0.073053 0.043816 0.192130
0.073385 0.043471 0.190587
0.073886 0.043232 0.189509
0.074036 0.042797 0.187562
0.074726 0.042680 0.187012
0.075382 0.042547 0.186383
0.075822 0.042296 0.185236
0.076157 0.041993 0.183855
0.076804 0.041868 0.183247
0.077257 0.041640 0.182188
0.077786 0.041458 0.181322
0.078228 0.041234 0.180270
0.078952 0.041162 0.179877
0.079446 0.040972 0.178967
0.079982 0.040809 0.178162
0.080621 0.040700 0.177594
0.081140 0.040534 0.176768
0.081678 0.040381 0.175994
0.082237 0.040241 0.175270
0.082501 0.039961 0.173933
0.082778 0.039692 0.172639
0.082950 0.039380 0.171148
0.083459 0.039231 0.170366
0.083934 0.039070 0.169521
0.084284 0.038854 0.168434
0.084710 0.038677 0.167507
0.085228 0.038545 0.166768
0.086144 0.038594 0.166803
0.086456 0.038374 0.165669
0.087153 0.038327 0.165275
-1.005784 0.449363 1.917200
-0.993127 0.447770 1.912308
-0.976678 0.444422 1.899807
-0.966596 0.443936 1.899438
-0.958373 0.444303 1.902629
-0.950080 0.444644 1.905631
-0.942018 0.445101 1.909050
-0.932687 0.444962 1.909832
-0.924344 0.445297 1.912572
-1.007087 0.489952 2.105721
-0.998416 0.490581 2.109700
-0.991018 0.491855 2.116381
-0.979392 0.491036 2.113979
-0.970701 0.491686 2.117833
-0.837688 0.428723 1.847492
-0.828341 0.428394 1.846869
-0.819726 0.428440 1.847808
-0.813067 0.429521 1.853156
-0.801037 0.427757 1.846174
-0.874079 0.523584 2.264207
-0.865857 0.525052 2.270715
-0.859876 0.527932 2.283287
-0.845029 0.525374 2.272293
-0.836106 0.526480 2.277106
-0.637399 0.428806 1.854282
-0.637560 0.434862 1.880306
-0.625240 0.432456 1.869716
-0.615703 0.431935 1.867244
-0.303951 0.236888 1.022880
-0.297346 0.235472 1.016557
-0.291553 0.234665 1.012851
-0.287243 0.235043 1.014257
-0.282066 0.234714 1.012598
-0.276738 0.234246 1.010334
-0.271533 0.233866 1.008446
-0.267326 0.234348 1.010268
-0.261906 0.233766 1.007495
-0.253750 0.230675 0.993907
-0.150023 0.153404 0.659846
-0.144754 0.151161 0.650006
-0.139757 0.149111 0.641002
-0.135849 0.148159 0.636717
-0.132190 0.147440 0.633437
-0.129280 0.147544 0.633693
-0.126318 0.147590 0.633701
-0.123374 0.147662 0.633816
-0.120486 0.147806 0.634244
-0.117518 0.147857 0.634270
-0.114729 0.148142 0.635303
-0.112097 0.148650 0.637292
-0.108984 0.148532 0.636594
-0.105638 0.148078 0.634465
-0.102725 0.148225 0.634908
-0.050161 0.074569 0.319316
-0.048803 0.074815 0.320278
-0.047459 0.075098 0.321400
-0.046022 0.075248 0.321951
-0.044603 0.075439 0.322682
-0.043443 0.076098 0.325412
-0.043595 0.079188 0.338534
-0.042645 0.080438 0.343790
-0.041153 0.080724 0.344922
-0.039730 0.081176 0.346767
-0.038362 0.081783 0.349275
-0.036790 0.081990 0.350081
-0.034934 0.081557 0.348152
-0.032923 0.080699 0.344412
-0.030907 0.079739 0.340241
-0.028978 0.078909 0.336629
-0.027157 0.078290 0.333923
-0.025402 0.077800 0.331769
-0.023829 0.077840 0.331877
-0.020413 0.076919 0.327836
-0.013397 0.054677 0.233000
-0.012211 0.054359 0.231610
-0.011030 0.053997 0.230036
-0.009850 0.053563 0.228158
-0.008616 0.052691 0.224414
-0.007457 0.052098 0.221866
-0.006420 0.052297 0.222688
-0.005377 0.052519 0.223613
-0.004286 0.052266 0.222518
-0.003236 0.052519 0.223576
-0.002174 0.052724 0.224434
-0.001133 0.054335 0.231279
-0.000026 0.054370 0.231416
0.002234 0.055436 0.235937
0.003363 0.055434 0.235924
0.004490 0.055388 0.235726
0.005621 0.055406 0.235803
0.006745 0.055363 0.235622
0.007887 0.055456 0.236025
0.008834 0.054322 0.231203
0.009957 0.054406 0.231572
0.011136 0.054750 0.233047
0.012247 0.054725 0.232954
0.013402 0.054886 0.233651
0.014550 0.054992 0.234121
0.016055 0.056339 0.239875
0.018830 0.061663 0.262568
0.020334 0.062418 0.265812
0.021550 0.062253 0.265136
0.022736 0.062024 0.264190
0.023753 0.061383 0.261492
0.025345 0.062217 0.265081
0.026533 0.062026 0.264305
0.025416 0.056711 0.241692
0.026556 0.056675 0.241575
0.027639 0.056524 0.240970
0.028878 0.056692 0.241725
0.030241 0.057081 0.243427
0.032411 0.058908 0.251261
0.034035 0.059648 0.254465
0.035271 0.059679 0.254644
0.036256 0.059298 0.253066
0.037343 0.059102 0.252280
0.038210 0.058582 0.250110
0.039559 0.058810 0.251135
0.040347 0.058214 0.248643
0.041356 0.057963 0.247624
0.042299 0.057636 0.246278
0.043255 0.057343 0.245079
0.044223 0.057081 0.244014
0.044908 0.056476 0.241479
0.045978 0.056374 0.241095
0.046859 0.056051 0.239767
0.047641 0.055627 0.238006
0.048268 0.055047 0.235577
0.048946 0.054549 0.233497
0.049885 0.054358 0.232732
0.050751 0.054098 0.231669
0.051715 0.053951 0.231088
0.052561 0.053689 0.230015
0.053277 0.053308 0.228432
0.054015 0.052964 0.227002
0.054935 0.052808 0.226379
0.055714 0.052525 0.225214
0.056547 0.052303 0.224304
0.057227 0.051950 0.222832
0.058010 0.051701 0.221807
0.058611 0.051303 0.220138
0.059230 0.050933 0.218589
0.060001 0.050705 0.217644
0.060588 0.050332 0.216075
0.061184 0.049978 0.214589
0.061571 0.049469 0.212431
0.062193 0.049161 0.211136
0.062932 0.048953 0.210271
0.063538 0.048651 0.208997
0.064376 0.048533 0.208508
0.065164 0.048381 0.207875
0.065868 0.048173 0.206994
0.066640 0.048019 0.206347
0.067276 0.047773 0.205300
0.066752 0.046723 0.200794
0.067658 0.046688 0.200649
0.068349 0.046508 0.199879
0.068881 0.046226 0.198665
0.069610 0.046083 0.198044
0.070232 0.045874 0.197136
0.070656 0.045542 0.195699
0.071370 0.045403 0.195087
0.071965 0.045194 0.194167
0.072367 0.044869 0.192751
0.072823 0.044586 0.191508
0.073535 0.044465 0.190956
0.074010 0.044205 0.189807
0.074374 0.043885 0.188396
0.074617 0.043503 0.186712
0.075119 0.043280 0.185706
0.075828 0.043178 0.185220
0.075923 0.042734 0.183260
0.076460 0.042546 0.182391
0.077122 0.042431 0.181832
0.077724 0.042286 0.181139
0.078336 0.042149 0.180478
0.079009 0.042048 0.179964
0.079516 0.041861 0.179077
0.080004 0.041668 0.178163
0.080510 0.041489 0.177300
0.081109 0.041361 0.176647
0.081496 0.041128 0.175545
0.082130 0.041024 0.174985
0.082583 0.040832 0.174045
0.082847 0.040551 0.172720
0.083255 0.040346 0.171713
0.083387 0.040013 0.170152
0.084058 0.039941 0.169701
0.084579 0.039801 0.168949
0.084959 0.039598 0.167924
0.085506 0.039475 0.167233
0.086380 0.039504 0.167179
0.086946 0.039393 0.166522
0.087483 0.039271 0.165811
-0.998037 0.455003 1.901546
-0.988119 0.454605 1.901815
-0.972895 0.451736 1.891638
-0.965646 0.452551 1.896791
-0.958908 0.453624 1.902945
-0.948557 0.452992 1.901862
-0.940645 0.453524 1.905583
-0.932798 0.454098 1.909407
-0.924415 0.454420 1.912095
-0.918808 0.456127 1.920541
-1.001617 0.502199 2.115841
-0.989933 0.501344 2.113474
-0.977960 0.500325 2.110330
-0.969269 0.500981 2.114181
-0.837559 0.437406 1.846773
-0.828444 0.437191 1.846690
-0.820270 0.437474 1.848651
-0.812971 0.438235 1.852579
-0.799986 0.435915 1.843420
-0.871665 0.532795 2.257834
-0.862985 0.533991 2.263090
-0.860487 0.539091 2.284844
-0.842879 0.534733 2.266472
-0.834712 0.536331 2.273298
-0.668885 0.452977 1.919836
-0.645353 0.443018 1.877514
-0.639132 0.444833 1.885058
-0.629467 0.444268 1.882493
-0.619540 0.443498 1.879035
-0.306336 0.243621 1.031067
-0.297168 0.240136 1.016117
-0.292776 0.240460 1.017279
-0.287592 0.240134 1.015677
-0.282128 0.239559 1.013018
-0.276905 0.239172 1.011150
-0.271888 0.238954 1.009983
-0.266678 0.238554 1.008047
-0.262403 0.238992 1.009642
-0.255375 0.236893 1.000516
-0.155979 0.159435 0.672453
-0.150603 0.157142 0.662596
-0.146101 0.155685 0.656261
-0.141144 0.153667 0.647570
-0.136911 0.152367 0.641902
-0.133442 0.151877 0.639651
-0.130320 0.151768 0.639007
-0.127361 0.151850 0.639160
-0.124375 0.151902 0.639191
-0.121054 0.151538 0.637472
-0.118179 0.151727 0.638078
-0.115139 0.151710 0.637819
-0.112648 0.152433 0.640674
-0.109565 0.152374 0.640240
-0.106291 0.152039 0.638648
-0.103359 0.152188 0.639093
-0.050219 0.076182 0.319825
-0.048645 0.076097 0.319379
-0.047373 0.076495 0.320958
-0.046065 0.076858 0.322396
-0.044485 0.076779 0.321978
-0.043431 0.077634 0.325476
-0.043562 0.080748 0.338445
-0.042752 0.082291 0.344822
-0.041431 0.082933 0.347429
-0.039980 0.083358 0.349122
-0.038575 0.083921 0.351395
-0.036946 0.084026 0.351753
-0.035225 0.083922 0.351239
-0.033358 0.083441 0.349151
-0.031019 0.081668 0.341661
-0.029245 0.081268 0.339918
-0.027382 0.080559 0.336887
-0.025410 0.079422 0.332067
-0.023616 0.078726 0.329098
-0.021930 0.078320 0.327344
-0.020379 0.078369 0.327495
-0.019078 0.079465 0.332024
-0.017479 0.079411 0.331748
-0.011113 0.055526 0.231932
-0.010008 0.055544 0.231978
-0.008901 0.055560 0.232019
-0.007422 0.052925 0.220989
-0.006378 0.053031 0.221408
-0.005331 0.053152 0.221893
-0.004272 0.053182 0.221998
-0.003225 0.053435 0.223039
-0.002158 0.053458 0.223118
-0.001129 0.055358 0.231037
0.004083 0.068619 0.286345
0.004487 0.056448 0.235551
0.005618 0.056480 0.235686
0.006746 0.056475 0.235665
0.007809 0.056005 0.233709
0.008834 0.055416 0.231260
0.009887 0.055116 0.230014
0.011021 0.055275 0.230689
0.012208 0.055651 0.232271
0.013356 0.055804 0.232922
0.014484 0.055852 0.233141
0.017932 0.064199 0.268004
0.019221 0.064218 0.268108
0.020467 0.064100 0.267640
0.021685 0.063913 0.266887
0.022914 0.063778 0.266354
0.024079 0.063488 0.265175
0.025310 0.063391 0.264806
0.026496 0.063197 0.264031
0.027644 0.062934 0.262968
0.026732 0.058208 0.243255
0.028034 0.058494 0.244491
0.030831 0.061755 0.258159
0.031862 0.061362 0.256561
0.032905 0.061021 0.255178
0.034139 0.061045 0.255324
0.035234 0.060826 0.254456
0.036274 0.060533 0.253275
0.037212 0.060092 0.251477
0.038188 0.059737 0.250042
0.039145 0.059377 0.248582
0.040310 0.059343 0.248492
0.041161 0.058861 0.246525
0.042089 0.058515 0.245124
0.043088 0.058282 0.244199
0.044130 0.058118 0.243565
0.045046 0.057802 0.242291
0.045794 0.057291 0.240199
0.046669 0.056959 0.238858
0.047437 0.056515 0.237048
0.048168 0.056050 0.235147
0.048984 0.055702 0.233737
0.049848 0.055422 0.232613
0.050772 0.055221 0.231817
0.051539 0.054861 0.230354
0.052560 0.054780 0.230061
0.053236 0.054351 0.228304
0.054058 0.054085 0.227231
0.054835 0.053784 0.226012
0.055771 0.053648 0.225483
0.056630 0.053446 0.224674
0.057422 0.053187 0.223629
0.058222 0.052946 0.222654
0.059194 0.052868 0.222361
0.059829 0.052496 0.220832
0.059375 0.051197 0.215401
0.059780 0.050671 0.213220
0.060372 0.050318 0.211764
0.061471 0.050393 0.212106
0.062106 0.050090 0.210859
0.062830 0.049868 0.209948
0.063537 0.049640 0.209008
0.064238 0.049415 0.208076
0.065054 0.049283 0.207537
0.065772 0.049081 0.206702
0.066438 0.048847 0.205727
0.067176 0.048672 0.205000
0.067528 0.048227 0.203130
0.067891 0.047802 0.201340
0.068451 0.047526 0.200176
0.068922 0.047196 0.198781
0.069356 0.046850 0.197317
0.069872 0.046568 0.196118
0.070317 0.046246 0.194750
0.071134 0.046174 0.194430
0.071773 0.045991 0.193635
0.072310 0.045747 0.192583
0.073019 0.045616 0.192004
0.073644 0.045437 0.191219
0.074148 0.045189 0.190137
0.074491 0.044849 0.188668
0.075035 0.044638 0.187732
0.075510 0.044391 0.186643
0.075984 0.044148 0.185569
0.076018 0.043659 0.183454
0.076685 0.043540 0.182892
0.077317 0.043404 0.182254
0.078059 0.043332 0.181878
0.078705 0.043210 0.181285
0.079217 0.043016 0.180391
0.079761 0.042845 0.179582
0.080372 0.042712 0.178932
0.080829 0.042502 0.177949
0.080963 0.042127 0.176273
0.081505 0.041970 0.175507
0.082286 0.041939 0.175255
0.082586 0.041665 0.173986
0.082895 0.041401 0.172755
0.083228 0.041154 0.171587
0.083536 0.040900 0.170384
0.083793 0.040626 0.169093
0.084356 0.040504 0.168427
0.084685 0.040273 0.167302
0.085334 0.040198 0.166816
0.086208 0.040228 0.166760
0.086759 0.040109 0.166076
0.087371 0.040020 0.165507
-1.003322 0.466562 1.910693
-0.989103 0.464160 1.902823
-0.977933 0.463158 1.900587
-0.965051 0.461319 1.894813
-0.956547 0.461559 1.897483
-0.948720 0.462133 1.901444
-0.941526 0.463029 1.906654
-0.932950 0.463256 1.909034
-0.924418 0.463511 1.911451
-0.922160 0.466948 1.926922
-1.001400 0.512133 2.114729
-0.993288 0.513105 2.120014
-0.979631 0.511205 2.113350
-0.970912 0.511868 2.117209
-0.837780 0.446273 1.846803
-0.827618 0.445492 1.844420
-0.819999 0.446078 1.847637
-0.813271 0.447166 1.852883
-0.799162 0.444177 1.841173
-0.870064 0.542455 2.253552
-0.860667 0.543210 2.256903
-0.855024 0.546383 2.270254
-0.841857 0.544769 2.263667
-0.832988 0.545930 2.268571
-0.676280 0.460928 1.915348
-0.668228 0.461585 1.918014
-0.647200 0.453175 1.882973
-0.643350 0.456726 1.897604
-0.630793 0.454110 1.886582
-0.620602 0.453147 1.882401
-0.304179 0.246745 1.023960
-0.297080 0.244869 1.015981
-0.291978 0.244604 1.014681
-0.287573 0.244923 1.015796
-0.282206 0.244420 1.013492
-0.276919 0.243971 1.011403
-0.271869 0.243718 1.010126
-0.267523 0.244099 1.011464
-0.262275 0.243656 1.009382
-0.251580 0.238043 0.985882
-0.155780 0.162418 0.671785
-0.151139 0.160858 0.665151
-0.146506 0.159241 0.658280
-0.141587 0.157236 0.649809
-0.137537 0.156128 0.645047
-0.134417 0.156051 0.644543
-0.131636 0.156371 0.645680
-0.128698 0.156517 0.646099
-0.125740 0.156645 0.646442
-0.122150 0.155972 0.643480
-0.119083 0.155950 0.643203
-0.116007 0.155914 0.642873
-0.113198 0.156246 0.644058
-0.109945 0.155966 0.642722
-0.106271 0.155056 0.638790
-0.103339 0.155207 0.639234
-0.050231 0.077727 0.320036
-0.048773 0.077826 0.320359
-0.047590 0.078385 0.322572
-0.046048 0.078371 0.322427
-0.044575 0.078476 0.322772
-0.043323 0.078992 0.324813
-0.043276 0.081827 0.336383
-0.042650 0.083740 0.344163
-0.041441 0.084617 0.347682
-0.039926 0.084916 0.348828
-0.038532 0.085509 0.351180
-0.036878 0.085555 0.351290
-0.035189 0.085519 0.351065
-0.033306 0.084984 0.348795
-0.031158 0.083680 0.343371
-0.029311 0.083088 0.340875
-0.027512 0.082568 0.338675
-0.025758 0.082128 0.336808
-0.023988 0.081574 0.334478
-0.022294 0.081222 0.332976
-0.020664 0.081065 0.332280
-0.019046 0.080929 0.331672
-0.017449 0.080874 0.331396
-0.016230 0.082728 0.338947
-0.014695 0.083205 0.340859
-0.007580 0.055150 0.225877
-0.006502 0.055163 0.225908
-0.005417 0.055111 0.225672
-0.004304 0.054680 0.223887
-0.003228 0.054599 0.223539
-0.002162 0.054686 0.223881
-0.001408 0.070540 0.288769
-0.000027 0.070544 0.288772
0.001359 0.070738 0.289556
0.002729 0.070337 0.287907
0.004080 0.069882 0.286039
0.005470 0.070155 0.287151
0.006794 0.069644 0.285059
0.008119 0.069303 0.283666
0.007881 0.057635 0.235914
0.008814 0.056382 0.230791
0.009896 0.056255 0.230276
0.011099 0.056769 0.232392
0.012174 0.056595 0.231693
0.013342 0.056846 0.232734
0.014531 0.057141 0.233959
0.017975 0.065628 0.268728
0.019254 0.065602 0.268646
0.020521 0.065543 0.268428
0.021713 0.065265 0.267316
0.022949 0.065143 0.266847
0.024094 0.064788 0.265422
0.025295 0.064613 0.264737
0.026469 0.064388 0.263849
0.027634 0.064161 0.262959
0.028719 0.063776 0.261416
0.029877 0.063580 0.260652
0.030927 0.063180 0.259051
0.031998 0.062849 0.257737
0.032909 0.062242 0.255290
0.033782 0.061608 0.252733
0.034905 0.061459 0.252165
0.036067 0.061384 0.251902
0.037050 0.061021 0.250461
0.038141 0.060852 0.249815
0.039012 0.060353 0.247812
0.040122 0.060243 0.247408
0.041010 0.059813 0.245693
0.041824 0.059304 0.243652
0.042867 0.059137 0.243014
0.043827 0.058869 0.241959
0.044814 0.058649 0.241108
0.045681 0.058287 0.239667
0.046513 0.057899 0.238122
0.047162 0.057307 0.235736
0.048070 0.057050 0.234726
0.048921 0.056738 0.233490
0.049871 0.056553 0.232776
0.050688 0.056228 0.231485
0.051586 0.056005 0.230614
0.052448 0.055752 0.229617
0.053234 0.055431 0.228338
0.053976 0.055078 0.226927
0.054937 0.054959 0.226476
0.055874 0.054819 0.225942
0.056603 0.054484 0.224603
0.056832 0.053690 0.221367
0.057638 0.053460 0.220455
0.058460 0.053252 0.219633
0.059209 0.052987 0.218572
0.059640 0.052451 0.216392
0.060166 0.052015 0.214623
0.060783 0.051671 0.213232
0.061386 0.051327 0.211835
0.062113 0.051095 0.210902
0.062897 0.050917 0.210190
0.063574 0.050660 0.209144
0.064236 0.050398 0.208083
0.064909 0.050153 0.207083
0.065708 0.050011 0.206508
0.066361 0.049764 0.205497
0.067064 0.049561 0.204664
0.067302 0.049025 0.202452
0.067790 0.048683 0.201042
0.068362 0.048411 0.199913
0.068877 0.048106 0.198647
0.069538 0.047909 0.197827
0.070022 0.047598 0.196528
0.070156 0.047060 0.194292
0.070949 0.046973 0.193911
0.071735 0.046883 0.193515
0.072156 0.046560 0.192156
0.072767 0.046366 0.191323
0.073330 0.046146 0.190381
0.073873 0.045920 0.189408
0.074344 0.045654 0.188270
0.074783 0.045376 0.187073
0.075562 0.045307 0.186738
0.076012 0.045046 0.185605
0.076087 0.044570 0.183585
0.076736 0.044438 0.182976
0.077636 0.044453 0.182964
0.078257 0.044309 0.182297
0.078862 0.044160 0.181601
0.079474 0.044017 0.180927
0.080088 0.043879 0.180267
0.080473 0.043619 0.179103
0.080833 0.043352 0.177902
0.081252 0.043121 0.176846
0.081731 0.042926 0.175932
0.082420 0.042845 0.175477
0.082936 0.042677 0.174659
0.083348 0.042458 0.173629
0.083857 0.042293 0.172814
0.083916 0.041906 0.171085
0.084395 0.041734 0.170230
0.084955 0.041606 0.169544
0.085188 0.041321 0.168215
0.085632 0.041143 0.167313
0.086433 0.041138 0.167107
0.087053 0.041048 0.166547
0.087609 0.040929 0.165862
-1.005580 0.476783 1.914029
-0.988294 0.472877 1.900350
-0.973962 0.470324 1.891991
-0.965855 0.470759 1.895549
-0.957648 0.471153 1.898856
-0.949177 0.471423 1.901583
-0.941430 0.472062 1.905715
-0.932229 0.471977 1.906848
-0.924378 0.472581 1.910687
-0.918695 0.474317 1.919031
-1.002683 0.522846 2.116755
-0.990363 0.521628 2.113124
-0.977818 0.520266 2.108825
-0.969102 0.520934 2.112680
-0.837741 0.455004 1.846236
-0.827585 0.454211 1.843894
-0.819372 0.454479 1.845799
-0.813431 0.456026 1.852847
-0.797917 0.452182 1.837931
-0.869578 0.552785 2.252135
-0.860454 0.553727 2.256214
-0.853465 0.556084 2.266014
-0.841436 0.555176 2.262462
-0.832206 0.556115 2.266394
-0.668847 0.464803 1.894321
-0.667565 0.470172 1.916158
-0.646966 0.461897 1.882360
-0.638789 0.462384 1.884243
-0.630551 0.462840 1.885971
-0.619233 0.461017 1.878385
-0.302903 0.250531 1.019814
-0.296534 0.249214 1.014271
-0.292989 0.250266 1.018361
-0.287695 0.249835 1.016407
-0.282421 0.249405 1.014453
-0.276888 0.248730 1.011490
-0.271730 0.248373 1.009816
-0.266379 0.247825 1.007357
-0.260913 0.247147 1.004369
-0.256506 0.247467 1.005425
-0.155578 0.165392 0.671106
-0.151139 0.164016 0.665347
-0.147960 0.163979 0.665016
-0.142990 0.161911 0.656449
-0.138643 0.160473 0.650442
-0.135615 0.160532 0.650500
-0.132822 0.160878 0.651720
-0.129879 0.161054 0.652254
-0.126757 0.161012 0.651900
-0.123819 0.161207 0.652507
-0.120416 0.160793 0.650648
-0.117483 0.160999 0.651300
-0.114990 0.161837 0.654507
-0.111320 0.161019 0.651022
-0.107477 0.159896 0.646303
-0.104510 0.160051 0.646751
-0.050036 0.078946 0.318928
-0.048609 0.079088 0.319417
-0.047440 0.079674 0.321699
-0.045963 0.079763 0.321975
-0.044542 0.079960 0.322687
-0.043312 0.080526 0.324887
-0.042873 0.082658 0.333404
-0.042253 0.084592 0.341125
-0.041134 0.085642 0.345275
-0.039651 0.085991 0.346601
-0.038214 0.086474 0.348467
-0.036661 0.086724 0.349400
-0.035061 0.086885 0.349973
-0.033198 0.086377 0.347853
-0.031244 0.085566 0.344517
-0.029552 0.085420 0.343862
-0.027787 0.085036 0.342252
-0.026046 0.084684 0.340773
-0.024365 0.084494 0.339949
-0.022696 0.084319 0.339186
-0.021086 0.084352 0.339266
-0.019453 0.084293 0.338977
-0.017803 0.084148 0.338345
-0.016201 0.084218 0.338581
-0.014668 0.084704 0.340491
-0.013189 0.085659 0.344289
-0.011612 0.086162 0.346273
-0.010000 0.086528 0.347711
-0.008353 0.086684 0.348306
-0.004207 0.072597 0.291656
-0.002811 0.072552 0.291458
-0.001401 0.071728 0.288131
-0.000024 0.071995 0.289189
0.001359 0.071969 0.289074
0.002734 0.071762 0.288234
0.004097 0.071493 0.287147
0.005464 0.071417 0.286840
0.006787 0.070897 0.284750
0.008109 0.070550 0.283358
0.009488 0.070728 0.284077
0.008981 0.058555 0.235191
0.009974 0.057791 0.232129
0.011144 0.058102 0.233391
0.012315 0.058360 0.234437
0.013350 0.057982 0.232933
0.014525 0.058225 0.233925
0.018301 0.068116 0.273684
0.019334 0.067156 0.269849
0.020556 0.066933 0.268975
0.021755 0.066664 0.267921
0.022892 0.066245 0.266265
0.024067 0.065974 0.265206
0.025172 0.065549 0.263530
0.026367 0.065387 0.262909
0.027535 0.065176 0.262097
0.028691 0.064957 0.261254
0.029865 0.064793 0.260630
0.030933 0.064422 0.259179
0.031928 0.063934 0.257256
0.032906 0.063449 0.255344
0.033845 0.062926 0.253283
0.034968 0.062769 0.252694
0.036004 0.062472 0.251539
0.037007 0.062138 0.250241
0.037942 0.061716 0.248586
0.038947 0.061429 0.247475
0.039979 0.061199 0.246595
0.040939 0.060876 0.245342
0.041851 0.060501 0.243878
0.042843 0.060258 0.242946
0.043784 0.059960 0.241790
0.044654 0.059581 0.240309
0.045515 0.059209 0.238858
0.046354 0.058827 0.237365
0.047180 0.058449 0.235883
0.047839 0.057885 0.233656
0.048838 0.057748 0.233149
0.049753 0.057522 0.232279
0.050578 0.057202 0.231035
0.051489 0.056992 0.230229
0.052410 0.056801 0.229499
0.053293 0.056577 0.228637
0.054133 0.056318 0.227630
0.054888 0.055983 0.226316
0.055828 0.055844 0.225794
0.056770 0.055714 0.225305
0.057418 0.055303 0.223683
0.057320 0.054204 0.219272
0.058140 0.053996 0.218463
0.058876 0.053718 0.217369
0.059295 0.053167 0.215167
0.060131 0.053001 0.214523
0.060928 0.052806 0.213760
0.061556 0.052475 0.212442
0.062219 0.052183 0.211282
0.062919 0.051930 0.210277
0.063444 0.051545 0.208732
0.063879 0.051098 0.206935
0.064685 0.050957 0.206377
0.065488 0.050818 0.205824
0.066146 0.050572 0.204833
0.066927 0.050426 0.204247
0.067445 0.050089 0.202881
0.067916 0.049727 0.201413
0.068411 0.049392 0.200051
0.069151 0.049241 0.199431
0.069662 0.048933 0.198171
0.070068 0.048561 0.196648
0.070682 0.048341 0.195737
0.071144 0.048023 0.194428
0.071702 0.047778 0.193409
0.072282 0.047553 0.192470
0.072708 0.047234 0.191146
0.073427 0.047111 0.190609
0.074325 0.047104 0.190539
0.074814 0.046841 0.189429
0.075385 0.046635 0.188546
0.075975 0.046446 0.187726
0.076358 0.046136 0.186414
0.076835 0.045889 0.185351
0.077320 0.045653 0.184328
0.078022 0.045548 0.183832
0.078576 0.045360 0.182995
0.079075 0.045145 0.182042
0.079688 0.044999 0.181365
0.080242 0.044823 0.180561
0.080748 0.044624 0.179658
0.080800 0.044182 0.177770
0.081294 0.043987 0.176876
0.081929 0.043872 0.176295
0.082419 0.043683 0.175409
0.082762 0.043420 0.174223
0.082979 0.043097 0.172789
0.083530 0.042952 0.172066
0.083979 0.042758 0.171136
0.084217 0.042461 0.169792
0.084750 0.042317 0.169051
0.085215 0.042143 0.168182
0.085734 0.041998 0.167424
0.086336 0.041896 0.166827
0.087130 0.041888 0.166599
0.087680 0.041764 0.165898
-0.998651 0.482607 1.899846
-0.984050 0.479903 1.891239
-0.974563 0.479668 1.892247
-0.963995 0.478891 1.891024
-0.956467 0.479624 1.895674
-0.948176 0.479985 1.898769
-0.939973 0.480398 1.901991
-0.931607 0.480735 1.904833
-0.923969 0.481459 1.909132
-0.918862 0.483529 1.918700
-1.002302 0.532701 2.115235
-0.990405 0.531685 2.112534
-0.976920 0.529787 2.106245
-0.968199 0.530460 2.110100
-0.838207 0.464014 1.846756
-0.826971 0.462604 1.842048
-0.821420 0.464379 1.849962
-0.813767 0.464990 1.853188
-0.800457 0.462348 1.843387
-0.870616 0.564092 2.254645
-0.859446 0.563718 2.253421
-0.851407 0.565416 2.260428
-0.841214 0.565707 2.261771
-0.830709 0.565794 2.262252
-0.691368 0.483262 1.932381
-0.669698 0.474348 1.896744
-0.657013 0.471643 1.885907
-0.646308 0.470305 1.880503
-0.638359 0.470963 1.883052
-0.628713 0.470370 1.880573
-0.619188 0.469852 1.878366
-0.611203 0.470506 1.880816
-0.302718 0.255196 1.019334
-0.296061 0.253604 1.012806
-0.291652 0.253918 1.013879
-0.287339 0.254327 1.015322
-0.281790 0.253638 1.012374
-0.276733 0.253375 1.011120
-0.271443 0.252886 1.008955
-0.267233 0.253404 1.010800
-0.261878 0.252836 1.008308
-0.257452 0.253160 1.009366
-0.152574 0.168761 0.671857
-0.149589 0.168976 0.672538
-0.144862 0.167190 0.665252
-0.140917 0.166246 0.661322
-0.137612 0.166033 0.660296
-0.134654 0.166238 0.660932
-0.131630 0.166369 0.661274
-0.128324 0.166142 0.660191
-0.124919 0.165773 0.658547
-0.121628 0.165539 0.657437
-0.118098 0.164960 0.654961
-0.115550 0.165759 0.657953
-0.112131 0.165317 0.656023
-0.109126 0.165479 0.656489
-0.052391 0.081780 0.324350
-0.050326 0.080934 0.320911
-0.048624 0.080638 0.319654
-0.047575 0.081441 0.322754
-0.046038 0.081433 0.322642
-0.044652 0.081703 0.323628
-0.043375 0.082199 0.325512
-0.042965 0.084433 0.334279
-0.042028 0.085765 0.339474
-0.040964 0.086933 0.344015
-0.039647 0.087641 0.346735
-0.038140 0.087972 0.347968
-0.036671 0.088422 0.349674
-0.035097 0.088654 0.350515
-0.033253 0.088189 0.348607
-0.031426 0.087727 0.346713
-0.029774 0.087728 0.346648
-0.028086 0.087615 0.346138
-0.026250 0.086998 0.343638
-0.024607 0.086985 0.343528
-0.023021 0.087180 0.344243
-0.021295 0.086842 0.342853
-0.019682 0.086943 0.343201
-0.018020 0.086822 0.342675
-0.016328 0.086527 0.341468
-0.014785 0.087038 0.343438
-0.013215 0.087501 0.345227
-0.011590 0.087679 0.345892
-0.009980 0.088052 0.347329
-0.008336 0.088211 0.347923
-0.006675 0.088226 0.347954
-0.004197 0.073875 0.291335
-0.002803 0.073830 0.291137
-0.001409 0.073694 0.290585
-0.000021 0.073686 0.290541
0.001366 0.073573 0.290085
0.002745 0.073366 0.289260
0.004107 0.072989 0.287768
0.005462 0.072720 0.286705
0.006789 0.072246 0.284832
0.008147 0.072214 0.284710
0.009477 0.071973 0.283764
0.010762 0.071496 0.281891
0.012107 0.071481 0.281840
0.013319 0.070759 0.279003
0.014613 0.070565 0.278253
0.015863 0.070210 0.276866
0.017129 0.069971 0.275943
0.018276 0.069317 0.273384
0.019498 0.069015 0.272214
0.020689 0.068649 0.270793
0.021969 0.068604 0.270640
0.023014 0.067870 0.267773
0.024175 0.067535 0.266479
0.025242 0.066987 0.264349
0.026397 0.066713 0.263300
0.027522 0.066390 0.262057
0.028644 0.066090 0.260909
0.029740 0.065755 0.259623
0.030892 0.065568 0.258924
0.031887 0.065073 0.257007
0.032820 0.064495 0.254762
0.033885 0.064205 0.253660
0.034939 0.063916 0.252560
0.035988 0.063639 0.251506
0.036916 0.063172 0.249703
0.037875 0.062785 0.248218
0.038809 0.062381 0.246665
0.039812 0.062109 0.245634
0.040781 0.061802 0.244464
0.041770 0.061540 0.243474
0.042721 0.061237 0.242322
0.043748 0.061057 0.241654
0.044733 0.060829 0.240797
0.045523 0.060353 0.238959
0.046352 0.059952 0.237417
0.047234 0.059637 0.236212
0.047840 0.058995 0.233716
0.048618 0.058589 0.232151
0.049515 0.058343 0.231218
0.050490 0.058197 0.230683
0.051322 0.057895 0.229528
0.052215 0.057673 0.228690
0.053147 0.057504 0.228057
0.053951 0.057204 0.226909
0.054857 0.057022 0.226225
0.055726 0.056810 0.225420
0.056548 0.056559 0.224459
0.057146 0.056097 0.222658
0.057651 0.055562 0.220567
0.058425 0.055301 0.219563
0.059267 0.055112 0.218841
0.059899 0.054738 0.217382
0.060195 0.054074 0.214772
0.060899 0.053793 0.213680
0.061604 0.053522 0.212624
0.062311 0.053262 0.211610
0.062932 0.052937 0.210335
0.063670 0.052720 0.209487
0.064024 0.052195 0.207414
0.064771 0.052003 0.206659
0.065581 0.051866 0.206120
0.066289 0.051654 0.205282
0.066942 0.051405 0.204293
0.067588 0.051158 0.203309
0.068175 0.050874 0.202177
0.068697 0.050550 0.200883
0.069180 0.050207 0.199505
0.069733 0.049923 0.198364
0.070293 0.049651 0.197266
0.070913 0.049428 0.196359
0.071547 0.049221 0.195512
0.072246 0.049064 0.194857
0.072686 0.048736 0.193523
0.072907 0.048272 0.191645
0.073401 0.047998 0.190515
0.074043 0.047825 0.189787
0.074711 0.047674 0.189137
0.075148 0.047380 0.187919
0.075847 0.047257 0.187374
0.076447 0.047075 0.186591
0.077044 0.046897 0.185816
0.077653 0.046728 0.185077
0.078300 0.046587 0.184439
0.078958 0.046455 0.183834
0.079492 0.046254 0.182951
0.079959 0.046018 0.181927
0.080499 0.045829 0.181082
0.080817 0.045519 0.179753
0.081272 0.045292 0.178746
0.081563 0.044979 0.177397
0.082064 0.044788 0.176519
0.082644 0.044642 0.175818
0.082969 0.044364 0.174586
0.083346 0.044118 0.173478
0.083792 0.043913 0.172527
0.084245 0.043716 0.171598
0.084655 0.043501 0.170592
0.085087 0.043301 0.169638
0.085394 0.043042 0.168445
0.085782 0.042828 0.167425
0.086494 0.042778 0.167038
0.087184 0.042718 0.166601
0.087804 0.042626 0.166029
-1.001270 0.493006 1.903796
-0.984513 0.489191 1.891140
-0.978138 0.490514 1.898236
-0.965481 0.488682 1.893026
-0.956747 0.488820 1.895353
-0.948145 0.489028 1.897868
-0.939596 0.489269 1.900423
-0.930900 0.489437 1.902617
-0.922495 0.489763 1.905345
-0.917718 0.492042 1.915601
-1.001555 0.542351 2.112912
-0.989909 0.541448 2.110765
-0.980124 0.541557 2.112477
-0.971360 0.542237 2.116347
-0.836157 0.471616 1.841710
-0.825981 0.470772 1.839343
-0.818722 0.471590 1.843411
-0.812437 0.472993 1.849713
-0.800665 0.471197 1.843449
-0.869977 0.574318 2.252791
-0.858227 0.573545 2.250055
-0.848611 0.574197 2.252863
-0.841171 0.576356 2.261540
-0.829222 0.575442 2.258115
-0.819743 0.576242 2.261370
-0.690685 0.491899 1.930445
-0.672956 0.485653 1.905967
-0.658313 0.481497 1.889657
-0.640893 0.475168 1.864788
-0.633786 0.476416 1.869627
-0.627969 0.478683 1.878433
-0.617010 0.477039 1.871867
-0.605136 0.474630 1.862273
-0.301714 0.259152 1.016089
-0.294794 0.257288 1.008620
-0.291619 0.258683 1.013922
-0.286645 0.258504 1.013040
-0.280703 0.257430 1.008645
-0.275829 0.257317 1.008006
-0.270760 0.257014 1.006615
-0.266568 0.257547 1.008495
-0.261261 0.257004 1.006152
-0.252480 0.252960 0.990100
-0.154047 0.173609 0.678537
-0.150669 0.173411 0.677592
-0.146320 0.172062 0.672149
-0.142430 0.171207 0.668634
-0.139468 0.171452 0.669417
-0.136921 0.172231 0.672283
-0.133648 0.172113 0.671644
-0.131012 0.172828 0.674256
-0.127581 0.172506 0.672823
-0.123739 0.171596 0.669098
-0.120792 0.171913 0.670155
-0.117827 0.172220 0.671175
-0.113685 0.170777 0.665379
-0.110637 0.170943 0.665850
-0.052313 0.083202 0.324001
-0.050559 0.082847 0.322536
-0.048772 0.082414 0.320767
-0.047545 0.082929 0.322692
-0.046149 0.083175 0.323567
-0.044737 0.083407 0.324390
-0.043535 0.084062 0.326859
-0.042973 0.086048 0.334503
-0.042064 0.087463 0.339923
-0.041064 0.088795 0.345023
-0.039688 0.089393 0.347267
-0.038406 0.090264 0.350574
-0.036855 0.090551 0.351616
-0.035207 0.090615 0.351792
-0.033375 0.090192 0.350078
-0.031631 0.089973 0.349160
-0.029913 0.089809 0.348458
-0.028145 0.089464 0.347057
-0.026448 0.089318 0.346430
-0.024734 0.089095 0.345504
-0.023098 0.089135 0.345605
-0.021422 0.089020 0.345109
-0.019746 0.088885 0.344532
-0.018086 0.088804 0.344174
-0.016413 0.088637 0.343480
-0.014829 0.088963 0.344702
-0.013244 0.089371 0.346244
-0.011609 0.089510 0.346746
-0.009998 0.089907 0.348246
-0.008329 0.089835 0.347937
-0.006642 0.089491 0.346578
-0.004189 0.075177 0.291122
-0.002796 0.075116 0.290867
-0.001405 0.075022 0.290488
-0.000017 0.075047 0.290572
0.001368 0.074913 0.290040
0.002746 0.074693 0.289179
0.004112 0.074394 0.288018
0.005468 0.074118 0.286944
0.006800 0.073702 0.285333
0.008133 0.073424 0.284256
0.009465 0.073219 0.283467
0.010766 0.072851 0.282049
0.012027 0.072326 0.280024
0.013301 0.071979 0.278692
0.014593 0.071782 0.277943
0.015841 0.071421 0.276558
0.017105 0.071178 0.275636
0.018317 0.070769 0.274070
0.019547 0.070482 0.272980
0.020749 0.070134 0.271653
0.021965 0.069872 0.270664
0.023104 0.069408 0.268893
0.024261 0.069046 0.267520
0.025318 0.068447 0.265229
0.026467 0.068141 0.264073
0.027564 0.067736 0.262536
0.028640 0.067317 0.260947
0.029678 0.066849 0.259167
0.030826 0.066655 0.258450
0.031870 0.066258 0.256949
0.032792 0.065647 0.254617
0.033821 0.065286 0.253258
0.034734 0.064734 0.251155
0.035801 0.064497 0.250275
0.036833 0.064213 0.249216
0.037768 0.063782 0.247587
0.038648 0.063289 0.245714
0.039629 0.062985 0.244577
0.040716 0.062862 0.244142
0.041622 0.062473 0.242675
0.042617 0.062236 0.241797
0.043571 0.061952 0.240737
0.044447 0.061576 0.239322
0.045378 0.061291 0.238258
0.046062 0.060697 0.235990
0.046956 0.060400 0.234878
0.047792 0.060043 0.233533
0.048643 0.059722 0.232325
0.049575 0.059512 0.231549
0.050477 0.059275 0.230670
0.051352 0.059018 0.229707
0.052255 0.058803 0.228910
0.053037 0.058463 0.227626
0.053733 0.058044 0.226029
0.054614 0.057838 0.225263
0.055589 0.057736 0.224902
0.056350 0.057420 0.223706
0.056822 0.056827 0.221427
0.057385 0.056346 0.219580
0.058186 0.056110 0.218689
0.059041 0.055934 0.218031
0.059813 0.055687 0.217095
0.060506 0.055376 0.215903
0.061088 0.054975 0.214362
0.061752 0.054660 0.213151
0.062411 0.054351 0.211963
0.063148 0.054118 0.211070
0.063758 0.053786 0.209786
0.064541 0.053607 0.209100
0.064908 0.053093 0.207102
0.065679 0.052921 0.206433
0.066394 0.052709 0.205606
0.067095 0.052492 0.204761
0.067606 0.052135 0.203362
0.068093 0.051769 0.201929
0.068676 0.051485 0.200811
0.069378 0.051298 0.200067
0.069984 0.051045 0.199064
0.070624 0.050823 0.198180
0.071258 0.050603 0.197297
0.071839 0.050352 0.196290
0.072515 0.050173 0.195559
0.073046 0.049899 0.194458
0.073576 0.049631 0.193375
0.074099 0.049366 0.192297
0.074494 0.049022 0.190912
0.074911 0.048701 0.189610
0.075538 0.048523 0.188859
0.076164 0.048348 0.188118
0.076712 0.048127 0.187196
0.077251 0.047907 0.186271
0.077914 0.047768 0.185654
0.078519 0.047596 0.184907
0.079120 0.047426 0.184161
0.079688 0.047240 0.183347
0.080211 0.047032 0.182444
0.080783 0.046856 0.181661
0.081180 0.046584 0.180499
0.081276 0.046147 0.178690
0.081728 0.045919 0.177688
0.082354 0.045792 0.177073
0.082760 0.045546 0.175991
0.083323 0.045392 0.175256
0.083809 0.045198 0.174364
0.084298 0.045010 0.173487
0.084853 0.044861 0.172753
0.084887 0.044441 0.170972
0.085349 0.044252 0.170070
0.085663 0.043990 0.168884
0.086046 0.043768 0.167844
0.086650 0.043662 0.167239
0.087368 0.043614 0.166851
0.087913 0.043482 0.166130
-1.020088 0.506979 1.918807
-1.005940 0.504481 1.911596
-0.986145 0.499081 1.893248
-0.971891 0.496411 1.885128
-0.963745 0.496840 1.888676
-0.954637 0.496778 1.890263
-0.946797 0.497380 1.894296
-0.939177 0.498111 1.898736
-0.929604 0.497811 1.899164
-0.921649 0.498380 1.902829
-0.916728 0.500617 1.912794
-0.997789 0.550322 2.104191
-0.988055 0.550447 2.106070
-0.972725 0.547425 2.095826
-0.964013 0.548105 2.099670
-0.836770 0.480706 1.842503
-0.829119 0.481315 1.845801
-0.819502 0.480784 1.844668
-0.811844 0.481403 1.847890
-0.799289 0.479101 1.839838
-0.868852 0.584202 2.249653
-0.854907 0.581911 2.241156
-0.845158 0.582456 2.243532
-0.837157 0.584234 2.250613
-0.826342 0.584069 2.250165
-0.816885 0.584873 2.253407
-0.684135 0.496262 1.912096
-0.676075 0.496945 1.914783
-0.653126 0.486555 1.874770
-0.640502 0.483678 1.863677
-0.632736 0.484441 1.866577
-0.625542 0.485669 1.871243
-0.617032 0.485897 1.872026
-0.606439 0.484466 1.866396
-0.301692 0.263936 1.016147
-0.293625 0.261017 1.004760
-0.290025 0.262038 1.008531
-0.285867 0.262581 1.010453
-0.280148 0.261684 1.006823
-0.275505 0.261779 1.007005
-0.270565 0.261590 1.006084
-0.265908 0.261673 1.006204
-0.261309 0.261816 1.006548
-0.254370 0.259579 0.997734
-0.155814 0.178857 0.686517
-0.153216 0.179613 0.689250
-0.148763 0.178180 0.683580
-0.144821 0.177309 0.680070
-0.139818 0.175070 0.671309
-0.137906 0.176688 0.677342
-0.134791 0.176804 0.677615
-0.130978 0.175989 0.674319
-0.128166 0.176511 0.676145
-0.125091 0.176689 0.676653
-0.121637 0.176328 0.675096
-0.119130 0.177356 0.678859
-0.115314 0.176439 0.675177
-0.112222 0.176609 0.675654
-0.052147 0.084478 0.323105
-0.050305 0.083961 0.321049
-0.048749 0.083904 0.320753
-0.047528 0.084439 0.322717
-0.046171 0.084760 0.323865
-0.045008 0.085472 0.326506
-0.043861 0.086266 0.329462
-0.043393 0.088502 0.337925
-0.042329 0.089650 0.342232
-0.041203 0.090753 0.346365
-0.040032 0.091845 0.350454
-0.038567 0.092326 0.352215
-0.036856 0.092238 0.351808
-0.035181 0.092235 0.351722
-0.033513 0.092249 0.351708
-0.031730 0.091934 0.350440
-0.029958 0.091618 0.349171
-0.028205 0.091327 0.348001
-0.026519 0.091228 0.347562
-0.024835 0.091127 0.347120
-0.023097 0.090797 0.345809
-0.021455 0.090820 0.345847
-0.019852 0.091030 0.346597
-0.018149 0.090777 0.345586
-0.016462 0.090567 0.344743
-0.014865 0.090855 0.345795
-0.013270 0.091231 0.347189
-0.011663 0.091618 0.348624
-0.010017 0.091779 0.349204
-0.008386 0.092169 0.350657
-0.006714 0.092185 0.350689
-0.004189 0.076620 0.291458
-0.002795 0.076552 0.291178
-0.001402 0.076418 0.290653
-0.000014 0.076355 0.290401
0.001371 0.076276 0.290088
0.002751 0.076129 0.289523
0.004117 0.075809 0.288297
0.005456 0.075281 0.286288
0.006798 0.075006 0.285241
0.008132 0.074740 0.284229
0.009471 0.074592 0.283670
0.010777 0.074250 0.282375
0.012076 0.073948 0.281235
0.013367 0.073657 0.280137
0.014647 0.073364 0.279035
0.015901 0.072999 0.277663
0.017132 0.072598 0.276152
0.018366 0.072260 0.274886
0.019573 0.071871 0.273423
0.020796 0.071583 0.272352
0.021994 0.071249 0.271102
0.023164 0.070868 0.269682
0.024236 0.070240 0.267317
0.025295 0.069642 0.265071
0.026332 0.069041 0.262811
0.027474 0.068758 0.261765
0.028586 0.068427 0.260539
0.029633 0.067974 0.258849
0.030771 0.067759 0.258063
0.031756 0.067236 0.256109
0.032916 0.067108 0.255658
0.033875 0.066595 0.253742
0.034874 0.066193 0.252246
0.035843 0.065761 0.250642
0.036910 0.065533 0.249812
0.037907 0.065198 0.248575
0.038762 0.064646 0.246512
0.039686 0.064238 0.244998
0.040607 0.063849 0.243553
0.041677 0.063708 0.243059
0.042575 0.063321 0.241623
0.043477 0.062958 0.240281
0.044369 0.062600 0.238957
0.045325 0.062349 0.238038
0.046144 0.061926 0.236466
0.047003 0.061575 0.235168
0.047757 0.061106 0.233416
0.048616 0.060789 0.232246
0.049563 0.060594 0.231541
0.050454 0.060341 0.230611
0.051301 0.060047 0.229524
0.052052 0.059655 0.228064
0.052899 0.059386 0.227073
0.053605 0.058974 0.225531
0.054576 0.058863 0.225140
0.055422 0.058624 0.224259
0.056156 0.058279 0.222970
0.056764 0.057817 0.221231
0.057501 0.057501 0.220050
0.058144 0.057104 0.218559
0.058983 0.056910 0.217840
0.059750 0.056655 0.216885
0.060471 0.056365 0.215798
0.061121 0.056020 0.214496
0.061876 0.055781 0.213596
0.062608 0.055529 0.212644
0.063072 0.055051 0.210827
0.063701 0.054729 0.209605
0.064590 0.054638 0.209262
0.065381 0.054468 0.208615
0.065813 0.054008 0.206856
0.066580 0.053832 0.206181
0.067186 0.053534 0.205035
0.067695 0.053167 0.203623
0.068342 0.052918 0.202659
0.068933 0.052632 0.201553
0.069582 0.052398 0.200641
0.070332 0.052246 0.200038
0.070914 0.051975 0.198978
0.071430 0.051662 0.197755
0.071661 0.051155 0.195784
0.072188 0.050869 0.194653
0.072311 0.050309 0.192476
0.073082 0.050209 0.192049
0.073774 0.050057 0.191423
0.074319 0.049810 0.190429
0.075073 0.049707 0.189983
0.075877 0.049641 0.189669
0.076396 0.049390 0.188649
0.077005 0.049204 0.187867
0.077639 0.049037 0.187160
0.078191 0.048823 0.186264
0.078786 0.048641 0.185485
0.079308 0.048417 0.184544
0.079871 0.048224 0.183713
0.080431 0.048032 0.182884
0.080823 0.047745 0.181688
0.081208 0.047461 0.180496
0.081577 0.047173 0.179284
0.081961 0.046900 0.178125
0.082490 0.046715 0.177292
0.082910 0.046472 0.176236
0.083500 0.046328 0.175549
0.083970 0.046121 0.174617
0.084512 0.045958 0.173843
0.084949 0.045741 0.172860
0.085187 0.045422 0.171485
0.085439 0.045117 0.170155
0.085898 0.044926 0.169251
0.086327 0.044722 0.168291
0.087118 0.044709 0.168038
0.087376 0.044424 0.166758
0.087917 0.044287 0.166026
-1.019581 0.515945 1.916685
-0.993279 0.507194 1.886432
-0.980530 0.505266 1.881409
-0.971506 0.505241 1.883362
-0.963711 0.505860 1.887627
-0.953813 0.505378 1.887687
-0.945268 0.505610 1.890328
-0.938425 0.506766 1.896342
-0.928594 0.506315 1.896262
-0.920542 0.506836 1.899740
-1.006268 0.559510 2.098774
-0.997504 0.560172 2.102777
-0.985770 0.559164 2.100427
-0.975865 0.559182 2.101853
-0.967111 0.559869 2.105713
-0.850307 0.497368 1.871716
-0.821848 0.485773 1.829065
-0.813541 0.485969 1.830728
-0.803738 0.485266 1.828947
-0.798659 0.487432 1.837923
-0.871447 0.596607 2.256127
-0.854509 0.592222 2.239899
-0.844420 0.592534 2.241385
-0.835590 0.593749 2.246241
-0.825529 0.594110 2.247822
-0.816070 0.594919 2.251059
-0.686303 0.506892 1.918093
-0.678208 0.507583 1.920787
-0.653132 0.495412 1.874774
-0.640215 0.492257 1.862849
-0.631883 0.492590 1.864093
-0.624352 0.493565 1.867738
-0.616923 0.494650 1.871771
-0.607688 0.494298 1.870339
-0.301338 0.268424 1.015076
-0.292382 0.264642 1.000638
-0.288052 0.264991 1.001812
-0.284420 0.266006 1.005490
-0.279652 0.265975 1.005207
-0.274945 0.266001 1.005132
-0.270022 0.265816 1.004250
-0.265346 0.265872 1.004272
-0.260213 0.265465 1.002537
-0.253456 0.263354 0.994363
-0.157350 0.183910 0.693478
-0.154254 0.184123 0.694116
-0.150672 0.183753 0.692557
-0.145984 0.181987 0.685737
-0.142901 0.182190 0.686332
-0.134158 0.183546 0.690927
-0.131026 0.183738 0.691477
-0.127017 0.182678 0.687318
-0.123209 0.181861 0.684072
-0.120629 0.182860 0.687660
-0.116375 0.181308 0.681652
-0.113253 0.181480 0.682132
-0.052572 0.086720 0.325875
-0.050839 0.086399 0.324589
-0.048945 0.085777 0.322177
-0.047849 0.086560 0.325038
-0.046372 0.086681 0.325418
-0.044965 0.086946 0.326337
-0.043928 0.087974 0.330117
-0.044929 0.093307 0.350049
-0.043299 0.093377 0.350236
-0.042093 0.094405 0.354013
-0.040610 0.094871 0.355686
-0.038945 0.094935 0.355850
-0.037354 0.095193 0.356744
-0.035428 0.094580 0.354377
-0.033677 0.094396 0.353623
-0.031918 0.094172 0.352717
-0.030184 0.093997 0.351997
-0.028445 0.093789 0.351156
-0.026743 0.093685 0.350710
-0.025037 0.093550 0.350148
-0.023350 0.093472 0.349801
-0.021662 0.093382 0.349414
-0.020031 0.093538 0.349950
-0.018383 0.093637 0.350272
-0.016612 0.093072 0.348114
-0.014946 0.093032 0.347924
-0.013296 0.093093 0.348115
-0.011644 0.093158 0.348321
-0.010033 0.093626 0.350037
-0.008359 0.093584 0.349850
-0.006691 0.093600 0.349882
-0.004196 0.078217 0.292359
-0.002796 0.078059 0.291749
-0.001402 0.077984 0.291456
-0.000011 0.077920 0.291200
0.001377 0.077814 0.290794
0.002760 0.077666 0.290234
0.004130 0.077374 0.289134
0.005490 0.077084 0.288047
0.006818 0.076554 0.286066
0.008163 0.076354 0.285319
0.009489 0.076063 0.284232
0.010787 0.075651 0.282699
0.012091 0.075362 0.281625
0.013383 0.075066 0.280530
0.014652 0.074707 0.279201
0.015928 0.074439 0.278212
0.017174 0.074081 0.276889
0.018403 0.073709 0.275517
0.019593 0.073238 0.273776
0.020825 0.072974 0.272809
0.022014 0.072601 0.271440
0.023169 0.072161 0.269819
0.024258 0.071571 0.267639
0.025366 0.071095 0.265886
0.026457 0.070621 0.264140
0.027510 0.070090 0.262184
0.028560 0.069599 0.260381
0.029646 0.069233 0.259041
0.030775 0.068991 0.258172
0.031864 0.068683 0.257055
0.032824 0.068131 0.255022
0.033787 0.067623 0.253157
0.034820 0.067285 0.251929
0.035877 0.067014 0.250954
0.036956 0.066800 0.250189
0.037970 0.066487 0.249056
0.038788 0.065860 0.246745
0.039525 0.065134 0.244065
0.040473 0.064789 0.242812
0.041521 0.064618 0.242214
0.042491 0.064340 0.241209
0.043395 0.063977 0.239888
0.044384 0.063756 0.239099
0.045322 0.063474 0.238082
0.046288 0.063243 0.237255
0.047071 0.062780 0.235558
0.047691 0.062126 0.233142
0.048470 0.061704 0.231597
0.049431 0.061527 0.230970
0.050372 0.061334 0.230283
0.051293 0.061125 0.229535
0.051998 0.060673 0.227869
0.052704 0.060240 0.226278
0.053578 0.060011 0.225452
0.054451 0.059793 0.224662
0.055348 0.059607 0.223993
0.056041 0.059213 0.222543
0.056687 0.058785 0.220960
0.057477 0.058518 0.219985
0.058302 0.058297 0.219179
0.059113 0.058070 0.218344
