ply
format ascii 1.0
element vertex 1745
property float x
property float y
property float z
end_header
-0.031177 0.020817 0.215632
-0.030225 0.020875 0.216148
-0.029460 0.021071 0.218096
-0.028459 0.021107 0.218375
-0.026500 0.021222 0.219397
-0.025479 0.021251 0.219625
-0.024503 0.021323 0.220284
-0.023483 0.021361 0.220607
-0.022495 0.021434 0.221279
-0.021484 0.021489 0.221782
-0.020461 0.021540 0.222234
-0.019418 0.021572 0.222506
-0.018392 0.021630 0.223034
-0.017370 0.021699 0.223683
-0.016341 0.021767 0.224325
-0.015321 0.021859 0.225217
-0.014317 0.021989 0.226506
-0.013283 0.022092 0.227516
-0.012205 0.022132 0.227881
-0.011108 0.022143 0.227950
-0.010029 0.022197 0.228460
-0.008937 0.022231 0.228773
-0.007851 0.022295 0.229392
-0.006747 0.022317 0.229590
-0.005642 0.022344 0.229845
-0.004577 0.022581 0.232257
-0.003449 0.022563 0.232040
-0.002332 0.022642 0.232834
-0.001209 0.022731 0.233741
-0.000076 0.022755 0.233967
0.001059 0.022768 0.234101
0.002200 0.022833 0.234756
0.003343 0.022868 0.235118
0.004493 0.022919 0.235639
0.005658 0.023008 0.236563
0.006825 0.023076 0.237272
0.008002 0.023153 0.238078
0.009196 0.023255 0.239134
0.010397 0.023346 0.240096
0.011584 0.023393 0.240599
0.012776 0.023441 0.241117
0.013952 0.023452 0.241256
0.015145 0.023489 0.241673
0.016350 0.023536 0.242198
0.017535 0.023552 0.242392
0.018788 0.023650 0.243449
0.019996 0.023684 0.243843
0.021198 0.023706 0.244122
0.022437 0.023767 0.244795
0.023689 0.023833 0.245537
0.024886 0.023841 0.245674
0.026130 0.023891 0.246248
0.027418 0.023975 0.247176
0.028677 0.024027 0.247784
0.029910 0.024055 0.248134
0.031166 0.024097 0.248648
0.032408 0.024126 0.249021
0.033654 0.024157 0.249414
0.034882 0.024172 0.249646
0.036107 0.024185 0.249859
0.037324 0.024191 0.250008
0.038574 0.024217 0.250368
0.039795 0.024225 0.250528
0.041075 0.024266 0.251048
0.042380 0.024320 0.251695
0.043623 0.024336 0.251949
0.044811 0.024321 0.251893
0.046040 0.024329 0.252066
0.047209 0.024305 0.251916
0.048379 0.024283 0.251786
0.049537 0.024256 0.251606
0.050541 0.024157 0.250672
0.050899 0.023760 0.246656
0.050906 0.023222 0.241167
0.051720 0.023068 0.239658
0.052840 0.023054 0.239606
0.053873 0.023003 0.239173
0.054788 0.022905 0.238253
0.055532 0.022741 0.236640
0.056135 0.022527 0.234506
0.056121 0.022078 0.229929
0.057264 0.022093 0.230176
0.058195 0.022028 0.229585
0.059019 0.021925 0.228602
0.059986 0.021878 0.228199
0.060896 0.021812 0.227598
0.061750 0.021729 0.226817
0.062614 0.021652 0.226096
0.063402 0.021552 0.225135
0.064278 0.021484 0.224512
0.064993 0.021366 0.223356
0.065744 0.021263 0.222357
0.066067 0.021027 0.219969
0.066416 0.020807 0.217737
0.067145 0.020711 0.216800
0.067900 0.020626 0.215974
0.068660 0.020544 0.215187
0.068660 0.020241 0.212073
0.068647 0.019943 0.209009
0.068388 0.019583 0.205292
0.069111 0.019510 0.204582
0.069737 0.019413 0.203611
0.070330 0.019309 0.202567
0.070937 0.019211 0.201587
0.071635 0.019141 0.200888
0.072277 0.019057 0.200050
0.072927 0.018978 0.199254
0.073587 0.018904 0.198501
0.074222 0.018824 0.197696
0.074823 0.018739 0.196822
0.074781 0.018496 0.194293
0.074761 0.018265 0.191880
0.074878 0.018072 0.189868
0.075607 0.018030 0.189432
0.076516 0.018032 0.189450
0.076936 0.017919 0.188265
0.077562 0.017856 0.187602
0.078190 0.017795 0.186953
0.078543 0.017674 0.185666
0.079051 0.017590 0.184762
0.079263 0.017443 0.183192
0.079942 0.017400 0.182717
0.080455 0.017322 0.181870
0.080866 0.017225 0.180809
0.081293 0.017133 0.179798
0.081874 0.017075 0.179140
0.082413 0.017009 0.178398
0.082650 0.016883 0.177019
0.082426 0.016666 0.174683
0.082330 0.016480 0.172657
0.083015 0.016452 0.172286
0.083724 0.016429 0.171964
0.083798 0.016283 0.170350
0.082158 0.015810 0.165310
0.082368 0.015698 0.164049
0.083184 0.015703 0.163998
0.083619 0.015637 0.163197
0.084285 0.015615 0.162848
0.084913 0.015586 0.162422
-1.003233 0.197638 1.984228
-0.987988 0.196469 1.973505
-0.976853 0.196102 1.970761
-0.967784 0.196147 1.972083
-0.962683 0.197005 1.981508
-0.955775 0.197507 1.987283
-0.951589 0.198587 1.998814
-0.956594 0.201625 2.030007
-0.969039 0.206308 2.077720
-0.952847 0.204929 2.064315
-0.954332 0.207361 2.089253
-0.946028 0.207695 2.092993
-0.864022 0.191686 1.931949
-0.849029 0.190361 1.918829
-0.831716 0.188481 1.900068
-0.813228 0.186292 1.878129
-0.255149 0.079043 0.793395
-0.251084 0.078943 0.792097
-0.247539 0.079005 0.792424
-0.245312 0.079497 0.797047
-0.241321 0.079424 0.795993
-0.238307 0.079675 0.798182
-0.235391 0.079967 0.800780
-0.231748 0.080018 0.800949
-0.229617 0.080601 0.806440
-0.226164 0.080732 0.807402
-0.272792 0.100787 1.007076
-0.264467 0.099453 0.993295
-0.261850 0.100256 1.000859
-0.057649 0.024275 0.241774
-0.056583 0.024311 0.242022
-0.055544 0.024361 0.242404
-0.054195 0.024274 0.241425
-0.052829 0.024176 0.240329
-0.051756 0.024210 0.240559
-0.044836 0.021449 0.213018
-0.048781 0.023878 0.237029
-0.047259 0.023682 0.234979
-0.044538 0.022862 0.226733
-0.041778 0.021980 0.217885
-0.039834 0.021493 0.212962
-0.038171 0.021137 0.209332
-0.037030 0.021058 0.208457
-0.036257 0.021190 0.209670
-0.035431 0.021297 0.210638
-0.034512 0.021353 0.211100
-0.033712 0.021489 0.212348
-0.032949 0.021657 0.213917
-0.032034 0.021733 0.214583
-0.031111 0.021809 0.215239
-0.030230 0.021920 0.216250
-0.029302 0.022003 0.216983
-0.028322 0.022053 0.217390
-0.027361 0.022122 0.217987
-0.026390 0.022188 0.218555
-0.025427 0.022265 0.219239
-0.024410 0.022302 0.219521
-0.023515 0.022457 0.220977
-0.022498 0.022505 0.221373
-0.021453 0.022529 0.221540
-0.020448 0.022599 0.222157
-0.019406 0.022635 0.222446
-0.018362 0.022671 0.222740
-0.017319 0.022715 0.223102
-0.016282 0.022771 0.223598
-0.015246 0.022838 0.224202
-0.014225 0.022939 0.225143
-0.013202 0.023052 0.226199
-0.012135 0.023104 0.226657
-0.011081 0.023193 0.227487
-0.010000 0.023238 0.227892
-0.008910 0.023272 0.228186
-0.007832 0.023351 0.228929
-0.006747 0.023430 0.229666
-0.005646 0.023477 0.230101
-0.004561 0.023632 0.231591
-0.003448 0.023691 0.232146
-0.002329 0.023745 0.232655
-0.001206 0.023827 0.233442
-0.000075 0.023857 0.233733
0.001059 0.023887 0.234010
0.002199 0.023955 0.234669
0.003341 0.023985 0.234967
0.004494 0.024059 0.235693
0.005649 0.024115 0.236246
0.006814 0.024185 0.236941
0.007988 0.024261 0.237698
0.009172 0.024346 0.238547
0.010343 0.024382 0.238911
0.011568 0.024522 0.240313
0.012742 0.024540 0.240515
0.013944 0.024605 0.241173
0.015144 0.024656 0.241707
0.016359 0.024722 0.242391
0.017581 0.024788 0.243076
0.018810 0.024857 0.243796
0.020023 0.024896 0.244227
0.021236 0.024931 0.244615
0.022436 0.024949 0.244842
0.023651 0.024979 0.245193
0.024868 0.025009 0.245547
0.026105 0.025056 0.246064
0.027422 0.025172 0.247263
0.028687 0.025232 0.247923
0.029905 0.025248 0.248145
0.031159 0.025292 0.248651
0.032398 0.025320 0.249001
0.033622 0.025336 0.249229
0.034886 0.025379 0.249731
0.036123 0.025401 0.250027
0.037341 0.025407 0.250174
0.038609 0.025447 0.250649
0.039821 0.025448 0.250744
0.041153 0.025523 0.251579
0.042367 0.025523 0.251668
0.043587 0.025527 0.251796
0.044875 0.025569 0.252303
0.046085 0.025566 0.252363
0.047268 0.025548 0.252284
0.048459 0.025535 0.252250
0.049644 0.025519 0.252194
0.050556 0.025368 0.250793
0.050253 0.024628 0.243574
0.050894 0.024374 0.241156
0.051743 0.024228 0.239806
0.052858 0.024210 0.239730
0.053914 0.024167 0.239398
0.054734 0.024022 0.238056
0.055172 0.023719 0.235144
0.055478 0.023372 0.231799
0.056160 0.023194 0.230124
0.057172 0.023157 0.229843
0.058090 0.023084 0.229207
0.058976 0.023001 0.228469
0.059877 0.022926 0.227818
0.060760 0.022848 0.227123
0.061704 0.022794 0.226677
0.062579 0.022718 0.226001
0.063408 0.022628 0.225183
0.064276 0.022554 0.224530
0.065015 0.022438 0.223455
0.065620 0.022281 0.221965
0.066207 0.022122 0.220458
0.066766 0.021959 0.218906
0.067499 0.021858 0.217965
0.068312 0.021785 0.217304
0.069124 0.021714 0.216659
0.069851 0.021618 0.215769
0.070623 0.021540 0.215045
0.068379 0.020556 0.205280
0.069043 0.020463 0.204399
0.069534 0.020321 0.203030
0.070485 0.020316 0.203025
0.071213 0.020247 0.202383
0.071775 0.020134 0.201292
0.072426 0.020049 0.200474
0.072910 0.019920 0.199216
0.073335 0.019778 0.197829
0.073746 0.019636 0.196435
0.074092 0.019481 0.194904
0.074738 0.019407 0.194185
0.075381 0.019335 0.193473
0.075656 0.019170 0.191841
0.075635 0.018936 0.189504
0.076373 0.018895 0.189096
0.077049 0.018840 0.188541
0.077533 0.018739 0.187529
0.077970 0.018630 0.186426
0.078145 0.018461 0.184721
0.078958 0.018445 0.184541
0.079277 0.018315 0.183219
0.079917 0.018262 0.182653
0.080289 0.018149 0.181486
0.080695 0.018046 0.180418
0.081134 0.017952 0.179437
0.081599 0.017866 0.178527
0.082188 0.017808 0.177899
0.082546 0.017703 0.176784
0.082035 0.017415 0.173842
0.082325 0.017301 0.172633
0.082582 0.017182 0.171373
0.082489 0.016994 0.169411
0.082226 0.016774 0.167136
0.082557 0.016679 0.166095
0.082773 0.016562 0.164836
0.083122 0.016474 0.163856
0.083646 0.016423 0.163227
0.084149 0.016367 0.162561
0.084732 0.016329 0.162051
-1.000433 0.204544 1.959079
-0.992618 0.204840 1.963020
-0.984288 0.205035 1.965915
-0.974276 0.204879 1.965376
-0.967234 0.205352 1.970789
-0.961548 0.206124 1.979011
-0.957463 0.207258 1.990645
-0.951458 0.207995 1.998401
-0.971074 0.214403 2.060606
-0.962885 0.214740 2.064411
-0.966242 0.217684 2.093230
-0.960607 0.218643 2.102898
-0.952242 0.218993 2.106663
-0.858341 0.199473 1.919184
-0.845540 0.198586 1.910894
-0.832561 0.197637 1.901960
-0.824974 0.197962 1.905229
-0.255621 0.082951 0.794953
-0.251529 0.082839 0.793595
-0.247773 0.082837 0.793272
-0.245176 0.083227 0.796708
-0.241863 0.083383 0.797887
-0.237460 0.083163 0.795457
-0.235734 0.083887 0.802061
-0.231843 0.083853 0.801397
-0.229482 0.084380 0.806092
-0.282199 0.105520 1.007608
-0.275999 0.104977 1.001991
-0.272627 0.105511 1.006637
-0.267763 0.105475 1.005850
-0.261688 0.104953 1.000420
-0.254121 0.103802 0.988998
-0.249055 0.103649 0.987082
-0.248085 0.105227 1.001646
-0.057115 0.025706 0.244351
-0.055638 0.025562 0.242864
-0.054097 0.025382 0.241041
-0.052815 0.025318 0.240321
-0.051330 0.025151 0.238630
-0.050097 0.025104 0.238069
-0.048747 0.024995 0.236920
-0.047226 0.024790 0.234871
-0.044565 0.023962 0.226924
-0.043147 0.023779 0.225082
-0.042250 0.023880 0.225938
-0.038679 0.022436 0.212177
-0.036904 0.021983 0.207804
-0.036244 0.022188 0.209647
-0.035412 0.022297 0.210583
-0.034471 0.022341 0.210908
-0.033824 0.022585 0.213116
-0.032925 0.022669 0.213823
-0.032028 0.022761 0.214602
-0.031100 0.022837 0.215223
-0.030121 0.022879 0.215532
-0.029253 0.023010 0.216690
-0.028301 0.023083 0.217292
-0.027342 0.023157 0.217903
-0.026347 0.023204 0.218264
-0.025359 0.023261 0.218723
-0.024379 0.023332 0.219312
-0.023384 0.023393 0.219817
-0.022436 0.023510 0.220838
-0.021436 0.023581 0.221436
-0.020418 0.023639 0.221915
-0.019393 0.023694 0.222368
-0.018358 0.023744 0.222772
-0.017324 0.023800 0.223238
-0.016275 0.023843 0.223578
-0.015229 0.023897 0.224031
-0.014201 0.023989 0.224841
-0.013173 0.024096 0.225799
-0.012130 0.024194 0.226666
-0.011050 0.024228 0.226944
-0.009975 0.024283 0.227412
-0.008895 0.024337 0.227888
-0.007841 0.024490 0.229283
-0.006741 0.024526 0.229585
-0.005658 0.024648 0.230704
-0.004563 0.024767 0.231787
-0.003447 0.024817 0.232237
-0.002326 0.024849 0.232512
-0.001203 0.024921 0.233177
-0.000074 0.024989 0.233794
0.001059 0.025001 0.233903
0.002198 0.025068 0.234520
0.003345 0.025143 0.235223
0.004490 0.025173 0.235505
0.005644 0.025231 0.236054
0.006811 0.025316 0.236854
0.007985 0.025401 0.237656
0.009173 0.025501 0.238612
0.010360 0.025579 0.239355
0.011556 0.025658 0.240124
0.012741 0.025702 0.240553
0.013924 0.025735 0.240890
0.015127 0.025795 0.241484
0.016335 0.025856 0.242090
0.017531 0.025890 0.242453
0.018787 0.026002 0.243545
0.020022 0.026075 0.244269
0.021247 0.026128 0.244811
0.022485 0.026189 0.245431
0.023753 0.026277 0.246319
0.024957 0.026289 0.246486
0.026160 0.026300 0.246648
0.027421 0.026365 0.247319
0.028675 0.026418 0.247882
0.029906 0.026447 0.248219
0.031132 0.026468 0.248493
0.032362 0.026492 0.248790
0.033625 0.026540 0.249315
0.034851 0.026556 0.249542
0.036091 0.026582 0.249859
0.037341 0.026613 0.250236
0.038630 0.026668 0.250839
0.039850 0.026675 0.250986
0.041078 0.026685 0.251174
0.042300 0.026692 0.251329
0.043494 0.026681 0.251316
0.044737 0.026700 0.251584
0.045944 0.026697 0.251645
0.047111 0.026671 0.251494
0.048317 0.026668 0.251564
0.049504 0.026655 0.251534
0.050588 0.026589 0.251005
0.050740 0.026047 0.245985
0.050822 0.025494 0.240861
0.051537 0.025277 0.238901
0.052606 0.025238 0.238630
0.053691 0.025209 0.238450
0.054642 0.025120 0.237698
0.055508 0.024996 0.236619
0.055363 0.024431 0.231356
0.056133 0.024284 0.230053
0.056936 0.024156 0.228930
0.057999 0.024142 0.228883
0.058891 0.024058 0.228174
0.059742 0.023960 0.227336
0.060650 0.023889 0.226744
0.061579 0.023828 0.226248
0.062484 0.023760 0.225687
0.063362 0.023684 0.225048
0.064192 0.023594 0.224265
0.064963 0.023484 0.223303
0.065743 0.023382 0.222405
0.066278 0.023197 0.220719
0.066899 0.023047 0.219366
0.067584 0.022924 0.218262
0.068293 0.022813 0.217265
0.068984 0.022699 0.216241
0.069671 0.022587 0.215235
0.069986 0.022359 0.213122
0.070286 0.022133 0.211022
0.069761 0.021657 0.206537
0.070008 0.021431 0.204430
0.070507 0.021287 0.203101
0.071118 0.021181 0.202126
0.071668 0.021059 0.201003
0.072085 0.020902 0.199539
0.072697 0.020804 0.198642
0.073228 0.020687 0.197547
0.073787 0.020580 0.196551
0.074538 0.020529 0.196081
0.075069 0.020419 0.195050
0.075396 0.020257 0.193515
0.075160 0.019949 0.190587
0.075609 0.019829 0.189440
0.076247 0.019760 0.188783
0.076848 0.019683 0.188047
0.077224 0.019551 0.186780
0.077594 0.019421 0.185522
0.077837 0.019262 0.183990
0.078544 0.019220 0.183568
0.079118 0.019147 0.182844
0.079537 0.019038 0.181775
0.080190 0.018987 0.181254
0.080723 0.018909 0.180470
0.081114 0.018800 0.179382
0.081620 0.018719 0.178562
0.081986 0.018609 0.177451
0.081852 0.018388 0.175284
0.082305 0.018302 0.174399
0.082023 0.018056 0.171982
0.082561 0.017994 0.171312
0.083032 0.017918 0.170508
0.083191 0.017777 0.169078
0.083647 0.017702 0.168268
0.083486 0.017499 0.166234
0.083600 0.017356 0.164776
0.083716 0.017217 0.163341
0.084251 0.017166 0.162734
0.084651 0.017088 0.161871
-1.007850 0.213435 1.954087
-1.000037 0.213739 1.958064
-0.993476 0.214319 1.964491
-0.984994 0.214491 1.967111
-0.973562 0.214018 1.963738
-0.962850 0.213695 1.961671
-0.959320 0.214976 1.974254
-0.956478 0.216438 1.988437
-0.951128 0.217355 1.997562
-0.971605 0.226514 2.082981
-0.963319 0.226871 2.086787
-0.938640 0.223334 2.054713
-0.930461 0.223691 2.058392
-0.858419 0.208541 1.919294
-0.836606 0.205401 1.890651
-0.829829 0.205924 1.895676
-0.254429 0.086309 0.791341
-0.250582 0.086270 0.790704
-0.247531 0.086509 0.792599
-0.244617 0.086803 0.794999
-0.241543 0.087050 0.796945
-0.237439 0.086927 0.795503
-0.234599 0.087269 0.798319
-0.231703 0.087603 0.801036
-0.288214 0.110781 1.012559
-0.282025 0.110237 1.007151
-0.278081 0.110566 1.009721
-0.273524 0.110658 1.010125
-0.268695 0.110642 1.009532
-0.263725 0.110566 1.008392
-0.258330 0.110306 1.005567
-0.253486 0.110276 1.004836
-0.247921 0.109926 1.001182
-0.242467 0.109611 0.997862
-0.240269 0.110786 1.008088
-0.057076 0.026853 0.244237
-0.055813 0.026805 0.243682
-0.054521 0.026740 0.242983
-0.052989 0.026553 0.241166
-0.051544 0.026401 0.239680
-0.050247 0.026321 0.238839
-0.048947 0.026235 0.237949
-0.047104 0.025847 0.234320
-0.044982 0.025283 0.229106
-0.043286 0.024937 0.225862
-0.042219 0.024944 0.225829
-0.038926 0.023603 0.213585
-0.036976 0.023025 0.208263
-0.036274 0.023214 0.209880
-0.035347 0.023265 0.210255
-0.034420 0.023320 0.210655
-0.033549 0.023417 0.211442
-0.032853 0.023646 0.213420
-0.032018 0.023787 0.214602
-0.031053 0.023837 0.214966
-0.030127 0.023921 0.215640
-0.029234 0.024039 0.216619
-0.028343 0.024167 0.217690
-0.027374 0.024236 0.218228
-0.026415 0.024319 0.218898
-0.025429 0.024384 0.219402
-0.024375 0.024386 0.219346
-0.023466 0.024540 0.220656
-0.022457 0.024600 0.221123
-0.021409 0.024620 0.221233
-0.020416 0.024709 0.221969
-0.019385 0.024759 0.222353
-0.018361 0.024825 0.222888
-0.017316 0.024870 0.223225
-0.016275 0.024925 0.223667
-0.015237 0.024994 0.224231
-0.014190 0.025058 0.224746
-0.013150 0.025146 0.225488
-0.012096 0.025221 0.226115
-0.011023 0.025266 0.226474
-0.009960 0.025349 0.227176
-0.008883 0.025411 0.227698
-0.007828 0.025562 0.229020
-0.006738 0.025631 0.229602
-0.005635 0.025666 0.229887
-0.004537 0.025750 0.230616
-0.003439 0.025891 0.231857
-0.002321 0.025932 0.232205
-0.001201 0.026040 0.233154
-0.000072 0.026103 0.233709
0.001060 0.026125 0.233892
0.002196 0.026161 0.234213
0.003341 0.026242 0.234934
0.004487 0.026292 0.235388
0.005641 0.026353 0.235934
0.006804 0.026434 0.236664
0.007976 0.026517 0.237426
0.009168 0.026640 0.238541
0.010370 0.026761 0.239637
0.011554 0.026813 0.240129
0.012745 0.026873 0.240685
0.013931 0.026911 0.241059
0.015121 0.026952 0.241454
0.016319 0.026998 0.241905
0.017516 0.027039 0.242304
0.018749 0.027125 0.243118
0.019996 0.027220 0.244014
0.021239 0.027300 0.244777
0.022492 0.027383 0.245572
0.023729 0.027439 0.246132
0.024959 0.027482 0.246571
0.026155 0.027486 0.246663
0.027398 0.027536 0.247177
0.028664 0.027603 0.247845
0.029899 0.027638 0.248220
0.031150 0.027683 0.248699
0.032413 0.027736 0.249242
0.033696 0.027801 0.249901
0.035003 0.027880 0.250691
0.036200 0.027869 0.250673
0.037455 0.027903 0.251056
0.038655 0.027895 0.251066
0.039891 0.027912 0.251304
0.041113 0.027918 0.251450
0.042318 0.027913 0.251492
0.043583 0.027947 0.251884
0.044769 0.027929 0.251818
0.045967 0.027920 0.251828
0.047158 0.027907 0.251804
0.048357 0.027899 0.251824
0.049521 0.027872 0.251677
0.050586 0.027792 0.251046
0.050615 0.027159 0.245425
0.050889 0.026684 0.241224
0.051599 0.026453 0.239232
0.052623 0.026390 0.238754
0.053562 0.026289 0.237924
0.054449 0.026165 0.236902
0.055384 0.026070 0.236130
0.056023 0.025842 0.234157
0.056333 0.025474 0.230911
0.057111 0.025328 0.229672
0.058127 0.025291 0.229425
0.058912 0.025156 0.228289
0.059773 0.025059 0.227488
0.060631 0.024964 0.226707
0.061551 0.024896 0.226180
0.062448 0.024823 0.225589
0.063307 0.024736 0.224884
0.064203 0.024667 0.224332
0.064971 0.024552 0.223362
0.065839 0.024477 0.222757
0.066454 0.024313 0.221329
0.067018 0.024135 0.219780
0.067632 0.023980 0.218439
0.068318 0.023855 0.217368
0.068843 0.023679 0.215821
0.069426 0.023527 0.214496
0.069707 0.023279 0.212289
0.070324 0.023148 0.211153
0.070525 0.022887 0.208816
0.071014 0.022724 0.207380
0.071496 0.022564 0.205963
0.071917 0.022389 0.204409
0.072035 0.022126 0.202043
0.071921 0.021799 0.199095
0.071681 0.021444 0.195875
0.072478 0.021403 0.195530
0.073416 0.021405 0.195569
0.073848 0.021261 0.194272
0.074493 0.021181 0.193557
0.075107 0.021094 0.192777
0.075145 0.020849 0.190551
0.075310 0.020646 0.188692
0.075961 0.020578 0.188074
0.076591 0.020507 0.187418
0.076750 0.020312 0.185631
0.076888 0.020116 0.183831
0.077726 0.020106 0.183722
0.078338 0.020039 0.183080
0.078865 0.019951 0.182252
0.079443 0.019878 0.181554
0.080005 0.019802 0.180828
0.080554 0.019725 0.180081
0.080848 0.019588 0.178782
0.081072 0.019437 0.177350
0.081738 0.019393 0.176899
0.081879 0.019228 0.175326
0.082028 0.019067 0.173796
0.082207 0.018917 0.172351
0.082409 0.018775 0.170978
0.083080 0.018741 0.170588
0.083360 0.018621 0.169403
0.083272 0.018422 0.167491
0.083405 0.018274 0.166051
0.083355 0.018090 0.164269
0.083622 0.017978 0.163132
0.084000 0.017891 0.162223
0.084436 0.017818 0.161432
-1.022121 0.221789 1.943170
-1.019137 0.223149 1.956467
-0.995283 0.219922 1.929454
-0.997991 0.222560 1.953803
-0.992395 0.223377 1.962115
-0.980754 0.222836 1.958420
-0.972618 0.223089 1.961624
-0.960824 0.222500 1.957349
-0.954489 0.223176 1.964131
-0.951483 0.224651 1.977885
-0.950785 0.226706 1.996686
-0.938720 0.230671 2.033381
-0.936552 0.232508 2.050038
-0.858076 0.217503 1.918453
-0.845761 0.216659 1.911281
-0.830702 0.215086 1.897623
-1.349620 0.382283 3.372876
-1.336005 0.382925 3.378219
-0.254168 0.089961 0.790624
-0.250451 0.089966 0.790391
-0.246704 0.089960 0.790055
-0.244710 0.090603 0.795409
-0.241993 0.090995 0.798542
-0.236957 0.090513 0.794004
-0.234453 0.090999 0.797946
-0.293780 0.115891 1.015809
-0.288031 0.115514 1.012082
-0.284435 0.116002 1.015929
-0.278558 0.115560 1.011631
-0.274542 0.115889 1.014070
-0.269721 0.115883 1.013577
-0.264361 0.115642 1.011019
-0.259444 0.115588 1.010104
-0.254380 0.115466 1.008584
-0.249312 0.115338 1.007011
-0.244400 0.115278 1.006029
-0.240100 0.115511 1.007598
-0.055773 0.027948 0.243563
-0.054620 0.027951 0.243482
-0.053294 0.027864 0.242614
-0.051789 0.027678 0.240881
-0.050567 0.027638 0.240420
-0.049223 0.027528 0.239351
-0.047534 0.027214 0.236519
-0.045247 0.026536 0.230515
-0.043890 0.026382 0.229076
-0.042361 0.026115 0.226653
-0.040772 0.025795 0.223777
-0.037868 0.024604 0.213350
-0.036001 0.024038 0.208358
-0.035246 0.024205 0.209711
-0.034363 0.024292 0.210371
-0.033513 0.024407 0.211281
-0.032792 0.024626 0.213086
-0.031954 0.024769 0.214236
-0.031074 0.024888 0.215178
-0.030095 0.024932 0.215480
-0.029154 0.025013 0.216092
-0.028189 0.025079 0.216577
-0.027232 0.025156 0.217165
-0.026265 0.025230 0.217729
-0.025298 0.025311 0.218347
-0.024328 0.025395 0.218996
-0.023367 0.025498 0.219811
-0.022429 0.025635 0.220923
-0.021414 0.025694 0.221363
-0.020400 0.025761 0.221874
-0.019387 0.025837 0.222458
-0.018340 0.025873 0.222714
-0.017309 0.025938 0.223213
-0.016259 0.025982 0.223531
-0.015200 0.026017 0.223783
-0.014156 0.026084 0.224304
-0.013126 0.026190 0.225170
-0.012077 0.026276 0.225862
-0.011017 0.026351 0.226460
-0.009945 0.026412 0.226942
-0.008879 0.026505 0.227705
-0.007814 0.026626 0.228716
-0.006718 0.026668 0.229040
-0.005630 0.026761 0.229817
-0.004539 0.026883 0.230835
-0.003430 0.026950 0.231384
-0.002317 0.027029 0.232049
-0.001199 0.027146 0.233035
-0.000071 0.027186 0.233369
0.001060 0.027234 0.233775
0.002197 0.027290 0.234244
0.003338 0.027351 0.234766
0.004484 0.027407 0.235248
0.005632 0.027450 0.235624
0.006789 0.027513 0.236171
0.007965 0.027626 0.237153
0.009145 0.027721 0.237982
0.010337 0.027826 0.238906
0.011521 0.027894 0.239507
0.012716 0.027971 0.240194
0.013906 0.028026 0.240690
0.015109 0.028095 0.241313
0.016303 0.028140 0.241740
0.017496 0.028176 0.242083
0.018737 0.028281 0.243022
0.019990 0.028390 0.244004
0.021287 0.028546 0.245397
0.022507 0.028588 0.245802
0.023726 0.028623 0.246162
0.024957 0.028670 0.246620
0.026156 0.028677 0.246734
0.027380 0.028710 0.247078
0.028622 0.028757 0.247550
0.029884 0.028820 0.248161
0.031128 0.028862 0.248587
0.032415 0.028939 0.249320
0.033686 0.028996 0.249887
0.034977 0.029066 0.250565
0.036201 0.029078 0.250747
0.037399 0.029068 0.250743
0.038647 0.029097 0.251071
0.039872 0.029107 0.251243
0.041078 0.029103 0.251296
0.042331 0.029132 0.251629
0.043534 0.029125 0.251661
0.044765 0.029137 0.251853
0.045995 0.029147 0.252035
0.047178 0.029129 0.251965
0.048374 0.029119 0.251972
0.049587 0.029119 0.252066
0.050607 0.029008 0.251203
0.050329 0.028176 0.244092
0.051002 0.027903 0.241811
0.051687 0.027647 0.239689
0.052794 0.027624 0.239578
0.053757 0.027528 0.238836
0.054745 0.027448 0.238237
0.055743 0.027377 0.237708
0.056177 0.027037 0.234843
0.056296 0.026561 0.230799
0.056957 0.026354 0.229092
0.057934 0.026300 0.228701
0.058847 0.026218 0.228077
0.059709 0.026117 0.227279
0.060528 0.026001 0.226357
0.061455 0.025935 0.225860
0.062376 0.025869 0.225360
0.063229 0.025777 0.224640
0.064129 0.025707 0.224104
0.064964 0.025613 0.223364
0.065715 0.025490 0.222364
0.066313 0.025313 0.220886
0.067009 0.025178 0.219777
0.067595 0.025006 0.218342
0.068224 0.024855 0.217090
0.068861 0.024712 0.215898
0.069502 0.024574 0.214752
0.069968 0.024379 0.213105
0.070575 0.024238 0.211926
0.070644 0.023919 0.209185
0.071145 0.023753 0.207780
0.071551 0.023561 0.206137
0.072108 0.023422 0.204963
0.072554 0.023252 0.203509
0.072991 0.023083 0.202065
0.073373 0.022901 0.200506
0.073221 0.022560 0.197542
0.073592 0.022386 0.196044
0.073965 0.022218 0.194585
0.074562 0.022119 0.193740
0.074703 0.021890 0.191742
0.075086 0.021736 0.190402
0.075592 0.021621 0.189398
0.076011 0.021485 0.188199
0.076623 0.021405 0.187495
0.076689 0.021176 0.185480
0.076856 0.020980 0.183750
0.077344 0.020875 0.182813
0.078199 0.020871 0.182750
0.078714 0.020776 0.181896
0.079216 0.020681 0.181026
0.079779 0.020603 0.180306
0.080201 0.020491 0.179282
0.080742 0.020411 0.178536
0.081173 0.020305 0.177558
0.081424 0.020157 0.176205
0.081835 0.020051 0.175217
0.081637 0.019800 0.172950
0.081929 0.019671 0.171751
0.082331 0.019571 0.170797
0.082557 0.019431 0.169493
0.082903 0.019322 0.168451
0.083123 0.019186 0.167169
0.083360 0.019057 0.165938
0.083236 0.018848 0.164009
0.083469 0.018723 0.162808
0.083928 0.018651 0.162057
0.084474 0.018599 0.161477
-1.029380 0.232656 1.956653
-1.024569 0.233671 1.966592
-0.989636 0.227771 1.918227
-1.001972 0.232742 1.961328
-0.993102 0.232835 1.963257
-0.980851 0.232128 1.958375
-0.970852 0.231947 1.957841
-0.960540 0.231687 1.956562
-0.952150 0.231890 1.959124
-0.949922 0.233612 1.974460
-0.944490 0.234572 1.983300
-0.945491 0.241998 2.047922
-0.941394 0.243430 2.060522
-0.933178 0.243815 2.064210
-0.857252 0.226332 1.916532
-0.833316 0.222349 1.883090
-0.831620 0.224279 1.899668
-1.398484 0.398553 3.376570
-1.378834 0.397463 3.367251
-1.360004 0.396587 3.359672
-1.337057 0.394475 3.341559
-1.334338 0.398352 3.374104
-1.321134 0.399155 3.380537
-0.254423 0.093795 0.791517
-0.250894 0.093873 0.791894
-0.247284 0.093921 0.792020
-0.244032 0.094110 0.793320
-0.241248 0.094487 0.796202
-0.237003 0.094295 0.794279
-0.297910 0.120436 1.014076
-0.293588 0.120632 1.015312
-0.288637 0.120570 1.014384
-0.284910 0.121027 1.017806
-0.279825 0.120913 1.016418
-0.274830 0.120834 1.015323
-0.270058 0.120852 1.015037
-0.264814 0.120657 1.012950
-0.259319 0.120337 1.009819
-0.253740 0.119965 1.006255
-0.249367 0.120161 1.007446
-0.244445 0.120094 1.006437
-0.237884 0.119203 0.998520
-0.055439 0.029550 0.247193
-0.053376 0.029068 0.243046
-0.052007 0.028950 0.241955
-0.050614 0.028814 0.240705
-0.049191 0.028654 0.239257
-0.047640 0.028410 0.237114
-0.045930 0.028057 0.234062
-0.043931 0.027505 0.229352
-0.042674 0.027401 0.228389
-0.041500 0.027347 0.227837
-0.040460 0.027381 0.228020
-0.036692 0.025519 0.212421
-0.035043 0.025067 0.208571
-0.034323 0.025272 0.210190
-0.033444 0.025369 0.210907
-0.032684 0.025565 0.212451
-0.031763 0.025645 0.213028
-0.030846 0.025733 0.213670
-0.030022 0.025906 0.215025
-0.029081 0.025988 0.215626
-0.028124 0.026061 0.216150
-0.027172 0.026145 0.216765
-0.026216 0.026231 0.217401
-0.025229 0.026292 0.217827
-0.024274 0.026393 0.218594
-0.023324 0.026509 0.219484
-0.022375 0.026637 0.220473
-0.021396 0.026741 0.221265
-0.020381 0.026808 0.221748
-0.019399 0.026929 0.222691
-0.018378 0.027007 0.223268
-0.017346 0.027076 0.223782
-0.016298 0.027129 0.224162
-0.015245 0.027180 0.224534
-0.014194 0.027243 0.225000
-0.013127 0.027283 0.225282
-0.012071 0.027357 0.225844
-0.011015 0.027444 0.226520
-0.009945 0.027513 0.227048
-0.008879 0.027608 0.227799
-0.007811 0.027728 0.228754
-0.006717 0.027774 0.229100
-0.005619 0.027825 0.229499
-0.004525 0.027923 0.230283
-0.003438 0.028140 0.232047
-0.002318 0.028174 0.232306
-0.001195 0.028214 0.232624
-0.000070 0.028329 0.233557
0.001062 0.028382 0.233988
0.002196 0.028404 0.234166
0.003348 0.028556 0.235417
0.004490 0.028574 0.235559
0.005641 0.028630 0.236032
0.006798 0.028687 0.236509
0.007965 0.028769 0.237198
0.009145 0.028868 0.238020
0.010340 0.028989 0.239043
0.011508 0.029016 0.239284
0.012706 0.029107 0.240056
0.013897 0.029169 0.240598
0.015094 0.029230 0.241134
0.016290 0.029283 0.241600
0.017505 0.029360 0.242274
0.018698 0.029392 0.242579
0.019932 0.029482 0.243360
0.021175 0.029574 0.244169
0.022439 0.029684 0.245126
0.023711 0.029792 0.246072
0.024936 0.029835 0.246479
0.026110 0.029814 0.246363
0.027341 0.029859 0.246793
0.028606 0.029934 0.247479
0.029852 0.029984 0.247959
0.031106 0.030038 0.248473
0.032382 0.030109 0.249131
0.033752 0.030259 0.250441
0.034965 0.030262 0.250547
0.036169 0.030258 0.250588
0.037407 0.030282 0.250862
0.038625 0.030288 0.250993
0.039879 0.030321 0.251352
0.041071 0.030307 0.251316
0.042290 0.030312 0.251448
0.043523 0.030327 0.251656
0.044708 0.030308 0.251592
0.045916 0.030306 0.251663
0.047108 0.030293 0.251649
0.048295 0.030278 0.251613
0.049462 0.030252 0.251486
0.050465 0.030128 0.250552
0.050368 0.029369 0.244330
0.050857 0.028979 0.241175
0.051461 0.028670 0.238691
0.052521 0.028622 0.238388
0.053515 0.028542 0.237806
0.054395 0.028405 0.236759
0.055309 0.028292 0.235899
0.056016 0.028078 0.234210
0.056183 0.027609 0.230380
0.056982 0.027461 0.229233
0.058015 0.027431 0.229060
0.058790 0.027281 0.227892
0.059541 0.027125 0.226677
0.060364 0.027008 0.225776
0.061288 0.026939 0.225281
0.062175 0.026856 0.224667
0.063084 0.026786 0.224154
0.064059 0.026746 0.223891
0.064867 0.026638 0.223061
0.065830 0.026596 0.222782
0.066393 0.026396 0.221181
0.066826 0.026152 0.219201
0.067302 0.025932 0.217422
0.068133 0.025853 0.216822
0.068747 0.025696 0.215563
0.069414 0.025563 0.214500
0.069972 0.025394 0.213136
0.070626 0.025264 0.212094
0.070930 0.025014 0.210046
0.071482 0.024857 0.208776
0.072063 0.024715 0.207624
0.072595 0.024560 0.206360
0.072749 0.024283 0.204068
0.071981 0.023710 0.199281
0.072626 0.023610 0.198473
0.073102 0.023459 0.197229
0.073744 0.023365 0.196455
0.074286 0.023241 0.195434
0.074694 0.023080 0.194087
0.075103 0.022922 0.192770
0.074885 0.022579 0.189894
0.075223 0.022410 0.188473
0.075836 0.022326 0.187763
0.076392 0.022227 0.186926
0.076368 0.021964 0.184700
0.076803 0.021837 0.183620
0.077444 0.021771 0.183045
0.078051 0.021697 0.182396
0.078714 0.021640 0.181887
0.078997 0.021481 0.180515
0.078767 0.021187 0.178008
0.079663 0.021199 0.178068
0.080632 0.021230 0.178279
0.080784 0.021048 0.176694
0.081246 0.020949 0.175804
0.081440 0.020784 0.174354
0.081637 0.020623 0.172931
0.081807 0.020458 0.171475
0.082120 0.020332 0.170339
0.082790 0.020296 0.169950
0.083208 0.020199 0.169048
0.083702 0.020123 0.168310
0.084202 0.020050 0.167588
0.083482 0.019690 0.164468
0.083749 0.019567 0.163326
0.084025 0.019449 0.162214
0.084422 0.019361 0.161346
-1.009345 0.237239 1.918241
-1.031852 0.244730 1.980249
-1.003767 0.240250 1.945320
-0.991896 0.239603 1.941321
-0.995262 0.242660 1.967260
-0.983828 0.242132 1.964068
-0.970434 0.241106 1.956761
-0.960966 0.241046 1.957210
-0.953096 0.241390 1.960866
-0.947185 0.242241 1.968580
-0.942388 0.243397 1.978709
-0.931858 0.248033 2.018257
-0.929284 0.249894 2.033897
-0.856883 0.235268 1.915621
-0.847716 0.235224 1.915559
-0.830269 0.232856 1.896523
-1.416123 0.410382 3.343186
-1.395893 0.409058 3.332495
-1.397812 0.414268 3.374956
-1.384232 0.414951 3.380465
-1.354398 0.410722 3.345877
-1.346944 0.413259 3.366343
-1.333337 0.413947 3.371671
-1.320451 0.414877 3.378911
-0.259550 0.098066 0.796147
-0.254041 0.097393 0.790427
-0.250113 0.097316 0.789531
-0.246229 0.097254 0.788752
-0.243984 0.097848 0.793278
-0.241064 0.098185 0.795716
-0.237691 0.098345 0.796710
-0.300353 0.126272 1.022558
-0.293794 0.125536 1.016196
-0.288788 0.125450 1.015091
-0.284796 0.125808 1.017579
-0.279760 0.125711 1.016368
-0.274955 0.125715 1.015977
-0.270052 0.125675 1.015214
-0.265284 0.125696 1.014951
-0.259832 0.125389 1.012030
-0.254471 0.125114 1.009371
-0.249668 0.125109 1.008884
-0.244100 0.124713 1.005242
-0.238307 0.124183 1.000525
-0.055396 0.030706 0.247061
-0.053531 0.030316 0.243815
-0.051882 0.030034 0.241435
-0.050461 0.029874 0.240038
-0.049120 0.029755 0.238978
-0.047623 0.029533 0.237093
-0.045810 0.029100 0.233510
-0.044334 0.028866 0.231526
-0.042976 0.028697 0.230074
-0.041644 0.028538 0.228695
-0.040354 0.028399 0.227487
-0.037494 0.027118 0.217131
-0.035030 0.026058 0.208559
-0.034293 0.026258 0.210070
-0.033361 0.026317 0.210451
-0.032569 0.026493 0.211777
-0.031725 0.026637 0.212839
-0.030899 0.026806 0.214105
-0.030019 0.026939 0.215081
-0.029033 0.026982 0.215343
-0.028086 0.027065 0.215928
-0.027128 0.027145 0.216490
-0.026209 0.027271 0.217416
-0.025255 0.027370 0.218132
-0.024279 0.027453 0.218720
-0.023327 0.027572 0.219591
-0.022415 0.027751 0.220949
-0.021409 0.027827 0.221483
-0.020377 0.027875 0.221801
-0.019375 0.027970 0.222497
-0.018357 0.028053 0.223098
-0.017306 0.028093 0.223356
-0.016263 0.028152 0.223771
-0.015240 0.028257 0.224548
-0.014185 0.028314 0.224952
-0.013120 0.028359 0.225259
-0.012069 0.028445 0.225901
-0.011004 0.028514 0.226404
-0.009943 0.028607 0.227101
-0.008879 0.028713 0.227904
-0.007799 0.028791 0.228496
-0.006714 0.028877 0.229148
-0.005625 0.028972 0.229874
-0.004519 0.029009 0.230140
-0.003418 0.029108 0.230905
-0.002314 0.029273 0.232191
-0.001196 0.029376 0.232997
-0.000069 0.029447 0.233550
0.001063 0.029495 0.233918
0.002198 0.029539 0.234259
0.003339 0.029609 0.234812
0.004498 0.029757 0.235986
0.005638 0.029749 0.235930
0.006790 0.029791 0.236273
0.007972 0.029938 0.237448
0.009135 0.029984 0.237827
0.010331 0.030116 0.238888
0.011525 0.030214 0.239686
0.012712 0.030279 0.240228
0.013884 0.030301 0.240425
0.015071 0.030349 0.240837
0.016267 0.030406 0.241323
0.017459 0.030448 0.241697
0.018687 0.030546 0.242509
0.019891 0.030593 0.242931
0.021098 0.030640 0.243347
0.022370 0.030771 0.244438
0.023627 0.030870 0.245269
0.024865 0.030935 0.245845
0.026072 0.030957 0.246073
0.027292 0.030993 0.246419
0.028536 0.031050 0.246937
0.029813 0.031138 0.247703
0.031039 0.031169 0.248013
0.032315 0.031244 0.248681
0.033598 0.031321 0.249364
0.034870 0.031383 0.249933
0.036158 0.031454 0.250576
0.037353 0.031443 0.250566
0.038577 0.031456 0.250747
0.039825 0.031487 0.251077
0.041067 0.031511 0.251352
0.042282 0.031514 0.251462
0.043467 0.031495 0.251397
0.044689 0.031503 0.251548
0.045875 0.031486 0.251498
0.047020 0.031443 0.251241
0.048212 0.031432 0.251242
0.049433 0.031439 0.251395
0.050484 0.031341 0.250704
0.050735 0.030763 0.246169
0.050931 0.030178 0.241575
0.051476 0.029821 0.238811
0.052416 0.029704 0.237958
0.053433 0.029634 0.237489
0.054301 0.029487 0.236395
0.055124 0.029322 0.235157
0.055913 0.029145 0.233825
0.056246 0.028742 0.230678
0.057162 0.028647 0.230000
0.057839 0.028438 0.228406
0.058615 0.028284 0.227254
0.059516 0.028195 0.226619
0.060356 0.028082 0.225784
0.061169 0.027959 0.224877
0.062088 0.027889 0.224386
0.062947 0.027794 0.223700
0.063788 0.027695 0.222973
0.064684 0.027622 0.222463
0.065533 0.027532 0.221805
0.066428 0.027464 0.221324
0.067135 0.027321 0.220241
0.067535 0.027060 0.218197
0.068322 0.026959 0.217448
0.069022 0.026828 0.216445
0.069380 0.026569 0.214416
0.069983 0.026411 0.213186
0.070572 0.026251 0.211952
0.071382 0.026177 0.211401
0.071856 0.025984 0.209885
0.072303 0.025787 0.208329
0.072638 0.025555 0.206495
0.072712 0.025239 0.203975
0.072344 0.024780 0.200294
0.072957 0.024664 0.199386
0.073149 0.024411 0.197364
0.073760 0.024302 0.196504
0.073979 0.024069 0.194632
0.074389 0.023903 0.193299
0.074471 0.023636 0.191152
0.074885 0.023480 0.189895
0.075443 0.023372 0.189023
0.075745 0.023189 0.187536
0.075984 0.022991 0.185925
0.076334 0.022830 0.184614
0.076615 0.022653 0.183164
0.077293 0.022596 0.182680
0.077986 0.022544 0.182236
0.078516 0.022447 0.181420
0.079105 0.022368 0.180751
0.079634 0.022275 0.179955
0.080115 0.022170 0.179063
0.080780 0.022118 0.178592
0.081102 0.021974 0.177372
0.081503 0.021854 0.176344
0.081576 0.021649 0.174626
0.081983 0.021537 0.173647
0.082377 0.021423 0.172650
0.082512 0.021244 0.171130
0.082584 0.021054 0.169505
0.083318 0.021034 0.169248
0.083660 0.020916 0.168199
0.083908 0.020777 0.166976
0.083939 0.020588 0.165340
0.083919 0.020390 0.163629
0.084495 0.020338 0.163090
0.084966 0.020263 0.162354
-1.031509 0.254045 1.979254
-1.006319 0.250111 1.949950
-0.996199 0.249885 1.949446
-0.987843 0.250101 1.952313
-0.981266 0.250776 1.958688
-0.968536 0.249876 1.952685
-0.956088 0.249033 1.947045
-0.950488 0.249974 1.955284
-0.945740 0.251160 1.965376
-0.942010 0.252642 1.977729
-0.935021 0.258432 2.024963
-0.928884 0.259379 2.032892
-0.873736 0.246517 1.932514
-0.855760 0.243982 1.913016
-0.836933 0.241149 1.891113
-0.827474 0.240984 1.890074
-1.415439 0.425934 3.341529
-1.392810 0.423826 3.325113
-1.391530 0.428241 3.359790
-1.370885 0.426729 3.347897
-1.357385 0.427432 3.353303
-1.338832 0.426542 3.346140
-1.325498 0.427313 3.351939
-1.319746 0.430577 3.377222
-0.259384 0.101766 0.795736
-0.253289 0.100833 0.788190
-0.249971 0.100995 0.789191
-0.246945 0.101282 0.791157
-0.243281 0.101311 0.791107
-0.240105 0.101548 0.792670
-0.304486 0.130818 1.020763
-0.300145 0.131029 1.022021
-0.293860 0.130385 1.016600
-0.288450 0.130114 1.014084
-0.284346 0.130432 1.016160
-0.279772 0.130543 1.016604
-0.275054 0.130589 1.016542
-0.270244 0.130592 1.016140
-0.265623 0.130689 1.016460
-0.260333 0.130454 1.014197
-0.255481 0.130434 1.013601
-0.250158 0.130167 1.011089
-0.244455 0.129689 1.006934
-0.237383 0.128451 0.996881
-0.056020 0.031574 0.244819
-0.054933 0.031619 0.245059
-0.053034 0.031188 0.241611
-0.051716 0.031087 0.240724
-0.050442 0.031009 0.240014
-0.049009 0.030828 0.238504
-0.047374 0.030507 0.235920
-0.045675 0.030128 0.232889
-0.044191 0.029877 0.230845
-0.042933 0.029769 0.229911
-0.041732 0.029696 0.229246
-0.040370 0.029502 0.227652
-0.038833 0.029165 0.224953
-0.037801 0.029199 0.225124
-0.034200 0.027193 0.209570
-0.033243 0.027231 0.209778
-0.032360 0.027334 0.210488
-0.031492 0.027457 0.211351
-0.030618 0.027582 0.212230
-0.029880 0.027843 0.214156
-0.029033 0.028017 0.215416
-0.028047 0.028066 0.215713
-0.027109 0.028168 0.216412
-0.026162 0.028268 0.217110
-0.025186 0.028344 0.217618
-0.024229 0.028449 0.218354
-0.023291 0.028587 0.219335
-0.022362 0.028750 0.220517
-0.021359 0.028829 0.221056
-0.020357 0.028916 0.221663
-0.019368 0.029035 0.222510
-0.018356 0.029130 0.223177
-0.017319 0.029196 0.223627
-0.016275 0.029257 0.224038
-0.015239 0.029342 0.224634
-0.014187 0.029408 0.225092
-0.013125 0.029462 0.225460
-0.012062 0.029524 0.225885
-0.011017 0.029645 0.226768
-0.009953 0.029738 0.227444
-0.008879 0.029819 0.228024
-0.007807 0.029933 0.228862
-0.006711 0.029974 0.229147
-0.005614 0.030033 0.229571
-0.004518 0.030121 0.230218
-0.003412 0.030185 0.230688
-0.002301 0.030240 0.231086
-0.001190 0.030400 0.232297
-0.000067 0.030557 0.233485
0.001065 0.030642 0.234119
0.002200 0.030683 0.234428
0.003347 0.030808 0.235385
0.004490 0.030833 0.235572
0.005642 0.030905 0.236128
0.006792 0.030939 0.236396
0.007962 0.031042 0.237195
0.009131 0.031115 0.237767
0.010334 0.031275 0.239002
0.011515 0.031343 0.239543
0.012675 0.031348 0.239602
0.013876 0.031442 0.240350
0.015060 0.031488 0.240731
0.016253 0.031542 0.241179
0.017440 0.031581 0.241513
0.018629 0.031616 0.241818
0.019833 0.031672 0.242285
0.021047 0.031736 0.242821
0.022303 0.031855 0.243778
0.023572 0.031977 0.244766
0.024791 0.032024 0.245179
0.026008 0.032065 0.245545
0.027242 0.032120 0.246030
0.028519 0.032221 0.246861
0.029761 0.032275 0.247338
0.031013 0.032335 0.247869
0.032278 0.032405 0.248470
0.033509 0.032436 0.248777
0.034854 0.032571 0.249886
0.036085 0.032594 0.250138
0.037302 0.032604 0.250289
0.038527 0.032619 0.250489
0.039749 0.032632 0.250663
0.040983 0.032653 0.250906
0.042210 0.032666 0.251096
0.043436 0.032679 0.251281
0.044638 0.032674 0.251324
0.045839 0.032667 0.251361
0.046993 0.032629 0.251154
0.048191 0.032622 0.251191
0.049381 0.032610 0.251189
0.050288 0.032416 0.249786
0.049933 0.031438 0.242332
0.050748 0.031222 0.240762
0.051405 0.030922 0.238532
0.052490 0.030887 0.238347
0.053498 0.030808 0.237829
0.054238 0.030582 0.236171
0.054932 0.030340 0.234384
0.055812 0.030207 0.233447
0.056664 0.030066 0.232437
0.057278 0.029806 0.230509
0.057900 0.029560 0.228686
0.058625 0.029374 0.227330
0.059334 0.029187 0.225965
0.060332 0.029147 0.225733
0.061220 0.029056 0.225103
0.062112 0.028970 0.224509
0.063051 0.028908 0.224105
0.064044 0.028872 0.223903
0.065071 0.028853 0.223823
0.065857 0.028729 0.222933
0.066290 0.028458 0.220891
0.067068 0.028341 0.220047
0.067731 0.028179 0.218856
0.068453 0.028047 0.217889
0.069045 0.027866 0.216539
0.069507 0.027639 0.214827
0.070068 0.027457 0.213466
0.070428 0.027203 0.211535
0.070942 0.027014 0.210116
0.071843 0.026976 0.209863
0.072661 0.026909 0.209376
0.073129 0.026715 0.207904
0.073510 0.026495 0.206224
0.072910 0.025932 0.201872
0.073334 0.025743 0.200424
0.073834 0.025585 0.199217
0.074214 0.025390 0.197719
0.074330 0.025111 0.195559
0.074629 0.024899 0.193923
0.074791 0.024648 0.191975
0.074990 0.024415 0.190160
0.075283 0.024218 0.188622
0.075374 0.023961 0.186615
0.075833 0.023825 0.185552
0.076484 0.023753 0.184972
0.076957 0.023627 0.183977
0.077410 0.023498 0.182948
0.077921 0.023389 0.182076
0.078478 0.023297 0.181324
0.079054 0.023212 0.180624
0.079662 0.023138 0.180007
0.080128 0.023025 0.179080
0.080652 0.022930 0.178295
0.081106 0.022818 0.177366
0.081293 0.022634 0.175872
0.081763 0.022532 0.175009
0.082055 0.022383 0.173778
0.082319 0.022229 0.172508
0.082464 0.022047 0.171008
0.082913 0.021949 0.170155
0.083330 0.021844 0.169247
0.083587 0.021700 0.168026
0.083858 0.021562 0.166847
0.084150 0.021432 0.165726
0.084334 0.021277 0.164407
0.084398 0.021095 0.162872
0.084613 0.020954 0.161646
-1.001260 0.260444 1.959034
-0.993394 0.260809 1.962986
-0.982789 0.260454 1.961446
-0.966046 0.258451 1.947404
-0.954202 0.257734 1.942960
-0.947208 0.258324 1.948309
-0.939694 0.258784 1.952600
-0.930876 0.258889 1.954157
-0.922292 0.264341 1.997244
-0.902062 0.261204 1.974054
-0.873341 0.255517 1.931523
-0.854721 0.252698 1.910592
-0.834205 0.249252 1.884865
-0.828909 0.250328 1.893278
-0.821320 0.250728 1.896530
-1.413367 0.441038 3.336583
-1.391163 0.438979 3.321152
-1.384651 0.441881 3.343176
-1.369088 0.441929 3.343526
-1.352437 0.441622 3.341121
-1.338776 0.442296 3.346065
-1.323613 0.442484 3.347263
-1.319564 0.446437 3.376869
-1.305850 0.447176 3.382098
-0.260330 0.105914 0.798741
-0.256986 0.106088 0.799800
-0.250502 0.104952 0.790978
-0.245998 0.104624 0.788238
-0.244443 0.105559 0.795008
-0.241079 0.105730 0.796012
-0.299548 0.135604 1.020163
-0.294163 0.135345 1.017827
-0.288816 0.135096 1.015555
-0.284491 0.135324 1.016870
-0.279986 0.135473 1.017580
-0.275309 0.135543 1.017689
-0.270376 0.135487 1.016846
-0.265772 0.135597 1.017246
-0.260546 0.135388 1.015247
-0.256145 0.135608 1.016463
-0.250643 0.135242 1.013282
-0.245067 0.134821 1.009696
-0.240624 0.135019 1.010737
-0.055197 0.032260 0.241285
-0.054182 0.032340 0.241772
-0.052928 0.032276 0.241193
-0.051611 0.032171 0.240300
-0.050105 0.031941 0.238476
-0.048920 0.031909 0.238136
-0.047338 0.031611 0.235805
-0.045365 0.031031 0.231377
-0.043877 0.030761 0.229270
-0.042546 0.030592 0.227910
-0.041259 0.030445 0.226721
-0.040173 0.030444 0.226613
-0.038475 0.029965 0.222951
-0.037353 0.029921 0.222532
-0.034777 0.028674 0.213173
-0.033093 0.028110 0.208898
-0.032245 0.028245 0.209812
-0.031429 0.028415 0.210996
-0.030601 0.028587 0.212190
-0.029800 0.028796 0.213661
-0.028891 0.028912 0.214441
-0.027903 0.028955 0.214683
-0.026966 0.029055 0.215351
-0.026098 0.029242 0.216661
-0.025142 0.029341 0.217321
-0.024166 0.029424 0.217864
-0.023233 0.029571 0.218877
-0.022265 0.029684 0.219648
-0.021317 0.029836 0.220709
-0.020301 0.029904 0.221147
-0.019323 0.030039 0.222084
-0.018330 0.030165 0.222953
-0.017297 0.030238 0.223433
-0.016258 0.030308 0.223898
-0.015220 0.030391 0.224457
-0.014186 0.030495 0.225179
-0.013121 0.030543 0.225484
-0.012072 0.030641 0.226166
-0.011013 0.030733 0.226801
-0.009947 0.030822 0.227420
-0.008878 0.030922 0.228116
-0.007793 0.030987 0.228566
-0.006709 0.031080 0.229223
-0.005613 0.031141 0.229645
-0.004505 0.031152 0.229699
-0.003405 0.031246 0.230371
-0.002299 0.031348 0.231104
-0.001189 0.031528 0.232417
-0.000066 0.031623 0.233109
0.001062 0.031660 0.233371
0.002199 0.031784 0.234278
0.003336 0.031825 0.234577
0.004504 0.032062 0.236327
0.005642 0.032040 0.236166
0.006793 0.032082 0.236484
0.007962 0.032184 0.237249
0.009125 0.032240 0.237670
0.010305 0.032335 0.238390
0.011494 0.032439 0.239175
0.012665 0.032476 0.239475
0.013859 0.032561 0.240123
0.015044 0.032613 0.240534
0.016227 0.032654 0.240869
0.017422 0.032711 0.241329
0.018601 0.032733 0.241524
0.019791 0.032771 0.241850
0.021003 0.032838 0.242389
0.022260 0.032965 0.243374
0.023563 0.033144 0.244742
0.024785 0.033198 0.245191
0.025975 0.033205 0.245302
0.027205 0.033260 0.245769
0.028421 0.033295 0.246085
0.029623 0.033310 0.246261
0.030853 0.033356 0.246659
0.032224 0.033545 0.248125
0.033463 0.033587 0.248504
0.034714 0.033638 0.248954
0.036047 0.033761 0.249944
0.037258 0.033767 0.250061
0.038425 0.033734 0.249895
0.039709 0.033801 0.250474
0.040956 0.033835 0.250807
0.042144 0.033819 0.250771
0.043314 0.033790 0.250638
0.044514 0.033786 0.250689
0.045677 0.033754 0.250539
0.046821 0.033710 0.250299
0.047983 0.033681 0.250168
0.049183 0.033679 0.250245
0.050266 0.033599 0.249740
0.050202 0.032773 0.243690
0.050466 0.032195 0.239477
0.051422 0.032075 0.238666
0.052313 0.031919 0.237595
0.053344 0.031854 0.237196
0.053952 0.031544 0.234973
0.054730 0.031345 0.233572
0.055633 0.031223 0.232746
0.056414 0.031039 0.231458
0.057271 0.030903 0.230525
0.058064 0.030738 0.229375
0.058738 0.030518 0.227812
0.059472 0.030336 0.226531
0.060211 0.030163 0.225317
0.060879 0.029961 0.223886
0.061688 0.029834 0.223010
0.062627 0.029774 0.222630
0.063576 0.029720 0.222299
0.064477 0.029646 0.221812
0.065304 0.029540 0.221089
0.066165 0.029454 0.220505
0.067039 0.029375 0.219978
0.067691 0.029203 0.218753
0.068428 0.029072 0.217832
0.069103 0.028920 0.216745
0.069794 0.028778 0.215736
0.070440 0.028623 0.214619
0.071239 0.028533 0.213992
0.071908 0.028394 0.212994
0.072308 0.028154 0.211237
0.072667 0.027905 0.209407
0.073256 0.027750 0.208276
0.073874 0.027610 0.207258
0.074229 0.027376 0.205534
0.073987 0.026931 0.202218
0.073626 0.026455 0.198664
0.074038 0.026265 0.197254
0.074409 0.026066 0.195772
0.074450 0.025758 0.193463
0.074739 0.025541 0.191843
0.075099 0.025354 0.190437
0.075191 0.025082 0.188390
0.075407 0.024857 0.186695
0.075855 0.024713 0.185601
0.076466 0.024625 0.184924
0.076848 0.024465 0.183708
0.077415 0.024368 0.182952
0.077921 0.024254 0.182067
0.078490 0.024162 0.181341
0.079155 0.024100 0.180842
0.079616 0.023979 0.179890
0.080120 0.023873 0.179048
0.080733 0.023802 0.178457
0.081222 0.023695 0.177603
0.081503 0.023531 0.176307
0.081626 0.023325 0.174694
0.081208 0.022970 0.171964
0.081632 0.022858 0.171044
0.082100 0.022761 0.170228
0.082394 0.022617 0.169065
0.082856 0.022522 0.168257
0.083347 0.022437 0.167515
0.083910 0.022372 0.166922
0.084179 0.022231 0.165752
0.084431 0.022089 0.164564
0.084570 0.021919 0.163170
0.084670 0.021743 0.161719
-0.979404 0.266307 1.935030
-0.985167 0.270397 1.965895
-0.969018 0.268493 1.953119
-0.955618 0.267322 1.945584
-0.949500 0.268185 1.952781
-0.942535 0.268823 1.958277
-0.936499 0.269742 1.965751
-0.927193 0.275223 2.007693
-0.922766 0.276728 2.019215
-0.914685 0.277158 2.022829
-0.849380 0.260075 1.898545
-0.837685 0.259218 1.892632
-0.826108 0.258380 1.886802
-0.806548 0.254999 1.862354
-1.434457 0.458496 3.348901
-1.420997 0.459232 3.354533
-1.407501 0.459973 3.360117
-1.387215 0.458487 3.349355
-1.370817 0.458266 3.347759
-1.349961 0.456533 3.335039
-1.339030 0.458155 3.346759
-1.324249 0.458483 3.348956
-1.316343 0.461228 3.368734
-1.312553 0.465499 3.399594
-0.298961 0.140164 1.018339
-0.294370 0.140270 1.018726
-0.289319 0.140157 1.017512
-0.284627 0.140216 1.017549
-0.279955 0.140289 1.017669
-0.275324 0.140384 1.017953
-0.270344 0.140302 1.016940
-0.265530 0.140304 1.016540
