ply
format ascii 1.0
element vertex 1708
property float x
property float y
property float z
end_header
-0.051222 -0.006082 0.214379
-0.048108 -0.005829 0.205338
-0.046958 -0.005808 0.204492
-0.046162 -0.005830 0.205185
-0.045523 -0.005874 0.206629
-0.044820 -0.005911 0.207841
-0.044034 -0.005939 0.208719
-0.043270 -0.005971 0.209748
-0.042539 -0.006009 0.210993
-0.041663 -0.006029 0.211572
-0.040799 -0.006051 0.212244
-0.039929 -0.006073 0.212923
-0.039189 -0.006117 0.214355
-0.038275 -0.006135 0.214894
-0.037331 -0.006149 0.215300
-0.036409 -0.006168 0.215859
-0.035459 -0.006183 0.216294
-0.034498 -0.006197 0.216686
-0.033559 -0.006216 0.217257
-0.032595 -0.006232 0.217708
-0.031650 -0.006252 0.218320
-0.030722 -0.006277 0.219111
-0.029929 -0.006333 0.220962
-0.028918 -0.006345 0.221281
-0.027847 -0.006344 0.221166
-0.026911 -0.006375 0.222163
-0.025828 -0.006372 0.221992
-0.024817 -0.006388 0.222457
-0.023820 -0.006409 0.223104
-0.021776 -0.006442 0.224119
-0.020718 -0.006450 0.224328
-0.019710 -0.006476 0.225144
-0.018660 -0.006489 0.225558
-0.017618 -0.006508 0.226136
-0.016565 -0.006525 0.226658
-0.015512 -0.006544 0.227265
-0.014482 -0.006576 0.228343
-0.013421 -0.006599 0.229083
-0.012345 -0.006618 0.229677
-0.011263 -0.006637 0.230296
-0.010159 -0.006646 0.230566
-0.009050 -0.006653 0.230776
-0.007941 -0.006663 0.231084
-0.006824 -0.006668 0.231227
-0.005706 -0.006674 0.231404
-0.004584 -0.006678 0.231514
-0.003465 -0.006689 0.231869
-0.002342 -0.006699 0.232213
-0.001215 -0.006706 0.232444
-0.000085 -0.006715 0.232735
0.001047 -0.006719 0.232869
0.002180 -0.006721 0.232914
0.003319 -0.006735 0.233399
0.004469 -0.006758 0.234214
0.005622 -0.006775 0.234794
0.006756 -0.006767 0.234541
0.007897 -0.006768 0.234564
0.009043 -0.006772 0.234715
0.010397 -0.006913 0.239648
0.011663 -0.006973 0.241754
0.012771 -0.006937 0.240519
0.013763 -0.006849 0.237482
0.014890 -0.006836 0.237086
0.016042 -0.006836 0.237117
0.017649 -0.007017 0.243433
0.018800 -0.007005 0.243066
0.019913 -0.006981 0.242278
0.021128 -0.006994 0.242767
0.022355 -0.007009 0.243350
0.023601 -0.007028 0.244069
0.024784 -0.007028 0.244110
0.026095 -0.007062 0.245356
0.027460 -0.007107 0.246995
0.028658 -0.007107 0.247062
0.029887 -0.007114 0.247388
0.031115 -0.007121 0.247690
0.032422 -0.007145 0.248581
0.033823 -0.007186 0.250109
0.035382 -0.007258 0.252678
0.036701 -0.007277 0.253418
0.037897 -0.007271 0.253301
0.039168 -0.007279 0.253684
0.040415 -0.007283 0.253898
0.041627 -0.007280 0.253892
0.042901 -0.007288 0.254263
0.044127 -0.007288 0.254346
0.045346 -0.007286 0.254389
0.046550 -0.007282 0.254353
0.047733 -0.007276 0.254215
0.048955 -0.007275 0.254292
0.050188 -0.007276 0.254427
0.051400 -0.007274 0.254458
0.050532 -0.006985 0.244435
0.051447 -0.006949 0.243290
0.052269 -0.006903 0.241774
0.053442 -0.006904 0.241916
0.054353 -0.006872 0.240897
0.055403 -0.006859 0.240526
0.056388 -0.006838 0.239895
0.057399 -0.006822 0.239402
0.058427 -0.006807 0.239004
0.059124 -0.006756 0.237293
0.059912 -0.006717 0.236007
0.060664 -0.006675 0.234631
0.061447 -0.006638 0.233425
0.062258 -0.006606 0.232368
0.063073 -0.006575 0.231366
0.063915 -0.006547 0.230494
0.064368 -0.006482 0.228277
0.064616 -0.006398 0.225416
0.064148 -0.006248 0.220191
0.064112 -0.006144 0.216591
0.064509 -0.006084 0.214544
0.064898 -0.006025 0.212535
0.065891 -0.006023 0.212535
0.066669 -0.006002 0.211851
0.067359 -0.005973 0.210911
0.067677 -0.005913 0.208851
0.068185 -0.005871 0.207426
0.068470 -0.005811 0.205372
0.069044 -0.005778 0.204231
0.069681 -0.005750 0.203300
0.070304 -0.005722 0.202354
0.071077 -0.005707 0.201857
0.071571 -0.005670 0.200591
0.072109 -0.005637 0.199477
0.072759 -0.005614 0.198694
0.073636 -0.005609 0.198541
0.074315 -0.005589 0.197863
0.075011 -0.005571 0.197243
0.075814 -0.005561 0.196913
0.076275 -0.005527 0.195711
0.076481 -0.005475 0.193887
0.076993 -0.005447 0.192870
0.077696 -0.005432 0.192345
0.078188 -0.005403 0.191314
0.078677 -0.005374 0.190293
0.079223 -0.005350 0.189426
0.079537 -0.005311 0.188027
0.079840 -0.005272 0.186628
0.080354 -0.005248 0.185744
0.080942 -0.005229 0.185042
0.081452 -0.005205 0.184174
0.081955 -0.005182 0.183302
0.082396 -0.005155 0.182306
0.082785 -0.005126 0.181211
0.082993 -0.005086 0.179742
0.083440 -0.005061 0.178807
0.084006 -0.005044 0.178138
0.084546 -0.005026 0.177420
0.085020 -0.005004 0.176574
0.085441 -0.004980 0.175625
0.086066 -0.004968 0.175106
0.086351 -0.004936 0.173901
0.086345 -0.004889 0.172134
0.086411 -0.004847 0.170534
0.087003 -0.004835 0.169984
0.087393 -0.004812 0.169046
0.087941 -0.004797 0.168418
-0.681561 -0.035936 1.540540
-0.668493 -0.035622 1.527285
-0.668976 -0.036032 1.545001
-0.664923 -0.036204 1.552474
-0.658858 -0.036269 1.555327
-0.652840 -0.036338 1.558320
-0.645005 -0.036307 1.556963
-0.636639 -0.036245 1.554245
-0.628542 -0.036197 1.552102
-0.619699 -0.036104 1.548016
-0.611152 -0.036027 1.544558
-0.602207 -0.035924 1.539975
-0.596013 -0.035985 1.542382
-0.071476 -0.005791 0.246634
-0.068800 -0.005667 0.241235
-0.067387 -0.005644 0.240162
-0.065874 -0.005612 0.238694
-0.064356 -0.005578 0.237160
-0.062326 -0.005498 0.233656
-0.059914 -0.005381 0.228577
-0.056959 -0.005210 0.221204
-0.055831 -0.005203 0.220797
-0.054589 -0.005184 0.219915
-0.053299 -0.005161 0.218805
-0.051483 -0.005084 0.215459
-0.048227 -0.004859 0.205837
-0.046978 -0.004832 0.204569
-0.046093 -0.004841 0.204866
-0.045360 -0.004867 0.205877
-0.044866 -0.004921 0.208041
-0.044134 -0.004950 0.209182
-0.043336 -0.004973 0.210056
-0.042473 -0.004990 0.210654
-0.041628 -0.005009 0.211379
-0.040803 -0.005032 0.212251
-0.039978 -0.005056 0.213169
-0.039163 -0.005083 0.214202
-0.038275 -0.005102 0.214884
-0.037262 -0.005104 0.214888
-0.036380 -0.005125 0.215674
-0.035497 -0.005147 0.216510
-0.033608 -0.005177 0.217561
-0.032706 -0.005200 0.218430
-0.031793 -0.005222 0.219291
-0.030777 -0.005229 0.219485
-0.029861 -0.005254 0.220442
-0.028860 -0.005265 0.220824
-0.027909 -0.005287 0.221643
-0.026877 -0.005294 0.221863
-0.025822 -0.005297 0.221920
-0.024871 -0.005323 0.222920
-0.023813 -0.005327 0.223017
-0.021768 -0.005355 0.224016
-0.020727 -0.005366 0.224403
-0.019683 -0.005377 0.224809
-0.018636 -0.005389 0.225248
-0.017613 -0.005410 0.226061
-0.016562 -0.005424 0.226602
-0.015499 -0.005437 0.227052
-0.014449 -0.005456 0.227797
-0.013400 -0.005479 0.228697
-0.012350 -0.005505 0.229752
-0.011250 -0.005512 0.230006
-0.010154 -0.005523 0.230430
-0.009048 -0.005531 0.230697
-0.007933 -0.005535 0.230836
-0.006818 -0.005539 0.230994
-0.005701 -0.005544 0.231159
-0.004580 -0.005547 0.231271
-0.003460 -0.005553 0.231474
-0.002339 -0.005562 0.231837
-0.001214 -0.005572 0.232252
-0.000085 -0.005582 0.232628
0.001047 -0.005587 0.232832
0.002181 -0.005592 0.233062
0.003315 -0.005594 0.233126
0.004454 -0.005601 0.233415
0.005612 -0.005624 0.234362
0.006726 -0.005602 0.233477
0.007874 -0.005611 0.233876
0.009051 -0.005636 0.234907
0.010739 -0.005938 0.247507
0.011894 -0.005914 0.246536
0.012898 -0.005826 0.242898
0.013801 -0.005711 0.238124
0.014947 -0.005706 0.237977
0.016455 -0.005831 0.243213
0.017626 -0.005827 0.243101
0.018871 -0.005847 0.243969
0.019895 -0.005800 0.242049
0.021052 -0.005795 0.241885
0.022323 -0.005820 0.242985
0.023610 -0.005846 0.244143
0.024928 -0.005878 0.245515
0.026130 -0.005880 0.245675
0.027403 -0.005898 0.246468
0.028644 -0.005907 0.246923
0.029894 -0.005917 0.247425
0.031090 -0.005917 0.247477
0.032486 -0.005953 0.249059
0.033825 -0.005976 0.250109
0.035340 -0.006028 0.252363
0.036655 -0.006043 0.253082
0.037870 -0.006042 0.253105
0.039117 -0.006045 0.253336
0.040384 -0.006052 0.253690
0.041638 -0.006055 0.253944
0.042882 -0.006058 0.254136
0.044136 -0.006062 0.254383
0.045350 -0.006060 0.254395
0.046536 -0.006054 0.254263
0.047730 -0.006050 0.254189
0.048920 -0.006046 0.254099
0.050083 -0.006038 0.253883
0.051171 -0.006022 0.253314
0.051869 -0.005962 0.250889
0.051198 -0.005751 0.242101
0.052204 -0.005734 0.241461
0.053300 -0.005727 0.241265
0.054304 -0.005710 0.240668
0.055325 -0.005696 0.240177
0.056331 -0.005681 0.239644
0.057380 -0.005671 0.239314
0.058352 -0.005654 0.238685
0.059194 -0.005625 0.237565
0.059609 -0.005558 0.234803
0.060421 -0.005529 0.233682
0.061299 -0.005507 0.232854
0.062244 -0.005493 0.232310
0.063159 -0.005475 0.231672
0.063980 -0.005451 0.230720
0.064659 -0.005415 0.229301
0.063869 -0.005260 0.222803
0.063689 -0.005159 0.218608
0.064149 -0.005113 0.216709
0.064830 -0.005085 0.215607
0.065605 -0.005065 0.214845
0.066125 -0.005027 0.213284
0.066961 -0.005014 0.212772
0.067516 -0.004980 0.211398
0.067884 -0.004933 0.209484
0.068079 -0.004876 0.207101
0.068712 -0.004851 0.206094
0.068885 -0.004795 0.203756
0.069611 -0.004778 0.203093
0.070532 -0.004775 0.203007
0.070700 -0.004722 0.200783
0.071130 -0.004687 0.199353
0.071862 -0.004673 0.198791
0.072453 -0.004650 0.197856
0.073309 -0.004645 0.197660
0.074127 -0.004638 0.197360
0.075272 -0.004651 0.197930
0.075871 -0.004630 0.197062
0.076332 -0.004601 0.195857
0.076575 -0.004560 0.194127
0.077047 -0.004534 0.193005
0.077765 -0.004523 0.192518
0.078390 -0.004506 0.191809
0.078731 -0.004474 0.190423
0.078991 -0.004438 0.188873
0.079550 -0.004419 0.188061
0.079856 -0.004387 0.186669
0.080265 -0.004361 0.185541
0.080887 -0.004347 0.184919
0.081506 -0.004333 0.184298
0.082022 -0.004315 0.183455
0.082609 -0.004300 0.182781
0.082842 -0.004267 0.181340
0.083099 -0.004237 0.179974
0.083570 -0.004217 0.179091
0.083967 -0.004195 0.178059
0.084593 -0.004184 0.177523
0.085038 -0.004164 0.176615
0.085398 -0.004141 0.175544
0.086141 -0.004137 0.175263
0.086347 -0.004107 0.173898
0.085928 -0.004048 0.171307
0.086369 -0.004031 0.170456
0.086699 -0.004009 0.169396
0.087168 -0.003993 0.168616
0.087660 -0.003979 0.167887
-0.682170 -0.028403 1.525619
-0.681614 -0.028679 1.540669
-0.675407 -0.028720 1.543090
-0.672561 -0.028907 1.553287
-0.669486 -0.029087 1.563133
-0.666897 -0.029294 1.574307
-0.660640 -0.029342 1.576942
-0.652069 -0.029287 1.574014
-0.611207 -0.028747 1.544688
-0.604071 -0.028751 1.544733
-0.601214 -0.028961 1.555829
-0.069583 -0.004497 0.240097
-0.068794 -0.004519 0.241209
-0.067375 -0.004501 0.240114
-0.065033 -0.004419 0.235638
-0.063778 -0.004409 0.235024
-0.062471 -0.004396 0.234192
-0.060682 -0.004347 0.231497
-0.057964 -0.004229 0.225100
-0.056157 -0.004174 0.222077
-0.054675 -0.004141 0.220250
-0.052555 -0.004059 0.215743
-0.050937 -0.004012 0.213166
-0.048039 -0.003860 0.205025
-0.046786 -0.003838 0.203723
-0.046072 -0.003859 0.204764
-0.045502 -0.003894 0.206511
-0.044818 -0.003920 0.207808
-0.044113 -0.003946 0.209072
-0.043313 -0.003964 0.209936
-0.042561 -0.003988 0.211081
-0.041653 -0.003997 0.211495
-0.040802 -0.004013 0.212235
-0.039931 -0.004028 0.212910
-0.039090 -0.004046 0.213792
-0.038184 -0.004059 0.214357
-0.037252 -0.004069 0.214814
-0.036319 -0.004080 0.215299
-0.035375 -0.004091 0.215752
-0.034429 -0.004101 0.216224
-0.033501 -0.004115 0.216854
-0.032563 -0.004128 0.217460
-0.031638 -0.004144 0.218212
-0.030731 -0.004164 0.219143
-0.029771 -0.004177 0.219765
-0.028801 -0.004190 0.220359
-0.027847 -0.004206 0.221132
-0.026862 -0.004219 0.221724
-0.025828 -0.004225 0.221957
-0.024823 -0.004237 0.222472
-0.023805 -0.004247 0.222934
-0.022776 -0.004256 0.223328
-0.021762 -0.004269 0.223936
-0.020716 -0.004276 0.224271
-0.019668 -0.004285 0.224630
-0.018634 -0.004297 0.225209
-0.017584 -0.004307 0.225673
-0.016576 -0.004329 0.226767
-0.015510 -0.004338 0.227206
-0.014433 -0.004346 0.227537
-0.013382 -0.004363 0.228368
-0.012333 -0.004383 0.229412
-0.011242 -0.004392 0.229835
-0.010135 -0.004396 0.229966
-0.009027 -0.004400 0.230158
-0.007921 -0.004406 0.230451
-0.006809 -0.004411 0.230661
-0.005690 -0.004412 0.230687
-0.004574 -0.004418 0.230950
-0.003460 -0.004427 0.231422
-0.002339 -0.004435 0.231823
-0.001213 -0.004439 0.232000
-0.000086 -0.004456 0.232888
0.001048 -0.004460 0.233068
0.002182 -0.004462 0.233182
0.003323 -0.004472 0.233689
0.004462 -0.004474 0.233801
0.005610 -0.004483 0.234268
0.006750 -0.004483 0.234316
0.007898 -0.004488 0.234586
0.009239 -0.004587 0.239777
0.010772 -0.004749 0.248260
0.012003 -0.004759 0.248773
0.012759 -0.004595 0.240262
0.013829 -0.004563 0.238602
0.014951 -0.004551 0.238024
0.016130 -0.004558 0.238391
0.017712 -0.004669 0.244265
0.018981 -0.004690 0.245369
0.020076 -0.004667 0.244232
0.021150 -0.004642 0.242996
0.022390 -0.004655 0.243695
0.023633 -0.004667 0.244372
0.024858 -0.004674 0.244809
0.026104 -0.004684 0.245416
0.027407 -0.004704 0.246492
0.028712 -0.004722 0.247494
0.029916 -0.004722 0.247595
0.031203 -0.004735 0.248357
0.032478 -0.004746 0.248979
0.033822 -0.004765 0.250078
0.035210 -0.004789 0.251419
0.036530 -0.004803 0.252208
0.037905 -0.004822 0.253326
0.039169 -0.004827 0.253658
0.040423 -0.004831 0.253923
0.041681 -0.004834 0.254198
0.042911 -0.004834 0.254295
0.044133 -0.004834 0.254353
0.045366 -0.004834 0.254476
0.046544 -0.004829 0.254297
0.047701 -0.004822 0.254023
0.048910 -0.004820 0.254038
0.050092 -0.004816 0.253919
0.051123 -0.004798 0.253063
0.050340 -0.004615 0.243480
0.050948 -0.004564 0.240909
0.052171 -0.004570 0.241303
0.053344 -0.004571 0.241453
0.054202 -0.004546 0.240207
0.055299 -0.004541 0.240052
0.056288 -0.004528 0.239453
0.057363 -0.004522 0.239234
0.058353 -0.004510 0.238683
0.058950 -0.004468 0.236575
0.059686 -0.004439 0.235099
0.060594 -0.004423 0.234344
0.061433 -0.004402 0.233356
0.062195 -0.004377 0.232118
0.062997 -0.004356 0.231072
0.063936 -0.004345 0.230558
0.064558 -0.004313 0.228936
0.064831 -0.004259 0.226153
0.064175 -0.004147 0.220272
0.064216 -0.004082 0.216931
0.064746 -0.004051 0.215321
0.065422 -0.004029 0.214241
0.066049 -0.004005 0.213035
0.065144 -0.003891 0.206995
0.066137 -0.003891 0.207076
0.067322 -0.003903 0.207748
0.067768 -0.003872 0.206150
0.068453 -0.003855 0.205313
0.069110 -0.003837 0.204419
0.069785 -0.003821 0.203596
0.070280 -0.003796 0.202280
0.070562 -0.003759 0.200389
0.071094 -0.003737 0.199250
0.071968 -0.003734 0.199081
0.072785 -0.003727 0.198763
0.073336 -0.003707 0.197729
0.074048 -0.003696 0.197150
0.074810 -0.003688 0.196714
0.075512 -0.003676 0.196129
0.076219 -0.003666 0.195566
0.076625 -0.003641 0.194253
0.077232 -0.003626 0.193468
0.077776 -0.003609 0.192544
0.078217 -0.003587 0.191385
0.078293 -0.003550 0.189365
0.078731 -0.003529 0.188252
0.079464 -0.003522 0.187858
0.079977 -0.003506 0.186951
0.080439 -0.003487 0.185944
0.080849 -0.003467 0.184834
0.081480 -0.003457 0.184241
0.082018 -0.003443 0.183448
0.082520 -0.003428 0.182586
0.082951 -0.003410 0.181581
0.083325 -0.003390 0.180468
0.083656 -0.003369 0.179278
0.084126 -0.003354 0.178400
0.084631 -0.003341 0.177608
0.085241 -0.003332 0.177040
0.085368 -0.003304 0.175485
0.086087 -0.003300 0.175157
0.086008 -0.003265 0.173220
0.085977 -0.003233 0.171410
0.086351 -0.003217 0.170426
0.086880 -0.003206 0.169755
0.087120 -0.003186 0.168529
0.087694 -0.003178 0.167956
-0.682210 -0.021215 1.525718
-0.675482 -0.021226 1.526817
-0.671675 -0.021330 1.534572
-0.671429 -0.021551 1.550678
-0.668413 -0.021687 1.560632
-0.664492 -0.021797 1.568633
-0.658931 -0.021854 1.572863
-0.652112 -0.021871 1.574117
-0.645838 -0.021907 1.576701
-0.619650 -0.021761 1.566022
-0.609537 -0.021661 1.558704
-0.601257 -0.021625 1.555932
-0.069636 -0.003359 0.240275
-0.068613 -0.003364 0.240569
-0.066945 -0.003337 0.238574
-0.065255 -0.003309 0.236437
-0.064297 -0.003317 0.236930
-0.063397 -0.003329 0.237658
-0.061627 -0.003294 0.235097
-0.060608 -0.003299 0.235362
-0.055398 -0.003072 0.219069
-0.054680 -0.003091 0.220266
-0.051289 -0.002955 0.210538
-0.049919 -0.002934 0.208896
-0.048172 -0.002889 0.205585
-0.046886 -0.002870 0.204150
-0.045717 -0.002857 0.203180
-0.044954 -0.002870 0.204016
-0.044783 -0.002923 0.207639
-0.044120 -0.002945 0.209094
-0.043348 -0.002960 0.210098
-0.042546 -0.002974 0.211001
-0.041630 -0.002981 0.211372
-0.040733 -0.002989 0.211867
-0.039852 -0.002999 0.212482
-0.039023 -0.003014 0.213415
-0.038171 -0.003027 0.214275
-0.037254 -0.003036 0.214819
-0.036314 -0.003044 0.215259
-0.035354 -0.003050 0.215614
-0.034431 -0.003060 0.216232
-0.033566 -0.003076 0.217266
-0.032734 -0.003096 0.218594
-0.031723 -0.003100 0.218784
-0.030675 -0.003100 0.218733
-0.029795 -0.003119 0.219926
-0.028820 -0.003128 0.220490
-0.026867 -0.003148 0.221758
-0.025858 -0.003155 0.222200
-0.024858 -0.003165 0.222778
-0.023820 -0.003170 0.223058
-0.022798 -0.003178 0.223530
-0.021763 -0.003184 0.223939
-0.020713 -0.003189 0.224222
-0.019671 -0.003196 0.224647
-0.018624 -0.003203 0.225069
-0.017584 -0.003212 0.225649
-0.016565 -0.003227 0.226608
-0.015511 -0.003236 0.227198
-0.014465 -0.003249 0.228019
-0.013408 -0.003260 0.228803
-0.012317 -0.003265 0.229107
-0.011233 -0.003273 0.229624
-0.010133 -0.003278 0.229912
-0.009032 -0.003284 0.230271
-0.007926 -0.003289 0.230574
-0.006813 -0.003292 0.230790
-0.005698 -0.003296 0.231019
-0.004580 -0.003299 0.231194
-0.003467 -0.003309 0.231872
-0.002346 -0.003318 0.232483
-0.001217 -0.003322 0.232774
-0.000086 -0.003328 0.233189
0.001050 -0.003334 0.233556
0.002187 -0.003336 0.233748
0.003326 -0.003338 0.233867
0.004469 -0.003342 0.234159
0.005611 -0.003345 0.234332
0.006754 -0.003346 0.234459
0.007899 -0.003348 0.234605
0.009387 -0.003477 0.243613
0.010964 -0.003606 0.252678
0.011893 -0.003517 0.246494
0.012880 -0.003460 0.242536
0.013872 -0.003414 0.239330
0.015030 -0.003413 0.239281
0.016198 -0.003414 0.239387
0.017390 -0.003420 0.239825
0.018662 -0.003439 0.241243
0.019933 -0.003457 0.242490
0.021055 -0.003447 0.241889
0.022298 -0.003458 0.242686
0.023655 -0.003484 0.244586
0.024855 -0.003486 0.244772
0.026117 -0.003496 0.245529
0.027371 -0.003504 0.246155
0.028697 -0.003520 0.247355
0.029904 -0.003521 0.247486
0.031110 -0.003522 0.247613
0.032413 -0.003533 0.248477
0.033828 -0.003555 0.250110
0.035250 -0.003577 0.251694
0.036631 -0.003593 0.252901
0.037842 -0.003592 0.252894
0.039145 -0.003599 0.253499
0.040417 -0.003603 0.253876
0.041641 -0.003603 0.253945
0.042890 -0.003605 0.254165
0.044117 -0.003605 0.254250
0.045316 -0.003603 0.254187
0.046510 -0.003600 0.254102
0.047690 -0.003597 0.253955
0.048827 -0.003590 0.253598
0.049825 -0.003574 0.252558
0.051267 -0.003590 0.253769
0.050215 -0.003435 0.242872
0.050940 -0.003405 0.240865
0.052055 -0.003402 0.240756
0.053225 -0.003403 0.240906
0.054153 -0.003389 0.239984
0.055114 -0.003377 0.239243
0.056080 -0.003366 0.238558
0.057136 -0.003361 0.238282
0.058128 -0.003352 0.237755
0.058735 -0.003322 0.235710
0.059616 -0.003308 0.234818
0.060431 -0.003291 0.233709
0.061232 -0.003274 0.232587
0.062057 -0.003259 0.231601
0.062867 -0.003244 0.230591
0.063798 -0.003235 0.230053
0.064496 -0.003215 0.228713
0.064878 -0.003181 0.226314
0.063828 -0.003078 0.219075
0.064348 -0.003053 0.217375
0.064785 -0.003025 0.215448
0.065157 -0.002995 0.213367
0.065486 -0.002964 0.211214
0.066016 -0.002943 0.209762
0.066613 -0.002925 0.208565
0.067192 -0.002907 0.207345
0.067934 -0.002897 0.206651
0.068552 -0.002882 0.205608
0.069014 -0.002860 0.204131
0.069508 -0.002841 0.202787
0.070091 -0.002826 0.201733
0.070409 -0.002800 0.199954
0.071004 -0.002786 0.198995
0.071842 -0.002782 0.198732
0.072491 -0.002771 0.197958
0.073232 -0.002764 0.197447
0.074009 -0.002758 0.197046
0.074670 -0.002748 0.196343
0.075395 -0.002741 0.195824
0.076068 -0.002732 0.195178
0.076596 -0.002718 0.194178
0.076986 -0.002699 0.192852
0.077567 -0.002688 0.192027
0.078020 -0.002672 0.190903
0.078772 -0.002667 0.190524
0.078655 -0.002633 0.188072
0.079441 -0.002630 0.187804
0.080027 -0.002620 0.187070
0.080486 -0.002606 0.186054
0.081027 -0.002595 0.185242
0.081547 -0.002584 0.184394
0.082075 -0.002573 0.183577
0.082600 -0.002563 0.182766
0.082971 -0.002548 0.181627
0.083221 -0.002529 0.180244
0.083620 -0.002515 0.179202
0.083952 -0.002500 0.178034
0.084309 -0.002486 0.176933
0.084622 -0.002471 0.175759
0.084926 -0.002455 0.174579
0.085402 -0.002446 0.173767
0.085677 -0.002430 0.172558
0.086116 -0.002419 0.171692
0.086156 -0.002398 0.170046
0.086416 -0.002383 0.168853
0.087020 -0.002378 0.168341
0.087713 -0.002375 0.167997
-0.674588 -0.014013 1.524804
-0.673633 -0.014141 1.539052
-0.670318 -0.014222 1.548117
-0.668245 -0.014331 1.560245
-0.664729 -0.014411 1.569197
-0.659175 -0.014448 1.573448
-0.653738 -0.014489 1.578045
-0.645810 -0.014476 1.576633
-0.637336 -0.014449 1.573810
-0.634318 -0.014547 1.584523
-0.619680 -0.014378 1.566095
-0.613395 -0.014401 1.568567
-0.068534 -0.002218 0.240287
-0.067140 -0.002209 0.239267
-0.066099 -0.002212 0.239491
-0.065430 -0.002228 0.241100
-0.063967 -0.002217 0.239790
-0.057051 -0.002013 0.217633
-0.055751 -0.002003 0.216497
-0.052907 -0.001936 0.209216
-0.049185 -0.001834 0.198127
-0.048447 -0.001842 0.198868
-0.047730 -0.001851 0.199731
-0.046973 -0.001858 0.200464
-0.046451 -0.001876 0.202251
-0.045790 -0.001888 0.203503
-0.045086 -0.001899 0.204613
-0.044661 -0.001923 0.207071
-0.043978 -0.001936 0.208418
-0.043214 -0.001947 0.209440
-0.042460 -0.001958 0.210568
-0.041596 -0.001965 0.211192
-0.040716 -0.001971 0.211774
-0.039888 -0.001980 0.212666
-0.039009 -0.001987 0.213333
-0.038118 -0.001994 0.213974
-0.037187 -0.001999 0.214429
-0.036256 -0.002004 0.214910
-0.035349 -0.002011 0.215575
-0.034390 -0.002016 0.215962
-0.033506 -0.002025 0.216869
-0.032598 -0.002033 0.217680
-0.031695 -0.002043 0.218586
-0.030696 -0.002046 0.218873
-0.029801 -0.002057 0.219964
-0.028841 -0.002064 0.220644
-0.027903 -0.002073 0.221562
-0.026863 -0.002076 0.221719
-0.025848 -0.002080 0.222110
-0.024841 -0.002085 0.222615
-0.023816 -0.002090 0.223016
-0.022780 -0.002094 0.223352
-0.021736 -0.002097 0.223643
-0.020697 -0.002101 0.224044
-0.019647 -0.002105 0.224369
-0.018598 -0.002109 0.224749
-0.017552 -0.002114 0.225232
-0.016602 -0.002132 0.227102
-0.015535 -0.002137 0.227539
-0.014451 -0.002140 0.227798
-0.013397 -0.002148 0.228597
-0.012306 -0.002151 0.228892
-0.011213 -0.002154 0.229205
-0.010110 -0.002157 0.229388
-0.009004 -0.002158 0.229539
-0.007903 -0.002162 0.229891
-0.006802 -0.002167 0.230411
-0.005692 -0.002170 0.230741
-0.004575 -0.002172 0.230922
-0.003461 -0.002178 0.231513
-0.002342 -0.002183 0.232051
-0.001216 -0.002188 0.232489
-0.000086 -0.002196 0.233327
0.001049 -0.002197 0.233472
0.002187 -0.002199 0.233690
0.003329 -0.002203 0.234113
0.004470 -0.002204 0.234237
0.005621 -0.002209 0.234750
0.006766 -0.002210 0.234842
0.007906 -0.002210 0.234801
0.009118 -0.002227 0.236630
0.010737 -0.002328 0.247455
0.011904 -0.002321 0.246712
0.013003 -0.002303 0.244852
0.013904 -0.002256 0.239885
0.014993 -0.002245 0.238681
0.016154 -0.002245 0.238728
0.017467 -0.002265 0.240870
0.018755 -0.002279 0.242438
0.019937 -0.002280 0.242530
0.021119 -0.002280 0.242618
0.022333 -0.002284 0.243067
0.023573 -0.002290 0.243739
0.024867 -0.002300 0.244881
0.026104 -0.002304 0.245402
0.027361 -0.002310 0.246063
0.028607 -0.002314 0.246576
0.029817 -0.002315 0.246762
0.031058 -0.002319 0.247192
0.032301 -0.002322 0.247612
0.033815 -0.002344 0.250011
0.035310 -0.002363 0.252117
0.036627 -0.002369 0.252866
0.037897 -0.002372 0.253259
0.039157 -0.002374 0.253571
0.040415 -0.002376 0.253853
0.041663 -0.002378 0.254072
0.042871 -0.002377 0.254044
0.044102 -0.002377 0.254161
0.045308 -0.002376 0.254134
0.046489 -0.002374 0.253983
0.047671 -0.002372 0.253847
0.048827 -0.002368 0.253591
0.049936 -0.002363 0.253114
0.049702 -0.002296 0.246020
0.050245 -0.002267 0.243012
0.050923 -0.002246 0.240780
0.051980 -0.002241 0.240405
0.053201 -0.002244 0.240795
0.054113 -0.002234 0.239801
0.055027 -0.002225 0.238861
0.056066 -0.002220 0.238497
0.057141 -0.002218 0.238297
0.057928 -0.002204 0.236933
0.058679 -0.002190 0.235478
0.059490 -0.002178 0.234318
0.060399 -0.002171 0.233582
0.061154 -0.002158 0.232289
0.062037 -0.002150 0.231519
0.062788 -0.002138 0.230299
0.063629 -0.002130 0.229442
0.064490 -0.002122 0.228688
0.065024 -0.002104 0.226817
0.065341 -0.002080 0.224268
0.064719 -0.002027 0.218624
0.064302 -0.001982 0.213840
0.064963 -0.001971 0.212730
0.065368 -0.001953 0.210831
0.066271 -0.001950 0.210571
0.066372 -0.001924 0.207808
0.067170 -0.001919 0.207272
0.067824 -0.001910 0.206315
0.068443 -0.001900 0.205282
0.069107 -0.001891 0.204405
0.069676 -0.001881 0.203276
0.070350 -0.001873 0.202478
0.071019 -0.001865 0.201685
0.071401 -0.001851 0.200108
0.072086 -0.001844 0.199406
0.072741 -0.001837 0.198641
0.073380 -0.001829 0.197848
0.074120 -0.001825 0.197339
0.074548 -0.001812 0.196023
0.075302 -0.001808 0.195582
0.076113 -0.001806 0.195294
0.076450 -0.001792 0.193808
0.076844 -0.001780 0.192497
0.077412 -0.001772 0.191645
0.078053 -0.001766 0.190984
0.078593 -0.001758 0.190091
0.079094 -0.001750 0.189123
0.079611 -0.001742 0.188206
0.080170 -0.001735 0.187405
0.080597 -0.001725 0.186312
0.081001 -0.001715 0.185184
0.081570 -0.001709 0.184449
0.082140 -0.001702 0.183723
0.082632 -0.001695 0.182839
0.082981 -0.001685 0.181652
0.083290 -0.001674 0.180396
0.083727 -0.001665 0.179433
0.084093 -0.001656 0.178334
0.084512 -0.001648 0.177362
0.084811 -0.001638 0.176152
0.085017 -0.001626 0.174769
0.085261 -0.001615 0.173484
0.085657 -0.001607 0.172520
0.085709 -0.001593 0.170883
0.085967 -0.001583 0.169676
0.086279 -0.001574 0.168589
0.086754 -0.001568 0.167829
0.087222 -0.001563 0.167060
-0.674604 -0.006828 1.524846
-0.667827 -0.006830 1.525793
-0.666857 -0.006892 1.540132
-0.668500 -0.006982 1.560844
-0.662307 -0.006992 1.563482
-0.661626 -0.007060 1.579303
-0.655342 -0.007070 1.581921
-0.649039 -0.007081 1.584517
-0.641727 -0.007080 1.584654
-0.634335 -0.007078 1.584567
-0.623972 -0.007043 1.576943
-0.613026 -0.007001 1.567623
-0.606723 -0.007011 1.570074
-0.068848 -0.001063 0.237548
-0.067836 -0.001065 0.237839
-0.066362 -0.001059 0.236490
-0.066101 -0.001073 0.239498
-0.060134 -0.000993 0.221583
-0.057789 -0.000971 0.216630
-0.056187 -0.000961 0.214336
-0.053871 -0.000938 0.209192
-0.052605 -0.000933 0.208017
-0.048998 -0.000886 0.197371
-0.048404 -0.000892 0.198690
-0.047695 -0.000896 0.199585
-0.047033 -0.000901 0.200716
-0.046626 -0.000912 0.203012
-0.045780 -0.000914 0.203456
-0.044989 -0.000918 0.204167
-0.044483 -0.000927 0.206241
-0.043934 -0.000937 0.208207
-0.043274 -0.000944 0.209729
-0.042490 -0.000949 0.210714
-0.041566 -0.000950 0.211038
-0.040641 -0.000952 0.211379
-0.039752 -0.000955 0.211940
-0.038879 -0.000958 0.212617
-0.038040 -0.000963 0.213531
-0.037165 -0.000967 0.214294
-0.036262 -0.000970 0.214944
-0.035279 -0.000971 0.215146
-0.034373 -0.000975 0.215854
-0.033516 -0.000980 0.216934
-0.032591 -0.000983 0.217631
-0.031714 -0.000989 0.218710
-0.030764 -0.000992 0.219358
-0.029848 -0.000997 0.220308
-0.028839 -0.000998 0.220623
-0.027834 -0.001000 0.221007
-0.026871 -0.001004 0.221776
-0.025848 -0.001006 0.222105
-0.024806 -0.001007 0.222297
-0.023816 -0.001011 0.223009
-0.022808 -0.001014 0.223619
-0.021737 -0.001014 0.223654
-0.020698 -0.001016 0.224044
-0.019666 -0.001019 0.224581
-0.018612 -0.001020 0.224920
-0.017585 -0.001024 0.225650
-0.016549 -0.001028 0.226383
-0.015532 -0.001033 0.227493
-0.014455 -0.001035 0.227845
-0.013366 -0.001036 0.228066
-0.012288 -0.001038 0.228553
-0.011194 -0.001040 0.228816
-0.010089 -0.001040 0.228902
-0.008987 -0.001041 0.229104
-0.007885 -0.001043 0.229382
-0.006788 -0.001045 0.229935
-0.005686 -0.001048 0.230506
-0.004569 -0.001049 0.230639
-0.003457 -0.001051 0.231180
-0.002338 -0.001054 0.231665
-0.001213 -0.001054 0.231846
-0.000086 -0.001057 0.232512
0.001048 -0.001060 0.233163
0.002186 -0.001063 0.233624
0.003326 -0.001064 0.233917
0.004471 -0.001066 0.234266
0.005617 -0.001067 0.234581
0.006764 -0.001068 0.234802
0.007907 -0.001068 0.234839
0.009061 -0.001069 0.235141
0.010336 -0.001083 0.238195
0.011533 -0.001087 0.239018
0.012707 -0.001088 0.239261
0.013828 -0.001085 0.238569
0.014977 -0.001084 0.238423
0.016200 -0.001088 0.239411
0.017390 -0.001090 0.239808
0.018772 -0.001103 0.242655
0.020009 -0.001106 0.243401
0.021165 -0.001105 0.243145
0.022345 -0.001105 0.243188
0.023566 -0.001107 0.243656
0.024793 -0.001109 0.244149
0.026073 -0.001113 0.245109
0.027345 -0.001116 0.245908
0.028576 -0.001118 0.246303
0.029801 -0.001119 0.246623
0.031014 -0.001120 0.246838
0.032330 -0.001124 0.247832
0.033806 -0.001133 0.249937
0.035228 -0.001140 0.251530
0.036577 -0.001144 0.252513
0.037852 -0.001146 0.252953
0.039153 -0.001149 0.253539
0.040405 -0.001149 0.253787
0.041662 -0.001150 0.254063
0.042901 -0.001151 0.254218
0.044106 -0.001150 0.254181
0.045313 -0.001150 0.254162
0.046494 -0.001149 0.254005
0.047706 -0.001149 0.254028
0.048843 -0.001147 0.253668
0.049623 -0.001137 0.251525
0.049535 -0.001108 0.245187
0.050303 -0.001099 0.243289
0.050998 -0.001089 0.241132
0.051949 -0.001085 0.240262
0.053046 -0.001084 0.240091
0.054028 -0.001080 0.239421
0.054924 -0.001075 0.238410
0.055902 -0.001072 0.237798
0.056857 -0.001069 0.237110
0.057819 -0.001066 0.236485
0.058686 -0.001061 0.235506
0.059500 -0.001056 0.234356
0.060408 -0.001052 0.233616
0.061256 -0.001048 0.232675
0.062065 -0.001043 0.231624
0.062821 -0.001037 0.230418
0.063533 -0.001031 0.229095
0.064544 -0.001030 0.228878
0.065096 -0.001022 0.227070
0.065297 -0.001008 0.224116
0.065230 -0.000991 0.220348
0.064582 -0.000966 0.214770
0.064795 -0.000954 0.212180
0.065213 -0.000946 0.210330
0.066023 -0.000943 0.209784
0.066420 -0.000935 0.207957
0.066868 -0.000927 0.206340
0.067499 -0.000923 0.205328
0.068238 -0.000920 0.204666
0.068679 -0.000913 0.203139
0.069445 -0.000910 0.202601
0.070211 -0.000908 0.202079
0.070927 -0.000905 0.201423
0.071555 -0.000901 0.200539
0.072114 -0.000896 0.199484
0.072906 -0.000895 0.199091
0.073583 -0.000892 0.198394
0.074248 -0.000889 0.197682
0.074816 -0.000884 0.196729
0.075431 -0.000881 0.195917
0.076107 -0.000878 0.195281
0.076481 -0.000872 0.193888
0.076882 -0.000866 0.192594
0.077383 -0.000862 0.191571
0.078042 -0.000860 0.190957
0.078515 -0.000855 0.189905
0.079165 -0.000853 0.189292
0.079716 -0.000849 0.188456
0.080310 -0.000846 0.187733
0.080707 -0.000841 0.186567
0.081117 -0.000837 0.185451
0.081575 -0.000833 0.184461
0.082118 -0.000829 0.183678
0.082689 -0.000827 0.182965
0.083047 -0.000822 0.181797
0.083422 -0.000817 0.180683
0.083745 -0.000812 0.179473
0.084103 -0.000808 0.178357
0.084363 -0.000803 0.177051
0.084552 -0.000797 0.175616
0.084864 -0.000792 0.174457
0.085301 -0.000789 0.173567
0.085677 -0.000785 0.172563
0.085885 -0.000780 0.171236
0.086102 -0.000775 0.169945
0.086308 -0.000769 0.168647
0.086942 -0.000768 0.168196
0.087550 -0.000767 0.167691
-0.667831 0.000359 1.525807
-0.654201 0.000358 1.510906
-0.654187 0.000364 1.527431
-0.652164 0.000369 1.539543
-0.651185 0.000375 1.554385
-0.647357 0.000379 1.562649
-0.643647 0.000384 1.571360
-0.637161 0.000386 1.573385
-0.634339 0.000391 1.584581
-0.622499 0.000391 1.573223
-0.616186 0.000393 1.575707
-0.604995 0.000393 1.565605
-0.069867 0.000064 0.233647
-0.068039 0.000064 0.231086
-0.066400 0.000063 0.229103
-0.064662 0.000063 0.226709
-0.062866 0.000062 0.224034
-0.060426 0.000061 0.218935
-0.058765 0.000061 0.216539
-0.057033 0.000060 0.213793
-0.055422 0.000060 0.211419
-0.053669 0.000059 0.208408
-0.052237 0.000059 0.206561
-0.049270 0.000057 0.198467
-0.048365 0.000057 0.198532
-0.047741 0.000058 0.199776
-0.046936 0.000058 0.200305
-0.046261 0.000058 0.201421
-0.045755 0.000059 0.203341
-0.044820 0.000059 0.203401
-0.044564 0.000060 0.206617
-0.043849 0.000061 0.207803
-0.043093 0.000061 0.208852
-0.042557 0.000062 0.211046
-0.041681 0.000063 0.211622
-0.040751 0.000063 0.211955
-0.039836 0.000063 0.212384
-0.038939 0.000064 0.212948
-0.038076 0.000064 0.213732
-0.037175 0.000064 0.214353
-0.036259 0.000065 0.214926
-0.035320 0.000065 0.215395
-0.034334 0.000065 0.215610
-0.033424 0.000066 0.216334
-0.032704 0.000066 0.218384
-0.031794 0.000067 0.219262
-0.029838 0.000067 0.220233
-0.028846 0.000068 0.220675
-0.027920 0.000068 0.221689
-0.026872 0.000068 0.221782
-0.025842 0.000068 0.222052
-0.024845 0.000069 0.222644
-0.023802 0.000069 0.222875
-0.022798 0.000069 0.223524
-0.021750 0.000069 0.223787
-0.020695 0.000069 0.224010
-0.019674 0.000070 0.224674
-0.018624 0.000070 0.225063
-0.017577 0.000070 0.225554
-0.016622 0.000071 0.227379
-0.015543 0.000071 0.227661
-0.014479 0.000071 0.228232
-0.013399 0.000071 0.228636
-0.012296 0.000072 0.228708
-0.011202 0.000072 0.228983
-0.010103 0.000072 0.229221
-0.008992 0.000072 0.229232
-0.007888 0.000072 0.229461
-0.006801 0.000072 0.230372
-0.005693 0.000072 0.230795
-0.004573 0.000072 0.230816
-0.003461 0.000073 0.231459
-0.002341 0.000073 0.231967
-0.001215 0.000073 0.232329
-0.000086 0.000073 0.232850
0.001049 0.000073 0.233344
0.002188 0.000073 0.233797
0.003331 0.000074 0.234211
0.004478 0.000074 0.234633
0.005629 0.000074 0.235047
0.006789 0.000074 0.235639
0.007935 0.000074 0.235662
0.009085 0.000074 0.235769
0.010257 0.000074 0.236386
0.011418 0.000074 0.236648
0.012591 0.000074 0.237082
0.013806 0.000075 0.238191
0.015052 0.000075 0.239624
0.016244 0.000075 0.240054
0.017471 0.000075 0.240930
0.018722 0.000075 0.242007
0.019957 0.000076 0.242775
0.021122 0.000075 0.242658
0.022316 0.000075 0.242878
0.023550 0.000076 0.243496
0.024793 0.000076 0.244147
0.026059 0.000076 0.244973
0.027335 0.000076 0.245821
0.028541 0.000076 0.246002
0.029771 0.000076 0.246376
0.031023 0.000076 0.246910
0.032256 0.000076 0.247260
0.033928 0.000077 0.250840
0.035371 0.000077 0.252546
0.036522 0.000077 0.252133
0.037823 0.000077 0.252757
0.039143 0.000077 0.253476
0.040387 0.000077 0.253674
0.041661 0.000077 0.254053
0.042862 0.000077 0.253988
0.044091 0.000076 0.254095
0.045316 0.000076 0.254175
0.046505 0.000076 0.254064
0.047709 0.000076 0.254047
0.048866 0.000076 0.253791
0.049544 0.000075 0.251122
0.050228 0.000074 0.248619
0.050254 0.000072 0.243053
0.050995 0.000071 0.241118
0.051928 0.000071 0.240164
0.052944 0.000070 0.239627
0.053951 0.000070 0.239080
0.054928 0.000069 0.238432
0.055786 0.000069 0.237301
0.056821 0.000068 0.236963
0.057817 0.000068 0.236478
0.058602 0.000068 0.235169
0.059550 0.000067 0.234552
0.060441 0.000067 0.233741
0.061270 0.000066 0.232729
0.062046 0.000066 0.231554
0.062879 0.000065 0.230629
0.063629 0.000064 0.229441
0.064425 0.000064 0.228456
0.065244 0.000063 0.227585
0.065407 0.000062 0.224491
0.065446 0.000061 0.221077
0.063994 0.000059 0.212813
0.064505 0.000058 0.211229
0.065072 0.000057 0.209876
0.065884 0.000057 0.209340
0.066477 0.000056 0.208134
0.067255 0.000056 0.207536
0.067901 0.000055 0.206551
0.068161 0.000055 0.204434
0.068842 0.000054 0.203621
0.069606 0.000054 0.203073
0.070322 0.000053 0.202397
0.070954 0.000053 0.201502
0.071586 0.000052 0.200628
0.072140 0.000052 0.199557
0.072772 0.000051 0.198727
0.073472 0.000051 0.198097
0.074134 0.000050 0.197378
0.074744 0.000050 0.196541
0.075307 0.000050 0.195595
0.075959 0.000049 0.194899
0.076571 0.000049 0.194115
0.077122 0.000048 0.193196
0.077619 0.000048 0.192157
0.078282 0.000047 0.191546
0.078805 0.000047 0.190606
0.079438 0.000046 0.189946
0.079898 0.000046 0.188886
0.080542 0.000045 0.188277
0.080899 0.000045 0.187011
0.081265 0.000044 0.185789
0.081702 0.000044 0.184747
0.082163 0.000043 0.183779
0.082699 0.000043 0.182989
0.083219 0.000042 0.182173
0.083432 0.000042 0.180706
0.083700 0.000041 0.179379
0.083941 0.000040 0.178015
0.084197 0.000040 0.176703
0.084512 0.000039 0.175534
0.084552 0.000039 0.173816
0.085009 0.000038 0.172972
0.085223 0.000037 0.171650
0.085491 0.000037 0.170451
0.085955 0.000036 0.169655
0.086267 0.000036 0.168568
0.086737 0.000035 0.167799
0.087214 0.000035 0.167049
-0.657700 0.007688 1.552618
-0.651531 0.007703 1.555216
-0.650181 0.007777 1.569472
-0.645261 0.007809 1.575307
-0.640141 0.007839 1.580749
-0.633821 0.007854 1.583294
-0.624643 0.007835 1.578650
-0.614424 0.007801 1.571210
-0.606612 0.007798 1.569797
-0.069687 0.001170 0.233046
-0.068206 0.001164 0.231658
-0.066567 0.001155 0.229680
-0.064555 0.001139 0.226336
-0.062543 0.001122 0.222882
-0.060048 0.001096 0.217567
-0.058165 0.001081 0.214330
-0.056806 0.001074 0.212944
-0.055353 0.001066 0.211157
-0.053886 0.001057 0.209255
-0.052644 0.001052 0.208173
-0.049138 0.001001 0.197936
-0.048546 0.001009 0.199275
-0.047816 0.001014 0.200091
-0.047094 0.001019 0.200980
-0.046341 0.001023 0.201773
-0.045628 0.001029 0.202781
-0.044963 0.001036 0.204053
-0.044287 0.001044 0.205334
-0.043637 0.001052 0.206803
-0.042958 0.001059 0.208198
-0.042262 0.001067 0.209584
-0.041455 0.001072 0.210476
-0.040589 0.001076 0.211113
-0.039708 0.001080 0.211708
-0.038902 0.001086 0.212744
-0.038006 0.001090 0.213341
-0.037105 0.001094 0.213950
-0.036194 0.001097 0.214541
-0.035234 0.001100 0.214872
-0.034306 0.001103 0.215435
-0.033372 0.001107 0.216000
-0.031714 0.001122 0.218718
-0.030719 0.001124 0.219037
-0.029809 0.001130 0.220019
-0.028830 0.001133 0.220560
-0.027835 0.001136 0.221016
-0.026883 0.001141 0.221877
-0.025862 0.001143 0.222225
-0.024822 0.001145 0.222444
-0.023837 0.001149 0.223208
-0.022807 0.001152 0.223611
-0.021767 0.001154 0.223965
-0.020721 0.001156 0.224302
-0.019676 0.001159 0.224698
-0.018631 0.001161 0.225142
-0.017571 0.001164 0.225470
-0.016573 0.001170 0.226705
-0.015547 0.001176 0.227715
-0.014477 0.001179 0.228192
-0.013387 0.001180 0.228435
-0.012291 0.001181 0.228604
-0.011200 0.001184 0.228947
-0.010108 0.001186 0.229332
-0.008996 0.001186 0.229338
-0.007894 0.001188 0.229643
-0.006797 0.001191 0.230231
-0.005691 0.001194 0.230712
-0.004577 0.001195 0.231013
-0.003462 0.001198 0.231529
-0.002340 0.001200 0.231894
-0.001215 0.001202 0.232244
-0.000086 0.001204 0.232523
0.001046 0.001205 0.232843
0.002187 0.001210 0.233714
0.003332 0.001213 0.234321
0.004483 0.001216 0.234901
0.005638 0.001219 0.235423
0.006788 0.001220 0.235631
0.007941 0.001221 0.235835
0.009105 0.001223 0.236301
0.010266 0.001224 0.236588
0.011432 0.001226 0.236927
0.012603 0.001228 0.237308
0.013767 0.001229 0.237521
0.014972 0.001233 0.238344
0.016211 0.001239 0.239571
0.017514 0.001249 0.241525
0.018722 0.001251 0.242001
0.019898 0.001251 0.242051
0.021132 0.001254 0.242768
0.022320 0.001254 0.242923
0.023518 0.001255 0.243161
0.024769 0.001259 0.243917
0.026109 0.001266 0.245447
0.027318 0.001267 0.245674
0.028546 0.001268 0.246048
0.029728 0.001268 0.246026
0.030955 0.001269 0.246368
0.032378 0.001278 0.248196
0.034129 0.001299 0.252329
0.035331 0.001298 0.252264
0.036557 0.001298 0.252380
0.037853 0.001300 0.252964
0.039147 0.001302 0.253503
0.040412 0.001303 0.253837
0.041666 0.001304 0.254090
0.042887 0.001304 0.254138
0.044112 0.001303 0.254216
0.045328 0.001303 0.254247
0.046526 0.001302 0.254181
0.047731 0.001301 0.254165
0.048889 0.001299 0.253913
0.049694 0.001288 0.251885
0.049948 0.001264 0.247237
0.050080 0.001237 0.242210
0.051028 0.001232 0.241275
0.052084 0.001229 0.240887
0.053032 0.001224 0.240031
0.054055 0.001221 0.239545
0.054880 0.001213 0.238225
0.055851 0.001209 0.237579
0.056823 0.001205 0.236971
0.057757 0.001201 0.236234
0.058677 0.001196 0.235472
0.059552 0.001191 0.234563
0.060512 0.001188 0.234020
0.061333 0.001182 0.232968
0.062164 0.001176 0.231996
0.062934 0.001169 0.230832
0.063880 0.001166 0.230347
0.064665 0.001160 0.229309
0.065306 0.001152 0.227802
0.065236 0.001132 0.223907
0.065794 0.001123 0.222257
0.063952 0.001074 0.212675
0.064616 0.001067 0.211596
0.064882 0.001055 0.209265
0.065949 0.001056 0.209550
0.066445 0.001048 0.208037
0.067226 0.001044 0.207449
0.067966 0.001040 0.206751
0.068565 0.001034 0.205647
0.069177 0.001028 0.204612
0.069840 0.001023 0.203755
0.070404 0.001017 0.202636
0.071190 0.001015 0.202171
0.071989 0.001012 0.201756
0.072451 0.001005 0.200419
0.073010 0.000999 0.199377
0.073599 0.000994 0.198440
0.074405 0.000992 0.198100
0.074842 0.000985 0.196799
0.075458 0.000980 0.195988
0.076027 0.000975 0.195075
0.076541 0.000970 0.194041
0.077114 0.000965 0.193175
0.077706 0.000961 0.192373
0.078397 0.000958 0.191829
0.078919 0.000953 0.190883
0.079507 0.000949 0.190111
0.079854 0.000942 0.188782
0.080396 0.000938 0.187936
0.080861 0.000932 0.186925
0.081247 0.000926 0.185748
0.081618 0.000920 0.184559
0.082128 0.000916 0.183701
0.082692 0.000912 0.182972
0.083253 0.000908 0.182249
0.083551 0.000902 0.180963
0.083779 0.000895 0.179548
0.084080 0.000889 0.178310
0.084181 0.000880 0.176670
0.084284 0.000872 0.175061
0.084627 0.000867 0.173970
0.084883 0.000861 0.172718
0.085161 0.000855 0.171525
0.085535 0.000850 0.170540
0.085801 0.000845 0.169351
0.086068 0.000839 0.168179
0.086359 0.000834 0.167067
0.086864 0.000830 0.166380
-0.638127 0.014557 1.506419
-0.642181 0.014816 1.532904
-0.642792 0.015000 1.551644
-0.640135 0.015111 1.562798
-0.635256 0.015172 1.568696
-0.628984 0.015201 1.571221
-0.623903 0.015259 1.576790
-0.616856 0.015270 1.577439
-0.607770 0.015230 1.572805
-0.069675 0.002276 0.233008
-0.067904 0.002254 0.230635
-0.066776 0.002253 0.230407
-0.065103 0.002234 0.228262
-0.063708 0.002223 0.227040
-0.059706 0.002119 0.216333
-0.058042 0.002096 0.213880
-0.057210 0.002103 0.214462
-0.056212 0.002104 0.214439
-0.053825 0.002052 0.209018
-0.052049 0.002022 0.205824
-0.049791 0.001972 0.200569
-0.048652 0.001964 0.199713
-0.047903 0.001973 0.200459
-0.047102 0.001980 0.201016
-0.046290 0.001986 0.201555
-0.045749 0.002005 0.203321
-0.044941 0.002012 0.203960
-0.044223 0.002024 0.205041
-0.043588 0.002040 0.206574
-0.042789 0.002050 0.207383
-0.042077 0.002063 0.208673
-0.041292 0.002074 0.209655
-0.040462 0.002084 0.210457
-0.039560 0.002089 0.210923
-0.038744 0.002100 0.211887
-0.037925 0.002111 0.212897
-0.037016 0.002118 0.213446
-0.036149 0.002127 0.214278
-0.035224 0.002134 0.214821
-0.034259 0.002138 0.215144
-0.033454 0.002153 0.216534
-0.032722 0.002174 0.218514
-0.031676 0.002174 0.218461
-0.030671 0.002178 0.218699
-0.029803 0.002192 0.219987
-0.028804 0.002196 0.220366
-0.026840 0.002210 0.221532
-0.025880 0.002219 0.222389
-0.024850 0.002223 0.222700
-0.023791 0.002225 0.222787
-0.022859 0.002240 0.224130
-0.021820 0.002244 0.224515
-0.020755 0.002247 0.224672
-0.019729 0.002254 0.225306
-0.018667 0.002257 0.225586
-0.017629 0.002264 0.226230
-0.016563 0.002269 0.226581
-0.015505 0.002275 0.227103
-0.014452 0.002282 0.227816
-0.013365 0.002285 0.228061
-0.012280 0.002289 0.228406
-0.011191 0.002293 0.228763
-0.010096 0.002297 0.229074
-0.008993 0.002299 0.229254
-0.007889 0.002302 0.229487
-0.006801 0.002311 0.230389
-0.005696 0.002317 0.230925
-0.004580 0.002320 0.231223
-0.003461 0.002324 0.231516
-0.002340 0.002327 0.231871
-0.001215 0.002331 0.232237
-0.000086 0.002334 0.232459
0.001046 0.002337 0.232770
0.002186 0.002345 0.233602
0.003333 0.002353 0.234406
0.004484 0.002359 0.234991
0.005636 0.002363 0.235375
0.006794 0.002367 0.235832
0.007949 0.002370 0.236077
0.009104 0.002372 0.236281
0.010275 0.002376 0.236796
0.011440 0.002379 0.237112
0.012655 0.002391 0.238299
0.013820 0.002392 0.238443
0.014945 0.002386 0.237920
0.016196 0.002400 0.239351
0.017461 0.002414 0.240803
0.018730 0.002427 0.242119
0.019982 0.002436 0.243087
0.021176 0.002438 0.243282
0.022368 0.002439 0.243447
0.023556 0.002439 0.243564
0.024812 0.002446 0.244343
0.026087 0.002454 0.245242
0.027330 0.002459 0.245782
0.028501 0.002457 0.245668
0.029719 0.002459 0.245959
0.030918 0.002459 0.246078
0.032464 0.002486 0.248860
0.033976 0.002509 0.251202
0.035437 0.002526 0.253026
0.036560 0.002519 0.252408
0.037801 0.002520 0.252618
0.039111 0.002525 0.253272
0.040384 0.002528 0.253668
0.041643 0.002530 0.253954
0.042882 0.002530 0.254115
0.044113 0.002530 0.254226
0.045334 0.002530 0.254286
0.046529 0.002528 0.254207
0.047732 0.002526 0.254178
0.048898 0.002523 0.253965
0.049445 0.002489 0.250629
0.049355 0.002425 0.244304
0.050097 0.002404 0.242300
0.051087 0.002395 0.241562
0.052161 0.002391 0.241247
0.053062 0.002379 0.240170
0.054038 0.002371 0.239471
0.054926 0.002359 0.238428
0.055919 0.002352 0.237874
0.056872 0.002344 0.237179
0.057740 0.002333 0.236167
0.058692 0.002326 0.235536
0.059572 0.002316 0.234646
0.060513 0.002308 0.234025
0.061391 0.002299 0.233193
0.062235 0.002289 0.232263
0.063035 0.002277 0.231206
0.064048 0.002274 0.230957
0.064950 0.002266 0.230323
0.065463 0.002246 0.228354
0.064717 0.002183 0.222129
0.065117 0.002161 0.219972
0.064573 0.002109 0.214743
0.064415 0.002070 0.210939
0.065273 0.002065 0.210528
0.065887 0.002053 0.209356
0.066661 0.002046 0.208716
0.067315 0.002035 0.207726
0.067936 0.002024 0.206660
0.068529 0.002012 0.205541
0.069114 0.002000 0.204428
0.069652 0.001988 0.203209
0.070276 0.001978 0.202268
0.070893 0.001968 0.201331
0.071598 0.001960 0.200662
0.072343 0.001955 0.200122
0.073109 0.001949 0.199647
0.073788 0.001942 0.198950
0.074461 0.001934 0.198252
0.075108 0.001927 0.197500
0.075527 0.001913 0.196170
0.076139 0.001905 0.195364
0.076643 0.001894 0.194301
0.077309 0.001887 0.193666
0.077922 0.001880 0.192910
0.078529 0.001872 0.192151
0.079044 0.001862 0.191186
0.079636 0.001854 0.190421
0.080073 0.001843 0.189302
0.080638 0.001835 0.188502
0.080979 0.001822 0.187198
0.081425 0.001812 0.186156
0.081900 0.001803 0.185196
0.082371 0.001794 0.184244
0.082878 0.001785 0.183385
0.083392 0.001777 0.182552
0.083785 0.001767 0.181469
0.083891 0.001751 0.179787
0.084070 0.001736 0.178288
0.084270 0.001723 0.176857
0.084298 0.001706 0.175090
0.084695 0.001697 0.174109
0.085047 0.001687 0.173050
0.085207 0.001674 0.171617
0.085339 0.001660 0.170147
0.085638 0.001650 0.169029
0.085899 0.001639 0.167848
0.086161 0.001628 0.166684
0.086607 0.001621 0.165886
-0.642147 0.022037 1.532831
-0.627814 0.021792 1.515496
-0.630475 0.022137 1.539226
-0.628547 0.022328 1.552139
-0.628949 0.022606 1.571146
-0.617708 0.022468 1.561145
-0.615546 0.022660 1.574103
-0.609217 0.022702 1.576563
-0.070624 0.003428 0.236188
-0.068003 0.003354 0.230974
-0.066366 0.003327 0.228996
-0.064536 0.003290 0.226280
-0.063123 0.003272 0.224961
-0.060778 0.003205 0.220221
-0.059168 0.003175 0.218035
-0.058087 0.003173 0.217756
-0.057206 0.003182 0.218237
-0.055051 0.003118 0.213786
-0.054057 0.003120 0.213770
-0.055310 0.003254 0.222808
-0.048827 0.002929 0.200438
-0.048152 0.002946 0.201508
-0.047239 0.002949 0.201609
-0.049164 0.003133 0.214076
-0.045476 0.002960 0.202113
-0.044937 0.002988 0.203943
-0.044181 0.003003 0.204853
-0.043586 0.003030 0.206571
-0.042893 0.003051 0.207897
-0.042164 0.003071 0.209108
-0.041370 0.003086 0.210056
-0.040503 0.003097 0.210675
-0.039652 0.003110 0.211421
-0.038897 0.003131 0.212730
-0.038019 0.003143 0.213430
-0.037137 0.003155 0.214150
-0.036227 0.003165 0.214752
-0.035284 0.003174 0.215191
-0.034368 0.003185 0.215836
-0.033482 0.003199 0.216725
-0.032559 0.003211 0.217433
-0.031637 0.003224 0.218199
-0.030598 0.003226 0.218191
-0.029667 0.003239 0.218989
-0.028765 0.003256 0.220075
-0.025840 0.003290 0.222055
-0.024807 0.003295 0.222330
-0.023847 0.003311 0.223316
-0.022820 0.003319 0.223757
-0.021804 0.003329 0.224363
-0.020792 0.003341 0.225090
-0.019713 0.003343 0.225134
-0.018689 0.003355 0.225860
-0.017630 0.003362 0.226249
-0.016567 0.003368 0.226637
-0.015498 0.003375 0.227024
-0.014440 0.003385 0.227632
-0.013376 0.003395 0.228259
-0.012272 0.003396 0.228274
-0.011189 0.003404 0.228744
-0.010105 0.003413 0.229278
-0.009001 0.003416 0.229481
-0.007911 0.003427 0.230165
-0.006819 0.003440 0.230985
-0.005711 0.003448 0.231528
-0.004593 0.003454 0.231886
-0.003473 0.003460 0.232287
-0.002347 0.003466 0.232617
-0.001218 0.003471 0.232939
-0.000086 0.003475 0.233231
0.001053 0.003491 0.234311
0.002195 0.003495 0.234543
0.003338 0.003498 0.234760
0.004496 0.003511 0.235589
0.005654 0.003518 0.236127
0.006820 0.003527 0.236736
0.007979 0.003531 0.236968
0.009145 0.003536 0.237347
0.010306 0.003538 0.237530
0.011490 0.003547 0.238147
0.012704 0.003563 0.239224
0.013850 0.003558 0.238955
0.015076 0.003574 0.240021
0.016295 0.003585 0.240821
0.017481 0.003588 0.241081
0.018664 0.003590 0.241278
0.019883 0.003598 0.241890
0.021125 0.003610 0.242710
0.022330 0.003614 0.243044
0.023515 0.003614 0.243145
0.024746 0.003622 0.243709
