ply
format ascii 1.0
element vertex 1744
property float x
property float y
property float z
end_header
0.032902 0.050014 0.237150
0.034044 0.050023 0.237246
0.035270 0.050149 0.237896
0.036581 0.050385 0.239071
0.037622 0.050246 0.238467
0.039097 0.050677 0.240571
0.040304 0.050747 0.240960
0.041610 0.050933 0.241903
0.042836 0.051014 0.242350
0.044112 0.051148 0.243046
0.045290 0.051165 0.243189
0.046777 0.051522 0.244948
0.048032 0.051611 0.245434
0.049238 0.051645 0.245660
0.050420 0.051653 0.245760
0.051612 0.051671 0.245909
0.052954 0.051834 0.246749
0.054663 0.052341 0.249226
0.055939 0.052422 0.249674
0.057216 0.052499 0.250105
0.058460 0.052543 0.250379
0.059829 0.052696 0.251171
0.061092 0.052752 0.251497
0.062377 0.052824 0.251903
0.063706 0.052930 0.252465
0.065114 0.053095 0.253315
0.066480 0.053221 0.253974
0.068010 0.053472 0.255228
0.069321 0.053545 0.255633
0.070935 0.053845 0.257116
0.072139 0.053829 0.257093
0.073563 0.053975 0.257838
0.074902 0.054055 0.258268
0.076249 0.054137 0.258708
0.077755 0.054329 0.259667
0.079503 0.054680 0.261389
0.080822 0.054730 0.261667
0.081991 0.054678 0.261455
0.083210 0.054662 0.261407
0.084504 0.054693 0.261588
0.085708 0.054667 0.261489
0.086836 0.054593 0.261159
0.088007 0.054548 0.260963
0.088992 0.054391 0.260225
0.088187 0.053158 0.254340
0.088274 0.052490 0.251151
0.089190 0.052326 0.250367
0.090417 0.052346 0.250462
0.091292 0.052164 0.249587
0.092183 0.051997 0.248775
0.093125 0.051861 0.248112
0.094157 0.051779 0.247698
0.094917 0.051551 0.246581
0.095709 0.051345 0.245567
0.096758 0.051281 0.245224
0.097625 0.051122 0.244427
0.098443 0.050943 0.243520
0.099373 0.050824 0.242902
0.100274 0.050694 0.242221
0.101277 0.050617 0.241790
0.102211 0.050508 0.241200
0.102853 0.050259 0.239934
0.103749 0.050138 0.239270
0.104530 0.049965 0.238353
0.105195 0.049740 0.237182
0.105750 0.049469 0.235784
0.106217 0.049163 0.234213
0.104348 0.047793 0.227571
0.103843 0.047070 0.224005
0.104364 0.046821 0.222693
0.104846 0.046560 0.221315
0.105347 0.046313 0.219997
0.106134 0.046196 0.219283
0.106795 0.046026 0.218316
0.107408 0.045839 0.217259
0.108092 0.045685 0.216350
0.108789 0.045540 0.215474
0.109440 0.045379 0.214513
0.110317 0.045313 0.213992
0.111099 0.045210 0.213286
0.111854 0.045098 0.212527
-1.017168 0.409917 1.903759
-1.022253 0.415669 1.932458
-1.035192 0.424748 1.976596
-1.024750 0.424313 1.976399
-1.021804 0.427002 1.990671
-1.016996 0.428956 2.001445
-1.005052 0.427909 1.998131
-0.996839 0.428446 2.002126
-0.906144 0.393203 1.838720
-0.896628 0.392843 1.838253
-0.889530 0.393547 1.842690
-0.872809 0.389965 1.826982
-1.537785 0.693929 3.252827
-1.524491 0.694865 3.258879
-1.505681 0.693281 3.252996
-1.498297 0.696980 3.271800
-1.478502 0.694923 3.263478
-1.457539 0.692268 3.252239
-1.442662 0.692478 3.254357
-1.427811 0.692706 3.256460
-1.414503 0.693695 3.262053
-0.951840 0.471919 2.219744
-0.953155 0.477812 2.247990
-0.943086 0.478067 2.249657
-0.925660 0.474557 2.233546
-1.393586 0.722646 3.401738
-1.362015 0.714473 3.363715
-1.344230 0.713426 3.359158
-1.349127 0.724535 3.411766
-1.335073 0.725611 3.417062
-0.711577 0.391450 1.843510
-0.707160 0.393815 1.854695
-0.682401 0.384769 1.812105
-0.686243 0.391825 1.845314
-0.676656 0.391297 1.842767
-0.298416 0.179459 0.844977
-0.295032 0.179818 0.846584
-0.299373 0.184960 0.870692
-0.286262 0.179312 0.843996
-0.283784 0.180260 0.848337
-0.278694 0.179552 0.844874
-0.269969 0.176447 0.830125
-0.266456 0.176709 0.831204
-0.249116 0.167671 0.788541
-0.245495 0.167733 0.788672
-0.243687 0.169055 0.794717
-0.240703 0.169591 0.797055
-0.237528 0.170006 0.798819
-0.236291 0.171844 0.807258
-0.283267 0.209380 0.983337
-0.277563 0.208578 0.979316
-0.272052 0.207897 0.975854
-0.270493 0.210264 0.986689
-0.269773 0.213378 1.001019
-0.265218 0.213516 1.001374
-0.259462 0.212674 0.997131
-0.253172 0.211355 0.990650
-0.247723 0.210702 0.987285
-0.242910 0.210576 0.986389
-0.236090 0.208671 0.977157
-0.231773 0.208946 0.978132
-0.215377 0.198122 0.927162
-0.207585 0.194926 0.911913
-0.202133 0.193840 0.906533
-0.198087 0.194083 0.907373
-0.161032 0.161278 0.753755
-0.155449 0.159219 0.743886
-0.149594 0.156780 0.732249
-0.146294 0.156967 0.732876
-0.125468 0.141342 0.659489
-0.120866 0.139644 0.651352
-0.118919 0.141005 0.657482
-0.123733 0.150671 0.702328
-0.120522 0.150832 0.702851
-0.117066 0.150686 0.701943
-0.113609 0.150530 0.700996
-0.111092 0.151650 0.705988
-0.108807 0.153164 0.712816
-0.105468 0.153245 0.712975
-0.102498 0.153887 0.715743
-0.099269 0.154169 0.716843
-0.095944 0.154318 0.717327
-0.092457 0.154209 0.716614
-0.027538 0.053904 0.250221
-0.025915 0.053027 0.246090
-0.024666 0.052870 0.245300
-0.023442 0.052755 0.244709
-0.021999 0.052108 0.241650
-0.020612 0.051529 0.238911
-0.019360 0.051240 0.237522
-0.018163 0.051069 0.236681
-0.016953 0.050838 0.235565
-0.015787 0.050714 0.234946
-0.014657 0.050695 0.234816
-0.013451 0.050392 0.233370
-0.012224 0.049944 0.231260
-0.011086 0.049808 0.230597
-0.009980 0.049802 0.230534
-0.008816 0.049472 0.228979
-0.007715 0.049446 0.228828
-0.006584 0.049198 0.227657
-0.005481 0.049089 0.227129
-0.004348 0.048603 0.224862
-0.003248 0.048284 0.223365
-0.002164 0.048010 0.222083
-0.001093 0.047769 0.220955
-0.000032 0.046076 0.213113
0.000986 0.045852 0.212070
0.002011 0.046041 0.212937
0.004089 0.046421 0.214689
0.007379 0.047708 0.220652
0.008461 0.047840 0.221269
0.009572 0.048086 0.222417
0.011783 0.048394 0.223868
0.013997 0.048620 0.224949
0.015084 0.048645 0.225087
0.016265 0.048947 0.226507
0.017404 0.049094 0.227216
0.018638 0.049475 0.229006
0.019774 0.049568 0.229465
0.020899 0.049625 0.229763
0.022065 0.049770 0.230469
0.023189 0.049810 0.230690
0.024312 0.049843 0.230877
0.025511 0.050023 0.231750
0.026825 0.050404 0.233558
0.028115 0.050711 0.235024
0.029291 0.050797 0.235469
0.030521 0.050966 0.236296
0.031696 0.051035 0.236665
0.032849 0.051063 0.236847
0.033985 0.051066 0.236909
0.035224 0.051217 0.237662
0.036541 0.051468 0.238883
0.037805 0.051632 0.239698
0.038946 0.051625 0.239718
0.040172 0.051725 0.240240
0.041349 0.051759 0.240457
0.042742 0.052054 0.241888
0.044054 0.052238 0.242802
0.045484 0.052548 0.244301
0.046759 0.052668 0.244920
0.047991 0.052735 0.245293
0.049207 0.052782 0.245570
0.050429 0.052832 0.245869
0.051663 0.052893 0.246213
0.053132 0.053186 0.247638
0.054648 0.053512 0.249219
0.055994 0.053661 0.249975
0.057199 0.053672 0.250087
0.058451 0.053726 0.250399
0.059724 0.053796 0.250787
0.061015 0.053879 0.251232
0.062300 0.053954 0.251641
0.063586 0.054027 0.252040
0.064931 0.054146 0.252652
0.066462 0.054413 0.253951
0.067745 0.054472 0.254280
0.069793 0.055132 0.257414
0.070884 0.055026 0.256972
0.072443 0.055281 0.258214
0.073599 0.055225 0.258001
0.074831 0.055227 0.258057
0.076299 0.055401 0.258910
0.077592 0.055443 0.259150
0.079120 0.055650 0.260155
0.080725 0.055903 0.261377
0.081998 0.055923 0.261499
0.083153 0.055862 0.261246
0.084429 0.055884 0.261374
0.085563 0.055811 0.261059
0.086789 0.055801 0.261031
0.087934 0.055739 0.260757
0.088768 0.055484 0.259578
0.088865 0.054782 0.256303
0.088294 0.053692 0.251209
0.089184 0.053508 0.250349
0.090156 0.053378 0.249736
0.091216 0.053303 0.249374
0.092186 0.053177 0.248774
0.093083 0.053013 0.247990
0.094203 0.052979 0.247806
0.095169 0.052859 0.247219
0.095842 0.052582 0.245891
0.096326 0.052209 0.244108
0.097317 0.052117 0.243633
0.098262 0.052002 0.243047
0.098970 0.051766 0.241889
0.099881 0.051640 0.241239
0.100759 0.051500 0.240520
0.101768 0.051430 0.240117
0.102711 0.051328 0.239561
0.103517 0.051160 0.238692
0.104225 0.050949 0.237612
0.104774 0.050664 0.236185
0.105644 0.050540 0.235498
0.106676 0.050495 0.235171
0.105841 0.049576 0.230769
0.105729 0.049011 0.228012
0.104398 0.047899 0.222704
0.104466 0.047444 0.220450
0.105198 0.047297 0.219618
0.106176 0.047262 0.219300
0.106720 0.047037 0.218089
0.107364 0.046859 0.217092
0.108065 0.046710 0.216218
0.108753 0.046558 0.215321
0.109451 0.046413 0.214448
0.110358 0.046358 0.213982
0.111079 0.046227 0.213154
0.111547 0.045994 0.211846
-1.016878 0.418906 1.902394
-1.018840 0.423486 1.925207
-1.032436 0.433030 1.970550
-1.026096 0.434310 1.978240
-1.023646 0.437277 1.993533
-1.021692 0.440512 2.009987
-1.012879 0.440823 2.013022
-1.004589 0.441371 2.017052
-0.899519 0.399000 1.824726
-0.887078 0.397294 1.818153
-0.881927 0.398852 1.826442
-0.863987 0.394600 1.808050
-1.533235 0.707248 3.242411
-1.519962 0.708193 3.248449
-1.495478 0.703882 3.230255
-1.483823 0.705583 3.239534
-1.471094 0.706803 3.246510
-1.454223 0.706039 3.244265
-1.439396 0.706261 3.246456
-1.422313 0.705370 3.243429
-1.409039 0.706369 3.249001
-0.971089 0.492159 2.264346
-0.957086 0.490442 2.257002
-0.947960 0.491215 2.261053
-0.943393 0.494394 2.276128
-1.392514 0.738133 3.398851
-1.358939 0.728698 3.355892
-1.340676 0.727348 3.350087
-1.325924 0.727894 3.352937
-1.312096 0.728967 3.358139
-0.712501 0.400667 1.845860
-0.703655 0.400570 1.845482
-0.683691 0.394062 1.815530
-0.687042 0.400998 1.847481
-0.676250 0.399751 1.841699
-0.301580 0.185392 0.853981
-0.298040 0.185688 0.855271
-0.292689 0.184848 0.851313
-0.288688 0.184850 0.851221
-0.284265 0.184578 0.849854
-0.279888 0.184327 0.848578
-0.270449 0.180689 0.831696
-0.266927 0.180955 0.832775
-0.249465 0.171637 0.789749
-0.246236 0.171978 0.791164
-0.245821 0.174326 0.801799
-0.241306 0.173794 0.799181
-0.237884 0.174045 0.800152
-0.287186 0.213500 0.981312
-0.282964 0.213804 0.982471
-0.282954 0.217355 0.998534
-0.278681 0.217695 0.999837
-0.274071 0.217780 0.999958
-0.270008 0.218310 1.002115
-0.264836 0.217947 1.000166
-0.259742 0.217635 0.998449
-0.253748 0.216545 0.993154
-0.248353 0.215934 0.990057
-0.242679 0.215052 0.985716
-0.236735 0.213892 0.980098
-0.232403 0.214171 0.981073
-0.215854 0.202974 0.929491
-0.205927 0.197668 0.904905
-0.201897 0.197917 0.905758
-0.160883 0.164711 0.753305
-0.154367 0.161627 0.738960
-0.149387 0.160044 0.731487
-0.144871 0.158897 0.726008
-0.141591 0.159081 0.726614
-0.127355 0.146658 0.669655
-0.122487 0.144665 0.660340
-0.119203 0.144485 0.659307
-0.116734 0.145311 0.662867
-0.121613 0.155583 0.709500
-0.118738 0.156239 0.712265
-0.115142 0.155957 0.710759
-0.112953 0.157620 0.718119
-0.109716 0.157881 0.719086
-0.106055 0.157528 0.717264
-0.102702 0.157624 0.717490
-0.099156 0.157421 0.716354
-0.095961 0.157781 0.717789
-0.092485 0.157688 0.717165
-0.027498 0.055024 0.249982
-0.025969 0.054321 0.246727
-0.024657 0.054029 0.245342
-0.023404 0.053844 0.244444
-0.022125 0.053575 0.243168
-0.020697 0.052895 0.240028
-0.019352 0.052361 0.237553
-0.018149 0.052169 0.236634
-0.016975 0.052038 0.235996
-0.015728 0.051652 0.234203
-0.014335 0.050689 0.229796
-0.013086 0.050119 0.227171
-0.011962 0.049968 0.226454
-0.010855 0.049863 0.225942
-0.009761 0.049802 0.225637
-0.008679 0.049794 0.225571
-0.007624 0.049963 0.226306
-0.006531 0.049899 0.225996
-0.005416 0.049605 0.224639
-0.004329 0.049492 0.224108
-0.003251 0.049424 0.223782
-0.002163 0.049097 0.222289
-0.001086 0.048581 0.219940
-0.000030 0.046451 0.210285
0.000986 0.046782 0.211776
0.002017 0.047141 0.213393
0.004098 0.047534 0.215168
0.005117 0.047416 0.214634
0.006253 0.048238 0.218356
0.007389 0.048818 0.220991
0.008485 0.049025 0.221934
0.009555 0.049051 0.222063
0.010619 0.049045 0.222044
0.011735 0.049258 0.223023
0.012865 0.049488 0.224083
0.014986 0.049394 0.223695
0.016230 0.049919 0.226093
0.017449 0.050307 0.227876
0.018654 0.050611 0.229281
0.019775 0.050666 0.229559
0.020877 0.050668 0.229599
0.022010 0.050741 0.229965
0.023150 0.050825 0.230378
0.024252 0.050819 0.230390
0.025420 0.050946 0.231004
0.026878 0.051620 0.234101
0.028111 0.051825 0.235070
0.029263 0.051870 0.235317
0.030454 0.051978 0.235854
0.031641 0.052072 0.236329
0.032846 0.052189 0.236906
0.033997 0.052213 0.237066
0.035244 0.052380 0.237873
0.036487 0.052529 0.238605
0.037753 0.052703 0.239448
0.038917 0.052727 0.239612
0.040176 0.052875 0.240338
0.041383 0.052948 0.240726
0.042592 0.053020 0.241110
0.043833 0.053127 0.241654
0.044946 0.053076 0.241479
0.046706 0.053774 0.244714
0.047940 0.053846 0.245100
0.049142 0.053880 0.245314
0.050321 0.053887 0.245409
0.051611 0.054010 0.246026
0.053080 0.054310 0.247456
0.054678 0.054728 0.249419
0.056087 0.054941 0.250451
0.057330 0.054987 0.250718
0.058450 0.054915 0.250449
0.059723 0.054987 0.250837
0.061023 0.055080 0.251317
0.062430 0.055264 0.252215
0.063865 0.055466 0.253193
0.065128 0.055513 0.253462
0.066421 0.055584 0.253840
0.068024 0.055907 0.255368
0.069505 0.056120 0.256391
0.070971 0.056314 0.257326
0.072139 0.056269 0.257165
0.073593 0.056444 0.258013
0.074795 0.056424 0.257963
0.076091 0.056474 0.258235
0.077576 0.056660 0.259126
0.079007 0.056802 0.259810
0.080524 0.057000 0.260747
0.081779 0.057010 0.260824
0.082996 0.056992 0.260773
0.084248 0.056999 0.260829
0.085489 0.056999 0.260848
0.086666 0.056957 0.260672
0.087810 0.056894 0.260398
0.088836 0.056757 0.259782
0.087193 0.054942 0.251483
0.088017 0.054710 0.250422
0.088877 0.054506 0.249486
0.090064 0.054506 0.249478
0.090964 0.054334 0.248680
0.091850 0.054158 0.247859
0.092799 0.054023 0.247220
0.093834 0.053941 0.246819
0.094667 0.053746 0.245899
0.095597 0.053611 0.245241
0.096624 0.053532 0.244840
0.097392 0.053313 0.243794
0.098364 0.053210 0.243270
0.099159 0.053014 0.242318
0.100233 0.052971 0.242056
0.101127 0.052835 0.241361
0.101910 0.052644 0.240412
0.102458 0.052337 0.238928
0.103361 0.052216 0.238287
0.104102 0.052017 0.237281
0.104725 0.051764 0.236023
0.105608 0.051643 0.235362
0.104945 0.050777 0.231297
0.105371 0.050450 0.229685
0.105528 0.050003 0.227517
0.104284 0.048907 0.222396
0.104739 0.048623 0.220958
0.105310 0.048397 0.219783
0.106081 0.048267 0.219031
0.106828 0.048129 0.218234
0.107319 0.047878 0.216921
0.107978 0.047708 0.215961
0.108759 0.047593 0.215246
0.109512 0.047468 0.214476
0.110340 0.047379 0.213854
0.111024 0.047229 0.212952
0.111658 0.047061 0.211957
-1.015515 0.427438 1.898988
-1.020451 0.433376 1.927419
-1.035914 0.443933 1.976369
-1.022601 0.442240 1.970721
-1.017455 0.444080 1.980724
-1.015949 0.447558 1.997964
-1.002068 0.445598 1.990847
-0.993854 0.446146 1.994838
-0.907420 0.411254 1.840173
-0.889910 0.407226 1.823409
-0.878644 0.406005 1.819123
-0.865151 0.403720 1.809995
-1.544254 0.727814 3.264878
-1.518670 0.722972 3.244902
-1.495760 0.719317 3.230127
-1.488644 0.723262 3.249364
-1.470051 0.721654 3.243556
-1.450540 0.719558 3.235442
-1.433202 0.718507 3.231923
-1.416879 0.717948 3.230515
-1.403638 0.718956 3.236067
-0.966761 0.500616 2.253947
-0.957517 0.501328 2.257739
-0.946380 0.501055 2.257031
-1.375673 0.736604 3.318760
-1.362027 0.737666 3.324148
-1.362647 0.746569 3.364795
-1.344112 0.745063 3.358457
-1.331787 0.747005 3.367586
-1.317882 0.748097 3.372810
-0.709482 0.407642 1.837986
-0.700157 0.407242 1.836273
-0.688094 0.405221 1.827209
-0.686395 0.409329 1.845748
-0.678719 0.409932 1.848451
-0.301302 0.189247 0.853233
-0.294103 0.187218 0.844019
-0.294419 0.189983 0.856404
-0.290819 0.190263 0.857571
-0.286819 0.190284 0.857563
-0.278652 0.187503 0.844915
-0.275079 0.187777 0.846024
-0.257121 0.178096 0.802275
-0.249580 0.175449 0.790214
-0.245411 0.175128 0.788623
-0.244304 0.177017 0.796970
-0.241053 0.177386 0.798468
-0.292250 0.221988 0.998793
-0.287620 0.222047 0.998824
-0.283432 0.222456 1.000415
-0.278970 0.222659 1.001079
-0.274209 0.222628 1.000677
-0.269554 0.222682 1.000655
-0.264595 0.222483 0.999490
-0.259284 0.221976 0.996931
-0.254241 0.221684 0.995335
-0.249009 0.221212 0.992929
-0.242976 0.219998 0.987189
-0.236042 0.217904 0.977500
-0.231720 0.218186 0.978471
-0.218679 0.210103 0.941934
-0.209119 0.205098 0.919212
-0.159203 0.166537 0.745687
-0.154967 0.165785 0.742084
-0.149778 0.163954 0.733657
-0.145747 0.163335 0.730654
-0.142445 0.163522 0.731263
-0.127793 0.150364 0.672208
-0.124741 0.150532 0.672744
-0.121339 0.150274 0.671380
-0.118527 0.150753 0.673312
-0.122327 0.159902 0.713953
-0.119119 0.160152 0.714847
-0.113924 0.157666 0.703535
-0.112488 0.160389 0.715469
-0.109356 0.160788 0.717036
-0.105945 0.160791 0.716838
-0.102339 0.160487 0.715275
-0.099242 0.160989 0.717308
-0.095636 0.160671 0.715691
-0.091363 0.159170 0.708807
-0.026000 0.055572 0.247152
-0.024548 0.054962 0.244383
-0.023354 0.054900 0.244051
-0.022072 0.054613 0.242717
-0.020805 0.054331 0.241412
-0.019476 0.053847 0.239212
-0.018246 0.053591 0.238029
-0.016812 0.052666 0.233877
-0.015606 0.052370 0.232518
-0.014383 0.051970 0.230702
-0.013277 0.051962 0.230630
-0.011933 0.050935 0.226037
-0.010754 0.050483 0.223995
-0.009615 0.050132 0.222409
-0.008502 0.049850 0.221129
-0.007411 0.049638 0.220164
-0.006329 0.049424 0.219190
-0.005266 0.049302 0.218626
-0.004205 0.049138 0.217882
-0.003034 0.047168 0.209128
-0.002036 0.047259 0.209520
-0.001032 0.047277 0.209585
-0.000028 0.047449 0.210340
0.000977 0.047301 0.209673
0.001994 0.047579 0.210900
0.004104 0.048621 0.215513
0.005192 0.049133 0.217786
0.006282 0.049492 0.219378
0.007357 0.049647 0.220072
0.008408 0.049620 0.219959
0.009565 0.050159 0.222358
0.010641 0.050206 0.222575
0.011718 0.050246 0.222768
0.012847 0.050487 0.223851
0.013951 0.050596 0.224351
0.015034 0.050620 0.224480
0.016148 0.050739 0.225030
0.017302 0.050961 0.226038
0.018581 0.051502 0.228463
0.019722 0.051621 0.229018
0.020839 0.051670 0.229265
0.021975 0.051757 0.229687
0.023112 0.051837 0.230075
0.024222 0.051853 0.230180
0.025375 0.051956 0.230675
0.026538 0.052068 0.231213
0.028053 0.052837 0.234665
0.029304 0.053066 0.235728
0.030394 0.052998 0.235469
0.031551 0.053047 0.235733
0.032769 0.053193 0.236427
0.033935 0.053246 0.236712
0.035157 0.053382 0.237366
0.036398 0.053537 0.238104
0.037733 0.053816 0.239396
0.038934 0.053893 0.239791
0.040115 0.053938 0.240049
0.041322 0.054015 0.240446
0.042528 0.054086 0.240816
0.043818 0.054258 0.241637
0.045147 0.054468 0.242630
0.046535 0.054737 0.243882
0.047828 0.054884 0.244597
0.049076 0.054972 0.245048
0.050302 0.055033 0.245377
0.051524 0.055087 0.245676
0.053238 0.055653 0.248256
0.054581 0.055814 0.249033
0.055907 0.055952 0.249706
0.057187 0.056038 0.250151
0.058502 0.056155 0.250727
0.059760 0.056213 0.251045
0.061145 0.056386 0.251872
0.062379 0.056416 0.252060
0.063644 0.056472 0.252364
0.064981 0.056589 0.252938
0.066238 0.056633 0.253185
0.068165 0.057237 0.255939
0.069484 0.057320 0.256355
0.070796 0.057393 0.256730
0.072065 0.057430 0.256940
0.073332 0.057463 0.257133
0.074713 0.057584 0.257713
0.075952 0.057592 0.257790
0.077317 0.057695 0.258285
0.078935 0.057980 0.259596
0.080510 0.058226 0.260726
0.081887 0.058322 0.261186
0.083063 0.058275 0.261001
0.084279 0.058257 0.260940
0.085518 0.058254 0.260948
0.086677 0.058199 0.260713
0.087822 0.058135 0.260438
0.088815 0.057974 0.259724
0.089646 0.057713 0.258559
0.087884 0.055812 0.250042
0.088626 0.055531 0.248780
0.089829 0.055542 0.248820
0.090882 0.055462 0.248446
0.091773 0.055286 0.247638
0.092744 0.055162 0.247059
0.093913 0.055157 0.247010
0.094957 0.055080 0.246632
0.095630 0.054792 0.245305
0.095990 0.054334 0.243209
0.096758 0.054115 0.242180
0.097813 0.054060 0.241878
0.098631 0.053876 0.240994
0.099434 0.053689 0.240089
0.100406 0.053595 0.239600
0.101358 0.053494 0.239068
0.102310 0.053395 0.238538
0.103205 0.053268 0.237879
0.104066 0.053127 0.237148
0.104962 0.053006 0.236503
0.105690 0.052804 0.235487
0.106335 0.052566 0.234301
0.105287 0.051503 0.229439
0.105278 0.050966 0.226913
0.104718 0.050176 0.223255
0.104729 0.049673 0.220867
0.105183 0.049387 0.219444
0.105902 0.049231 0.218584
0.106520 0.049031 0.217524
0.107145 0.048838 0.216487
0.107711 0.048622 0.215339
0.108515 0.048516 0.214674
0.109283 0.048397 0.213935
0.110032 0.048271 0.213160
0.110824 0.048167 0.212467
0.111607 0.048060 0.211756
-1.019350 0.438181 1.905269
-1.018673 0.441826 1.923197
-1.041455 0.455804 1.986084
-1.024220 0.452364 1.973025
-1.015286 0.452561 1.975720
-1.017883 0.457950 2.001010
-0.998741 0.453568 1.983518
-0.990540 0.454119 1.987500
-0.892450 0.413075 1.809219
-0.886236 0.414173 1.815312
-0.871793 0.411409 1.804401
-0.856140 0.408015 1.790636
-1.543285 0.742832 3.261953
-1.523239 0.740574 3.253839
-1.498296 0.735867 3.234828
-1.492760 0.740692 3.257612
-1.475203 0.739591 3.254234
-1.455323 0.737290 3.245467
-1.438622 0.736568 3.243544
-1.424249 0.737037 3.246762
-1.410922 0.738062 3.252343
-0.963608 0.509599 2.246269
-0.953394 0.509790 2.247718
-0.940116 0.508329 2.241824
-1.376686 0.752830 3.320846
-1.363014 0.753906 3.326237
-1.363309 0.762823 3.366146
-1.340026 0.758601 3.348006
-1.335174 0.764838 3.375948
-1.321218 0.765947 3.381184
-0.709947 0.416588 1.839123
-0.701819 0.416894 1.840583
-0.682358 0.410393 1.811951
-0.684930 0.417145 1.841803
-0.671363 0.414116 1.828430
-0.290537 0.194123 0.856802
-0.279850 0.189611 0.836796
-0.278375 0.191303 0.844154
-0.257915 0.182447 0.804843
-0.251622 0.180649 0.796780
-0.246405 0.179579 0.791924
-0.248194 0.183662 0.809775
-0.296812 0.226602 0.998694
-0.291932 0.226466 0.997880
-0.287995 0.227069 1.000311
-0.283357 0.227130 1.000347
-0.278747 0.227216 1.000482
-0.274448 0.227564 1.001763
-0.269546 0.227415 1.000847
-0.264706 0.227314 1.000140
-0.259575 0.226955 0.998291
-0.254358 0.226506 0.996040
-0.248354 0.225327 0.990575
-0.242745 0.224467 0.986515
-0.236162 0.222656 0.978270
-0.228084 0.219334 0.963393
-0.218409 0.214311 0.941048
-0.214226 0.214580 0.941948
-0.158552 0.169386 0.742878
-0.154122 0.168392 0.738288
-0.150061 0.167762 0.735301
-0.145514 0.166547 0.729748
-0.139251 0.163260 0.715127
-0.136012 0.163444 0.715708
-0.126209 0.155548 0.680923
-0.120560 0.152490 0.667331
-0.119017 0.154601 0.676364
-0.123118 0.164364 0.718858
-0.119825 0.164532 0.719376
-0.115738 0.163588 0.715034
-0.112771 0.164218 0.717577
-0.109506 0.164439 0.718332
-0.105831 0.164040 0.716380
-0.102437 0.164065 0.716287
-0.099255 0.164441 0.717728
-0.094976 0.162965 0.711090
-0.090594 0.161195 0.703175
-0.087315 0.161326 0.703560
-0.077797 0.149482 0.651737
-0.075060 0.150222 0.654800
-0.025961 0.056672 0.246907
-0.024547 0.056134 0.244504
-0.023375 0.056122 0.244397
-0.021986 0.055561 0.241902
-0.020640 0.055052 0.239632
-0.019333 0.054594 0.237593
-0.018164 0.054491 0.237098
-0.016905 0.054090 0.235308
-0.015615 0.053524 0.232805
-0.014462 0.053375 0.232116
-0.013350 0.053366 0.232041
-0.012102 0.052767 0.229399
-0.011028 0.052878 0.229848
-0.009752 0.051938 0.225733
-0.008682 0.052002 0.225982
-0.007425 0.050800 0.220732
-0.006335 0.050538 0.219572
-0.005260 0.050308 0.218552
-0.004199 0.050138 0.217792
-0.003074 0.048826 0.212079
-0.002036 0.048315 0.209845
-0.001031 0.048338 0.209933
-0.000026 0.048180 0.209235
0.000987 0.048684 0.211418
0.001993 0.048519 0.210695
0.003059 0.049429 0.214644
0.004098 0.049555 0.215188
0.005210 0.050328 0.218545
0.006288 0.050572 0.219608
0.007367 0.050756 0.220412
0.008431 0.050802 0.220618
0.009543 0.051097 0.221908
0.010623 0.051176 0.222259
0.011718 0.051304 0.222828
0.012830 0.051482 0.223619
0.013907 0.051499 0.223710
0.015009 0.051603 0.224179
0.016112 0.051694 0.224598
0.017365 0.052224 0.226924
0.018527 0.052436 0.227870
0.019647 0.052512 0.228228
0.020769 0.052583 0.228564
0.021916 0.052709 0.229143
0.023055 0.052802 0.229581
0.024197 0.052896 0.230025
0.025345 0.052993 0.230481
0.026578 0.053250 0.231639
0.028004 0.053860 0.234330
0.029205 0.054006 0.235009
0.030393 0.054118 0.235538
0.031552 0.054172 0.235817
0.032720 0.054238 0.236150
0.033931 0.054367 0.236759
0.035068 0.054375 0.236841
0.036332 0.054571 0.237743
0.037587 0.054743 0.238543
0.038913 0.055004 0.239734
0.040068 0.055016 0.239836
0.041249 0.055063 0.240094
0.042539 0.055247 0.240952
0.043790 0.055373 0.241553
0.045143 0.055618 0.242678
0.046469 0.055818 0.243607
0.047787 0.055999 0.244452
0.049016 0.056070 0.244816
0.050257 0.056150 0.245223
0.051397 0.056117 0.245133
0.052812 0.056378 0.246331
0.054250 0.056652 0.247583
0.055998 0.057231 0.250170
0.057332 0.057372 0.250840
0.058479 0.057323 0.250684
0.059662 0.057311 0.250686
0.061060 0.057502 0.251572
0.062280 0.057521 0.251708
0.063569 0.057602 0.252112
0.064940 0.057753 0.252823
0.067157 0.058636 0.256740
0.068209 0.058489 0.256145
0.069400 0.058465 0.256084
0.070770 0.058589 0.256674
0.072013 0.058605 0.256786
0.073316 0.058670 0.257110
0.074601 0.058718 0.257358
0.075981 0.058837 0.257918
0.077454 0.059024 0.258770
0.078948 0.059221 0.259664
0.080431 0.059403 0.260490
0.081661 0.059395 0.260484
0.082964 0.059440 0.260703
0.084215 0.059448 0.260755
0.085455 0.059447 0.260768
0.086703 0.059451 0.260799
0.087870 0.059401 0.260587
0.088781 0.059182 0.259630
0.087075 0.057247 0.251143
0.087893 0.057002 0.250064
0.088796 0.056819 0.249251
0.089884 0.056756 0.248963
0.090790 0.056582 0.248184
0.091691 0.056409 0.247403
0.092610 0.056251 0.246686
0.093610 0.056146 0.246195
0.094397 0.055918 0.245156
0.095052 0.055617 0.243796
0.095383 0.055137 0.241645
0.096503 0.055118 0.241511
0.097317 0.054927 0.240617
0.098194 0.054776 0.239892
0.099200 0.054699 0.239487
0.100221 0.054633 0.239118
0.101167 0.054527 0.238572
0.102089 0.054410 0.237973
0.103081 0.054334 0.237542
0.103918 0.054177 0.236757
0.104538 0.053913 0.235489
0.105071 0.053610 0.234049
0.105736 0.053379 0.232918
0.105797 0.052852 0.230486
0.105343 0.052081 0.226985
0.105215 0.051484 0.224243
0.104970 0.050844 0.221302
0.105031 0.050363 0.219050
0.105731 0.050195 0.218152
0.106387 0.050009 0.217170
0.106993 0.049804 0.216094
0.107606 0.049606 0.215041
0.108459 0.049521 0.214470
0.109155 0.049367 0.213588
0.109959 0.049264 0.212919
0.110765 0.049163 0.212251
0.111609 0.049081 0.211651
-1.016059 0.445866 1.898194
-1.011810 0.447992 1.909349
-1.046592 0.467595 1.994988
-1.030256 0.464510 1.983802
-1.022051 0.465068 1.988066
-1.025960 0.471200 2.016092
-1.004661 0.465762 1.994523
-0.904680 0.423396 1.814569
-0.888521 0.419824 1.800634
-0.891905 0.425506 1.826324
-0.871605 0.419890 1.803449
-0.854584 0.415759 1.786852
-1.538852 0.756129 3.251667
-1.517595 0.753202 3.240920
-1.495928 0.750010 3.228903
-1.486626 0.753016 3.243457
-1.468325 0.751479 3.238340
-1.455196 0.752585 3.244504
-1.438493 0.751846 3.242619
-1.421274 0.750820 3.239390
-0.969135 0.517522 2.233594
-0.957399 0.516864 2.231448
-0.953205 0.520307 2.246952
-0.943955 0.521037 2.250684
-1.361516 0.768767 3.322232
-1.343436 0.767364 3.316772
-1.338566 0.773563 3.344093
-1.334057 0.780119 3.372892
-0.710229 0.420318 1.817474
-0.710015 0.425308 1.839217
-0.696887 0.422589 1.827591
-0.688554 0.422747 1.828365
-0.681831 0.423910 1.833452
-0.674190 0.424525 1.836134
-0.260100 0.187827 0.811752
-0.256647 0.188096 0.812788
-0.253183 0.188364 0.813812
-0.301901 0.231618 1.000325
-0.296488 0.231072 0.997766
-0.292173 0.231376 0.998873
-0.287901 0.231725 1.000164
-0.283517 0.231995 1.001101
-0.278615 0.231842 1.000208
-0.274065 0.231982 1.000572
-0.269471 0.232090 1.000788
-0.264525 0.231893 0.999685
-0.259340 0.231475 0.997622
-0.254183 0.231068 0.995600
-0.248466 0.230127 0.991277
-0.242135 0.228570 0.984295
-0.235183 0.226355 0.974481
-0.227533 0.223367 0.961341
-0.218748 0.219118 0.942785
-0.158281 0.172624 0.741855
-0.153270 0.170952 0.734450
-0.149137 0.170205 0.731023
-0.144845 0.169238 0.726647
-0.139552 0.167025 0.716929
-0.133464 0.163727 0.702560
-0.126393 0.159023 0.682172
-0.120915 0.156130 0.669558
-0.117594 0.155939 0.668540
-0.114866 0.156547 0.670950
-0.119657 0.167730 0.718665
-0.115227 0.166264 0.712177
-0.112390 0.167079 0.715458
-0.109303 0.167560 0.717312
-0.105760 0.167352 0.716220
-0.102478 0.167557 0.716899
-0.099175 0.167740 0.717486
-0.095408 0.167124 0.714655
-0.090888 0.165094 0.705791
-0.080530 0.157966 0.674968
-0.074673 0.152570 0.651751
-0.073249 0.156159 0.666921
-0.020616 0.056138 0.239486
-0.019484 0.056170 0.239574
-0.018316 0.056098 0.239223
-0.017079 0.055790 0.237865
-0.015664 0.054817 0.233673
-0.014390 0.054222 0.231100
-0.013161 0.053715 0.228904
-0.012062 0.053696 0.228789
-0.010909 0.053403 0.227508
-0.009767 0.053111 0.226230
-0.008662 0.052974 0.225622
-0.007509 0.052461 0.223411
-0.006393 0.052076 0.221748
-0.005278 0.051554 0.219504
-0.004222 0.051489 0.219209
-0.003117 0.050582 0.215330
-0.002028 0.049162 0.209273
-0.001029 0.049330 0.209975
-0.000024 0.049758 0.211787
0.000982 0.049339 0.209993
0.002010 0.049884 0.212308
0.003037 0.050054 0.213029
0.004109 0.050686 0.215715
0.005215 0.051402 0.218761
0.006288 0.051606 0.219634
0.007346 0.051649 0.219820
0.008430 0.051840 0.220641
0.009508 0.051953 0.221129
0.010572 0.051976 0.221239
0.011696 0.052262 0.222468
0.012820 0.052501 0.223502
0.013936 0.052673 0.224251
0.015005 0.052654 0.224187
0.016128 0.052813 0.224885
0.017335 0.053215 0.226617
0.018445 0.053283 0.226933
0.019624 0.053535 0.228034
0.020767 0.053667 0.228622
0.021928 0.053828 0.229341
0.023042 0.053865 0.229531
0.024199 0.053994 0.230114
0.025357 0.054116 0.230667
0.026654 0.054511 0.232387
0.027967 0.054905 0.234105
0.029153 0.055029 0.234673
0.030281 0.055036 0.234746
0.031415 0.055056 0.234875
0.032603 0.055165 0.235385
0.033766 0.055225 0.235686
0.035061 0.055490 0.236863
0.036172 0.055458 0.236774
0.037650 0.055971 0.239014
0.038815 0.056005 0.239206
0.040019 0.056090 0.239619
0.041221 0.056166 0.239998
0.042373 0.056174 0.240082
0.043622 0.056305 0.240696
0.044782 0.056319 0.240806
0.046338 0.056815 0.242983
0.047709 0.057067 0.244114
0.049382 0.057660 0.246705
0.050700 0.057820 0.247444
0.051682 0.057598 0.246549
0.052850 0.057590 0.246568
0.054313 0.057895 0.247927
0.055901 0.058318 0.249791
0.057233 0.058462 0.250461
0.058382 0.058416 0.250319
0.059590 0.058430 0.250432
0.060936 0.058576 0.251108
0.062202 0.058642 0.251441
0.063534 0.058765 0.252019
0.065042 0.059044 0.253263
0.066559 0.059321 0.254497
0.067959 0.059485 0.255246
0.069208 0.059513 0.255411
0.070632 0.059689 0.256206
0.071870 0.059704 0.256311
0.073313 0.059886 0.257129
0.074727 0.060038 0.257819
0.075943 0.060030 0.257816
0.077374 0.060187 0.258525
0.078768 0.060312 0.259090
0.080228 0.060484 0.259852
0.081657 0.060626 0.260488
0.082859 0.060598 0.260388
0.084091 0.060593 0.260382
0.085373 0.060624 0.260526
0.086585 0.060604 0.260451
0.087747 0.060550 0.260225
0.088806 0.060428 0.259701
0.086860 0.058292 0.250520
0.087792 0.058120 0.249773
0.088378 0.057726 0.248069
0.089543 0.057715 0.248009
0.090270 0.057427 0.246748
0.091330 0.057354 0.246413
0.092401 0.057291 0.246112
0.093134 0.057022 0.244921
0.094268 0.057001 0.244795
0.094956 0.056716 0.243525
0.095631 0.056429 0.242243
0.096373 0.056188 0.241154
0.097310 0.056065 0.240565
0.098194 0.055914 0.239852
0.099058 0.055756 0.239101
0.100108 0.055705 0.238803
0.100971 0.055552 0.238062
0.101925 0.055452 0.237541
0.102963 0.055399 0.237216
0.103779 0.055230 0.236383
0.104412 0.054967 0.235147
0.105060 0.054718 0.233960
0.104927 0.054071 0.231069
0.105056 0.053572 0.228801
0.105035 0.053007 0.226248
0.105154 0.052524 0.224038
0.104765 0.051800 0.220794
0.105212 0.051498 0.219348
0.105639 0.051194 0.217879
0.106279 0.050997 0.216863
0.107021 0.050852 0.216060
0.107469 0.050572 0.214673
0.108357 0.050503 0.214171
0.109058 0.050348 0.213296
0.109733 0.050184 0.212377
0.110622 0.050121 0.211868
0.111346 0.049984 0.211040
-1.015704 0.454807 1.896573
-1.017582 0.459744 1.919309
-1.038281 0.473350 1.978223
-1.028521 0.473193 1.979576
-1.015981 0.471742 1.975413
-1.009182 0.472955 1.982310
-1.004099 0.475002 1.992625
-0.909445 0.434314 1.823441
-0.890002 0.429107 1.802989
-0.887082 0.431843 1.815827
-0.865528 0.425473 1.790291
-1.552260 0.770593 3.244617
-1.538874 0.771573 3.250755
-1.516998 0.768272 3.238739
-1.494275 0.764472 3.224482
-1.487018 0.768587 3.243502
-1.470869 0.768145 3.243188
-1.457359 0.769086 3.248610
-1.439618 0.767791 3.244484
-1.426365 0.768888 3.250366
-1.412982 0.769939 3.255958
-0.955571 0.526406 2.226817
-0.946246 0.527050 2.230206
-0.934008 0.526070 2.226658
-1.378208 0.785066 3.323705
-1.364486 0.786169 3.329101
-1.355943 0.790316 3.347312
-1.356331 0.799827 3.388170
-0.714450 0.431446 1.828159
-0.706865 0.432063 1.830960
-0.698422 0.432164 1.831540
-0.683794 0.428393 1.815673
-0.679020 0.430779 1.825861
-0.306172 0.236008 0.999214
-0.301571 0.236089 0.999379
-0.296572 0.235855 0.998202
-0.292488 0.236354 1.000115
-0.287990 0.236530 1.000650
-0.283417 0.236648 1.000933
-0.278910 0.236826 1.001463
-0.274182 0.236820 1.001205
-0.269218 0.236607 1.000064
-0.264437 0.236550 0.999576
-0.259080 0.235966 0.996857
-0.253934 0.235555 0.994867
-0.247754 0.234154 0.988685
-0.241755 0.232872 0.983008
-0.234622 0.230427 0.972421
-0.227274 0.227669 0.960515
-0.219623 0.224488 0.946832
-0.215412 0.224766 0.947733
-0.156640 0.174323 0.734403
-0.151853 0.172832 0.727906
-0.149021 0.173548 0.730707
-0.143771 0.171415 0.721516
-0.138578 0.169249 0.712185
-0.133021 0.166518 0.700488
-0.127144 0.163237 0.686485
-0.122535 0.161455 0.678790
-0.117685 0.159250 0.669324
-0.114973 0.159895 0.671843
-0.118672 0.169750 0.713045
-0.115399 0.169917 0.713542
-0.112230 0.170252 0.714745
-0.109195 0.170817 0.716919
-0.105787 0.170817 0.716720
-0.102416 0.170879 0.716785
-0.099091 0.171025 0.717203
-0.095482 0.170675 0.715547
-0.089794 0.166443 0.697625
-0.086541 0.166576 0.698004
-0.080408 0.160954 0.674276
-0.076698 0.159915 0.669760
-0.073137 0.159111 0.666235
-0.070082 0.159385 0.667227
-0.067444 0.160678 0.672491
-0.020511 0.060344 0.252348
-0.019172 0.059923 0.250542
-0.017821 0.059410 0.248353
-0.016351 0.058394 0.244064
-0.015542 0.059767 0.249760
-0.013339 0.055562 0.232152
-0.012147 0.055184 0.230537
-0.010948 0.054699 0.228478
-0.009843 0.054629 0.228155
-0.008746 0.054592 0.227974
-0.007621 0.054342 0.226905
-0.006314 0.052499 0.219189
-0.005249 0.052333 0.218474
-0.004184 0.052095 0.217460
-0.003098 0.051335 0.214272
-0.002053 0.050856 0.212257
-0.001026 0.050311 0.209973
-0.000021 0.050258 0.209742
0.000988 0.050549 0.210947
0.002011 0.050871 0.212285
0.003058 0.051385 0.214426
0.004083 0.051367 0.214348
0.005181 0.052087 0.217356
0.006261 0.052420 0.218746
0.007342 0.052660 0.219752
0.008380 0.052567 0.219368
0.009482 0.052859 0.220593
0.010560 0.052964 0.221043
0.011690 0.053289 0.222412
0.012801 0.053484 0.223239
0.015000 0.053701 0.224182
0.016101 0.053792 0.224581
0.017236 0.053982 0.225394
0.018463 0.054415 0.227227
0.019595 0.054539 0.227768
0.020703 0.054587 0.227997
0.021878 0.054795 0.228897
0.023002 0.054864 0.229213
0.024102 0.054869 0.229268
0.025287 0.055061 0.230104
0.026433 0.055154 0.230530
0.028059 0.056202 0.234948
0.029170 0.056177 0.234883
0.030340 0.056263 0.235282
0.031451 0.056238 0.235218
0.032594 0.056269 0.235389
0.033849 0.056484 0.236336
0.034931 0.056408 0.236062
0.036248 0.056703 0.237341
0.037445 0.056798 0.237789
0.038767 0.057071 0.238977
0.039912 0.057075 0.239045
0.041135 0.057188 0.239565
0.042389 0.057337 0.240239
0.043637 0.057470 0.240847
0.044961 0.057692 0.241830
0.046262 0.057875 0.242650
0.047664 0.058173 0.243951
0.048960 0.058330 0.244662
0.050087 0.058283 0.244517
0.051295 0.058330 0.244766
0.052484 0.058353 0.244914
0.054571 0.059353 0.249164
0.055832 0.059431 0.249540
0.057091 0.059503 0.249895
0.058303 0.059523 0.250031
0.059564 0.059593 0.250372
0.060886 0.059719 0.250950
0.062276 0.059905 0.251784
0.063607 0.060029 0.252351
0.065134 0.060330 0.253662
0.066452 0.060431 0.254129
0.067913 0.060654 0.255112
0.069333 0.060834 0.255908
0.070613 0.060887 0.256171
0.071940 0.060978 0.256591
0.073166 0.060982 0.256645
0.074517 0.061088 0.257124
0.075892 0.061209 0.257665
0.077268 0.061328 0.258196
0.078941 0.061675 0.259682
0.080241 0.061725 0.259912
0.081567 0.061792 0.260215
0.082897 0.061860 0.260521
0.084169 0.061884 0.260633
0.085401 0.061878 0.260617
0.086622 0.061864 0.260566
0.087858 0.061861 0.260556
0.088841 0.061683 0.259804
0.086762 0.059412 0.250236
0.087879 0.059362 0.250013
0.088633 0.059071 0.248776
0.089396 0.058794 0.247591
0.090540 0.058771 0.247473
0.091346 0.058532 0.246441
0.092153 0.058300 0.245431
0.093114 0.058170 0.244845
0.093884 0.057925 0.243772
0.094489 0.057585 0.242297
0.095362 0.057415 0.241528
0.096300 0.057288 0.240936
0.097039 0.057047 0.239856
0.098150 0.057027 0.239705
0.098982 0.056848 0.238874
0.099911 0.056727 0.238287
0.100817 0.056597 0.237648
0.101719 0.056467 0.237008
0.102669 0.056366 0.236482
0.103449 0.056175 0.235571
0.104181 0.055962 0.234562
0.104823 0.055706 0.233365
0.105199 0.055316 0.231599
0.104819 0.054540 0.228214
0.104729 0.053929 0.225516
0.105044 0.053538 0.223727
0.104877 0.052911 0.220948
0.105294 0.052588 0.219434
0.105802 0.052317 0.218129
0.106225 0.052009 0.216662
0.106828 0.051794 0.215577
0.107480 0.051608 0.214598
0.108026 0.051374 0.213416
0.108853 0.051277 0.212791
0.109669 0.051176 0.212144
0.110432 0.051053 0.211392
0.111246 0.050956 0.210734
-1.018820 0.465329 1.901395
-1.015071 0.467783 1.913609
-1.037757 0.482575 1.976268
-1.023893 0.480486 1.969752
-1.023184 0.484589 1.988531
-1.019165 0.487187 2.001063
-0.989718 0.477564 1.963282
-0.901295 0.439031 1.806393
-0.883652 0.434567 1.789454
-0.882982 0.438445 1.806789
-0.868190 0.435318 1.795185
-1.554579 0.787182 3.248410
-1.541152 0.788171 3.254563
-1.515609 0.782922 3.234825
-1.499995 0.782748 3.235925
-1.494844 0.788087 3.259715
-1.475301 0.785871 3.252155
-1.460468 0.786143 3.254781
-1.445839 0.786534 3.257793
-1.432038 0.787388 3.262627
-1.418584 0.788453 3.268243
-0.949445 0.533493 2.212150
-0.944990 0.536880 2.226884
-0.927752 0.532998 2.211412
-1.393807 0.809833 3.360864
-1.379912 0.810960 3.366322
-1.357326 0.806947 3.350353
-1.366935 0.822204 3.414325
-1.352781 0.823362 3.419679
-0.706282 0.435045 1.807126
-0.699444 0.436079 1.811627
-0.688910 0.434805 1.806508
-0.683090 0.436513 1.813737
-0.669414 0.433181 1.799987
-0.316605 0.245167 1.017922
-0.305837 0.240467 0.998253
-0.301258 0.240563 0.998482
-0.296703 0.240681 0.998794
-0.292050 0.240722 0.998778
-0.287725 0.241041 0.999901
-0.283259 0.241249 1.000557
-0.278486 0.241199 1.000134
-0.273656 0.241096 0.999487
-0.268716 0.240892 0.998411
-0.263968 0.240856 0.998025
-0.258733 0.240365 0.995750
-0.253380 0.239746 0.992936
-0.247224 0.238329 0.986818
-0.241100 0.236889 0.980600
-0.233667 0.234082 0.968724
-0.226667 0.231605 0.958215
-0.218826 0.228151 0.943668
-0.211543 0.225147 0.930986
-0.155285 0.176275 0.728285
-0.150406 0.174613 0.721210
-0.146551 0.174088 0.718839
-0.141852 0.172514 0.712135
-0.137297 0.171042 0.705855
-0.131969 0.168510 0.695206
-0.126935 0.166232 0.685611
-0.122479 0.164613 0.678738
-0.118157 0.163092 0.672274
-0.121488 0.172342 0.710202
-0.118235 0.172513 0.710709
-0.115179 0.172991 0.712478
-0.112289 0.173755 0.715427
-0.109229 0.174295 0.717454
-0.105692 0.174085 0.716397
-0.102335 0.174168 0.716544
-0.099097 0.174466 0.717582
-0.095194 0.173571 0.713718
-0.089888 0.169960 0.698691
-0.084931 0.166756 0.685349
-0.080606 0.164586 0.676268
-0.076887 0.163525 0.671746
-0.073683 0.163516 0.671555
-0.070697 0.164010 0.673431
-0.067337 0.163646 0.671786
-0.065403 0.166881 0.684922
-0.020871 0.062639 0.256931
-0.019238 0.061338 0.251550
-0.018015 0.061264 0.251200
-0.016769 0.061091 0.250448
-0.015516 0.060868 0.249495
-0.014201 0.060343 0.247302
-0.012889 0.059739 0.244792
-0.011555 0.058901 0.241326
-0.009978 0.056501 0.231461
-0.008806 0.056077 0.229697
-0.007676 0.055843 0.228715
-0.006608 0.056058 0.229571
-0.005273 0.053643 0.219660
-0.004201 0.053372 0.218531
-0.003090 0.052267 0.213992
-0.002047 0.051764 0.211918
-0.001020 0.051116 0.209256
-0.000019 0.051472 0.210701
0.000992 0.051656 0.211445
0.002007 0.051722 0.211710
0.003046 0.052174 0.213556
0.004065 0.052140 0.213416
0.005124 0.052524 0.214985
0.006243 0.053289 0.218118
0.007306 0.053428 0.218692
0.008387 0.053648 0.219599
0.009431 0.053606 0.219436
0.011685 0.054322 0.222389
0.013931 0.054781 0.224295
0.015009 0.054798 0.224384
0.016102 0.054865 0.224674
0.017246 0.055082 0.225586
0.018431 0.055400 0.226911
0.019592 0.055614 0.227813
0.020720 0.055716 0.228256
0.021845 0.055800 0.228629
0.022960 0.055852 0.228870
0.024170 0.056118 0.229994
0.025645 0.056951 0.233442
0.026727 0.056876 0.233169
0.027960 0.057117 0.234193
0.029126 0.057207 0.234601
0.030227 0.057169 0.234485
0.031387 0.057241 0.234817
0.032577 0.057359 0.235344
0.033663 0.057293 0.235116
0.034990 0.057627 0.236531
0.036189 0.057738 0.237031
0.037398 0.057855 0.237557
0.038678 0.058074 0.238501
0.039939 0.058251 0.239277
0.041112 0.058294 0.239502
0.042438 0.058546 0.240585
0.043642 0.058620 0.240938
0.044932 0.058804 0.241742
0.046222 0.058977 0.242503
0.047493 0.059118 0.243136
0.048847 0.059355 0.244159
0.050106 0.059467 0.244669
0.051297 0.059494 0.244833
0.053088 0.060202 0.247793
0.054146 0.060064 0.247277
0.055817 0.060599 0.249528
0.057023 0.060616 0.249649
0.058323 0.060730 0.250167
0.059553 0.060770 0.250376
0.060973 0.060996 0.251357
0.062329 0.061152 0.252043
0.063653 0.061271 0.252580
0.065068 0.061471 0.253448
0.066422 0.061607 0.254051
0.068017 0.061958 0.255538
0.069313 0.062029 0.255871
0.070574 0.062066 0.256062
0.071945 0.062198 0.256639
0.073310 0.062320 0.257177
0.074567 0.062347 0.257319
0.075851 0.062396 0.257549
0.077259 0.062544 0.258186
0.078851 0.062833 0.259404
0.080193 0.062918 0.259772
0.081434 0.062922 0.259806
0.082764 0.062993 0.260114
0.083989 0.062983 0.260085
0.085296 0.063034 0.260303
0.086602 0.063083 0.260508
0.087884 0.063114 0.260633
0.089033 0.063049 0.260361
0.086983 0.060751 0.250866
0.087901 0.060561 0.250068
0.088577 0.060211 0.248607
0.089754 0.060207 0.248569
0.090429 0.059870 0.247152
0.091512 0.059808 0.246868
0.092285 0.059548 0.245759
0.093159 0.059359 0.244938
0.094257 0.059315 0.244713
0.094665 0.058844 0.242718
0.095569 0.058688 0.242019
0.096217 0.058381 0.240691
0.097220 0.058293 0.240264
0.097998 0.058075 0.239290
0.098955 0.057966 0.238761
0.100114 0.057977 0.238720
0.100930 0.057790 0.237861
0.101870 0.057679 0.237302
0.102820 0.057575 0.236770
0.103609 0.057384 0.235873
0.104424 0.057212 0.235043
0.104979 0.056902 0.233643
0.104686 0.056144 0.230397
0.104935 0.055690 0.228392
0.104631 0.054954 0.225227
0.105117 0.054644 0.223801
0.105634 0.054356 0.222459
0.105808 0.053899 0.220418
0.105855 0.053387 0.218147
0.106318 0.053093 0.216758
0.106795 0.052812 0.215413
0.107333 0.052565 0.214204
0.107996 0.052384 0.213252
0.108755 0.052253 0.212492
0.109679 0.052202 0.212051
0.110557 0.052131 0.211513
0.111350 0.052021 0.210810
-1.014033 0.472226 1.891430
-1.012518 0.475758 1.907797
-1.018553 0.482935 1.938723
-1.020535 0.488303 1.962344
-1.021378 0.493221 1.984101
-1.001042 0.487909 1.964605
-0.997380 0.490701 1.977639
-0.905570 0.449765 1.814220
-0.882592 0.442559 1.786611
-0.884348 0.447736 1.808909
-0.861624 0.440499 1.780975
-1.550056 0.800285 3.237859
-1.536646 0.801279 3.244000
-1.516599 0.798798 3.235945
-1.501694 0.799003 3.238648
-1.491579 0.801788 3.251700
-1.474755 0.800987 3.250104
-1.459614 0.801093 3.252080
-1.444336 0.801125 3.253654
-1.431582 0.802574 3.260882
-1.418113 0.803649 3.266497
-0.955342 0.547335 2.225471
-0.940411 0.544757 2.215708
-0.936009 0.548288 2.230734
-1.402782 0.831033 3.382009
-1.388780 0.832179 3.387501
-1.372637 0.832054 3.387738
-1.365768 0.837615 3.411044
-0.706841 0.443929 1.808408
-0.698489 0.444025 1.809027
-0.688819 0.443275 1.806167
-0.680970 0.443694 1.808028
-0.666212 0.439564 1.791317
-0.316259 0.249703 1.016926
-0.305521 0.244931 0.997344
-0.301046 0.245110 0.997914
-0.296213 0.244998 0.997291
-0.291824 0.245255 0.998161
-0.287258 0.245371 0.998443
-0.282843 0.245620 0.999263
-0.278103 0.245593 0.998946
-0.273261 0.245472 0.998240
-0.268545 0.245462 0.997981
-0.263773 0.245400 0.997502
-0.258578 0.244935 0.995380
-0.253317 0.244390 0.992926
-0.246892 0.242680 0.985733
-0.240649 0.241087 0.979018
-0.232518 0.237503 0.964217
-0.223834 0.233200 0.946502
-0.217832 0.231573 0.939649
-0.212054 0.230121 0.933507
-0.152471 0.176479 0.715319
-0.147506 0.174608 0.707539
-0.144626 0.175175 0.709638
-0.140087 0.173713 0.703520
-0.135904 0.172631 0.698942
-0.131345 0.171006 0.692168
-0.126588 0.169034 0.683997
-0.122258 0.167543 0.677774
-0.117822 0.165824 0.670631
-0.121215 0.175332 0.708888
-0.117968 0.175505 0.709393
-0.115060 0.176208 0.712040
-0.111974 0.176671 0.713719
-0.108931 0.177236 0.715810
-0.105706 0.177530 0.716808
-0.102148 0.177266 0.715556
-0.098725 0.177227 0.715216
-0.095073 0.176758 0.713142
-0.089375 0.172312 0.695032
-0.084366 0.168904 0.681118
-0.079872 0.166297 0.670444
-0.077155 0.167324 0.674427
-0.073731 0.166842 0.672332
-0.070362 0.166447 0.670590
-0.067835 0.168101 0.677107
-0.065298 0.169895 0.684190
-0.063089 0.172775 0.695648
-0.020837 0.063769 0.256655
-0.019333 0.062859 0.252948
-0.018032 0.062530 0.251579
-0.016776 0.062323 0.250706
-0.015515 0.062067 0.249633
-0.014165 0.061380 0.246835
-0.012962 0.061263 0.246330
-0.011783 0.061248 0.246237
-0.010467 0.060443 0.242969
-0.009258 0.060130 0.241683
-0.007876 0.058444 0.234881
-0.006668 0.057703 0.231879
-0.005499 0.057067 0.229303
-0.004551 0.058989 0.237003
-0.003359 0.057970 0.232894
-0.002069 0.053395 0.214497
-0.001023 0.052347 0.210277
-0.000017 0.052371 0.210365
0.000988 0.052333 0.210202
0.002138 0.056129 0.225443
0.003059 0.053385 0.214419
0.004074 0.053249 0.213869
0.005160 0.053904 0.216499
0.006233 0.054231 0.217816
0.007309 0.054485 0.218838
0.008359 0.054505 0.218924
0.009427 0.054624 0.219410
0.010523 0.054866 0.220390
0.011668 0.055292 0.222112
0.012786 0.055533 0.223093
0.013876 0.055625 0.223478
0.014943 0.055619 0.223470
0.016060 0.055782 0.224145
0.017204 0.056018 0.225112
0.018432 0.056482 0.226999
0.019553 0.056582 0.227427
0.020709 0.056770 0.228209
0.021860 0.056924 0.228852
0.022995 0.057026 0.229293
0.024154 0.057173 0.229915
0.025474 0.057674 0.231962
0.026697 0.057920 0.232985
0.027831 0.057962 0.233190
0.029027 0.058125 0.233881
0.030205 0.058241 0.234385
0.031309 0.058212 0.234307
0.032480 0.058304 0.234719
0.033675 0.058431 0.235268
0.034922 0.058638 0.236147
0.036079 0.058685 0.236379
0.037405 0.058996 0.237673
0.038597 0.059083 0.238071
0.039768 0.059134 0.238322
0.041030 0.059314 0.239092
0.042245 0.059418 0.239557
0.043630 0.059748 0.240938
0.044783 0.059754 0.241006
0.046165 0.060055 0.242270
0.047500 0.060283 0.243237
0.048818 0.060478 0.244074
0.050231 0.060779 0.245336
0.051583 0.060995 0.246256
0.052922 0.061186 0.247074
0.054166 0.061260 0.247422
0.055516 0.061449 0.248232
0.056992 0.061767 0.249563
0.058260 0.061850 0.249947
0.059447 0.061847 0.249978
0.060891 0.062105 0.251067
0.062321 0.062339 0.252056
0.063672 0.062486 0.252695
0.064854 0.062467 0.252655
0.066301 0.062697 0.253626
0.067690 0.062866 0.254347
0.069177 0.063118 0.255403
0.070639 0.063339 0.256332
0.071953 0.063421 0.256696
0.073252 0.063488 0.256998
0.074631 0.063620 0.257564
0.076048 0.063781 0.258240
0.077229 0.063742 0.258105
0.078699 0.063938 0.258920
0.079962 0.063963 0.259036
0.081369 0.064100 0.259608
0.082687 0.064165 0.259880
0.083937 0.064174 0.259928
0.085156 0.064161 0.259877
0.086493 0.064236 0.260181
0.087801 0.064287 0.260383
0.088754 0.064080 0.259539
0.089714 0.063884 0.258733
0.087802 0.061676 0.249777
0.088845 0.061574 0.249345
0.089467 0.061188 0.247756
0.090344 0.060983 0.246899
0.091296 0.060834 0.246263
0.092293 0.060718 0.245754
0.093128 0.060500 0.244828
0.094050 0.060342 0.244142
0.095105 0.060273 0.243809
0.095980 0.060093 0.243023
0.096648 0.059789 0.241728
0.097476 0.059590 0.240851
0.098527 0.059531 0.240535
0.099198 0.059245 0.239298
0.100008 0.059048 0.238415
0.100889 0.058897 0.237709
0.101753 0.058739 0.236970
0.102675 0.058618 0.236373
0.103431 0.058406 0.235401
0.104135 0.058169 0.234323
0.104672 0.057846 0.232888
0.104478 0.057129 0.229863
0.104347 0.056461 0.227033
0.104843 0.056143 0.225602
0.105334 0.055828 0.224178
0.105550 0.055375 0.222194
0.105678 0.054886 0.220057
0.105972 0.054492 0.218294
0.106297 0.054121 0.216617
0.106871 0.053883 0.215465
0.107477 0.053666 0.214387
0.107866 0.053345 0.212887
0.108503 0.053151 0.211886
0.109548 0.053160 0.211680
0.110311 0.053033 0.210922
