ply
format ascii 1.0
element vertex 1745
property float x
property float y
property float z
end_header
-0.006643 0.036297 0.227674
-0.005569 0.036451 0.228614
-0.004487 0.036619 0.229646
-0.003386 0.036691 0.230075
-0.002275 0.036665 0.229892
-0.001172 0.036859 0.231096
-0.000058 0.036937 0.231575
0.001062 0.037013 0.232041
0.002190 0.037155 0.232928
0.003325 0.037286 0.233743
0.004458 0.037326 0.233998
0.005591 0.037352 0.234161
0.006734 0.037427 0.234637
0.007888 0.037530 0.235294
0.009128 0.037963 0.238016
0.010281 0.037981 0.238144
0.011444 0.038025 0.238444
0.012613 0.038082 0.238817
0.013777 0.038114 0.239043
0.014959 0.038186 0.239525
0.016159 0.038290 0.240204
0.017360 0.038384 0.240826
0.018540 0.038421 0.241096
0.019740 0.038493 0.241586
0.020960 0.038594 0.242258
0.022200 0.038719 0.243087
0.023440 0.038833 0.243847
0.024671 0.038920 0.244441
0.025868 0.038948 0.244667
0.027094 0.039016 0.245147
0.028331 0.039091 0.245678
0.029546 0.039133 0.245997
0.030746 0.039153 0.246182
0.032023 0.039265 0.246949
0.033262 0.039324 0.247384
0.034512 0.039390 0.247869
0.035730 0.039418 0.248111
0.036966 0.039463 0.248465
0.038224 0.039528 0.248946
0.039447 0.039554 0.249182
0.040660 0.039567 0.249341
0.041847 0.039556 0.249348
0.043044 0.039555 0.249419
0.044163 0.039484 0.249049
0.045339 0.039467 0.249018
0.046483 0.039423 0.248819
0.047548 0.039315 0.248220
0.048775 0.039344 0.248483
0.049917 0.039304 0.248314
0.050826 0.039087 0.247025
0.051426 0.038647 0.244325
0.052068 0.038259 0.241949
0.052141 0.037478 0.237089
0.053286 0.037484 0.237206
0.053915 0.037134 0.235069
0.054849 0.037005 0.234330
0.055708 0.036831 0.233305
0.056673 0.036732 0.232755
0.057435 0.036509 0.231414
0.058318 0.036369 0.230603
0.059180 0.036221 0.229737
0.059839 0.035958 0.228136
0.060420 0.035656 0.226295
0.061286 0.035531 0.225570
0.062297 0.035494 0.225397
0.063072 0.035324 0.224387
0.063877 0.035178 0.223518
0.064847 0.035125 0.223246
0.065274 0.034785 0.221142
0.066107 0.034668 0.220458
0.066948 0.034559 0.219818
0.067689 0.034403 0.218877
0.068390 0.034231 0.217836
0.068869 0.033955 0.216125
0.069670 0.033843 0.215461
0.070380 0.033691 0.214536
0.071151 0.033572 0.213818
0.071890 0.033442 0.213025
0.072620 0.033311 0.212225
0.073365 0.033191 0.211486
0.073447 0.032777 0.208881
0.074175 0.032660 0.208155
0.074740 0.032474 0.206994
0.074873 0.032109 0.204678
0.075180 0.031825 0.202886
0.075644 0.031615 0.201557
0.075136 0.031009 0.197699
0.074653 0.030428 0.193995
0.074910 0.030160 0.192279
0.075303 0.029952 0.190947
0.075812 0.029794 0.189930
0.076345 0.029649 0.188995
0.076626 0.029411 0.187457
0.077383 0.029359 0.187103
0.077732 0.029155 0.185777
0.078188 0.028996 0.184726
0.078747 0.028877 0.183937
0.079155 0.028707 0.182809
0.079732 0.028601 0.182087
0.080309 0.028497 0.181373
0.080835 0.028377 0.180555
0.081302 0.028240 0.179617
0.081911 0.028154 0.179003
0.082501 0.028063 0.178353
0.082727 0.027852 0.176929
0.082599 0.027526 0.174780
0.083154 0.027433 0.174097
0.083511 0.027277 0.173012
0.083917 0.027140 0.172038
0.084416 0.027035 0.171265
0.084837 0.026908 0.170342
0.085222 0.026771 0.169356
0.085302 0.026542 0.167779
0.085871 0.026468 0.167177
0.086391 0.026381 0.166483
0.086719 0.026237 0.165424
-0.978764 0.306251 1.893925
-0.978780 0.309087 1.912841
-0.973392 0.310253 1.921361
-0.959479 0.308698 1.912951
-0.956724 0.310738 1.926741
-0.951261 0.311929 1.935205
-0.943655 0.312433 1.939344
-0.938960 0.313921 1.949521
-0.936527 0.316202 1.964565
-0.933944 0.318478 1.979520
-0.934610 0.325197 2.022753
-0.936826 0.329323 2.049060
-0.928582 0.329819 2.052730
-0.836866 0.300367 1.869898
-0.819266 0.297172 1.850429
-0.818085 0.299929 1.867965
-0.809582 0.300032 1.868926
-1.425988 0.534271 3.328497
-1.412547 0.535106 3.334089
-1.393364 0.533759 3.326012
-1.373561 0.532142 3.316167
-1.367079 0.535709 3.338544
-1.351012 0.535558 3.337685
-1.334834 0.535360 3.336453
-1.320763 0.536012 3.340454
-1.305499 0.536190 3.341429
-1.295684 0.538637 3.356479
-1.281965 0.539503 3.361604
-0.864656 0.368423 2.295395
-0.858292 0.370333 2.307026
-0.849652 0.371297 2.312724
-0.293730 0.164065 1.017467
-0.288455 0.163799 1.015465
-0.283845 0.163909 1.015780
-0.279419 0.164130 1.016780
-0.274708 0.164189 1.016770
-0.269548 0.163976 1.015073
-0.264447 0.163793 1.013555
-0.258585 0.163123 1.009020
-0.251241 0.161475 0.998439
-0.244658 0.160263 0.990551
-0.118582 0.087789 0.541302
-0.121616 0.092033 0.567238
-0.041538 0.039276 0.241205
-0.040432 0.039320 0.241385
-0.039550 0.039591 0.242956
-0.038905 0.040123 0.246127
-0.032527 0.034591 0.212116
-0.030620 0.033611 0.206032
-0.029525 0.033487 0.205197
-0.028644 0.033605 0.205848
-0.027705 0.033663 0.206129
-0.030857 0.038877 0.237976
-0.027127 0.035489 0.217166
-0.025951 0.035305 0.215973
-0.024963 0.035372 0.216313
-0.023993 0.035472 0.216855
-0.022967 0.035495 0.216933
-0.021993 0.035604 0.217533
-0.021002 0.035694 0.218021
-0.019984 0.035746 0.218279
-0.019001 0.035870 0.218984
-0.017972 0.035917 0.219213
-0.017041 0.036178 0.220754
-0.016028 0.036286 0.221361
-0.015001 0.036378 0.221874
-0.014012 0.036583 0.223081
-0.012969 0.036668 0.223550
-0.011955 0.036860 0.224680
-0.010900 0.036949 0.225187
-0.009829 0.036999 0.225452
-0.008768 0.037107 0.226077
-0.007685 0.037133 0.226203
-0.006626 0.037308 0.227243
-0.005565 0.037536 0.228606
-0.004488 0.037750 0.229887
-0.003383 0.037784 0.230073
-0.002275 0.037800 0.230151
-0.001171 0.037975 0.231204
-0.000056 0.038046 0.231624
0.001062 0.038084 0.231844
0.002187 0.038205 0.232579
0.003315 0.038283 0.233048
0.004445 0.038328 0.233323
0.005582 0.038406 0.233803
0.006743 0.038598 0.234976
0.007945 0.038932 0.237020
0.009097 0.038971 0.237267
0.010270 0.039081 0.237948
0.011433 0.039131 0.238274
0.012593 0.039164 0.238493
0.013763 0.039221 0.238862
0.014941 0.039289 0.239306
0.016158 0.039443 0.240274
0.017355 0.039530 0.240832
0.018555 0.039612 0.241369
0.019747 0.039669 0.241750
0.020979 0.039796 0.242565
0.022204 0.039895 0.243213
0.023463 0.040042 0.244158
0.024665 0.040084 0.244456
0.025871 0.040128 0.244778
0.027079 0.040169 0.245083
0.028297 0.040224 0.245470
0.029479 0.040223 0.245523
0.030686 0.040255 0.245775
0.031964 0.040376 0.246573
0.033197 0.040431 0.246972
0.034443 0.040498 0.247451
0.035667 0.040536 0.247750
0.036896 0.040578 0.248070
0.038137 0.040628 0.248451
0.039363 0.040661 0.248722
0.040591 0.040694 0.248996
0.041760 0.040667 0.248904
0.042935 0.040647 0.248860
0.044130 0.040646 0.248931
0.045269 0.040595 0.248699
0.046420 0.040559 0.248550
0.047537 0.040493 0.248230
0.048699 0.040470 0.248163
0.049835 0.040425 0.247971
0.050751 0.040208 0.246721
0.051593 0.039945 0.245183
0.051213 0.038767 0.238035
0.052239 0.038682 0.237589
0.053182 0.038541 0.236796
0.053776 0.038158 0.234519
0.054009 0.037539 0.230790
0.054828 0.037344 0.229668
0.056068 0.037438 0.230320
0.056942 0.037289 0.229476
0.057869 0.037180 0.228873
0.058811 0.037084 0.228352
0.059633 0.036916 0.227390
0.060411 0.036729 0.226303
0.061280 0.036602 0.225587
0.062065 0.036430 0.224595
0.062919 0.036304 0.223880
0.063666 0.036121 0.222813
0.064421 0.035949 0.221812
0.065235 0.035815 0.221041
0.066010 0.035663 0.220162
0.066720 0.035482 0.219098
0.067436 0.035310 0.218086
0.068268 0.035203 0.217471
0.068933 0.035014 0.216349
0.069639 0.034851 0.215385
0.070280 0.034661 0.214251
0.070951 0.034490 0.213237
0.071809 0.034414 0.212802
0.072544 0.034282 0.212018
0.073002 0.034025 0.210453
0.073449 0.033769 0.208898
0.073735 0.033447 0.206929
0.074388 0.033299 0.206027
0.074841 0.033065 0.204596
0.075495 0.032925 0.203741
0.076054 0.032748 0.202651
0.076298 0.032441 0.200757
0.075176 0.031568 0.195353
0.075173 0.031180 0.192952
0.075492 0.030935 0.191423
0.075891 0.030727 0.190123
0.075650 0.030268 0.187268
0.076383 0.030204 0.186855
0.076964 0.030083 0.186080
0.077552 0.029967 0.185335
0.078032 0.029813 0.184346
0.078552 0.029677 0.183467
0.079208 0.029595 0.182916
0.079776 0.029482 0.182168
0.080389 0.029388 0.181534
0.080746 0.029203 0.180334
0.081153 0.029040 0.179264
0.081788 0.028962 0.178710
0.082196 0.028805 0.177668
0.082605 0.028652 0.176641
0.082981 0.028490 0.175558
0.083339 0.028326 0.174453
0.083780 0.028193 0.173535
0.084124 0.028030 0.172427
0.084621 0.027921 0.171645
0.084983 0.027769 0.170596
0.085364 0.027627 0.169597
0.085564 0.027429 0.168253
0.085997 0.027309 0.167378
0.086381 0.027176 0.166417
0.086891 0.027084 0.165705
-0.987729 0.318139 1.910817
-0.979972 0.318557 1.914737
-0.962003 0.315633 1.898473
-0.963149 0.318984 1.919877
-0.954959 0.319278 1.922816
-0.947657 0.319878 1.927524
-0.941353 0.320830 1.934284
-0.936219 0.322202 1.943519
-0.932296 0.324023 1.955397
-0.933471 0.327670 1.978242
-0.939656 0.333167 2.012210
-0.931551 0.333657 2.015894
-0.938182 0.339490 2.051802
-0.929917 0.339999 2.055478
-0.835626 0.308734 1.866961
-0.819676 0.306058 1.851209
-0.826063 0.311753 1.886050
-0.809769 0.308920 1.869245
-0.794445 0.306399 1.854273
-1.412846 0.550945 3.334654
-1.394607 0.549933 3.328867
-1.379305 0.550069 3.329953
-1.370921 0.552999 3.347875
-1.354591 0.552755 3.346503
-1.343763 0.554776 3.358779
-1.327903 0.554744 3.358547
-1.315106 0.556006 3.366081
-1.301359 0.556892 3.371274
-0.866955 0.380257 2.301600
-0.857871 0.381027 2.306017
-0.839732 0.377744 2.285863
-0.301006 0.170282 1.026424
-0.293949 0.169012 1.018424
-0.288913 0.168880 1.017281
-0.283628 0.168596 1.015216
-0.279339 0.168904 1.016710
-0.274491 0.168880 1.016192
-0.269378 0.168689 1.014670
-0.264319 0.168524 1.013303
-0.258773 0.168039 1.010002
-0.253305 0.167586 1.006894
-0.247626 0.166974 1.002828
-0.129710 0.096750 0.579931
-0.124928 0.095206 0.570446
-0.121492 0.094641 0.566835
-0.116715 0.092982 0.556676
-0.114698 0.093497 0.559536
-0.110903 0.092552 0.553659
-0.106528 0.091065 0.544547
-0.103746 0.090900 0.543347
-0.100826 0.090601 0.541351
-0.099133 0.091420 0.546031
-0.041981 0.042026 0.250724
-0.039581 0.040787 0.243238
-0.038861 0.041256 0.245946
-0.037777 0.041356 0.246450
-0.036406 0.041137 0.245061
-0.029614 0.034576 0.205902
-0.028860 0.034855 0.207490
-0.032268 0.040360 0.240177
-0.030821 0.039973 0.237799
-0.029204 0.039330 0.233892
-0.026143 0.036613 0.217665
-0.024951 0.036395 0.216303
-0.023749 0.036145 0.214754
-0.022775 0.036234 0.215217
-0.021842 0.036400 0.216140
-0.020854 0.036486 0.216593
-0.019915 0.036672 0.217637
-0.018902 0.036735 0.217953
-0.017994 0.037019 0.219585
-0.017016 0.037188 0.220537
-0.016023 0.037344 0.221412
-0.014989 0.037421 0.221817
-0.013999 0.037627 0.222994
-0.012956 0.037712 0.223453
-0.011925 0.037851 0.224235
-0.010900 0.038040 0.225316
-0.009825 0.038078 0.225510
-0.008752 0.038134 0.225804
-0.007679 0.038204 0.226190
-0.006606 0.038300 0.226732
-0.005554 0.038574 0.228329
-0.004477 0.038771 0.229469
-0.003375 0.038821 0.229743
-0.002275 0.038936 0.230409
-0.001168 0.039037 0.230992
-0.000054 0.039141 0.231598
0.001063 0.039188 0.231863
0.002185 0.039262 0.232296
0.003313 0.039355 0.232846
0.004439 0.039385 0.233023
0.005568 0.039424 0.233255
0.006720 0.039584 0.234206
0.007887 0.039776 0.235351
0.009080 0.040034 0.236890
0.010255 0.040163 0.237667
0.011430 0.040263 0.238274
0.012595 0.040314 0.238597
0.013753 0.040338 0.238761
0.014939 0.040433 0.239349
0.016144 0.040561 0.240135
0.017351 0.040676 0.240852
0.018547 0.040754 0.241348
0.019746 0.040827 0.241813
0.020956 0.040914 0.242370
0.022183 0.041025 0.243067
0.023444 0.041181 0.244039
0.024635 0.041208 0.244242
0.025837 0.041248 0.244533
0.027043 0.041292 0.244843
0.028233 0.041308 0.244994
0.029438 0.041343 0.245257
0.030645 0.041379 0.245528
0.031869 0.041435 0.245916
0.033095 0.041488 0.246297
0.034385 0.041615 0.247111
0.035565 0.041606 0.247122
0.036789 0.041646 0.247431
0.038039 0.041711 0.247888
0.039262 0.041745 0.248159
0.040453 0.041744 0.248223
0.041646 0.041744 0.248298
0.042837 0.041743 0.248363
0.044005 0.041720 0.248300
0.045186 0.041709 0.248312
0.046347 0.041682 0.248229
0.047522 0.041668 0.248222
0.048710 0.041665 0.248285
0.049964 0.041718 0.248676
0.050972 0.041568 0.247861
0.052082 0.041506 0.247571
0.052272 0.040729 0.243015
0.052147 0.039746 0.237226
0.053047 0.039571 0.236253
0.054147 0.039548 0.236193
0.054802 0.039207 0.234231
0.055553 0.038948 0.232756
0.056445 0.038795 0.231918
0.057113 0.038498 0.230210
0.057955 0.038327 0.229258
0.058747 0.038130 0.228149
0.059554 0.037949 0.227134
0.060423 0.037814 0.226391
0.061178 0.037613 0.225251
0.061912 0.037406 0.224078
0.062689 0.037232 0.223096
0.063471 0.037067 0.222167
0.064280 0.036923 0.221360
0.065141 0.036812 0.220754
0.065908 0.036653 0.219853
0.066724 0.036525 0.219138
0.067417 0.036336 0.218049
0.068040 0.036114 0.216768
0.068675 0.035906 0.215560
0.069388 0.035744 0.214632
0.070032 0.035552 0.213515
0.070730 0.035391 0.212588
0.071508 0.035275 0.211924
0.072243 0.035142 0.211153
0.072847 0.034949 0.210019
0.073209 0.034646 0.208225
0.073427 0.034285 0.206073
0.074271 0.034222 0.205710
0.074909 0.034066 0.204787
0.075263 0.033787 0.203119
0.075614 0.033514 0.201481
0.075784 0.033168 0.199405
0.075669 0.032707 0.196634
0.075645 0.032297 0.194163
0.075259 0.031744 0.190827
0.075687 0.031544 0.189607
0.075599 0.031135 0.187133
0.076228 0.031028 0.186465
0.076779 0.030892 0.185623
0.077437 0.030801 0.185047
0.077891 0.030632 0.183998
0.078239 0.030426 0.182719
0.078775 0.030297 0.181896
0.079474 0.030232 0.181459
0.080149 0.030160 0.180971
0.080697 0.030042 0.180203
0.081134 0.029886 0.179198
0.081731 0.029791 0.178557
0.082158 0.029637 0.177556
0.082448 0.029436 0.176274
0.082818 0.029269 0.175183
0.083197 0.029108 0.174123
0.083638 0.028971 0.173205
0.084039 0.028823 0.172216
0.084363 0.028652 0.171082
0.084849 0.028539 0.170286
0.085178 0.028376 0.169186
0.085372 0.028171 0.167831
0.085846 0.028061 0.167039
0.086259 0.027934 0.166135
0.086708 0.027821 0.165305
-0.980040 0.327674 1.914416
-0.973340 0.328470 1.920414
-0.956995 0.325995 1.907204
-0.955026 0.328416 1.922563
-0.948413 0.329272 1.928695
-0.941699 0.330110 1.934648
-0.936038 0.331336 1.942817
-0.930918 0.332780 1.952199
-0.943279 0.340565 1.998736
-0.935218 0.341059 2.002436
-0.933369 0.343852 2.019574
-0.942308 0.350717 2.060587
-0.921457 0.346523 2.036565
-0.838064 0.318474 1.872229
-0.818989 0.314530 1.849499
-0.821470 0.318870 1.875421
-0.810703 0.318105 1.871277
-0.791485 0.313971 1.847260
-1.434029 0.575169 3.384491
-1.400486 0.568015 3.342773
-1.382204 0.566960 3.336856
-1.376983 0.571299 3.362612
-1.359383 0.570544 3.358306
-1.345953 0.571542 3.364246
-1.334283 0.573321 3.374707
-1.315539 0.572065 3.367242
-0.860527 0.388211 2.284632
-0.854804 0.390502 2.297887
-0.844020 0.390511 2.297670
-0.300740 0.174989 1.025710
-0.294342 0.174069 1.019984
-0.288535 0.173474 1.016158
-0.283888 0.173568 1.016359
-0.279335 0.173724 1.016919
-0.274150 0.173485 1.015160
-0.269259 0.173427 1.014455
-0.264373 0.173371 1.013755
-0.259326 0.173205 1.012411
-0.254544 0.173213 1.012077
-0.248395 0.172274 1.006207
-0.243971 0.172518 1.007247
-0.129577 0.099411 0.579511
-0.126768 0.099367 0.579025
-0.123238 0.098742 0.575161
-0.118710 0.097272 0.566373
-0.114577 0.096065 0.559125
-0.110785 0.095093 0.553252
-0.107559 0.094572 0.550004
-0.104895 0.094531 0.549555
-0.102233 0.094490 0.549104
-0.099024 0.093927 0.545625
-0.095424 0.092954 0.539765
-0.092956 0.093060 0.540177
-0.041934 0.043178 0.250537
-0.040351 0.042768 0.248066
-0.038963 0.042546 0.246689
-0.037734 0.042488 0.246264
-0.036364 0.042263 0.244875
-0.035108 0.042161 0.244196
-0.033790 0.041974 0.243031
-0.032576 0.041909 0.242573
-0.031074 0.041454 0.239861
-0.029676 0.041108 0.237777
-0.028196 0.040617 0.234865
-0.025259 0.037898 0.219074
-0.023917 0.037440 0.216365
-0.022774 0.037268 0.215306
-0.021786 0.037344 0.215683
-0.020857 0.037535 0.216726
-0.019848 0.037594 0.217011
-0.018803 0.037587 0.216918
-0.017840 0.037752 0.217817
-0.017042 0.038311 0.220989
-0.015994 0.038344 0.221132
-0.014998 0.038515 0.222070
-0.013947 0.038560 0.222281
-0.012896 0.038612 0.222542
-0.011901 0.038857 0.223911
-0.010869 0.039018 0.224803
-0.009810 0.039112 0.225305
-0.008733 0.039142 0.225448
-0.007664 0.039224 0.225889
-0.006591 0.039310 0.226353
-0.005512 0.039389 0.226788
-0.004456 0.039705 0.228582
-0.003375 0.039943 0.229931
-0.002269 0.039963 0.230030
-0.001165 0.040104 0.230828
-0.000053 0.040201 0.231377
0.001064 0.040252 0.231659
0.002182 0.040301 0.231936
0.003310 0.040428 0.232664
0.004449 0.040590 0.233595
0.005606 0.040816 0.234898
0.006742 0.040838 0.235028
0.007884 0.040888 0.235328
0.009037 0.040973 0.235829
0.010234 0.041214 0.237230
0.011404 0.041313 0.237814
0.012585 0.041425 0.238480
0.013745 0.041458 0.238692
0.014909 0.041497 0.238940
0.016105 0.041611 0.239626
0.017294 0.041695 0.240139
0.018515 0.041840 0.241009
0.019748 0.041992 0.241918
0.020914 0.041993 0.241964
0.022123 0.042076 0.242482
0.023369 0.042217 0.243338
0.024640 0.042389 0.244376
0.025826 0.042403 0.244506
0.027009 0.042413 0.244614
0.028220 0.042463 0.244956
0.029425 0.042501 0.245229
0.030621 0.042524 0.245419
0.031830 0.042562 0.245694
0.033035 0.042591 0.245924
0.034271 0.042658 0.246376
0.035491 0.042701 0.246687
0.036692 0.042718 0.246851
0.037919 0.042765 0.247187
0.039164 0.042827 0.247617
0.040425 0.042903 0.248128
0.041597 0.042882 0.248079
0.042758 0.042853 0.247979
0.043942 0.042846 0.248015
0.045098 0.042814 0.247902
0.046275 0.042802 0.247909
0.047368 0.042716 0.247485
0.048870 0.042992 0.249166
0.049968 0.042910 0.248765
0.051009 0.042783 0.248107
0.051745 0.042411 0.246028
0.052632 0.042178 0.244752
0.052012 0.040773 0.236671
0.052700 0.040431 0.234761
0.053446 0.040148 0.233188
0.054371 0.040007 0.232443
0.055350 0.039911 0.231957
0.056187 0.039718 0.230908
0.056822 0.039393 0.229086
0.057649 0.039211 0.228093
0.058615 0.039128 0.227677
0.059410 0.038936 0.226626
0.060269 0.038792 0.225853
0.061121 0.038649 0.225083
0.061892 0.038459 0.224043
0.062630 0.038257 0.222925
0.063421 0.038093 0.222024
0.064037 0.037831 0.220555
0.064889 0.037714 0.219929
0.065700 0.037578 0.219186
0.066516 0.037449 0.218482
0.067228 0.037266 0.217464
0.067905 0.037070 0.216361
0.068618 0.036899 0.215406
0.069250 0.036689 0.214222
0.069946 0.036520 0.213271
0.070444 0.036253 0.211746
0.071259 0.036155 0.211202
0.072041 0.036042 0.210575
0.072648 0.035847 0.209456
0.072976 0.035521 0.207573
0.073528 0.035311 0.206366
0.074184 0.035156 0.205475
0.074825 0.034998 0.204561
0.075389 0.034808 0.203463
0.075939 0.034617 0.202347
0.075668 0.034061 0.199099
0.075534 0.033580 0.196281
0.075390 0.033106 0.193503
0.074994 0.032534 0.190148
0.075447 0.032340 0.188997
0.076127 0.032246 0.188431
0.076503 0.032027 0.187127
0.076983 0.031857 0.186104
0.077554 0.031727 0.185313
0.077810 0.031473 0.183792
0.078237 0.031293 0.182696
0.078826 0.031181 0.181995
0.079348 0.031045 0.181152
0.080005 0.030964 0.180624
0.080597 0.030861 0.179955
0.081072 0.030714 0.179035
0.081586 0.030586 0.178214
0.082200 0.030497 0.177617
0.082604 0.030333 0.176578
0.082821 0.030105 0.175157
0.083013 0.029871 0.173703
0.083469 0.029737 0.172819
0.083898 0.029595 0.171889
0.084223 0.029421 0.170759
0.084545 0.029248 0.169635
0.084882 0.029084 0.168555
0.085159 0.028902 0.167368
0.085448 0.028728 0.166217
0.085865 0.028599 0.165325
0.086460 0.028532 0.164780
-0.984318 0.338240 1.922296
-0.965664 0.334925 1.904820
-0.962186 0.336861 1.917121
-0.958507 0.338762 1.929163
-0.948216 0.338341 1.927908
-0.942455 0.339545 1.935836
-0.936722 0.340782 1.943893
-0.930796 0.341972 1.951622
-0.932325 0.345953 1.975219
-0.940794 0.352616 2.014086
-0.932662 0.353128 2.017775
-0.936243 0.358132 2.047074
-0.927976 0.358660 2.050742
-0.836446 0.326681 1.868423
-0.820812 0.323980 1.853446
-0.818216 0.326421 1.867838
-0.810610 0.326896 1.870926
-0.796143 0.324584 1.858016
-1.433128 0.590761 3.382186
-1.402269 0.584524 3.346886
-1.386832 0.584647 3.347916
-1.382537 0.589524 3.376094
-1.368802 0.590443 3.381526
-0.867686 0.397346 2.275497
-0.852237 0.395142 2.262710
-0.853293 0.400631 2.293936
-0.843843 0.401265 2.297318
-0.301048 0.180030 1.026955
-0.293207 0.178211 1.016252
-0.289319 0.178773 1.019127
-0.283499 0.178141 1.015181
-0.278888 0.178260 1.015512
-0.274236 0.178357 1.015710
-0.269151 0.178170 1.014287
-0.264384 0.178191 1.014045
-0.259104 0.177861 1.011797
-0.254084 0.177700 1.010510
-0.248364 0.177035 1.006351
-0.240803 0.175005 0.994440
-0.236419 0.175249 0.995449
-0.129652 0.102230 0.580023
-0.126411 0.101838 0.577573
-0.125483 0.103333 0.585825
-0.120040 0.101093 0.572904
-0.115899 0.099871 0.565765
-0.112169 0.098955 0.560355
-0.109020 0.098518 0.557668
-0.106052 0.098228 0.555812
-0.103246 0.098076 0.554742
-0.100083 0.097568 0.551660
-0.097566 0.097681 0.552091
-0.043316 0.044569 0.251810
-0.041666 0.044094 0.249033
-0.040273 0.043871 0.247682
-0.038939 0.043700 0.246632
-0.037511 0.043410 0.244909
-0.036150 0.043183 0.243538
-0.034842 0.043004 0.242449
-0.033609 0.042910 0.241837
-0.032275 0.042676 0.240437
-0.030941 0.042423 0.238936
-0.029699 0.042283 0.238069
-0.028375 0.042010 0.236460
-0.026955 0.041567 0.233892
-0.024506 0.039430 0.221804
-0.022957 0.038612 0.217142
-0.021837 0.038472 0.216295
-0.020868 0.038599 0.216948
-0.019909 0.038757 0.217777
-0.018873 0.038776 0.217829
-0.017858 0.038842 0.218150
-0.016934 0.039128 0.219705
-0.015942 0.039284 0.220529
-0.014921 0.039383 0.221040
-0.013906 0.039518 0.221756
-0.012883 0.039649 0.222449
-0.011862 0.039811 0.223315
-0.010848 0.040029 0.224503
-0.009794 0.040138 0.225077
-0.008722 0.040185 0.225311
-0.007648 0.040234 0.225555
-0.006580 0.040344 0.226143
-0.005510 0.040477 0.226862
-0.004458 0.040844 0.228896
-0.003372 0.041039 0.229970
-0.002271 0.041155 0.230605
-0.001163 0.041208 0.230884
-0.000051 0.041280 0.231280
0.001064 0.041333 0.231565
0.002184 0.041407 0.231974
0.003307 0.041480 0.232382
0.004436 0.041569 0.232879
0.005565 0.041623 0.233181
0.006703 0.041714 0.233698
0.007864 0.041905 0.234774
0.009048 0.042151 0.236167
0.010176 0.042111 0.235956
0.011364 0.042303 0.237047
0.012550 0.042450 0.237888
0.013703 0.042473 0.238042
0.014879 0.042555 0.238528
0.016053 0.042622 0.238926
0.017269 0.042785 0.239874
0.018465 0.042879 0.240429
0.019739 0.043132 0.241887
0.020939 0.043205 0.242331
0.022125 0.043243 0.242587
0.023342 0.043335 0.243146
0.024572 0.043439 0.243775
0.025776 0.043491 0.244114
0.026970 0.043523 0.244340
0.028179 0.043574 0.244680
0.029375 0.043603 0.244898
0.030562 0.043616 0.245024
0.031803 0.043702 0.245566
0.032998 0.043721 0.245732
0.034204 0.043752 0.245970
0.035423 0.043799 0.246293
0.036629 0.043825 0.246504
0.037841 0.043857 0.246753
0.039080 0.043918 0.247163
0.040339 0.043997 0.247675
0.041519 0.043987 0.247688
0.042664 0.043942 0.247506
0.043847 0.043937 0.247550
0.045009 0.043913 0.247486
0.046120 0.043840 0.247152
0.047521 0.044040 0.248352
0.049063 0.044357 0.250218
0.050095 0.044210 0.249463
0.051126 0.044068 0.248737
0.052086 0.043873 0.247714
0.052649 0.043360 0.244892
0.052049 0.041932 0.236900
0.052322 0.041253 0.233135
0.053137 0.041021 0.231892
0.054104 0.040913 0.231354
0.054963 0.040730 0.230385
0.055880 0.040596 0.229698
0.056823 0.040485 0.229140
0.057681 0.040319 0.228265
0.058550 0.040167 0.227469
0.059474 0.040058 0.226914
0.060316 0.039898 0.226072
0.061116 0.039716 0.225105
0.061994 0.039590 0.224452
0.062716 0.039371 0.223268
0.063319 0.039085 0.221702
0.064112 0.038925 0.220846
0.064858 0.038741 0.219857
0.065634 0.038581 0.218997
0.066459 0.038454 0.218322
0.067075 0.038212 0.216996
0.067832 0.038056 0.216154
0.068365 0.037781 0.214633
0.069042 0.037593 0.213602
0.069633 0.037364 0.212335
0.070371 0.037219 0.211542
0.071051 0.037048 0.210600
0.071849 0.036942 0.210027
0.072509 0.036770 0.209068
0.073001 0.036518 0.207654
0.073186 0.036121 0.205412
0.073788 0.035937 0.204383
0.074423 0.035775 0.203468
0.074864 0.035524 0.202046
0.075368 0.035309 0.200829
0.075960 0.035140 0.199865
0.075883 0.034670 0.197185
0.075462 0.034056 0.193685
0.075911 0.033845 0.192469
0.076026 0.033491 0.190441
0.076072 0.033116 0.188284
0.076034 0.032713 0.185970
0.076761 0.032645 0.185552
0.076900 0.032332 0.183735
0.077430 0.032187 0.182877
0.078168 0.032132 0.182517
0.078696 0.031992 0.181677
0.079355 0.031908 0.181146
0.080041 0.031837 0.180681
0.080577 0.031708 0.179884
0.081003 0.031539 0.178855
0.081573 0.031429 0.178156
0.081983 0.031260 0.177116
0.082402 0.031098 0.176113
0.082658 0.030878 0.174777
0.082810 0.030625 0.173243
0.083316 0.030505 0.172464
0.083741 0.030359 0.171527
0.083868 0.030109 0.169997
0.084272 0.029962 0.169042
0.084688 0.029822 0.168123
0.085080 0.029676 0.167163
0.085540 0.029556 0.166346
0.085701 0.029336 0.164958
0.086009 0.029170 0.163866
-0.985553 0.347811 1.924208
-0.968115 0.344844 1.909183
-0.961776 0.345811 1.915856
-0.957638 0.347596 1.926987
-0.946143 0.346720 1.923292
-0.939584 0.347653 1.929559
-0.935364 0.349478 1.940714
-0.929733 0.350807 1.949052
-0.931822 0.355105 1.973832
-0.922004 0.354906 1.973559
-0.939391 0.365282 2.032047
-0.942668 0.370328 2.060854
-0.934335 0.370871 2.064548
-0.839618 0.336776 1.875304
-0.822541 0.333430 1.857167
-0.822017 0.336794 1.876350
-0.811967 0.336286 1.873912
-0.794686 0.332740 1.854490
-1.432209 0.606326 3.379820
-0.867051 0.407779 2.273893
-0.859723 0.409378 2.282669
-0.852614 0.411124 2.292216
-0.839338 0.409902 2.285179
-0.301291 0.185041 1.027977
-0.293509 0.183213 1.017500
-0.289376 0.183638 1.019536
-0.283967 0.183255 1.017076
-0.278930 0.183102 1.015890
-0.274107 0.183088 1.015466
-0.269184 0.183005 1.014653
-0.264321 0.182961 1.014052
-0.259147 0.182695 1.012219
-0.253638 0.182180 1.008999
-0.247434 0.181136 1.002850
-0.242962 0.181344 1.003632
-0.235095 0.178976 0.990157
-0.134296 0.108752 0.600979
-0.129318 0.106994 0.591037
-0.127203 0.107579 0.594042
-0.121863 0.105401 0.581797
-0.117503 0.103989 0.573785
-0.113212 0.102573 0.565755
-0.109744 0.101852 0.561568
-0.106550 0.101355 0.558619
-0.104227 0.101683 0.560215
-0.100899 0.101022 0.556366
-0.098361 0.101138 0.556800
-0.043265 0.045720 0.251612
-0.041789 0.045419 0.249866
-0.040087 0.044849 0.246639
-0.038419 0.044282 0.243436
-0.037238 0.044260 0.243231
-0.035978 0.044138 0.242477
-0.034703 0.043991 0.241586
-0.033186 0.043516 0.238896
-0.031738 0.043100 0.236534
-0.030357 0.042748 0.234531
-0.029131 0.042596 0.233624
-0.027924 0.042461 0.232812
-0.026750 0.042366 0.232220
-0.025391 0.041959 0.229921
-0.023515 0.040620 0.222524
-0.022122 0.040030 0.219229
-0.020941 0.039782 0.217811
-0.019848 0.039684 0.217222
-0.018841 0.039759 0.217576
-0.017830 0.039831 0.217918
-0.016870 0.040035 0.218986
-0.015909 0.040264 0.220188
-0.014932 0.040481 0.221331
-0.013883 0.040520 0.221499
-0.012873 0.040692 0.222397
-0.011838 0.040809 0.222998
-0.010826 0.041032 0.224181
-0.009773 0.041137 0.224719
-0.008706 0.041202 0.225043
-0.007640 0.041289 0.225486
-0.006563 0.041334 0.225706
-0.005499 0.041499 0.226580
-0.004429 0.041687 0.227586
-0.003368 0.042112 0.229887
-0.002265 0.042180 0.230244
-0.001158 0.042224 0.230466
-0.000049 0.042297 0.230854
0.001065 0.042385 0.231325
0.002180 0.042413 0.231473
0.003301 0.042501 0.231948
0.004422 0.042541 0.232169
0.005549 0.042615 0.232573
0.006683 0.042700 0.233043
0.007831 0.042844 0.233836
0.008988 0.042990 0.234642
0.010166 0.043194 0.235772
0.011333 0.043316 0.236454
0.012526 0.043504 0.237498
0.013696 0.043588 0.237978
0.014862 0.043648 0.238327
0.016056 0.043776 0.239053
0.017259 0.043908 0.239803
0.018462 0.044024 0.240468
0.019697 0.044198 0.241454
0.020893 0.044269 0.241882
0.022096 0.044348 0.242353
0.023289 0.044399 0.242672
0.024534 0.044539 0.243480
0.025739 0.044597 0.243845
0.026931 0.044630 0.244074
0.028123 0.044659 0.244281
0.029318 0.044690 0.244505
0.030520 0.044728 0.244769
0.031743 0.044794 0.245184
0.032926 0.044800 0.245276
0.034155 0.044866 0.245699
0.035363 0.044902 0.245954
0.036549 0.044908 0.246050
0.037753 0.044934 0.246260
0.039004 0.045013 0.246758
0.040214 0.045041 0.246980
0.041384 0.045025 0.246959
0.042546 0.045001 0.246895
0.043684 0.044952 0.246702
0.044829 0.044915 0.246565
0.045983 0.044887 0.246487
0.047400 0.045111 0.247789
0.049058 0.045548 0.250265
0.050095 0.045401 0.249532
0.051088 0.045222 0.248619
0.052172 0.045130 0.248189
0.053038 0.044857 0.246761
0.052902 0.043768 0.240843
0.052347 0.042385 0.233304
0.053184 0.042164 0.232153
0.053865 0.041830 0.230386
0.054858 0.041748 0.230000
0.055782 0.041617 0.229344
0.056689 0.041478 0.228647
0.057608 0.041354 0.228025
0.058470 0.041193 0.227203
0.059401 0.041087 0.226678
0.060242 0.040923 0.225836
0.061110 0.040782 0.225121
0.062045 0.040691 0.224672
0.062768 0.040466 0.223487
0.063195 0.040060 0.221302
0.063954 0.039875 0.220333
0.064785 0.039741 0.219640
0.065495 0.039537 0.218559
0.066231 0.039355 0.217603
0.066980 0.039186 0.216712
0.067582 0.038938 0.215380
0.068145 0.038675 0.213963
0.068792 0.038467 0.212847
0.069501 0.038299 0.211950
0.070211 0.038135 0.211077
0.070923 0.037978 0.210235
0.071646 0.037831 0.209446
0.072310 0.037657 0.208504
0.072901 0.037451 0.207379
0.073228 0.037116 0.205538
0.073635 0.036830 0.203965
0.074342 0.036699 0.203248
0.074687 0.036395 0.201571
0.074803 0.035989 0.199321
0.075198 0.035726 0.197857
0.075475 0.035413 0.196121
0.075858 0.035158 0.194693
0.076194 0.034887 0.193179
0.076055 0.034407 0.190503
0.076208 0.034070 0.188610
0.076083 0.033617 0.186078
0.076589 0.033451 0.185123
0.077009 0.033251 0.183979
0.077168 0.032943 0.182239
0.077869 0.032872 0.181799
0.078588 0.032810 0.181405
0.079067 0.032650 0.180464
0.079717 0.032563 0.179923
0.080411 0.032496 0.179486
0.080828 0.032319 0.178439
0.081254 0.032150 0.177427
0.081945 0.032088 0.177003
0.082375 0.031926 0.176021
0.082608 0.031692 0.174635
0.082711 0.031413 0.172996
0.082886 0.031166 0.171534
0.083446 0.031068 0.170880
0.083781 0.030889 0.169776
0.084060 0.030692 0.168571
0.084374 0.030512 0.167451
0.084727 0.030350 0.166420
0.085400 0.030304 0.166021
0.085644 0.030108 0.164794
0.085962 0.029941 0.163721
-0.984248 0.356486 1.921139
-0.972181 0.355400 1.916708
-0.958767 0.353796 1.909395
-0.957069 0.356526 1.925395
-0.947820 0.356469 1.926278
-0.940279 0.357060 1.930584
-0.936122 0.358960 1.941908
-0.930745 0.360425 1.950817
-0.931081 0.364154 1.971922
-0.940381 0.371499 2.012573
-0.935374 0.373285 2.023055
-0.940477 0.379184 2.055782
-0.936139 0.381359 2.068272
-0.836580 0.344382 1.868303
-0.823933 0.342778 1.860113
-0.816120 0.343172 1.862712
-0.811543 0.344950 1.872776
-0.798681 0.343207 1.863673
-0.874050 0.421881 2.292303
-0.864623 0.422538 2.295754
-0.853905 0.422574 2.295782
-0.843451 0.422743 2.296492
-0.301112 0.189795 1.027562
-0.292233 0.187214 1.013276
-0.289098 0.188287 1.018767
-0.283796 0.187961 1.016680
-0.278613 0.187705 1.014960
-0.273820 0.187707 1.014636
-0.269027 0.187709 1.014302
-0.264190 0.187680 1.013795
-0.259123 0.187484 1.012382
-0.253979 0.187224 1.010621
-0.247690 0.186093 1.004156
-0.243039 0.186173 1.004227
-0.234999 0.183608 0.990031
-0.134150 0.111492 0.600510
-0.131865 0.111972 0.602871
-0.128177 0.111254 0.598784
-0.122774 0.108983 0.586340
-0.118665 0.107781 0.579655
-0.114451 0.106424 0.572147
-0.110631 0.105377 0.566306
-0.107465 0.104915 0.563617
-0.104397 0.104529 0.561333
-0.101693 0.104496 0.560952
-0.100558 0.106118 0.569450
-0.043486 0.047163 0.252995
-0.042327 0.047215 0.253182
-0.040640 0.046664 0.250141
-0.039144 0.046306 0.248135
-0.037204 0.045383 0.243108
-0.035854 0.045145 0.241750
-0.034213 0.044512 0.238278
-0.032946 0.044338 0.237268
-0.031518 0.043928 0.235003
-0.030081 0.043475 0.232501
-0.028822 0.043255 0.231253
-0.027706 0.043238 0.231096
-0.026325 0.042791 0.228638
-0.025001 0.042403 0.226499
-0.023714 0.042043 0.224516
-0.022391 0.041583 0.221996
-0.021077 0.041096 0.219337
-0.019811 0.040656 0.216934
-0.018801 0.040721 0.217228
-0.017805 0.040824 0.217731
-0.016807 0.040938 0.218289
-0.015856 0.041188 0.219573
-0.014851 0.041324 0.220251
-0.013868 0.041546 0.221394
-0.012795 0.041513 0.221175
-0.011785 0.041700 0.222133
-0.010782 0.041949 0.223422
-0.009739 0.042078 0.224074
-0.008683 0.042183 0.224602
-0.007626 0.042306 0.225230
-0.006560 0.042414 0.225779
-0.005484 0.042486 0.226135
-0.004411 0.042629 0.226873
-0.003339 0.042873 0.228156
-0.002258 0.043184 0.229794
-0.001154 0.043242 0.230085
-0.000047 0.043271 0.230231
0.001064 0.043381 0.230807
0.002178 0.043447 0.231152
0.003295 0.043508 0.231475
0.004415 0.043571 0.231807
0.005548 0.043711 0.232557
0.006697 0.043906 0.233598
0.007862 0.044135 0.234821
0.009019 0.044265 0.235525
0.010169 0.044333 0.235901
0.011334 0.044449 0.236534
0.012500 0.044549 0.237083
0.013675 0.044659 0.237690
0.014848 0.044749 0.238189
0.016038 0.044870 0.238862
0.017202 0.044909 0.239097
0.018391 0.045003 0.239627
0.019615 0.045165 0.240525
0.020887 0.045415 0.241892
0.022059 0.045433 0.242028
0.023261 0.045507 0.242465
0.024490 0.045625 0.243134
0.025700 0.045697 0.243561
0.026879 0.045710 0.243683
0.028077 0.045753 0.243960
0.029280 0.045801 0.244269
0.030481 0.045841 0.244534
0.031665 0.045854 0.244660
0.032880 0.045910 0.245014
0.034089 0.045953 0.245300
0.035259 0.045943 0.245308
0.036473 0.045988 0.245613
0.037677 0.046019 0.245839
0.038861 0.046024 0.245929
0.040105 0.046097 0.246386
0.041251 0.046056 0.246238
0.042367 0.045987 0.245932
0.043573 0.046014 0.246150
0.044704 0.045964 0.245949
0.045807 0.045888 0.245611
0.047060 0.045962 0.246081
0.048919 0.046611 0.249625
0.049732 0.046255 0.247790
0.050803 0.046150 0.247299
0.051930 0.046099 0.247101
0.052627 0.045677 0.244912
0.051640 0.043844 0.235154
0.051876 0.043105 0.231257
0.052824 0.042977 0.230637
0.053925 0.042975 0.230693
0.054721 0.042736 0.229474
0.055722 0.042662 0.229144
0.056534 0.042450 0.228070
0.057423 0.042302 0.227337
0.058287 0.042142 0.226537
0.059175 0.042005 0.225859
0.060058 0.041869 0.225187
0.060761 0.041613 0.223873
0.061701 0.041527 0.223464
0.062626 0.041434 0.223017
0.063368 0.041225 0.221944
0.064105 0.041019 0.220885
0.064858 0.040830 0.219917
0.065361 0.040492 0.218142
0.066047 0.040276 0.217022
0.066893 0.040163 0.216456
0.067350 0.039823 0.214663
0.068053 0.039637 0.213696
0.068597 0.039364 0.212261
0.069477 0.039290 0.211894
0.070080 0.039063 0.210698
0.070708 0.038857 0.209610
0.071557 0.038776 0.209197
0.072206 0.038590 0.208214
0.072742 0.038350 0.206934
0.073258 0.038106 0.205628
0.073452 0.037703 0.203463
0.073791 0.037384 0.201745
0.074110 0.037062 0.200013
0.073982 0.036529 0.197131
0.074489 0.036318 0.195991
0.075281 0.036250 0.195611
0.075623 0.035969 0.194085
0.076060 0.035740 0.192829
0.075954 0.035264 0.190240
0.076285 0.035000 0.188790
0.076385 0.034637 0.186801
0.076804 0.034425 0.185626
0.076292 0.033806 0.182250
0.077320 0.033875 0.182581
0.077954 0.033772 0.181977
0.078480 0.033625 0.181132
0.079169 0.033551 0.180673
0.079621 0.033378 0.179681
0.080217 0.033269 0.179025
0.080752 0.033137 0.178241
0.081228 0.032984 0.177338
0.081688 0.032828 0.176413
0.082227 0.032706 0.175669
0.082421 0.032450 0.174200
0.082140 0.032015 0.171763
0.082632 0.031887 0.170967
0.083212 0.031795 0.170358
0.083511 0.031598 0.169182
0.083900 0.031438 0.168202
0.084278 0.031278 0.167211
0.084632 0.031112 0.166181
0.085105 0.030992 0.165395
0.085359 0.030796 0.164190
0.085922 0.030713 0.163587
-0.983285 0.365264 1.918717
-0.970857 0.364011 1.913582
-0.963791 0.364764 1.918908
-0.956640 0.365499 1.924065
-0.948498 0.365866 1.927212
-0.941464 0.366671 1.932597
-0.936769 0.368413 1.942852
-0.932446 0.370337 1.954005
-0.933179 0.374327 1.976008
-0.939985 0.380859 2.011384
-0.939929 0.384715 2.032587
-0.943806 0.390277 2.062756
-0.935575 0.390896 2.066746
-0.837127 0.353438 1.869293
-0.823557 0.351401 1.859055
-0.815377 0.351645 1.860826
-0.810770 0.353452 1.870822
-0.796740 0.351146 1.858993
-0.870520 0.430944 2.283090
-0.861664 0.431883 2.287962
-0.844615 0.428687 2.270890
-0.843500 0.433601 2.296737
-0.300518 0.194275 1.025728
-0.291969 0.191838 1.012558
-0.288815 0.192924 1.017979
-0.284151 0.193020 1.018170
-0.278621 0.192521 1.015215
-0.274004 0.192647 1.015548
-0.268998 0.192499 1.014436
-0.264077 0.192408 1.013614
-0.258962 0.192170 1.012012
-0.253824 0.191905 1.010270
-0.249190 0.192019 1.010513
-0.243323 0.191168 1.005682
-0.233293 0.186948 0.983130
-0.135619 0.115603 0.607276
-0.134332 0.116990 0.614342
-0.129140 0.114964 0.603480
-0.124345 0.113207 0.594039
-0.119839 0.111638 0.585590
-0.116007 0.110637 0.580127
-0.112719 0.110119 0.577199
-0.109333 0.109476 0.573623
-0.106402 0.109269 0.572329
-0.103224 0.108789 0.569613
-0.100437 0.108708 0.568983
-0.098420 0.109479 0.572816
-0.095389 0.109134 0.570808
-0.039096 0.047435 0.247929
-0.037516 0.046938 0.245251
-0.035993 0.046482 0.242785
-0.034629 0.046208 0.241276
-0.032849 0.045342 0.236676
-0.031097 0.044453 0.231966
-0.029791 0.044160 0.230363
-0.028445 0.043783 0.228328
-0.027246 0.043613 0.227370
-0.026022 0.043384 0.226114
-0.024756 0.043065 0.224386
-0.023409 0.042568 0.221734
-0.022351 0.042575 0.221714
-0.021126 0.042250 0.219962
-0.019804 0.041685 0.216969
-0.018797 0.041757 0.217290
-0.017793 0.041845 0.217699
-0.016783 0.041931 0.218096
-0.015791 0.042073 0.218790
-0.014784 0.042195 0.219377
-0.013746 0.042240 0.219568
-0.012757 0.042456 0.220654
-0.011754 0.042661 0.221682
-0.010740 0.042863 0.222694
-0.009715 0.043060 0.223685
-0.008670 0.043203 0.224393
-0.007610 0.043305 0.224897
-0.006553 0.043464 0.225697
-0.005482 0.043570 0.226223
-0.004409 0.043713 0.226943
-0.003340 0.044013 0.228482
-0.002232 0.043825 0.227489
-0.001150 0.044277 0.229819
-0.000045 0.044347 0.230171
0.001063 0.044370 0.230282
0.002177 0.044502 0.230962
0.003294 0.044584 0.231385
0.004417 0.044689 0.231926
0.005544 0.044781 0.232407
0.006675 0.044865 0.232850
0.007826 0.045046 0.233792
0.008998 0.045280 0.235019
0.010176 0.045492 0.236134
0.011324 0.045540 0.236394
0.012504 0.045697 0.237228
0.013686 0.045833 0.237953
0.014842 0.045867 0.238156
0.016010 0.045932 0.238517
0.017186 0.046008 0.238941
0.018364 0.046081 0.239352
0.019563 0.046193 0.239967
0.020815 0.046412 0.241137
0.022016 0.046500 0.241631
0.023210 0.046566 0.242014
0.024397 0.046611 0.242291
0.025604 0.046688 0.242738
0.026807 0.046752 0.243113
0.028001 0.046794 0.243381
0.029181 0.046812 0.243526
0.030408 0.046899 0.244031
0.031602 0.046932 0.244257
0.032829 0.047009 0.244712
0.034027 0.047042 0.244941
0.035225 0.047070 0.245150
0.036406 0.047077 0.245242
0.037609 0.047109 0.245472
0.038797 0.047121 0.245600
0.039958 0.047101 0.245560
0.041190 0.047163 0.245950
0.042361 0.047154 0.245968
0.043498 0.047109 0.245797
0.044625 0.047056 0.245588
0.045752 0.047004 0.245388
0.047040 0.047116 0.246044
0.048654 0.047543 0.248340
0.049975 0.047668 0.249066
0.051040 0.047549 0.248517
0.052052 0.047388 0.247745
0.050957 0.045359 0.237202
0.050849 0.044276 0.231607
0.051751 0.044101 0.230758
0.052850 0.044097 0.230803
0.053830 0.043997 0.230342
0.054682 0.043798 0.229364
0.055519 0.043594 0.228359
0.056477 0.043492 0.227886
0.057395 0.043363 0.227274
0.058286 0.043219 0.226578
0.059092 0.043018 0.225585
0.060018 0.042911 0.225078
0.060787 0.042696 0.224009
0.061727 0.042607 0.223598
0.062527 0.042427 0.222702
0.063315 0.042244 0.221792
0.064071 0.042045 0.220800
0.064779 0.041823 0.219677
0.065430 0.041571 0.218400
0.066050 0.041308 0.217059
0.066689 0.041064 0.215818
0.067224 0.040765 0.214285
0.067972 0.040602 0.213462
0.068239 0.040160 0.211172
0.069068 0.040058 0.210662
0.069829 0.039919 0.209960
0.070429 0.039694 0.208798
0.071112 0.039521 0.207908
0.071906 0.039413 0.207358
0.072737 0.039329 0.206928
0.072382 0.038614 0.203176
0.072969 0.038413 0.202127
0.073466 0.038171 0.200859
0.073801 0.037852 0.199180
0.074207 0.037577 0.197731
0.074430 0.037218 0.195830
0.074819 0.036949 0.194404
0.074764 0.036470 0.191872
0.075308 0.036292 0.190914
0.075969 0.036173 0.190265
0.076354 0.035928 0.188946
0.076478 0.035566 0.187014
0.076815 0.035311 0.185636
0.077156 0.035064 0.184294
0.077528 0.034836 0.183051
0.078114 0.034707 0.182327
0.078760 0.034609 0.181754
0.079333 0.034480 0.181020
0.079814 0.034315 0.180088
0.080416 0.034205 0.179439
0.080865 0.034033 0.178458
0.081132 0.033788 0.177096
0.081689 0.033668 0.176380
0.082286 0.033567 0.175756
0.082641 0.033370 0.174626
0.082867 0.033125 0.173241
0.082656 0.032712 0.170971
0.083203 0.032605 0.170292
0.083721 0.032488 0.169559
0.084014 0.032287 0.168381
0.084389 0.032121 0.167379
0.084749 0.031952 0.166358
0.085371 0.031884 0.165853
0.085510 0.031639 0.164421
0.085811 0.031458 0.163314
-0.989241 0.373211 1.910542
-0.981407 0.373676 1.914487
-0.968180 0.372078 1.907768
-0.961772 0.373095 1.914375
-0.956575 0.374606 1.923445
-0.948422 0.374978 1.926593
-0.941323 0.375777 1.931866
-0.936472 0.377499 1.941816
-0.931683 0.379280 1.952010
-0.933633 0.383867 1.976593
-0.941895 0.391169 2.015112
-0.940987 0.394772 2.034536
-0.945518 0.400754 2.066178
-0.937520 0.401496 2.070746
-0.837683 0.362510 1.870288
-0.826039 0.361267 1.864432
-0.815314 0.360404 1.860481
-0.811621 0.362664 1.872602
-0.797822 0.360409 1.861356
-0.868306 0.440588 2.277318
-0.857953 0.440768 2.278167
-0.849136 0.441751 2.283125
-0.842291 0.443799 2.293546
-0.300414 0.199062 1.025568
-0.290555 0.195679 1.007852
-0.287434 0.196799 1.013320
-0.283300 0.197251 1.015337
-0.278531 0.197269 1.015113
-0.273713 0.197252 1.014707
-0.268906 0.197243 1.014330
-0.263987 0.197150 1.013517
-0.258968 0.196977 1.012295
-0.254126 0.196936 1.011738
-0.249533 0.197089 1.012177
-0.243009 0.195693 1.004663
-0.238574 0.195959 1.005673
-0.138515 0.121023 0.620438
-0.135748 0.121180 0.621019
-0.129998 0.118621 0.607690
-0.124858 0.116515 0.596687
-0.120913 0.115454 0.591041
-0.117328 0.114694 0.586938
-0.113956 0.114110 0.583741
-0.110847 0.113767 0.581775
-0.107601 0.113263 0.578994
-0.104693 0.113097 0.577941
-0.101825 0.112966 0.577068
-0.098299 0.112078 0.572334
-0.095271 0.111724 0.570327
-0.092651 0.111842 0.570735
-0.044960 0.061495 0.313399
-0.032595 0.046117 0.234953
-0.031144 0.045635 0.232423
-0.029901 0.045433 0.231321
-0.028604 0.045130 0.229712
-0.026999 0.044298 0.225411
-0.025692 0.043906 0.223353
-0.024514 0.043711 0.222296
-0.023397 0.043612 0.221734
-0.022224 0.043393 0.220561
-0.020938 0.042922 0.218116
-0.019680 0.042460 0.215713
-0.018743 0.042681 0.216782
-0.017764 0.042825 0.217464
-0.016732 0.042851 0.217548
-0.015741 0.042992 0.218219
-0.014731 0.043099 0.218717
-0.013756 0.043332 0.219861
-0.012746 0.043485 0.220595
-0.011750 0.043718 0.221742
-0.010713 0.043827 0.222257
-0.009671 0.043941 0.222803
-0.008625 0.044064 0.223397
-0.007580 0.044223 0.224174
-0.006528 0.044391 0.225000
-0.005477 0.044636 0.226218
-0.004395 0.044686 0.226449
-0.003326 0.044950 0.227766
-0.002242 0.045145 0.228740
-0.001146 0.045314 0.229583
-0.000043 0.045352 0.229761
0.001063 0.045434 0.230171
0.002176 0.045548 0.230744
0.003292 0.045646 0.231236
0.004412 0.045735 0.231683
0.005538 0.045833 0.232184
0.006664 0.045894 0.232497
0.007812 0.046073 0.233409
0.008976 0.046289 0.234512
0.010133 0.046424 0.235211
0.011315 0.046633 0.236285
0.012474 0.046716 0.236723
0.013656 0.046866 0.237501
0.014824 0.046950 0.237948
0.015985 0.046999 0.238220
0.017168 0.047102 0.238769
0.018347 0.047183 0.239210
0.019555 0.047324 0.239959
0.020778 0.047483 0.240797
0.021986 0.047591 0.241385
0.023161 0.047622 0.241579
0.024327 0.047632 0.241671
0.025579 0.047803 0.242582
0.026751 0.047814 0.242684
0.027962 0.047891 0.243124
0.029177 0.047970 0.243574
0.030379 0.048020 0.243880
0.031585 0.048074 0.244207
0.032779 0.048106 0.244420
0.033966 0.048126 0.244578
0.035173 0.048172 0.244872
0.036350 0.048174 0.244940
0.037533 0.048185 0.245056
0.038745 0.048231 0.245352
0.040045 0.048380 0.246174
0.041172 0.048317 0.245917
0.042332 0.048296 0.245878
0.043512 0.048298 0.245949
0.044606 0.048207 0.245554
0.045843 0.048271 0.245946
0.047163 0.048417 0.246761
0.048390 0.048463 0.247062
0.049465 0.048358 0.246595
0.050526 0.048244 0.246084
0.051728 0.048267 0.246270
0.051525 0.047007 0.239907
0.051243 0.045731 0.233461
0.051915 0.045343 0.231544
0.052711 0.045078 0.230251
0.053777 0.045049 0.230168
0.054708 0.044910 0.229521
0.055494 0.044660 0.228306
0.056416 0.044528 0.227688
0.057276 0.044352 0.226849
0.058149 0.044192 0.226088
0.059036 0.044049 0.225414
0.059901 0.043894 0.224677
0.060833 0.043793 0.224216
0.061630 0.043601 0.223282
0.062491 0.043459 0.222607
0.063324 0.043303 0.221857
0.063773 0.042893 0.219804
0.064716 0.042824 0.219493
0.064855 0.042233 0.216510
0.065709 0.042119 0.215964
0.066493 0.041965 0.215210
0.067193 0.041762 0.214206
0.067567 0.041366 0.212208
0.068255 0.041172 0.211241
0.068995 0.041013 0.210455
0.069543 0.040747 0.209114
0.070259 0.040586 0.208306
0.070963 0.040422 0.207482
0.071588 0.040217 0.206449
0.072386 0.040115 0.205934
0.072971 0.039898 0.204832
0.073209 0.039501 0.202794
0.073573 0.039180 0.201151
0.073947 0.038873 0.199573
0.074429 0.038630 0.198319
0.074077 0.037965 0.194896
0.074824 0.037873 0.194412
0.075303 0.037649 0.193245
0.075936 0.037507 0.192494
0.075990 0.037086 0.190305
0.076378 0.036835 0.188990
0.076767 0.036591 0.187704
0.076834 0.036201 0.185664
0.077379 0.036042 0.184807
0.077809 0.035834 0.183692
0.078011 0.035526 0.182063
0.078738 0.035462 0.181677
0.079343 0.035345 0.181014
0.079732 0.035135 0.179872
0.080289 0.035003 0.179123
0.080718 0.034818 0.178099
0.081072 0.034605 0.176928
0.081572 0.034459 0.176088
0.082056 0.034308 0.175225
0.082430 0.034115 0.174137
0.082603 0.033843 0.172645
0.082711 0.033551 0.171041
0.083329 0.033469 0.170503
0.083655 0.033272 0.169376
0.084001 0.033088 0.168304
0.084521 0.032974 0.167586
0.084788 0.032764 0.166376
0.085653 0.032788 0.166342
0.085946 0.032594 0.165198
0.086465 0.032489 0.164495
-0.987052 0.381464 1.905699
-0.979670 0.382109 1.910509
-0.971314 0.382383 1.913381
-0.963132 0.382732 1.916546
-0.955824 0.383438 1.921423
-0.949057 0.384377 1.927395
-0.942063 0.385241 1.932923
-0.935461 0.386284 1.939281
-0.930310 0.387954 1.948718
-0.931936 0.392511 1.972604
-0.948034 0.403316 2.027864
-0.945927 0.406519 2.044858
-0.944717 0.410176 2.064089
-0.934466 0.409944 2.063688
-0.834406 0.369895 1.862711
-0.824400 0.369340 1.860494
-0.817227 0.370056 1.864627
-0.809797 0.370670 1.868194
-0.799585 0.370011 1.865294
-0.872537 0.453528 2.288437
-0.859526 0.452341 2.282387
-0.844190 0.449884 2.269895
-0.842562 0.454764 2.294376
-0.301637 0.204745 1.029936
-0.292699 0.201930 1.015492
-0.288282 0.202192 1.016517
-0.283896 0.202486 1.017691
-0.278417 0.201996 1.014922
-0.273618 0.201992 1.014589
-0.268708 0.201904 1.013828
-0.263738 0.201767 1.012812
-0.258545 0.201451 1.010898
-0.254206 0.201802 1.012323
-0.248973 0.201442 1.010182
-0.243892 0.201194 1.008597
-0.140280 0.125554 0.628539
-0.135564 0.123966 0.620372
-0.130206 0.121708 0.608859
-0.125912 0.120366 0.601931
-0.121555 0.118899 0.594384
-0.118324 0.118489 0.592129
-0.115108 0.118076 0.589856
-0.111895 0.117645 0.587496
-0.109154 0.117701 0.587570
-0.105745 0.117020 0.583969
-0.102830 0.116865 0.582993
-0.099610 0.116344 0.580197
-0.095712 0.114980 0.573200
-0.091896 0.113638 0.566318
-0.044901 0.062914 0.313126
-0.043496 0.063042 0.313666
-0.028565 0.046170 0.229510
-0.026878 0.045177 0.224511
-0.025922 0.045382 0.225464
-0.024640 0.045009 0.223549
-0.023147 0.044199 0.219470
-0.021698 0.043401 0.215453
-0.020664 0.043395 0.215367
-0.019725 0.043598 0.216322
-0.018694 0.043610 0.216330
-0.017698 0.043709 0.216772
-0.016682 0.043766 0.217011
-0.015285 0.042768 0.212016
-0.014759 0.044237 0.219257
-0.013737 0.044333 0.219691
-0.012721 0.044461 0.220286
-0.011681 0.044524 0.220561
-0.010654 0.044658 0.221188
-0.009653 0.044934 0.222526
-0.008609 0.045063 0.223134
-0.007549 0.045129 0.223430
-0.006513 0.045384 0.224669
-0.005459 0.045586 0.225642
-0.004395 0.045797 0.226669
-0.003309 0.045824 0.226782
-0.002232 0.046092 0.228094
-0.001139 0.046196 0.228592
-0.000041 0.046364 0.229413
0.001063 0.046415 0.229657
0.002173 0.046553 0.230334
0.003287 0.046652 0.230821
0.004407 0.046770 0.231403
