ply
format ascii 1.0
element vertex 1746
property float x
property float y
property float z
end_header
0.083885 0.002689 0.185612
0.084424 0.002678 0.184812
0.085080 0.002670 0.184275
0.085621 0.002659 0.183495
0.085770 0.002637 0.181893
0.085250 0.002594 0.178912
0.085529 0.002576 0.177645
0.085548 0.002551 0.175861
0.085729 0.002532 0.174437
0.086088 0.002517 0.173390
0.086360 0.002501 0.172182
0.086583 0.002483 0.170892
0.087222 0.002478 0.170431
0.087339 0.002458 0.168960
0.087470 0.002438 0.167536
-0.630893 0.030105 1.576016
-0.621153 0.029994 1.569868
-0.615158 0.030064 1.573129
-0.614066 0.030377 1.589132
-0.605544 0.030327 1.586042
-0.068717 0.004572 0.237116
-0.067018 0.004533 0.234988
-0.065594 0.004512 0.233774
-0.064559 0.004518 0.233930
-0.063454 0.004518 0.233835
-0.062455 0.004526 0.234140
-0.061348 0.004527 0.234044
-0.060152 0.004521 0.233603
-0.059164 0.004531 0.233975
-0.057256 0.004469 0.230656
-0.055105 0.004385 0.226217
-0.053098 0.004310 0.222213
-0.051611 0.004275 0.220278
-0.049508 0.004186 0.215581
-0.048370 0.004177 0.214986
-0.047203 0.004164 0.214239
-0.044093 0.003976 0.204454
-0.043118 0.003977 0.204362
-0.042436 0.004005 0.205689
-0.041822 0.004041 0.207424
-0.040975 0.004055 0.208060
-0.040162 0.004074 0.208912
-0.039353 0.004094 0.209836
-0.038688 0.004131 0.211600
-0.037835 0.004149 0.212407
-0.037050 0.004175 0.213659
-0.036078 0.004182 0.213882
-0.035161 0.004195 0.214457
-0.034245 0.004209 0.215078
-0.033297 0.004221 0.215542
-0.032415 0.004241 0.216483
-0.031492 0.004257 0.217213
-0.030618 0.004281 0.218343
-0.029688 0.004299 0.219158
-0.028696 0.004309 0.219558
-0.027736 0.004325 0.220259
-0.026788 0.004343 0.221120
-0.025798 0.004357 0.221708
-0.024811 0.004372 0.222378
-0.023826 0.004388 0.223136
-0.022830 0.004404 0.223865
-0.021775 0.004410 0.224080
-0.020769 0.004427 0.224847
-0.019731 0.004438 0.225358
-0.018691 0.004450 0.225910
-0.017622 0.004457 0.226167
-0.016580 0.004471 0.226836
-0.015514 0.004481 0.227269
-0.014441 0.004490 0.227660
-0.013363 0.004499 0.228051
-0.012277 0.004507 0.228394
-0.011198 0.004518 0.228930
-0.010113 0.004530 0.229492
-0.009012 0.004537 0.229775
-0.007912 0.004546 0.230209
-0.006806 0.004554 0.230587
-0.005703 0.004567 0.231221
-0.004590 0.004578 0.231747
-0.003472 0.004589 0.232292
-0.002349 0.004601 0.232846
-0.001219 0.004607 0.233153
-0.000086 0.004618 0.233710
0.001053 0.004632 0.234384
0.002203 0.004652 0.235381
0.003357 0.004665 0.236059
0.004514 0.004675 0.236548
0.005677 0.004685 0.237088
0.006829 0.004685 0.237069
0.008002 0.004696 0.237667
0.009174 0.004705 0.238121
0.010327 0.004702 0.238014
0.011500 0.004709 0.238371
0.012699 0.004724 0.239152
0.013883 0.004731 0.239547
0.015033 0.004726 0.239346
0.016274 0.004748 0.240524
0.017436 0.004746 0.240467
0.018611 0.004748 0.240604
0.019849 0.004764 0.241480
0.021099 0.004782 0.242419
0.022320 0.004791 0.242949
0.023547 0.004801 0.243494
0.024782 0.004811 0.244074
0.026069 0.004830 0.245092
0.027285 0.004834 0.245398
0.028528 0.004843 0.245920
0.029748 0.004847 0.246216
0.030955 0.004849 0.246394
0.032165 0.004851 0.246589
0.033529 0.004876 0.247917
0.035010 0.004915 0.250000
0.036496 0.004952 0.251987
0.037762 0.004958 0.252376
0.039032 0.004964 0.252783
0.040308 0.004970 0.253207
0.041584 0.004976 0.253614
0.042871 0.004983 0.254069
0.044144 0.004988 0.254428
0.045390 0.004989 0.254617
0.046574 0.004984 0.254469
0.047798 0.004984 0.254549
0.049028 0.004984 0.254659
0.050094 0.004967 0.253938
0.051162 0.004952 0.253267
0.050756 0.004798 0.245504
0.051411 0.004749 0.243107
0.052399 0.004732 0.242364
0.053396 0.004717 0.241697
0.054382 0.004701 0.241013
0.055394 0.004688 0.240473
0.056355 0.004672 0.239744
0.057242 0.004650 0.238736
0.058011 0.004620 0.237291
0.058972 0.004606 0.236673
0.059904 0.004590 0.235965
0.060818 0.004573 0.235220
0.061733 0.004557 0.234505
0.062665 0.004543 0.233881
0.063553 0.004526 0.233118
0.064317 0.004501 0.231938
0.065221 0.004486 0.231294
0.066050 0.004467 0.230411
0.066825 0.004445 0.229372
0.066868 0.004376 0.225896
0.066584 0.004288 0.221440
0.065840 0.004173 0.215614
0.066242 0.004134 0.213661
0.066554 0.004090 0.211481
0.067453 0.004083 0.211204
0.067792 0.004043 0.209203
0.068571 0.004030 0.208598
0.069363 0.004017 0.208049
0.069919 0.003992 0.206817
0.070650 0.003978 0.206127
0.071367 0.003963 0.205413
0.071941 0.003940 0.204313
0.072592 0.003922 0.203452
0.073377 0.003912 0.202986
0.074061 0.003897 0.202252
0.074629 0.003876 0.201222
0.075334 0.003863 0.200579
0.076023 0.003849 0.199909
0.076609 0.003830 0.198984
0.077222 0.003814 0.198145
0.077686 0.003790 0.196946
0.078232 0.003771 0.195980
0.078745 0.003750 0.194948
0.078906 0.003714 0.193076
0.079530 0.003700 0.192362
0.080339 0.003695 0.192103
0.080737 0.003671 0.190872
0.081282 0.003654 0.190008
0.081758 0.003635 0.188999
0.082337 0.003620 0.188240
0.082854 0.003604 0.187353
0.083380 0.003587 0.186501
0.083896 0.003571 0.185636
0.084489 0.003559 0.184952
0.084924 0.003540 0.183936
0.085513 0.003527 0.183261
0.086092 0.003515 0.182574
0.086146 0.003482 0.180792
0.085634 0.003426 0.177861
0.085761 0.003397 0.176298
0.086340 0.003387 0.175678
0.086628 0.003365 0.174474
0.086853 0.003341 0.173161
0.087195 0.003322 0.172098
0.087116 0.003288 0.170221
0.087289 0.003263 0.168862
0.087347 0.003235 0.167297
-1.027748 0.047204 1.976110
-1.019924 0.047277 1.980158
-1.016621 0.047562 1.993049
-1.015643 0.047963 2.010696
-0.999955 0.047670 1.999188
-0.638635 0.037994 1.595375
-0.631718 0.038031 1.596590
-0.630651 0.038425 1.612771
-0.624165 0.038495 1.615290
-0.613758 0.038321 1.607580
-0.069935 0.005996 0.249255
-0.068868 0.006006 0.249552
-0.067795 0.006017 0.249845
-0.063370 0.005724 0.237580
-0.062200 0.005721 0.237305
-0.060764 0.005692 0.235993
-0.058817 0.005614 0.232615
-0.056721 0.005518 0.228513
-0.054449 0.005400 0.223535
-0.053190 0.005381 0.222611
-0.051971 0.005365 0.221826
-0.050540 0.005326 0.220087
-0.048410 0.005210 0.215176
-0.047439 0.005216 0.215323
-0.046384 0.005213 0.215091
-0.043143 0.004959 0.204491
-0.042294 0.004974 0.205015
-0.041643 0.005014 0.206548
-0.040965 0.005053 0.208022
-0.040117 0.005072 0.208694
-0.039427 0.005112 0.210244
-0.038475 0.005119 0.210446
-0.037761 0.005160 0.212008
-0.036909 0.005183 0.212860
-0.035046 0.005211 0.213767
-0.034124 0.005227 0.214330
-0.033294 0.005259 0.215534
-0.032406 0.005283 0.216434
-0.031595 0.005322 0.217932
-0.030652 0.005341 0.218605
-0.029721 0.005363 0.219414
-0.028736 0.005377 0.219883
-0.027734 0.005389 0.220264
-0.026794 0.005414 0.221189
-0.025796 0.005428 0.221706
-0.024809 0.005447 0.222376
-0.023795 0.005461 0.222860
-0.022814 0.005484 0.223730
-0.021831 0.005509 0.224671
-0.020789 0.005521 0.225086
-0.019757 0.005537 0.225669
-0.018693 0.005546 0.225949
-0.017628 0.005555 0.226262
-0.016568 0.005568 0.226697
-0.015499 0.005578 0.227060
-0.014418 0.005586 0.227316
-0.013345 0.005598 0.227770
-0.012272 0.005613 0.228319
-0.011187 0.005624 0.228730
-0.010113 0.005645 0.229509
-0.009021 0.005659 0.230041
-0.007919 0.005669 0.230416
-0.006821 0.005687 0.231096
-0.005710 0.005699 0.231560
-0.004593 0.005708 0.231907
-0.003473 0.005720 0.232357
-0.002349 0.005732 0.232833
-0.001218 0.005738 0.233047
-0.000085 0.005745 0.233323
0.001053 0.005766 0.234183
0.002192 0.005767 0.234224
0.003360 0.005819 0.236311
0.004513 0.005824 0.236515
0.005690 0.005851 0.237617
0.006847 0.005852 0.237707
0.008027 0.005870 0.238418
0.009207 0.005883 0.238983
0.010371 0.005884 0.239037
0.011559 0.005897 0.239603
0.012722 0.005896 0.239581
0.013972 0.005932 0.241090
0.015147 0.005933 0.241168
0.016261 0.005912 0.240342
0.017507 0.005938 0.241466
0.018711 0.005948 0.241903
0.019893 0.005950 0.242034
0.021155 0.005974 0.243080
0.022370 0.005983 0.243503
0.023584 0.005991 0.243886
0.024818 0.006003 0.244441
0.026061 0.006016 0.245036
0.027306 0.006028 0.245607
0.028530 0.006035 0.245954
0.029760 0.006042 0.246329
0.030968 0.006045 0.246514
0.032209 0.006053 0.246940
0.033592 0.006087 0.248398
0.035038 0.006129 0.250211
0.036539 0.006178 0.252293
0.037776 0.006180 0.252484
0.038970 0.006176 0.252395
0.040240 0.006183 0.252792
0.041541 0.006194 0.253364
0.042823 0.006202 0.253796
0.044093 0.006208 0.254146
0.045334 0.006210 0.254316
0.046528 0.006205 0.254229
0.047745 0.006204 0.254276
0.048954 0.006201 0.254286
0.050116 0.006193 0.254060
0.051051 0.006158 0.252730
0.051205 0.006032 0.247686
0.051816 0.005965 0.245035
0.052353 0.005892 0.242162
0.053335 0.005872 0.241431
0.054380 0.005859 0.241013
0.055287 0.005832 0.240020
0.056150 0.005801 0.238882
0.057123 0.005784 0.238253
0.058032 0.005760 0.237386
0.058968 0.005740 0.236664
0.059925 0.005722 0.236057
0.060894 0.005707 0.235523
0.061842 0.005690 0.234927
0.062719 0.005667 0.234090
0.063611 0.005646 0.233340
0.064499 0.005626 0.232604
0.065374 0.005605 0.231844
0.066215 0.005582 0.230997
0.066667 0.005528 0.228839
0.066384 0.005415 0.224268
0.065977 0.005296 0.219428
0.065954 0.005211 0.215994
0.066166 0.005147 0.213423
0.066711 0.005110 0.211987
0.067210 0.005071 0.210447
0.067822 0.005042 0.209301
0.068500 0.005018 0.208388
0.069203 0.004996 0.207575
0.069992 0.004982 0.207036
0.070671 0.004960 0.206192
0.071389 0.004941 0.205482
0.072032 0.004918 0.204576
0.072583 0.004889 0.203431
0.073315 0.004873 0.202819
0.074130 0.004863 0.202445
0.074702 0.004837 0.201423
0.075406 0.004820 0.200775
0.076125 0.004805 0.200179
0.076692 0.004781 0.199202
0.077368 0.004764 0.198521
0.077691 0.004725 0.196963
0.078254 0.004703 0.196037
0.078872 0.004684 0.195265
0.079391 0.004659 0.194265
0.079935 0.004637 0.193341
0.080491 0.004615 0.192465
0.081115 0.004599 0.191766
0.081560 0.004572 0.190658
0.082226 0.004558 0.190079
0.082550 0.004526 0.188728
0.083208 0.004513 0.188154
0.083621 0.004486 0.187037
0.084080 0.004463 0.186043
0.084557 0.004441 0.185099
0.084961 0.004416 0.184014
0.085515 0.004399 0.183264
0.085857 0.004371 0.182073
0.086085 0.004339 0.180661
0.086309 0.004307 0.179262
0.086471 0.004272 0.177755
0.086954 0.004254 0.176924
0.086705 0.004200 0.174626
0.086929 0.004170 0.173309
0.086952 0.004132 0.171614
0.087290 0.004109 0.170557
0.087540 0.004082 0.169342
0.087601 0.004047 0.167778
-1.039950 0.056208 1.961367
-1.034012 0.056393 1.969006
-1.023864 0.056349 1.968588
-1.021419 0.056732 1.983012
-1.017438 0.057036 1.994604
-1.015560 0.057465 2.010488
-1.005412 0.057429 2.010057
-0.997481 0.057521 2.014002
-0.063461 0.006865 0.237933
-0.062162 0.006847 0.237175
-0.060592 0.006798 0.235338
-0.059370 0.006786 0.234814
-0.057415 0.006689 0.231321
-0.055490 0.006591 0.227823
-0.053506 0.006482 0.223948
-0.052151 0.006447 0.222606
-0.049351 0.006228 0.214924
-0.048073 0.006195 0.213689
-0.047217 0.006217 0.214327
-0.046100 0.006205 0.213789
-0.043180 0.005944 0.204681
-0.042345 0.005964 0.205276
-0.041588 0.005997 0.206289
-0.040854 0.006034 0.207473
-0.040234 0.006091 0.209313
-0.039439 0.006124 0.210320
-0.038688 0.006165 0.211626
-0.037739 0.006176 0.211899
-0.036940 0.006213 0.213053
-0.036022 0.006231 0.213576
-0.035096 0.006249 0.214088
-0.034187 0.006271 0.214747
-0.033258 0.006291 0.215321
-0.032423 0.006330 0.216567
-0.031432 0.006341 0.216832
-0.030590 0.006383 0.218177
-0.029681 0.006414 0.219142
-0.028660 0.006422 0.219323
-0.026794 0.006483 0.221206
-0.025760 0.006491 0.221414
-0.024763 0.006511 0.221984
-0.023739 0.006524 0.222363
-0.022727 0.006542 0.222897
-0.021716 0.006562 0.223509
-0.020715 0.006588 0.224310
-0.019694 0.006610 0.224976
-0.018659 0.006629 0.225563
-0.017594 0.006639 0.225845
-0.016538 0.006655 0.226306
-0.015476 0.006670 0.226756
-0.014398 0.006680 0.227032
-0.013328 0.006695 0.227500
-0.012259 0.006714 0.228104
-0.011172 0.006726 0.228451
-0.010091 0.006744 0.229026
-0.009008 0.006766 0.229716
-0.007908 0.006780 0.230151
-0.006819 0.006808 0.231057
-0.005721 0.006837 0.232035
-0.004600 0.006846 0.232315
-0.003479 0.006862 0.232805
-0.002352 0.006874 0.233216
-0.001221 0.006887 0.233639
-0.000085 0.006894 0.233845
0.001054 0.006908 0.234320
0.002203 0.006939 0.235372
0.003349 0.006943 0.235512
0.004512 0.006972 0.236478
0.005673 0.006985 0.236938
0.006838 0.006998 0.237382
0.008008 0.007012 0.237887
0.009186 0.007028 0.238435
0.010384 0.007055 0.239367
0.011549 0.007055 0.239416
0.012727 0.007063 0.239708
0.013917 0.007075 0.240152
0.015091 0.007078 0.240293
0.016278 0.007087 0.240621
0.017490 0.007104 0.241248
0.018724 0.007128 0.242093
0.019936 0.007140 0.242579
0.021128 0.007145 0.242784
0.022327 0.007151 0.243059
0.023557 0.007166 0.243630
0.024790 0.007181 0.244185
0.026052 0.007201 0.244963
0.027260 0.007207 0.245206
0.028513 0.007222 0.245820
0.029749 0.007233 0.246259
0.030919 0.007227 0.246141
0.032135 0.007232 0.246394
0.033622 0.007296 0.248641
0.035198 0.007373 0.251378
0.036527 0.007396 0.252228
0.037742 0.007394 0.252278
0.038967 0.007395 0.252396
0.040229 0.007402 0.252740
0.041502 0.007411 0.253146
0.042786 0.007421 0.253593
0.044062 0.007429 0.253981
0.045310 0.007433 0.254197
0.046501 0.007427 0.254100
0.047714 0.007424 0.254129
0.048937 0.007424 0.254215
0.050033 0.007404 0.253657
0.051020 0.007370 0.252592
0.051210 0.007224 0.247726
0.051744 0.007133 0.244710
0.052344 0.007055 0.242134
0.053305 0.007028 0.241308
0.054341 0.007011 0.240854
0.055173 0.006970 0.239537
0.056104 0.006942 0.238701
0.057083 0.006922 0.238097
0.058045 0.006900 0.237450
0.058976 0.006875 0.236711
0.059936 0.006854 0.236113
0.060878 0.006833 0.235471
0.061774 0.006807 0.234678
0.062654 0.006780 0.233857
0.063554 0.006756 0.233141
0.064287 0.006716 0.231847
0.065241 0.006699 0.231384
0.066045 0.006668 0.230411
0.066668 0.006620 0.228851
0.066921 0.006538 0.226093
0.066182 0.006363 0.220118
0.065946 0.006240 0.215976
0.066197 0.006167 0.213532
0.066504 0.006102 0.211337
0.067105 0.006064 0.210125
0.067705 0.006028 0.208946
0.068245 0.005988 0.207617
0.068951 0.005963 0.206823
0.069804 0.005951 0.206485
0.070499 0.005926 0.205697
0.071274 0.005909 0.205156
0.072000 0.005888 0.204487
0.072611 0.005858 0.203514
0.073290 0.005835 0.202752
0.074072 0.005820 0.202290
0.074617 0.005787 0.201196
0.075281 0.005765 0.200444
0.076044 0.005750 0.199968
0.076607 0.005720 0.198982
0.077077 0.005685 0.197779
0.077612 0.005655 0.196764
0.078156 0.005626 0.195792
0.078807 0.005606 0.195105
0.079332 0.005577 0.194119
0.080012 0.005560 0.193530
0.080575 0.005535 0.192667
0.081205 0.005515 0.191978
0.081637 0.005482 0.190838
0.081993 0.005445 0.189540
0.082494 0.005419 0.188598
0.083190 0.005405 0.188112
0.083783 0.005385 0.187398
0.084082 0.005347 0.186044
0.084600 0.005324 0.185193
0.084947 0.005290 0.183980
0.085335 0.005259 0.182875
0.085774 0.005232 0.181894
0.086075 0.005198 0.180636
0.086238 0.005156 0.179110
0.086474 0.005119 0.177756
0.087141 0.005108 0.177300
0.087011 0.005050 0.175238
0.087232 0.005014 0.173909
0.087094 0.004959 0.171890
0.087542 0.004937 0.171045
0.087689 0.004899 0.169625
0.087689 0.004854 0.167941
-1.036778 0.065309 1.955313
-1.038069 0.065982 1.976663
-1.027625 0.065913 1.975754
-1.018284 0.065915 1.976864
-1.013478 0.066213 1.986783
-1.002703 0.066123 1.984984
-1.004861 0.066892 2.008908
-0.994034 0.066803 2.006999
-0.986118 0.066910 2.010896
-0.063141 0.007958 0.236746
-0.062347 0.008001 0.237894
-0.061147 0.007992 0.237506
-0.059396 0.007910 0.234934
-0.057885 0.007856 0.233229
-0.055798 0.007721 0.229105
-0.054153 0.007644 0.226673
-0.052541 0.007567 0.224288
-0.050891 0.007482 0.221645
-0.049092 0.007371 0.218237
-0.047718 0.007320 0.216620
-0.046503 0.007292 0.215673
-0.043463 0.006970 0.206040
-0.042363 0.006951 0.205377
-0.041609 0.006990 0.206412
-0.041021 0.007059 0.208340
-0.040183 0.007087 0.209067
-0.039392 0.007125 0.210089
-0.038578 0.007161 0.211045
-0.037765 0.007199 0.212061
-0.036929 0.007235 0.213013
-0.036082 0.007271 0.213950
-0.035142 0.007289 0.214387
-0.034201 0.007308 0.214851
-0.033325 0.007343 0.215772
-0.032408 0.007371 0.216492
-0.031463 0.007394 0.217067
-0.030547 0.007425 0.217895
-0.029595 0.007450 0.218526
-0.028686 0.007488 0.219545
-0.027684 0.007504 0.219905
-0.026764 0.007543 0.220982
-0.025748 0.007558 0.221337
-0.024710 0.007568 0.221532
-0.023715 0.007592 0.222155
-0.022681 0.007606 0.222466
-0.021688 0.007635 0.223247
-0.020663 0.007655 0.223771
-0.019672 0.007691 0.224743
-0.018643 0.007716 0.225396
-0.017578 0.007727 0.225662
-0.016533 0.007750 0.226264
-0.015474 0.007769 0.226754
-0.014398 0.007781 0.227059
-0.013336 0.007804 0.227678
-0.012252 0.007817 0.227990
-0.011171 0.007835 0.228458
-0.010087 0.007854 0.228987
-0.008999 0.007875 0.229540
-0.007908 0.007898 0.230171
-0.006827 0.007940 0.231370
-0.005725 0.007971 0.232241
-0.004601 0.007977 0.232383
-0.003479 0.007995 0.232885
-0.002353 0.008011 0.233348
-0.001221 0.008023 0.233667
-0.000085 0.008038 0.234088
0.001053 0.008043 0.234226
0.002200 0.008073 0.235093
0.003358 0.008109 0.236144
0.004515 0.008126 0.236645
0.005681 0.008147 0.237270
0.006846 0.008162 0.237701
0.008010 0.008170 0.237947
0.009196 0.008196 0.238727
0.010375 0.008210 0.239172
0.011533 0.008207 0.239100
0.012726 0.008227 0.239700
0.013909 0.008237 0.240045
0.015085 0.008242 0.240217
0.016296 0.008264 0.240901
0.017616 0.008335 0.243007
0.018818 0.008344 0.243329
0.020050 0.008365 0.243982
0.021226 0.008362 0.243934
0.022407 0.008360 0.243949
0.023635 0.008375 0.244458
0.024850 0.008385 0.244789
0.026077 0.008397 0.245219
0.027313 0.008411 0.245704
0.028534 0.008420 0.246028
0.029733 0.008421 0.246148
0.030946 0.008426 0.246376
0.032158 0.008431 0.246591
0.033410 0.008445 0.247094
0.035079 0.008560 0.250543
0.036520 0.008614 0.252205
0.037778 0.008622 0.252535
0.038987 0.008619 0.252544
0.040237 0.008625 0.252810
0.041491 0.008631 0.253098
0.042743 0.008637 0.253362
0.043989 0.008641 0.253583
0.045270 0.008651 0.253992
0.046488 0.008649 0.254049
0.047644 0.008636 0.253772
0.048878 0.008638 0.253926
0.050005 0.008620 0.253531
0.050992 0.008581 0.252468
0.051843 0.008520 0.250805
0.052127 0.008372 0.246537
0.052279 0.008209 0.241850
0.053093 0.008155 0.240363
0.054162 0.008141 0.240078
0.055188 0.008122 0.239618
0.056064 0.008082 0.238542
0.057088 0.008064 0.238132
0.058041 0.008038 0.237451
0.058988 0.008011 0.236774
0.059923 0.007984 0.236075
0.060878 0.007960 0.235485
0.061866 0.007942 0.235041
0.062538 0.007884 0.233438
0.063362 0.007847 0.232448
0.064362 0.007833 0.232129
0.065153 0.007794 0.231082
0.066143 0.007781 0.230765
0.066858 0.007735 0.229515
0.067503 0.007683 0.228068
0.065986 0.007391 0.219476
0.065998 0.007276 0.216157
0.066446 0.007212 0.214343
0.066657 0.007125 0.211831
0.067230 0.007079 0.210525
0.067736 0.007027 0.209050
0.068307 0.006983 0.207814
0.069080 0.006960 0.207218
0.069788 0.006932 0.206444
0.070512 0.006906 0.205740
0.071288 0.006886 0.205201
0.072009 0.006861 0.204520
0.072659 0.006830 0.203654
0.073302 0.006800 0.202791
0.074082 0.006782 0.202321
0.074741 0.006754 0.201534
0.075426 0.006730 0.200835
0.076059 0.006701 0.200011
0.076693 0.006673 0.199209
0.077119 0.006628 0.197889
0.077681 0.006595 0.196940
0.078313 0.006569 0.196188
0.078947 0.006544 0.195453
0.079451 0.006508 0.194413
0.080066 0.006483 0.193662
0.080666 0.006457 0.192884
0.081309 0.006435 0.192224
0.081658 0.006390 0.190887
0.082013 0.006347 0.189586
0.082705 0.006330 0.189079
0.083236 0.006302 0.188213
0.083774 0.006275 0.187378
0.084237 0.006242 0.186385
0.084604 0.006204 0.185198
0.084863 0.006158 0.183795
0.085110 0.006113 0.182390
0.085548 0.006082 0.181411
0.085908 0.006046 0.180282
0.086028 0.005994 0.178669
0.086382 0.005959 0.177562
0.086836 0.005931 0.176675
0.087177 0.005897 0.175568
0.087421 0.005857 0.174280
0.087649 0.005816 0.172978
0.087429 0.005747 0.170817
0.087365 0.005689 0.168991
0.087675 0.005656 0.167909
-1.047125 0.075326 1.974740
-1.048352 0.076096 1.996160
-1.035992 0.075884 1.991766
-1.029534 0.076104 1.998632
-1.023956 0.076394 2.007258
-1.012882 0.076275 2.005072
-1.003503 0.076283 2.006135
-1.003488 0.077010 2.026032
-0.971168 0.075248 1.980364
-0.895882 0.072925 1.921670
-0.888302 0.073047 1.925181
-0.882311 0.073303 1.932185
-0.874498 0.073412 1.935241
-0.858354 0.072816 1.919671
-0.853301 0.073158 1.928781
-0.064837 0.009330 0.243125
-0.062780 0.009198 0.239561
-0.061656 0.009200 0.239501
-0.060325 0.009171 0.238624
-0.058302 0.009034 0.234927
-0.056835 0.008979 0.233381
-0.054699 0.008814 0.228976
-0.052991 0.008713 0.226225
-0.050961 0.008553 0.221969
-0.049452 0.008476 0.219855
-0.047911 0.008391 0.217514
-0.046825 0.008382 0.217185
-0.043919 0.008040 0.208220
-0.042454 0.007953 0.205841
-0.041534 0.007965 0.206059
-0.040781 0.008011 0.207139
-0.040282 0.008110 0.209601
-0.039407 0.008137 0.210191
-0.038616 0.008183 0.211273
-0.037748 0.008215 0.211987
-0.036873 0.008247 0.212710
-0.035983 0.008278 0.213388
-0.035087 0.008308 0.214078
-0.034290 0.008365 0.215438
-0.033305 0.008378 0.215672
-0.032349 0.008399 0.216121
-0.031443 0.008435 0.216950
-0.030490 0.008461 0.217514
-0.029543 0.008490 0.218170
-0.028650 0.008538 0.219295
-0.027638 0.008552 0.219567
-0.026747 0.008606 0.220873
-0.025717 0.008618 0.221095
-0.024736 0.008649 0.221791
-0.023689 0.008658 0.221938
-0.022685 0.008684 0.222539
-0.021702 0.008722 0.223423
-0.020700 0.008755 0.224194
-0.019658 0.008774 0.224615
-0.018618 0.008796 0.225119
-0.017573 0.008819 0.225638
-0.016513 0.008836 0.226015
-0.015465 0.008864 0.226650
-0.014409 0.008890 0.227265
-0.013325 0.008902 0.227516
-0.012263 0.008932 0.228243
-0.011181 0.008952 0.228704
-0.010105 0.008982 0.229417
-0.009027 0.009018 0.230293
-0.007921 0.009030 0.230576
-0.006826 0.009064 0.231392
-0.005728 0.009104 0.232378
-0.004606 0.009117 0.232689
-0.003479 0.009126 0.232897
-0.002353 0.009146 0.233395
-0.001220 0.009161 0.233751
-0.000085 0.009169 0.233949
0.001055 0.009190 0.234473
0.002196 0.009196 0.234625
0.003357 0.009254 0.236096
0.004517 0.009278 0.236714
0.005687 0.009310 0.237541
0.006850 0.009321 0.237837
0.008029 0.009348 0.238532
0.009213 0.009372 0.239169
0.010396 0.009391 0.239679
0.011575 0.009402 0.239985
0.012762 0.009417 0.240396
0.013940 0.009424 0.240595
0.015174 0.009464 0.241664
0.016353 0.009467 0.241764
0.017579 0.009494 0.242514
0.018804 0.009518 0.243169
0.020014 0.009532 0.243572
0.021227 0.009545 0.243966
0.022454 0.009563 0.244482
0.023664 0.009572 0.244776
0.024886 0.009586 0.245173
0.026106 0.009597 0.245521
0.027316 0.009603 0.245759
0.028543 0.009615 0.246129
0.029750 0.009619 0.246306
0.031006 0.009638 0.246877
0.032263 0.009656 0.247420
0.033652 0.009711 0.248905
0.035045 0.009762 0.250323
0.036452 0.009815 0.251753
0.037713 0.009826 0.252126
0.038992 0.009840 0.252596
0.040251 0.009849 0.252925
0.041471 0.009848 0.252994
0.042746 0.009860 0.253403
0.044020 0.009871 0.253782
0.045270 0.009876 0.254017
0.046473 0.009871 0.253985
0.047669 0.009864 0.253925
0.048883 0.009862 0.253971
0.050027 0.009845 0.253664
0.050951 0.009788 0.252284
0.051763 0.009712 0.250434
0.051742 0.009486 0.244732
0.052199 0.009357 0.241496
0.053060 0.009304 0.240235
0.054078 0.009280 0.239721
0.055162 0.009268 0.239522
0.056038 0.009222 0.238449
0.056943 0.009183 0.237541
0.057899 0.009153 0.236884
0.058828 0.009121 0.236145
0.059718 0.009083 0.235282
0.060682 0.009059 0.234739
0.061614 0.009030 0.234098
0.062400 0.008981 0.232937
0.063234 0.008941 0.231993
0.064210 0.008922 0.231593
0.065081 0.008889 0.230840
0.065938 0.008855 0.230061
0.066910 0.008838 0.229703
0.067568 0.008780 0.228297
0.067918 0.008685 0.225912
0.066056 0.008314 0.216354
0.066375 0.008225 0.214121
0.066492 0.008115 0.211315
0.067183 0.008076 0.210386
0.067733 0.008022 0.209049
0.068430 0.007986 0.208196
0.069095 0.007948 0.207269
0.069708 0.007905 0.206215
0.070483 0.007882 0.205660
0.071198 0.007852 0.204948
0.071822 0.007813 0.203994
0.072570 0.007789 0.203410
0.073230 0.007756 0.202597
0.074043 0.007740 0.202219
0.074751 0.007713 0.201566
0.075445 0.007686 0.200889
0.076130 0.007658 0.200202
0.076787 0.007628 0.199455
0.077377 0.007592 0.198552
0.078097 0.007570 0.197996
0.078695 0.007537 0.197146
0.079230 0.007498 0.196154
0.079720 0.007456 0.195072
0.080208 0.007415 0.194005
0.080756 0.007381 0.193102
0.081282 0.007345 0.192160
0.081748 0.007304 0.191095
0.082428 0.007284 0.190543
0.083087 0.007262 0.189951
0.083548 0.007223 0.188917
0.084075 0.007191 0.188048
0.084659 0.007164 0.187317
0.085160 0.007131 0.186412
0.085409 0.007077 0.184975
0.084851 0.006959 0.181831
0.085149 0.006912 0.180562
0.085658 0.006883 0.179754
0.086025 0.006844 0.178659
0.086466 0.006811 0.177731
0.086911 0.006779 0.176821
0.087371 0.006749 0.175953
0.087398 0.006686 0.174228
0.087421 0.006624 0.172522
0.087410 0.006561 0.170774
0.087528 0.006508 0.169300
0.087784 0.006467 0.168110
-1.051878 0.085076 1.983605
-1.048233 0.085547 1.995840
-1.041290 0.085754 2.001863
-1.031470 0.085726 2.002308
-1.023951 0.085890 2.007170
-1.017306 0.086131 2.013756
-1.011411 0.086441 2.021876
-1.003426 0.086576 2.025845
-0.971041 0.084588 1.980049
-0.906393 0.082118 1.924351
-0.893816 0.081798 1.917208
-0.884190 0.081743 1.916245
-0.876685 0.081885 1.919844
-0.869910 0.082100 1.925071
-0.863148 0.082319 1.930381
-0.853168 0.082234 1.928474
-0.845533 0.082375 1.931828
-0.836837 0.082414 1.932757
-0.829716 0.082611 1.937330
-0.822019 0.082754 1.940602
-0.811830 0.082647 1.937952
-0.802751 0.082652 1.937881
-0.795022 0.082797 1.941065
-0.064821 0.010485 0.243083
-0.063076 0.010388 0.240713
-0.061398 0.010298 0.238519
-0.060153 0.010280 0.237963
-0.058841 0.010249 0.237123
-0.057178 0.010154 0.234811
-0.054973 0.009957 0.230142
-0.052939 0.009784 0.226024
-0.051731 0.009760 0.225343
-0.049854 0.009606 0.221665
-0.048497 0.009547 0.220195
-0.047150 0.009488 0.218714
-0.045853 0.009436 0.217410
-0.042363 0.008920 0.205420
-0.041477 0.008941 0.205797
-0.040722 0.008992 0.206861
-0.040103 0.009076 0.208697
-0.039361 0.009136 0.209970
-0.038583 0.009191 0.211118
-0.037670 0.009215 0.211572
-0.036788 0.009249 0.212242
-0.035894 0.009281 0.212885
-0.034977 0.009310 0.213434
-0.034072 0.009343 0.214091
-0.033294 0.009414 0.215628
-0.032330 0.009435 0.216018
-0.031388 0.009465 0.216602
-0.030440 0.009495 0.217187
-0.029610 0.009565 0.218688
-0.028595 0.009578 0.218899
-0.027594 0.009597 0.219249
-0.026695 0.009655 0.220475
-0.025702 0.009682 0.221001
-0.024689 0.009703 0.221404
-0.023664 0.009721 0.221739
-0.022641 0.009742 0.222141
-0.021616 0.009764 0.222564
-0.020629 0.009807 0.223458
-0.019611 0.009838 0.224108
-0.018583 0.009869 0.224734
-0.017549 0.009899 0.225355
-0.016509 0.009930 0.226003
-0.015445 0.009950 0.226389
-0.014382 0.009974 0.226869
-0.013317 0.010000 0.227417
-0.012243 0.010023 0.227893
-0.011179 0.010061 0.228702
-0.010084 0.010075 0.228981
-0.008992 0.010097 0.229439
-0.007894 0.010117 0.229858
-0.006820 0.010180 0.231244
-0.005720 0.010219 0.232114
-0.004602 0.010240 0.232548
-0.003480 0.010263 0.233045
-0.002351 0.010277 0.233343
-0.001221 0.010306 0.234000
-0.000084 0.010323 0.234379
0.001055 0.010331 0.234530
0.002199 0.010349 0.234950
0.003352 0.010384 0.235732
0.004510 0.010412 0.236368
0.005688 0.010466 0.237615
0.006861 0.010493 0.238240
0.008015 0.010488 0.238132
0.009209 0.010530 0.239105
0.010399 0.010558 0.239755
0.011585 0.010577 0.240206
0.012759 0.010582 0.240361
0.013966 0.010612 0.241067
0.015151 0.010622 0.241324
0.016372 0.010653 0.242081
0.017583 0.010674 0.242601
0.018801 0.010697 0.243160
0.020046 0.010730 0.243977
0.021252 0.010741 0.244278
0.022469 0.010756 0.244674
0.023696 0.010774 0.245132
0.024930 0.010793 0.245629
0.026150 0.010804 0.245958
0.027403 0.010828 0.246560
0.028618 0.010835 0.246798
0.029935 0.010879 0.247868
0.031209 0.010904 0.248518
0.032403 0.010900 0.248519
0.033812 0.010967 0.250115
0.035175 0.011014 0.251281
0.036475 0.011039 0.251942
0.037755 0.011056 0.252431
0.039022 0.011069 0.252817
0.040289 0.011081 0.253184
0.041521 0.011083 0.253329
0.042761 0.011087 0.253514
0.044006 0.011091 0.253723
0.045257 0.011097 0.253965
0.046457 0.011091 0.253924
0.047625 0.011077 0.253715
0.048845 0.011076 0.253797
0.049948 0.011049 0.253285
0.050963 0.011004 0.252368
0.051821 0.010929 0.250739
0.051581 0.010630 0.243993
0.052213 0.010520 0.241582
0.052971 0.010440 0.239852
0.054135 0.010442 0.239993
0.055093 0.010404 0.239240
0.055982 0.010356 0.238230
0.056940 0.010322 0.237548
0.057895 0.010288 0.236886
0.058828 0.010252 0.236163
0.059745 0.010215 0.235406
0.060657 0.010178 0.234658
0.061557 0.010141 0.233896
0.062355 0.010088 0.232784
0.063246 0.010052 0.232052
0.064114 0.010014 0.231262
0.065068 0.009990 0.230808
0.065945 0.009955 0.230099
0.066920 0.009936 0.229750
0.067643 0.009881 0.228564
0.067701 0.009732 0.225204
0.066515 0.009411 0.217870
0.066317 0.009238 0.213946
0.066592 0.009135 0.211641
0.066642 0.009005 0.208699
0.067536 0.008991 0.208448
0.068241 0.008953 0.207628
0.068900 0.008910 0.206694
0.069595 0.008872 0.205888
0.070247 0.008830 0.204980
0.070973 0.008799 0.204308
0.071718 0.008771 0.203703
0.072412 0.008737 0.202973
0.073138 0.008708 0.202347
0.073976 0.008693 0.202039
0.074746 0.008670 0.201556
0.075459 0.008641 0.200930
0.076111 0.008607 0.200156
0.076736 0.008569 0.199325
0.077339 0.008531 0.198459
0.078028 0.008503 0.197824
0.078523 0.008454 0.196717
0.079072 0.008413 0.195764
0.079581 0.008368 0.194734
0.080045 0.008319 0.193612
0.080634 0.008285 0.192809
0.081190 0.008248 0.191942
0.081703 0.008207 0.190991
0.082215 0.008167 0.190051
0.082975 0.008153 0.189694
0.083461 0.008112 0.188718
0.083893 0.008066 0.187637
0.084351 0.008024 0.186631
0.084647 0.007968 0.185286
0.084919 0.007911 0.183909
0.084814 0.007820 0.181748
0.085095 0.007766 0.180442
0.085513 0.007726 0.179443
0.085927 0.007685 0.178449
0.086316 0.007644 0.177416
0.086771 0.007609 0.176530
0.087085 0.007563 0.175370
0.087357 0.007514 0.174138
0.087088 0.007419 0.171856
0.087405 0.007376 0.170755
0.087582 0.007322 0.169395
0.087994 0.007288 0.168501
-1.054923 0.094758 1.989233
-1.047391 0.094930 1.994130
-1.039736 0.095094 1.998774
-1.032892 0.095335 2.004975
-1.023275 0.095323 2.005758
-1.008732 0.094847 1.996703
-0.999027 0.094822 1.997044
-0.985958 0.094473 1.990509
-0.967199 0.093568 1.972153
-0.923708 0.092016 1.941193
-0.906251 0.091181 1.924010
-0.894339 0.090891 1.918296
-0.887077 0.091074 1.922475
-0.876015 0.090866 1.918354
-0.863749 0.090527 1.911419
-0.855776 0.090636 1.913881
-0.847453 0.090709 1.915548
-0.840649 0.090949 1.920666
-0.830066 0.090780 1.917118
-0.824508 0.091163 1.925177
-0.819339 0.091598 1.934285
-0.807631 0.091304 1.927945
-0.800107 0.091481 1.931518
-0.794869 0.091927 1.940717
-0.063730 0.011654 0.243230
-0.062289 0.011601 0.242002
-0.060656 0.011510 0.239976
-0.059437 0.011495 0.239544
-0.058131 0.011463 0.238746
-0.055846 0.011232 0.233822
-0.053724 0.011025 0.229400
-0.051965 0.010886 0.226387
-0.050194 0.010738 0.223197
-0.048567 0.010616 0.220538
-0.047018 0.010505 0.218125
-0.045843 0.010475 0.217386
-0.042709 0.009985 0.207120
-0.041564 0.009949 0.206253
-0.040791 0.010001 0.207237
-0.040143 0.010088 0.208927
-0.039347 0.010141 0.209919
-0.038485 0.010179 0.210604
-0.037612 0.010216 0.211273
-0.036734 0.010254 0.211958
-0.035848 0.010292 0.212641
-0.034997 0.010343 0.213580
-0.034196 0.010412 0.214902
-0.033244 0.010437 0.215330
-0.032246 0.010450 0.215489
-0.031351 0.010497 0.216374
-0.030342 0.010509 0.216514
-0.028529 0.010610 0.218426
-0.026669 0.010709 0.220286
-0.025658 0.010732 0.220659
-0.024686 0.010772 0.221411
-0.023638 0.010782 0.221533
-0.022620 0.010807 0.221963
-0.021619 0.010843 0.222635
-0.020614 0.010881 0.223341
-0.019595 0.010916 0.223973
-0.018578 0.010955 0.224714
-0.017549 0.010991 0.225394
-0.016494 0.011016 0.225836
-0.015465 0.011062 0.226722
-0.014406 0.011093 0.227301
-0.013332 0.011116 0.227714
-0.012283 0.011166 0.228686
-0.011175 0.011167 0.228656
-0.010095 0.011200 0.229285
-0.009041 0.011272 0.230730
-0.007936 0.011293 0.231113
-0.006817 0.011298 0.231175
-0.005715 0.011338 0.231967
-0.004600 0.011366 0.232516
-0.003477 0.011384 0.232870
-0.002350 0.011408 0.233323
-0.001219 0.011431 0.233792
-0.000084 0.011460 0.234358
0.001057 0.011483 0.234820
0.002199 0.011489 0.234950
0.003349 0.011518 0.235547
0.004512 0.011565 0.236511
0.005685 0.011613 0.237498
0.006854 0.011639 0.238025
0.008041 0.011682 0.238929
0.009209 0.011691 0.239121
0.010399 0.011722 0.239784
0.011580 0.011738 0.240130
0.012785 0.011773 0.240874
0.013946 0.011766 0.240754
0.015185 0.011819 0.241892
0.016391 0.011841 0.242377
0.017635 0.011886 0.243342
0.018831 0.011895 0.243573
0.020045 0.011914 0.243998
0.021282 0.011943 0.244650
0.022485 0.011951 0.244878
0.023693 0.011961 0.245135
0.024937 0.011987 0.245726
0.026134 0.011989 0.245838
0.027486 0.012059 0.247344
0.028789 0.012102 0.248300
0.030015 0.012111 0.248560
0.031293 0.012139 0.249219
0.032483 0.012133 0.249163
0.033887 0.012203 0.250699
0.035112 0.012207 0.250859
0.036441 0.012245 0.251731
0.037740 0.012271 0.252363
0.039025 0.012291 0.252867
0.040326 0.012315 0.253448
0.041547 0.012313 0.253515
0.042783 0.012316 0.253674
0.044020 0.012319 0.253835
0.045212 0.012310 0.253740
0.046409 0.012302 0.253686
0.047645 0.012305 0.253850
0.048807 0.012289 0.253627
0.049945 0.012267 0.253294
0.050875 0.012198 0.251958
0.051738 0.012115 0.250361
0.051623 0.011813 0.244217
0.052230 0.011685 0.241685
0.052981 0.011594 0.239916
0.053969 0.011559 0.239280
0.055005 0.011534 0.238878
0.055924 0.011487 0.238003
0.056801 0.011433 0.236989
0.057743 0.011394 0.236282
0.058749 0.011369 0.235865
0.059695 0.011333 0.235228
0.060510 0.011274 0.234109
0.061500 0.011250 0.233697
0.062374 0.011205 0.232871
0.063264 0.011165 0.232133
0.064130 0.011122 0.231338
0.065021 0.011085 0.230657
0.065941 0.011053 0.230101
0.066903 0.011030 0.229709
0.067524 0.010952 0.228174
0.066958 0.010687 0.222744
0.066299 0.010416 0.217173
0.066503 0.010287 0.214557
0.066806 0.010177 0.212333
0.066758 0.010017 0.209075
0.067216 0.009937 0.207472
0.067986 0.009904 0.206863
0.068661 0.009859 0.205986
0.069413 0.009826 0.205358
0.070091 0.009784 0.204532
0.070891 0.009759 0.204077
0.071706 0.009738 0.203678
0.072415 0.009702 0.202988
0.073263 0.009686 0.202699
0.073982 0.009653 0.202062
0.074711 0.009623 0.201466
0.075455 0.009595 0.200923
0.076115 0.009558 0.200169
0.076782 0.009522 0.199449
0.077302 0.009469 0.198366
0.077841 0.009419 0.197352
0.078445 0.009379 0.196524
0.078960 0.009329 0.195488
0.079614 0.009296 0.194815
0.080133 0.009249 0.193823
0.080710 0.009209 0.192991
0.081345 0.009176 0.192308
0.081806 0.009125 0.191231
0.082039 0.009050 0.189643
0.082687 0.009022 0.189033
0.083251 0.008985 0.188241
0.083740 0.008941 0.187294
0.084237 0.008899 0.186376
0.084733 0.008858 0.185470
0.085016 0.008795 0.184116
0.084998 0.008703 0.182137
0.085315 0.008647 0.180904
0.085724 0.008601 0.179879
0.086070 0.008549 0.178740
0.086280 0.008485 0.177336
0.086637 0.008437 0.176250
0.086851 0.008376 0.174889
0.087148 0.008324 0.173714
0.086887 0.008220 0.171451
0.087044 0.008158 0.170040
0.087170 0.008093 0.168588
0.087302 0.008031 0.167165
-1.053365 0.104039 1.986171
-1.045751 0.104219 1.990890
-1.039920 0.104580 1.999016
-1.031132 0.104649 2.001454
-1.021992 0.104682 2.003143
-1.010611 0.104484 2.000332
-0.996187 0.103965 1.991283
-0.985972 0.103879 1.990460
-0.971556 0.103345 1.980964
-0.963734 0.103509 1.984773
-0.936018 0.101518 1.947192
-0.923552 0.101158 1.940813
-0.908122 0.100463 1.927938
-0.899001 0.100458 1.928258
-0.887415 0.100176 1.923174
-0.878571 0.100200 1.923923
-0.869370 0.100183 1.923837
-0.862045 0.100385 1.927884
-0.854946 0.100617 1.932473
-0.844492 0.100456 1.929441
-0.836840 0.100627 1.932764
-0.827457 0.100592 1.932068
-0.819776 0.100766 1.935330
-0.809357 0.100602 1.932081
-0.803191 0.100970 1.938986
-0.800031 0.101729 1.953349
-0.064859 0.013040 0.247564
-0.062318 0.012760 0.242138
-0.060819 0.012688 0.240645
-0.059279 0.012604 0.238933
-0.057538 0.012474 0.236337
-0.056289 0.012446 0.235701
-0.054217 0.012233 0.231531
-0.052418 0.012073 0.228387
-0.050672 0.011918 0.225352
-0.048904 0.011752 0.222093
-0.047523 0.011673 0.220495
-0.045900 0.011531 0.217684
-0.043853 0.011272 0.212694
-0.041576 0.010941 0.206336
-0.040797 0.010997 0.207294
-0.040075 0.011072 0.208599
-0.039334 0.011145 0.209876
-0.038391 0.011163 0.210119
-0.037575 0.011221 0.211096
-0.036775 0.011286 0.212228
-0.035878 0.011325 0.212851
-0.035042 0.011385 0.213889
-0.034195 0.011446 0.214924
-0.033247 0.011475 0.215380
-0.032268 0.011496 0.215670
-0.031342 0.011537 0.216345
-0.030334 0.011550 0.216495
-0.029398 0.011592 0.217189
-0.028478 0.011644 0.218069
-0.026619 0.011752 0.219911
-0.025647 0.011793 0.220595
-0.024716 0.011857 0.221716
-0.023635 0.011852 0.221538
-0.022614 0.011878 0.221945
-0.021615 0.011919 0.222629
-0.020613 0.011962 0.223366
-0.019593 0.011999 0.223985
-0.018563 0.012034 0.224564
-0.017542 0.012079 0.225350
-0.016520 0.012130 0.226234
-0.015482 0.012176 0.227027
-0.014454 0.012236 0.228091
-0.013371 0.012257 0.228436
-0.012305 0.012298 0.229149
-0.011201 0.012306 0.229244
-0.010102 0.012322 0.229493
-0.009016 0.012358 0.230130
-0.007911 0.012376 0.230433
-0.006798 0.012387 0.230601
-0.005698 0.012429 0.231358
-0.004594 0.012481 0.232289
-0.003472 0.012501 0.232647
-0.002346 0.012520 0.232973
-0.001218 0.012556 0.233620
-0.000083 0.012589 0.234232
0.001057 0.012619 0.234771
0.002199 0.012626 0.234902
0.003346 0.012649 0.235321
0.004505 0.012692 0.236132
0.005671 0.012734 0.236916
0.006848 0.012783 0.237829
0.008021 0.012810 0.238348
0.009208 0.012850 0.239108
0.010400 0.012888 0.239841
0.011588 0.012913 0.240327
0.012755 0.012912 0.240343
0.013976 0.012962 0.241297
0.015205 0.013010 0.242243
0.016460 0.013072 0.243433
0.017622 0.013057 0.243195
0.018838 0.013082 0.243700
0.020056 0.013104 0.244163
0.021261 0.013116 0.244437
0.022491 0.013142 0.244973
0.023735 0.013172 0.245598
0.024977 0.013199 0.246155
0.026369 0.013298 0.248081
0.027600 0.013312 0.248403
0.028771 0.013296 0.248185
0.030102 0.013353 0.249316
0.031319 0.013356 0.249454
0.032587 0.013381 0.249989
0.033882 0.013414 0.250694
0.035182 0.013447 0.251392
0.036475 0.013474 0.252001
0.037743 0.013492 0.252415
0.038996 0.013503 0.252709
0.040300 0.013530 0.253311
0.041565 0.013543 0.253652
0.042795 0.013544 0.253773
0.044015 0.013542 0.253833
0.045253 0.013545 0.254000
0.046449 0.013536 0.253937
0.047654 0.013530 0.253929
0.048845 0.013520 0.253851
0.050015 0.013506 0.253679
0.051013 0.013446 0.252667
0.051708 0.013311 0.250243
0.051228 0.012887 0.242371
0.051947 0.012777 0.240399
0.052886 0.012724 0.239513
0.053895 0.012690 0.238973
0.054930 0.012663 0.238575
0.055836 0.012609 0.237652
0.056784 0.012565 0.236938
0.057635 0.012503 0.235861
0.058591 0.012465 0.235248
0.059598 0.012439 0.234864
0.060437 0.012380 0.233844
0.061323 0.012332 0.233043
0.062209 0.012286 0.232274
0.063120 0.012247 0.231623
0.064042 0.012211 0.231036
0.064912 0.012166 0.230284
0.065837 0.012133 0.229754
0.066852 0.012117 0.229547
0.067369 0.012013 0.227668
0.067684 0.011877 0.225173
0.066714 0.011523 0.218548
0.066718 0.011346 0.215265
0.066665 0.011165 0.211896
0.066664 0.010997 0.208791
0.067247 0.010930 0.207578
0.068207 0.010924 0.207544
0.068909 0.010879 0.206737
0.069417 0.010804 0.205380
0.070072 0.010754 0.204486
0.070794 0.010715 0.203807
0.071611 0.010692 0.203414
0.072359 0.010659 0.202838
0.073052 0.010618 0.202120
0.073869 0.010597 0.201759
0.074654 0.010572 0.201319
0.075265 0.010523 0.200422
0.075957 0.010486 0.199759
0.076645 0.010450 0.199097
0.077107 0.010384 0.197867
0.077633 0.010329 0.196828
0.078098 0.010266 0.195655
0.078604 0.010211 0.194609
0.079436 0.010198 0.194379
0.079942 0.010144 0.193364
0.080591 0.010110 0.192706
0.081120 0.010061 0.191775
0.081647 0.010014 0.190858
0.081949 0.009940 0.189433
0.082491 0.009896 0.188584
0.083034 0.009853 0.187747
0.083666 0.009822 0.187125
0.084167 0.009777 0.186218
0.084616 0.009726 0.185210
0.084859 0.009652 0.183770
0.084911 0.009559 0.181945
0.085074 0.009480 0.180387
0.085282 0.009408 0.178946
0.085450 0.009332 0.177446
0.085721 0.009270 0.176179
0.086219 0.009232 0.175391
0.086457 0.009168 0.174087
0.086550 0.009090 0.172512
0.086398 0.008988 0.170476
0.086769 0.008941 0.169492
0.086830 0.008864 0.167920
0.087135 0.008813 0.166835
-1.055963 0.113741 1.990930
-1.048035 0.113904 1.995106
-1.039575 0.114012 1.998228
-1.031551 0.114170 2.002149
-1.019895 0.113926 1.998925
-1.011424 0.114036 2.001839
-1.000762 0.113898 2.000333
-0.988140 0.113533 1.994750
-0.974241 0.113013 1.986361
-0.958576 0.112275 1.974079
-0.944507 0.111712 1.964787
-0.931597 0.111276 1.957661
-0.915823 0.110486 1.944235
-0.906249 0.110435 1.943758
-0.891918 0.109797 1.932893
-0.878968 0.109319 1.924760
-0.868245 0.109110 1.921321
-0.861907 0.109453 1.927557
-0.851983 0.109343 1.925763
-0.843915 0.109472 1.928116
-0.833905 0.109349 1.925986
-0.826818 0.109611 1.930581
-0.819588 0.109859 1.934895
-0.811799 0.110037 1.937929
-0.806120 0.110508 1.946080
-0.801275 0.111106 1.956413
-0.064837 0.014214 0.247505
-0.062328 0.013917 0.242203
-0.060289 0.013715 0.238573
-0.059035 0.013687 0.237977
-0.057750 0.013652 0.237231
-0.055998 0.013502 0.234508
-0.054110 0.013312 0.231102
-0.052408 0.013162 0.228370
-0.050365 0.012917 0.224016
-0.048744 0.012773 0.221396
-0.047189 0.012640 0.218976
-0.045911 0.012576 0.217765
-0.044684 0.012524 0.216756
-0.041787 0.011990 0.207413
-0.040711 0.011966 0.206887
-0.039964 0.012039 0.208052
-0.039347 0.012157 0.209980
-0.038408 0.012178 0.210243
-0.037504 0.012212 0.210729
-0.036743 0.012296 0.212074
-0.035803 0.012323 0.212438
-0.035001 0.012400 0.213670
-0.034081 0.012439 0.214241
-0.033171 0.012484 0.214924
-0.032254 0.012530 0.215611
-0.031307 0.012566 0.216138
-0.030339 0.012597 0.216568
-0.029388 0.012636 0.217152
-0.028473 0.012695 0.218071
-0.027499 0.012731 0.218601
-0.026548 0.012780 0.219367
-0.025593 0.012832 0.220171
-0.024630 0.012884 0.220989
-0.023608 0.012909 0.221329
-0.022596 0.012941 0.221809
-0.021583 0.012977 0.222342
-0.020582 0.013024 0.223074
-0.019553 0.013057 0.223574
-0.018575 0.013130 0.224758
-0.017544 0.013173 0.225427
-0.016531 0.013236 0.226434
-0.015514 0.013304 0.227540
-0.014437 0.013327 0.227882
-0.013377 0.013371 0.228577
-0.012281 0.013384 0.228741
-0.011185 0.013399 0.228963
-0.010095 0.013426 0.229377
-0.008992 0.013441 0.229592
-0.007888 0.013457 0.229833
-0.006786 0.013484 0.230260
-0.005686 0.013525 0.230932
-0.004587 0.013588 0.231973
-0.003468 0.013619 0.232474
-0.002347 0.013660 0.233153
-0.001219 0.013711 0.234010
-0.000083 0.013738 0.234462
0.001059 0.013772 0.235030
0.002204 0.013794 0.235400
0.003349 0.013802 0.235530
0.004502 0.013830 0.236015
0.005667 0.013874 0.236767
0.006856 0.013952 0.238124
0.008027 0.013978 0.238566
0.009193 0.013987 0.238750
0.010378 0.014022 0.239366
0.011564 0.014050 0.239863
0.012767 0.014091 0.240596
0.013965 0.014121 0.241132
0.015152 0.014136 0.241425
0.016389 0.014192 0.242415
0.017621 0.014237 0.243223
0.018808 0.014241 0.243344
0.020015 0.014259 0.243706
0.021252 0.014295 0.244370
0.022484 0.014325 0.244930
0.023725 0.014356 0.245529
0.025044 0.014430 0.246857
0.026316 0.014471 0.247618
0.027570 0.014499 0.248163
0.028805 0.014515 0.248507
0.029990 0.014505 0.248419
0.031305 0.014557 0.249380
0.032578 0.014586 0.249955
0.033842 0.014609 0.250433
0.035180 0.014661 0.251411
0.036479 0.014694 0.252064
0.037717 0.014701 0.252271
0.038947 0.014704 0.252427
0.040222 0.014724 0.252858
0.041433 0.014720 0.252880
0.042708 0.014738 0.253288
0.043950 0.014744 0.253492
0.045110 0.014723 0.253232
0.046367 0.014733 0.253517
0.047623 0.014743 0.253790
0.048791 0.014726 0.253602
0.049958 0.014709 0.253418
0.051026 0.014665 0.252761
0.051856 0.014556 0.250988
0.051496 0.014125 0.243666
0.051975 0.013939 0.240554
0.052792 0.013849 0.239110
0.053954 0.013852 0.239261
0.054972 0.013819 0.238787
0.055976 0.013783 0.238271
0.056926 0.013736 0.237558
0.057841 0.013682 0.236728
0.058788 0.013638 0.236065
0.059623 0.013569 0.234984
0.060558 0.013526 0.234335
0.061246 0.013430 0.232771
0.062138 0.013382 0.232028
0.063113 0.013352 0.231617
0.064006 0.013307 0.230924
0.065035 0.013291 0.230741
0.065876 0.013238 0.229907
0.066826 0.013208 0.229477
0.067814 0.013186 0.229188
0.065624 0.012557 0.218334
0.066451 0.012516 0.217701
0.066875 0.012401 0.215784
0.067358 0.012301 0.214111
0.066334 0.011932 0.207769
0.067087 0.011890 0.207095
0.067844 0.011849 0.206450
0.068743 0.011834 0.206251
0.069428 0.011783 0.205421
0.070073 0.011726 0.204497
0.070854 0.011694 0.203988
0.071620 0.011660 0.203447
0.072474 0.011641 0.203168
0.073171 0.011598 0.202458
0.073870 0.011556 0.201769
0.074566 0.011515 0.201087
0.075129 0.011454 0.200064
0.075758 0.011405 0.199240
0.076298 0.011344 0.198198
0.076690 0.011262 0.196801
0.077383 0.011227 0.196196
0.078018 0.011183 0.195458
0.078531 0.011124 0.194430
0.079269 0.011097 0.193973
0.079820 0.011045 0.193067
0.080463 0.011007 0.192399
0.080987 0.010954 0.191462
0.081573 0.010910 0.190681
0.081653 0.010800 0.188746
0.082116 0.010743 0.187724
0.082777 0.010712 0.187163
0.083510 0.010691 0.186772
0.084009 0.010641 0.185862
0.084511 0.010593 0.184974
0.084992 0.010542 0.184052
0.085221 0.010462 0.182604
0.085075 0.010338 0.180381
0.085245 0.010255 0.178861
0.085034 0.010128 0.176573
0.085603 0.010095 0.175926
0.085828 0.010022 0.174586
0.085676 0.009908 0.172505
0.085975 0.009847 0.171356
0.085554 0.009706 0.168800
0.086199 0.009687 0.168368
0.086471 0.009627 0.167213
0.086830 0.009578 0.166237
-1.052346 0.122764 1.983957
-1.044282 0.122920 1.987817
-1.038671 0.123372 1.996355
-1.028165 0.123244 1.995449
-1.020757 0.123489 2.000495
-1.012029 0.123577 2.002924
-1.000552 0.123329 1.999810
-0.987593 0.122891 1.993550
-0.974671 0.122449 1.987150
-0.963359 0.122202 1.983848
-0.946217 0.121204 1.968271
-0.935549 0.121024 1.965902
-0.922817 0.120571 1.959027
-0.911392 0.120280 1.954740
-0.895882 0.119439 1.941441
-0.882713 0.118896 1.932925
-0.864838 0.117702 1.913753
-0.859373 0.118189 1.921868
-0.850763 0.118249 1.922989
-0.840564 0.118087 1.920452
-0.831107 0.118027 1.919521
-0.826594 0.118675 1.930062
-0.819108 0.118906 1.933774
-0.816390 0.119842 1.948905
-0.804931 0.119502 1.943233
-0.801073 0.120295 1.955952
-0.063015 0.015237 0.244901
-0.061178 0.015071 0.242122
-0.059545 0.014951 0.240062
-0.058270 0.014917 0.239399
-0.056912 0.014860 0.238366
-0.054982 0.014649 0.234857
-0.052612 0.014309 0.229289
-0.051167 0.014211 0.227611
-0.049546 0.014059 0.225069
-0.047529 0.013786 0.220584
-0.045984 0.013641 0.218145
-0.045017 0.013664 0.218403
-0.044585 0.013854 0.221335
-0.040504 0.012892 0.205864
-0.039804 0.012985 0.207250
-0.039014 0.013053 0.208232
-0.038346 0.013167 0.209938
-0.037398 0.013187 0.210170
-0.036581 0.013257 0.211175
-0.035798 0.013343 0.212443
-0.034991 0.013424 0.213645
-0.034182 0.013510 0.214915
-0.033215 0.013537 0.215245
-0.032252 0.013568 0.215633
-0.031312 0.013611 0.216217
-0.030300 0.013623 0.216327
-0.029354 0.013668 0.216943
-0.028417 0.013720 0.217684
-0.026548 0.013840 0.219409
-0.025558 0.013877 0.219914
-0.024586 0.013928 0.220638
-0.023585 0.013965 0.221155
-0.022561 0.013993 0.221516
-0.021551 0.014032 0.222059
-0.020547 0.014080 0.222742
-0.019538 0.014129 0.223446
-0.018517 0.014175 0.224102
-0.017521 0.014247 0.225178
-0.016516 0.014320 0.226274
-0.015516 0.014409 0.227614
-0.014442 0.014437 0.228006
-0.013361 0.014463 0.228368
-0.012288 0.014503 0.228943
-0.011197 0.014526 0.229260
-0.010085 0.014525 0.229206
-0.008998 0.014566 0.229807
-0.007905 0.014606 0.230399
-0.006799 0.014629 0.230736
-0.005684 0.014642 0.230901
-0.004575 0.014678 0.231441
-0.003459 0.014712 0.231960
-0.002339 0.014748 0.232501
-0.001215 0.014802 0.233336
-0.000082 0.014864 0.234308
0.001058 0.014891 0.234728
0.002203 0.014931 0.235350
0.003350 0.014945 0.235562
0.004500 0.014966 0.235907
0.005665 0.015017 0.236709
0.006839 0.015070 0.237553
0.008022 0.015125 0.238430
0.009202 0.015161 0.239013
0.010373 0.015176 0.239277
0.011551 0.015197 0.239635
0.012744 0.015232 0.240213
