ply
format ascii 1.0
element vertex 1685
property float x
property float y
property float z
end_header
-0.023542 -0.044823 0.223137
-0.022567 -0.045008 0.224000
-0.021580 -0.045188 0.224842
-0.020585 -0.045367 0.225674
-0.019545 -0.045461 0.226093
-0.018511 -0.045583 0.226650
-0.017472 -0.045708 0.227219
-0.016405 -0.045768 0.227470
-0.015368 -0.045927 0.228220
-0.014296 -0.046001 0.228541
-0.013232 -0.046111 0.229051
-0.012175 -0.046272 0.229811
-0.011071 -0.046266 0.229743
-0.009988 -0.046360 0.230180
-0.008902 -0.046461 0.230649
-0.007806 -0.046526 0.230941
-0.006719 -0.046677 0.231667
-0.005617 -0.046773 0.232116
-0.004513 -0.046881 0.232635
-0.003397 -0.046915 0.232782
-0.002285 -0.047044 0.233406
-0.001177 -0.047568 0.235992
-0.000042 -0.047638 0.236329
0.001095 -0.047678 0.236518
0.002237 -0.047797 0.237098
0.003383 -0.047888 0.237550
0.004533 -0.047969 0.237947
0.005684 -0.048029 0.238250
0.006847 -0.048152 0.238862
0.008023 -0.048315 0.239675
0.009262 -0.048773 0.241957
0.010445 -0.048863 0.242418
0.011618 -0.048897 0.242600
0.012800 -0.048955 0.242906
0.013986 -0.049018 0.243236
0.015205 -0.049180 0.244064
0.016377 -0.049176 0.244067
0.017621 -0.049372 0.245068
0.018826 -0.049444 0.245451
0.020042 -0.049535 0.245937
0.021312 -0.049740 0.246988
0.022569 -0.049895 0.247793
0.023908 -0.050206 0.249376
0.025145 -0.050284 0.249807
0.026347 -0.050287 0.249865
0.027597 -0.050379 0.250363
0.028842 -0.050453 0.250782
0.030086 -0.050519 0.251158
0.031371 -0.050647 0.251847
0.032633 -0.050730 0.252309
0.033962 -0.050908 0.253248
0.035258 -0.051024 0.253881
0.036555 -0.051134 0.254487
0.037860 -0.051249 0.255121
0.039203 -0.051405 0.255957
0.040471 -0.051457 0.256275
0.041761 -0.051532 0.256716
0.043064 -0.051620 0.257218
0.044377 -0.051714 0.257748
0.045635 -0.051740 0.257947
0.046879 -0.051750 0.258061
0.048120 -0.051756 0.258158
0.049365 -0.051765 0.258272
0.050635 -0.051799 0.258511
0.051803 -0.051731 0.258238
0.052998 -0.051691 0.258110
0.054102 -0.051567 0.257557
0.055131 -0.051377 0.256679
0.055123 -0.050252 0.251121
0.055454 -0.049476 0.247309
0.056432 -0.049298 0.246486
0.057503 -0.049207 0.246093
0.058395 -0.048969 0.244969
0.059394 -0.048829 0.244329
0.060352 -0.048661 0.243549
0.061280 -0.048475 0.242680
0.062229 -0.048313 0.241927
0.063132 -0.048121 0.241023
0.063974 -0.047891 0.239926
0.064707 -0.047588 0.238463
0.065464 -0.047314 0.237140
0.066381 -0.047163 0.236430
0.067058 -0.046848 0.234899
0.067746 -0.046551 0.233459
0.068453 -0.046277 0.232128
0.069356 -0.046143 0.231494
0.070158 -0.045946 0.230544
0.070863 -0.045692 0.229307
0.071334 -0.045298 0.227362
0.071454 -0.044696 0.224370
0.072292 -0.044554 0.223687
0.072478 -0.044020 0.221031
0.072972 -0.043686 0.219374
0.072045 -0.042523 0.213550
0.072711 -0.042318 0.212538
0.073047 -0.041931 0.210604
0.073752 -0.041762 0.209765
0.073639 -0.041142 0.206651
0.074087 -0.040846 0.205168
0.074443 -0.040509 0.203470
0.075027 -0.040302 0.202425
0.075508 -0.040046 0.201130
0.076224 -0.039920 0.200482
0.076791 -0.039720 0.199456
0.077284 -0.039486 0.198263
0.077410 -0.039073 0.196161
0.078055 -0.038929 0.195407
0.078576 -0.038727 0.194358
0.079094 -0.038528 0.193319
0.079592 -0.038324 0.192252
0.080182 -0.038169 0.191422
0.080948 -0.038100 0.191022
0.081517 -0.037941 0.190164
0.082176 -0.037826 0.189526
0.082735 -0.037669 0.188667
0.083168 -0.037458 0.187538
0.083155 -0.037053 0.185429
0.083451 -0.036793 0.184039
0.083810 -0.036565 0.182810
0.084124 -0.036323 0.181503
0.084723 -0.036208 0.180823
0.085043 -0.035977 0.179559
0.085536 -0.035823 0.178674
0.086076 -0.035692 0.177897
0.086645 -0.035574 0.177183
0.087126 -0.035424 0.176296
0.087662 -0.035299 0.175530
0.088286 -0.035210 0.174939
0.088981 -0.035152 0.174491
0.089672 -0.035093 0.174031
0.090583 -0.035121 0.173991
0.091326 -0.035083 0.173619
-1.478040 -0.541659 2.769879
-1.479503 -0.547057 2.800238
-1.476712 -0.550967 2.822883
-1.452588 -0.546917 2.804612
-1.446862 -0.549783 2.821671
-1.437956 -0.551484 2.832643
-1.427269 -0.552529 2.840129
-1.420653 -0.555184 2.855792
-1.411638 -0.556944 2.866749
-1.407441 -0.560659 2.887668
-1.406722 -0.565845 2.916086
-1.397146 -0.567537 2.926405
-1.423899 -0.634784 3.284367
-1.395066 -0.628742 3.253856
-1.388456 -0.632695 3.274976
-1.377592 -0.634775 3.286331
-1.363779 -0.635530 3.290739
-1.352749 -0.637614 3.301952
-1.340487 -0.639160 3.310304
-1.326337 -0.639831 3.314053
-1.314206 -0.641504 3.322919
-1.302355 -0.643357 3.332645
-1.288921 -0.644464 3.338437
-1.276433 -0.646077 3.346784
-1.263718 -0.647615 3.354677
-1.247112 -0.647173 3.352251
-1.234038 -0.648577 3.359325
-1.219409 -0.649189 3.362243
-1.205235 -0.650064 3.366458
-1.195742 -0.653521 3.383991
-0.063224 -0.047957 0.247067
-0.060353 -0.046641 0.240205
-0.059590 -0.046935 0.241639
-0.058786 -0.047208 0.242963
-0.057505 -0.047101 0.242328
-0.056089 -0.046877 0.241092
-0.055080 -0.046991 0.241596
-0.055073 -0.047982 0.246607
-0.051981 -0.046271 0.237728
-0.050918 -0.046330 0.237946
-0.049214 -0.045795 0.235115
-0.048157 -0.045851 0.235323
-0.042959 -0.041874 0.214836
-0.041167 -0.041104 0.210811
-0.040296 -0.041238 0.211424
-0.039532 -0.041492 0.212648
-0.038586 -0.041563 0.212940
-0.037687 -0.041690 0.213514
-0.036860 -0.041905 0.214541
-0.036038 -0.042139 0.215669
-0.035128 -0.042281 0.216322
-0.034182 -0.042386 0.216788
-0.033249 -0.042514 0.217372
-0.032297 -0.042627 0.217876
-0.031410 -0.042836 0.218873
-0.030487 -0.043007 0.219681
-0.029544 -0.043163 0.220409
-0.028563 -0.043272 0.220901
-0.027598 -0.043414 0.221557
-0.026594 -0.043505 0.221960
-0.025589 -0.043602 0.222388
-0.024588 -0.043712 0.222890
-0.023565 -0.043794 0.223249
-0.022554 -0.043906 0.223759
-0.021556 -0.044057 0.224471
-0.020551 -0.044208 0.225186
-0.019530 -0.044340 0.225807
-0.018512 -0.044494 0.226542
-0.017478 -0.044626 0.227161
-0.016443 -0.044776 0.227876
-0.015381 -0.044866 0.228293
-0.014315 -0.044958 0.228715
-0.013251 -0.045070 0.229247
-0.012178 -0.045173 0.229728
-0.011092 -0.045241 0.230040
-0.009998 -0.045290 0.230258
-0.008909 -0.045376 0.230663
-0.007816 -0.045463 0.231075
-0.006724 -0.045587 0.231677
-0.005626 -0.045710 0.232280
-0.004518 -0.045796 0.232695
-0.003408 -0.045918 0.233292
-0.002291 -0.045991 0.233648
-0.001179 -0.046450 0.235965
-0.000044 -0.046466 0.236038
0.001092 -0.046514 0.236270
0.002235 -0.046665 0.237032
0.003381 -0.046745 0.237431
0.004533 -0.046843 0.237931
0.005686 -0.046919 0.238318
0.006850 -0.047039 0.238934
0.008027 -0.047202 0.239766
0.009238 -0.047498 0.241281
0.010433 -0.047653 0.242078
0.011626 -0.047772 0.242700
0.012781 -0.047725 0.242477
0.013980 -0.047837 0.243065
0.015196 -0.047984 0.243834
0.016425 -0.048149 0.244698
0.017624 -0.048210 0.245039
0.018812 -0.048236 0.245196
0.020044 -0.048363 0.245876
0.021277 -0.048479 0.246504
0.022542 -0.048651 0.247414
0.023763 -0.048715 0.247779
0.025036 -0.048876 0.248641
0.026351 -0.049099 0.249817
0.027599 -0.049184 0.250297
0.028827 -0.049228 0.250566
0.030101 -0.049343 0.251205
0.031358 -0.049423 0.251664
0.032681 -0.049597 0.252601
0.034009 -0.049765 0.253512
0.035276 -0.049836 0.253931
0.036556 -0.049920 0.254419
0.037848 -0.050013 0.254952
0.039197 -0.050175 0.255841
0.040463 -0.050223 0.256151
0.041697 -0.050230 0.256248
0.043055 -0.050381 0.257084
0.044394 -0.050503 0.257773
0.045716 -0.050598 0.258328
0.046956 -0.050601 0.258411
0.048144 -0.050548 0.258209
0.049457 -0.050627 0.258682
0.050717 -0.050648 0.258859
0.051916 -0.050609 0.258729
0.053081 -0.050539 0.258444
0.054203 -0.050433 0.257971
0.054872 -0.049919 0.255410
0.055119 -0.049052 0.251043
0.055620 -0.048443 0.247993
0.056447 -0.048137 0.246496
0.057351 -0.047908 0.245387
0.058516 -0.047902 0.245422
0.059450 -0.047711 0.244507
0.060391 -0.047532 0.243655
0.061367 -0.047388 0.242976
0.062296 -0.047213 0.242141
0.063184 -0.047014 0.241180
0.063874 -0.046678 0.239510
0.064690 -0.046443 0.238361
0.065633 -0.046306 0.237714
0.066450 -0.046087 0.236639
0.067332 -0.045919 0.235829
0.067842 -0.045507 0.233758
0.068492 -0.045201 0.232233
0.069276 -0.044992 0.231199
0.070064 -0.044791 0.230209
0.070812 -0.044572 0.229120
0.071110 -0.044080 0.226628
0.072235 -0.044108 0.226805
0.072055 -0.043350 0.222935
0.072823 -0.043176 0.222068
0.072522 -0.042382 0.218009
0.071755 -0.041343 0.212680
0.072233 -0.041039 0.211134
0.072829 -0.040810 0.209968
0.073227 -0.040478 0.208268
0.073491 -0.040081 0.206234
0.074102 -0.039881 0.205209
0.074650 -0.039654 0.204037
0.075159 -0.039411 0.202785
0.075652 -0.039167 0.201520
0.076385 -0.039051 0.200912
0.077071 -0.038915 0.200192
0.077704 -0.038755 0.199352
0.078112 -0.038488 0.197954
0.078196 -0.038070 0.195775
0.078841 -0.037932 0.195030
0.079262 -0.037690 0.193750
0.079671 -0.037449 0.192465
0.080259 -0.037296 0.191631
0.081034 -0.037232 0.191251
0.081732 -0.037134 0.190694
0.082337 -0.036998 0.189928
0.082905 -0.036847 0.189088
0.083278 -0.036614 0.187820
0.083354 -0.036257 0.185909
0.083490 -0.035933 0.184165
0.083776 -0.035680 0.182778
0.084173 -0.035479 0.181652
0.084676 -0.035326 0.180768
0.085094 -0.035141 0.179715
0.085497 -0.034954 0.178643
0.086155 -0.034873 0.178110
0.086709 -0.034753 0.177367
0.087237 -0.034624 0.176578
0.087819 -0.034519 0.175901
0.088444 -0.034433 0.175312
0.089091 -0.034357 0.174769
0.089776 -0.034297 0.174299
0.090670 -0.034317 0.174225
0.091467 -0.034300 0.173958
-1.487574 -0.531832 2.788758
-1.477661 -0.533025 2.797722
-1.474080 -0.536546 2.818788
-1.456428 -0.534963 2.812918
-1.450939 -0.537860 2.830481
-1.443177 -0.539962 2.843750
-1.435822 -0.542257 2.857934
-1.426748 -0.543941 2.868794
-1.421978 -0.547314 2.888464
-1.420569 -0.552060 2.915289
-1.415943 -0.555636 2.935853
-1.424826 -0.619673 3.286850
-1.404555 -0.617547 3.276297
-1.395083 -0.620177 3.290881
-1.376737 -0.618876 3.284531
-1.366858 -0.621396 3.298374
-1.353764 -0.622496 3.304603
-1.341366 -0.623945 3.312611
-1.328230 -0.625083 3.318887
-1.315267 -0.626329 3.325672
-1.303314 -0.628093 3.335136
-1.290903 -0.629677 3.343573
-1.276617 -0.630375 3.347240
-1.264703 -0.632277 3.357231
-1.249239 -0.632430 3.357876
-1.235765 -0.633608 3.363901
-1.222135 -0.634735 3.369601
-1.206980 -0.635090 3.371142
-1.195606 -0.637472 3.383383
-1.181522 -0.638454 3.388142
-0.063291 -0.046833 0.247265
-0.062198 -0.046891 0.247486
-0.061026 -0.046890 0.247398
-0.059924 -0.046945 0.247600
-0.058852 -0.047025 0.247934
-0.057793 -0.047120 0.248347
-0.056692 -0.047182 0.248589
-0.047630 -0.040483 0.213215
-0.044161 -0.038348 0.201900
-0.043194 -0.038340 0.201785
-0.049270 -0.044726 0.235309
-0.043021 -0.039960 0.210158
-0.042075 -0.040009 0.210341
-0.041117 -0.040050 0.210481
-0.040162 -0.040096 0.210646
-0.039245 -0.040183 0.211028
-0.038340 -0.040287 0.211501
-0.037685 -0.040667 0.213419
-0.037118 -0.041166 0.215964
-0.036085 -0.041161 0.215864
-0.035143 -0.041263 0.216326
-0.034250 -0.041431 0.217132
-0.033278 -0.041511 0.217476
-0.032306 -0.041595 0.217846
-0.031343 -0.041698 0.218313
-0.030410 -0.041848 0.219030
-0.029435 -0.041951 0.219499
-0.028555 -0.042200 0.220735
-0.027569 -0.042306 0.221222
-0.026623 -0.042486 0.222099
-0.025630 -0.042601 0.222635
-0.024628 -0.042710 0.223145
-0.023627 -0.042834 0.223729
-0.022615 -0.042947 0.224259
-0.021599 -0.043063 0.224808
-0.020565 -0.043153 0.225225
-0.019564 -0.043328 0.226083
-0.018540 -0.043468 0.226760
-0.017521 -0.043639 0.227601
-0.016465 -0.043734 0.228048
-0.015406 -0.043836 0.228535
-0.014335 -0.043913 0.228896
-0.013272 -0.044035 0.229487
-0.012189 -0.044101 0.229795
-0.011096 -0.044144 0.229979
-0.010015 -0.044251 0.230501
-0.008922 -0.044323 0.230844
-0.007823 -0.044380 0.231114
-0.006738 -0.044551 0.231979
-0.005642 -0.044703 0.232743
-0.004534 -0.044814 0.233298
-0.003424 -0.044970 0.234092
-0.002302 -0.045051 0.234498
-0.001178 -0.045215 0.235336
-0.000046 -0.045311 0.235824
0.001091 -0.045407 0.236317
0.002233 -0.045510 0.236844
0.003380 -0.045615 0.237389
0.004541 -0.045802 0.238357
0.005700 -0.045896 0.238853
0.006862 -0.045985 0.239321
0.008049 -0.046188 0.240384
0.009240 -0.046358 0.241278
0.010427 -0.046473 0.241887
0.011632 -0.046638 0.242764
0.012794 -0.046615 0.242661
0.013988 -0.046701 0.243129
0.015231 -0.046925 0.244320
0.016435 -0.047008 0.244774
0.017606 -0.046989 0.244707
0.018853 -0.047165 0.245651
0.020063 -0.047232 0.246032
0.021268 -0.047279 0.246314
0.022511 -0.047401 0.246990
0.023781 -0.047565 0.247883
0.025089 -0.047788 0.249086
0.026354 -0.047909 0.249763
0.027602 -0.047992 0.250241
0.028833 -0.048039 0.250537
0.030085 -0.048115 0.250986
0.031320 -0.048160 0.251271
0.032659 -0.048355 0.252346
0.033968 -0.048494 0.253127
0.035254 -0.048591 0.253691
0.036544 -0.048687 0.254251
0.037852 -0.048800 0.254902
0.039187 -0.048939 0.255695
0.040472 -0.049009 0.256124
0.041753 -0.049071 0.256515
0.042988 -0.049076 0.256608
0.044378 -0.049254 0.257604
0.045672 -0.049317 0.258005
0.046946 -0.049357 0.258282
0.048167 -0.049339 0.258263
0.049438 -0.049373 0.258510
0.050673 -0.049370 0.258565
0.051833 -0.049296 0.258250
0.053044 -0.049272 0.258199
0.054175 -0.049178 0.257774
0.054978 -0.048796 0.255843
0.055243 -0.047963 0.251548
0.055721 -0.047347 0.248384
0.056650 -0.047132 0.247327
0.057525 -0.046882 0.246081
0.058545 -0.046757 0.245492
0.059514 -0.046597 0.244719
0.060356 -0.046346 0.243467
0.061302 -0.046183 0.242674
0.062238 -0.046019 0.241872
0.063114 -0.045817 0.240869
0.063995 -0.045625 0.239921
0.064691 -0.045311 0.238326
0.065586 -0.045144 0.237507
0.066255 -0.044830 0.235909
0.067113 -0.044653 0.235027
0.067768 -0.044349 0.233474
0.068283 -0.043964 0.231495
0.069146 -0.043812 0.230738
0.070012 -0.043666 0.230012
0.070632 -0.043373 0.228513
0.071397 -0.043178 0.227522
0.071173 -0.042399 0.223452
0.072090 -0.042313 0.223029
0.072351 -0.041849 0.220612
0.072472 -0.041320 0.217845
0.071909 -0.040421 0.213126
0.071947 -0.039879 0.210288
0.072798 -0.039797 0.209871
0.073197 -0.039474 0.208178
0.073944 -0.039344 0.207501
0.074394 -0.039062 0.206018
0.074912 -0.038822 0.204755
0.075245 -0.038494 0.203022
0.075728 -0.038249 0.201726
0.076263 -0.038037 0.200598
0.076990 -0.037925 0.199990
0.077592 -0.037755 0.199074
0.077997 -0.037494 0.197675
0.078398 -0.037237 0.196295
0.078911 -0.037039 0.195220
0.079480 -0.036872 0.194301
0.079900 -0.036640 0.193039
0.080615 -0.036547 0.192503
0.081284 -0.036435 0.191866
0.081896 -0.036301 0.191102
0.082607 -0.036213 0.190580
0.083042 -0.036008 0.189432
0.083747 -0.035922 0.188910
0.083623 -0.035486 0.186543
0.083954 -0.035251 0.185224
0.083941 -0.034878 0.183177
0.084369 -0.034694 0.182115
0.084770 -0.034502 0.181012
0.085200 -0.034326 0.179983
0.085626 -0.034152 0.178959
0.086162 -0.034025 0.178175
0.086617 -0.033869 0.177232
0.087188 -0.033760 0.176532
0.087715 -0.033637 0.175749
0.088420 -0.033584 0.175324
0.089039 -0.033499 0.174729
0.089653 -0.033414 0.174122
0.090699 -0.033491 0.174348
0.091522 -0.033484 0.174133
-1.485746 -0.517874 2.786300
-1.473372 -0.518167 2.790533
-1.469157 -0.521360 2.810269
-1.457650 -0.522002 2.816135
-1.445077 -0.522270 2.819863
-1.438040 -0.524564 2.834413
-1.430909 -0.526866 2.848905
-1.424060 -0.529318 2.864106
-1.420528 -0.533061 2.886204
-1.418036 -0.537272 2.910744
-1.416695 -0.542006 2.938038
-1.425737 -0.604535 3.289273
-1.409845 -0.604345 3.288926
-1.389405 -0.602179 3.277740
-1.382745 -0.606005 3.299083
-1.370487 -0.607437 3.307318
-1.357018 -0.608359 3.312698
-1.344922 -0.609926 3.321514
-1.330963 -0.610676 3.325803
-1.319501 -0.612603 3.336433
-1.305843 -0.613545 3.341629
-1.291863 -0.614358 3.346051
-1.278939 -0.615699 3.353283
-1.263912 -0.616049 3.355058
-1.250112 -0.617015 3.360117
-1.235105 -0.617402 3.361967
-1.220439 -0.617972 3.364756
-1.208442 -0.619927 3.375026
-1.194685 -0.621020 3.380545
-1.182304 -0.622867 3.390117
-1.170531 -0.625091 3.401683
-0.061569 -0.046122 0.249535
-0.060471 -0.046186 0.249791
-0.059767 -0.046558 0.251718
-0.058653 -0.046621 0.251968
-0.046795 -0.037969 0.205134
-0.045883 -0.038020 0.205330
-0.044150 -0.037378 0.201789
-0.043041 -0.037247 0.201009
-0.041772 -0.036968 0.199431
-0.042339 -0.038339 0.206755
-0.041815 -0.038764 0.208970
-0.041069 -0.039000 0.210164
-0.040320 -0.039244 0.211403
-0.039466 -0.039395 0.212140
-0.038624 -0.039568 0.212990
-0.037700 -0.039663 0.213426
-0.036928 -0.039928 0.214774
-0.036103 -0.040148 0.215884
-0.035154 -0.040241 0.216308
-0.034219 -0.040354 0.216844
-0.033300 -0.040496 0.217529
-0.032333 -0.040585 0.217938
-0.031382 -0.040702 0.218490
-0.030425 -0.040818 0.219045
-0.029514 -0.041007 0.219985
-0.028526 -0.041100 0.220417
-0.027634 -0.041342 0.221645
-0.026651 -0.041462 0.222225
-0.025649 -0.041563 0.222699
-0.024674 -0.041717 0.223464
-0.023644 -0.041788 0.223779
-0.022636 -0.041906 0.224352
-0.021620 -0.042022 0.224917
-0.020594 -0.042128 0.225429
-0.019586 -0.042287 0.226220
-0.018540 -0.042374 0.226637
-0.017516 -0.042530 0.227420
-0.016464 -0.042633 0.227921
-0.015403 -0.042725 0.228364
-0.014333 -0.042802 0.228735
-0.013272 -0.042925 0.229348
-0.012198 -0.043023 0.229830
-0.011139 -0.043200 0.230744
-0.010037 -0.043230 0.230866
-0.008933 -0.043259 0.230990
-0.007851 -0.043413 0.231782
-0.006751 -0.043511 0.232275
-0.005646 -0.043601 0.232734
-0.004539 -0.043726 0.233378
-0.003422 -0.043795 0.233727
-0.002301 -0.043870 0.234109
-0.001178 -0.044002 0.234797
-0.000048 -0.044188 0.235782
0.001089 -0.044271 0.236216
0.002230 -0.044362 0.236693
0.003380 -0.044498 0.237416
0.004534 -0.044603 0.237977
0.005700 -0.044764 0.238838
0.006862 -0.044846 0.239277
0.008034 -0.044954 0.239864
0.009211 -0.045066 0.240468
0.010405 -0.045224 0.241323
0.011568 -0.045227 0.241355
0.012760 -0.045331 0.241931
0.013955 -0.045433 0.242493
0.015187 -0.045625 0.243546
0.016375 -0.045669 0.243806
0.017660 -0.045958 0.245378
0.018864 -0.046015 0.245710
0.020065 -0.046056 0.245966
0.021301 -0.046171 0.246613
0.022543 -0.046284 0.247256
0.023799 -0.046413 0.247987
0.025157 -0.046720 0.249672
0.026378 -0.046756 0.249909
0.027650 -0.046874 0.250591
0.028873 -0.046905 0.250803
0.030092 -0.046924 0.250958
0.031376 -0.047042 0.251641
0.032668 -0.047161 0.252336
0.033967 -0.047281 0.253038
0.035240 -0.047359 0.253511
0.036502 -0.047415 0.253875
0.037834 -0.047558 0.254703
0.039157 -0.047680 0.255421
0.040470 -0.047782 0.256034
0.041723 -0.047810 0.256250
0.043067 -0.047937 0.257000
0.044364 -0.048007 0.257446
0.045684 -0.048097 0.257998
0.046944 -0.048120 0.258193
0.048194 -0.048133 0.258333
0.049428 -0.048129 0.258388
0.050672 -0.048134 0.258489
0.051920 -0.048144 0.258613
0.053036 -0.048033 0.258092
0.054201 -0.047971 0.257831
0.055256 -0.047816 0.257072
0.055935 -0.047349 0.254636
0.055822 -0.046247 0.248779
0.056469 -0.045806 0.246477
0.057401 -0.045610 0.245493
0.058537 -0.045581 0.245404
0.059438 -0.045374 0.244357
0.060375 -0.045202 0.243495
0.061255 -0.044994 0.242439
0.062183 -0.044828 0.241610
0.063049 -0.044625 0.240577
0.063931 -0.044440 0.239641
0.064772 -0.044233 0.238585
0.065497 -0.043955 0.237145
0.066324 -0.043755 0.236120
0.067082 -0.043516 0.234885
0.067925 -0.043339 0.233982
0.068522 -0.043014 0.232275
0.069321 -0.042824 0.231295
0.070270 -0.042730 0.230834
0.070925 -0.042465 0.229440
0.070724 -0.041701 0.225354
0.071249 -0.041383 0.223670
0.071713 -0.041039 0.221842
0.072132 -0.040679 0.219930
0.072150 -0.040107 0.216865
0.071368 -0.039113 0.211509
0.071966 -0.038892 0.210336
0.072847 -0.038828 0.210007
0.073418 -0.038602 0.208800
0.073997 -0.038387 0.207648
0.074664 -0.038223 0.206765
0.075066 -0.037929 0.205176
0.075559 -0.037688 0.203871
0.076196 -0.037524 0.202979
0.076726 -0.037311 0.201821
0.077175 -0.037065 0.200480
0.077850 -0.036933 0.199747
0.078088 -0.036599 0.197918
0.078441 -0.036326 0.196417
0.078982 -0.036145 0.195411
0.079530 -0.035972 0.194441
0.080141 -0.035831 0.193641
0.080736 -0.035686 0.192814
0.081475 -0.035607 0.192339
0.082139 -0.035498 0.191697
0.082746 -0.035367 0.190927
0.083369 -0.035245 0.190206
0.083557 -0.034944 0.188513
0.083902 -0.034714 0.187199
0.084059 -0.034413 0.185492
0.084433 -0.034205 0.184287
0.084477 -0.033869 0.182386
0.085089 -0.033766 0.181734
0.085519 -0.033593 0.180698
0.085981 -0.033436 0.179745
0.086513 -0.033309 0.178948
0.086946 -0.033147 0.177953
0.087397 -0.032995 0.177007
0.087969 -0.032891 0.176312
0.088469 -0.032762 0.175477
0.089116 -0.032690 0.174937
0.089702 -0.032597 0.174280
0.090455 -0.032565 0.173943
0.091395 -0.032601 0.173958
-1.481855 -0.503250 2.779933
-1.483747 -0.508411 2.811082
-1.472234 -0.509032 2.817017
-1.455128 -0.507712 2.812083
-1.447294 -0.509634 2.824977
-1.444308 -0.513316 2.847521
-1.432728 -0.513983 2.853245
-1.427731 -0.517049 2.872175
-1.424157 -0.520694 2.894233
-1.420918 -0.524533 2.917285
-1.423954 -0.530787 2.953690
-1.417501 -0.585600 3.270571
-1.410085 -0.588917 3.289750
-1.397909 -0.590298 3.298036
-1.378422 -0.588588 3.288969
-1.367570 -0.590569 3.300443
-1.354998 -0.591845 3.307901
-1.341096 -0.592563 3.312166
-1.327974 -0.593648 3.318404
-1.315574 -0.595085 3.326542
-1.303280 -0.596606 3.335077
-1.290136 -0.597770 3.341551
-1.279885 -0.600321 3.355709
-1.265822 -0.601125 3.360040
-1.251992 -0.602062 3.365051
-1.235804 -0.601876 3.363720
-1.221908 -0.602816 3.368625
-1.207464 -0.603506 3.372082
-1.195643 -0.605545 3.383013
-1.183448 -0.607447 3.393128
-1.169317 -0.608394 3.397854
-0.060534 -0.045045 0.249984
-0.054657 -0.041483 0.230133
-0.053639 -0.041540 0.230363
-0.045696 -0.036124 0.200255
-0.045351 -0.036612 0.202889
-0.044419 -0.036638 0.202953
-0.043798 -0.036927 0.204479
-0.042552 -0.036690 0.203091
-0.042550 -0.037540 0.207717
-0.041834 -0.037785 0.208995
-0.040989 -0.037923 0.209683
-0.040066 -0.037994 0.209997
-0.039255 -0.038177 0.210929
-0.038352 -0.038279 0.211415
-0.037837 -0.038783 0.214123
-0.036993 -0.038969 0.215070
-0.036088 -0.039100 0.215715
-0.035164 -0.039216 0.216283
-0.034204 -0.039299 0.216665
-0.033269 -0.039416 0.217235
-0.032355 -0.039568 0.217995
-0.031388 -0.039662 0.218442
-0.030437 -0.039783 0.219038
-0.029490 -0.039919 0.219715
-0.028546 -0.040069 0.220469
-0.027573 -0.040189 0.221059
-0.026664 -0.040414 0.222232
-0.025690 -0.040557 0.222953
-0.024687 -0.040663 0.223472
-0.023675 -0.040764 0.223965
-0.022653 -0.040858 0.224416
-0.021618 -0.040936 0.224786
-0.020584 -0.041023 0.225207
-0.019548 -0.041117 0.225669
-0.018514 -0.041225 0.226209
-0.017505 -0.041406 0.227150
-0.016461 -0.041524 0.227750
-0.015414 -0.041651 0.228398
-0.014342 -0.041726 0.228761
-0.013270 -0.041809 0.229176
-0.012203 -0.041927 0.229783
-0.011113 -0.041984 0.230056
-0.010032 -0.042090 0.230604
-0.008947 -0.042203 0.231190
-0.007844 -0.042251 0.231420
-0.006752 -0.042386 0.232135
-0.005653 -0.042518 0.232831
-0.004537 -0.042562 0.233051
-0.003425 -0.042689 0.233725
-0.002303 -0.042740 0.233986
-0.001181 -0.042909 0.234896
-0.000050 -0.043048 0.235646
0.001088 -0.043166 0.236285
0.002232 -0.043299 0.237005
0.003380 -0.043380 0.237446
0.004539 -0.043530 0.238268
0.005701 -0.043641 0.238876
0.006864 -0.043717 0.239298
0.008031 -0.043796 0.239737
0.009205 -0.043887 0.240247
0.010391 -0.044008 0.240918
0.011553 -0.044015 0.240973
0.012728 -0.044063 0.241255
0.013902 -0.044101 0.241485
0.015093 -0.044185 0.241971
0.016266 -0.044205 0.242104
0.017438 -0.044220 0.242218
0.018883 -0.044883 0.245878
0.020085 -0.044922 0.246131
0.021285 -0.044956 0.246351
0.022518 -0.045050 0.246904
0.023740 -0.045112 0.247290
0.025039 -0.045310 0.248416
0.026398 -0.045593 0.250016
0.027641 -0.045660 0.250431
0.028880 -0.045714 0.250778
0.030123 -0.045769 0.251134
0.031384 -0.045848 0.251622
0.032628 -0.045895 0.251940
0.033915 -0.045999 0.252570
0.035192 -0.046081 0.253079
0.036413 -0.046087 0.253178
0.037736 -0.046219 0.253963
0.039109 -0.046400 0.255024
0.040429 -0.046511 0.255699
0.041757 -0.046623 0.256384
0.042874 -0.046499 0.255773
0.044437 -0.046853 0.257793
0.045726 -0.046906 0.258158
0.047017 -0.046960 0.258524
0.048202 -0.046906 0.258303
0.049427 -0.046894 0.258309
0.050678 -0.046906 0.258452
0.051872 -0.046866 0.258309
0.053002 -0.046771 0.257859
0.054252 -0.046784 0.258006
0.055352 -0.046670 0.257453
0.056258 -0.046401 0.256045
0.055785 -0.045031 0.248555
0.056561 -0.044704 0.246822
0.057294 -0.044358 0.244980
0.058467 -0.044359 0.245060
0.059477 -0.044239 0.244464
0.060386 -0.044050 0.243489
0.061332 -0.043894 0.242694
0.062226 -0.043708 0.241730
0.063097 -0.043513 0.240717
0.063982 -0.043334 0.239789
0.064721 -0.043064 0.238357
0.065451 -0.042798 0.236941
0.066320 -0.042630 0.236068
0.067016 -0.042358 0.234619
0.067856 -0.042185 0.233712
0.068238 -0.041737 0.231280
0.069063 -0.041570 0.230406
0.069716 -0.041306 0.228989
0.070089 -0.040887 0.226711
0.070451 -0.040475 0.224463
0.071146 -0.040263 0.223327
0.071759 -0.040011 0.221966
0.072069 -0.039601 0.219721
0.071305 -0.038620 0.214309
0.071530 -0.038196 0.211977
0.071954 -0.037888 0.210290
0.072970 -0.037895 0.210351
0.073463 -0.037635 0.208923
0.074066 -0.037437 0.207836
0.074574 -0.037197 0.206512
0.075001 -0.036923 0.204996
0.075689 -0.036784 0.204222
0.076296 -0.036609 0.203247
0.076814 -0.036395 0.202057
0.077342 -0.036192 0.200919
0.078126 -0.036113 0.200463
0.078548 -0.035870 0.199094
0.078555 -0.035445 0.196715
0.079166 -0.035300 0.195879
0.079703 -0.035125 0.194880
0.080420 -0.035033 0.194333
0.081053 -0.034907 0.193591
0.081703 -0.034791 0.192899
0.082452 -0.034719 0.192449
0.083054 -0.034588 0.191664
0.083742 -0.034494 0.191085
0.084136 -0.034283 0.189848
0.083821 -0.033791 0.187049
0.084216 -0.033592 0.185871
0.084591 -0.033390 0.184667
0.084764 -0.033112 0.183043
0.085145 -0.032921 0.181892
0.085523 -0.032733 0.180749
0.086064 -0.032610 0.179962
0.086528 -0.032460 0.179024
0.087000 -0.032317 0.178111
0.087452 -0.032168 0.177167
0.088004 -0.032060 0.176433
0.088566 -0.031957 0.175724
0.089271 -0.031906 0.175298
0.089796 -0.031794 0.174521
0.090553 -0.031764 0.174193
0.091395 -0.031765 0.174020
-1.471087 -0.495225 2.815646
-1.451379 -0.493053 2.805623
-1.443841 -0.495014 2.818988
-1.439776 -0.498214 2.839307
-1.431398 -0.499968 2.851285
-1.426092 -0.502839 2.869534
-1.410697 -0.502174 2.867500
-1.423671 -0.511693 2.923537
-1.407502 -0.510821 2.920125
-1.422432 -0.572141 3.282226
-1.409145 -0.573005 3.287802
-1.386730 -0.570135 3.271873
-1.379116 -0.573355 3.290804
-1.367104 -0.574799 3.299469
-1.354798 -0.576152 3.307530
-1.340726 -0.576777 3.311339
-1.328622 -0.578274 3.320078
-1.314555 -0.578942 3.323989
-1.302321 -0.580444 3.332617
-1.290086 -0.581983 3.341385
-1.277516 -0.583406 3.349428
-1.265406 -0.585079 3.358836
-1.251445 -0.585927 3.363450
-1.235827 -0.586012 3.363623
-1.222438 -0.587171 3.369896
-1.207444 -0.587579 3.371808
-1.195815 -0.589658 3.383252
-1.181766 -0.590584 3.388024
-1.170259 -0.592824 3.400281
-0.056670 -0.040269 0.229559
-0.055363 -0.040110 0.228566
-0.054321 -0.040140 0.228658
-0.053310 -0.040195 0.228886
-0.046375 -0.035693 0.203172
-0.045309 -0.035613 0.202642
-0.044502 -0.035738 0.203273
-0.043823 -0.035973 0.204531
-0.043223 -0.036285 0.206230
-0.042657 -0.036641 0.208173
-0.041811 -0.036768 0.208814
-0.040957 -0.036893 0.209445
-0.040120 -0.037041 0.210207
-0.039320 -0.037230 0.211203
-0.038696 -0.037602 0.213229
-0.037864 -0.037786 0.214197
-0.037026 -0.037974 0.215182
-0.036120 -0.038100 0.215821
-0.035190 -0.038209 0.216359
-0.034306 -0.038375 0.217221
-0.033375 -0.038498 0.217839
-0.032407 -0.038584 0.218253
-0.031451 -0.038691 0.218785
-0.030475 -0.038780 0.219215
-0.029496 -0.038873 0.219667
-0.028534 -0.038994 0.220282
-0.027586 -0.039145 0.221063
-0.026625 -0.039290 0.221811
-0.025694 -0.039491 0.222882
-0.024747 -0.039685 0.223909
-0.023709 -0.039745 0.224185
-0.022683 -0.039829 0.224601
-0.021675 -0.039959 0.225269
-0.020624 -0.040016 0.225535
-0.019584 -0.040103 0.225971
-0.018550 -0.040213 0.226536
-0.017534 -0.040377 0.227407
-0.016493 -0.040505 0.228078
-0.015427 -0.040583 0.228467
-0.014357 -0.040661 0.228863
-0.013295 -0.040778 0.229476
-0.012227 -0.040898 0.230110
-0.011156 -0.041030 0.230814
-0.010060 -0.041087 0.231101
-0.008963 -0.041156 0.231458
-0.007871 -0.041271 0.232072
-0.006766 -0.041345 0.232460
-0.005659 -0.041431 0.232920
-0.004549 -0.041534 0.233473
-0.003430 -0.041596 0.233806
-0.002307 -0.041652 0.234102
-0.001182 -0.041734 0.234549
-0.000052 -0.041891 0.235419
0.001085 -0.041999 0.236013
0.002229 -0.042123 0.236705
0.003380 -0.042254 0.237438
0.004535 -0.042356 0.238014
0.005693 -0.042444 0.238506
0.006854 -0.042517 0.238925
0.008029 -0.042641 0.239630
0.009202 -0.042725 0.240114
0.010389 -0.042848 0.240816
0.011565 -0.042907 0.241167
0.012771 -0.043053 0.242003
0.013937 -0.043052 0.242021
0.015150 -0.043188 0.242811
0.016392 -0.043378 0.243905
0.017669 -0.043629 0.245344
0.018853 -0.043634 0.245404
0.020055 -0.043678 0.245690
0.021256 -0.043715 0.245936
0.022471 -0.043774 0.246309
0.023723 -0.043897 0.247040
0.025029 -0.044102 0.248238
0.026361 -0.044332 0.249583
0.027622 -0.044428 0.250174
0.028859 -0.044480 0.250517
0.030119 -0.044560 0.251023
0.031368 -0.044620 0.251415
0.032620 -0.044678 0.251802
0.033862 -0.044719 0.252092
0.035170 -0.044841 0.252842
0.036450 -0.044921 0.253358
0.037811 -0.045091 0.254383
0.039132 -0.045205 0.255094
0.040464 -0.045325 0.255838
0.041832 -0.045476 0.256762
0.043167 -0.045585 0.257446
0.044456 -0.045639 0.257825
0.045719 -0.045665 0.258044
0.046983 -0.045691 0.258265
0.048228 -0.045697 0.258373
0.049419 -0.045652 0.258196
0.050660 -0.045655 0.258290
0.051864 -0.045626 0.258201
0.052984 -0.045525 0.257707
0.054222 -0.045528 0.257801
0.055403 -0.045484 0.257630
0.056317 -0.045227 0.256252
0.056025 -0.044034 0.249565
0.056544 -0.043514 0.246694
0.057340 -0.043225 0.245126
0.058376 -0.043124 0.244624
0.059367 -0.042995 0.243962
0.060241 -0.042787 0.242855
0.061133 -0.042600 0.241860
0.062013 -0.042411 0.240857
0.062950 -0.042268 0.240109
0.063827 -0.042091 0.239166
0.064576 -0.041836 0.237783
0.065425 -0.041654 0.236810
0.066115 -0.041379 0.235303
0.066865 -0.041149 0.234055
0.067698 -0.040978 0.233135
0.068211 -0.040621 0.231158
0.068902 -0.040381 0.229840
0.069322 -0.039991 0.227668
0.069885 -0.039694 0.226024
0.070513 -0.039443 0.224637
0.071001 -0.039123 0.222850
0.071623 -0.038884 0.221529
0.071737 -0.038380 0.218692
0.071738 -0.037832 0.215597
0.071899 -0.037382 0.213058
0.072249 -0.037041 0.211140
0.072969 -0.036897 0.210339
0.073675 -0.036750 0.209517
0.074249 -0.036542 0.208345
0.074972 -0.036411 0.207610
0.075393 -0.036139 0.206066
0.076047 -0.035984 0.205187
0.076628 -0.035800 0.204133
0.077419 -0.035716 0.203654
0.077596 -0.035355 0.201586
0.077983 -0.035098 0.200104
0.078450 -0.034882 0.198855
0.079105 -0.034753 0.198103
0.079657 -0.034583 0.197108
0.080235 -0.034429 0.196195
0.080858 -0.034297 0.195408
0.081389 -0.034129 0.194411
0.082086 -0.034034 0.193825
0.082651 -0.033886 0.192937
0.083234 -0.033749 0.192102
0.083701 -0.033570 0.191018
0.084103 -0.033367 0.189801
0.084290 -0.033085 0.188126
0.084709 -0.032899 0.186990
0.085042 -0.032684 0.185685
0.085253 -0.032426 0.184135
0.085459 -0.032172 0.182600
0.085933 -0.032024 0.181656
0.086362 -0.031861 0.180626
0.086697 -0.031667 0.179417
0.086931 -0.031441 0.178016
0.087271 -0.031257 0.176849
0.087792 -0.031140 0.176057
0.088217 -0.030992 0.175082
0.089004 -0.030973 0.174827
0.089470 -0.030844 0.173943
0.090101 -0.030773 0.173382
0.091044 -0.030809 0.173414
-1.474211 -0.482840 2.822418
-1.462713 -0.483449 2.828290
-1.432549 -0.496144 2.912520
-1.420778 -0.496825 2.918164
-1.425889 -0.503481 2.958817
-1.414343 -0.553481 3.263818
-1.404118 -0.555498 3.276300
-1.387716 -0.555089 3.274393
-1.376246 -0.556666 3.284121
-1.365896 -0.558738 3.296686
-1.354607 -0.560469 3.307166
-1.343174 -0.562180 3.317456
-1.328572 -0.562591 3.319995
-1.315802 -0.563796 3.327152
-1.303452 -0.565213 3.335490
-1.289855 -0.566118 3.340738
-1.278423 -0.568007 3.351728
-1.263938 -0.568570 3.354830
-1.251097 -0.569898 3.362377
-1.235909 -0.570177 3.363677
-1.223354 -0.571694 3.372224
-1.206909 -0.571409 3.370086
-1.194628 -0.573116 3.379638
-1.180604 -0.574021 3.384409
-1.170340 -0.576804 3.400200
-1.159883 -0.579569 3.415828
-0.058293 -0.039541 0.231712
-0.056726 -0.039216 0.229727
-0.054798 -0.038624 0.226174
-0.052907 -0.038036 0.222644
-0.051923 -0.038088 0.222866
-0.046380 -0.034730 0.203137
-0.045510 -0.034801 0.203478
-0.044802 -0.035003 0.204578
-0.044024 -0.035158 0.205406
-0.043336 -0.035393 0.206699
-0.042683 -0.035669 0.208231
-0.041881 -0.035830 0.209091
-0.040994 -0.035925 0.209566
-0.040198 -0.036107 0.210542
-0.039591 -0.036471 0.212588
-0.038655 -0.036544 0.212930
-0.037856 -0.036754 0.214073
-0.037010 -0.036928 0.215006
-0.036101 -0.037048 0.215628
-0.035217 -0.037201 0.216440
-0.034165 -0.037182 0.216248
-0.033268 -0.037334 0.217057
-0.032463 -0.037603 0.218542
-0.031480 -0.037677 0.218901
-0.030514 -0.037778 0.219410
-0.029580 -0.037925 0.220194
-0.028595 -0.038017 0.220655
-0.027633 -0.038148 0.221346
-0.026649 -0.038257 0.221906
-0.025705 -0.038435 0.222873
-0.024709 -0.038549 0.223469
-0.023751 -0.038733 0.224471
-0.022714 -0.038801 0.224802
-0.021684 -0.038889 0.225251
-0.020649 -0.038977 0.225699
-0.019613 -0.039072 0.226191
-0.018591 -0.039207 0.226923
-0.017552 -0.039322 0.227531
-0.016507 -0.039438 0.228153
-0.015451 -0.039540 0.228695
-0.014391 -0.039649 0.229277
-0.013310 -0.039715 0.229620
-0.012226 -0.039781 0.229959
-0.011151 -0.039892 0.230563
-0.010077 -0.040035 0.231352
-0.008974 -0.040082 0.231591
-0.007873 -0.040153 0.231970
-0.006773 -0.040255 0.232531
-0.005665 -0.040336 0.232974
-0.004550 -0.040407 0.233356
-0.003432 -0.040473 0.233722
-0.002310 -0.040556 0.234181
-0.001183 -0.040604 0.234443
-0.000054 -0.040722 0.235114
0.001083 -0.040837 0.235771
0.002231 -0.041061 0.237058
0.003377 -0.041095 0.237249
0.004533 -0.041213 0.237929
0.005692 -0.041300 0.238437
0.006859 -0.041405 0.239049
0.008022 -0.041460 0.239370
0.009192 -0.041532 0.239801
0.010358 -0.041573 0.240047
0.011532 -0.041632 0.240405
0.012713 -0.041704 0.240844
0.013870 -0.041693 0.240798
0.015114 -0.041923 0.242151
0.016368 -0.042146 0.243472
0.017618 -0.042329 0.244560
0.018809 -0.042357 0.244754
0.020001 -0.042384 0.244943
0.021222 -0.042466 0.245456
0.022348 -0.042360 0.244884
0.023594 -0.042479 0.245616
0.025041 -0.042931 0.248277
0.026414 -0.043221 0.250001
0.027691 -0.043336 0.250717
0.028975 -0.043452 0.251440
0.030249 -0.043544 0.252028
0.031458 -0.043538 0.252053
0.032703 -0.043582 0.252363
0.033978 -0.043659 0.252874
0.035305 -0.043797 0.253733
0.036556 -0.043834 0.254015
0.037814 -0.043877 0.254329
0.039163 -0.044018 0.255218
0.040527 -0.044169 0.256161
0.041823 -0.044239 0.256636
0.043210 -0.044397 0.257628
0.044468 -0.044417 0.257819
0.045740 -0.044451 0.258093
0.047008 -0.044479 0.258327
0.048255 -0.044486 0.258448
0.049466 -0.044460 0.258372
0.050684 -0.044441 0.258342
0.051889 -0.044413 0.258256
0.053087 -0.044380 0.258143
0.054347 -0.044398 0.258327
0.055552 -0.044373 0.258260
0.056264 -0.043963 0.255952
0.055903 -0.042750 0.248962
0.056555 -0.042346 0.246685
0.057525 -0.042191 0.245859
0.058587 -0.042109 0.245457
0.059446 -0.041888 0.244237
0.060325 -0.041688 0.243144
0.061196 -0.041490 0.242061
0.062133 -0.041344 0.241278
0.062939 -0.041118 0.240025
0.063664 -0.040848 0.238512
0.064419 -0.040606 0.237164
0.065169 -0.040369 0.235845
0.066016 -0.040199 0.234913
0.066848 -0.040026 0.233961
0.067538 -0.039776 0.232552
0.068170 -0.039499 0.230991
0.068612 -0.039123 0.228844
0.069099 -0.038784 0.226909
0.069698 -0.038518 0.225397
0.070193 -0.038203 0.223596
0.070718 -0.037913 0.221941
0.071246 -0.037633 0.220341
0.071850 -0.037401 0.219018
0.071743 -0.036811 0.215597
0.071762 -0.036301 0.212639
0.072348 -0.036089 0.211419
0.072974 -0.035901 0.210344
0.073750 -0.035792 0.209724
0.074454 -0.035651 0.208913
0.075016 -0.035447 0.207728
0.075586 -0.035251 0.206590
0.076137 -0.035052 0.205429
0.076892 -0.034951 0.204837
0.077550 -0.034809 0.203999
0.077758 -0.034471 0.202011
0.078300 -0.034287 0.200921
0.078889 -0.034128 0.199976
0.079756 -0.034092 0.199743
0.080053 -0.033815 0.198100
0.080458 -0.033590 0.196753
0.081002 -0.033428 0.195771
0.081703 -0.033334 0.195179
0.082293 -0.033196 0.194332
0.082882 -0.033062 0.193497
0.083408 -0.032906 0.192529
0.084009 -0.032782 0.191745
0.084387 -0.032574 0.190469
0.084522 -0.032279 0.188672
0.084792 -0.032040 0.187204
0.085208 -0.031862 0.186079
0.085570 -0.031667 0.184854
0.085866 -0.031451 0.183505
0.086288 -0.031286 0.182443
0.086622 -0.031093 0.181211
0.086859 -0.030868 0.179793
0.087180 -0.030678 0.178567
0.087586 -0.030521 0.177531
0.087869 -0.030325 0.176259
0.088301 -0.030183 0.175298
0.088891 -0.030097 0.174657
0.089443 -0.030001 0.173944
0.090029 -0.029917 0.173299
0.090761 -0.029883 0.172933
-1.416713 -0.538977 3.269524
-1.394721 -0.536421 3.254579
-1.378595 -0.536091 3.253047
-1.374913 -0.540647 3.281087
-1.363104 -0.542074 3.290064
-1.350470 -0.543203 3.297154
-1.338781 -0.544743 3.306663
-1.325774 -0.545778 3.313030
-1.311764 -0.546419 3.316940
-1.300556 -0.548258 3.328048
-1.287783 -0.549474 3.335310
-1.275407 -0.550892 3.343732
-1.262252 -0.552005 3.350238
-1.248887 -0.553053 3.356290
-1.236346 -0.554499 3.364689
-1.220700 -0.554572 3.364702
-1.206981 -0.555534 3.370055
-1.194688 -0.557187 3.379545
-1.182315 -0.558848 3.389021
-1.171688 -0.561391 3.403798
-1.160789 -0.563873 3.418147
-0.059905 -0.038772 0.233749
-0.057836 -0.038138 0.229840
-0.056009 -0.037642 0.226764
-0.054370 -0.037256 0.224351
-0.052198 -0.036480 0.219599
-0.048271 -0.034423 0.207136
-0.046363 -0.033750 0.203005
-0.045520 -0.033840 0.203466
-0.044583 -0.033862 0.203521
-0.044137 -0.034267 0.205872
-0.043481 -0.034523 0.207330
-0.042747 -0.034727 0.208475
-0.041997 -0.034929 0.209603
-0.041077 -0.034994 0.209916
-0.040172 -0.035078 0.210333
-0.039326 -0.035217 0.211090
-0.038790 -0.035649 0.213595
-0.038091 -0.035951 0.215321
-0.037100 -0.035986 0.215451
-0.036245 -0.036159 0.216406
-0.035329 -0.036279 0.217044
-0.034369 -0.036361 0.217455
-0.033422 -0.036461 0.217977
-0.032472 -0.036565 0.218518
-0.031511 -0.036662 0.219023
-0.030525 -0.036738 0.219398
-0.029592 -0.036883 0.220193
-0.028623 -0.036994 0.220781
-0.027585 -0.037020 0.220864
-0.026610 -0.037136 0.221488
-0.025676 -0.037321 0.222525
-0.024789 -0.037594 0.224083
-0.023789 -0.037713 0.224729
-0.022751 -0.037780 0.225062
-0.021721 -0.037868 0.225523
-0.020669 -0.037924 0.225802
-0.019628 -0.038010 0.226251
-0.018565 -0.038059 0.226487
-0.017561 -0.038243 0.227532
-0.016519 -0.038363 0.228196
-0.015459 -0.038455 0.228693
-0.014402 -0.038572 0.229339
-0.013339 -0.038688 0.229985
-0.012260 -0.038778 0.230479
-0.011162 -0.038817 0.230670
-0.010069 -0.038883 0.231029
-0.008979 -0.038982 0.231581
-0.007876 -0.039044 0.231918
-0.006772 -0.039117 0.232323
-0.005668 -0.039226 0.232943
-0.004550 -0.039267 0.233167
-0.003432 -0.039326 0.233495
-0.002310 -0.039392 0.233872
-0.001184 -0.039433 0.234101
-0.000055 -0.039488 0.234416
0.001078 -0.039611 0.235136
0.002220 -0.039750 0.235954
0.003375 -0.039951 0.237142
0.004534 -0.040086 0.237943
0.005688 -0.040135 0.238238
0.006848 -0.040198 0.238620
0.008020 -0.040306 0.239266
0.009186 -0.040359 0.239591
0.010362 -0.040438 0.240074
0.011548 -0.040534 0.240664
0.012726 -0.040592 0.241027
0.013915 -0.040668 0.241502
0.015137 -0.040824 0.242453
0.016343 -0.040917 0.243033
0.017539 -0.040972 0.243392
0.018738 -0.041028 0.243759
0.019939 -0.041081 0.244110
0.021114 -0.041078 0.244130
0.022306 -0.041106 0.244338
0.023535 -0.041196 0.244917
0.024887 -0.041483 0.246668
0.026203 -0.041686 0.247925
0.027689 -0.042129 0.250614
0.028909 -0.042148 0.250782
0.030178 -0.042235 0.251356
0.031446 -0.042313 0.251875
0.032676 -0.042335 0.252069
0.033935 -0.042393 0.252477
0.035244 -0.042507 0.253220
0.036520 -0.042574 0.253682
0.037771 -0.042610 0.253963
0.039121 -0.042750 0.254868
0.040485 -0.042897 0.255817
0.041955 -0.043145 0.257367
0.043269 -0.043222 0.257904
0.044573 -0.043285 0.258354
0.045808 -0.043280 0.258403
0.047045 -0.043277 0.258461
0.048293 -0.043284 0.258578
0.049500 -0.043254 0.258479
0.050712 -0.043231 0.258420
0.051933 -0.043215 0.258406
0.053170 -0.043214 0.258480
0.054364 -0.043178 0.258348
0.055576 -0.043158 0.258308
0.056618 -0.043009 0.257497
0.055715 -0.041422 0.248068
0.056659 -0.041244 0.247082
0.057075 -0.040698 0.243884
0.058247 -0.040701 0.243979
0.059260 -0.040596 0.243421
0.060080 -0.040365 0.242108
0.061008 -0.040213 0.241270
0.061957 -0.040081 0.240550
0.062856 -0.039923 0.239667
0.063465 -0.039588 0.237725
0.064327 -0.039421 0.236786
0.065067 -0.039186 0.235438
0.065754 -0.038927 0.233944
0.066526 -0.038726 0.232801
0.067326 -0.038548 0.231789
0.068172 -0.038402 0.230965
0.068960 -0.038228 0.229973
0.069623 -0.037992 0.228602
0.069163 -0.037159 0.223639
0.068670 -0.036334 0.218720
0.069086 -0.036008 0.216796
0.069637 -0.035761 0.215346
0.070571 -0.035714 0.215104
0.071387 -0.035610 0.214510
0.071917 -0.035369 0.213085
0.072583 -0.035199 0.212092
0.073270 -0.035045 0.211186
0.073761 -0.034802 0.209745
0.074453 -0.034659 0.208901
0.075115 -0.034507 0.207995
0.075620 -0.034287 0.206680
0.076047 -0.034038 0.205184
0.076687 -0.033889 0.204291
0.077471 -0.033807 0.203793
0.078072 -0.033647 0.202829
0.078722 -0.033513 0.202010
0.079351 -0.033374 0.201155
0.079987 -0.033240 0.200331
0.080503 -0.033060 0.199224
0.080944 -0.032854 0.197956
0.081368 -0.032646 0.196670
0.081824 -0.032455 0.195485
0.082415 -0.032321 0.194637
0.083107 -0.032230 0.194042
0.083590 -0.032060 0.192968
0.084113 -0.031910 0.192006
0.084448 -0.031692 0.190631
0.084554 -0.031393 0.188771
0.084527 -0.031052 0.186647
0.085201 -0.030973 0.186095
0.085550 -0.030779 0.184843
0.085928 -0.030599 0.183671
0.086337 -0.030433 0.182581
0.086577 -0.030212 0.181154
0.086717 -0.029961 0.179539
0.087224 -0.029840 0.178699
0.087559 -0.029663 0.177521
0.087930 -0.029502 0.176428
0.088298 -0.029343 0.175340
0.088822 -0.029238 0.174571
0.089393 -0.029150 0.173897
0.090007 -0.029078 0.173309
0.090735 -0.029044 0.172938
-1.417124 -0.523698 3.270694
-1.396077 -0.521570 3.257935
-1.379935 -0.521248 3.256368
-1.373166 -0.524500 3.277048
-1.363909 -0.526865 3.292108
-1.352348 -0.528384 3.301812
-1.339493 -0.529428 3.308467
-1.328711 -0.531325 3.320385
-1.315726 -0.532377 3.326946
-1.303662 -0.533831 3.335955
-1.290048 -0.534679 3.341107
-1.275649 -0.535219 3.344266
-1.263114 -0.536565 3.352399
-1.249758 -0.537592 3.358477
-1.235248 -0.538142 3.361520
-1.221709 -0.539136 3.367272
-1.210349 -0.541131 3.379220
-1.197900 -0.542686 3.388363
-1.185488 -0.544301 3.397821
-1.174270 -0.546516 3.410976
-1.161675 -0.548142 3.420403
-0.061986 -0.038264 0.237517
-0.059961 -0.037697 0.233911
-0.057806 -0.037027 0.229665
-0.056002 -0.036559 0.226679
-0.053298 -0.035474 0.219868
-0.051812 -0.035174 0.217920
-0.050849 -0.035223 0.218139
-0.047384 -0.033504 0.207414
-0.046510 -0.033585 0.207831
-0.045512 -0.033577 0.207699
-0.044089 -0.033248 0.205583
-0.043629 -0.033647 0.207969
-0.042832 -0.033799 0.208826
-0.042087 -0.034000 0.209984
-0.041251 -0.034136 0.210738
-0.040279 -0.034163 0.210823
-0.039445 -0.034311 0.211656
-0.038698 -0.034546 0.213018
-0.037889 -0.034735 0.214104
-0.037198 -0.035047 0.215944
-0.036244 -0.035122 0.216321
-0.035301 -0.035212 0.216794
-0.034394 -0.035344 0.217526
-0.033431 -0.035425 0.217950
-0.032476 -0.035520 0.218456
-0.031529 -0.035631 0.219061
-0.030559 -0.035724 0.219552
-0.029613 -0.035851 0.220256
-0.028662 -0.035981 0.220985
-0.027691 -0.036096 0.221618
-0.026690 -0.036179 0.222059
-0.025716 -0.036308 0.222778
-0.024733 -0.036434 0.223484
-0.023756 -0.036581 0.224320
-0.022723 -0.036651 0.224684
-0.021703 -0.036751 0.225234
-0.020673 -0.036843 0.225739
-0.019622 -0.036908 0.226075
-0.018619 -0.037074 0.227038
-0.017618 -0.037265 0.228153
-0.016553 -0.037337 0.228543
-0.015477 -0.037395 0.228848
-0.014422 -0.037515 0.229537
-0.013348 -0.037600 0.230013
-0.012261 -0.037663 0.230357
-0.011182 -0.037768 0.230954
-0.010092 -0.037851 0.231430
-0.008987 -0.037892 0.231646
-0.007887 -0.037970 0.232086
-0.006787 -0.038072 0.232682
-0.005679 -0.038168 0.233241
-0.004562 -0.038223 0.233556
-0.003439 -0.038266 0.233799
-0.002316 -0.038330 0.234174
-0.001188 -0.038368 0.234387
-0.000057 -0.038410 0.234632
0.001077 -0.038478 0.235042
0.002214 -0.038539 0.235407
0.003359 -0.038648 0.236067
0.004521 -0.038846 0.237277
0.005688 -0.038993 0.238182
0.006851 -0.039077 0.238695
0.008017 -0.039145 0.239125
0.009192 -0.039237 0.239694
0.010381 -0.039359 0.240453
0.011581 -0.039495 0.241302
0.012774 -0.039583 0.241862
0.013986 -0.039712 0.242674
0.015184 -0.039782 0.243130
0.016351 -0.039767 0.243067
0.017547 -0.039821 0.243424
0.018750 -0.039883 0.243843
0.019922 -0.039876 0.243831
0.021087 -0.039854 0.243737
0.022286 -0.039898 0.244047
0.023489 -0.039942 0.244362
0.024915 -0.040344 0.246873
0.026290 -0.040630 0.248670
0.027654 -0.040875 0.250225
0.028860 -0.040876 0.250284
0.030142 -0.040980 0.250976
0.031421 -0.041072 0.251599
0.032705 -0.041163 0.252216
0.033934 -0.041180 0.252387
0.035222 -0.041267 0.252983
0.036561 -0.041404 0.253891
0.037858 -0.041487 0.254472
0.039170 -0.041580 0.255113
0.040508 -0.041695 0.255886
0.041881 -0.041838 0.256838
0.043320 -0.042036 0.258133
0.044600 -0.042074 0.258442
0.045823 -0.042057 0.258414
0.047068 -0.042060 0.258512
0.048304 -0.042056 0.258569
0.049525 -0.042039 0.258544
0.050746 -0.042022 0.258523
0.051919 -0.041969 0.258274
0.053152 -0.041964 0.258325
0.054364 -0.041944 0.258284
0.055590 -0.041935 0.258310
0.055747 -0.041137 0.253477
0.056068 -0.040492 0.249584
0.056334 -0.039835 0.245609
0.057022 -0.039497 0.243603
0.057885 -0.039292 0.242410
0.059067 -0.039307 0.242580
0.059889 -0.039086 0.241290
0.060811 -0.038937 0.240447
0.061686 -0.038765 0.239453
0.062530 -0.038580 0.238379
0.063349 -0.038386 0.237249
0.064239 -0.038241 0.236421
0.065083 -0.038074 0.235456
0.065753 -0.037813 0.233904
0.066452 -0.037577 0.232506
0.067294 -0.037428 0.231645
0.068055 -0.037240 0.230538
0.068749 -0.037022 0.229242
0.069154 -0.036657 0.227034
0.068747 -0.035880 0.222272
0.068517 -0.035217 0.218211
0.069327 -0.035100 0.217534
0.070126 -0.034982 0.216839
0.070678 -0.034745 0.215411
0.071432 -0.034614 0.214630
0.072020 -0.034406 0.213374
0.072673 -0.034235 0.212343
0.073064 -0.033947 0.210581
0.073835 -0.033841 0.209945
0.074587 -0.033729 0.209270
0.075222 -0.033568 0.208286
0.075779 -0.033376 0.207110
0.076307 -0.033177 0.205885
0.077102 -0.033098 0.205396
0.077554 -0.032875 0.204012
0.078348 -0.032801 0.203550
0.079030 -0.032682 0.202806
0.079606 -0.032523 0.201806
0.080529 -0.032508 0.201696
0.080993 -0.032310 0.200445
0.081294 -0.032052 0.198822
0.081656 -0.031824 0.197379
0.082058 -0.031617 0.196057
0.082622 -0.031476 0.195144
0.083214 -0.031349 0.194310
0.083528 -0.031121 0.192847
0.084128 -0.031003 0.192061
0.084531 -0.030816 0.190842
0.084854 -0.030604 0.189464
0.085201 -0.030405 0.188162
0.085515 -0.030198 0.186809
0.085962 -0.030043 0.185764
0.086262 -0.029839 0.184417
0.086630 -0.029663 0.183236
0.086790 -0.029421 0.181636
0.086917 -0.029171 0.179991
0.087347 -0.029028 0.178991
0.087458 -0.028782 0.177357
0.087788 -0.028612 0.176184
0.088089 -0.028436 0.174971
0.088564 -0.028319 0.174110
0.089088 -0.028220 0.173353
0.089605 -0.028121 0.172587
0.090213 -0.028051 0.171997
-1.426050 -0.511465 3.291501
-1.412783 -0.512255 3.297095
-1.390404 -0.509723 3.281218
-1.377152 -0.510519 3.286678
-1.362989 -0.510991 3.289977
-1.351676 -0.512556 3.300232
-1.340550 -0.514229 3.311110
-1.327926 -0.515360 3.318428
-1.316563 -0.517013 3.329038
-1.304502 -0.518430 3.338054
-1.290336 -0.519035 3.341773
-1.278237 -0.520496 3.350943
-1.264426 -0.521289 3.355747
-1.251663 -0.522540 3.363432
-1.235913 -0.522560 3.363140
-1.227866 -0.525881 3.384027
-1.212171 -0.525970 3.384064
-1.200390 -0.527783 3.395134
-1.188287 -0.529502 3.405545
-1.175135 -0.530795 3.413160
-0.065058 -0.037611 0.240684
-0.063505 -0.037367 0.239035
-0.062042 -0.037169 0.237676
-0.059390 -0.036237 0.231632
-0.057091 -0.035490 0.226768
-0.054592 -0.034587 0.220914
-0.052710 -0.034049 0.217388
-0.051826 -0.034146 0.217921
-0.050794 -0.034147 0.217841
