ply
format ascii 1.0
element vertex 1745
property float x
property float y
property float z
end_header
-0.924404 0.594122 1.877267
-0.915885 0.594406 1.880083
-0.907066 0.594500 1.882209
-0.898558 0.594801 1.884912
-0.969312 0.648105 2.055651
-0.960548 0.648786 2.059546
-0.954574 0.651386 2.069457
-0.944018 0.650881 2.069428
-0.935224 0.651593 2.073194
-0.811088 0.571106 1.818354
-0.802602 0.571197 1.819829
-0.794417 0.571508 1.821941
-0.786937 0.572338 1.825652
-0.778227 0.572282 1.826480
-0.859531 0.702195 2.249339
-0.847623 0.701112 2.246498
-0.837522 0.701515 2.248367
-0.827395 0.701907 2.250154
-0.812445 0.698164 2.238636
-0.786324 0.684598 2.195565
-0.641522 0.581455 1.865651
-0.630068 0.578997 1.857986
-0.623992 0.581481 1.866151
-0.614888 0.581175 1.865329
-0.604196 0.579337 1.859563
-0.594498 0.578413 1.856698
-0.267820 0.310814 0.997478
-0.262760 0.310382 0.996009
-0.258377 0.310750 0.997097
-0.251407 0.307963 0.988053
-0.242850 0.303090 0.972316
-0.234151 0.297849 0.955393
-0.227398 0.294928 0.945908
-0.220664 0.291915 0.936124
-0.213156 0.287734 0.922591
-0.206558 0.284633 0.912523
-0.199628 0.280934 0.900533
-0.192477 0.276757 0.887011
-0.186114 0.273552 0.876605
-0.180335 0.271078 0.868542
-0.174480 0.268374 0.859740
-0.167781 0.264213 0.846274
-0.161317 0.260228 0.833370
-0.128820 0.224206 0.717646
-0.123361 0.220507 0.705685
-0.119924 0.220317 0.704953
-0.116022 0.219236 0.701374
-0.112018 0.217895 0.696964
-0.108813 0.218075 0.697416
-0.050092 0.103527 0.331029
-0.048326 0.103099 0.329603
-0.047274 0.104216 0.333117
-0.045669 0.104150 0.332850
-0.044009 0.103949 0.332152
-0.042569 0.104273 0.333130
-0.043485 0.110614 0.353330
-0.041840 0.110687 0.353506
-0.040534 0.111701 0.356689
-0.039324 0.113079 0.361031
-0.038053 0.114399 0.365191
-0.036614 0.115317 0.368066
-0.035196 0.116396 0.371454
-0.033563 0.116842 0.372826
-0.031933 0.117345 0.374379
-0.030222 0.117597 0.375131
-0.028296 0.116991 0.373150
-0.026532 0.117016 0.373181
-0.024495 0.115757 0.369121
-0.022846 0.116275 0.370732
-0.021167 0.116720 0.372109
-0.019178 0.115382 0.367804
-0.017658 0.116875 0.372525
-0.016189 0.119081 0.379519
-0.014274 0.118142 0.376493
-0.012514 0.118412 0.377323
-0.010802 0.119288 0.380084
-0.008906 0.118098 0.376263
-0.007126 0.118223 0.376638
-0.005230 0.115856 0.369074
-0.003477 0.115868 0.369091
-0.001371 0.092171 0.293591
0.000025 0.091585 0.291711
0.001407 0.091296 0.290779
0.002797 0.091578 0.291668
0.004171 0.091304 0.290788
0.005530 0.090908 0.289519
0.006891 0.090701 0.288855
0.008241 0.090446 0.288042
0.009586 0.090218 0.287312
0.010892 0.089722 0.285733
0.012223 0.089521 0.285097
0.013543 0.089280 0.284333
0.014826 0.088869 0.283028
0.016076 0.088343 0.281359
0.017293 0.087725 0.279399
0.018516 0.087228 0.277826
0.019756 0.086871 0.276698
0.020995 0.086554 0.275700
0.022227 0.086247 0.274737
0.023407 0.085781 0.273265
0.024606 0.085434 0.272174
0.025700 0.084772 0.270082
0.026825 0.084270 0.268502
0.027940 0.083786 0.266975
0.029095 0.083455 0.265941
0.030103 0.082751 0.263716
0.031003 0.081815 0.260754
0.032077 0.081395 0.259435
0.033110 0.080904 0.257893
0.034136 0.080432 0.256408
0.035198 0.080076 0.255294
0.036187 0.079581 0.253740
0.037126 0.079011 0.251945
0.038055 0.078458 0.250201
0.039041 0.078050 0.248925
0.040000 0.077615 0.247560
0.040989 0.077261 0.246451
0.041951 0.076877 0.245248
0.042863 0.076426 0.243832
0.043666 0.075807 0.241880
0.044560 0.075374 0.240519
0.045383 0.074847 0.238857
0.046250 0.074415 0.237497
0.047024 0.073859 0.235742
0.047808 0.073342 0.234110
0.048874 0.073272 0.233906
0.049635 0.072759 0.232284
0.050433 0.072320 0.230899
0.051011 0.071592 0.228588
0.052007 0.071468 0.228205
0.052878 0.071181 0.227300
0.053579 0.070680 0.225713
0.053997 0.069834 0.223018
0.054896 0.069630 0.222376
0.055794 0.069432 0.221749
0.056553 0.069073 0.220604
0.057223 0.068619 0.219159
0.058060 0.068378 0.218389
0.058847 0.068088 0.217460
0.059616 0.067788 0.216498
0.060293 0.067394 0.215235
0.060958 0.067000 0.213968
0.061632 0.066629 0.212775
0.062369 0.066337 0.211828
0.063124 0.066072 0.210968
0.063891 0.065829 0.210173
0.064752 0.065688 0.209702
0.065578 0.065517 0.209132
0.066324 0.065272 0.208324
0.067179 0.065140 0.207872
0.067846 0.064832 0.206856
0.068465 0.064487 0.205720
0.069315 0.064367 0.205295
0.070088 0.064179 0.204653
0.070744 0.063891 0.203689
0.071337 0.063555 0.202565
0.071866 0.063171 0.201288
0.072621 0.062992 0.200661
0.073253 0.062714 0.199713
0.073675 0.062265 0.198215
0.074153 0.061874 0.196900
0.074822 0.061651 0.196114
0.075409 0.061365 0.195127
0.076010 0.061099 0.194196
0.076600 0.060830 0.193252
0.076904 0.060342 0.191609
0.077816 0.060338 0.191496
0.078479 0.060143 0.190772
0.078783 0.059681 0.189197
0.079290 0.059380 0.188130
0.080033 0.059261 0.187632
0.080678 0.059073 0.186911
0.081200 0.058801 0.185915
0.082073 0.058785 0.185725
0.082483 0.058442 0.184495
0.082585 0.057890 0.182603
0.082962 0.057540 0.181341
0.083205 0.057106 0.179808
0.083716 0.056862 0.178871
0.083972 0.056452 0.177403
0.084296 0.056095 0.176097
0.084581 0.055721 0.174728
0.084740 0.055271 0.173119
0.085270 0.055070 0.172280
0.085758 0.054845 0.171360
0.086374 0.054706 0.170701
0.086666 0.054366 0.169407
0.087069 0.054101 0.168341
0.087678 0.053969 0.167675
0.088200 0.053785 0.166841
0.088700 0.053592 0.165968
-0.982409 0.605776 1.870353
-0.978315 0.608824 1.882340
-0.964970 0.606118 1.876431
-0.952003 0.603602 1.870985
-0.941356 0.602522 1.869879
-0.932502 0.602582 1.872208
-0.923850 0.602775 1.874858
-0.915323 0.603054 1.877689
-0.906743 0.603304 1.880344
-0.898597 0.603851 1.883841
-0.966736 0.656190 2.048980
-0.957978 0.656868 2.052872
-0.953552 0.660561 2.066114
-0.939979 0.657929 2.059497
-0.931207 0.658638 2.063252
-0.811078 0.579764 1.817456
-0.802065 0.579475 1.817771
-0.794376 0.580149 1.821042
-0.787513 0.581446 1.826216
-0.778416 0.581106 1.826186
-0.862254 0.715109 2.255909
-0.842951 0.707827 2.233599
-0.832091 0.707542 2.233309
-0.824356 0.709941 2.241443
-0.808800 0.705579 2.228185
-0.790659 0.698818 2.207295
-0.641188 0.589973 1.864449
-0.629885 0.587614 1.857243
-0.620794 0.587282 1.856410
-0.615594 0.590673 1.867317
-0.604477 0.588404 1.860300
-0.593573 0.586278 1.853708
-0.272118 0.320597 1.013571
-0.266903 0.320064 1.011814
-0.258952 0.316173 0.999429
-0.250931 0.312049 0.986306
-0.243263 0.308217 0.974100
-0.234150 0.302373 0.955528
-0.227149 0.299081 0.945021
-0.220488 0.296113 0.935532
-0.213725 0.292885 0.925220
-0.206256 0.288536 0.911363
-0.199871 0.285550 0.901810
-0.192679 0.281257 0.888128
-0.186202 0.277840 0.877213
-0.180193 0.274982 0.868060
-0.174234 0.272069 0.858737
-0.168026 0.268621 0.847721
-0.160447 0.262760 0.829095
-0.128235 0.226581 0.714594
-0.122933 0.223084 0.703449
-0.119397 0.222684 0.702072
-0.115914 0.222366 0.700951
-0.111592 0.220370 0.694546
-0.108398 0.220549 0.694995
-0.050077 0.105072 0.331048
-0.048093 0.104165 0.328136
-0.047379 0.106038 0.333982
-0.045767 0.105964 0.333694
-0.044079 0.105701 0.332810
-0.042976 0.106872 0.336445
-0.042569 0.109935 0.346031
-0.041736 0.112095 0.352775
-0.040493 0.113289 0.356479
-0.039310 0.114765 0.361067
-0.038120 0.116352 0.366007
-0.036673 0.117267 0.368831
-0.035158 0.118049 0.371237
-0.033493 0.118382 0.372233
-0.031726 0.118370 0.372145
-0.030047 0.118703 0.373144
-0.028336 0.118950 0.373874
-0.026479 0.118569 0.372631
-0.024769 0.118845 0.373453
-0.022967 0.118687 0.372913
-0.021295 0.119228 0.374574
-0.019566 0.119525 0.375468
-0.017785 0.119531 0.375451
-0.016238 0.121282 0.380913
-0.014465 0.121580 0.381815
-0.012584 0.120921 0.379716
-0.010858 0.121779 0.382381
-0.008964 0.120734 0.379070
-0.007146 0.120427 0.378081
-0.005238 0.117902 0.370132
-0.003481 0.117914 0.370149
-0.001366 0.093492 0.293471
0.000029 0.093027 0.291997
0.001410 0.092628 0.290735
0.002794 0.092714 0.290994
0.004175 0.092681 0.290883
0.005535 0.092313 0.289722
0.006895 0.092084 0.288996
0.008246 0.091830 0.288198
0.009582 0.091511 0.287194
0.010921 0.091290 0.286500
0.012223 0.090844 0.285104
0.013548 0.090643 0.284473
0.014836 0.090251 0.283250
0.016092 0.089748 0.281677
0.017312 0.089134 0.279757
0.018546 0.088674 0.278322
0.019750 0.088140 0.276655
0.020980 0.087785 0.275552
0.022246 0.087611 0.275017
0.023446 0.087211 0.273773
0.024628 0.086788 0.272461
0.025773 0.086285 0.270896
0.026867 0.085668 0.268975
0.027956 0.085091 0.267180
0.029054 0.084589 0.265620
0.029991 0.083681 0.262789
0.031031 0.083120 0.261043
0.032121 0.082731 0.259842
0.033270 0.082517 0.259188
0.034270 0.081963 0.257469
0.035277 0.081462 0.255915
0.036235 0.080884 0.254119
0.037233 0.080432 0.252719
0.038092 0.079715 0.250487
0.039120 0.079386 0.249474
0.040151 0.079081 0.248537
0.041014 0.078472 0.246644
0.041965 0.078061 0.245372
0.042927 0.077691 0.244229
0.043928 0.077410 0.243366
0.044778 0.076885 0.241732
0.045553 0.076259 0.239782
0.046189 0.075437 0.237215
0.046987 0.074912 0.235581
0.047980 0.074715 0.234980
0.048956 0.074502 0.234323
0.049611 0.073820 0.232193
0.050505 0.073515 0.231249
0.051087 0.072780 0.228947
0.052170 0.072773 0.228935
0.052996 0.072416 0.227822
0.053694 0.071901 0.226212
0.054379 0.071389 0.224606
0.054962 0.070765 0.222650
0.055633 0.070277 0.221116
0.056372 0.069890 0.219901
0.057289 0.069735 0.219413
0.058071 0.069424 0.218431
0.058915 0.069195 0.217708
0.059680 0.068884 0.216723
0.060476 0.068618 0.215878
0.061284 0.068375 0.215101
0.061989 0.068027 0.213994
0.062491 0.067469 0.212224
0.063036 0.066976 0.210655
0.063825 0.066754 0.209936
0.064684 0.066610 0.209460
0.065387 0.066312 0.208497
0.066167 0.066100 0.207801
0.066855 0.065804 0.206837
0.067729 0.065697 0.206464
0.068394 0.065393 0.205470
0.069132 0.065166 0.204713
0.069876 0.064951 0.203993
0.070579 0.064705 0.203169
0.071178 0.064370 0.202066
0.071688 0.063966 0.200738
0.072441 0.063785 0.200110
0.073074 0.063506 0.199168
0.073578 0.063122 0.197895
0.074027 0.062702 0.196503
0.074664 0.062450 0.195635
0.075256 0.062165 0.194663
0.075906 0.061937 0.193858
0.076116 0.061358 0.191956
0.076533 0.060958 0.190607
0.077110 0.060693 0.189678
0.077742 0.060477 0.188896
0.078537 0.060392 0.188517
0.079111 0.060141 0.187614
0.079703 0.059908 0.186764
0.080439 0.059788 0.186260
0.081098 0.059614 0.185581
0.081767 0.059450 0.184929
0.082252 0.059158 0.183872
0.082788 0.058909 0.182940
0.083458 0.058758 0.182310
0.083901 0.058453 0.181193
0.084288 0.058115 0.179970
0.084736 0.057827 0.178892
0.084716 0.057226 0.176845
0.084525 0.056525 0.174480
0.084625 0.056029 0.172748
0.085177 0.055840 0.171952
0.085590 0.055564 0.170882
0.086109 0.055361 0.170029
0.085809 0.054641 0.167581
0.086698 0.054685 0.167467
0.087450 0.054641 0.167076
0.087971 0.054456 0.166242
0.088601 0.054340 0.165611
-0.987777 0.618190 1.878920
-0.976765 0.616945 1.877763
-0.964785 0.615060 1.874535
-0.950243 0.611491 1.866048
-0.942092 0.612006 1.869912
-0.932730 0.611738 1.871286
-0.923856 0.611788 1.873537
-0.914834 0.611741 1.875399
-0.906067 0.611865 1.877699
-0.897262 0.611966 1.879843
-0.961304 0.662255 2.036217
-0.952578 0.662928 2.040095
-0.951122 0.668726 2.059680
-0.938156 0.666468 2.054379
-0.929385 0.667174 2.058134
-0.809404 0.587215 1.812790
-0.801343 0.587608 1.815258
-0.796894 0.590686 1.825968
-0.785714 0.588790 1.821237
-0.777290 0.588938 1.822771
-0.861998 0.725584 2.254645
-0.842419 0.717956 2.231638
-0.832963 0.718872 2.235132
-0.823274 0.719608 2.238018
-0.813029 0.719872 2.239386
-0.792618 0.711023 2.212357
-0.640744 0.598380 1.862900
-0.628722 0.595299 1.853583
-0.621587 0.596824 1.858576
-0.615064 0.598990 1.865533
-0.603065 0.595808 1.855803
-0.595040 0.596517 1.858165
-0.271751 0.324955 1.012281
-0.264635 0.322093 1.003303
-0.258454 0.320285 0.997603
-0.251334 0.317227 0.987998
-0.243940 0.313700 0.976930
-0.236112 0.309470 0.963666
-0.228701 0.305632 0.951617
-0.221456 0.301865 0.939786
-0.214531 0.298391 0.928868
-0.207760 0.294991 0.918172
-0.200718 0.291054 0.905805
-0.193390 0.286521 0.891584
-0.186907 0.283068 0.880720
-0.181075 0.280467 0.872506
-0.174672 0.276838 0.861096
-0.168708 0.273752 0.851373
-0.161717 0.268806 0.835866
-0.127819 0.229232 0.712482
-0.122957 0.226471 0.703792
-0.120301 0.227734 0.707605
-0.116162 0.226181 0.702670
-0.111364 0.223216 0.693346
-0.108175 0.223395 0.693793
-0.049925 0.106324 0.330157
-0.048200 0.105962 0.328979
-0.047095 0.106985 0.332104
-0.045711 0.107422 0.333408
-0.044022 0.107149 0.332507
-0.042879 0.108232 0.335817
-0.042821 0.112244 0.348213
-0.041850 0.114089 0.353882
-0.040966 0.116335 0.360796
-0.039817 0.117991 0.365878
-0.038403 0.118978 0.368884
-0.036829 0.119540 0.370575
-0.035258 0.120164 0.372458
-0.033552 0.120376 0.373065
-0.031841 0.120588 0.373673
-0.030176 0.121014 0.374946
-0.028287 0.120533 0.373411
-0.026467 0.120308 0.372669
-0.024667 0.120146 0.372125
-0.022966 0.120476 0.373107
-0.021303 0.121082 0.374942
-0.019473 0.120761 0.373912
-0.017840 0.121724 0.376857
-0.016240 0.123149 0.381233
-0.014554 0.124199 0.384450
-0.012698 0.123887 0.383453
-0.010918 0.124336 0.384815
-0.009023 0.123405 0.381907
-0.007213 0.123450 0.382021
-0.005337 0.122038 0.377629
-0.003545 0.122050 0.377646
-0.001353 0.094303 0.291775
0.000032 0.094352 0.291913
0.001416 0.094149 0.291274
0.002793 0.093944 0.290630
0.004172 0.093901 0.290490
0.005539 0.093683 0.289810
0.006879 0.093180 0.288247
0.008232 0.093003 0.287695
0.009584 0.092857 0.287244
0.010900 0.092442 0.285958
0.012223 0.092167 0.285110
0.013543 0.091932 0.284383
0.014842 0.091610 0.283390
0.016125 0.091251 0.282285
0.017358 0.090684 0.280538
0.018561 0.090052 0.278589
0.019766 0.089511 0.276925
0.021025 0.089269 0.276185
0.022257 0.088945 0.275194
0.023462 0.088560 0.274015
0.024690 0.088292 0.273201
0.025801 0.087655 0.271243
0.026901 0.087045 0.269370
0.027943 0.086309 0.267107
0.029089 0.085944 0.265993
0.030116 0.085273 0.263933
0.031081 0.084485 0.261511
0.032162 0.084063 0.260221
0.033306 0.083829 0.259516
0.034316 0.083288 0.257858
0.035329 0.082791 0.256339
0.036311 0.082255 0.254700
0.037329 0.081833 0.253410
0.038271 0.081276 0.251706
0.039171 0.080668 0.249841
0.040073 0.080098 0.248095
0.040939 0.079490 0.246229
0.041833 0.078969 0.244633
0.042825 0.078657 0.243684
0.043720 0.078187 0.242246
0.044620 0.077750 0.240910
0.045379 0.077095 0.238896
0.046330 0.076791 0.237970
0.047199 0.076368 0.236673
0.048137 0.076072 0.235771
0.048982 0.075648 0.234469
0.049800 0.075202 0.233099
0.050549 0.074671 0.231466
0.051186 0.074004 0.229406
0.051862 0.073417 0.227595
0.052790 0.073204 0.226944
0.053632 0.072884 0.225956
0.054355 0.072417 0.224512
0.054987 0.071849 0.222755
0.055649 0.071341 0.221181
0.056300 0.070837 0.219619
0.057229 0.070696 0.219177
0.057968 0.070330 0.218037
0.058843 0.070137 0.217433
0.059635 0.069855 0.216551
0.060360 0.069504 0.215451
0.061187 0.069281 0.214746
0.061985 0.069033 0.213961
0.062463 0.068442 0.212112
0.063153 0.068098 0.211024
0.063898 0.067824 0.210151
0.064766 0.067686 0.209699
0.065676 0.067596 0.209390
0.066422 0.067342 0.208570
0.067172 0.067099 0.207781
0.068020 0.066960 0.207312
0.068658 0.066621 0.206222
0.069434 0.066423 0.205563
0.070061 0.066091 0.204486
0.070705 0.065784 0.203481
0.071315 0.065453 0.202401
0.071761 0.064982 0.200886
0.072507 0.064792 0.200234
0.073064 0.064441 0.199078
0.073568 0.064052 0.197806
0.074116 0.063711 0.196674
0.074629 0.063349 0.195475
0.075380 0.063194 0.194911
0.075644 0.062641 0.193114
0.076252 0.062382 0.192219
0.076753 0.062043 0.191075
0.077367 0.061802 0.190227
0.078028 0.061603 0.189505
0.078631 0.061364 0.188653
0.079178 0.061087 0.187679
0.079596 0.060718 0.186417
0.080281 0.060558 0.185792
0.080992 0.060422 0.185234
0.081542 0.060169 0.184312
0.082121 0.059943 0.183466
0.082829 0.059814 0.182914
0.083330 0.059541 0.181910
0.083843 0.059282 0.180945
0.084118 0.058861 0.179480
0.084463 0.058497 0.178183
0.084590 0.057992 0.176450
0.084734 0.057508 0.174774
0.085045 0.057145 0.173464
0.085433 0.056841 0.172324
0.085828 0.056547 0.171207
0.086281 0.056298 0.170216
0.086299 0.055771 0.168381
0.086476 0.055356 0.166878
0.087110 0.055239 0.166262
0.087803 0.055160 0.165754
0.088358 0.054998 0.164982
-0.987281 0.626980 1.876266
-0.980385 0.628352 1.883062
-0.964651 0.624031 1.872678
-0.949995 0.620335 1.864028
-0.941674 0.620745 1.867600
-0.933164 0.621037 1.870722
-0.924090 0.620956 1.872626
-0.915666 0.621315 1.875765
-0.906472 0.621154 1.877246
-0.899487 0.622519 1.883254
-0.960147 0.671200 2.032467
-0.951415 0.671870 2.036348
-0.949697 0.677558 2.055375
-0.938886 0.676810 2.054806
-0.930092 0.677516 2.058570
-0.810289 0.596516 1.813818
-0.801937 0.596704 1.815686
-0.799031 0.600994 1.829976
-0.787060 0.598485 1.823510
-0.778658 0.598665 1.825168
-0.875814 0.748073 2.290137
-0.850415 0.735447 2.252223
-0.841934 0.737319 2.258644
-0.824697 0.731472 2.241366
-0.816390 0.733497 2.248158
-0.802751 0.730722 2.240191
-0.642199 0.608575 1.866842
-0.629564 0.604879 1.855806
-0.626026 0.609943 1.871615
-0.615303 0.608051 1.866048
-0.600475 0.601991 1.847656
-0.271410 0.329332 1.011074
-0.264563 0.326753 1.003106
-0.257516 0.323829 0.994069
-0.250998 0.321474 0.986775
-0.243797 0.318140 0.976466
-0.237127 0.315384 0.967926
-0.232815 0.315718 0.968863
-0.221306 0.306110 0.939289
-0.214035 0.302092 0.926862
-0.207071 0.298350 0.915280
-0.200686 0.295300 0.905820
-0.193865 0.291464 0.893946
-0.187433 0.288053 0.883375
-0.180946 0.284403 0.872069
-0.175011 0.281470 0.862962
-0.167544 0.275876 0.845695
-0.163708 0.276132 0.846363
-0.127953 0.232861 0.713424
-0.123443 0.230724 0.706774
-0.120726 0.231915 0.710316
-0.116645 0.230477 0.705804
-0.113404 0.230664 0.706271
-0.051623 0.108184 0.331199
-0.050000 0.108058 0.330762
-0.048373 0.107913 0.330270
-0.047048 0.108459 0.331889
-0.045791 0.109201 0.334111
-0.044464 0.109825 0.335967
-0.043356 0.111057 0.339688
-0.044265 0.117747 0.360097
-0.042307 0.117043 0.357891
-0.041497 0.119590 0.365628
-0.040035 0.120397 0.368043
-0.038518 0.121102 0.370148
-0.036835 0.121332 0.370799
-0.035033 0.121169 0.370252
-0.033249 0.121059 0.369870
-0.031518 0.121139 0.370067
-0.029778 0.121191 0.370180
-0.028018 0.121165 0.370058
-0.026412 0.121846 0.372095
-0.024576 0.121484 0.370947
-0.022904 0.121943 0.372308
-0.021343 0.123119 0.375862
-0.019498 0.122726 0.374625
-0.017760 0.122993 0.375405
-0.016219 0.124833 0.380987
-0.014643 0.126832 0.387056
-0.012811 0.126872 0.387145
-0.010999 0.127159 0.387991
-0.009136 0.126860 0.387054
-0.007281 0.126538 0.386045
-0.005397 0.125329 0.382333
-0.003582 0.125341 0.382351
-0.001363 0.096645 0.294800
0.000036 0.095745 0.292041
0.001418 0.095389 0.290942
0.002799 0.095381 0.290910
0.004175 0.095269 0.290558
0.005540 0.095004 0.289745
0.006883 0.094562 0.288390
0.008225 0.094240 0.287404
0.009574 0.094080 0.286915
0.010899 0.093760 0.285936
0.012221 0.093483 0.285094
0.013530 0.093169 0.284137
0.014851 0.092985 0.283580
0.016124 0.092564 0.282300
0.017351 0.091956 0.280449
0.018536 0.091231 0.278246
0.019780 0.090875 0.277169
0.021032 0.090596 0.276326
0.022255 0.090229 0.275217
0.023485 0.089932 0.274322
0.024684 0.089553 0.273178
0.025826 0.089016 0.271552
0.026891 0.088277 0.269309
0.027965 0.087633 0.267358
0.029116 0.087275 0.266281
0.030170 0.086668 0.264446
0.031152 0.085912 0.262155
0.032255 0.085533 0.261015
0.033309 0.085061 0.259589
0.034426 0.084772 0.258724
0.035590 0.084619 0.258273
0.036298 0.083426 0.254649
0.037300 0.082964 0.253257
0.038273 0.082468 0.251760
0.039211 0.081930 0.250134
0.040125 0.081373 0.248450
0.040980 0.080732 0.246511
0.041820 0.080099 0.244595
0.042821 0.079799 0.243693
0.043892 0.079642 0.243231
0.044792 0.079191 0.241866
0.045626 0.078648 0.240222
0.046314 0.077886 0.237910
0.047233 0.077539 0.236864
0.048098 0.077123 0.235602
0.048690 0.076297 0.233090
0.049618 0.076023 0.232263
0.050539 0.075749 0.231436
0.051320 0.075282 0.230015
0.051879 0.074516 0.227682
0.052795 0.074284 0.226976
0.053623 0.073938 0.225923
0.054363 0.073488 0.224550
0.054940 0.072839 0.222567
0.055760 0.072529 0.221619
0.056421 0.072029 0.220087
0.057305 0.071826 0.219462
0.058055 0.071466 0.218354
0.058839 0.071159 0.217408
0.059660 0.070907 0.216625
0.060369 0.070532 0.215468
0.061134 0.070234 0.214541
0.061974 0.070031 0.213902
0.062812 0.069831 0.213271
0.063483 0.069456 0.212101
0.064218 0.069162 0.211175
0.065137 0.069070 0.210867
0.065895 0.068815 0.210054
0.066629 0.068541 0.209183
0.067344 0.068256 0.208276
0.068086 0.068007 0.207473
0.068560 0.067501 0.205883
0.069054 0.067028 0.204393
0.069726 0.066739 0.203458
0.070484 0.066539 0.202793
0.071192 0.066298 0.201998
0.071826 0.065995 0.201011
0.072635 0.065858 0.200525
0.073090 0.065408 0.199085
0.073731 0.065135 0.198175
0.074156 0.064679 0.196709
0.074828 0.064448 0.195922
0.075243 0.064004 0.194482
0.075716 0.063619 0.193217
0.076032 0.063113 0.191583
0.076586 0.062814 0.190572
0.077203 0.062574 0.189734
0.077772 0.062301 0.188791
0.078536 0.062188 0.188329
0.079170 0.061976 0.187560
0.079693 0.061683 0.186543
0.080303 0.061463 0.185739
0.080861 0.061207 0.184823
0.081579 0.061078 0.184282
0.082125 0.060824 0.183358
0.082646 0.060557 0.182389
0.083204 0.060322 0.181512
0.083519 0.059918 0.180118
0.083797 0.059496 0.178664
0.083778 0.058873 0.176604
0.084150 0.058536 0.175394
0.084629 0.058278 0.174415
0.084876 0.057867 0.172972
0.085377 0.057636 0.172059
0.085749 0.057324 0.170896
0.086017 0.056948 0.169536
0.086150 0.056491 0.167928
0.086603 0.056250 0.166955
0.087528 0.056317 0.166885
0.087942 0.056057 0.165837
0.088492 0.055888 0.165048
-0.986792 0.635767 1.873564
-0.976926 0.635224 1.874704
-0.964829 0.633207 1.871372
-0.951513 0.630345 1.865413
-0.941273 0.629487 1.865267
-0.932639 0.629697 1.868182
-0.922530 0.628906 1.868029
-0.913423 0.628790 1.869784
-0.905473 0.629476 1.873835
-0.897806 0.630376 1.878439
-0.951695 0.674949 2.013234
-0.943021 0.675609 2.017090
-0.943640 0.683010 2.041005
-0.928331 0.678915 2.030497
-0.835534 0.617471 1.848228
-0.810414 0.605268 1.813100
-0.801562 0.605083 1.813878
-0.798365 0.609210 1.827524
-0.788235 0.608079 1.825342
-0.780682 0.608934 1.829059
-0.870006 0.753901 2.274268
-0.847709 0.743751 2.244421
-0.836597 0.743282 2.243729
-0.825817 0.743101 2.243851
-0.813096 0.741145 2.238565
-0.798404 0.737319 2.227577
-0.788829 0.738179 2.230701
-0.645003 0.620107 1.874670
-0.630367 0.614446 1.857884
-0.635257 0.627925 1.898945
-0.620666 0.622259 1.882077
-0.605834 0.616184 1.863936
-0.289265 0.344033 1.041181
-0.284681 0.344415 1.042318
-0.271042 0.333664 1.009752
-0.264332 0.331211 1.002288
-0.258354 0.329604 0.997378
-0.250841 0.325942 0.986240
-0.246460 0.326290 0.987229
-0.220985 0.310110 0.938051
-0.213610 0.305875 0.925154
-0.207063 0.302676 0.915388
-0.200157 0.298805 0.903586
-0.193633 0.295347 0.893032
-0.187398 0.292187 0.883376
-0.181319 0.289133 0.874037
-0.175175 0.285832 0.863951
-0.169084 0.282461 0.853653
-0.161431 0.276253 0.834783
-0.127965 0.236272 0.713677
-0.123261 0.233738 0.705925
-0.120992 0.235810 0.712081
-0.116743 0.234029 0.706604
-0.113498 0.234218 0.707070
-0.051528 0.109557 0.330689
-0.049765 0.109117 0.329314
-0.048073 0.108809 0.328337
-0.047046 0.110034 0.331986
-0.045533 0.110170 0.332349
-0.044102 0.110519 0.333353
-0.045858 0.119180 0.359426
-0.044188 0.119258 0.359609
-0.042912 0.120451 0.363156
-0.041541 0.121464 0.366162
-0.040160 0.122536 0.369343
-0.038642 0.123267 0.371496
-0.036846 0.123142 0.371073
-0.035078 0.123100 0.370898
-0.033245 0.122814 0.369990
-0.031381 0.122378 0.368632
-0.029552 0.122034 0.367551
-0.027981 0.122780 0.369755
-0.026210 0.122689 0.369440
-0.024545 0.123113 0.370678
-0.022998 0.124247 0.374054
-0.021369 0.125086 0.376540
-0.019683 0.125715 0.378400
-0.018004 0.126525 0.380802
-0.016326 0.127517 0.383755
-0.014669 0.128948 0.388030
-0.012954 0.130205 0.391782
-0.011067 0.129861 0.390717
-0.009218 0.129926 0.390887
-0.007346 0.129604 0.389892
-0.005423 0.127884 0.384697
-0.001356 0.097875 0.294394
0.000040 0.097174 0.292271
0.001422 0.096791 0.291109
0.002800 0.096665 0.290720
0.004178 0.096628 0.290599
0.005538 0.096277 0.289537
0.006894 0.096025 0.288773
0.008223 0.095532 0.287288
0.009559 0.095250 0.286437
0.010896 0.095055 0.285849
0.012201 0.094644 0.284612
0.013491 0.094217 0.283330
0.014813 0.094068 0.282884
0.016038 0.093376 0.280807
0.017296 0.092972 0.279595
0.018540 0.092552 0.278337
0.019769 0.092121 0.277049
0.021020 0.091838 0.276205
0.022234 0.091435 0.275002
0.023452 0.091090 0.273975
0.024718 0.090964 0.273604
0.025795 0.090184 0.271270
0.026887 0.089530 0.269316
0.027970 0.088905 0.267449
0.029084 0.088432 0.266038
0.030164 0.087895 0.264436
0.031111 0.087033 0.261856
0.032120 0.086401 0.259969
0.033124 0.085803 0.258186
0.034267 0.085595 0.257574
0.035350 0.085256 0.256571
0.036327 0.084692 0.254889
0.037333 0.084231 0.253517
0.038331 0.083781 0.252178
0.039310 0.083316 0.250794
0.040171 0.082637 0.248765
0.041080 0.082094 0.247145
0.041797 0.081207 0.244487
0.042675 0.080672 0.242891
0.043592 0.080237 0.241593
0.044599 0.079985 0.240848
0.045598 0.079731 0.240095
0.046387 0.079133 0.238306
0.047191 0.078586 0.236670
0.048048 0.078153 0.235374
0.048987 0.077868 0.234527
0.049715 0.077269 0.232729
0.050501 0.076783 0.231271
0.051286 0.076316 0.229871
0.052055 0.075847 0.228460
0.052824 0.075395 0.227103
0.053728 0.075151 0.226367
0.054465 0.074688 0.224972
0.055060 0.074051 0.223051
0.055926 0.073795 0.222277
0.056570 0.073261 0.220662
0.057366 0.072941 0.219689
0.058056 0.072498 0.218346
0.058773 0.072105 0.217152
0.059625 0.071888 0.216482
0.060398 0.071585 0.215554
0.061124 0.071236 0.214484
0.061843 0.070891 0.213426
0.062622 0.070626 0.212602
0.063378 0.070342 0.211721
0.064141 0.070075 0.210888
0.064979 0.069897 0.210321
0.065853 0.069763 0.209881
0.066597 0.069497 0.209044
0.067319 0.069216 0.208156
0.068215 0.069120 0.207821
0.068927 0.068842 0.206937
0.069506 0.068441 0.205679
0.069747 0.067723 0.203466
0.070410 0.067428 0.202523
0.071083 0.067151 0.201627
0.071740 0.066867 0.200706
0.072323 0.066522 0.199601
0.073053 0.066320 0.198918
0.073751 0.066093 0.198159
0.074184 0.065638 0.196711
0.074490 0.065083 0.194959
0.075181 0.064874 0.194240
0.075401 0.064270 0.192332
0.076038 0.064030 0.191513
0.076701 0.063817 0.190770
0.077261 0.063525 0.189784
0.077827 0.063245 0.188827
0.078415 0.062989 0.187940
0.079107 0.062821 0.187308
0.079605 0.062504 0.186229
0.080241 0.062302 0.185485
0.080774 0.062025 0.184511
0.081390 0.061817 0.183739
0.081975 0.061590 0.182902
0.082440 0.061279 0.181810
0.083084 0.061105 0.181122
0.083505 0.060773 0.179955
0.083888 0.060420 0.178721
0.084291 0.060089 0.177545
0.084111 0.059353 0.175167
0.084592 0.059094 0.174193
0.085052 0.058825 0.173179
0.085418 0.058497 0.171987
0.085775 0.058169 0.170787
0.085699 0.057557 0.168745
0.085969 0.057186 0.167406
0.086490 0.056988 0.166563
0.087129 0.056870 0.165947
0.087868 0.056819 0.165514
0.088430 0.056656 0.164742
-0.987023 0.650974 1.892287
-0.964599 0.642115 1.869212
-0.950890 0.638947 1.862543
-0.938447 0.636578 1.858076
-0.932739 0.638776 1.866838
-0.923361 0.638480 1.868218
-0.914068 0.638239 1.869662
-0.905952 0.638822 1.873432
-0.900482 0.641302 1.882684
-0.939819 0.676064 1.986733
-0.931236 0.676713 1.990550
-0.933651 0.685449 2.018098
-0.922931 0.684625 2.017434
-0.914252 0.685314 2.021148
-0.812789 0.615729 1.817369
-0.802491 0.614454 1.814977
-0.801289 0.620192 1.833245
-0.789655 0.617892 1.827698
-0.779862 0.617000 1.826243
-0.865961 0.761136 2.262972
-0.845259 0.752216 2.237259
-0.840029 0.757014 2.252292
-0.824733 0.752747 2.240304
-0.813687 0.752300 2.239628
-0.803316 0.752474 2.240754
-0.778583 0.739020 2.201242
-0.644274 0.628274 1.872200
-0.627326 0.620235 1.848602
-0.623616 0.625244 1.863854
-0.619937 0.630426 1.879598
-0.283108 0.341533 1.019029
-0.278315 0.341537 1.019034
-0.271555 0.339084 1.011697
-0.261494 0.332349 0.991575
-0.255880 0.331124 0.987885
-0.249845 0.329299 0.982396
-0.242443 0.325570 0.971218
-0.213296 0.309804 0.923919
-0.207557 0.307747 0.917701
-0.200709 0.303924 0.906217
-0.193632 0.299580 0.893174
-0.187316 0.296248 0.883148
-0.181232 0.293140 0.873785
-0.175165 0.289914 0.864072
-0.168301 0.285185 0.849878
-0.164443 0.285444 0.850546
-0.127849 0.239445 0.713209
-0.123455 0.237466 0.707223
-0.121223 0.239652 0.713635
-0.116754 0.237411 0.706869
-0.113507 0.237600 0.707334
-0.051079 0.110163 0.327911
-0.049731 0.110609 0.329191
-0.048093 0.110418 0.328579
-0.046429 0.110153 0.327745
-0.045230 0.111009 0.330246
-0.043948 0.111717 0.332307
-0.046602 0.122855 0.365387
-0.044904 0.122934 0.365573
-0.043721 0.124486 0.370140
-0.042293 0.125444 0.372939
-0.040642 0.125793 0.373929
-0.039065 0.126412 0.375719
-0.037133 0.125888 0.374114
-0.035234 0.125432 0.372715
-0.033347 0.124970 0.371297
-0.031425 0.124319 0.369319
-0.029512 0.123627 0.367223
-0.027800 0.123749 0.367543
-0.026091 0.123895 0.367938
-0.024369 0.124002 0.368217
-0.022796 0.124940 0.370964
-0.021239 0.126132 0.374469
-0.019573 0.126834 0.376517
-0.017869 0.127406 0.378182
-0.016224 0.128570 0.381603
-0.014693 0.131046 0.388922
-0.012985 0.132430 0.392999
-0.011129 0.132525 0.393252
-0.009268 0.132578 0.393384
-0.007376 0.132101 0.391945
-0.005427 0.129938 0.385506
-0.003599 0.129951 0.385523
-0.001341 0.098473 0.292124
0.000044 0.098206 0.291320
0.001424 0.098063 0.290884
0.002799 0.097868 0.290296
0.004173 0.097779 0.290021
0.005537 0.097568 0.289388
0.006860 0.096852 0.287259
0.008224 0.096867 0.287299
0.009555 0.096533 0.286306
0.010869 0.096135 0.285124
0.012192 0.095897 0.284417
0.013482 0.095471 0.283153
0.014791 0.095243 0.282477
0.016027 0.094624 0.280644
0.017301 0.094305 0.279702
0.018537 0.093837 0.278318
0.019770 0.093420 0.277088
0.020985 0.092973 0.275770
0.022218 0.092658 0.274843
0.023425 0.092269 0.273696
0.024667 0.092057 0.273078
0.025790 0.091440 0.271259
0.026919 0.090901 0.269670
0.028036 0.090377 0.268126
0.029141 0.089856 0.266593
0.030147 0.089089 0.264330
0.031228 0.088594 0.262873
0.032227 0.087914 0.260869
0.033300 0.087480 0.259593
0.034358 0.087036 0.258290
0.035365 0.086501 0.256715
0.036365 0.085984 0.255194
0.037360 0.085487 0.253734
0.038378 0.085073 0.252519
0.039210 0.084284 0.250189
0.040156 0.083779 0.248702
0.041002 0.083099 0.246699
0.041835 0.082433 0.244733
0.042747 0.081954 0.243323
0.043726 0.081625 0.242356
0.044631 0.081177 0.241039
0.045514 0.080715 0.239674
0.046319 0.080137 0.237969
0.047260 0.079819 0.237031
0.048130 0.079398 0.235791
0.048977 0.078959 0.234492
0.049800 0.078500 0.233133
0.050535 0.077926 0.231434
0.051350 0.077497 0.230162
0.052084 0.076967 0.228590
0.052938 0.076632 0.227596
0.053898 0.076461 0.227084
0.054701 0.076076 0.225940
0.055259 0.075374 0.223850
0.055632 0.074451 0.221100
0.056403 0.074083 0.219999
0.057298 0.073889 0.219413
0.058075 0.073553 0.218404
0.058923 0.073316 0.217685
0.059580 0.072855 0.216298
0.060354 0.072549 0.215373
0.061045 0.072156 0.214184
0.061880 0.071942 0.213525
0.062665 0.071678 0.212715
0.063251 0.071200 0.211266
0.063995 0.070910 0.210374
0.064713 0.070601 0.209421
0.065589 0.070471 0.208998
0.066439 0.070318 0.208502
0.067125 0.069998 0.207509
0.067793 0.069669 0.206485
0.068312 0.069198 0.205037
0.069093 0.069002 0.204403
0.069816 0.068754 0.203608
0.070430 0.068407 0.202518
0.071290 0.068305 0.202151
0.071691 0.067772 0.200502
0.072441 0.067579 0.199856
0.073070 0.067279 0.198891
0.073710 0.066997 0.197973
0.074415 0.066779 0.197243
0.075033 0.066491 0.196298
0.075659 0.066216 0.195391
0.075541 0.065305 0.192601
0.076126 0.065016 0.191644
0.076757 0.064773 0.190814
0.077396 0.064542 0.190017
0.078005 0.064292 0.189160
0.078553 0.063998 0.188166
0.079200 0.063790 0.187420
0.079740 0.063502 0.186434
0.080341 0.063268 0.185600
0.080804 0.062931 0.184460
0.081301 0.062628 0.183414
0.081793 0.062328 0.182370
0.082294 0.062041 0.181358
0.082755 0.061730 0.180271
0.083092 0.061333 0.178926
0.083779 0.061202 0.178349
0.083683 0.060505 0.176119
0.084148 0.060225 0.175096
0.084561 0.059913 0.173974
0.084880 0.059542 0.172673
0.085352 0.059284 0.171692
0.085641 0.058905 0.170353
0.085813 0.058454 0.168799
0.085868 0.057932 0.167035
0.086458 0.057778 0.166323
0.087246 0.057757 0.165984
0.087772 0.057565 0.165141
0.088327 0.057396 0.164354
-0.972438 0.650404 1.862493
-0.962027 0.649440 1.862458
-0.947918 0.645938 1.855016
-0.940614 0.647051 1.860712
-0.932333 0.647507 1.864424
-0.923265 0.647422 1.866477
-0.914941 0.647861 1.869947
-0.905307 0.647374 1.870651
-0.902735 0.651978 1.885986
-0.915169 0.667621 1.933231
-0.930657 0.685835 1.987931
-0.926922 0.690111 2.002209
-0.914626 0.688037 1.997987
-0.906009 0.688717 2.001676
-0.814378 0.625638 1.819830
-0.805558 0.625505 1.820861
-0.800894 0.628632 1.831324
-0.789894 0.626801 1.827276
-0.782891 0.628136 1.832397
-0.865090 0.771101 2.259929
-0.841370 0.759322 2.226250
-0.836447 0.764424 2.242007
-0.824708 0.763348 2.239594
-0.806008 0.755718 2.217893
-0.802444 0.762266 2.237755
-0.277682 0.339718 0.999493
-0.271812 0.338267 0.995229
-0.271184 0.343405 1.010338
-0.257905 0.332419 0.978001
-0.249331 0.327208 0.962646
-0.244654 0.327013 0.962041
-0.242099 0.329702 0.969909
-0.207249 0.311633 0.916458
-0.200313 0.307611 0.904554
-0.193570 0.303719 0.893027
-0.187416 0.300597 0.883763
-0.181369 0.297508 0.874596
-0.175046 0.293814 0.863645
-0.167880 0.288495 0.847918
-0.160982 0.283390 0.832820
-0.128737 0.244520 0.718335
-0.123256 0.240439 0.706258
-0.121279 0.243155 0.714147
-0.117426 0.242158 0.711129
-0.114159 0.242348 0.711596
-0.050953 0.111446 0.327193
-0.049171 0.110912 0.325582
-0.047973 0.111703 0.327860
-0.046456 0.111778 0.328037
-0.044883 0.111719 0.327823
-0.044326 0.114277 0.335283
-0.045897 0.122713 0.359988
-0.044224 0.122791 0.360170
-0.043224 0.124819 0.366071
-0.042179 0.126881 0.372072
-0.040545 0.127274 0.373180
-0.038894 0.127647 0.374228
-0.037397 0.128585 0.376932
-0.035334 0.127574 0.373925
-0.033322 0.126653 0.371181
-0.031443 0.126162 0.369701
-0.029568 0.125630 0.368100
-0.027860 0.125783 0.368509
-0.026195 0.126164 0.369587
-0.024492 0.126407 0.370263
-0.022954 0.127604 0.373731
-0.021379 0.128781 0.377143
-0.019714 0.129576 0.379439
-0.018007 0.130232 0.381325
-0.016369 0.131587 0.385262
-0.014745 0.133416 0.390586
-0.013001 0.134524 0.393800
-0.011175 0.135009 0.395194
-0.009323 0.135313 0.396058
-0.007445 0.135319 0.396051
-0.005466 0.132852 0.388808
-0.003623 0.132865 0.388825
-0.001336 0.099797 0.292039
0.000049 0.099774 0.291960
0.001428 0.099373 0.290775
0.002814 0.099630 0.291514
0.004186 0.099371 0.290747
0.005539 0.098894 0.289345
0.006919 0.099007 0.289670
0.008212 0.098039 0.286833
0.009551 0.097806 0.286147
0.010880 0.097551 0.285400
0.012181 0.097128 0.284161
0.013479 0.096766 0.283101
0.014769 0.096415 0.282073
0.016066 0.096163 0.281338
0.017303 0.095618 0.279747
0.018555 0.095231 0.278619
0.019798 0.094853 0.277518
0.020993 0.094301 0.275908
0.022121 0.093532 0.273667
0.023333 0.093185 0.272657
0.024564 0.092946 0.271965
0.025738 0.092525 0.270743
0.026868 0.091993 0.269197
0.028046 0.091667 0.268251
0.029157 0.091160 0.266780
0.030207 0.090511 0.264891
0.031244 0.089876 0.263042
0.032321 0.089401 0.261665
0.033404 0.088977 0.260434
0.034469 0.088537 0.259159
0.035526 0.088108 0.257916
0.036475 0.087449 0.255997
0.037316 0.086579 0.253461
0.038329 0.086151 0.252222
0.039203 0.085446 0.250169
0.040167 0.084973 0.248794
0.041093 0.084450 0.247275
0.042007 0.083930 0.245763
0.042804 0.083212 0.243669
0.043762 0.082835 0.242576
0.044661 0.082369 0.241218
0.045561 0.081929 0.239938
0.046393 0.081389 0.238363
0.047262 0.080939 0.237053
0.048202 0.080629 0.236150
0.049060 0.080200 0.234896
0.049889 0.079742 0.233558
0.050637 0.079178 0.231908
0.051348 0.078580 0.230157
0.051997 0.077915 0.228208
0.052746 0.077423 0.226764
0.053648 0.077172 0.226025
0.054336 0.076629 0.224428
0.055180 0.076321 0.223520
0.055888 0.075841 0.222106
0.056590 0.075370 0.220715
0.057304 0.074933 0.219423
0.058238 0.074793 0.218996
0.058896 0.074311 0.217567
0.059589 0.073887 0.216307
0.060329 0.073536 0.215258
0.061084 0.073214 0.214289
0.061803 0.072860 0.213227
0.062521 0.072516 0.212192
0.063322 0.072279 0.211466
0.063948 0.071852 0.210181
0.064848 0.071741 0.209817
0.065578 0.071447 0.208918
0.066320 0.071177 0.208083
0.067186 0.071044 0.207646
0.067828 0.070683 0.206539
0.068460 0.070321 0.205427
0.068976 0.069851 0.203996
0.069783 0.069685 0.203450
0.070373 0.069310 0.202290
0.070926 0.068910 0.201053
0.071657 0.068690 0.200336
0.072209 0.068307 0.199143
0.073110 0.068260 0.198923
0.073667 0.067897 0.197777
0.074308 0.067618 0.196875
0.074864 0.067272 0.195770
0.075210 0.066747 0.194141
0.075637 0.066306 0.192754
0.076009 0.065827 0.191254
0.076604 0.065551 0.190337
0.077353 0.065411 0.189810
0.077961 0.065158 0.188947
0.078502 0.064853 0.187933
0.079134 0.064631 0.187151
0.079747 0.064399 0.186334
0.080082 0.063948 0.184881
0.080442 0.063528 0.183511
0.080966 0.063245 0.182532
0.081421 0.062915 0.181409
0.081976 0.062668 0.180523
0.082494 0.062399 0.179563
0.082763 0.061948 0.178077
0.083455 0.061820 0.177511
0.083731 0.061390 0.176071
0.084112 0.061044 0.174867
0.084564 0.060756 0.173821
0.084927 0.060411 0.172604
0.085400 0.060150 0.171620
0.085693 0.059768 0.170284
0.085614 0.059137 0.168231
0.086090 0.058897 0.167285
0.086585 0.058675 0.166380
0.087173 0.058519 0.165653
0.087770 0.058372 0.164941
0.088326 0.058200 0.164148
-0.971957 0.659128 1.859675
-0.963361 0.659390 1.863203
-0.947689 0.654768 1.852801
-0.937485 0.653873 1.852816
-0.932602 0.656707 1.863301
-0.923431 0.656549 1.865204
-0.914542 0.656590 1.867577
-0.908005 0.658338 1.874715
-0.906200 0.663587 1.891754
-0.914328 0.676289 1.930005
-0.915056 0.683721 1.953191
-0.917515 0.692613 1.980505
-0.909448 0.693662 1.985338
-0.900863 0.694335 1.989014
-0.813524 0.633678 1.816782
-0.802830 0.632062 1.813602
-0.800431 0.637011 1.829202
-0.788286 0.634230 1.822540
-0.780519 0.634948 1.825865
-0.879302 0.794678 2.296232
-0.851114 0.778807 2.251265
-0.838422 0.776894 2.246572
-0.829203 0.778191 2.251109
-0.816507 0.776217 2.246132
-0.793593 0.764351 2.212467
-0.248983 0.331304 0.961334
-0.240509 0.325952 0.945784
-0.199848 0.311176 0.902571
-0.193629 0.308046 0.893420
-0.187004 0.304118 0.881951
-0.180430 0.300095 0.870207
-0.174452 0.296902 0.860866
-0.168480 0.293566 0.851108
-0.161344 0.287989 0.834853
-0.157545 0.288240 0.835491
-0.128742 0.247943 0.718527
-0.124364 0.245985 0.712772
-0.120222 0.244400 0.708096
-0.116961 0.244567 0.708495
-0.113706 0.244757 0.708959
-0.050865 0.112809 0.326721
-0.049137 0.112384 0.325450
-0.047801 0.112857 0.326780
-0.046391 0.113182 0.327681
-0.044822 0.113128 0.327483
-0.043711 0.114267 0.330740
-0.045944 0.124555 0.360473
-0.044268 0.124633 0.360655
-0.043509 0.127401 0.368621
-0.042013 0.128151 0.370746
-0.040842 0.130004 0.376060
-0.039075 0.130038 0.376114
-0.037278 0.129974 0.375886
-0.035535 0.130100 0.376210
-0.033454 0.128937 0.372806
-0.031513 0.128218 0.370686
-0.029727 0.128079 0.370245
-0.028002 0.128201 0.370560
-0.026240 0.128160 0.370403
-0.024663 0.129085 0.373041
-0.023126 0.130376 0.376736
-0.021520 0.131462 0.379839
-0.019918 0.132774 0.383597
-0.018231 0.133725 0.386313
-0.016523 0.134718 0.389149
-0.014823 0.136029 0.392906
-0.013037 0.136822 0.395168
-0.011181 0.137022 0.395720
-0.009313 0.137125 0.395991
-0.007431 0.137040 0.395721
-0.005463 0.134756 0.389103
-0.003619 0.134769 0.389120
-0.001334 0.101283 0.292421
0.000053 0.101059 0.291764
0.001434 0.100946 0.291424
0.002816 0.100918 0.291336
0.004187 0.100686 0.290654
0.005544 0.100297 0.289523
0.006862 0.099490 0.287187
0.008206 0.099276 0.286567
0.009530 0.098907 0.285496
0.010856 0.098645 0.284737
0.012164 0.098299 0.283735
0.013460 0.097934 0.282682
0.014759 0.097661 0.281893
0.016048 0.097364 0.281038
0.017265 0.096712 0.279156
0.018530 0.096401 0.278263
0.019781 0.096063 0.277290
0.021016 0.095697 0.276241
0.022185 0.095087 0.274485
0.023347 0.094520 0.272853
0.024579 0.094278 0.272163
0.025750 0.093840 0.270903
0.026825 0.093109 0.268801
0.027992 0.092749 0.267772
0.029140 0.092358 0.266652
0.030256 0.091903 0.265349
0.031312 0.091310 0.263644
0.032374 0.090782 0.262129
0.033407 0.090211 0.260493
0.034438 0.089676 0.258957
0.035415 0.089043 0.257139
0.036440 0.088567 0.255776
0.037346 0.087843 0.253693
0.038252 0.087164 0.251742
0.039229 0.086681 0.250359
0.040207 0.086231 0.249068
0.041144 0.085721 0.247602
0.042086 0.085248 0.246245
0.042816 0.084384 0.243756
0.043601 0.083669 0.241699
0.044503 0.083210 0.240378
0.045301 0.082585 0.238579
0.046266 0.082287 0.237722
0.047172 0.081901 0.236612
0.048046 0.081478 0.235392
0.048919 0.081073 0.234223
0.049462 0.080150 0.231558
0.050294 0.079726 0.230333
0.051262 0.079532 0.229769
0.051979 0.078964 0.228125
0.052774 0.078534 0.226879
0.053796 0.078453 0.226638
0.054016 0.077228 0.223092
0.054992 0.077112 0.222745
0.055720 0.076658 0.221421
0.056641 0.076480 0.220895
0.057492 0.076217 0.220119
0.058160 0.075725 0.218680
0.058975 0.075439 0.217834
0.059686 0.075031 0.216634
0.060330 0.074554 0.215231
0.060980 0.074100 0.213893
0.061676 0.073716 0.212755
0.062510 0.073507 0.212120
0.063286 0.073237 0.211304
0.064026 0.072934 0.210394
0.064716 0.072584 0.209343
0.065466 0.072312 0.208513
0.066315 0.072155 0.208014
0.066999 0.071826 0.207014
0.067722 0.071547 0.206157
0.068555 0.071392 0.205650
0.069035 0.070878 0.204109
0.069831 0.070698 0.203525
0.070384 0.070280 0.202253
0.070774 0.069714 0.200550
0.071227 0.069223 0.199061
0.071988 0.069040 0.198454
0.072639 0.068759 0.197560
0.073395 0.068582 0.196963
0.074008 0.068278 0.195995
0.074490 0.067861 0.194700
0.075181 0.067644 0.193973
0.075844 0.067407 0.193184
0.076196 0.066902 0.191623
0.076751 0.066585 0.190597
0.077335 0.066301 0.189659
0.077876 0.065987 0.188631
0.078511 0.065758 0.187841
0.078919 0.065348 0.186526
0.079376 0.064985 0.185345
0.079780 0.064589 0.184060
0.080299 0.064293 0.183057
0.080803 0.063992 0.182033
0.081411 0.063778 0.181252
0.081880 0.063461 0.180171
0.082477 0.063249 0.179382
0.082926 0.062929 0.178279
0.083197 0.062482 0.176810
0.083826 0.062310 0.176114
0.084121 0.061895 0.174724
0.084352 0.061442 0.173220
0.084813 0.061165 0.172203
0.085330 0.060932 0.171306
0.085669 0.060578 0.170059
0.085726 0.060034 0.168270
0.086086 0.059709 0.167089
0.086744 0.059596 0.166492
0.087218 0.059359 0.165540
0.087764 0.059176 0.164725
0.088340 0.059015 0.163964
-0.963468 0.668515 1.861506
-0.948152 0.664079 1.851873
-0.938901 0.663849 1.853840
-0.932402 0.665579 1.861180
-0.923459 0.665581 1.863594
-0.914622 0.665661 1.866126
-0.908571 0.667791 1.874317
-0.907257 0.673480 1.892431
-0.913052 0.684615 1.925810
-0.907395 0.687303 1.935378
-0.914089 0.699498 1.971675
-0.904074 0.699028 1.972220
-0.895522 0.699692 1.975883
-0.815085 0.643609 1.819080
-0.803312 0.641122 1.813548
-0.800144 0.645524 1.827437
-0.789536 0.643955 1.824364
-0.779557 0.642870 1.822590
-0.878419 0.804778 2.293050
-0.851825 0.790158 2.252327
-0.834689 0.784053 2.235797
-0.822747 0.782733 2.232852
-0.804016 0.774837 2.211087
-0.794460 0.775693 2.214238
-0.199375 0.314709 0.900535
-0.193244 0.311662 0.891756
-0.186729 0.307848 0.880775
-0.180553 0.304431 0.870930
-0.174860 0.301690 0.863014
-0.168756 0.298092 0.852645
-0.162321 0.293720 0.840061
-0.155104 0.287679 0.822702
-0.151353 0.287923 0.823316
-0.130310 0.254417 0.727431
-0.126709 0.254075 0.726375
-0.120674 0.248699 0.710927
-0.116521 0.247004 0.706004
-0.113277 0.247193 0.706465
-0.050303 0.113099 0.323195
-0.048815 0.113186 0.323406
-0.047475 0.113633 0.324644
-0.046085 0.113986 0.325616
-0.044543 0.113974 0.325542
-0.043355 0.114899 0.328146
-0.045792 0.125857 0.359400
-0.044122 0.125935 0.359582
-0.042855 0.127218 0.363202
-0.041824 0.129338 0.369212
-0.040447 0.130525 0.372559
-0.038993 0.131560 0.375470
-0.037352 0.132035 0.376785
-0.035542 0.131929 0.376443
-0.033816 0.132139 0.377001
-0.031935 0.131735 0.375809
-0.030111 0.131534 0.375198
-0.028359 0.131637 0.375456
-0.026581 0.131634 0.375409
-0.024852 0.131882 0.376082
-0.023187 0.132540 0.377924
-0.021631 0.133984 0.382008
-0.019917 0.134619 0.383786
-0.018190 0.135291 0.385670
-0.016527 0.136636 0.389475
-0.014792 0.137661 0.392368
-0.012973 0.138072 0.393509
-0.011112 0.138115 0.393608
-0.009261 0.138319 0.394163
-0.007384 0.138140 0.393630
-0.005436 0.136066 0.387697
-0.003599 0.136078 0.387714
-0.001330 0.102699 0.292596
0.000057 0.102393 0.291712
0.001437 0.102213 0.291187
0.002814 0.102094 0.290838
0.004187 0.101947 0.290410
0.005545 0.101610 0.289441
0.006856 0.100696 0.286831
0.008199 0.100498 0.286261
0.009547 0.100392 0.285955
0.010833 0.099745 0.284108
0.012149 0.099495 0.283392
0.013439 0.099093 0.282247
0.014729 0.098768 0.281320
0.016027 0.098542 0.280677
0.017238 0.097857 0.278728
0.018471 0.097386 0.277388
0.019737 0.097144 0.276700
0.020969 0.096769 0.275636
0.022183 0.096365 0.274491
0.023376 0.095915 0.273215
0.024576 0.095543 0.272158
0.025710 0.094962 0.270510
0.026765 0.094158 0.268228
0.027878 0.093622 0.266706
0.029061 0.093357 0.265960
0.030147 0.092815 0.264423
0.031296 0.092503 0.263542
0.032397 0.092077 0.262338
0.033441 0.091527 0.260780
0.034472 0.090984 0.259239
0.035510 0.090492 0.257846
0.036554 0.090049 0.256594
0.037453 0.089291 0.254442
0.038231 0.088299 0.251622
0.039127 0.087631 0.249726
0.040069 0.087103 0.248230
0.041036 0.086657 0.246965
0.042022 0.086275 0.245883
0.042738 0.085374 0.243320
0.043687 0.084974 0.242185
0.044661 0.084642 0.241243
0.045678 0.084406 0.240573
0.046487 0.083805 0.238865
0.047227 0.083112 0.236891
0.047918 0.082368 0.234769
0.048934 0.082201 0.234293
0.049737 0.081694 0.232847
0.050434 0.081037 0.230970
0.051304 0.080682 0.229953
0.052096 0.080219 0.228629
0.052921 0.079826 0.227502
0.053792 0.079516 0.226609
0.054690 0.079257 0.225861
0.055349 0.078670 0.224173
0.055707 0.077684 0.221351
0.056374 0.077158 0.219835
0.057259 0.076943 0.219203
0.058059 0.076624 0.218275
0.058873 0.076334 0.217426
0.059657 0.076017 0.216497
0.060429 0.075694 0.215549
0.061147 0.075315 0.214441
0.061892 0.074983 0.213462
0.062627 0.074648 0.212472
0.063397 0.074365 0.211630
0.063855 0.073731 0.209784
0.064702 0.073558 0.209248
0.065217 0.073019 0.207668
0.065993 0.072784 0.206948
0.066823 0.072615 0.206413
0.067553 0.072343 0.205582
0.068199 0.071990 0.204518
0.068806 0.071606 0.203364
0.069474 0.071296 0.202416
0.070131 0.070983 0.201454
0.070909 0.070799 0.200856
0.071480 0.070416 0.199689
0.072092 0.070083 0.198660
0.073035 0.070076 0.198552
0.073503 0.069620 0.197164
0.074110 0.069304 0.196171
0.074859 0.069128 0.195570
0.075453 0.068815 0.194576
0.075856 0.068337 0.193111
0.076460 0.068050 0.192182
0.077095 0.067797 0.191344
0.077606 0.067441 0.190212
0.078121 0.067098 0.189109
0.078370 0.066537 0.187387
0.078844 0.066176 0.186225
0.079454 0.065937 0.185402
0.079899 0.065568 0.184206
0.080469 0.065309 0.183312
0.080791 0.064855 0.181869
0.081263 0.064530 0.180780
0.081958 0.064388 0.180197
0.082389 0.064044 0.179040
0.082706 0.063618 0.177652
0.083150 0.063298 0.176552
0.083708 0.063072 0.175704
0.084037 0.062677 0.174383
0.084391 0.062310 0.173131
0.084886 0.062053 0.172175
0.085280 0.061727 0.171024
0.085597 0.061353 0.169730
0.085890 0.060969 0.168402
0.086270 0.060654 0.167253
0.086680 0.060364 0.166169
0.087344 0.060256 0.165573
0.087964 0.060120 0.164889
0.088520 0.059942 0.164080
-0.992902 0.691818 1.895663
-0.962694 0.677023 1.858037
-0.947749 0.672786 1.849188
-0.939040 0.672938 1.852273
-0.931856 0.674197 1.858304
-0.923408 0.674557 1.861759
-0.915459 0.675292 1.866155
-0.908315 0.676643 1.872162
-0.906831 0.682280 1.889954
-0.909110 0.690890 1.915939
-0.912878 0.700820 1.945547
-0.910158 0.705922 1.961710
-0.899688 0.705057 1.961217
-0.891160 0.705713 1.964871
-0.811562 0.649505 1.809983
-0.803928 0.650302 1.813746
-0.802071 0.655842 1.830679
-0.787054 0.650623 1.817518
-0.782266 0.653840 1.827851
-0.877537 0.814860 2.289825
-0.849918 0.799068 2.246422
-0.833251 0.793304 2.231128
