ply
format ascii 1.0
element vertex 1688
property float x
property float y
property float z
end_header
-0.012123 -0.066086 0.231492
-0.011037 -0.066180 0.231797
-0.009955 -0.066327 0.232286
-0.008864 -0.066437 0.232647
-0.007788 -0.066714 0.233596
-0.006695 -0.066916 0.234283
-0.005582 -0.066950 0.234381
-0.004477 -0.067121 0.234961
-0.003366 -0.067288 0.235530
-0.002248 -0.067437 0.236041
-0.001126 -0.067629 0.236697
0.000002 -0.067774 0.237193
0.001136 -0.067972 0.237878
0.002280 -0.068280 0.238950
0.003448 -0.068852 0.240943
0.004608 -0.069017 0.241520
0.005768 -0.069119 0.241873
0.006946 -0.069361 0.242720
0.008119 -0.069495 0.243188
0.009296 -0.069623 0.243639
0.010487 -0.069819 0.244331
0.011669 -0.069917 0.244679
0.012857 -0.070034 0.245095
0.014058 -0.070194 0.245666
0.015255 -0.070310 0.246081
0.016478 -0.070520 0.246830
0.017712 -0.070749 0.247646
0.018942 -0.070931 0.248298
0.020140 -0.070981 0.248491
0.021349 -0.071059 0.248782
0.022583 -0.071210 0.249330
0.023827 -0.071377 0.249935
0.025117 -0.071657 0.250937
0.026373 -0.071818 0.251525
0.027595 -0.071877 0.251756
0.028831 -0.071967 0.252100
0.030081 -0.072082 0.252529
0.031314 -0.072148 0.252789
0.032562 -0.072245 0.253158
0.033819 -0.072352 0.253561
0.035085 -0.072471 0.254008
0.036292 -0.072464 0.254015
0.037551 -0.072560 0.254383
0.038812 -0.072650 0.254734
0.040019 -0.072639 0.254726
0.041256 -0.072680 0.254904
0.042480 -0.072697 0.254998
0.043697 -0.072702 0.255048
0.044847 -0.072597 0.254713
0.045998 -0.072499 0.254404
0.047183 -0.072458 0.254294
0.048320 -0.072348 0.253943
0.049328 -0.072054 0.252944
0.050203 -0.071585 0.251330
0.051057 -0.071109 0.249688
0.052054 -0.070849 0.248806
0.053207 -0.070808 0.248692
0.054325 -0.070723 0.248423
0.055291 -0.070447 0.247485
0.056306 -0.070244 0.246799
0.057345 -0.070079 0.246246
0.058374 -0.069909 0.245674
0.059337 -0.069668 0.244848
0.060307 -0.069444 0.244085
0.061311 -0.069267 0.243481
0.062242 -0.069015 0.242614
0.063343 -0.068958 0.242433
0.064334 -0.068785 0.241839
0.065254 -0.068543 0.241003
0.066346 -0.068487 0.240817
0.067288 -0.068281 0.240100
0.068161 -0.068013 0.239166
0.069049 -0.067769 0.238309
0.069801 -0.067400 0.237014
0.070585 -0.067074 0.235868
0.071402 -0.066790 0.234862
0.072192 -0.066489 0.233796
0.072840 -0.066067 0.232305
0.073544 -0.065710 0.231034
0.074051 -0.065188 0.229183
0.074757 -0.064855 0.227992
0.075328 -0.064415 0.226423
0.076165 -0.064213 0.225686
0.076479 -0.063581 0.223434
0.077044 -0.063172 0.221963
0.074372 -0.060156 0.211329
0.074681 -0.059599 0.209333
0.075223 -0.059241 0.208030
0.075783 -0.058906 0.206808
0.075989 -0.058307 0.204655
0.075809 -0.057432 0.201526
0.075481 -0.056468 0.198084
0.076225 -0.056319 0.197499
0.076565 -0.055880 0.195891
0.076668 -0.055279 0.193715
0.077087 -0.054919 0.192375
0.077046 -0.054243 0.189926
0.077501 -0.053928 0.188738
0.078016 -0.053661 0.187715
0.078671 -0.053496 0.187040
0.079338 -0.053342 0.186402
0.079963 -0.053164 0.185673
0.080630 -0.053017 0.185048
0.081375 -0.052925 0.184606
0.082091 -0.052815 0.184098
0.082848 -0.052734 0.183684
0.083633 -0.052673 0.183330
0.084422 -0.052614 0.182983
0.085190 -0.052545 0.182588
0.085932 -0.052461 0.182135
0.086739 -0.052417 0.181816
0.087554 -0.052379 0.181508
0.088345 -0.052329 0.181148
0.089055 -0.052230 0.180615
0.089731 -0.052115 0.180015
0.090585 -0.052104 0.179765
0.091218 -0.051967 0.179074
0.091959 -0.051894 0.178590
0.092722 -0.051834 0.178146
0.093344 -0.051698 0.177427
0.094009 -0.051587 0.176786
-1.474595 -0.778242 2.737106
-1.459610 -0.777243 2.737284
-1.448831 -0.778488 2.745201
-1.435553 -0.778402 2.748277
-1.425591 -0.780129 2.757613
-1.420180 -0.784403 2.775832
-1.412080 -0.787259 2.788922
-1.401132 -0.788568 2.796407
-1.397920 -0.794298 2.819463
-1.389680 -0.797254 2.832577
-1.377365 -0.797910 2.837400
-1.372949 -0.803200 2.858599
-1.369225 -0.809005 2.881548
-1.357123 -0.809928 2.887009
-1.362929 -0.894486 3.204887
-1.361941 -0.903855 3.239790
-1.359806 -0.912667 3.272629
-1.347325 -0.914658 3.280936
-1.337568 -0.918567 3.296043
-1.327304 -0.922215 3.310140
-1.316000 -0.925221 3.321852
-1.302855 -0.926989 3.329048
-1.289519 -0.928665 3.335835
-1.275947 -0.930209 3.342078
-1.265449 -0.934062 3.356547
-1.252368 -0.936083 3.364365
-0.041072 -0.065480 0.234296
-0.040001 -0.065542 0.234465
-0.037337 -0.062923 0.225047
-0.036462 -0.063255 0.226184
-0.035278 -0.063054 0.225417
-0.034273 -0.063170 0.225783
-0.033361 -0.063472 0.226811
-0.031340 -0.061613 0.220120
-0.030107 -0.061227 0.218695
-0.029184 -0.061469 0.219514
-0.028141 -0.061467 0.219460
-0.027196 -0.061685 0.220196
-0.026266 -0.061956 0.221119
-0.025383 -0.062367 0.222541
-0.024472 -0.062743 0.223842
-0.023451 -0.062856 0.224202
-0.022451 -0.063039 0.224813
-0.021459 -0.063264 0.225578
-0.020434 -0.063411 0.226063
-0.019407 -0.063570 0.226592
-0.018374 -0.063724 0.227104
-0.017369 -0.064002 0.228059
-0.016403 -0.064472 0.229697
-0.015343 -0.064612 0.230166
-0.014268 -0.064703 0.230457
-0.013211 -0.064903 0.231138
-0.012133 -0.065023 0.231538
-0.011058 -0.065186 0.232091
-0.009966 -0.065276 0.232385
-0.008885 -0.065465 0.233035
-0.007796 -0.065647 0.233659
-0.006697 -0.065786 0.234133
-0.005595 -0.065952 0.234705
-0.004483 -0.066054 0.235050
-0.003370 -0.066201 0.235559
-0.002254 -0.066403 0.236260
-0.001132 -0.066694 0.237284
-0.000001 -0.066823 0.237732
0.001135 -0.066934 0.238116
0.002278 -0.067163 0.238926
0.003429 -0.067376 0.239678
0.004592 -0.067669 0.240715
0.005751 -0.067794 0.241157
0.006922 -0.067997 0.241881
0.008094 -0.068149 0.242422
0.009284 -0.068394 0.243296
0.010466 -0.068538 0.243815
0.011656 -0.068692 0.244369
0.012854 -0.068867 0.244998
0.014052 -0.069007 0.245506
0.015258 -0.069166 0.246084
0.016493 -0.069421 0.247005
0.017739 -0.069687 0.247966
0.018981 -0.069905 0.248757
0.020203 -0.070025 0.249204
0.021428 -0.070143 0.249642
0.022661 -0.070272 0.250122
0.023872 -0.070326 0.250336
0.025129 -0.070503 0.250989
0.026386 -0.070663 0.251585
0.027626 -0.070766 0.251976
0.028843 -0.070803 0.252136
0.030092 -0.070913 0.252557
0.031334 -0.070999 0.252891
0.032583 -0.071092 0.253253
0.033840 -0.071195 0.253654
0.035116 -0.071331 0.254169
0.036404 -0.071481 0.254738
0.037640 -0.071522 0.254916
0.038914 -0.071631 0.255340
0.040201 -0.071757 0.255823
0.041428 -0.071771 0.255908
0.042636 -0.071751 0.255873
0.043854 -0.071750 0.255903
0.045041 -0.071700 0.255761
0.046177 -0.071572 0.255340
0.047326 -0.071469 0.255011
0.048497 -0.071405 0.254819
0.049487 -0.071086 0.253713
0.050348 -0.070598 0.252008
0.050986 -0.069830 0.249298
0.052112 -0.069749 0.249042
0.053235 -0.069667 0.248782
0.054250 -0.069450 0.248038
0.055295 -0.069281 0.247467
0.056283 -0.069048 0.246664
0.057332 -0.068898 0.246159
0.058354 -0.068723 0.245559
0.059351 -0.068525 0.244877
0.060352 -0.068339 0.244239
0.061316 -0.068120 0.243479
0.062318 -0.067950 0.242892
0.063309 -0.067773 0.242280
0.064326 -0.067632 0.241793
0.065328 -0.067479 0.241260
0.066308 -0.067309 0.240666
0.067275 -0.067132 0.240045
0.068162 -0.066882 0.239161
0.069071 -0.066661 0.238379
0.069906 -0.066378 0.237371
0.070696 -0.066061 0.236239
0.071558 -0.065821 0.235379
0.072283 -0.065464 0.234097
0.073038 -0.065144 0.232945
0.073550 -0.064621 0.231065
0.074335 -0.064349 0.230078
0.074625 -0.063662 0.227605
0.075192 -0.063229 0.226036
0.075808 -0.062848 0.224650
0.076111 -0.062221 0.222383
0.076930 -0.062028 0.221662
0.076420 -0.060783 0.217178
0.074463 -0.058436 0.208756
0.075177 -0.058219 0.207938
0.075182 -0.057466 0.205205
0.075704 -0.057122 0.203928
0.075738 -0.056423 0.201379
0.075782 -0.055749 0.198918
0.076248 -0.055398 0.197607
0.076525 -0.054920 0.195837
0.076644 -0.054342 0.193706
0.076951 -0.053909 0.192091
0.077234 -0.053470 0.190448
0.077587 -0.053089 0.189008
0.078122 -0.052839 0.188031
0.078751 -0.052659 0.187297
0.079332 -0.052450 0.186457
0.080023 -0.052318 0.185884
0.080678 -0.052166 0.185233
0.081346 -0.052025 0.184617
0.082074 -0.051925 0.184141
0.082756 -0.051798 0.183563
0.083617 -0.051785 0.183382
0.084464 -0.051764 0.183165
0.085187 -0.051668 0.182676
0.085966 -0.051607 0.182304
0.086735 -0.051542 0.181909
0.087418 -0.051427 0.181333
0.088267 -0.051412 0.181097
0.088912 -0.051278 0.180439
0.089617 -0.051182 0.179903
0.090386 -0.051123 0.179491
0.091048 -0.051007 0.178866
0.091729 -0.050902 0.178275
0.092564 -0.050884 0.177976
0.093275 -0.050799 0.177433
0.094080 -0.050766 0.177063
-1.489820 -0.772918 2.767345
-1.467530 -0.768183 2.754035
-1.450183 -0.765975 2.749590
-1.447326 -0.771451 2.772589
-1.428964 -0.768688 2.765843
-1.418047 -0.769917 2.773309
-1.412896 -0.774329 2.792127
-1.402778 -0.776079 2.801228
-1.390952 -0.776909 2.806890
-1.390617 -0.784236 2.835924
-1.378232 -0.784846 2.840569
-1.371332 -0.788622 2.856565
-1.365036 -0.792825 2.874017
-1.358061 -0.796716 2.890242
-1.355778 -0.874672 3.188940
-1.359641 -0.886994 3.235146
-1.355823 -0.894528 3.263829
-1.345547 -0.897927 3.277346
-1.338577 -0.903636 3.299222
-1.326220 -0.905801 3.308083
-1.314992 -0.908799 3.319908
-1.304642 -0.912484 3.334168
-1.292297 -0.914847 3.343528
-1.279397 -0.916870 3.351575
-1.266676 -0.919076 3.360219
-1.253461 -0.920974 3.367670
-0.040207 -0.063008 0.229276
-0.038568 -0.062118 0.225984
-0.037813 -0.062640 0.227832
-0.036668 -0.062527 0.227370
-0.035496 -0.062362 0.226716
-0.034790 -0.063030 0.229093
-0.032616 -0.060996 0.221652
-0.031225 -0.060340 0.219219
-0.030085 -0.060140 0.218445
-0.029174 -0.060400 0.219343
-0.028217 -0.060580 0.219951
-0.027256 -0.060768 0.220584
-0.026315 -0.061013 0.221429
-0.025452 -0.061470 0.223045
-0.024478 -0.061687 0.223788
-0.023521 -0.061966 0.224756
-0.022509 -0.062124 0.225286
-0.021488 -0.062269 0.225774
-0.020480 -0.062468 0.226453
-0.019454 -0.062634 0.227017
-0.018433 -0.062837 0.227714
-0.017443 -0.063176 0.228907
-0.016412 -0.063403 0.229695
-0.015357 -0.063563 0.230240
-0.014281 -0.063650 0.230523
-0.013215 -0.063806 0.231057
-0.012138 -0.063929 0.231475
-0.011058 -0.064064 0.231932
-0.009975 -0.064208 0.232428
-0.008880 -0.064302 0.232745
-0.007790 -0.064460 0.233294
-0.006699 -0.064663 0.234006
-0.005594 -0.064793 0.234459
-0.004486 -0.064935 0.234953
-0.003376 -0.065135 0.235660
-0.002258 -0.065306 0.236265
-0.001135 -0.065529 0.237060
-0.000004 -0.065834 0.238152
0.001134 -0.065890 0.238347
0.002275 -0.066007 0.238762
0.003425 -0.066219 0.239521
0.004596 -0.066618 0.240961
0.005755 -0.066731 0.241367
0.006925 -0.066906 0.242001
0.008101 -0.067079 0.242628
0.009271 -0.067165 0.242943
0.010461 -0.067362 0.243660
0.011651 -0.067518 0.244232
0.012871 -0.067800 0.245263
0.014069 -0.067932 0.245749
0.015281 -0.068104 0.246385
0.016506 -0.068307 0.247132
0.017736 -0.068504 0.247860
0.018945 -0.068598 0.248217
0.020165 -0.068718 0.248670
0.021370 -0.068775 0.248899
0.022576 -0.068832 0.249127
0.023795 -0.068918 0.249461
0.025021 -0.069016 0.249839
0.026347 -0.069368 0.251140
0.027613 -0.069539 0.251787
0.028854 -0.069636 0.252166
0.030106 -0.069747 0.252599
0.031374 -0.069890 0.253145
0.032646 -0.070026 0.253672
0.033904 -0.070127 0.254068
0.035232 -0.070358 0.254942
0.036519 -0.070496 0.255476
0.037747 -0.070514 0.255576
0.039003 -0.070582 0.255857
0.040270 -0.070666 0.256199
0.041499 -0.070679 0.256285
0.042715 -0.070669 0.256285
0.043929 -0.070658 0.256281
0.045124 -0.070617 0.256173
0.046291 -0.070535 0.255912
0.047484 -0.070497 0.255812
0.048618 -0.070374 0.255403
0.049649 -0.070112 0.254492
0.050363 -0.069426 0.252037
0.051191 -0.068924 0.250251
0.052183 -0.068662 0.249336
0.053341 -0.068625 0.249236
0.054436 -0.068510 0.248851
0.055426 -0.068270 0.248011
0.056370 -0.067985 0.247008
0.057358 -0.067763 0.246234
0.058471 -0.067695 0.246018
0.059369 -0.067386 0.244921
0.060402 -0.067239 0.244414
0.061441 -0.067104 0.243949
0.062387 -0.066874 0.243136
0.063474 -0.066800 0.242892
0.064476 -0.066642 0.242337
0.065530 -0.066542 0.241990
0.066514 -0.066375 0.241399
0.067386 -0.066105 0.240431
0.068206 -0.065792 0.239307
0.069059 -0.065522 0.238331
0.069896 -0.065245 0.237333
0.070658 -0.064908 0.236112
0.071437 -0.064598 0.234983
0.072363 -0.064427 0.234361
0.073089 -0.064086 0.233116
0.073744 -0.063694 0.231681
0.074015 -0.062987 0.229098
0.074764 -0.062701 0.228045
0.075112 -0.062092 0.225812
0.075571 -0.061590 0.223966
0.076472 -0.061458 0.223462
0.077098 -0.061111 0.222171
0.074118 -0.057954 0.210664
0.075211 -0.058023 0.210880
0.075815 -0.057719 0.209736
0.075315 -0.056592 0.205601
0.075043 -0.055664 0.202184
0.075146 -0.055034 0.199845
0.075650 -0.054709 0.198612
0.076252 -0.054463 0.197660
0.076517 -0.053985 0.195865
0.076995 -0.053667 0.194644
0.077369 -0.053284 0.193185
0.077893 -0.053013 0.192128
0.078048 -0.052500 0.190189
0.078439 -0.052156 0.188856
0.079054 -0.051966 0.188080
0.079590 -0.051729 0.187127
0.080194 -0.051542 0.186348
0.080599 -0.051232 0.185121
0.081233 -0.051072 0.184433
0.081915 -0.050947 0.183862
0.082731 -0.050906 0.183589
0.083448 -0.050806 0.183097
0.084310 -0.050795 0.182919
0.085147 -0.050769 0.182681
0.085825 -0.050650 0.182100
0.086609 -0.050595 0.181742
0.087296 -0.050486 0.181181
0.088117 -0.050455 0.180893
0.088813 -0.050354 0.180348
0.089488 -0.050243 0.179758
0.090207 -0.050159 0.179254
0.090976 -0.050103 0.178844
0.091566 -0.049951 0.178082
0.092199 -0.049825 0.177405
0.093053 -0.049820 0.177144
0.093620 -0.049662 0.176335
-1.490529 -0.759921 2.770571
-1.468251 -0.755277 2.757219
-1.447802 -0.751500 2.746833
-1.444504 -0.756639 2.768890
-1.428008 -0.754897 2.765634
-1.419735 -0.757510 2.778197
-1.412285 -0.760617 2.792454
-1.403047 -0.762812 2.803246
-1.396556 -0.766557 2.819630
-1.391486 -0.771163 2.839080
-1.382420 -0.773624 2.850531
-1.378750 -0.779183 2.873305
-1.370667 -0.782336 2.887112
-1.358632 -0.783274 2.892643
-1.373195 -0.870594 3.230741
-1.363372 -0.874052 3.244810
-1.353607 -0.877627 3.259233
-1.350175 -0.885438 3.289313
-1.336744 -0.886798 3.295352
-1.325838 -0.889885 3.307732
-1.316937 -0.894409 3.325376
-1.302855 -0.895480 3.330113
-1.291208 -0.898272 3.341175
-1.277503 -0.899685 3.347035
-1.265493 -0.902342 3.357455
-1.255949 -0.906847 3.374687
-0.040267 -0.062009 0.229537
-0.039140 -0.061946 0.229247
-0.037623 -0.061245 0.226599
-0.036893 -0.061822 0.228679
-0.036141 -0.062395 0.230746
-0.034157 -0.060811 0.224838
-0.032354 -0.059456 0.219777
-0.031005 -0.058876 0.217583
-0.030068 -0.059064 0.218228
-0.029214 -0.059434 0.219546
-0.028231 -0.059559 0.219962
-0.027293 -0.059793 0.220779
-0.026338 -0.060006 0.221519
-0.025425 -0.060338 0.222696
-0.024568 -0.060838 0.224497
-0.023568 -0.061013 0.225098
-0.022562 -0.061188 0.225702
-0.021525 -0.061291 0.226038
-0.020528 -0.061526 0.226865
-0.019493 -0.061669 0.227352
-0.018447 -0.061789 0.227757
-0.017458 -0.062129 0.228973
-0.016425 -0.062346 0.229736
-0.015361 -0.062468 0.230151
-0.014291 -0.062584 0.230547
-0.013223 -0.062732 0.231059
-0.012138 -0.062813 0.231326
-0.011058 -0.062941 0.231771
-0.009971 -0.063056 0.232168
-0.008883 -0.063188 0.232627
-0.007802 -0.063419 0.233456
-0.006703 -0.063564 0.233968
-0.005603 -0.063747 0.234620
-0.004491 -0.063846 0.234969
-0.003378 -0.063995 0.235500
-0.002261 -0.064192 0.236208
-0.001144 -0.064783 0.238372
-0.000006 -0.064839 0.238568
0.001133 -0.064868 0.238664
0.002278 -0.065038 0.239282
0.003428 -0.065180 0.239801
0.004591 -0.065440 0.240751
0.005763 -0.065694 0.241683
0.006925 -0.065771 0.241970
0.008099 -0.065926 0.242540
0.009272 -0.066027 0.242917
0.010457 -0.066188 0.243512
0.011644 -0.066328 0.244035
0.012859 -0.066582 0.244979
0.014077 -0.066810 0.245830
0.015280 -0.066937 0.246311
0.016492 -0.067084 0.246866
0.017713 -0.067245 0.247476
0.018943 -0.067415 0.248117
0.020162 -0.067531 0.248567
0.021369 -0.067595 0.248823
0.022583 -0.067671 0.249125
0.023797 -0.067742 0.249411
0.025028 -0.067851 0.249839
0.026347 -0.068178 0.251067
0.027641 -0.068415 0.251971
0.028891 -0.068529 0.252418
0.030156 -0.068665 0.252951
0.031423 -0.068796 0.253468
0.032722 -0.068985 0.254196
0.033962 -0.069041 0.254436
0.035269 -0.069223 0.255144
0.036537 -0.069319 0.255534
0.037795 -0.069391 0.255836
0.039045 -0.069444 0.256068
0.040291 -0.069487 0.256265
0.041574 -0.069590 0.256683
0.042769 -0.069543 0.256550
0.044000 -0.069555 0.256632
0.045235 -0.069572 0.256738
0.046394 -0.069477 0.256426
0.047604 -0.069459 0.256401
0.048773 -0.069384 0.256162
0.049778 -0.069084 0.255096
0.050463 -0.068367 0.252486
0.051263 -0.067833 0.250553
0.052229 -0.067539 0.249505
0.053350 -0.067455 0.249229
0.054406 -0.067293 0.248669
0.055376 -0.067034 0.247747
0.056368 -0.066813 0.246962
0.057366 -0.066606 0.246232
0.058410 -0.066461 0.245728
0.059408 -0.066270 0.245052
0.060424 -0.066105 0.244472
0.061440 -0.065947 0.243915
0.062440 -0.065778 0.243315
0.063429 -0.065604 0.242697
0.064449 -0.065467 0.242215
0.065440 -0.065306 0.241638
0.066425 -0.065145 0.241063
0.067312 -0.064895 0.240153
0.068101 -0.064560 0.238927
0.069039 -0.064375 0.238254
0.069723 -0.063963 0.236740
0.070486 -0.063636 0.235534
0.071357 -0.063413 0.234716
0.072200 -0.063174 0.233832
0.072956 -0.062867 0.232694
0.073346 -0.062259 0.230439
0.073818 -0.061737 0.228498
0.074540 -0.061436 0.227373
0.075280 -0.061159 0.226333
0.075769 -0.060688 0.224572
0.075798 -0.059867 0.221512
0.073687 -0.057401 0.212363
0.074022 -0.056882 0.210414
0.074732 -0.056661 0.209565
0.075448 -0.056450 0.208751
0.075756 -0.055943 0.206836
0.075268 -0.054869 0.202822
0.075562 -0.054385 0.200987
0.075782 -0.053861 0.198999
0.076207 -0.053493 0.197587
0.076285 -0.052894 0.195315
0.076849 -0.052642 0.194321
0.077190 -0.052245 0.192787
0.077595 -0.051900 0.191443
0.078047 -0.051595 0.190240
0.078518 -0.051309 0.189103
0.079173 -0.051148 0.188423
0.079763 -0.050949 0.187598
0.080213 -0.050666 0.186459
0.080770 -0.050456 0.185582
0.081446 -0.050324 0.184989
0.082181 -0.050231 0.184532
0.082932 -0.050150 0.184113
0.083626 -0.050036 0.183566
0.084430 -0.049990 0.183261
0.085167 -0.049906 0.182810
0.085760 -0.049739 0.182052
0.086460 -0.049638 0.181525
0.087223 -0.049574 0.181128
0.087962 -0.049498 0.180677
0.088645 -0.049392 0.180110
0.089320 -0.049284 0.179528
0.090106 -0.049239 0.179165
0.090811 -0.049151 0.178637
0.091550 -0.049082 0.178171
0.092106 -0.048918 0.177350
0.092959 -0.048912 0.177095
0.093750 -0.048875 0.176714
-1.491235 -0.746911 2.773727
-1.465336 -0.740523 2.753509
-1.453281 -0.741079 2.758929
-1.449553 -0.745932 2.780220
-1.437048 -0.746316 2.784733
-1.423985 -0.746417 2.788046
-1.414495 -0.748410 2.798302
-1.407338 -0.751689 2.813248
-1.399055 -0.754424 2.826052
-1.390578 -0.757107 2.838556
-1.385881 -0.761921 2.858950
-1.390539 -0.772026 2.899119
-1.378430 -0.772930 2.904656
-1.359562 -0.770025 2.895761
-1.375883 -0.856956 3.237854
-1.362064 -0.857854 3.242437
-1.360438 -0.866541 3.276380
-1.351369 -0.870633 3.292877
-1.341096 -0.874036 3.306691
-1.330150 -0.877075 3.319053
-1.320314 -0.880928 3.334421
-1.307248 -0.882693 3.341813
-1.293995 -0.884375 3.348814
-1.283237 -0.887825 3.362442
-1.268416 -0.888516 3.365550
-1.257166 -0.891757 3.378253
-1.251888 -0.899373 3.407464
-1.237548 -0.900592 3.412377
-0.039320 -0.056437 0.212684
-0.037943 -0.055892 0.210578
-0.036981 -0.055945 0.210728
-0.040103 -0.062351 0.234800
-0.039027 -0.062410 0.234965
-0.037683 -0.062032 0.233482
-0.036609 -0.062088 0.233638
-0.032982 -0.057682 0.217007
-0.031846 -0.057492 0.216240
-0.031021 -0.057866 0.217598
-0.030113 -0.058107 0.218453
-0.029235 -0.058426 0.219602
-0.028299 -0.058648 0.220389
-0.027337 -0.058832 0.221030
-0.026360 -0.058996 0.221599
-0.025403 -0.059221 0.222395
-0.024530 -0.059671 0.224039
-0.023586 -0.059979 0.225153
-0.022587 -0.060173 0.225836
-0.021566 -0.060324 0.226358
-0.020533 -0.060453 0.226800
-0.019495 -0.060583 0.227250
-0.018472 -0.060779 0.227943
-0.017442 -0.060972 0.228630
-0.016447 -0.061323 0.229909
-0.015393 -0.061489 0.230495
-0.014292 -0.061480 0.230428
-0.013233 -0.061665 0.231089
-0.012153 -0.061774 0.231469
-0.011077 -0.061927 0.232014
-0.009994 -0.062077 0.232546
-0.008906 -0.062226 0.233078
-0.007818 -0.062415 0.233763
-0.006717 -0.062547 0.234235
-0.005612 -0.062692 0.234760
-0.004499 -0.062798 0.235138
-0.003386 -0.062966 0.235750
-0.002266 -0.063119 0.236306
-0.001142 -0.063365 0.237217
-0.000009 -0.063540 0.237860
0.001130 -0.063720 0.238524
0.002273 -0.063824 0.238905
0.003424 -0.064020 0.239634
0.004581 -0.064192 0.240276
0.005745 -0.064372 0.240949
0.006916 -0.064560 0.241653
0.008085 -0.064675 0.242083
0.009266 -0.064847 0.242732
0.010455 -0.065032 0.243432
0.011641 -0.065159 0.243914
0.012857 -0.065419 0.244898
0.014058 -0.065561 0.245443
0.015298 -0.065854 0.246552
0.016504 -0.065966 0.246986
0.017723 -0.066111 0.247548
0.018944 -0.066246 0.248072
0.020166 -0.066367 0.248546
0.021393 -0.066490 0.249027
0.022629 -0.066627 0.249563
0.023837 -0.066672 0.249758
0.025080 -0.066806 0.250286
0.026338 -0.066966 0.250913
0.027599 -0.067119 0.251519
0.028861 -0.067261 0.252079
0.030141 -0.067432 0.252755
0.031440 -0.067630 0.253528
0.032724 -0.067782 0.254135
0.033996 -0.067901 0.254614
0.035271 -0.068016 0.255083
0.036602 -0.068229 0.255921
0.037822 -0.068227 0.255951
0.039064 -0.068263 0.256127
0.040375 -0.068413 0.256731
0.041604 -0.068421 0.256800
0.042832 -0.068426 0.256859
0.044088 -0.068475 0.257085
0.045294 -0.068444 0.257013
0.046501 -0.068418 0.256955
0.047660 -0.068323 0.256642
0.048842 -0.068266 0.256467
0.049897 -0.068037 0.255650
0.050595 -0.067345 0.253091
0.051327 -0.066729 0.250816
0.052312 -0.066463 0.249854
0.053436 -0.066380 0.249584
0.054498 -0.066227 0.249046
0.055463 -0.065964 0.248093
0.056348 -0.065619 0.246833
0.057359 -0.065431 0.246163
0.058395 -0.065280 0.245628
0.059407 -0.065108 0.245012
0.060417 -0.064940 0.244412
0.061461 -0.064814 0.243969
0.062518 -0.064707 0.243594
0.063471 -0.064497 0.242830
0.064502 -0.064373 0.242390
0.065584 -0.064303 0.242151
0.066429 -0.064007 0.241058
0.067329 -0.063774 0.240198
0.067995 -0.063329 0.238540
0.068730 -0.062964 0.237177
0.069652 -0.062778 0.236490
0.070491 -0.062524 0.235542
0.071228 -0.062190 0.234290
0.072071 -0.061956 0.233414
0.072753 -0.061594 0.232051
0.073379 -0.061196 0.230548
0.074004 -0.060808 0.229080
0.074638 -0.060439 0.227681
0.075295 -0.060099 0.226388
0.075251 -0.059217 0.223050
0.075366 -0.058482 0.220266
0.074343 -0.056897 0.214274
0.074637 -0.056349 0.212185
0.074993 -0.055862 0.210320
0.075467 -0.055474 0.208829
0.075373 -0.054684 0.205819
0.075656 -0.054185 0.203900
0.075716 -0.053541 0.201431
0.076009 -0.053075 0.199631
0.076523 -0.052773 0.198445
0.076550 -0.052147 0.196033
0.076612 -0.051559 0.193765
0.077251 -0.051370 0.192986
0.077579 -0.050980 0.191453
0.078054 -0.050695 0.190308
0.078624 -0.050477 0.189411
0.079303 -0.050333 0.188788
0.079884 -0.050132 0.187942
0.080469 -0.049936 0.187116
0.081106 -0.049777 0.186419
0.081773 -0.049641 0.185800
0.082522 -0.049555 0.185369
0.083198 -0.049429 0.184778
0.083792 -0.049257 0.184009
0.084482 -0.049144 0.183456
0.085201 -0.049050 0.182967
0.085882 -0.048937 0.182397
0.086414 -0.048742 0.181518
0.087091 -0.048631 0.180946
0.087818 -0.048551 0.180479
0.088425 -0.048406 0.179764
0.088987 -0.048240 0.178963
0.089617 -0.048113 0.178301
0.090328 -0.048032 0.177798
0.090931 -0.047895 0.177082
0.091716 -0.047856 0.176719
0.092444 -0.047788 0.176237
0.093230 -0.047752 0.175862
-1.495252 -0.735518 2.782983
-1.476218 -0.732669 2.775671
-1.466956 -0.734664 2.786548
-1.454676 -0.735170 2.791643
-1.445013 -0.737021 2.801710
-1.430838 -0.736584 2.802946
-1.421354 -0.738579 2.813301
-1.411802 -0.740576 2.823551
-1.404851 -0.743990 2.839090
-1.395104 -0.745975 2.849073
-1.386569 -0.748655 2.861600
-1.385290 -0.755344 2.889365
-1.366464 -0.752505 2.880576
-1.360488 -0.756757 2.898823
-1.380598 -0.844498 3.249697
-1.367761 -0.846021 3.256701
-1.358498 -0.849815 3.272365
-1.351285 -0.854993 3.293286
-1.337043 -0.855793 3.297263
-1.325979 -0.858672 3.309169
-1.313996 -0.861016 3.318943
-1.303088 -0.864131 3.331613
-1.289557 -0.865562 3.337718
-1.279653 -0.869493 3.353396
-1.267400 -0.871907 3.363154
-1.252070 -0.872239 3.364817
-1.243025 -0.877015 3.383555
-1.227856 -0.877539 3.385826
-0.040344 -0.055448 0.212752
-0.039378 -0.055505 0.212918
-0.037963 -0.054917 0.210609
-0.036271 -0.053887 0.206605
-0.036562 -0.055827 0.213989
-0.039086 -0.061383 0.235226
-0.035168 -0.056852 0.217811
-0.033869 -0.056410 0.216065
-0.032922 -0.056545 0.216529
-0.032058 -0.056834 0.217582
-0.031081 -0.056937 0.217924
-0.030262 -0.057346 0.219437
-0.029360 -0.057624 0.220447
-0.028374 -0.057747 0.220869
-0.027432 -0.057976 0.221695
-0.026444 -0.058121 0.222201
-0.025469 -0.058307 0.222864
-0.024516 -0.058564 0.223797
-0.023513 -0.058720 0.224347
-0.022564 -0.059030 0.225489
-0.021509 -0.059080 0.225634
-0.020676 -0.059777 0.228255
-0.019534 -0.059610 0.227573
-0.018528 -0.059863 0.228499
-0.017521 -0.060144 0.229534
-0.016241 -0.059465 0.226905
-0.015375 -0.060308 0.230087
-0.014308 -0.060438 0.230546
-0.013218 -0.060479 0.230669
-0.012150 -0.060643 0.231264
-0.011067 -0.060752 0.231651
-0.009989 -0.060919 0.232262
-0.008911 -0.061129 0.233034
-0.007824 -0.061322 0.233747
-0.006719 -0.061424 0.234111
-0.005615 -0.061581 0.234690
-0.004505 -0.061724 0.235218
-0.003390 -0.061865 0.235739
-0.002271 -0.062068 0.236497
-0.001144 -0.062215 0.237041
-0.000012 -0.062366 0.237606
0.001127 -0.062572 0.238382
0.002270 -0.062683 0.238800
0.003418 -0.062812 0.239285
0.004572 -0.062952 0.239816
0.005746 -0.063264 0.241003
0.006910 -0.063372 0.241414
0.008087 -0.063559 0.242130
0.009270 -0.063736 0.242809
0.010463 -0.063934 0.243568
0.011647 -0.064041 0.243984
0.012849 -0.064219 0.244675
0.014064 -0.064431 0.245493
0.015262 -0.064535 0.245906
0.016464 -0.064637 0.246311
0.017686 -0.064805 0.246966
0.018894 -0.064899 0.247345
0.020115 -0.065025 0.247847
0.021359 -0.065208 0.248567
0.022584 -0.065313 0.248994
0.023817 -0.065432 0.249471
0.025046 -0.065530 0.249872
0.026310 -0.065704 0.250568
0.027582 -0.065884 0.251285
0.028900 -0.066154 0.252345
0.030165 -0.066285 0.252880
0.031461 -0.066472 0.253628
0.032750 -0.066629 0.254264
0.034013 -0.066727 0.254673
0.035318 -0.066894 0.255351
0.036631 -0.067066 0.256045
0.037910 -0.067168 0.256475
0.039134 -0.067167 0.256512
0.040417 -0.067265 0.256928
0.041695 -0.067350 0.257295
0.042923 -0.067350 0.257338
0.044139 -0.067333 0.257318
0.045400 -0.067382 0.257549
0.046590 -0.067327 0.257381
0.047753 -0.067237 0.257083
0.048948 -0.067195 0.256964
0.050055 -0.067037 0.256406
0.051021 -0.066702 0.255169
0.051628 -0.065924 0.252233
0.052310 -0.065276 0.249795
0.053277 -0.065003 0.248792
0.054406 -0.064936 0.248578
0.055465 -0.064789 0.248055
0.056415 -0.064525 0.247082
0.057437 -0.064352 0.246457
0.058484 -0.064213 0.245960
0.059429 -0.063970 0.245068
0.060523 -0.063894 0.244808
0.061496 -0.063694 0.244075
0.062513 -0.063547 0.243544
0.063509 -0.063385 0.242951
0.064451 -0.063175 0.242174
0.065485 -0.063061 0.241763
0.066399 -0.062837 0.240928
0.067163 -0.062482 0.239588
0.067827 -0.062047 0.237938
0.068732 -0.061842 0.237171
0.069618 -0.061628 0.236365
0.070387 -0.061318 0.235187
0.071199 -0.061055 0.234188
0.071953 -0.060751 0.233028
0.072716 -0.060464 0.231930
0.073527 -0.060225 0.231014
0.073938 -0.059670 0.228882
0.074604 -0.059333 0.227586
0.075339 -0.059061 0.226530
0.075737 -0.058535 0.224503
0.075293 -0.057383 0.220066
0.074248 -0.055810 0.214017
0.074570 -0.055294 0.212014
0.075149 -0.054979 0.210782
0.075806 -0.054729 0.209791
0.075475 -0.053781 0.206124
0.075368 -0.053015 0.203152
0.075358 -0.052337 0.200511
0.075868 -0.052031 0.199294
0.076003 -0.051479 0.197131
0.076314 -0.051058 0.195467
0.076940 -0.050856 0.194635
0.077422 -0.050564 0.193456
0.077936 -0.050301 0.192381
0.078323 -0.049961 0.191012
0.078850 -0.049718 0.190006
0.079523 -0.049572 0.189366
0.080097 -0.049368 0.188498
0.080697 -0.049184 0.187704
0.081328 -0.049023 0.186993
0.081977 -0.048876 0.186330
0.082628 -0.048733 0.185675
0.083243 -0.048573 0.184949
0.083713 -0.048332 0.183909
0.084400 -0.048220 0.183354
0.085080 -0.048107 0.182787
0.085584 -0.047897 0.181849
0.086256 -0.047784 0.181273
0.086877 -0.047646 0.180592
0.087450 -0.047484 0.179815
0.088120 -0.047378 0.179241
0.088746 -0.047250 0.178578
0.089351 -0.047114 0.177876
0.090121 -0.047067 0.177499
0.090692 -0.046917 0.176728
0.091345 -0.046812 0.176119
0.092173 -0.046798 0.175841
0.092767 -0.046666 0.175111
-1.495960 -0.722457 2.786022
-1.486348 -0.724254 2.796381
-1.467700 -0.721641 2.789558
-1.462954 -0.725879 2.809075
-1.451198 -0.726687 2.815192
-1.437400 -0.726478 2.817236
-1.425709 -0.727341 2.823302
-1.416047 -0.729266 2.833369
-1.405970 -0.731013 2.842631
-1.397693 -0.733740 2.855592
-1.384826 -0.734087 2.859183
-1.379784 -0.738631 2.879016
-1.375816 -0.743847 2.901384
-1.406647 -0.835492 3.274243
-1.393069 -0.836595 3.279763
-1.371242 -0.832714 3.265651
-1.360625 -0.835631 3.278104
-1.350600 -0.838983 3.292187
-1.337358 -0.840392 3.298567
-1.325169 -0.842504 3.307630
-1.313605 -0.845070 3.318395
-1.300918 -0.846966 3.326463
-1.289401 -0.849680 3.337667
-1.278092 -0.852601 3.349615
-1.265673 -0.854846 3.358840
-1.254182 -0.857783 3.370718
-1.240050 -0.858966 3.375642
-1.231666 -0.864214 3.396474
-0.040316 -0.054397 0.212526
-0.038779 -0.053663 0.209605
-0.037735 -0.053591 0.209270
-0.036753 -0.053605 0.209270
-0.035809 -0.053678 0.209501
-0.035831 -0.055243 0.215553
-0.034607 -0.054924 0.214253
-0.033986 -0.055571 0.216723
-0.033015 -0.055669 0.217048
-0.032085 -0.055843 0.217674
-0.031127 -0.055980 0.218155
-0.030241 -0.056259 0.219189
-0.029331 -0.056514 0.220129
-0.028374 -0.056693 0.220774
-0.027439 -0.056930 0.221646
-0.026475 -0.057124 0.222350
-0.025488 -0.057283 0.222921
-0.024533 -0.057532 0.223841
-0.023561 -0.057762 0.224689
-0.022562 -0.057943 0.225348
-0.021555 -0.058121 0.225995
-0.020521 -0.058243 0.226423
-0.019499 -0.058413 0.227044
-0.018452 -0.058524 0.227432
-0.017418 -0.058695 0.228059
-0.016425 -0.059034 0.229337
-0.015351 -0.059108 0.229587
-0.014276 -0.059193 0.229882
-0.013214 -0.059348 0.230452
-0.012133 -0.059440 0.230778
-0.011049 -0.059537 0.231123
-0.009980 -0.059741 0.231890
-0.008904 -0.059953 0.232684
-0.007826 -0.060207 0.233646
-0.006727 -0.060353 0.234190
-0.005620 -0.060478 0.234654
-0.004509 -0.060613 0.235158
-0.003396 -0.060802 0.235874
-0.002276 -0.061002 0.236635
-0.001149 -0.061193 0.237364
-0.000015 -0.061442 0.238316
0.001126 -0.061519 0.238609
0.002271 -0.061629 0.239029
0.003422 -0.061785 0.239628
0.004577 -0.061913 0.240121
0.005744 -0.062115 0.240905
0.006918 -0.062320 0.241700
0.008095 -0.062481 0.242328
0.009276 -0.062634 0.242925
0.010453 -0.062725 0.243284
0.011634 -0.062820 0.243664
0.012817 -0.062910 0.244021
0.014020 -0.063071 0.244661
0.015250 -0.063321 0.245645
0.016434 -0.063358 0.245803
0.017664 -0.063555 0.246589
0.018877 -0.063670 0.247052
0.020108 -0.063827 0.247686
0.021365 -0.064046 0.248559
0.022571 -0.064097 0.248781
0.023825 -0.064271 0.249484
0.025048 -0.064349 0.249816
0.026315 -0.064529 0.250545
0.027595 -0.064722 0.251327
0.028843 -0.064828 0.251773
0.030163 -0.065079 0.252784
0.031450 -0.065245 0.253465
0.032745 -0.065413 0.254155
0.034056 -0.065598 0.254913
0.035313 -0.065673 0.255244
0.036556 -0.065716 0.255451
0.037831 -0.065813 0.255868
0.039130 -0.065942 0.256416
0.040435 -0.066074 0.256972
0.041716 -0.066161 0.257352
0.042963 -0.066190 0.257509
0.044187 -0.066182 0.257527
0.045452 -0.066236 0.257780
0.046674 -0.066225 0.257782
0.047833 -0.066127 0.257449
0.049050 -0.066113 0.257438
0.050198 -0.066008 0.257078
0.051274 -0.065815 0.256372
0.052011 -0.065208 0.254049
0.052721 -0.064594 0.251704
0.053599 -0.064208 0.250244
0.054400 -0.063750 0.248502
0.055497 -0.063651 0.248156
0.056543 -0.063497 0.247597
0.057570 -0.063330 0.246986
0.058540 -0.063108 0.246158
0.059581 -0.062969 0.245654
0.060565 -0.062777 0.244941
0.061566 -0.062609 0.244321
0.062594 -0.062474 0.243826
0.063360 -0.062088 0.242352
0.064367 -0.061946 0.241828
0.065324 -0.061764 0.241144
0.066134 -0.061449 0.239943
0.067046 -0.061240 0.239149
0.067853 -0.060943 0.238011
0.068630 -0.060629 0.236806
0.069608 -0.060499 0.236316
0.070291 -0.060122 0.234856
0.071191 -0.059939 0.234155
0.072014 -0.059698 0.233221
0.072860 -0.059484 0.232389
0.073434 -0.059056 0.230721
0.073758 -0.058443 0.228326
0.074341 -0.058050 0.226788
0.075183 -0.057868 0.226068
0.075864 -0.057569 0.224890
0.076147 -0.056979 0.222574
0.074282 -0.054822 0.214130
0.074910 -0.054537 0.212997
0.074965 -0.053848 0.210283
0.075304 -0.053378 0.208423
0.075237 -0.052637 0.205499
0.074844 -0.051690 0.201767
0.075424 -0.051431 0.200716
0.075721 -0.050987 0.198940
0.075917 -0.050486 0.196941
0.076307 -0.050126 0.195487
0.076777 -0.049826 0.194261
0.077182 -0.049492 0.192898
0.077756 -0.049272 0.191979
0.078363 -0.049078 0.191155
0.078908 -0.048851 0.190196
0.079495 -0.048654 0.189350
0.080177 -0.048519 0.188740
0.080709 -0.048297 0.187790
0.081281 -0.048104 0.186943
0.081881 -0.047932 0.186173
0.082541 -0.047797 0.185544
0.083058 -0.047584 0.184604
0.083576 -0.047376 0.183678
0.084001 -0.047120 0.182561
0.084657 -0.046998 0.181955
0.085244 -0.046840 0.181206
0.085781 -0.046658 0.180357
0.086475 -0.046564 0.179842
0.087173 -0.046474 0.179334
0.087872 -0.046386 0.178830
0.088509 -0.046268 0.178198
0.089201 -0.046180 0.177675
0.089913 -0.046104 0.177191
0.090638 -0.046037 0.176729
0.091201 -0.045889 0.175952
0.092003 -0.045863 0.175631
0.092953 -0.045910 0.175581
-1.506008 -0.713811 2.806405
-1.488688 -0.711931 2.802389
-1.475859 -0.712185 2.806613
-1.464596 -0.713207 2.813721
-1.453333 -0.714249 2.820772
-1.443232 -0.715887 2.830051
-1.427745 -0.714861 2.828663
-1.417711 -0.716572 2.837979
-1.405845 -0.717381 2.843606
-1.396017 -0.719257 2.853348
-1.386395 -0.721278 2.863555
-1.373695 -0.721722 2.867396
-1.372216 -0.728130 2.894837
-1.373660 -0.800753 3.198160
-1.380811 -0.813840 3.251570
-1.373244 -0.818449 3.271040
-1.361418 -0.820596 3.280593
-1.348813 -0.822318 3.288365
-1.338116 -0.825258 3.300929
-1.325321 -0.826958 3.308457
-1.313648 -0.829408 3.318908
-1.303761 -0.833058 3.334094
-1.288969 -0.833625 3.336867
-1.279682 -0.837812 3.354059
-1.269171 -0.841293 3.368360
-1.255086 -0.842463 3.373341
-1.242166 -0.844455 3.381552
-1.232861 -0.848989 3.399879
-0.039616 -0.052459 0.208766
-0.038477 -0.052255 0.207897
-0.037826 -0.052722 0.209698
-0.036985 -0.052940 0.210512
-0.036040 -0.053018 0.210766
-0.035351 -0.053490 0.212583
-0.034830 -0.054249 0.215543
-0.033907 -0.054411 0.216130
-0.032916 -0.054469 0.216305
-0.032032 -0.054713 0.217221
-0.031110 -0.054908 0.217940
-0.030205 -0.055146 0.218830
-0.029319 -0.055438 0.219935
-0.028418 -0.055722 0.221008
-0.027475 -0.055943 0.221833
-0.026512 -0.056139 0.222559
-0.025519 -0.056285 0.223087
-0.024559 -0.056521 0.223972
-0.023576 -0.056722 0.224718
-0.022552 -0.056838 0.225131
-0.021587 -0.057124 0.226218
-0.020522 -0.057160 0.226316
-0.019495 -0.057312 0.226877
-0.018473 -0.057496 0.227564
-0.017416 -0.057591 0.227898
-0.016390 -0.057806 0.228710
-0.015343 -0.057972 0.229330
-0.014290 -0.058144 0.229973
-0.013226 -0.058289 0.230513
-0.012150 -0.058408 0.230950
-0.011076 -0.058561 0.231528
-0.009997 -0.058716 0.232110
-0.008920 -0.058928 0.232920
-0.007829 -0.059089 0.233535
-0.006728 -0.059224 0.234045
-0.005624 -0.059377 0.234627
-0.004510 -0.059470 0.234976
-0.003396 -0.059640 0.235629
-0.002276 -0.059807 0.236273
-0.001149 -0.059950 0.236826
-0.000017 -0.060095 0.237389
0.001122 -0.060300 0.238189
0.002270 -0.060529 0.239084
0.003421 -0.060661 0.239604
0.004578 -0.060809 0.240185
0.005739 -0.060944 0.240717
0.006910 -0.061118 0.241404
0.008100 -0.061380 0.242444
0.009286 -0.061554 0.243135
0.010465 -0.061647 0.243509
0.011636 -0.061680 0.243649
0.012832 -0.061828 0.244248
0.014022 -0.061924 0.244640
0.015232 -0.062084 0.245286
0.016456 -0.062276 0.246061
0.017648 -0.062330 0.246297
0.018880 -0.062505 0.247010
0.020118 -0.062683 0.247736
0.021347 -0.062814 0.248276
0.022587 -0.062961 0.248884
0.023829 -0.063096 0.249448
0.025083 -0.063251 0.250091
0.026327 -0.063368 0.250583
0.027588 -0.063512 0.251185
0.028836 -0.063617 0.251637
0.030130 -0.063809 0.252432
0.031417 -0.063972 0.253115
0.032764 -0.064243 0.254224
0.034057 -0.064391 0.254850
0.035322 -0.064476 0.255227
0.036592 -0.064566 0.255626
0.037841 -0.064614 0.255863
0.039075 -0.064633 0.255980
0.040433 -0.064851 0.256889
0.041729 -0.064958 0.257361
0.042940 -0.064932 0.257301
0.044211 -0.064995 0.257598
0.045511 -0.065096 0.258045
0.046718 -0.065062 0.257962
0.047897 -0.064992 0.257731
0.049153 -0.065027 0.257917
0.050326 -0.064952 0.257668
0.051462 -0.064836 0.257255
0.052365 -0.064438 0.255722
0.053017 -0.063756 0.253062
0.053481 -0.062882 0.249640
0.054473 -0.062655 0.248784
0.055555 -0.062538 0.248363
0.056580 -0.062364 0.247713
0.057522 -0.062107 0.246735
0.058505 -0.061903 0.245968
0.059568 -0.061791 0.245561
0.060507 -0.061557 0.244669
0.061428 -0.061313 0.243737
0.062476 -0.061203 0.243336
0.063388 -0.060965 0.242426
0.064355 -0.060789 0.241755
0.065243 -0.060545 0.240817
0.066222 -0.060393 0.240239
0.067104 -0.060159 0.239334
0.068055 -0.059993 0.238700
0.068787 -0.059643 0.237328
0.069650 -0.059416 0.236446
0.070313 -0.059028 0.234919
0.071169 -0.058812 0.234071
0.072052 -0.058625 0.233339
0.072882 -0.058400 0.232452
0.073332 -0.057883 0.230399
0.074066 -0.057601 0.229279
0.074445 -0.057056 0.227109
0.075010 -0.056666 0.225554
0.073408 -0.054674 0.217617
0.074177 -0.054478 0.216828
0.074688 -0.054101 0.215311
0.074893 -0.053515 0.212964
0.074841 -0.052764 0.209953
0.075716 -0.052677 0.209583
0.075241 -0.051666 0.205531
0.075556 -0.051216 0.203710
0.074975 -0.050178 0.199546
0.075419 -0.049844 0.198176
0.075611 -0.049352 0.196179
0.076170 -0.049110 0.195167
0.076550 -0.048759 0.193723
0.077101 -0.048525 0.192735
0.077675 -0.048310 0.191819
0.078260 -0.048107 0.190949
0.078919 -0.047953 0.190268
0.079591 -0.047811 0.189627
0.080229 -0.047652 0.188914
0.080831 -0.047475 0.188127
0.081430 -0.047300 0.187342
0.081994 -0.047109 0.186488
0.082537 -0.046911 0.185598
0.083099 -0.046727 0.184761
0.083507 -0.046461 0.183595
0.083970 -0.046231 0.182563
0.084540 -0.046064 0.181776
0.085037 -0.045861 0.180841
0.085583 -0.045688 0.180019
0.086241 -0.045578 0.179437
0.086974 -0.045510 0.179011
0.087604 -0.045388 0.178372
0.088227 -0.045267 0.177722
0.088932 -0.045189 0.177235
0.089539 -0.045063 0.176553
0.090137 -0.044935 0.175856
0.090705 -0.044795 0.175100
0.091475 -0.044756 0.174733
0.092055 -0.044625 0.173998
-1.506718 -0.700643 2.809340
-1.489414 -0.698809 2.805305
-1.478142 -0.699799 2.812450
-1.465842 -0.700316 2.817554
-1.454110 -0.701117 2.823665
-1.442173 -0.701835 2.829307
-1.428488 -0.701708 2.831415
-1.415397 -0.701874 2.834573
-1.407526 -0.704657 2.848188
-1.396495 -0.705897 2.855458
-1.389388 -0.709166 2.870826
-1.377483 -0.710027 2.876345
-1.373111 -0.714827 2.897727
-1.403422 -0.802629 3.268127
-1.389911 -0.803710 3.273630
-1.369735 -0.800917 3.263266
-1.359291 -0.803818 3.276009
-1.346611 -0.805448 3.283495
-1.334072 -0.807202 3.291406
-1.321121 -0.808745 3.298381
-1.310201 -0.811584 3.310567
-1.297226 -0.813204 3.317706
-1.285210 -0.815472 3.327422
-1.272491 -0.817345 3.335455
-1.260727 -0.819887 3.346152
-1.254416 -0.826085 3.371703
-1.243343 -0.829266 3.384877
-0.040636 -0.051505 0.208908
-0.039575 -0.051412 0.208476
-0.038834 -0.051740 0.209748
-0.038045 -0.052022 0.210833
-0.037146 -0.052164 0.211350
-0.036202 -0.052247 0.211630
-0.035311 -0.052416 0.212257
-0.034597 -0.052865 0.214018
-0.033914 -0.053389 0.216079
-0.032981 -0.053541 0.216638
-0.032056 -0.053716 0.217291
-0.031165 -0.053961 0.218223
-0.030317 -0.054301 0.219541
-0.029418 -0.054569 0.220573
-0.028486 -0.054797 0.221437
-0.027555 -0.055041 0.222371
-0.026563 -0.055180 0.222878
-0.025573 -0.055333 0.223448
-0.024586 -0.055507 0.224100
-0.023574 -0.055640 0.224584
-0.022577 -0.055820 0.225263
-0.021521 -0.055866 0.225401
-0.020507 -0.056033 0.226031
-0.019487 -0.056198 0.226652
-0.018443 -0.056311 0.227068
-0.017413 -0.056485 0.227727
-0.016351 -0.056572 0.228038
-0.015322 -0.056792 0.228887
-0.014283 -0.057004 0.229706
-0.013203 -0.057078 0.229967
-0.012132 -0.057207 0.230456
-0.011061 -0.057362 0.231050
-0.009998 -0.057598 0.231972
-0.008913 -0.057752 0.232564
-0.007832 -0.057976 0.233439
-0.006734 -0.058131 0.234041
-0.005627 -0.058254 0.234515
-0.004515 -0.058381 0.235005
-0.003397 -0.058489 0.235422
-0.002278 -0.058660 0.236097
-0.001153 -0.058852 0.236857
-0.000020 -0.059055 0.237662
0.001120 -0.059201 0.238239
0.002268 -0.059403 0.239044
0.003419 -0.059531 0.239555
0.004574 -0.059642 0.239999
0.005735 -0.059775 0.240536
0.006901 -0.059901 0.241042
0.008060 -0.059941 0.241209
0.009238 -0.060097 0.241842
0.010421 -0.060246 0.242447
0.011638 -0.060541 0.243646
0.012824 -0.060635 0.244037
0.014017 -0.060743 0.244483
0.015218 -0.060866 0.244995
0.016432 -0.061018 0.245627
0.017636 -0.061119 0.246054
0.018848 -0.061229 0.246519
0.020067 -0.061351 0.247031
0.021297 -0.061488 0.247610
0.022572 -0.061735 0.248632
0.023809 -0.061860 0.249164
0.025067 -0.062023 0.249851
0.026332 -0.062187 0.250545
0.027563 -0.062263 0.250884
0.028857 -0.062466 0.251738
0.030130 -0.062608 0.252350
0.031405 -0.062746 0.252944
0.032757 -0.063020 0.254089
0.034033 -0.063133 0.254587
0.035285 -0.063197 0.254886
0.036549 -0.063277 0.255254
0.037823 -0.063367 0.255661
0.039121 -0.063491 0.256209
0.040404 -0.063584 0.256630
0.041690 -0.063677 0.257052
0.042973 -0.063758 0.257427
0.044235 -0.063805 0.257668
0.045528 -0.063894 0.258075
0.046790 -0.063935 0.258290
0.047986 -0.063885 0.258140
0.049181 -0.063838 0.257997
0.050426 -0.063856 0.258120
0.051564 -0.063741 0.257704
0.052619 -0.063531 0.256904
0.053441 -0.063054 0.255026
0.053954 -0.062243 0.251794
0.054598 -0.061616 0.249305
0.055667 -0.061484 0.248817
0.056713 -0.061332 0.248249
0.057817 -0.061249 0.247956
0.058779 -0.061021 0.247077
0.059677 -0.060737 0.245966
0.059941 -0.059831 0.242341
0.061342 -0.060073 0.243360
0.062402 -0.059978 0.243013
0.063295 -0.059729 0.242038
0.064363 -0.059650 0.241754
0.065346 -0.059497 0.241167
0.066287 -0.059312 0.240448
0.067201 -0.059110 0.239657
0.068025 -0.058836 0.238572
0.068685 -0.058432 0.236960
0.069482 -0.058155 0.235857
0.070434 -0.058015 0.235308
0.071140 -0.057680 0.233965
0.071875 -0.057378 0.232755
0.072629 -0.057100 0.231638
0.073368 -0.056819 0.230508
0.073835 -0.056338 0.228563
0.074511 -0.056029 0.227310
0.074387 -0.055136 0.223685
0.073455 -0.053677 0.217761
0.074059 -0.053365 0.216490
0.074577 -0.053002 0.215002
0.075139 -0.052678 0.213675
0.075250 -0.052052 0.211115
0.075513 -0.051545 0.209038
0.075078 -0.050582 0.205106
0.074253 -0.049384 0.200219
0.074737 -0.049075 0.198937
0.075279 -0.048813 0.197834
0.075716 -0.048489 0.196480
0.076231 -0.048222 0.195355
0.076682 -0.047922 0.194090
0.077170 -0.047652 0.192943
0.077715 -0.047423 0.191957
0.078356 -0.047257 0.191222
0.079074 -0.047141 0.190684
0.079683 -0.046964 0.189893
0.080302 -0.046796 0.189136
0.080818 -0.046572 0.188148
0.081368 -0.046373 0.187253
0.081979 -0.046212 0.186510
0.082410 -0.045955 0.185371
0.082907 -0.045739 0.184396
0.083243 -0.045440 0.183079
0.083810 -0.045272 0.182284
0.084142 -0.044982 0.180991
0.084657 -0.044795 0.180105
0.085373 -0.044716 0.179653
0.086015 -0.044601 0.179045
0.086632 -0.044475 0.178389
0.087361 -0.044409 0.177962
0.087985 -0.044291 0.177323
0.088594 -0.044168 0.176654
0.089362 -0.044125 0.176299
0.089909 -0.043976 0.175509
0.090452 -0.043827 0.174713
0.091278 -0.043817 0.174462
0.092003 -0.043759 0.174010
-1.503940 -0.685874 2.805714
-1.489807 -0.685523 2.807540
-1.478883 -0.686656 2.815298
-1.467067 -0.687393 2.821294
-1.450553 -0.685923 2.818087
-1.438849 -0.686722 2.824065
-1.429290 -0.688570 2.834234
-1.414329 -0.687827 2.833613
-1.404785 -0.689730 2.843774
-1.397339 -0.692711 2.858272
-1.379410 -0.690503 2.851246
-1.371359 -0.693246 2.864552
-1.369430 -0.699170 2.890914
-1.377339 -0.710287 2.938684
-1.383378 -0.775915 3.222079
-1.390999 -0.788834 3.276785
-1.376860 -0.789564 3.280789
-1.360982 -0.789303 3.280588
-1.346566 -0.789895 3.283846
-1.334077 -0.791644 3.291838
-1.320710 -0.792908 3.297733
-1.309787 -0.795687 3.309858
-1.297592 -0.797751 3.318938
-1.285105 -0.799686 3.327405
-1.272887 -0.801837 3.336707
-1.261210 -0.804388 3.347605
-1.268860 -0.819487 3.410662
-0.044935 -0.053259 0.220323
-0.043026 -0.052209 0.215921
-0.040692 -0.050580 0.209123
-0.039495 -0.050317 0.207977
-0.038866 -0.050784 0.209847
-0.038203 -0.051229 0.211626
-0.037211 -0.051245 0.211633
-0.036270 -0.051336 0.211949
-0.035445 -0.051599 0.212977
-0.034910 -0.052313 0.215863
-0.034040 -0.052553 0.216794
-0.033061 -0.052634 0.217072
-0.032131 -0.052802 0.217704
-0.031218 -0.053009 0.218500
-0.030348 -0.053307 0.219672
-0.029434 -0.053544 0.220591
-0.028505 -0.053773 0.221480
-0.027650 -0.054164 0.223034
-0.026604 -0.054196 0.223113
-0.025596 -0.054312 0.223539
-0.024615 -0.054498 0.224252
-0.023592 -0.054605 0.224642
-0.022578 -0.054743 0.225159
-0.021528 -0.054802 0.225354
-0.020501 -0.054930 0.225834
-0.019472 -0.055069 0.226362
-0.018432 -0.055188 0.226809
-0.017412 -0.055388 0.227590
-0.016380 -0.055574 0.228311
-0.015366 -0.055850 0.229407
-0.014295 -0.055948 0.229773
-0.013215 -0.056020 0.230032
-0.012152 -0.056190 0.230700
-0.011079 -0.056341 0.231286
-0.010004 -0.056512 0.231958
-0.008924 -0.056699 0.232697
-0.007842 -0.056919 0.233576
-0.006738 -0.057025 0.233986
-0.005637 -0.057212 0.234734
-0.004521 -0.057306 0.235100
-0.003404 -0.057440 0.235630
-0.002284 -0.057628 0.236387
-0.001158 -0.057843 0.237253
-0.000022 -0.058026 0.237995
0.001120 -0.058171 0.238580
0.002266 -0.058290 0.239061
0.003417 -0.058392 0.239476
0.004570 -0.058476 0.239817
0.005730 -0.058600 0.240324
0.006891 -0.058689 0.240689
0.008077 -0.058928 0.241678
0.009254 -0.059056 0.242207
0.010420 -0.059094 0.242372
0.011593 -0.059155 0.242629
0.012797 -0.059353 0.243455
0.013962 -0.059351 0.243461
0.015189 -0.059589 0.244456
0.016419 -0.059806 0.245365
0.017636 -0.059950 0.245974
0.018830 -0.060001 0.246209
0.020051 -0.060129 0.246756
0.021308 -0.060343 0.247663
0.022576 -0.060566 0.248607
0.023810 -0.060678 0.249098
0.025069 -0.060839 0.249789
0.026322 -0.060974 0.250377
0.027563 -0.061068 0.250796
0.028826 -0.061202 0.251388
0.030089 -0.061326 0.251935
0.031450 -0.061631 0.253228
0.032747 -0.061792 0.253930
0.034018 -0.061896 0.254400
0.035278 -0.061973 0.254761
0.036550 -0.062064 0.255181
0.037811 -0.062131 0.255503
0.039079 -0.062206 0.255859
0.040357 -0.062291 0.256257
0.041642 -0.062382 0.256681
0.042968 -0.062528 0.257329
0.044266 -0.062625 0.257780
0.045617 -0.062790 0.258508
0.046868 -0.062811 0.258649
0.048115 -0.062828 0.258769
0.049344 -0.062820 0.258789
0.050540 -0.062771 0.258638
0.051800 -0.062802 0.258820
0.052832 -0.062562 0.257881
0.053685 -0.062125 0.256133
0.053660 -0.060715 0.250368
0.054627 -0.060464 0.249382
0.055550 -0.060176 0.248241
0.056629 -0.060066 0.247834
0.057561 -0.059806 0.246808
0.058405 -0.059467 0.245457
0.058654 -0.058549 0.241709
0.060027 -0.058766 0.242646
0.061323 -0.058901 0.243246
0.062205 -0.058639 0.242206
0.063255 -0.058544 0.241850
0.064250 -0.058401 0.241299
0.065256 -0.058274 0.240809
0.066244 -0.058135 0.240266
0.067126 -0.057909 0.239365
0.067869 -0.057573 0.238003
0.068732 -0.057348 0.237101
0.069579 -0.057117 0.236170
0.070480 -0.056937 0.235446
0.071154 -0.056582 0.233998
0.072073 -0.056430 0.233385
0.072946 -0.056247 0.232641
0.073719 -0.055993 0.231602
0.073791 -0.055222 0.228422
0.074391 -0.054864 0.226943
0.073358 -0.053328 0.220593
0.073251 -0.052499 0.217160
0.073783 -0.052145 0.215690
0.074126 -0.051668 0.213710
0.074391 -0.051151 0.211560
0.073862 -0.050109 0.207234
0.074456 -0.049846 0.206127
0.074898 -0.049490 0.204632
0.074905 -0.048859 0.201996
0.074884 -0.048227 0.199350
0.075256 -0.047860 0.197798
0.075684 -0.047537 0.196425
0.076281 -0.047326 0.195514
0.076947 -0.047163 0.194793
0.077459 -0.046911 0.193698
0.077898 -0.046621 0.192444
0.078522 -0.046447 0.191665
0.079111 -0.046256 0.190815
0.079712 -0.046077 0.190006
