ply
format ascii 1.0
element vertex 1689
property float x
property float y
property float z
end_header
0.086828 -0.021844 0.176347
0.086973 -0.021670 0.174829
0.087616 -0.021622 0.174323
0.087804 -0.021463 0.172922
0.088295 -0.021381 0.172130
0.088753 -0.021293 0.171278
0.089343 -0.021238 0.170687
-0.066166 -0.027978 0.236326
-0.065785 -0.028295 0.238907
-0.065113 -0.028496 0.240506
-0.064204 -0.028598 0.241269
-0.063184 -0.028654 0.241640
-0.061900 -0.028590 0.241000
-0.060744 -0.028584 0.240845
-0.058976 -0.028285 0.238218
-0.056480 -0.027618 0.232498
-0.055033 -0.027447 0.230957
-0.053873 -0.027415 0.230590
-0.052449 -0.027245 0.229058
-0.050756 -0.026925 0.226268
-0.046469 -0.025186 0.211555
-0.045322 -0.025108 0.210811
-0.044123 -0.024998 0.209793
-0.043316 -0.025110 0.210638
-0.042501 -0.025223 0.211493
-0.041584 -0.025279 0.211871
-0.040915 -0.025492 0.213564
-0.039981 -0.025547 0.213933
-0.039077 -0.025625 0.214489
-0.038166 -0.025702 0.215047
-0.037323 -0.025831 0.216031
-0.036462 -0.025954 0.216971
-0.035556 -0.026051 0.217693
-0.034578 -0.026100 0.218012
-0.033650 -0.026191 0.218685
-0.032696 -0.026267 0.219232
-0.031709 -0.026321 0.219595
-0.030719 -0.026376 0.219972
-0.029772 -0.026473 0.220699
-0.028829 -0.026582 0.221518
-0.027831 -0.026645 0.221966
-0.026833 -0.026714 0.222463
-0.025829 -0.026783 0.222962
-0.024808 -0.026839 0.223355
-0.023790 -0.026903 0.223818
-0.022758 -0.026957 0.224195
-0.021741 -0.027035 0.224776
-0.020736 -0.027139 0.225568
-0.019698 -0.027207 0.226070
-0.018666 -0.027292 0.226718
-0.017630 -0.027380 0.227393
-0.016586 -0.027469 0.228075
-0.015506 -0.027506 0.228325
-0.014441 -0.027577 0.228865
-0.013365 -0.027638 0.229321
-0.012283 -0.027696 0.229759
-0.011188 -0.027732 0.230013
-0.010091 -0.027772 0.230307
-0.008995 -0.027826 0.230716
-0.007905 -0.027916 0.231425
-0.006802 -0.027986 0.231976
-0.005696 -0.028063 0.232590
-0.004585 -0.028147 0.233257
-0.003467 -0.028239 0.234001
-0.002333 -0.028217 0.233793
-0.001204 -0.028266 0.234187
-0.000071 -0.028388 0.235184
0.001067 -0.028357 0.234919
0.002206 -0.028391 0.235194
0.003351 -0.028439 0.235592
0.004494 -0.028458 0.235749
0.005649 -0.028523 0.236295
0.006806 -0.028580 0.236774
0.007973 -0.028653 0.237388
0.009138 -0.028702 0.237804
0.010313 -0.028768 0.238370
0.011502 -0.028856 0.239119
0.012693 -0.028932 0.239770
0.013859 -0.028942 0.239882
0.015044 -0.028989 0.240299
0.016222 -0.029015 0.240550
0.017393 -0.029025 0.240672
0.018591 -0.029077 0.241140
0.019798 -0.029136 0.241670
0.021102 -0.029324 0.243274
0.022447 -0.029545 0.245155
0.023690 -0.029617 0.245806
0.024966 -0.029721 0.246720
0.026242 -0.029816 0.247563
0.027583 -0.029972 0.248920
0.028820 -0.030007 0.249273
0.030059 -0.030042 0.249626
0.031366 -0.030139 0.250500
0.032627 -0.030187 0.250965
0.033923 -0.030262 0.251661
0.035243 -0.030353 0.252490
0.036603 -0.030470 0.253541
0.038001 -0.030611 0.254793
0.039321 -0.030682 0.255463
0.040702 -0.030795 0.256486
0.041969 -0.030817 0.256753
0.043237 -0.030839 0.257026
0.044506 -0.030860 0.257289
0.045739 -0.030856 0.257343
0.047016 -0.030881 0.257640
0.048310 -0.030915 0.258017
0.049542 -0.030910 0.258060
0.050753 -0.030891 0.257999
0.051947 -0.030864 0.257861
0.053183 -0.030862 0.257937
0.054403 -0.030851 0.257940
0.055496 -0.030769 0.257353
0.056008 -0.030377 0.254166
0.055777 -0.029607 0.247809
0.056500 -0.029364 0.245871
0.057430 -0.029237 0.244898
0.058556 -0.029213 0.244783
0.059275 -0.028991 0.243012
0.060032 -0.028796 0.241458
0.060981 -0.028698 0.240723
0.061965 -0.028620 0.240156
0.062736 -0.028448 0.238797
0.063524 -0.028290 0.237553
0.064224 -0.028099 0.236030
0.065157 -0.028015 0.235399
0.065924 -0.027863 0.234201
0.066448 -0.027616 0.232198
0.066684 -0.027259 0.229267
0.067110 -0.026990 0.227072
0.067032 -0.026530 0.223269
0.067739 -0.026390 0.222157
0.068596 -0.026312 0.221562
0.069300 -0.026179 0.220497
0.069972 -0.026038 0.219363
0.070723 -0.025929 0.218506
0.071436 -0.025810 0.217554
0.072177 -0.025705 0.216713
0.072917 -0.025602 0.215894
0.073521 -0.025455 0.214694
0.074182 -0.025332 0.213692
0.074945 -0.025246 0.213002
0.075601 -0.025126 0.212029
0.076393 -0.025055 0.211458
0.077081 -0.024952 0.210610
0.077779 -0.024855 0.209811
0.078561 -0.024786 0.209252
0.079035 -0.024624 0.207893
0.079448 -0.024446 0.206403
0.080039 -0.024327 0.205405
0.080647 -0.024216 0.204469
0.081118 -0.024067 0.203208
0.081653 -0.023940 0.202131
0.082231 -0.023829 0.201179
0.082743 -0.023701 0.200085
0.083288 -0.023586 0.199089
0.083906 -0.023494 0.198283
0.084576 -0.023418 0.197611
0.085121 -0.023309 0.196659
0.085371 -0.023123 0.195048
0.085508 -0.022911 0.193210
0.085511 -0.022668 0.191107
0.085632 -0.022460 0.189301
0.085973 -0.022315 0.188010
0.086278 -0.022163 0.186661
0.086435 -0.021976 0.185016
0.086553 -0.021783 0.183314
0.086816 -0.021631 0.181944
0.087195 -0.021510 0.180835
0.087536 -0.021382 0.179662
0.087304 -0.021118 0.177339
0.087300 -0.020913 0.175514
0.087224 -0.020696 0.173573
0.087782 -0.020631 0.172909
0.088357 -0.020572 0.172283
0.088667 -0.020453 0.171146
0.089237 -0.020395 0.170518
-0.066067 -0.027754 0.243987
-0.065013 -0.027797 0.244266
-0.063755 -0.027753 0.243778
-0.062146 -0.027552 0.241910
-0.060754 -0.027442 0.240839
-0.058683 -0.027015 0.236986
-0.056614 -0.026572 0.232998
-0.055245 -0.026447 0.231797
-0.053716 -0.026238 0.229865
-0.052294 -0.026075 0.228328
-0.050758 -0.025846 0.226224
-0.049751 -0.025883 0.226443
-0.045180 -0.024025 0.210100
-0.044106 -0.023986 0.209661
-0.043335 -0.024113 0.210680
-0.042613 -0.024274 0.211994
-0.041697 -0.024330 0.212390
-0.040883 -0.024450 0.213339
-0.040005 -0.024537 0.214005
-0.039062 -0.024588 0.214352
-0.038155 -0.024664 0.214921
-0.037273 -0.024761 0.215678
-0.036392 -0.024865 0.216491
-0.035525 -0.024984 0.217442
-0.034662 -0.025114 0.218478
-0.033669 -0.025154 0.218742
-0.032729 -0.025239 0.219388
-0.031765 -0.025310 0.219915
-0.030751 -0.025344 0.220128
-0.029780 -0.025418 0.220686
-0.028800 -0.025489 0.221227
-0.027811 -0.025557 0.221737
-0.026821 -0.025631 0.222292
-0.025817 -0.025695 0.222776
-0.024814 -0.025767 0.223327
-0.023805 -0.025840 0.223879
-0.022802 -0.025925 0.224548
-0.021749 -0.025960 0.224782
-0.020747 -0.026062 0.225602
-0.019725 -0.026150 0.226295
-0.018696 -0.026238 0.226996
-0.017642 -0.026299 0.227467
-0.016592 -0.026376 0.228070
-0.015522 -0.026429 0.228475
-0.014445 -0.026476 0.228834
-0.013363 -0.026524 0.229193
-0.012280 -0.026577 0.229608
-0.011189 -0.026620 0.229941
-0.010092 -0.026659 0.230230
-0.008999 -0.026720 0.230726
-0.007908 -0.026804 0.231412
-0.006811 -0.026894 0.232162
-0.005701 -0.026957 0.232677
-0.004609 -0.027154 0.234346
-0.003468 -0.027105 0.233906
-0.002336 -0.027106 0.233897
-0.001207 -0.027177 0.234493
-0.000072 -0.027189 0.234583
0.001066 -0.027236 0.234980
0.002205 -0.027249 0.235084
0.003349 -0.027291 0.235447
0.004496 -0.027332 0.235798
0.005648 -0.027381 0.236228
0.006808 -0.027446 0.236794
0.007973 -0.027507 0.237331
0.009133 -0.027538 0.237618
0.010312 -0.027615 0.238294
0.011474 -0.027632 0.238466
0.012673 -0.027729 0.239323
0.013885 -0.027836 0.240275
0.015050 -0.027839 0.240331
0.016228 -0.027863 0.240575
0.017430 -0.027923 0.241127
0.018609 -0.027941 0.241318
0.019860 -0.028057 0.242365
0.021118 -0.028171 0.243393
0.022408 -0.028312 0.244664
0.023730 -0.028478 0.246149
0.024935 -0.028495 0.246351
0.026205 -0.028580 0.247142
0.027542 -0.028728 0.248483
0.028866 -0.028851 0.249609
0.030096 -0.028874 0.249867
0.031323 -0.028892 0.250091
0.032659 -0.029005 0.251142
0.033913 -0.029041 0.251524
0.035159 -0.029067 0.251821
0.036393 -0.029081 0.252023
0.037657 -0.029118 0.252426
0.039240 -0.029391 0.254873
0.040906 -0.029709 0.257711
0.042130 -0.029696 0.257682
0.043405 -0.029718 0.257960
0.044614 -0.029695 0.257853
0.045830 -0.029679 0.257796
0.047082 -0.029685 0.257945
0.048310 -0.029677 0.257961
0.049548 -0.029674 0.258034
0.050763 -0.029659 0.257991
0.051988 -0.029650 0.258011
0.053200 -0.029634 0.257967
0.054384 -0.029604 0.257798
0.055472 -0.029524 0.257193
0.056471 -0.029401 0.256217
0.055669 -0.028365 0.247284
0.056522 -0.028199 0.245923
0.057567 -0.028133 0.245437
0.058573 -0.028051 0.244813
0.059519 -0.027944 0.243967
0.060334 -0.027781 0.242631
0.061173 -0.027634 0.241442
0.062108 -0.027536 0.240671
0.062820 -0.027345 0.239080
0.063555 -0.027170 0.237631
0.064264 -0.026990 0.236141
0.065003 -0.026829 0.234811
0.065806 -0.026699 0.233753
0.066645 -0.026588 0.232854
0.067214 -0.026375 0.231061
0.067060 -0.025889 0.226875
0.067337 -0.025583 0.224259
0.067957 -0.025414 0.222846
0.068750 -0.025314 0.222035
0.069495 -0.025200 0.221095
0.070130 -0.025050 0.219839
0.070794 -0.024915 0.218706
0.071566 -0.024821 0.217933
0.072190 -0.024679 0.216738
0.073010 -0.024607 0.216152
0.073652 -0.024479 0.215064
0.074208 -0.024325 0.213754
0.074871 -0.024210 0.212781
0.075704 -0.024152 0.212309
0.076472 -0.024076 0.211668
0.077124 -0.023965 0.210721
0.077814 -0.023869 0.209898
0.078543 -0.023787 0.209198
0.079153 -0.023672 0.208198
0.079634 -0.023521 0.206884
0.080217 -0.023404 0.205859
0.080826 -0.023297 0.204922
0.081282 -0.023149 0.203621
0.081621 -0.022972 0.202055
0.082423 -0.022928 0.201653
0.082831 -0.022776 0.200303
0.083332 -0.022653 0.199200
0.083870 -0.022542 0.198205
0.084556 -0.022474 0.197573
0.085076 -0.022364 0.196566
0.085312 -0.022181 0.194924
0.085500 -0.021991 0.193204
0.085786 -0.021829 0.191734
0.085516 -0.021531 0.189061
0.085879 -0.021397 0.187820
0.086124 -0.021236 0.186345
0.086277 -0.021057 0.184697
0.086665 -0.020937 0.183571
0.086817 -0.020764 0.181968
0.086894 -0.020576 0.180232
0.086852 -0.020365 0.178281
0.086782 -0.020150 0.176304
0.086879 -0.019979 0.174693
0.087223 -0.019867 0.173599
0.087710 -0.019789 0.172796
0.088272 -0.019729 0.172148
0.088671 -0.019635 0.171186
0.089194 -0.019569 0.170469
-0.065672 -0.026905 0.246696
-0.063755 -0.026594 0.243736
-0.062239 -0.026440 0.242225
-0.060961 -0.026385 0.241613
-0.059226 -0.026126 0.239129
-0.056995 -0.025633 0.234517
-0.055100 -0.025275 0.231140
-0.054208 -0.025372 0.231922
-0.052177 -0.024929 0.227766
-0.050055 -0.024423 0.223041
-0.047916 -0.023886 0.218038
-0.045064 -0.022962 0.209511
-0.044207 -0.023036 0.210092
-0.043404 -0.023142 0.210964
-0.042603 -0.023254 0.211893
-0.041800 -0.023371 0.212861
-0.040976 -0.023481 0.213769
-0.039995 -0.023505 0.213894
-0.039120 -0.023594 0.214608
-0.038196 -0.023658 0.215096
-0.037352 -0.023776 0.216077
-0.036505 -0.023899 0.217101
-0.035590 -0.023983 0.217772
-0.034629 -0.024041 0.218209
-0.033711 -0.024133 0.218951
-0.032736 -0.024189 0.219372
-0.031756 -0.024245 0.219789
-0.030792 -0.024317 0.220354
-0.029784 -0.024358 0.220644
-0.028820 -0.024440 0.221309
-0.027891 -0.024559 0.222304
-0.026880 -0.024613 0.222706
-0.025890 -0.024691 0.223338
-0.024891 -0.024766 0.223941
-0.023865 -0.024822 0.224369
-0.022820 -0.024861 0.224653
-0.021794 -0.024926 0.225170
-0.020772 -0.025003 0.225796
-0.019743 -0.025079 0.226419
-0.018702 -0.025147 0.226977
-0.017677 -0.025248 0.227827
-0.016611 -0.025300 0.228237
-0.015543 -0.025356 0.228683
-0.014459 -0.025392 0.228961
-0.013375 -0.025435 0.229293
-0.012300 -0.025504 0.229872
-0.011191 -0.025510 0.229881
-0.010096 -0.025552 0.230225
-0.009006 -0.025621 0.230802
-0.007911 -0.025691 0.231404
-0.006810 -0.025761 0.232002
-0.005702 -0.025829 0.232581
-0.004585 -0.025880 0.233018
-0.003482 -0.026064 0.234649
-0.002338 -0.025979 0.233873
-0.001207 -0.026007 0.234102
-0.000073 -0.026108 0.235003
0.001065 -0.026097 0.234897
0.002206 -0.026140 0.235276
0.003350 -0.026169 0.235530
0.004496 -0.026196 0.235782
0.005650 -0.026251 0.236277
0.006799 -0.026270 0.236457
0.007951 -0.026290 0.236646
0.009118 -0.026348 0.237186
0.010269 -0.026354 0.237255
0.011447 -0.026419 0.237857
0.012640 -0.026504 0.238651
0.013853 -0.026613 0.239658
0.015050 -0.026678 0.240275
0.016199 -0.026653 0.240079
0.017418 -0.026740 0.240901
0.018654 -0.026840 0.241841
0.019860 -0.026887 0.242308
0.021099 -0.026971 0.243110
0.022297 -0.026997 0.243390
0.023638 -0.027184 0.245137
0.024988 -0.027364 0.246807
0.026241 -0.027425 0.247422
0.027420 -0.027407 0.247320
0.028704 -0.027492 0.248142
0.030026 -0.027604 0.249226
0.031369 -0.027727 0.250400
0.032622 -0.027763 0.250801
0.033884 -0.027804 0.251244
0.035172 -0.027863 0.251850
0.036391 -0.027865 0.251947
0.037568 -0.027837 0.251768
0.038957 -0.027961 0.252975
0.040945 -0.028496 0.257893
0.042222 -0.028518 0.258181
0.043429 -0.028493 0.258044
0.044652 -0.028480 0.258013
0.045878 -0.028469 0.258007
0.047086 -0.028448 0.257907
0.048312 -0.028439 0.257917
0.049541 -0.028431 0.257943
0.050753 -0.028415 0.257888
0.051944 -0.028388 0.257736
0.053170 -0.028381 0.257767
0.054377 -0.028364 0.257711
0.055525 -0.028318 0.257387
0.054565 -0.027222 0.247520
0.055638 -0.027166 0.247099
0.056531 -0.027026 0.245917
0.057598 -0.026973 0.245528
0.058609 -0.026896 0.244922
0.059588 -0.026808 0.244210
0.060347 -0.026627 0.242646
0.061141 -0.026467 0.241279
0.062098 -0.026382 0.240595
0.062852 -0.026216 0.239165
0.063613 -0.026059 0.237815
0.064327 -0.025888 0.236338
0.065101 -0.025747 0.235133
0.065832 -0.025594 0.233814
0.065848 -0.025173 0.230040
0.066490 -0.025001 0.228542
0.067190 -0.024856 0.227288
0.067639 -0.024624 0.225238
0.068284 -0.024470 0.223893
0.068717 -0.024246 0.221906
0.069377 -0.024107 0.220700
0.070134 -0.024006 0.219831
0.070894 -0.023909 0.218997
0.071482 -0.023757 0.217659
0.072177 -0.023645 0.216682
0.072991 -0.023574 0.216080
0.073604 -0.023441 0.214910
0.074338 -0.023350 0.214116
0.075106 -0.023272 0.213437
0.075877 -0.023197 0.212783
0.076640 -0.023121 0.212122
0.077280 -0.023011 0.211138
0.078087 -0.022953 0.210630
0.078730 -0.022849 0.209692
0.079245 -0.022710 0.208437
0.079159 -0.022405 0.205648
0.079975 -0.022360 0.205239
0.080596 -0.022261 0.204340
0.081083 -0.022129 0.203123
0.081676 -0.022028 0.202192
0.082382 -0.021960 0.201555
0.082700 -0.021791 0.199991
0.083153 -0.021661 0.198779
0.083713 -0.021561 0.197841
0.084430 -0.021504 0.197288
0.084985 -0.021407 0.196364
0.085258 -0.021242 0.194811
0.085399 -0.021048 0.192988
0.085284 -0.020796 0.190627
0.085375 -0.020598 0.188763
0.085718 -0.020466 0.187486
0.085855 -0.020287 0.185780
0.085979 -0.020108 0.184076
0.086399 -0.020002 0.183026
0.086695 -0.019870 0.181732
0.086871 -0.019712 0.180207
0.087024 -0.019553 0.178658
0.086982 -0.019354 0.176734
0.087032 -0.019179 0.175026
0.087337 -0.019062 0.173852
0.087684 -0.018957 0.172772
0.088318 -0.018916 0.172266
0.088715 -0.018824 0.171300
0.089177 -0.018748 0.170468
-0.065602 -0.025705 0.246392
-0.063943 -0.025509 0.244410
-0.062626 -0.025445 0.243690
-0.061314 -0.025380 0.242963
-0.059481 -0.025094 0.240115
-0.056106 -0.024133 0.230816
-0.055225 -0.024228 0.231618
-0.053436 -0.023920 0.228572
-0.051751 -0.023647 0.225858
-0.049947 -0.023307 0.222511
-0.045496 -0.021690 0.206983
-0.044858 -0.021860 0.208507
-0.043976 -0.021916 0.208942
-0.043298 -0.022079 0.210399
-0.042682 -0.022281 0.212233
-0.041748 -0.022324 0.212544
-0.040876 -0.022403 0.213197
-0.039982 -0.022473 0.213768
-0.039082 -0.022543 0.214345
-0.038199 -0.022628 0.215057
-0.037289 -0.022701 0.215655
-0.036474 -0.022837 0.216857
-0.035620 -0.022956 0.217897
-0.034700 -0.023039 0.218590
-0.033715 -0.023083 0.218913
-0.032751 -0.023144 0.219402
-0.031795 -0.023215 0.219993
-0.030782 -0.023248 0.220216
-0.029794 -0.023303 0.220656
-0.028818 -0.023372 0.221220
-0.027849 -0.023452 0.221901
-0.026912 -0.023566 0.222899
-0.025898 -0.023621 0.223336
-0.024898 -0.023692 0.223935
-0.023883 -0.023756 0.224460
-0.022844 -0.023800 0.224806
-0.021809 -0.023854 0.225241
-0.020769 -0.023907 0.225681
-0.019733 -0.023972 0.226226
-0.018682 -0.024024 0.226651
-0.017638 -0.024093 0.227247
-0.016575 -0.024143 0.227655
-0.015532 -0.024232 0.228444
-0.014452 -0.024272 0.228771
-0.013369 -0.024313 0.229106
-0.012294 -0.024379 0.229680
-0.011203 -0.024422 0.230040
-0.010108 -0.024465 0.230409
-0.009011 -0.024512 0.230814
-0.007918 -0.024589 0.231501
-0.006815 -0.024652 0.232058
-0.005706 -0.024715 0.232626
-0.004587 -0.024757 0.232995
-0.003466 -0.024807 0.233448
-0.002341 -0.024863 0.233950
-0.001208 -0.024885 0.234142
-0.000074 -0.024924 0.234495
0.001065 -0.024984 0.235057
0.002205 -0.024993 0.235132
0.003348 -0.025025 0.235427
0.004497 -0.025071 0.235864
0.005646 -0.025093 0.236074
0.006798 -0.025124 0.236373
0.007956 -0.025161 0.236737
0.009109 -0.025177 0.236905
0.010274 -0.025220 0.237320
0.011431 -0.025234 0.237477
0.012597 -0.025264 0.237780
0.013857 -0.025463 0.239683
0.015038 -0.025496 0.240026
0.016458 -0.025901 0.243867
0.017574 -0.025805 0.243000
0.018704 -0.025739 0.242426
0.019930 -0.025807 0.243109
0.021131 -0.025836 0.243422
0.022304 -0.025829 0.243409
0.023668 -0.026034 0.245388
0.024834 -0.026011 0.245229
0.026236 -0.026226 0.247314
0.027479 -0.026270 0.247794
0.028741 -0.026328 0.248405
0.029998 -0.026377 0.248932
0.031306 -0.026466 0.249838
0.032584 -0.026523 0.250450
0.033864 -0.026578 0.251037
0.035118 -0.026608 0.251404
0.036329 -0.026606 0.251464
0.037575 -0.026629 0.251755
0.038811 -0.026643 0.251974
0.040957 -0.027262 0.257908
0.042201 -0.027262 0.257997
0.043451 -0.027265 0.258116
0.044616 -0.027217 0.257748
0.045861 -0.027218 0.257855
0.047105 -0.027219 0.257955
0.048304 -0.027195 0.257818
0.049537 -0.027191 0.257872
0.050757 -0.027179 0.257855
0.051963 -0.027161 0.257782
0.053161 -0.027140 0.257676
0.054358 -0.027119 0.257573
0.055451 -0.027048 0.256996
0.054958 -0.026223 0.249256
0.055792 -0.026054 0.247739
0.056593 -0.025876 0.246144
0.057644 -0.025818 0.245679
0.058508 -0.025680 0.244459
0.059524 -0.025612 0.243908
0.060400 -0.025488 0.242818
0.061244 -0.025356 0.241647
0.062136 -0.025248 0.240707
0.062833 -0.025066 0.239057
0.063544 -0.024896 0.237521
0.064373 -0.024778 0.236474
0.065100 -0.024625 0.235096
0.065752 -0.024449 0.233500
0.065974 -0.024122 0.230455
0.066467 -0.023903 0.228436
0.067087 -0.023737 0.226916
0.067704 -0.023574 0.225432
0.067744 -0.023219 0.222101
0.068393 -0.023080 0.220839
0.069232 -0.023009 0.220218
0.070041 -0.022929 0.219518
0.070785 -0.022832 0.218641
0.071543 -0.022741 0.217828
0.072256 -0.022639 0.216904
0.073070 -0.022571 0.216301
0.073818 -0.022485 0.215520
0.074573 -0.022403 0.214780
0.075302 -0.022316 0.213985
0.076061 -0.022240 0.213291
0.076883 -0.022184 0.212787
0.077415 -0.022047 0.211500
0.077886 -0.021896 0.210080
0.078711 -0.021848 0.209635
0.079348 -0.021749 0.208704
0.079786 -0.021599 0.207275
0.080501 -0.021526 0.206586
0.080951 -0.021385 0.205240
0.081438 -0.021257 0.204014
0.081877 -0.021120 0.202691
0.082264 -0.020973 0.201271
0.082824 -0.020872 0.200294
0.083308 -0.020756 0.199155
0.083703 -0.020619 0.197824
0.084167 -0.020503 0.196680
0.084680 -0.020401 0.195667
0.085081 -0.020274 0.194417
0.085361 -0.020122 0.192913
0.085720 -0.019991 0.191614
0.085702 -0.019776 0.189499
0.085998 -0.019638 0.188112
0.085960 -0.019426 0.186023
0.086118 -0.019263 0.184391
0.086399 -0.019131 0.183045
0.086556 -0.018973 0.181459
0.086688 -0.018814 0.179847
0.087057 -0.018709 0.178746
0.087172 -0.018551 0.177142
0.087413 -0.018423 0.175815
0.087533 -0.018273 0.174266
0.087896 -0.018175 0.173217
0.088668 -0.018163 0.172975
0.089052 -0.018073 0.171981
0.089433 -0.017983 0.170987
-0.067096 -0.024653 0.247662
-0.065629 -0.024543 0.246452
-0.064087 -0.024401 0.244918
-0.062513 -0.024241 0.243206
-0.060848 -0.024039 0.241073
-0.059365 -0.023903 0.239601
-0.058361 -0.023958 0.240044
-0.057305 -0.023994 0.240295
-0.053471 -0.022844 0.228674
-0.051784 -0.022583 0.225959
-0.049980 -0.022259 0.222611
-0.046487 -0.021152 0.211444
-0.044576 -0.020732 0.207152
-0.043954 -0.020906 0.208795
-0.043310 -0.021078 0.210411
-0.042586 -0.021217 0.211706
-0.041755 -0.021309 0.212527
-0.040873 -0.021379 0.213127
-0.039982 -0.021448 0.213715
-0.039107 -0.021529 0.214431
-0.038198 -0.021595 0.214994
-0.037301 -0.021672 0.215667
-0.036394 -0.021748 0.216322
-0.035527 -0.021852 0.217268
-0.034625 -0.021941 0.218058
-0.033776 -0.022070 0.219250
-0.032790 -0.022115 0.219609
-0.031802 -0.022161 0.219980
-0.030859 -0.022243 0.220702
-0.029836 -0.022272 0.220902
-0.028898 -0.022367 0.221767
-0.027944 -0.022459 0.222591
-0.026943 -0.022518 0.223092
-0.025928 -0.022569 0.223519
-0.024926 -0.022637 0.224117
-0.023902 -0.022690 0.224568
-0.022858 -0.022728 0.224871
-0.021813 -0.022770 0.225213
-0.020773 -0.022821 0.225649
-0.019733 -0.022878 0.226152
-0.018680 -0.022925 0.226548
-0.017623 -0.022974 0.226977
-0.016570 -0.023034 0.227513
-0.015508 -0.023089 0.228001
-0.014450 -0.023161 0.228652
-0.013367 -0.023200 0.228995
-0.012291 -0.023259 0.229524
-0.011202 -0.023305 0.229932
-0.010109 -0.023350 0.230338
-0.009014 -0.023401 0.230809
-0.007930 -0.023501 0.231753
-0.006826 -0.023560 0.232310
-0.005730 -0.023681 0.233468
-0.004597 -0.023672 0.233358
-0.003477 -0.023745 0.234052
-0.002346 -0.023777 0.234344
-0.001212 -0.023797 0.234534
-0.000075 -0.023826 0.234806
0.001064 -0.023850 0.235036
0.002207 -0.023893 0.235452
0.003350 -0.023902 0.235538
0.004494 -0.023917 0.235688
0.005646 -0.023957 0.236081
0.006797 -0.023978 0.236299
0.007954 -0.024013 0.236658
0.009107 -0.024027 0.236803
0.010268 -0.024058 0.237134
0.011438 -0.024102 0.237586
0.012602 -0.024125 0.237841
0.013862 -0.024312 0.239709
0.015334 -0.024814 0.244687
0.016592 -0.024923 0.245794
0.017682 -0.024781 0.244433
0.018808 -0.024705 0.243723
0.019947 -0.024652 0.243250
0.021116 -0.024642 0.243193
0.022313 -0.024663 0.243450
0.023530 -0.024703 0.243903
0.024943 -0.024935 0.246247
0.026234 -0.025029 0.247235
0.027466 -0.025062 0.247617
0.028729 -0.025118 0.248241
0.029999 -0.025176 0.248882
0.031283 -0.025242 0.249595
0.032588 -0.025318 0.250419
0.033876 -0.025376 0.251070
0.035165 -0.025430 0.251684
0.036343 -0.025404 0.251504
0.037624 -0.025449 0.252028
0.038982 -0.025541 0.253028
0.040875 -0.025968 0.257339
0.042181 -0.026008 0.257820
0.043387 -0.025985 0.257683
0.044622 -0.025980 0.257729
0.045883 -0.025991 0.257928
0.047093 -0.025973 0.257839
0.048332 -0.025971 0.257916
0.049568 -0.025968 0.257982
0.050759 -0.025942 0.257815
0.051967 -0.025926 0.257753
0.053190 -0.025917 0.257766
0.054389 -0.025898 0.257673
0.055374 -0.025779 0.256592
0.055235 -0.025155 0.250470
0.056058 -0.024985 0.248876
0.056566 -0.024685 0.245983
0.057580 -0.024614 0.245369
0.058392 -0.024461 0.243933
0.059470 -0.024423 0.243649
0.060296 -0.024285 0.242364
0.061093 -0.024141 0.241015
0.061900 -0.024006 0.239755
0.062739 -0.023888 0.238667
0.063506 -0.023748 0.237349
0.064323 -0.023631 0.236263
0.065014 -0.023472 0.234757
0.065615 -0.023287 0.232984
0.065682 -0.022921 0.229406
0.066397 -0.022790 0.228170
0.067070 -0.022649 0.226831
0.067206 -0.022334 0.223749
0.067969 -0.022234 0.222815
0.068677 -0.022120 0.221734
0.069301 -0.021982 0.220416
0.070180 -0.021928 0.219936
0.070922 -0.021833 0.219045
0.071618 -0.021728 0.218041
0.072379 -0.021644 0.217256
0.073049 -0.021536 0.216223
0.073693 -0.021424 0.215143
0.074489 -0.021359 0.214527
0.075217 -0.021275 0.213731
0.076018 -0.021215 0.213158
0.076570 -0.021087 0.211911
0.077116 -0.020961 0.210677
0.077835 -0.020885 0.209936
0.078593 -0.020821 0.209316
0.079230 -0.020727 0.208388
0.079944 -0.020655 0.207681
0.080664 -0.020587 0.207004
0.081201 -0.020474 0.205872
0.081480 -0.020299 0.204117
0.081928 -0.020170 0.202819
0.082328 -0.020033 0.201430
0.082751 -0.019904 0.200123
0.083251 -0.019796 0.199023
0.083655 -0.019669 0.197717
0.084311 -0.019602 0.197023
0.084736 -0.019484 0.195806
0.084758 -0.019277 0.193688
0.085077 -0.019142 0.192282
0.085582 -0.019050 0.191315
0.085876 -0.018914 0.189897
0.085898 -0.018722 0.187906
0.086107 -0.018573 0.186356
0.086109 -0.018384 0.184388
0.086303 -0.018239 0.182858
0.086533 -0.018105 0.181431
0.086670 -0.017954 0.179830
0.086976 -0.017840 0.178601
0.087070 -0.017686 0.176957
0.087272 -0.017556 0.175555
0.087654 -0.017465 0.174530
0.088263 -0.017420 0.173965
0.088801 -0.017362 0.173262
0.089209 -0.017280 0.172311
0.089905 -0.017255 0.171919
-0.067135 -0.023488 0.247765
-0.065453 -0.023308 0.245753
-0.063578 -0.023050 0.242933
-0.062576 -0.023106 0.243412
-0.061979 -0.023316 0.245514
-0.060063 -0.023029 0.242374
-0.059000 -0.023064 0.242631
-0.048503 -0.019338 0.203345
-0.047914 -0.019492 0.204871
-0.047564 -0.019752 0.207502
-0.046338 -0.019651 0.206348
-0.045159 -0.019566 0.205362
-0.044434 -0.019679 0.206449
-0.043796 -0.019836 0.207999
-0.043282 -0.020058 0.210227
-0.042550 -0.020186 0.211481
-0.041678 -0.020253 0.212085
-0.040894 -0.020368 0.213189
-0.040018 -0.020441 0.213859
-0.039166 -0.020531 0.214703
-0.038262 -0.020598 0.215303
-0.037344 -0.020660 0.215860
-0.036543 -0.020794 0.217158
-0.035569 -0.020833 0.217471
-0.034709 -0.020943 0.218535
-0.033727 -0.020985 0.218876
-0.032758 -0.021037 0.219334
-0.031837 -0.021125 0.220162
-0.030817 -0.021151 0.220345
-0.029866 -0.021228 0.221060
-0.028902 -0.021302 0.221742
-0.027960 -0.021397 0.222648
-0.026974 -0.021466 0.223284
-0.025969 -0.021524 0.223809
-0.024961 -0.021585 0.224366
-0.023924 -0.021625 0.224706
-0.022896 -0.021677 0.225176
-0.021843 -0.021710 0.225447
-0.020788 -0.021745 0.225742
-0.019744 -0.021795 0.226194
-0.018691 -0.021842 0.226612
-0.017636 -0.021892 0.227069
-0.016583 -0.021950 0.227613
-0.015521 -0.022004 0.228119
-0.014443 -0.022042 0.228460
-0.013367 -0.022090 0.228905
-0.012302 -0.022167 0.229654
-0.011214 -0.022213 0.230085
-0.010115 -0.022245 0.230381
-0.009029 -0.022317 0.231086
-0.007935 -0.022388 0.231792
-0.006829 -0.022443 0.232329
-0.005725 -0.022528 0.233171
-0.004604 -0.022568 0.233563
-0.003476 -0.022595 0.233820
-0.002347 -0.022639 0.234259
-0.001212 -0.022644 0.234293
-0.000076 -0.022675 0.234599
0.001063 -0.022717 0.235023
0.002205 -0.022741 0.235272
0.003349 -0.022760 0.235466
0.004495 -0.022785 0.235722
0.005645 -0.022813 0.236020
0.006808 -0.022875 0.236665
0.007963 -0.022895 0.236888
0.009140 -0.022964 0.237619
0.010319 -0.023026 0.238272
0.011440 -0.022957 0.237577
0.012628 -0.023022 0.238275
0.013851 -0.023135 0.239481
0.015472 -0.023843 0.246837
0.016713 -0.023907 0.247537
0.017673 -0.023587 0.244258
0.018724 -0.023420 0.242573
0.019858 -0.023372 0.242116
0.021085 -0.023431 0.242779
0.022295 -0.023467 0.243203
0.023557 -0.023551 0.244127
0.024860 -0.023666 0.245372
0.026244 -0.023844 0.247280
0.027510 -0.023904 0.247963
0.028711 -0.023905 0.248034
0.029955 -0.023940 0.248463
0.031342 -0.024082 0.250008
0.032607 -0.024124 0.250514
0.033891 -0.024175 0.251126
0.035114 -0.024181 0.251266
0.036363 -0.024205 0.251586
0.037620 -0.024231 0.251945
0.039064 -0.024373 0.253502
0.040787 -0.024675 0.256733
0.042186 -0.024769 0.257793
0.043364 -0.024731 0.257494
0.044581 -0.024718 0.257443
0.045877 -0.024747 0.257843
0.047107 -0.024740 0.257864
0.048296 -0.024713 0.257674
0.049529 -0.024708 0.257726
0.050746 -0.024697 0.257701
0.051910 -0.024661 0.257422
0.053122 -0.024648 0.257389
0.054346 -0.024642 0.257423
0.055482 -0.024597 0.257049
0.054917 -0.023816 0.248983
0.055839 -0.023700 0.247864
0.056483 -0.023472 0.245583
0.057594 -0.023445 0.245388
0.058440 -0.023312 0.244095
0.059352 -0.023211 0.243126
0.060242 -0.023105 0.242112
0.061232 -0.023041 0.241527
0.061930 -0.022871 0.239841
0.062667 -0.022722 0.238362
0.063484 -0.022606 0.237234
0.064440 -0.022543 0.236661
0.065094 -0.022379 0.235015
0.065338 -0.022081 0.231972
0.065578 -0.021792 0.229016
0.066119 -0.021611 0.227190
0.066725 -0.021457 0.225641
0.066602 -0.021077 0.221716
0.067508 -0.021029 0.221284
0.068247 -0.020932 0.220326
0.069081 -0.020866 0.219697
0.069916 -0.020803 0.219090
0.070749 -0.020741 0.218495
0.071561 -0.020674 0.217849
0.072291 -0.020586 0.216977
0.073029 -0.020503 0.216149
0.073636 -0.020386 0.214964
0.074474 -0.020335 0.214472
0.075209 -0.020258 0.213699
0.075920 -0.020176 0.212875
0.076611 -0.020091 0.212015
0.077099 -0.019956 0.210623
0.077674 -0.019847 0.209495
0.078482 -0.019799 0.209014
0.079112 -0.019708 0.208073
0.079666 -0.019601 0.206956
0.080362 -0.019531 0.206224
0.081303 -0.019521 0.206129
0.081791 -0.019404 0.204897
0.082009 -0.019227 0.203020
0.082119 -0.019028 0.200919
0.082331 -0.018858 0.199110
0.082534 -0.018689 0.197312
0.083086 -0.018603 0.196377
0.083098 -0.018398 0.194194
0.083798 -0.018349 0.193646
0.083850 -0.018161 0.191622
0.084570 -0.018119 0.191146
0.085101 -0.018039 0.190252
0.085439 -0.017920 0.188942
0.085804 -0.017809 0.187714
0.086093 -0.017684 0.186340
0.086159 -0.017517 0.184508
0.086156 -0.017339 0.182563
0.086324 -0.017199 0.181008
0.086672 -0.017097 0.179853
0.087185 -0.017030 0.179049
0.087512 -0.016927 0.177875
0.087724 -0.016805 0.176485
0.087994 -0.016696 0.175229
0.088360 -0.016607 0.174179
0.089133 -0.016596 0.173934
0.089552 -0.016519 0.173000
0.089998 -0.016449 0.172124
-0.067157 -0.022318 0.247812
-0.065166 -0.022042 0.244638
-0.064819 -0.022321 0.247635
-0.063627 -0.022315 0.247456
-0.062549 -0.022350 0.247728
-0.053863 -0.019616 0.217319
-0.052480 -0.019486 0.215779
-0.048344 -0.018308 0.202645
-0.047448 -0.018334 0.202841
-0.046597 -0.018380 0.203248
-0.045815 -0.018454 0.203978
-0.044930 -0.018490 0.204279
-0.044498 -0.018718 0.206701
-0.043751 -0.018821 0.207744
-0.043100 -0.018971 0.209300
-0.042354 -0.019085 0.210460
-0.041795 -0.019291 0.212636
-0.040932 -0.019364 0.213340
-0.040030 -0.019421 0.213873
-0.039142 -0.019489 0.214521
-0.038226 -0.019546 0.215050
-0.037419 -0.019663 0.216244
-0.036436 -0.019692 0.216468
-0.035607 -0.019808 0.217648
-0.034676 -0.019873 0.218270
-0.033693 -0.019912 0.218600
-0.032732 -0.019966 0.219102
-0.031832 -0.020062 0.220071
-0.030860 -0.020118 0.220596
-0.029854 -0.020155 0.220912
-0.028944 -0.020262 0.222002
-0.027942 -0.020310 0.222447
-0.026958 -0.020376 0.223086
-0.025958 -0.020435 0.223654
-0.024936 -0.020481 0.224076
-0.023915 -0.020532 0.224552
-0.022872 -0.020568 0.224872
-0.021825 -0.020604 0.225195
-0.020778 -0.020644 0.225568
-0.019720 -0.020677 0.225856
-0.018671 -0.020723 0.226302
-0.017620 -0.020773 0.226785
-0.016576 -0.020839 0.227448
-0.015499 -0.020870 0.227723
-0.014447 -0.020941 0.228449
-0.013377 -0.020996 0.229003
-0.012302 -0.021052 0.229566
-0.011218 -0.021104 0.230085
-0.010126 -0.021149 0.230537
-0.009036 -0.021212 0.231185
-0.007949 -0.021299 0.232091
-0.006845 -0.021363 0.232758
-0.005727 -0.021400 0.233129
-0.004601 -0.021419 0.233312
-0.003473 -0.021440 0.233524
-0.002344 -0.021462 0.233739
-0.001211 -0.021478 0.233903
-0.000077 -0.021487 0.233990
0.001059 -0.021517 0.234299
0.002199 -0.021549 0.234647
0.003339 -0.021563 0.234796
0.004479 -0.021566 0.234834
0.005627 -0.021603 0.235242
0.006784 -0.021652 0.235778
0.008000 -0.021848 0.237930
0.009216 -0.021996 0.239555
0.010393 -0.022029 0.239928
0.011477 -0.021877 0.238292
0.012656 -0.021917 0.238751
0.013866 -0.021999 0.239683
0.015516 -0.022713 0.247486
0.016739 -0.022744 0.247860
0.017766 -0.022523 0.245488
0.018845 -0.022391 0.244095
0.019934 -0.022285 0.242988
0.021127 -0.022301 0.243207
0.022349 -0.022345 0.243736
0.023534 -0.022349 0.243833
0.024788 -0.022415 0.244612
0.026140 -0.022559 0.246246
0.027381 -0.022600 0.246748
0.028595 -0.022615 0.246980
0.029804 -0.022625 0.247154
0.031265 -0.022819 0.249344
0.032588 -0.022900 0.250310
0.033890 -0.022962 0.251060
0.035141 -0.022987 0.251410
0.036416 -0.023025 0.251901
0.037660 -0.023041 0.252159
0.039067 -0.023153 0.253473
0.040655 -0.023362 0.255847
0.042128 -0.023495 0.257393
0.043352 -0.023485 0.257374
0.044598 -0.023487 0.257489
0.045883 -0.023509 0.257827
0.047091 -0.023492 0.257728
0.048320 -0.023486 0.257757
0.049544 -0.023477 0.257757
0.050732 -0.023452 0.257587
0.051913 -0.023426 0.257390
0.053120 -0.023412 0.257336
0.054336 -0.023402 0.257330
0.055481 -0.023363 0.257003
0.054803 -0.022575 0.248429
0.055817 -0.022502 0.247726
0.056649 -0.022361 0.246268
0.057698 -0.022309 0.245791
0.058278 -0.022082 0.243383
0.059292 -0.022025 0.242848
0.060265 -0.021955 0.242170
0.061179 -0.021867 0.241285
0.061786 -0.021674 0.239251
0.062598 -0.021559 0.238066
0.063401 -0.021445 0.236896
0.064253 -0.021351 0.235944
0.064580 -0.021089 0.233134
0.065081 -0.020892 0.231035
0.065343 -0.020626 0.228171
0.065932 -0.020470 0.226523
0.066006 -0.020162 0.223187
0.066702 -0.020050 0.222028
0.067669 -0.020023 0.221790
0.068414 -0.019931 0.220845
0.069123 -0.019832 0.219811
0.069971 -0.019775 0.219245
0.070773 -0.019708 0.218553
0.071597 -0.019647 0.217943
0.072256 -0.019545 0.216857
0.072925 -0.019447 0.215830
0.073595 -0.019353 0.214830
0.074449 -0.019309 0.214389
0.075198 -0.019239 0.213656
0.075870 -0.019152 0.212725
0.076341 -0.019017 0.211262
0.076620 -0.018838 0.209305
0.077566 -0.018826 0.209198
0.078458 -0.018801 0.208946
0.079029 -0.018701 0.207852
0.080093 -0.018718 0.208062
0.080732 -0.018637 0.207172
0.081244 -0.018529 0.205979
0.081021 -0.018258 0.202967
0.081756 -0.018207 0.202396
0.081762 -0.017996 0.200047
0.082336 -0.017914 0.199124
0.082941 -0.017840 0.198291
0.082828 -0.017615 0.195773
0.083471 -0.017555 0.195072
0.083640 -0.017397 0.193289
0.083971 -0.017275 0.191907
0.084617 -0.017221 0.191260
0.085104 -0.017136 0.190268
0.085517 -0.017037 0.189126
0.085996 -0.016954 0.188145
0.086503 -0.016878 0.187240
0.086470 -0.016699 0.185188
0.086214 -0.016481 0.182702
0.086312 -0.016335 0.180999
0.086778 -0.016260 0.180088
0.087215 -0.016182 0.179128
0.087546 -0.016085 0.177964
0.087813 -0.015979 0.176685
0.088114 -0.015881 0.175490
0.088641 -0.015825 0.174755
0.089311 -0.015796 0.174305
0.089798 -0.015734 0.173499
0.090199 -0.015660 0.172534
-1.430148 -0.279370 3.302589
-1.420479 -0.280517 3.316354
-0.065825 -0.020720 0.242860
-0.065208 -0.020891 0.244757
-0.064853 -0.021154 0.247728
-0.063661 -0.021148 0.247550
-0.055281 -0.018710 0.218910
-0.053874 -0.018584 0.217329
-0.052922 -0.018612 0.217561
-0.048252 -0.017308 0.202224
-0.047529 -0.017396 0.203152
-0.046652 -0.017429 0.203448
-0.045929 -0.017523 0.204448
-0.045210 -0.017623 0.205514
-0.044527 -0.017741 0.206800
-0.043717 -0.017813 0.207540
-0.042882 -0.017878 0.208199
-0.042350 -0.018075 0.210399
-0.041378 -0.018090 0.210471
-0.040940 -0.018345 0.213338
-0.040003 -0.018383 0.213683
-0.039076 -0.018428 0.214114
-0.038238 -0.018519 0.215068
-0.037312 -0.018571 0.215580
-0.036462 -0.018665 0.216573
-0.035549 -0.018731 0.217246
-0.034571 -0.018766 0.217559
-0.033667 -0.018845 0.218375
-0.032718 -0.018903 0.218952
-0.031794 -0.018979 0.219752
-0.030858 -0.019054 0.220521
-0.029832 -0.019076 0.220694
-0.028908 -0.019167 0.221666
-0.027931 -0.019229 0.222297
-0.026945 -0.019290 0.222921
-0.025942 -0.019343 0.223450
-0.024934 -0.019397 0.223998
-0.023899 -0.019434 0.224339
-0.022866 -0.019476 0.224756
-0.021829 -0.019519 0.225177
-0.020779 -0.019553 0.225504
-0.019727 -0.019591 0.225868
-0.018686 -0.019644 0.226416
-0.017634 -0.019690 0.226890
-0.016591 -0.019754 0.227572
-0.015515 -0.019786 0.227875
-0.014436 -0.019819 0.228199
-0.013379 -0.019889 0.228965
-0.012301 -0.019938 0.229480
-0.011235 -0.020019 0.230361
-0.010138 -0.020055 0.230733
-0.009039 -0.020097 0.231179
-0.007952 -0.020180 0.232094
-0.006839 -0.020216 0.232476
-0.005724 -0.020257 0.232926
-0.004597 -0.020268 0.233026
-0.003471 -0.020286 0.233213
-0.002343 -0.020313 0.233500
-0.001211 -0.020321 0.233576
-0.000078 -0.020330 0.233666
0.001057 -0.020361 0.234009
0.002198 -0.020412 0.234598
0.003338 -0.020423 0.234719
0.004482 -0.020447 0.235001
0.005624 -0.020453 0.235068
0.006800 -0.020561 0.236323
0.007978 -0.020641 0.237246
0.009295 -0.021016 0.241577
0.010392 -0.020865 0.239863
0.011467 -0.020704 0.238032
0.012655 -0.020760 0.238700
0.013846 -0.020809 0.239288
0.015385 -0.021334 0.245361
0.016916 -0.021772 0.250434
0.017777 -0.021347 0.245590
0.018985 -0.021367 0.245859
0.020121 -0.021308 0.245223
0.021113 -0.021111 0.243005
0.022336 -0.021154 0.243545
0.023594 -0.021224 0.244408
0.024822 -0.021261 0.244891
0.026123 -0.021354 0.246029
0.027415 -0.021433 0.246995
0.028567 -0.021400 0.246686
0.029891 -0.021493 0.247824
0.031260 -0.021611 0.249248
0.032563 -0.021675 0.250070
0.033813 -0.021701 0.250446
0.035123 -0.021762 0.251226
0.036404 -0.021802 0.251770
0.037665 -0.021828 0.252146
0.039113 -0.021957 0.253724
0.040543 -0.022068 0.255096
0.042141 -0.022262 0.257421
0.043321 -0.022230 0.257142
0.044561 -0.022229 0.257229
0.045854 -0.022254 0.257618
0.047077 -0.022245 0.257606
0.048279 -0.022227 0.257490
0.049512 -0.022223 0.257549
0.050723 -0.022210 0.257496
0.051897 -0.022182 0.257270
0.053095 -0.022165 0.257170
0.054283 -0.022145 0.257040
0.055386 -0.022092 0.256520
0.055113 -0.021504 0.249796
0.055785 -0.021302 0.247548
0.056499 -0.021125 0.245577
0.057504 -0.021061 0.244931
0.058395 -0.020959 0.243837
0.059238 -0.020843 0.242592
0.060256 -0.020793 0.242098
0.061186 -0.020715 0.241282
0.061998 -0.020600 0.240038
0.062804 -0.020488 0.238819
0.063767 -0.020430 0.238235
0.064572 -0.020324 0.237087
0.065510 -0.020264 0.236465
0.065248 -0.019840 0.231603
0.065558 -0.019601 0.228897
0.065794 -0.019349 0.226026
0.065725 -0.019016 0.222218
0.066436 -0.018916 0.221120
0.067353 -0.018877 0.220735
0.068262 -0.018837 0.220334
0.068941 -0.018736 0.219214
0.069793 -0.018684 0.218669
0.070640 -0.018632 0.218125
0.071413 -0.018563 0.217368
0.072111 -0.018476 0.216408
0.072892 -0.018413 0.215718
0.073578 -0.018327 0.214768
0.074231 -0.018236 0.213749
0.075083 -0.018196 0.213320
0.075864 -0.018140 0.212699
0.076534 -0.018059 0.211785
0.076499 -0.017816 0.208967
0.077319 -0.017776 0.208525
0.078135 -0.017736 0.208080
0.078873 -0.017679 0.207438
0.079608 -0.017623 0.206800
0.080397 -0.017581 0.206312
0.080996 -0.017498 0.205349
0.081587 -0.017415 0.204385
0.082041 -0.017306 0.203102
0.082528 -0.017206 0.201925
0.082440 -0.016990 0.199377
0.082725 -0.016855 0.197778
0.083206 -0.016762 0.196670
0.083159 -0.016566 0.194348
0.083442 -0.016440 0.192836
0.084162 -0.016401 0.192351
0.084545 -0.016298 0.191107
0.085063 -0.016224 0.190186
0.085493 -0.016134 0.189084
0.085967 -0.016054 0.188093
0.086084 -0.015910 0.186346
0.086313 -0.015789 0.184866
0.086228 -0.015614 0.182744
0.086376 -0.015484 0.181148
0.086711 -0.015390 0.179964
0.087166 -0.015320 0.179045
0.087480 -0.015225 0.177847
0.087809 -0.015135 0.176695
0.088057 -0.015034 0.175397
0.088617 -0.014986 0.174729
0.089310 -0.014962 0.174324
0.089784 -0.014902 0.173494
0.090315 -0.014853 0.172781
-1.455019 -0.265517 3.323824
-1.441801 -0.265952 3.329545
-1.420931 -0.264970 3.317438
-0.065857 -0.019574 0.242946
-0.065240 -0.019736 0.244844
-0.058540 -0.018030 0.223580
-0.057423 -0.018012 0.223261
-0.055087 -0.017605 0.218107
-0.053797 -0.017522 0.216981
-0.052846 -0.017549 0.217213
-0.048370 -0.016383 0.202685
-0.047508 -0.016418 0.203026
-0.046730 -0.016485 0.203756
-0.046016 -0.016578 0.204803
-0.045317 -0.016679 0.205964
-0.044490 -0.016738 0.206590
-0.043593 -0.016772 0.206914
-0.042834 -0.016862 0.207924
-0.042069 -0.016954 0.208963
-0.041682 -0.017207 0.211978
-0.040819 -0.017271 0.212662
-0.039913 -0.017319 0.213160
-0.039079 -0.017402 0.214086
-0.038225 -0.017480 0.214948
-0.037435 -0.017593 0.216244
-0.036498 -0.017641 0.216736
-0.035506 -0.017665 0.216935
-0.034546 -0.017707 0.217351
-0.033634 -0.017777 0.218113
-0.032625 -0.017798 0.218281
-0.031889 -0.017974 0.220355
-0.030874 -0.018000 0.220584
-0.029868 -0.018034 0.220906
-0.028931 -0.018112 0.221785
-0.027936 -0.018160 0.222285
-0.026954 -0.018220 0.222937
-0.025948 -0.018268 0.223444
-0.024929 -0.018312 0.223894
-0.023911 -0.018359 0.224391
-0.022875 -0.018397 0.224785
-0.021838 -0.018437 0.225206
-0.020785 -0.018468 0.225510
-0.019748 -0.018517 0.226047
-0.018718 -0.018579 0.226730
-0.017651 -0.018610 0.227048
-0.016591 -0.018652 0.227508
-0.015540 -0.018712 0.228177
-0.014453 -0.018734 0.228399
-0.013374 -0.018772 0.228807
-0.012308 -0.018836 0.229533
-0.011231 -0.018895 0.230206
-0.010142 -0.018942 0.230740
-0.009039 -0.018974 0.231091
-0.007938 -0.019021 0.231625
-0.006828 -0.019056 0.232025
-0.005716 -0.019097 0.232489
-0.004593 -0.019115 0.232687
-0.003468 -0.019136 0.232922
-0.002343 -0.019172 0.233335
-0.001211 -0.019170 0.233295
-0.000079 -0.019177 0.233375
0.001054 -0.019188 0.233497
0.002191 -0.019218 0.233850
0.003330 -0.019244 0.234170
0.004462 -0.019226 0.233951
0.005616 -0.019290 0.234732
0.006775 -0.019344 0.235396
0.007991 -0.019524 0.237604
0.009172 -0.019584 0.238345
0.010439 -0.019793 0.240912
0.011497 -0.019603 0.238619
0.012634 -0.019571 0.238261
0.013872 -0.019686 0.239688
0.015046 -0.019702 0.239909
0.016621 -0.020201 0.246024
0.017717 -0.020090 0.244717
0.019104 -0.020303 0.247351
0.019831 -0.019831 0.241641
0.021064 -0.019888 0.242391
0.022346 -0.019984 0.243610
0.023667 -0.020103 0.245112
0.024863 -0.020109 0.245243
0.026177 -0.020206 0.246487
0.027459 -0.020272 0.247349
0.028644 -0.020262 0.247301
0.029920 -0.020315 0.248017
0.031259 -0.020406 0.249195
0.032592 -0.020486 0.250245
0.033883 -0.020534 0.250911
0.035172 -0.020578 0.251527
0.036401 -0.020586 0.251701
0.037654 -0.020605 0.252025
0.039164 -0.020760 0.254004
0.040540 -0.020837 0.255027
0.041868 -0.020885 0.255706
0.043245 -0.020954 0.256642
0.044508 -0.020965 0.256877
0.045775 -0.020978 0.257125
0.046995 -0.020969 0.257110
0.048210 -0.020958 0.257078
0.049433 -0.020951 0.257095
0.050642 -0.020939 0.257042
0.051806 -0.020909 0.256776
0.052966 -0.020879 0.256507
0.054148 -0.020859 0.256358
0.055308 -0.020831 0.256120
0.055018 -0.020271 0.249325
0.055745 -0.020101 0.247331
0.056465 -0.019935 0.245394
0.057506 -0.019888 0.244903
0.058289 -0.019755 0.243361
0.059340 -0.019716 0.242978
0.060250 -0.019632 0.242043
0.061127 -0.019542 0.241020
0.062066 -0.019474 0.240274
0.062807 -0.019347 0.238805
0.063608 -0.019244 0.237613
0.063982 -0.019016 0.234896
0.065574 -0.019153 0.236670
0.064622 -0.018555 0.229357
0.065648 -0.018534 0.229187
0.065333 -0.018143 0.224420
0.065520 -0.017901 0.221503
0.066271 -0.017818 0.220551
0.067214 -0.017789 0.220260
0.067950 -0.017706 0.219309
0.068818 -0.017660 0.218808
0.069630 -0.017602 0.218143
0.070465 -0.017550 0.217570
0.071265 -0.017492 0.216904
0.071970 -0.017412 0.215970
0.072648 -0.017328 0.214983
0.073388 -0.017261 0.214202
0.074257 -0.017226 0.213812
0.074898 -0.017140 0.212783
0.075488 -0.017044 0.211637
0.075961 -0.016925 0.210193
0.076482 -0.016819 0.208914
0.077158 -0.016750 0.208086
0.078059 -0.016731 0.207871
0.078759 -0.016670 0.207132
0.079369 -0.016591 0.206175
0.080020 -0.016523 0.205340
0.080790 -0.016481 0.204826
0.081392 -0.016406 0.203897
0.081992 -0.016332 0.202981
0.081987 -0.016141 0.200602
0.082388 -0.016033 0.199255
0.082629 -0.015897 0.197552
0.082824 -0.015756 0.195771
0.083303 -0.015671 0.194692
0.083237 -0.015486 0.192368
0.083547 -0.015374 0.190951
0.084139 -0.015317 0.190196
0.084676 -0.015250 0.189328
0.085209 -0.015184 0.188464
0.085759 -0.015123 0.187649
0.086144 -0.015034 0.186487
0.086391 -0.014923 0.185045
0.086394 -0.014773 0.183111
0.086402 -0.014627 0.181218
0.086673 -0.014527 0.179902
0.087053 -0.014448 0.178828
0.087468 -0.014375 0.177840
0.087841 -0.014298 0.176778
0.088274 -0.014231 0.175846
0.088631 -0.014154 0.174775
0.089311 -0.014129 0.174347
0.089904 -0.014091 0.173749
0.090418 -0.014042 0.173000
-1.425023 -0.244700 3.255357
-1.428321 -0.247920 3.298457
-1.422244 -0.249565 3.320530
-1.414644 -0.250978 3.339417
-0.067391 -0.017908 0.236494
-0.065946 -0.017820 0.235230
-0.064477 -0.017723 0.233842
-0.061963 -0.017329 0.228553
-0.060139 -0.017118 0.225670
-0.058474 -0.016946 0.223300
-0.057128 -0.016862 0.222084
-0.055347 -0.016644 0.219107
-0.053550 -0.016412 0.215955
-0.050485 -0.015775 0.207479
-0.048457 -0.015443 0.203017
-0.047560 -0.015466 0.203216
-0.046700 -0.015502 0.203592
-0.045897 -0.015558 0.204239
-0.045226 -0.015663 0.205516
-0.044497 -0.015752 0.206587
-0.043663 -0.015807 0.207208
-0.042747 -0.015834 0.207469
-0.041982 -0.015920 0.208493
-0.041280 -0.016034 0.209890
-0.040868 -0.016270 0.212879
-0.039970 -0.016320 0.213426
-0.039121 -0.016392 0.214273
-0.038271 -0.016468 0.215167
-0.037383 -0.016531 0.215895
-0.036363 -0.016538 0.215893
-0.035502 -0.016620 0.216862
-0.034582 -0.016679 0.217534
-0.032695 -0.016782 0.218701
-0.031766 -0.016848 0.219459
-0.030876 -0.016938 0.220551
-0.029866 -0.016967 0.220840
-0.028882 -0.017014 0.221361
-0.027908 -0.017070 0.222010
-0.026889 -0.017102 0.222344
-0.025902 -0.017159 0.222993
-0.024928 -0.017229 0.223830
-0.023887 -0.017257 0.224114
-0.022855 -0.017294 0.224525
-0.021832 -0.017343 0.225081
-0.020786 -0.017378 0.225467
-0.019737 -0.017413 0.225860
-0.018679 -0.017445 0.226206
-0.017616 -0.017475 0.226530
-0.016581 -0.017539 0.227305
-0.015513 -0.017576 0.227723
-0.014440 -0.017611 0.228122
-0.013399 -0.017695 0.229158
-0.012319 -0.017738 0.229672
-0.011230 -0.017775 0.230105
-0.010142 -0.017822 0.230665
-0.009050 -0.017874 0.231300
-0.007963 -0.017950 0.232250
-0.006848 -0.017981 0.232611
-0.005728 -0.018007 0.232921
-0.004603 -0.018022 0.233094
-0.003475 -0.018040 0.233297
-0.002347 -0.018064 0.233598
-0.001214 -0.018075 0.233720
-0.000080 -0.018081 0.233788
0.001056 -0.018099 0.234011
0.002194 -0.018116 0.234227
0.003343 -0.018180 0.235050
0.004478 -0.018157 0.234747
0.005618 -0.018160 0.234792
0.006829 -0.018351 0.237268
0.007994 -0.018380 0.237655
0.009150 -0.018384 0.237728
0.010331 -0.018434 0.238388
0.011480 -0.018419 0.238227
0.012661 -0.018455 0.238716
0.013842 -0.018486 0.239139
0.015036 -0.018527 0.239699
0.016252 -0.018587 0.240519
0.017475 -0.018647 0.241331
0.018645 -0.018646 0.241356
0.019779 -0.018612 0.240960
0.021017 -0.018673 0.241805
0.022278 -0.018747 0.242819
0.024050 -0.019223 0.249030
0.024944 -0.018985 0.246003
0.026135 -0.018984 0.246051
0.027476 -0.019087 0.247452
0.028627 -0.019055 0.247107
0.030042 -0.019194 0.248981
0.031262 -0.019204 0.249174
0.032541 -0.019247 0.249808
0.033844 -0.019300 0.250578
0.035178 -0.019367 0.251529
0.036434 -0.019388 0.251884
0.037694 -0.019410 0.252247
0.039057 -0.019481 0.253266
0.040416 -0.019547 0.254207
0.041799 -0.019620 0.255240
0.043107 -0.019654 0.255780
0.044441 -0.019698 0.256448
0.045699 -0.019707 0.256657
0.046925 -0.019702 0.256687
0.048158 -0.019700 0.256758
0.049381 -0.019694 0.256781
0.050593 -0.019684 0.256755
0.051780 -0.019665 0.256605
0.052951 -0.019641 0.256394
0.054138 -0.019624 0.256274
0.055138 -0.019542 0.255299
0.055237 -0.019150 0.250282
0.055587 -0.018861 0.246596
0.056447 -0.018753 0.245285
0.057465 -0.018701 0.244697
0.058391 -0.018621 0.243757
0.059309 -0.018542 0.242818
0.060197 -0.018457 0.241802
0.061053 -0.018366 0.240700
0.061924 -0.018282 0.239694
0.062860 -0.018221 0.238980
0.063628 -0.018113 0.237661
0.063831 -0.017852 0.234316
0.063020 -0.017321 0.227427
0.063392 -0.017127 0.224967
0.064164 -0.017046 0.223987
0.065119 -0.017016 0.223664
0.065741 -0.016901 0.222230
0.066295 -0.016772 0.220611
0.067187 -0.016732 0.220154
0.067904 -0.016650 0.219143
0.068712 -0.016593 0.218455
0.069498 -0.016532 0.217715
0.070372 -0.016493 0.217268
0.071241 -0.016454 0.216816
0.071817 -0.016350 0.215501
0.072667 -0.016310 0.215029
0.073474 -0.016262 0.214443
0.074062 -0.016167 0.213241
0.074752 -0.016097 0.212359
0.075170 -0.015971 0.210736
0.075983 -0.015931 0.210245
0.076740 -0.015880 0.209612
0.077415 -0.015815 0.208772
0.078203 -0.015773 0.208250
0.078814 -0.015697 0.207273
0.079673 -0.015672 0.206962
0.080283 -0.015599 0.206014
0.080067 -0.015370 0.202990
0.080622 -0.015292 0.201968
0.081329 -0.015244 0.201340
0.081873 -0.015168 0.200324
0.082368 -0.015084 0.199207
0.082936 -0.015015 0.198288
0.083289 -0.014909 0.196874
0.082999 -0.014692 0.193985
0.083425 -0.014605 0.192810
0.083962 -0.014539 0.191907
0.084396 -0.014457 0.190784
0.084903 -0.014389 0.189845
0.085502 -0.014338 0.189121
0.085858 -0.014247 0.187875
0.086328 -0.014178 0.186895
0.086569 -0.014072 0.185437
0.086353 -0.013895 0.183036
0.086135 -0.013721 0.180670
0.086523 -0.013647 0.179605
0.086971 -0.013583 0.178674
0.087466 -0.013527 0.177850
0.087823 -0.013452 0.176759
0.088259 -0.013390 0.175834
0.088650 -0.013322 0.174832
0.089258 -0.013288 0.174264
0.089854 -0.013253 0.173673
0.090469 -0.013221 0.173118
-1.446729 -0.232850 3.304993
