ply
format ascii 1.0
element vertex 1745
property float x
property float y
property float z
end_header
0.068519 0.019776 0.217922
0.069092 0.019643 0.216521
0.067381 0.018874 0.208107
0.068267 0.018844 0.207836
0.068654 0.018679 0.206076
0.069466 0.018633 0.205619
0.070425 0.018627 0.205605
0.071033 0.018530 0.204579
0.071592 0.018422 0.203438
0.072176 0.018324 0.202395
0.073077 0.018308 0.202255
0.073765 0.018239 0.201535
0.074397 0.018159 0.200678
0.075086 0.018094 0.199992
0.075676 0.018008 0.199059
0.076071 0.017877 0.197639
0.076698 0.017804 0.196847
0.077250 0.017715 0.195880
0.077799 0.017628 0.194924
0.078515 0.017580 0.194398
0.078985 0.017479 0.193280
0.079465 0.017382 0.192205
0.080217 0.017346 0.191803
0.080779 0.017271 0.190954
0.081361 0.017201 0.190167
0.081883 0.017121 0.189252
0.082468 0.017055 0.188495
0.083017 0.016983 0.187668
0.083469 0.016893 0.186637
0.083589 0.016738 0.184887
0.084031 0.016651 0.183872
0.084801 0.016629 0.183579
0.083883 0.016280 0.179672
0.084324 0.016200 0.178720
0.084908 0.016148 0.178079
0.084855 0.015978 0.176120
0.085298 0.015903 0.175214
0.085604 0.015804 0.174038
0.085774 0.015682 0.172604
0.085491 0.015481 0.170288
0.085127 0.015269 0.167849
0.085830 0.015250 0.167534
0.086014 0.015141 0.166210
0.086519 0.015089 0.165517
-1.026509 0.189082 1.990996
-1.015526 0.188790 1.989080
-1.018604 0.191130 2.014835
-0.996760 0.188793 1.991216
-0.986427 0.188614 1.990254
-0.978223 0.188841 1.993518
-0.968203 0.188720 1.993022
-0.963311 0.189605 2.003094
-0.958341 0.190492 2.013125
-0.958865 0.192500 2.034942
-0.960153 0.194703 2.058775
-0.959532 0.196560 2.078893
-0.951365 0.196894 2.082843
-0.939578 0.196478 2.078795
-0.931317 0.196798 2.082479
-0.874335 0.186720 1.976066
-0.859211 0.185461 1.962914
-0.846738 0.184753 1.955544
-0.825293 0.182050 1.927008
-0.249204 0.073534 0.774822
-0.252017 0.075472 0.794949
-0.245579 0.074657 0.786057
-0.239313 0.073869 0.777457
-0.240390 0.075359 0.792819
-0.237035 0.075485 0.793816
-0.233015 0.075400 0.792586
-0.229747 0.075559 0.793920
-0.226084 0.075591 0.793914
-0.222107 0.075518 0.792796
-0.218336 0.075514 0.792397
-0.214872 0.075617 0.793120
-0.061730 0.022929 0.240158
-0.060426 0.022867 0.239399
-0.058011 0.022374 0.234130
-0.056712 0.022301 0.233257
-0.054403 0.021820 0.228118
-0.052670 0.021555 0.225241
-0.052013 0.021729 0.226950
-0.050751 0.021652 0.226035
-0.048817 0.021279 0.222034
-0.047260 0.021057 0.219612
-0.046277 0.021087 0.219818
-0.042447 0.019790 0.206204
-0.041157 0.019645 0.204590
-0.039906 0.019511 0.203102
-0.038917 0.019502 0.202918
-0.038338 0.019704 0.204915
-0.037668 0.019867 0.206523
-0.037115 0.020104 0.208883
-0.036389 0.020257 0.210376
-0.035581 0.020372 0.211476
-0.034750 0.020479 0.212502
-0.033877 0.020568 0.213330
-0.033012 0.020668 0.214269
-0.032075 0.020727 0.214798
-0.031119 0.020778 0.215233
-0.030258 0.020898 0.216388
-0.029473 0.021081 0.218189
-0.028464 0.021111 0.218415
-0.026485 0.021209 0.219269
-0.025492 0.021262 0.219738
-0.023455 0.021335 0.220337
-0.022533 0.021470 0.221653
-0.021544 0.021550 0.222410
-0.020494 0.021574 0.222591
-0.019475 0.021636 0.223158
-0.018456 0.021705 0.223807
-0.017431 0.021774 0.224461
-0.016372 0.021808 0.224753
-0.015329 0.021871 0.225343
-0.014305 0.021970 0.226314
-0.013273 0.022074 0.227335
-0.012216 0.022152 0.228090
-0.011115 0.022157 0.228093
-0.010050 0.022244 0.228947
-0.008964 0.022298 0.229464
-0.007876 0.022366 0.230123
-0.006778 0.022418 0.230627
-0.005673 0.022465 0.231086
-0.004576 0.022576 0.232200
-0.003460 0.022634 0.232778
-0.002336 0.022679 0.233217
-0.001211 0.022782 0.234264
-0.000076 0.022816 0.234597
0.001062 0.022836 0.234791
0.002206 0.022891 0.235353
0.003352 0.022927 0.235720
0.004501 0.022959 0.236054
0.005660 0.023016 0.236645
0.006818 0.023054 0.237047
0.008000 0.023147 0.238012
0.009189 0.023237 0.238951
0.010396 0.023345 0.240087
0.011601 0.023428 0.240957
0.012820 0.023521 0.241943
0.013990 0.023515 0.241913
0.015184 0.023548 0.242284
0.016401 0.023610 0.242958
0.017577 0.023607 0.242966
0.018808 0.023675 0.243705
0.020027 0.023720 0.244214
0.021197 0.023705 0.244109
0.022421 0.023749 0.244614
0.023662 0.023806 0.245254
0.024925 0.023878 0.246055
0.026208 0.023962 0.246984
0.027443 0.023996 0.247395
0.028726 0.024068 0.248206
0.029977 0.024108 0.248689
0.031278 0.024184 0.249543
0.032525 0.024213 0.249920
0.033761 0.024233 0.250203
0.035008 0.024259 0.250550
0.036262 0.024288 0.250931
0.037509 0.024311 0.251245
0.038775 0.024343 0.251670
0.040056 0.024384 0.252173
0.041310 0.024405 0.252486
0.042550 0.024417 0.252700
0.043800 0.024434 0.252970
0.045013 0.024430 0.253025
0.046317 0.024475 0.253584
0.047489 0.024449 0.253410
0.048600 0.024394 0.252937
0.049963 0.024464 0.253766
0.051175 0.024460 0.253817
0.051899 0.024227 0.251505
0.051916 0.023683 0.245950
0.052399 0.023371 0.242806
0.053151 0.023189 0.241016
0.054293 0.023182 0.241039
0.055260 0.023102 0.240304
0.056141 0.022990 0.239232
0.056631 0.022726 0.236577
0.057282 0.022535 0.234686
0.058331 0.022505 0.234468
0.059262 0.022432 0.233795
0.059975 0.022280 0.232302
0.060860 0.022196 0.231522
0.061831 0.022147 0.231092
0.062727 0.022072 0.230403
0.063572 0.021983 0.229557
0.064140 0.021802 0.227755
0.065090 0.021755 0.227348
0.065933 0.021675 0.226585
0.066554 0.021525 0.225097
0.066809 0.021264 0.222439
0.067212 0.021056 0.220345
0.068103 0.021006 0.219894
0.068670 0.020859 0.218421
0.069305 0.020737 0.217208
0.067099 0.019781 0.207250
0.067825 0.019704 0.206508
0.068699 0.019672 0.206227
0.069585 0.019644 0.205987
0.070214 0.019545 0.205002
0.070912 0.019469 0.204243
0.071716 0.019422 0.203802
0.072423 0.019351 0.203099
0.072893 0.019220 0.201755
0.073741 0.019190 0.201477
0.074437 0.019122 0.200792
0.074929 0.019004 0.199580
0.075491 0.018906 0.198579
0.076075 0.018816 0.197654
0.076469 0.018682 0.196262
0.076915 0.018564 0.195031
0.077537 0.018491 0.194268
0.078101 0.018405 0.193373
0.078766 0.018345 0.192742
0.079358 0.018270 0.191945
0.079960 0.018198 0.191187
0.080543 0.018124 0.190392
0.081046 0.018034 0.189427
0.081410 0.017915 0.188153
0.082123 0.017875 0.187701
0.082620 0.017789 0.186764
0.082996 0.017679 0.185572
0.083212 0.017537 0.184043
0.083512 0.017416 0.182724
0.084074 0.017352 0.181994
0.084141 0.017188 0.180212
0.084004 0.016985 0.178027
0.084348 0.016884 0.176889
0.084703 0.016786 0.175789
0.085140 0.016706 0.174873
0.085774 0.016667 0.174367
0.085584 0.016469 0.172203
0.085387 0.016274 0.170061
0.084888 0.016025 0.167358
0.085275 0.015947 0.166428
0.085926 0.015919 0.166018
0.086380 0.015856 0.165228
-1.025904 0.198400 1.989593
-1.018646 0.198818 1.994974
-1.010694 0.199108 1.998986
-0.995638 0.197990 1.988786
-0.984710 0.197679 1.986613
-0.975768 0.197765 1.988351
-0.966874 0.197863 1.990135
-0.958807 0.198133 1.993588
-0.955150 0.199330 2.006294
-0.955830 0.201464 2.028385
-0.959836 0.204349 2.057988
-0.959371 0.206332 2.078449
-0.951114 0.206662 2.082208
-0.945185 0.207510 2.091128
-0.936869 0.207847 2.094834
-0.872348 0.195589 1.971531
-0.852707 0.193238 1.948021
-0.846426 0.193897 1.954799
-0.838626 0.194219 1.958127
-0.254861 0.078954 0.792500
-0.251544 0.079087 0.793546
-0.244699 0.078099 0.783334
-0.242668 0.078641 0.788457
-0.240754 0.079237 0.794123
-0.237393 0.079369 0.795121
-0.233800 0.079426 0.795366
-0.230952 0.079743 0.798200
-0.227325 0.079797 0.798393
-0.223570 0.079806 0.798141
-0.220465 0.080052 0.800248
-0.217019 0.080181 0.801176
-0.062460 0.024356 0.243040
-0.060499 0.024036 0.239731
-0.058298 0.023606 0.235335
-0.056155 0.023183 0.231009
-0.054713 0.023039 0.229464
-0.053482 0.022979 0.228761
-0.052047 0.022828 0.227144
-0.050594 0.022661 0.225382
-0.049173 0.022503 0.223701
-0.046960 0.021967 0.218265
-0.045605 0.021817 0.216673
-0.042573 0.020839 0.206862
-0.041058 0.020575 0.204146
-0.039914 0.020488 0.203191
-0.038880 0.020455 0.202769
-0.037935 0.020469 0.202810
-0.037680 0.020865 0.206644
-0.036869 0.020967 0.207554
-0.036036 0.021061 0.208392
-0.035545 0.021366 0.211315
-0.034679 0.021457 0.212122
-0.033797 0.021543 0.212884
-0.032906 0.021629 0.213640
-0.032013 0.021719 0.214438
-0.031050 0.021766 0.214814
-0.030255 0.021938 0.216424
-0.029363 0.022050 0.217441
-0.028366 0.022087 0.217726
-0.027394 0.022148 0.218245
-0.026444 0.022233 0.218999
-0.025466 0.022300 0.219580
-0.024469 0.022356 0.220050
-0.023515 0.022457 0.220970
-0.022513 0.022520 0.221520
-0.021490 0.022568 0.221923
-0.020462 0.022615 0.222316
-0.019437 0.022670 0.222793
-0.018406 0.022725 0.223267
-0.017350 0.022754 0.223493
-0.016320 0.022824 0.224118
-0.015277 0.022884 0.224656
-0.014234 0.022954 0.225283
-0.013200 0.023050 0.226176
-0.012130 0.023095 0.226575
-0.011114 0.023261 0.228159
-0.010025 0.023296 0.228464
-0.008939 0.023347 0.228924
-0.007863 0.023444 0.229838
-0.006768 0.023503 0.230381
-0.005663 0.023547 0.230783
-0.004563 0.023641 0.231677
-0.003449 0.023699 0.232222
-0.002330 0.023758 0.232786
-0.001208 0.023876 0.233922
-0.000075 0.023904 0.234189
0.001061 0.023932 0.234450
0.002205 0.024016 0.235269
0.003351 0.024055 0.235655
0.004502 0.024104 0.236137
0.005655 0.024139 0.236477
0.006817 0.024194 0.237026
0.007986 0.024255 0.237633
0.009169 0.024338 0.238464
0.010358 0.024417 0.239258
0.011592 0.024573 0.240809
0.012770 0.024595 0.241048
0.013971 0.024653 0.241644
0.015181 0.024716 0.242296
0.016384 0.024760 0.242764
0.017628 0.024855 0.243738
0.018846 0.024904 0.244257
0.020034 0.024910 0.244361
0.021258 0.024958 0.244878
0.022468 0.024984 0.245187
0.023666 0.024996 0.245358
0.024880 0.025022 0.245671
0.026133 0.025083 0.246326
0.027439 0.025188 0.247420
0.028725 0.025266 0.248257
0.029957 0.025292 0.248581
0.031235 0.025353 0.249253
0.032523 0.025418 0.249968
0.033748 0.025431 0.250167
0.034982 0.025449 0.250423
0.036253 0.025492 0.250924
0.037491 0.025509 0.251179
0.038778 0.025558 0.251746
0.040032 0.025583 0.252076
0.041318 0.025626 0.252587
0.042542 0.025629 0.252707
0.043768 0.025633 0.252841
0.045049 0.025668 0.253284
0.046264 0.025665 0.253344
0.047441 0.025641 0.253202
0.048618 0.025619 0.253078
0.049829 0.025614 0.253135
0.051020 0.025601 0.253096
0.051910 0.025440 0.251608
0.052063 0.024933 0.246691
0.052411 0.024541 0.242903
0.053165 0.024351 0.241125
0.054050 0.024228 0.240004
0.055139 0.024200 0.239820
0.056028 0.024087 0.238792
0.056717 0.023894 0.236974
0.057084 0.023576 0.233910
0.057971 0.023481 0.233056
0.058971 0.023434 0.232680
0.059904 0.023362 0.232062
0.060713 0.023246 0.230995
0.061694 0.023199 0.230612
0.062600 0.023125 0.229968
0.063414 0.023021 0.229016
0.064200 0.022910 0.227996
0.064726 0.022712 0.226103
0.065649 0.022657 0.225634
0.066421 0.022552 0.224672
0.066930 0.022364 0.222867
0.067393 0.022165 0.220962
0.067865 0.021976 0.219147
0.068385 0.021808 0.217537
0.069287 0.021765 0.217171
0.069675 0.021564 0.215226
0.070017 0.021355 0.213197
0.069656 0.020940 0.209114
0.069981 0.020741 0.207173
0.070586 0.020628 0.206102
0.071238 0.020533 0.205193
0.071961 0.020460 0.204509
0.072460 0.020326 0.203214
0.073353 0.020305 0.203038
0.073842 0.020174 0.201762
0.074447 0.020078 0.200826
0.075169 0.020015 0.200227
0.075678 0.019898 0.199076
0.075884 0.019705 0.197164
0.076433 0.019604 0.196174
0.076924 0.019492 0.195058
0.077386 0.019375 0.193891
0.078264 0.019363 0.193778
0.078809 0.019270 0.192847
0.079307 0.019168 0.191820
0.079988 0.019112 0.191249
0.080551 0.019030 0.190409
0.081143 0.018956 0.189648
0.081491 0.018827 0.188334
0.081927 0.018721 0.187246
0.082490 0.018646 0.186462
0.082768 0.018509 0.185051
0.082817 0.018324 0.183158
0.083294 0.018237 0.182236
0.083774 0.018152 0.181332
0.084348 0.018089 0.180643
0.084783 0.017998 0.179663
0.085102 0.017884 0.178455
0.084932 0.017671 0.176249
0.085370 0.017587 0.175327
0.085829 0.017509 0.174460
0.085493 0.017272 0.172002
0.084785 0.016965 0.168843
0.084900 0.016827 0.167361
0.085535 0.016793 0.166914
0.085679 0.016665 0.165517
0.086271 0.016625 0.164994
-1.025614 0.207770 1.988786
-1.004780 0.205432 1.967590
-1.002873 0.206956 1.983301
-0.994969 0.207260 1.987247
-0.979541 0.205987 1.975997
-0.972449 0.206459 1.981413
-0.963332 0.206507 1.982683
-0.956812 0.207117 1.989292
-0.952282 0.208175 2.000133
-0.954122 0.210660 2.024634
-0.964775 0.215161 2.068462
-0.956553 0.215501 2.072241
-0.951698 0.216615 2.083396
-0.948167 0.218056 2.097647
-0.920195 0.213848 2.057487
-0.860150 0.202017 1.943913
-0.847089 0.201086 1.935149
-0.838716 0.201260 1.936965
-0.251529 0.082839 0.793596
-0.247351 0.082696 0.791923
-0.243494 0.082657 0.791244
-0.242565 0.083626 0.800205
-0.238102 0.083387 0.797607
-0.234435 0.083425 0.797641
-0.231143 0.083600 0.798978
-0.228519 0.084026 0.802709
-0.223990 0.083754 0.799767
-0.220224 0.083763 0.799504
-0.271397 0.105035 1.002095
-0.258279 0.105501 1.005180
-0.248579 0.103451 0.985195
-0.053447 0.024055 0.228659
-0.052294 0.024025 0.228268
-0.050813 0.023841 0.226406
-0.049449 0.023704 0.225003
-0.053370 0.026151 0.248115
-0.045982 0.023042 0.218516
-0.045002 0.023074 0.218717
-0.041937 0.022014 0.208567
-0.039904 0.021456 0.203190
-0.038574 0.021258 0.201224
-0.037248 0.021053 0.199190
-0.041560 0.024107 0.227979
-0.037220 0.022172 0.209585
-0.036261 0.022199 0.209746
-0.035523 0.022367 0.211244
-0.034567 0.022403 0.211496
-0.033851 0.022603 0.213287
-0.032916 0.022663 0.213765
-0.031970 0.022720 0.214214
-0.031065 0.022811 0.214981
-0.030134 0.022888 0.215622
-0.029281 0.023032 0.216897
-0.028366 0.023137 0.217795
-0.027427 0.023229 0.218581
-0.026414 0.023263 0.218819
-0.025443 0.023338 0.219452
-0.024454 0.023403 0.219985
-0.023455 0.023464 0.220480
-0.022494 0.023571 0.221414
-0.021483 0.023633 0.221924
-0.020458 0.023684 0.222341
-0.019437 0.023748 0.222876
-0.018411 0.023812 0.223414
-0.017376 0.023872 0.223913
-0.016316 0.023903 0.224145
-0.015261 0.023947 0.224504
-0.014228 0.024034 0.225267
-0.013192 0.024131 0.226123
-0.012164 0.024260 0.227289
-0.011090 0.024316 0.227769
-0.010014 0.024378 0.228304
-0.008923 0.024415 0.228616
-0.007858 0.024545 0.229792
-0.006764 0.024609 0.230363
-0.005665 0.024682 0.231016
-0.004568 0.024798 0.232076
-0.003453 0.024858 0.232613
-0.002331 0.024906 0.233052
-0.001206 0.024990 0.233821
-0.000074 0.025072 0.234574
0.001063 0.025089 0.234724
0.002202 0.025113 0.234946
0.003352 0.025199 0.235747
0.004502 0.025238 0.236115
0.005649 0.025254 0.236268
0.006813 0.025324 0.236933
0.007981 0.025388 0.237539
0.009164 0.025476 0.238376
0.010332 0.025508 0.238696
0.011584 0.025720 0.240698
0.012770 0.025761 0.241106
0.013939 0.025761 0.241142
0.015170 0.025868 0.242174
0.016370 0.025911 0.242607
0.017565 0.025941 0.242923
0.018812 0.026038 0.243875
0.020048 0.026109 0.244584
0.021255 0.026138 0.244903
0.022470 0.026172 0.245275
0.023712 0.026232 0.245894
0.024912 0.026242 0.246040
0.026141 0.026281 0.246464
0.027427 0.026371 0.247373
0.028752 0.026489 0.248550
0.029978 0.026511 0.248818
0.031234 0.026556 0.249311
0.032501 0.026605 0.249852
0.033759 0.026646 0.250307
0.034990 0.026662 0.250534
0.036230 0.026684 0.250826
0.037510 0.026733 0.251362
0.038780 0.026772 0.251814
0.040049 0.026808 0.252242
0.041296 0.026827 0.252508
0.042485 0.026809 0.252425
0.043718 0.026819 0.252609
0.044924 0.026812 0.252633
0.046138 0.026809 0.252704
0.047351 0.026807 0.252780
0.048499 0.026769 0.252512
0.049725 0.026774 0.252658
0.050947 0.026777 0.252783
0.051989 0.026688 0.252037
0.052403 0.026287 0.248351
0.052483 0.025741 0.243283
0.053122 0.025486 0.240974
0.053993 0.025351 0.239792
0.055080 0.025321 0.239603
0.056139 0.025280 0.239306
0.056647 0.024997 0.236722
0.057030 0.024672 0.233727
0.057839 0.024539 0.232565
0.058932 0.024530 0.232565
0.059859 0.024453 0.231923
0.060684 0.024338 0.230919
0.061636 0.024277 0.230431
0.062531 0.024197 0.229749
0.063409 0.024112 0.229029
0.064190 0.023994 0.227992
0.064959 0.023875 0.226944
0.065721 0.023759 0.225911
0.066443 0.023631 0.224775
0.067136 0.023497 0.223575
0.067804 0.023359 0.222335
0.068241 0.023147 0.220384
0.068705 0.022950 0.218577
0.069402 0.022836 0.217552
0.070104 0.022727 0.216570
0.070393 0.022489 0.214360
0.070325 0.022145 0.211140
0.069987 0.021727 0.207209
0.070408 0.021553 0.205597
0.071252 0.021512 0.205246
0.071807 0.021386 0.204083
0.072643 0.021345 0.203736
0.072956 0.021154 0.201950
0.073695 0.021090 0.201368
0.074521 0.021052 0.201035
0.075020 0.020924 0.199835
0.075732 0.020858 0.199224
0.076327 0.020761 0.198319
0.076215 0.020477 0.195618
0.076569 0.020323 0.194158
0.077150 0.020233 0.193301
0.077938 0.020198 0.192970
0.078400 0.020080 0.191844
0.078817 0.019955 0.190634
0.079257 0.019837 0.189499
0.079579 0.019693 0.188107
0.080208 0.019627 0.187458
0.080804 0.019555 0.186740
0.081245 0.019447 0.185681
0.081845 0.019379 0.184996
0.082489 0.019323 0.184418
0.082797 0.019190 0.183103
0.083350 0.019116 0.182346
0.083633 0.018982 0.181014
0.084107 0.018894 0.180111
0.084508 0.018792 0.179066
0.084613 0.018626 0.177413
0.084709 0.018462 0.175768
0.085152 0.018375 0.174861
0.085316 0.018231 0.173397
0.085671 0.018130 0.172339
0.085523 0.017926 0.170290
0.085279 0.017705 0.168085
0.085490 0.017582 0.166801
0.085816 0.017485 0.165756
0.086304 0.017422 0.165031
-1.011852 0.216264 1.981196
-0.985878 0.212679 1.949467
-0.988070 0.215160 1.973254
-0.978558 0.215116 1.973816
-0.971206 0.215550 1.978695
-0.963185 0.215842 1.982207
-0.955805 0.216285 1.987039
-0.953199 0.217828 2.001911
-0.953397 0.220049 2.022961
-0.962091 0.226581 2.084125
-0.953798 0.226941 2.087894
-0.949080 0.228167 2.099582
-0.918771 0.223203 2.054231
-0.860646 0.211303 1.944979
-0.852213 0.211479 1.946812
-0.838769 0.210402 1.937056
-0.251970 0.086748 0.795084
-0.248774 0.086943 0.796579
-0.245489 0.087113 0.797832
-0.242423 0.087367 0.799849
-0.239054 0.087518 0.800912
-0.235380 0.087560 0.800977
-0.232573 0.087932 0.804047
-0.228813 0.087949 0.803870
-0.224778 0.087860 0.802712
-0.275536 0.109554 1.000480
-0.271225 0.109728 1.001638
-0.267697 0.110231 1.005785
-0.263807 0.110601 1.008707
-0.258112 0.110213 1.004718
-0.248416 0.108071 0.984740
-0.249608 0.110674 1.007995
-0.057185 0.027464 0.249675
-0.056078 0.027504 0.249922
-0.054694 0.027407 0.248929
-0.053332 0.027318 0.247997
-0.052222 0.027356 0.248229
-0.048555 0.026643 0.241539
-0.046886 0.026354 0.238806
-0.045008 0.025929 0.234852
-0.043307 0.025587 0.231650
-0.041529 0.025181 0.227868
-0.040489 0.025213 0.228052
-0.036075 0.023086 0.208728
-0.035351 0.023268 0.210281
-0.034465 0.023350 0.210933
-0.033688 0.023514 0.212321
-0.032825 0.023626 0.213241
-0.031963 0.023745 0.214229
-0.031034 0.023821 0.214830
-0.030122 0.023917 0.215607
-0.029251 0.024052 0.216738
-0.028342 0.024166 0.217682
-0.027357 0.024220 0.218089
-0.026393 0.024298 0.218712
-0.025419 0.024374 0.219314
-0.024430 0.024441 0.219839
-0.023491 0.024566 0.220895
-0.022478 0.024622 0.221325
-0.021458 0.024676 0.221742
-0.020452 0.024752 0.222356
-0.019425 0.024810 0.222813
-0.018415 0.024898 0.223541
-0.017366 0.024942 0.223869
-0.016320 0.024994 0.224284
-0.015276 0.025058 0.224803
-0.014216 0.025105 0.225169
-0.013167 0.025178 0.225779
-0.012121 0.025273 0.226579
-0.011070 0.025374 0.227446
-0.009996 0.025440 0.227992
-0.008914 0.025500 0.228494
-0.007846 0.025622 0.229551
-0.006751 0.025681 0.230047
-0.005643 0.025703 0.230216
-0.004544 0.025787 0.230946
-0.003438 0.025879 0.231750
-0.002323 0.025963 0.232484
-0.001207 0.026154 0.234174
-0.000073 0.026190 0.234483
0.001063 0.026204 0.234600
0.002205 0.026267 0.235165
0.003353 0.026335 0.235766
0.004497 0.026351 0.235917
0.005656 0.026426 0.236589
0.006816 0.026478 0.237063
0.007981 0.026535 0.237582
0.009163 0.026624 0.238392
0.010353 0.026715 0.239224
0.011575 0.026861 0.240560
0.012770 0.026924 0.241147
0.013964 0.026975 0.241634
0.015157 0.027016 0.242032
0.016369 0.027081 0.242648
0.017559 0.027105 0.242896
0.018771 0.027157 0.243409
0.020005 0.027232 0.244120
0.021254 0.027319 0.244947
0.022481 0.027369 0.245450
0.023701 0.027406 0.245835
0.024938 0.027459 0.246362
0.026166 0.027497 0.246768
0.027421 0.027559 0.247381
0.028685 0.027623 0.248027
0.029921 0.027658 0.248405
0.031191 0.027719 0.249026
0.032490 0.027801 0.249829
0.033792 0.027880 0.250613
0.035085 0.027945 0.251278
0.036330 0.027969 0.251574
0.037598 0.028009 0.252016
0.038834 0.028024 0.252229
0.040067 0.028035 0.252413
0.041300 0.028045 0.252592
0.042517 0.028044 0.252675
0.043732 0.028042 0.252746
0.044952 0.028043 0.252847
0.046161 0.028038 0.252888
0.047376 0.028036 0.252963
0.048559 0.028016 0.252877
0.049717 0.027982 0.252672
0.050949 0.027991 0.252849
0.052007 0.027906 0.252174
0.052909 0.027743 0.250800
0.052862 0.027101 0.245091
0.053229 0.026695 0.241505
0.054076 0.026541 0.240206
0.055188 0.026521 0.240117
0.056290 0.026497 0.239993
0.056985 0.026286 0.238176
0.057368 0.025942 0.235154
0.058082 0.025759 0.233579
0.059067 0.025700 0.233136
0.059910 0.025583 0.232157
0.060621 0.025414 0.230715
0.061538 0.025337 0.230098
0.062437 0.025255 0.229435
0.063271 0.025150 0.228561
0.064076 0.025037 0.227614
0.064801 0.024897 0.226423
0.065581 0.024782 0.225459
0.066441 0.024701 0.224793
0.067016 0.024518 0.223204
0.067638 0.024358 0.221815
0.068355 0.024236 0.220774
0.068893 0.024056 0.219196
0.069509 0.023908 0.217908
0.070191 0.023786 0.216859
0.070419 0.023517 0.214459
0.070410 0.023177 0.211412
0.070146 0.022764 0.207694
0.070855 0.022673 0.206916
0.071607 0.022599 0.206283
0.072340 0.022521 0.205611
0.072956 0.022409 0.204625
0.073288 0.022214 0.202877
0.073805 0.022079 0.201678
0.074454 0.021986 0.200861
0.074990 0.021864 0.199762
0.075506 0.021738 0.198635
0.076095 0.021636 0.197719
0.076364 0.021447 0.196002
0.076503 0.021226 0.193994
0.076618 0.021004 0.191967
0.077209 0.020916 0.191165
0.077888 0.020854 0.190591
0.078506 0.020777 0.189878
0.079015 0.020673 0.188916
0.079244 0.020499 0.187309
0.079810 0.020415 0.186521
0.080146 0.020275 0.185212
0.080921 0.020248 0.184931
0.081461 0.020162 0.184117
0.081857 0.020044 0.182995
0.082526 0.019994 0.182492
0.083032 0.019906 0.181637
0.083475 0.019805 0.180657
0.084022 0.019731 0.179915
0.084625 0.019671 0.179299
0.084659 0.019481 0.177493
0.084300 0.019206 0.174901
0.084793 0.019128 0.174105
0.085396 0.019076 0.173538
0.085510 0.018917 0.171993
0.085403 0.018712 0.170028
0.084590 0.018358 0.166703
0.085464 0.018374 0.166726
0.085728 0.018259 0.165560
0.085984 0.018145 0.164393
-1.011535 0.225580 1.980319
-0.989427 0.222709 1.956246
-0.992218 0.225441 1.981311
-0.978624 0.224467 1.973736
-0.970018 0.224629 1.976077
-0.962911 0.225145 1.981461
-0.954113 0.225272 1.983352
-0.949652 0.226436 1.994306
-0.948732 0.228475 2.012919
-0.946498 0.234977 2.071809
-0.943323 0.236624 2.086751
-0.935005 0.237003 2.090449
-0.860296 0.220383 1.944127
-0.845144 0.218826 1.930615
-0.834636 0.218451 1.927477
-0.826929 0.218808 1.930755
-0.251735 0.090427 0.794444
-0.248781 0.090718 0.796707
-0.245875 0.091035 0.799197
-0.242333 0.091123 0.799666
-0.239714 0.091567 0.803244
-0.235467 0.091392 0.801395
-0.232583 0.091751 0.804210
-0.229943 0.092218 0.807974
-0.277020 0.112978 0.989446
-0.272769 0.113159 0.990606
-0.272113 0.114863 1.005097
-0.268366 0.115301 1.008484
-0.263543 0.115284 1.007890
-0.259079 0.115426 1.008682
-0.254220 0.115394 1.007953
-0.249435 0.115395 1.007508
-0.244251 0.115208 1.005418
-0.238348 0.114668 1.000244
-0.233936 0.114838 1.001266
-0.056065 0.028691 0.249926
-0.054650 0.028573 0.248786
-0.052691 0.028160 0.245077
-0.051426 0.028108 0.244505
-0.049985 0.027954 0.243055
-0.048518 0.027778 0.241419
-0.046851 0.027476 0.238687
-0.044974 0.027033 0.234734
-0.043363 0.026732 0.232015
-0.042002 0.026573 0.230530
-0.040950 0.026606 0.230716
-0.036342 0.024266 0.210331
-0.035191 0.024168 0.209388
-0.034477 0.024372 0.211067
-0.033615 0.024481 0.211920
-0.032749 0.024594 0.212811
-0.031904 0.024730 0.213904
-0.030989 0.024820 0.214590
-0.030064 0.024907 0.215259
-0.029145 0.025005 0.216023
-0.028206 0.025094 0.216707
-0.027236 0.025160 0.217199
-0.026284 0.025249 0.217887
-0.025348 0.025361 0.218779
-0.024373 0.025443 0.219409
-0.023422 0.025558 0.220326
-0.022440 0.025648 0.221033
-0.021433 0.025717 0.221560
-0.020414 0.025779 0.222029
-0.019399 0.025853 0.222603
-0.018375 0.025923 0.223140
-0.017360 0.026015 0.223873
-0.016307 0.026060 0.224202
-0.015250 0.026102 0.224510
-0.014204 0.026173 0.225071
-0.013165 0.026268 0.225839
-0.012119 0.026366 0.226631
-0.011057 0.026445 0.227274
-0.009995 0.026542 0.228064
-0.008900 0.026567 0.228239
-0.007828 0.026673 0.229113
-0.006733 0.026728 0.229555
-0.005630 0.026761 0.229815
-0.004549 0.026943 0.231353
-0.003435 0.026990 0.231736
-0.002312 0.026974 0.231572
-0.001199 0.027132 0.232921
-0.000071 0.027276 0.234139
0.001063 0.027309 0.234417
0.002202 0.027357 0.234818
0.003346 0.027410 0.235278
0.004493 0.027457 0.235681
0.005640 0.027485 0.235928
0.006793 0.027530 0.236321
0.007987 0.027701 0.237794
0.009156 0.027754 0.238265
0.010340 0.027835 0.238975
0.011543 0.027945 0.239948
0.012732 0.028006 0.240494
0.013924 0.028062 0.240999
0.015146 0.028164 0.241913
0.016350 0.028222 0.242438
0.017550 0.028264 0.242838
0.018787 0.028357 0.243678
0.020008 0.028416 0.244231
0.021254 0.028502 0.245016
0.022479 0.028551 0.245489
0.023723 0.028620 0.246134
0.024961 0.028675 0.246660
0.026160 0.028681 0.246770
0.027396 0.028726 0.247219
0.028644 0.028779 0.247738
0.029889 0.028825 0.248200
0.031132 0.028866 0.248621
0.032440 0.028961 0.249508
0.033774 0.029072 0.250542
0.035111 0.029178 0.251531
0.036349 0.029196 0.251770
0.037572 0.029203 0.251904
0.038834 0.029238 0.252291
0.040075 0.029255 0.252525
0.041287 0.029251 0.252574
0.042544 0.029278 0.252893
0.043768 0.029282 0.253013
0.044969 0.029270 0.253000
0.046192 0.029273 0.253118
0.047385 0.029256 0.253069
0.048560 0.029230 0.252937
0.049728 0.029201 0.252781
0.050899 0.029176 0.252655
0.051976 0.029098 0.252078
0.052835 0.028905 0.250499
0.052290 0.027970 0.242484
0.053132 0.027801 0.241112
0.054150 0.027729 0.240581
0.055270 0.027711 0.240519
0.056221 0.027611 0.239744
0.056858 0.027364 0.237689
0.057499 0.027128 0.235731
0.058090 0.026879 0.233650
0.058887 0.026732 0.232462
0.059877 0.026677 0.232066
0.060615 0.026513 0.230730
0.061398 0.026375 0.229607
0.062287 0.026286 0.228920
0.063111 0.026174 0.228017
0.063949 0.026070 0.227196
0.064780 0.025968 0.226381
0.065460 0.025809 0.225071
0.066267 0.025705 0.224234
0.066785 0.025493 0.222458
0.067640 0.025415 0.221846
0.068363 0.025290 0.220823
0.068856 0.025085 0.219099
0.069484 0.024935 0.217851
0.070325 0.024865 0.217293
0.070859 0.024690 0.215818
0.071334 0.024499 0.214203
0.070641 0.023918 0.209174
0.070969 0.023694 0.207264
0.071650 0.023593 0.206420
0.072288 0.023481 0.205476
0.072868 0.023352 0.204389
0.073700 0.023307 0.204028
0.074054 0.023114 0.202367
0.074664 0.023005 0.201437
0.075018 0.022820 0.199842
0.075310 0.022622 0.198124
0.075761 0.022475 0.196855
0.075839 0.022223 0.194659
0.076395 0.022115 0.193722
0.076812 0.021970 0.192455
0.077196 0.021819 0.191131
0.077747 0.021719 0.190245
0.078278 0.021615 0.189324
0.079015 0.021570 0.188913
0.078925 0.021302 0.186551
0.079527 0.021225 0.185853
0.080042 0.021127 0.184965
0.080615 0.021046 0.184223
0.081332 0.021004 0.183817
0.081429 0.020804 0.182026
0.082190 0.020777 0.181737
0.082820 0.020717 0.181162
0.083125 0.020578 0.179886
0.083676 0.020502 0.179158
0.084110 0.020399 0.178190
0.083376 0.020018 0.174783
0.083702 0.019897 0.173642
0.084134 0.019802 0.172730
0.084508 0.019696 0.171713
0.084891 0.019594 0.170725
0.084745 0.019374 0.168694
0.084634 0.019165 0.166764
0.085227 0.019118 0.166237
0.085699 0.019045 0.165476
0.085959 0.018926 0.164314
-0.994647 0.233197 1.966312
-0.986787 0.233533 1.970228
-0.978883 0.233866 1.974035
-0.969005 0.233729 1.973804
-0.959853 0.233765 1.974973
-0.946517 0.232774 1.967383
-0.948520 0.235573 1.991762
-0.947814 0.237748 2.010817
-0.953889 0.244148 2.066112
-0.945654 0.244532 2.069848
-0.942353 0.246212 2.084506
-0.844781 0.227829 1.929732
-0.831190 0.226596 1.919477
-0.810312 0.223328 1.891929
-1.369051 0.399225 3.382020
-1.355412 0.399890 3.387431
-1.339534 0.399903 3.387244
-0.253636 0.094899 0.800548
-0.249368 0.094713 0.798697
-0.247115 0.095299 0.803341
-0.243739 0.095463 0.804421
-0.239933 0.095461 0.804101
-0.236321 0.095538 0.804429
-0.233429 0.095913 0.807265
-0.286114 0.119516 1.005517
-0.284965 0.121051 1.018003
-0.278898 0.120512 1.013050
-0.273336 0.120177 1.009803
-0.269626 0.120659 1.013413
-0.265102 0.120788 1.014051
-0.259977 0.120642 1.012383
-0.255467 0.120782 1.013106
-0.250087 0.120507 1.010353
-0.245256 0.120493 1.009774
-0.237941 0.119232 0.998759
-0.232961 0.119114 0.997320
-0.056023 0.029862 0.249798
-0.054467 0.029662 0.248015
-0.052959 0.029480 0.246381
-0.051397 0.029260 0.244428
-0.049915 0.029075 0.242778
-0.048184 0.028734 0.239817
-0.046245 0.028249 0.235662
-0.044857 0.028085 0.234188
-0.043409 0.027873 0.232323
-0.041884 0.027600 0.229947
-0.040145 0.027168 0.226243
-0.039247 0.027296 0.227213
-0.035179 0.025164 0.209380
-0.034391 0.025322 0.210604
-0.033558 0.025456 0.211629
-0.032699 0.025578 0.212552
-0.031761 0.025643 0.213014
-0.030847 0.025733 0.213673
-0.029955 0.025848 0.214545
-0.029080 0.025987 0.215616
-0.028121 0.026058 0.216123
-0.027208 0.026179 0.217046
-0.026279 0.026293 0.217917
-0.025310 0.026376 0.218529
-0.024345 0.026471 0.219235
-0.023385 0.026579 0.220056
-0.022422 0.026694 0.220938
-0.021426 0.026779 0.221577
-0.020410 0.026847 0.222074
-0.019415 0.026951 0.222868
-0.018410 0.027053 0.223651
-0.017373 0.027118 0.224133
-0.016323 0.027171 0.224507
-0.015266 0.027218 0.224844
-0.014215 0.027284 0.225339
-0.013147 0.027324 0.225624
-0.012105 0.027433 0.226479
-0.011051 0.027534 0.227264
-0.009985 0.027623 0.227961
-0.008902 0.027680 0.228392
-0.007821 0.027763 0.229041
-0.006731 0.027832 0.229578
-0.005631 0.027883 0.229974
-0.004537 0.027994 0.230868
-0.003444 0.028189 0.232453
-0.002323 0.028234 0.232800
-0.001198 0.028285 0.233212
-0.000070 0.028391 0.234070
0.001065 0.028451 0.234558
0.002202 0.028480 0.234787
0.003353 0.028598 0.235763
0.004499 0.028630 0.236026
0.005653 0.028688 0.236510
0.006809 0.028734 0.236893
0.007986 0.028843 0.237804
0.009165 0.028932 0.238553
0.010342 0.028994 0.239082
0.011527 0.029064 0.239678
0.012719 0.029138 0.240314
0.013904 0.029183 0.240714
0.015113 0.029267 0.241436
0.016328 0.029352 0.242170
0.017531 0.029404 0.242636
0.018734 0.029449 0.243051
0.019954 0.029515 0.243636
0.021208 0.029620 0.244544
0.022447 0.029694 0.245210
0.023724 0.029808 0.246204
0.024949 0.029850 0.246605
0.026134 0.029842 0.246597
0.027364 0.029883 0.246997
0.028612 0.029940 0.247526
0.029868 0.030000 0.248089
0.031102 0.030035 0.248445
0.032437 0.030161 0.249557
0.033849 0.030346 0.251164
0.035113 0.030390 0.251605
0.036357 0.030415 0.251890
0.037601 0.030439 0.252163
0.038842 0.030458 0.252402
0.040061 0.030459 0.252498
0.041296 0.030473 0.252693
0.042532 0.030486 0.252887
0.043736 0.030475 0.252890
0.044975 0.030490 0.253097
0.046175 0.030477 0.253079
0.047364 0.030458 0.253018
0.048541 0.030433 0.252899
0.049727 0.030413 0.252831
0.050879 0.030375 0.252608
0.051971 0.030304 0.252110
0.052799 0.030085 0.250383
0.053321 0.029706 0.247320
0.053105 0.028941 0.241038
0.054015 0.028808 0.240027
0.055129 0.028788 0.239951
0.056178 0.028736 0.239604
0.056964 0.028554 0.238177
0.057572 0.028291 0.236072
0.058136 0.028018 0.233879
0.058934 0.027865 0.232690
0.059742 0.027722 0.231582
0.060500 0.027563 0.230331
0.061308 0.027430 0.229308
0.062127 0.027308 0.228363
0.062974 0.027202 0.227556
0.063869 0.027119 0.226943
0.064735 0.027028 0.226254
0.065579 0.026930 0.225509
0.066412 0.026831 0.224752
0.067117 0.026684 0.223592
0.067879 0.026564 0.222654
0.068615 0.026438 0.221664
0.069175 0.026249 0.220140
0.069797 0.026088 0.218853
0.070512 0.025967 0.217893
0.071166 0.025827 0.216772
0.071695 0.025646 0.215306
0.071372 0.025170 0.211356
0.071254 0.024778 0.208113
0.071847 0.024641 0.207003
0.072542 0.024542 0.206209
0.072892 0.024331 0.204468
0.072756 0.023965 0.201424
0.073040 0.023745 0.199605
0.074041 0.023761 0.199761
0.074399 0.023572 0.198199
0.075065 0.023485 0.197485
0.075741 0.023403 0.196806
0.076140 0.023239 0.195433
0.076475 0.023058 0.193924
0.076661 0.022838 0.192075
0.077082 0.022693 0.190849
0.077738 0.022619 0.190219
0.078275 0.022512 0.189314
0.078684 0.022372 0.188117
0.078996 0.022207 0.186713
0.079485 0.022096 0.185748
0.080071 0.022013 0.185022
0.080685 0.021940 0.184372
0.080993 0.021786 0.183040
0.081469 0.021680 0.182103
0.082131 0.021625 0.181593
0.082543 0.021506 0.180539
0.082978 0.021396 0.179553
0.083387 0.021280 0.178521
0.083712 0.021147 0.177327
0.083807 0.020958 0.175668
0.083544 0.020685 0.173292
0.084066 0.020609 0.172570
0.084525 0.020519 0.171725
0.084804 0.020388 0.170524
0.084983 0.020236 0.169142
0.084931 0.020031 0.167322
0.085402 0.019953 0.166551
0.085725 0.019842 0.165497
0.086017 0.019727 0.164396
-0.983081 0.241948 1.962576
-0.973267 0.241810 1.962475
-0.962939 0.241541 1.961229
-0.955115 0.241901 1.965019
-0.948348 0.242538 1.970999
-0.943670 0.243728 1.981401
-0.942058 0.245741 1.998444
-0.957555 0.252303 2.052433
-0.949369 0.252694 2.056185
-0.944477 0.253980 2.067148
-0.931656 0.253138 2.060737
-0.839510 0.235448 1.917631
-0.827477 0.234592 1.910856
-0.819824 0.234972 1.914105
-1.391418 0.417105 3.398015
-1.366863 0.414502 3.376671
-1.350265 0.414278 3.374643
-1.338852 0.415659 3.385616
-0.251922 0.098020 0.795244
-0.248768 0.098257 0.796885
-0.245831 0.098588 0.799282
-0.242446 0.098748 0.800277
-0.238617 0.098728 0.799816
-0.235142 0.098856 0.800546
-0.292659 0.125051 1.012270
-0.285918 0.124203 1.005004
-0.284769 0.125797 1.017483
-0.279988 0.125813 1.017195
-0.274310 0.125421 1.013594
-0.269985 0.125643 1.014963
-0.265175 0.125645 1.014536
-0.260169 0.125551 1.013342
-0.255090 0.125418 1.011827
-0.248893 0.124720 1.005751
-0.245132 0.125240 1.009490
-0.238612 0.124342 1.001809
-0.232788 0.123778 0.996817
-0.055234 0.031280 0.251569
-0.053439 0.030935 0.248682
-0.051769 0.030648 0.246261
-0.049966 0.030267 0.243093
-0.048207 0.029895 0.239998
-0.046466 0.029517 0.236854
-0.044842 0.029196 0.234174
-0.043577 0.029098 0.233289
-0.042283 0.028976 0.232207
-0.040742 0.028672 0.229674
-0.039213 0.028362 0.227088
-0.038172 0.028395 0.227262
-0.034278 0.026247 0.209981
-0.033427 0.026369 0.210866
-0.032539 0.026469 0.211583
-0.031668 0.026589 0.212456
-0.030786 0.026708 0.213324
-0.029960 0.026885 0.214655
-0.029024 0.026973 0.215273
-0.028111 0.027090 0.216124
-0.027151 0.027167 0.216667
-0.026226 0.027289 0.217556
-0.025274 0.027391 0.218296
-0.024299 0.027475 0.218894
-0.023362 0.027613 0.219919
-0.022431 0.027771 0.221108
-0.021415 0.027834 0.221544
-0.020409 0.027917 0.222140
-0.019400 0.028006 0.222786
-0.018411 0.028137 0.223760
-0.017370 0.028198 0.224189
-0.016322 0.028254 0.224582
-0.015274 0.028321 0.225059
-0.014221 0.028386 0.225525
-0.013150 0.028424 0.225781
-0.012090 0.028496 0.226302
-0.011027 0.028571 0.226861
-0.009970 0.028684 0.227717
-0.008890 0.028750 0.228204
-0.007811 0.028838 0.228863
-0.006725 0.028924 0.229519
-0.005632 0.029008 0.230160
-0.004521 0.029019 0.230219
-0.003424 0.029155 0.231274
-0.002318 0.029318 0.232554
-0.001199 0.029464 0.233697
-0.000069 0.029534 0.234238
0.001065 0.029566 0.234482
0.002204 0.029618 0.234887
0.003348 0.029686 0.235426
0.004505 0.029805 0.236370
0.005653 0.029826 0.236543
0.006815 0.029901 0.237146
0.007999 0.030038 0.238243
0.009163 0.030077 0.238561
0.010341 0.030144 0.239110
0.011532 0.030233 0.239836
0.012729 0.030320 0.240552
0.013906 0.030348 0.240799
0.015094 0.030395 0.241207
0.016304 0.030475 0.241873
0.017507 0.030534 0.242374
0.018701 0.030568 0.242684
0.019907 0.030618 0.243122
0.021122 0.030675 0.243627
0.022392 0.030801 0.244672
0.023655 0.030906 0.245555
0.024895 0.030972 0.246139
0.026124 0.031018 0.246563
0.027349 0.031058 0.246934
0.028583 0.031101 0.247344
0.029857 0.031185 0.248073
0.031103 0.031233 0.248523
0.032325 0.031255 0.248763
0.033655 0.031375 0.249794
0.034956 0.031461 0.250549
0.036254 0.031538 0.251244
0.037444 0.031520 0.251174
0.038734 0.031584 0.251768
0.039993 0.031620 0.252134
0.041247 0.031649 0.252452
0.042504 0.031680 0.252781
0.043709 0.031671 0.252797
0.044938 0.031678 0.252945
0.046154 0.031677 0.253026
0.047339 0.031655 0.252941
0.048531 0.031639 0.252903
0.049719 0.031621 0.252849
0.050894 0.031596 0.252742
0.052003 0.031532 0.252320
0.052978 0.031391 0.251288
0.052226 0.030256 0.242289
0.053155 0.030123 0.241317
0.054123 0.030017 0.240559
0.055183 0.029966 0.240237
0.056157 0.029871 0.239565
0.057073 0.029750 0.238678
0.057818 0.029546 0.237128
0.058170 0.029152 0.234055
0.058719 0.028871 0.231881
0.059585 0.028753 0.231016
0.060424 0.028626 0.230077
0.061203 0.028475 0.228951
0.062108 0.028388 0.228330
0.062983 0.028291 0.227622
0.063865 0.028199 0.226964
0.064707 0.028094 0.226188
0.065619 0.028021 0.225677
0.066500 0.027938 0.225080
0.067351 0.027845 0.224400
0.067966 0.027659 0.222966
0.068667 0.027513 0.221855
0.069261 0.027330 0.220438
0.069908 0.027172 0.219224
0.070480 0.026991 0.217815
0.071030 0.026806 0.216376
0.071686 0.026666 0.215298
0.072117 0.026447 0.213579
0.072608 0.026256 0.212081
0.072789 0.025960 0.209729
0.073295 0.025786 0.208362
0.074015 0.025691 0.207631
0.074309 0.025453 0.205736
0.073158 0.024732 0.199935
0.074258 0.024781 0.200356
0.073870 0.024338 0.196796
0.074676 0.024295 0.196464
0.074964 0.024087 0.194792
0.075731 0.024036 0.194386
0.076308 0.023926 0.193503
0.076730 0.023771 0.192249
0.077008 0.023576 0.190664
0.077567 0.023469 0.189797
0.078195 0.023387 0.189114
0.078607 0.023242 0.187927
0.078761 0.023025 0.186151
0.079372 0.022945 0.185475
0.079945 0.022855 0.184722
0.080595 0.022790 0.184157
0.081075 0.022678 0.183214
0.081504 0.022554 0.182169
0.082000 0.022452 0.181290
0.082421 0.022331 0.180257
0.082929 0.022236 0.179430
0.083073 0.022047 0.177832
0.083557 0.021950 0.176979
0.083820 0.021798 0.175674
0.083497 0.021498 0.173172
0.083769 0.021356 0.171936
0.084309 0.021284 0.171260
0.084606 0.021152 0.170101
0.084903 0.021023 0.168956
0.084666 0.020766 0.166772
0.085181 0.020696 0.166089
0.085643 0.020615 0.165307
0.085985 0.020506 0.164302
-0.981105 0.250735 1.958366
-0.973406 0.251133 1.962505
-0.962961 0.250823 1.961041
-0.955147 0.251199 1.964868
-0.948469 0.251884 1.971047
-0.944237 0.253240 1.982406
-0.943991 0.255701 2.002371
-0.953827 0.260971 2.044281
-0.945666 0.261374 2.048017
-0.941021 0.262768 2.059454
-0.937090 0.264392 2.072640
-0.839124 0.244376 1.916683
-0.827453 0.243593 1.910749
-0.805075 0.239605 1.879632
-1.423514 0.428364 3.360592
-1.410016 0.429062 3.366189
-1.405543 0.432553 3.393624
-1.391877 0.433264 3.399162
-1.378170 0.433977 3.404651
-1.345322 0.428610 3.362361
-1.332313 0.429510 3.369176
-1.312920 0.428350 3.359753
-1.298280 0.428730 3.362358
-0.261541 0.104118 0.813868
-0.255740 0.103326 0.807407
-0.249060 0.102149 0.797934
-0.246239 0.102543 0.800728
-0.244156 0.103262 0.806045
-0.240098 0.103155 0.804908
-0.296764 0.129553 1.010507
-0.292454 0.129761 1.011736
-0.288307 0.130049 1.013582
-0.283992 0.130270 1.014894
-0.279705 0.130511 1.016360
-0.275283 0.130698 1.017388
-0.270839 0.130880 1.018379
-0.266041 0.130895 1.018060
-0.261165 0.130871 1.017438
-0.255688 0.130539 1.014422
-0.249998 0.130084 1.010442
-0.245794 0.130400 1.012451
-0.239675 0.129691 1.006507
-0.232027 0.128110 0.993799
-0.055189 0.032455 0.251430
-0.053282 0.032028 0.248013
-0.051692 0.031777 0.245962
-0.050169 0.031557 0.244145
-0.048796 0.031423 0.243001
-0.047302 0.031202 0.241186
-0.045550 0.030796 0.237946
-0.043810 0.030377 0.234608
-0.042399 0.030171 0.232912
-0.041018 0.029975 0.231303
-0.039707 0.029822 0.230020
-0.037905 0.029280 0.225747
-0.034547 0.027469 0.211695
-0.033329 0.027301 0.210319
-0.032458 0.027417 0.211125
-0.031547 0.027505 0.211716
-0.030685 0.027642 0.212694
-0.029842 0.027808 0.213888
-0.029014 0.027999 0.215277
-0.028054 0.028073 0.215760
-0.027118 0.028177 0.216488
-0.026160 0.028266 0.217093
-0.025195 0.028354 0.217695
-0.024253 0.028477 0.218565
-0.023323 0.028627 0.219643
-0.022390 0.028785 0.220790
-0.021378 0.028854 0.221249
-0.020363 0.028926 0.221738
-0.019367 0.029034 0.222503
-0.018348 0.029117 0.223081
-0.017349 0.029245 0.224003
-0.016299 0.029301 0.224372
-0.015261 0.029384 0.224961
-0.014204 0.029443 0.225355
-0.013138 0.029490 0.225672
-0.012086 0.029581 0.226321
-0.011042 0.029713 0.227293
-0.009982 0.029823 0.228095
-0.008888 0.029851 0.228270
-0.007816 0.029968 0.229130
-0.006723 0.030028 0.229557
-0.005624 0.030084 0.229955
-0.004530 0.030202 0.230835
-0.003426 0.030304 0.231594
-0.002306 0.030301 0.231551
-0.001191 0.030428 0.232507
-0.000067 0.030557 0.233480
0.001065 0.030663 0.234282
0.002203 0.030727 0.234766
0.003346 0.030792 0.235262
0.004501 0.030909 0.236159
0.005654 0.030971 0.236630
0.006814 0.031039 0.237157
0.007977 0.031100 0.237639
0.009160 0.031214 0.238525
0.010328 0.031259 0.238879
0.011514 0.031341 0.239530
0.012694 0.031393 0.239950
0.013877 0.031445 0.240373
0.015063 0.031494 0.240775
0.016271 0.031577 0.241444
0.017464 0.031624 0.241842
0.018654 0.031658 0.242140
0.019858 0.031712 0.242593
0.021078 0.031783 0.243183
0.022353 0.031925 0.244317
0.023607 0.032025 0.245130
0.024849 0.032099 0.245749
0.026079 0.032152 0.246212
0.027297 0.032186 0.246530
0.028558 0.032265 0.247201
0.029798 0.032315 0.247646
0.031029 0.032352 0.247998
0.032329 0.032455 0.248857
0.033522 0.032449 0.248874
0.034954 0.032664 0.250601
0.036217 0.032714 0.251056
0.037402 0.032691 0.250962
0.038673 0.032743 0.251436
0.039952 0.032798 0.251943
0.041206 0.032830 0.252268
0.042468 0.032866 0.252631
0.043693 0.032872 0.252765
0.044897 0.032863 0.252778
0.046112 0.032862 0.252861
0.047298 0.032841 0.252785
0.048472 0.032812 0.252656
0.049670 0.032801 0.252661
0.050833 0.032768 0.252495
0.051862 0.032652 0.251691
0.052818 0.032496 0.250581
0.052762 0.031738 0.244830
0.053112 0.031253 0.241174
0.053986 0.031089 0.239998
0.055214 0.031133 0.240421
0.056123 0.030997 0.239464
0.056966 0.030832 0.238276
0.057668 0.030599 0.236555
0.058115 0.030241 0.233876
0.058774 0.030006 0.232137
0.059528 0.029827 0.230834
0.060278 0.029652 0.229562
0.061123 0.029529 0.228692
0.062011 0.029431 0.228010
0.062883 0.029329 0.227296
0.063805 0.029254 0.226785
0.064705 0.029170 0.226211
0.065620 0.029097 0.225713
0.066498 0.029009 0.225102
0.067232 0.028862 0.224033
0.068034 0.028749 0.223217
0.068583 0.028534 0.221611
0.069300 0.028394 0.220584
0.069951 0.028232 0.219380
0.070466 0.028020 0.217792
0.071171 0.027889 0.216827
0.071808 0.027736 0.215681
0.072336 0.027545 0.214245
0.072917 0.027380 0.213001
0.073442 0.027198 0.211627
0.073546 0.026867 0.209088
0.073469 0.026480 0.206109
0.074265 0.026414 0.205624
0.074971 0.026317 0.204898
0.075268 0.026082 0.203087
0.075906 0.025969 0.202228
0.075834 0.025619 0.199516
0.076099 0.025390 0.197743
0.076372 0.025169 0.196033
0.076599 0.024939 0.194242
0.076749 0.024689 0.192295
0.077010 0.024481 0.190665
0.077573 0.024372 0.189808
0.078272 0.024308 0.189298
0.078709 0.024165 0.188164
0.079064 0.024000 0.186859
0.079912 0.023987 0.186729
0.080307 0.023840 0.185550
0.080766 0.023714 0.184536
0.081108 0.023558 0.183275
0.081205 0.023334 0.181487
0.081636 0.023210 0.180470
0.082107 0.023100 0.179554
0.082702 0.023026 0.178920
0.082900 0.022845 0.177441
0.083131 0.022676 0.176057
0.083213 0.022471 0.174381
0.083344 0.022282 0.172834
0.083722 0.022163 0.171816
0.084215 0.022076 0.171043
0.084481 0.021932 0.169822
0.084589 0.021750 0.168301
0.084918 0.021627 0.167238
0.085379 0.021540 0.166443
0.085689 0.021418 0.165363
0.086072 0.021315 0.164434
-0.987097 0.259155 1.950543
-0.979275 0.259523 1.954433
-0.971749 0.259977 1.958900
-0.962093 0.259865 1.959027
-0.955309 0.260534 1.964972
-0.946461 0.260647 1.966661
-0.942971 0.262253 1.979547
-0.939770 0.263972 1.993233
-0.943893 0.267804 2.022820
-0.935810 0.268216 2.026518
-0.931096 0.269611 2.037593
-0.924483 0.270481 2.044632
-0.848219 0.253439 1.916529
-0.838568 0.253245 1.915340
-0.826189 0.252215 1.907773
-0.801416 0.247336 1.871045
-1.420822 0.443364 3.354183
-1.407338 0.444083 3.359768
-1.384079 0.441699 3.341795
-1.389911 0.448650 3.394380
-1.358485 0.443597 3.356062
-1.339293 0.442467 3.347358
-1.331588 0.445150 3.367432
-1.312110 0.443915 3.357795
-1.298253 0.444574 3.362425
-0.261366 0.107896 0.813432
-0.251548 0.105390 0.794282
-0.248185 0.105554 0.795245
-0.245037 0.105816 0.796940
-0.243120 0.106625 0.802749
-0.238231 0.106137 0.798780
-0.298145 0.134969 1.015385
-0.293814 0.135184 1.016618
-0.288587 0.134988 1.014750
-0.284274 0.135221 1.016093
-0.279999 0.135480 1.017627
-0.275269 0.135524 1.017542
-0.270750 0.135675 1.018256
-0.265905 0.135665 1.017756
-0.261391 0.135827 1.018542
-0.256360 0.135722 1.017316
-0.251254 0.135572 1.015753
-0.246064 0.135370 1.013802
-0.240479 0.134938 1.010127
-0.234146 0.134060 1.003121
-0.054979 0.033527 0.250541
-0.053861 0.033574 0.250778
-0.051401 0.032767 0.244646
-0.049881 0.032536 0.242814
-0.048506 0.032391 0.241623
-0.047111 0.032225 0.240281
-0.045492 0.031894 0.237711
-0.044015 0.031648 0.235776
-0.042608 0.031441 0.234134
-0.041112 0.031155 0.231908
-0.039753 0.030961 0.230362
-0.038157 0.030565 0.227322
-0.037318 0.030770 0.228753
-0.033525 0.028478 0.211627
-0.032433 0.028409 0.211035
-0.031492 0.028472 0.211418
-0.030635 0.028619 0.212426
-0.029767 0.028765 0.213428
-0.028846 0.028867 0.214109
-0.027897 0.028948 0.214634
-0.026989 0.029080 0.215534
-0.026104 0.029249 0.216710
-0.025157 0.029359 0.217452
-0.024186 0.029450 0.218051
-0.023220 0.029555 0.218758
-0.022288 0.029715 0.219876
-0.021332 0.029857 0.220861
-0.020309 0.029917 0.221238
-0.019313 0.030024 0.221967
-0.018342 0.030185 0.223104
-0.017324 0.030285 0.223786
-0.016276 0.030342 0.224149
-0.015231 0.030414 0.224624
-0.014191 0.030506 0.225258
-0.013130 0.030566 0.225651
-0.012073 0.030646 0.226196
-0.011022 0.030758 0.226983
-0.009972 0.030900 0.227995
-0.008896 0.030987 0.228595
-0.007807 0.031045 0.228996
-0.006721 0.031138 0.229652
-0.005630 0.031235 0.230339
-0.004516 0.031233 0.230299
-0.003414 0.031325 0.230955
-0.002302 0.031391 0.231424
-0.001190 0.031543 0.232530
-0.000066 0.031662 0.233391
0.001064 0.031714 0.233765
0.002199 0.031784 0.234279
0.003340 0.031861 0.234846
0.004499 0.032032 0.236101
0.005656 0.032118 0.236742
0.006808 0.032149 0.236978
0.007964 0.032191 0.237300
0.009139 0.032289 0.238034
0.010317 0.032374 0.238673
0.011506 0.032471 0.239410
0.012675 0.032502 0.239662
0.013857 0.032556 0.240088
0.015037 0.032598 0.240429
0.016236 0.032672 0.241006
0.017437 0.032739 0.241536
0.018611 0.032750 0.241655
0.019808 0.032798 0.242051
0.021021 0.032866 0.242597
0.022314 0.033045 0.243965
0.023623 0.033229 0.245370
0.024859 0.033297 0.245926
0.026058 0.033311 0.246083
0.027289 0.033363 0.246525
0.028506 0.033395 0.246823
0.029732 0.033434 0.247173
0.030965 0.033477 0.247556
0.032229 0.033550 0.248163
0.033525 0.033649 0.248966
0.034833 0.033752 0.249803
0.036180 0.033886 0.250869
0.037373 0.033872 0.250838
0.038555 0.033848 0.250739
0.039871 0.033940 0.251500
0.041176 0.034017 0.252155
0.042417 0.034039 0.252397
0.043609 0.034021 0.252345
0.044837 0.034031 0.252508
0.046038 0.034021 0.252519
0.047220 0.033997 0.252428
0.048386 0.033963 0.252267
0.049604 0.033967 0.252388
0.050765 0.033932 0.252215
0.051921 0.033896 0.252037
0.052611 0.033564 0.249656
0.053268 0.033226 0.247234
0.053074 0.032384 0.241053
0.053927 0.032202 0.239789
0.055016 0.032166 0.239607
0.056053 0.032102 0.239214
0.056587 0.031758 0.236736
0.056995 0.031359 0.233842
0.057988 0.031290 0.233411
0.058772 0.031113 0.232175
0.059658 0.030995 0.231377
0.060344 0.030781 0.229853
0.061175 0.030646 0.228924
0.062024 0.030524 0.228093
0.062823 0.030383 0.227115
0.063655 0.030262 0.226283
0.064533 0.030167 0.225644
0.065382 0.030062 0.224925
0.066273 0.029979 0.224370
0.067150 0.029892 0.223788
0.067885 0.029746 0.222756
0.068658 0.029620 0.221879
