ply
format ascii 1.0
element vertex 1745
property float x
property float y
property float z
end_header
-0.122159 0.186767 0.678738
-0.118668 0.186328 0.676985
-0.116171 0.187470 0.680976
-0.112348 0.186477 0.677210
-0.108653 0.185646 0.674034
-0.105554 0.185811 0.674481
-0.048673 0.088357 0.320654
-0.046992 0.088055 0.319489
-0.045338 0.087786 0.318439
-0.044138 0.088408 0.320624
-0.042725 0.088632 0.321367
-0.041334 0.088919 0.322338
-0.040229 0.089870 0.325717
-0.039430 0.091605 0.331936
-0.038475 0.093109 0.337318
-0.037613 0.094978 0.344021
-0.036218 0.095610 0.346244
-0.034765 0.096141 0.348103
-0.033327 0.096770 0.350314
-0.031653 0.096746 0.350165
-0.029988 0.096746 0.350105
-0.028290 0.096633 0.349638
-0.026545 0.096337 0.348512
-0.024879 0.096304 0.348340
-0.023204 0.096233 0.348032
-0.021457 0.095829 0.346521
-0.019740 0.095507 0.345310
-0.018061 0.095322 0.344596
-0.016381 0.095096 0.343738
-0.014645 0.094460 0.341400
-0.013044 0.094641 0.342018
-0.011479 0.095181 0.343936
-0.009840 0.095181 0.343905
-0.008217 0.095363 0.344534
-0.006640 0.096307 0.347916
-0.005004 0.096753 0.349502
-0.002822 0.081786 0.295421
-0.001387 0.080288 0.289994
-0.000004 0.080224 0.289749
0.001377 0.080194 0.289628
0.002759 0.080218 0.289706
0.004135 0.080102 0.289281
0.005505 0.079955 0.288746
0.006870 0.079810 0.288220
0.008216 0.079533 0.287219
0.009525 0.079026 0.285393
0.010880 0.078974 0.285206
0.012243 0.078992 0.285278
0.013493 0.078346 0.282954
0.014839 0.078326 0.282892
0.015980 0.077316 0.279258
0.017206 0.076838 0.277546
0.018500 0.076712 0.277107
0.019678 0.076155 0.275113
0.020768 0.075347 0.272210
0.021949 0.074947 0.270786
0.023118 0.074549 0.269373
0.024375 0.074464 0.269089
0.025439 0.073825 0.266806
0.026586 0.073478 0.265576
0.027775 0.073275 0.264870
0.028898 0.072920 0.263617
0.029892 0.072284 0.261346
0.030715 0.071301 0.257825
0.031912 0.071228 0.257593
0.033032 0.070994 0.256780
0.034055 0.070579 0.255311
0.034953 0.069940 0.253033
0.036140 0.069903 0.252934
0.037202 0.069634 0.251996
0.038167 0.069205 0.250480
0.039214 0.068947 0.249584
0.040204 0.068607 0.248388
0.041112 0.068150 0.246773
0.042042 0.067754 0.245376
0.042962 0.067363 0.243997
0.043909 0.067035 0.242845
0.044914 0.066810 0.242068
0.045845 0.066488 0.240935
0.046797 0.066211 0.239969
0.047494 0.065597 0.237779
0.048374 0.065257 0.236581
0.049156 0.064802 0.234968
0.049966 0.064405 0.233559
0.050834 0.064098 0.232479
0.051752 0.063865 0.231666
0.052508 0.063447 0.230181
0.053386 0.063190 0.229280
0.054243 0.062918 0.228321
0.055166 0.062732 0.227675
0.055984 0.062437 0.226630
0.056837 0.062190 0.225758
0.057748 0.062015 0.225147
0.058514 0.061694 0.224004
0.059137 0.061236 0.222359
0.059647 0.060679 0.220354
0.060399 0.060383 0.219297
0.061131 0.060078 0.218202
0.061202 0.059144 0.214820
0.062064 0.058991 0.214277
0.062834 0.058759 0.213441
0.063412 0.058356 0.211982
0.064038 0.058010 0.210727
0.064718 0.057723 0.209683
0.065129 0.057208 0.207810
0.065357 0.056550 0.205414
0.066022 0.056284 0.204440
0.066943 0.056240 0.204269
0.067470 0.055872 0.202919
0.068045 0.055553 0.201743
0.068991 0.055541 0.201680
0.069375 0.055084 0.199997
0.070087 0.054896 0.199286
0.070681 0.054621 0.198259
0.071275 0.054354 0.197254
0.071600 0.053891 0.195537
0.072102 0.053572 0.194338
0.072375 0.053092 0.192553
0.072563 0.052563 0.190583
0.073203 0.052370 0.189832
0.073785 0.052142 0.188945
0.074478 0.051996 0.188356
0.075245 0.051905 0.187958
0.075952 0.051774 0.187414
0.076581 0.051595 0.186688
0.077251 0.051446 0.186069
0.077844 0.051251 0.185275
0.078323 0.050985 0.184223
0.078774 0.050707 0.183122
0.079326 0.050500 0.182273
0.079796 0.050245 0.181246
0.080279 0.050004 0.180261
0.080808 0.049797 0.179395
0.081215 0.049519 0.178270
0.081856 0.049388 0.177666
0.082172 0.049066 0.176371
0.082595 0.048814 0.175320
0.083255 0.048705 0.174778
0.083770 0.048515 0.173935
0.084269 0.048319 0.173068
0.084749 0.048116 0.172169
0.085196 0.047898 0.171208
0.085881 0.047818 0.170731
0.086317 0.047601 0.169760
0.086705 0.047362 0.168702
0.087388 0.047287 0.168222
0.087828 0.047083 0.167273
0.088470 0.046991 0.166711
-1.001211 0.538650 1.897897
-0.983982 0.534226 1.884593
-0.972496 0.532868 1.881975
-0.959642 0.530728 1.876487
-0.952766 0.531885 1.882557
-0.945703 0.532959 1.888251
-0.935430 0.532227 1.887461
-0.927573 0.532870 1.891457
-0.915844 0.531280 1.887442
-0.909712 0.532937 1.894885
-0.902556 0.534022 1.900222
-0.984066 0.588119 2.094263
-0.975282 0.588806 2.098175
-0.961601 0.586520 2.091413
-0.952842 0.587221 2.095222
-0.814677 0.512735 1.831552
-0.807122 0.513433 1.835002
-0.792817 0.509806 1.822934
-0.784978 0.510302 1.825549
-0.775754 0.509900 1.824893
-0.856865 0.625693 2.245272
-0.841799 0.622364 2.233723
-0.830967 0.622121 2.233200
-0.823362 0.624320 2.241396
-0.812678 0.624210 2.241263
-0.803200 0.625036 2.244447
-0.660635 0.527971 1.896160
-0.645196 0.522687 1.877264
-0.632768 0.519729 1.866694
-0.625321 0.520838 1.870699
-0.617633 0.521774 1.874057
-0.608840 0.521791 1.874082
-0.600666 0.522347 1.876020
-0.295989 0.282275 1.013337
-0.289967 0.281061 1.008863
-0.283622 0.279487 1.003089
-0.280350 0.280940 1.008168
-0.276883 0.282245 1.012707
-0.271495 0.281604 1.010252
-0.267062 0.281947 1.011322
-0.260773 0.280308 1.005276
-0.256828 0.281175 1.008210
-0.250972 0.279943 1.003613
-0.148062 0.190262 0.681144
-0.144765 0.190155 0.680615
-0.139582 0.187511 0.671004
-0.136908 0.188192 0.673290
-0.135329 0.190447 0.681209
-0.132110 0.190448 0.681057
-0.129566 0.191446 0.684474
-0.127218 0.192794 0.689135
-0.123304 0.191776 0.685341
-0.120182 0.191969 0.685876
-0.117747 0.193300 0.690475
-0.113798 0.192151 0.686216
-0.110259 0.191648 0.684266
-0.107113 0.191817 0.684718
-0.048876 0.090260 0.322125
-0.046941 0.089481 0.319272
-0.045100 0.088836 0.316903
-0.043959 0.089572 0.319459
-0.042648 0.090003 0.320928
-0.041342 0.090475 0.322547
-0.040465 0.091961 0.327775
-0.039570 0.093522 0.333271
-0.038868 0.095689 0.340929
-0.037743 0.096957 0.345379
-0.036493 0.098005 0.349046
-0.034987 0.098433 0.350505
-0.033408 0.098688 0.351351
-0.031802 0.098888 0.352001
-0.029995 0.098447 0.350374
-0.028364 0.098569 0.350749
-0.026706 0.098604 0.350821
-0.024952 0.098270 0.349578
-0.023250 0.098105 0.348941
-0.021594 0.098122 0.348953
-0.019854 0.097732 0.347520
-0.018112 0.097261 0.345804
-0.016423 0.097004 0.344849
-0.014777 0.096981 0.344729
-0.013071 0.096502 0.342990
-0.011508 0.097098 0.345073
-0.009954 0.097985 0.348194
-0.008309 0.098142 0.348726
-0.006749 0.099644 0.354036
-0.005079 0.099966 0.355153
-0.003387 0.099976 0.355170
-0.001383 0.081646 0.290036
-0.000001 0.081621 0.289932
0.001380 0.081537 0.289624
0.002759 0.081482 0.289420
0.004133 0.081377 0.289039
0.005504 0.081265 0.288636
0.006855 0.080968 0.287579
0.008219 0.080895 0.287322
0.009523 0.080335 0.285334
0.010856 0.080134 0.284622
0.012214 0.080140 0.284649
0.013486 0.079636 0.282869
0.014768 0.079273 0.281588
0.015958 0.078520 0.278923
0.017181 0.078035 0.277214
0.018473 0.077907 0.276775
0.019649 0.077342 0.274784
0.020825 0.076843 0.273031
0.022010 0.076439 0.271614
0.023190 0.076059 0.270285
0.024328 0.075592 0.268648
0.025452 0.075128 0.267023
0.026648 0.074910 0.266275
0.027796 0.074584 0.265143
0.028967 0.074344 0.264319
0.030023 0.073841 0.262560
0.030678 0.072433 0.257581
0.031892 0.072402 0.257501
0.033086 0.072330 0.257277
0.034114 0.071911 0.255818
0.035091 0.071419 0.254101
0.036006 0.070836 0.252061
0.037081 0.070597 0.251245
0.038161 0.070381 0.250509
0.039149 0.070014 0.249237
0.040101 0.069605 0.247815
0.041145 0.069375 0.247033
0.041945 0.068758 0.244871
0.042918 0.068449 0.243805
0.043696 0.067855 0.241724
0.044585 0.067459 0.240348
0.045635 0.067319 0.239885
0.046355 0.066712 0.237754
0.047303 0.066454 0.236868
0.048196 0.066132 0.235755
0.049014 0.065724 0.234332
0.049869 0.065383 0.233149
0.050681 0.065002 0.231820
0.051620 0.064796 0.231115
0.052435 0.064447 0.229899
0.053255 0.064117 0.228749
0.054105 0.063836 0.227772
0.054952 0.063563 0.226824
0.055748 0.063241 0.225701
0.056695 0.063100 0.225220
0.057517 0.062829 0.224271
0.058199 0.062416 0.222816
0.058846 0.061982 0.221284
0.059587 0.061659 0.220149
0.060352 0.061373 0.219140
0.061217 0.061195 0.218518
0.061538 0.060490 0.216010
0.062072 0.060013 0.214313
0.062786 0.059723 0.213282
0.063521 0.059461 0.212351
0.064236 0.059190 0.211381
0.064758 0.058751 0.209811
0.065335 0.058375 0.208464
0.066079 0.058157 0.207678
0.066470 0.057639 0.205816
0.067097 0.057338 0.204728
0.068007 0.057284 0.204519
0.068451 0.056844 0.202929
0.068687 0.056246 0.200771
0.069275 0.055949 0.199685
0.070074 0.055828 0.199224
0.070550 0.055457 0.197864
0.071110 0.055160 0.196769
0.071597 0.054815 0.195499
0.072022 0.054432 0.194088
0.072591 0.054166 0.193091
0.072994 0.053785 0.191679
0.073530 0.053509 0.190640
0.074047 0.053226 0.189572
0.074642 0.053007 0.188725
0.075336 0.052861 0.188137
0.075995 0.052695 0.187469
0.076636 0.052519 0.186766
0.077226 0.052314 0.185951
0.077849 0.052135 0.185226
0.078303 0.051848 0.184113
0.078942 0.051689 0.183448
0.079453 0.051450 0.182494
0.079809 0.051118 0.181203
0.080341 0.050904 0.180328
0.080721 0.050599 0.179125
0.081272 0.050406 0.178314
0.081881 0.050253 0.177638
0.082352 0.050019 0.176669
0.082761 0.049753 0.175583
0.083461 0.049665 0.175117
0.083969 0.049466 0.174252
0.084416 0.049236 0.173270
0.084835 0.048993 0.172240
0.085450 0.048867 0.171613
0.085945 0.048676 0.170749
0.086415 0.048475 0.169840
0.086903 0.048286 0.168970
0.087553 0.048191 0.168418
0.087956 0.047963 0.167391
0.088555 0.047844 0.166741
-1.000696 0.547506 1.895633
-0.984191 0.543404 1.883759
-0.967553 0.539152 1.871228
-0.959327 0.539553 1.874730
-0.952073 0.540513 1.880088
-0.943963 0.541002 1.883718
-0.935368 0.541220 1.886317
-0.925259 0.540557 1.885761
-0.915134 0.539873 1.885038
-0.907365 0.540578 1.889091
-0.898960 0.540917 1.891783
-0.984183 0.598167 2.093594
-0.975383 0.598855 2.097512
-0.961322 0.596296 2.089968
-0.929450 0.582520 2.043001
-0.920881 0.583215 2.046679
-0.815244 0.521795 1.832190
-0.805684 0.521212 1.831129
-0.790847 0.517165 1.817833
-0.786882 0.520217 1.829432
-0.775062 0.518087 1.822755
-0.880361 0.645794 2.277935
-0.857032 0.636431 2.245389
-0.842161 0.633194 2.234395
-0.831281 0.632915 2.233786
-0.824000 0.635403 2.242904
-0.813303 0.635289 2.242790
-0.799266 0.632528 2.233289
-0.789796 0.633356 2.236421
-0.659931 0.536357 1.894050
-0.643492 0.530152 1.872244
-0.632929 0.528682 1.867131
-0.624275 0.528789 1.867553
-0.617000 0.530084 1.872143
-0.607703 0.529654 1.870614
-0.596055 0.527133 1.861672
-0.289608 0.285477 1.007725
-0.282638 0.283246 0.999734
-0.281916 0.287305 1.013937
-0.275824 0.285938 1.008981
-0.268945 0.283694 1.000920
-0.264745 0.284245 1.002716
-0.259194 0.283341 0.999368
-0.252561 0.281198 0.991649
-0.245534 0.278527 0.982063
-0.241189 0.278855 0.983046
-0.185508 0.242429 0.853641
-0.180152 0.240657 0.847227
-0.175719 0.240066 0.844967
-0.128693 0.198343 0.697363
-0.125517 0.198536 0.697887
-0.120783 0.196207 0.689549
-0.118829 0.198393 0.697078
-0.114689 0.196947 0.691848
-0.110585 0.195482 0.686552
-0.107428 0.195653 0.687004
-0.049088 0.092194 0.323653
-0.047283 0.091666 0.321731
-0.045762 0.091673 0.321689
-0.044339 0.091885 0.322365
-0.042963 0.092211 0.323442
-0.041454 0.092267 0.323573
-0.040661 0.093979 0.329511
-0.039954 0.096037 0.336663
-0.038887 0.097367 0.341260
-0.038001 0.099284 0.347911
-0.036553 0.099839 0.349793
-0.035003 0.100156 0.350841
-0.033455 0.100512 0.352025
-0.031728 0.100339 0.351360
-0.030101 0.100480 0.351798
-0.028429 0.100481 0.351746
-0.026645 0.100060 0.350217
-0.024999 0.100138 0.350437
-0.023309 0.100034 0.350026
-0.021599 0.099827 0.349252
-0.019907 0.099671 0.348662
-0.018212 0.099472 0.347923
-0.016568 0.099545 0.348140
-0.014877 0.099315 0.347297
-0.013215 0.099249 0.347030
-0.011612 0.099668 0.348461
-0.010004 0.100184 0.350235
-0.008350 0.100341 0.350755
-0.006723 0.100996 0.353017
-0.005106 0.102286 0.357504
-0.003403 0.102297 0.357521
-0.001379 0.083011 0.290103
0.000003 0.082999 0.290048
0.001383 0.082904 0.289705
0.002765 0.082945 0.289839
0.004139 0.082794 0.289303
0.005511 0.082699 0.288967
0.006864 0.082412 0.287961
0.008206 0.082106 0.286890
0.009545 0.081859 0.286031
0.010876 0.081617 0.285189
0.012190 0.081313 0.284131
0.013502 0.081058 0.283245
0.014700 0.080225 0.280345
0.015916 0.079622 0.278250
0.017178 0.079328 0.277234
0.018452 0.079123 0.276532
0.019690 0.078802 0.275426
0.020872 0.078309 0.273721
0.022020 0.077757 0.271808
0.023207 0.077392 0.270555
0.024327 0.076858 0.268709
0.025477 0.076464 0.267353
0.026612 0.076066 0.265986
0.027776 0.075784 0.265026
0.028749 0.075027 0.262406
0.029873 0.074710 0.261324
0.030879 0.074135 0.259342
0.031941 0.073735 0.257971
0.033044 0.073454 0.257017
0.034076 0.073040 0.255600
0.035138 0.072720 0.254510
0.036128 0.072274 0.252981
0.037101 0.071825 0.251444
0.038064 0.071384 0.249931
0.039139 0.071174 0.249230
0.040065 0.070715 0.247656
0.041077 0.070427 0.246681
0.041906 0.069852 0.244700
0.042880 0.069541 0.243644
0.043821 0.069196 0.242468
0.044760 0.068866 0.241344
0.045716 0.068576 0.240358
0.046684 0.068318 0.239489
0.047329 0.067612 0.237044
0.048231 0.067297 0.235972
0.049013 0.066832 0.234372
0.049821 0.066423 0.232965
0.050743 0.066180 0.232143
0.051638 0.065912 0.231231
0.052428 0.065526 0.229902
0.053333 0.065295 0.229118
0.054104 0.064912 0.227798
0.054894 0.064567 0.226610
0.055461 0.063977 0.224563
0.056438 0.063875 0.224223
0.057318 0.063668 0.223516
0.058069 0.063328 0.222339
0.058802 0.062981 0.221137
0.059526 0.062637 0.219940
0.060240 0.062293 0.218745
0.060951 0.061958 0.217578
0.061652 0.061625 0.216416
0.062254 0.061206 0.214947
0.062775 0.060721 0.213247
0.063444 0.060392 0.212092
0.064018 0.059985 0.210661
0.064699 0.059689 0.209617
0.065448 0.059464 0.208818
0.066313 0.059349 0.208404
0.066918 0.059008 0.207193
0.067576 0.058723 0.206175
0.068186 0.058405 0.205040
0.069011 0.058278 0.204572
0.069557 0.057921 0.203294
0.069395 0.056993 0.200007
0.070070 0.056769 0.199186
0.070868 0.056648 0.198726
0.071301 0.056243 0.197266
0.071817 0.055913 0.196065
0.072255 0.055531 0.194678
0.072817 0.055253 0.193652
0.073210 0.054855 0.192202
0.073713 0.054548 0.191069
0.074039 0.054120 0.189506
0.074645 0.053904 0.188681
0.075257 0.053698 0.187886
0.075830 0.053469 0.187008
0.076488 0.053304 0.186349
0.077242 0.053209 0.185930
0.077926 0.053069 0.185346
0.078609 0.052931 0.184767
0.079091 0.052662 0.183724
0.079667 0.052461 0.182913
0.080198 0.052235 0.182012
0.080681 0.051983 0.181012
0.081334 0.051844 0.180402
0.081843 0.051618 0.179482
0.082365 0.051404 0.178599
0.082748 0.051109 0.177429
0.083020 0.050752 0.176038
0.083505 0.050532 0.175113
0.083940 0.050285 0.174092
0.084372 0.050042 0.173077
0.084749 0.049771 0.171960
0.085406 0.049668 0.171414
0.086010 0.049536 0.170762
0.086396 0.049283 0.169683
0.086933 0.049120 0.168907
0.087784 0.049135 0.168736
0.088193 0.048905 0.167712
0.088702 0.048734 0.166883
-1.004641 0.558833 1.901765
-0.996447 0.559348 1.905920
-0.972564 0.550985 1.879688
-0.959312 0.548544 1.873519
-0.951130 0.548985 1.877086
-0.944665 0.550435 1.884017
-0.934995 0.550028 1.884503
-0.925922 0.549968 1.886091
-0.915629 0.549175 1.885078
-0.906737 0.549216 1.886844
-0.900421 0.550833 1.893951
-0.970186 0.599496 2.062873
-0.976152 0.609325 2.098245
-0.957578 0.603882 2.080956
-0.932609 0.594251 2.049123
-0.923997 0.594950 2.052818
-0.813953 0.529659 1.828620
-0.804945 0.529420 1.828814
-0.794076 0.527939 1.824654
-0.786440 0.528598 1.827835
-0.777366 0.528295 1.827630
-0.879516 0.655938 2.275361
-0.856708 0.646804 2.244187
-0.842430 0.643964 2.234792
-0.831699 0.643797 2.234624
-0.824856 0.646676 2.244980
-0.813360 0.645933 2.242723
-0.802081 0.645346 2.240962
-0.792567 0.646183 2.244104
-0.659840 0.545231 1.893677
-0.642860 0.538467 1.870317
-0.632712 0.537319 1.866428
-0.625456 0.538629 1.871048
-0.617463 0.539334 1.873535
-0.607722 0.538509 1.870683
-0.597911 0.537598 1.867505
-0.292630 0.298153 1.035194
-0.288793 0.299227 1.038803
-0.278834 0.293884 1.020131
-0.273947 0.293794 1.019685
-0.267197 0.291667 1.012164
-0.258059 0.286810 0.995163
-0.252916 0.286295 0.993223
-0.245622 0.283279 0.982603
-0.236290 0.277753 0.963274
-0.232017 0.278073 0.964220
-0.193616 0.251782 0.872411
-0.185242 0.246124 0.852640
-0.179891 0.244323 0.846233
-0.175462 0.243720 0.843974
-0.171656 0.243974 0.844683
-0.125204 0.201351 0.696385
-0.121973 0.201453 0.696591
-0.119869 0.203475 0.703433
-0.115034 0.200843 0.694186
-0.111293 0.200024 0.691212
-0.108115 0.200198 0.691666
-0.049224 0.093995 0.324678
-0.047520 0.093668 0.323481
-0.046040 0.093773 0.323778
-0.044746 0.094280 0.325462
-0.043228 0.094332 0.325578
-0.041937 0.094904 0.327486
-0.042319 0.099449 0.343105
-0.040720 0.099519 0.343279
-0.039377 0.100246 0.345722
-0.038080 0.101157 0.348799
-0.036720 0.101978 0.351570
-0.035089 0.102087 0.351884
-0.033460 0.102214 0.352262
-0.031826 0.102339 0.352635
-0.030098 0.102158 0.351954
-0.028438 0.102201 0.352048
-0.026771 0.102222 0.352069
-0.025063 0.102082 0.351536
-0.023414 0.102176 0.351809
-0.021713 0.102042 0.351302
-0.020042 0.102042 0.351259
-0.018338 0.101852 0.350563
-0.016674 0.101876 0.350605
-0.015053 0.102194 0.351663
-0.013319 0.101730 0.350031
-0.011690 0.102043 0.351073
-0.010037 0.102226 0.351672
-0.008357 0.102156 0.351404
-0.006729 0.102845 0.353746
-0.005064 0.103232 0.355054
-0.003374 0.103243 0.355071
-0.001375 0.084312 0.289948
0.000006 0.084384 0.290184
0.001385 0.084217 0.289597
0.002768 0.084309 0.289908
0.004147 0.084272 0.289770
0.005514 0.084066 0.289057
0.006872 0.083834 0.288259
0.008224 0.083615 0.287504
0.009555 0.083274 0.286333
0.010856 0.082799 0.284700
0.012171 0.082511 0.283716
0.013458 0.082117 0.282367
0.014710 0.081601 0.280601
0.016041 0.081569 0.280502
0.017213 0.080797 0.277859
0.018462 0.080470 0.276747
0.019723 0.080232 0.275946
0.020864 0.079569 0.273682
0.022014 0.079017 0.271799
0.023153 0.078487 0.269997
0.024323 0.078113 0.268730
0.025471 0.077708 0.267360
0.026575 0.077216 0.265690
0.027759 0.076988 0.264930
0.028912 0.076699 0.263960
0.029899 0.076011 0.261618
0.030918 0.075458 0.259741
0.031853 0.074747 0.257322
0.033006 0.074584 0.256789
0.034087 0.074274 0.255751
0.035120 0.073885 0.254442
0.036083 0.073380 0.252732
0.037041 0.072895 0.251093
0.038084 0.072606 0.250127
0.039120 0.072318 0.249168
0.040063 0.071883 0.247699
0.040824 0.071155 0.245221
0.041778 0.070793 0.244006
0.042793 0.070552 0.243207
0.043733 0.070202 0.242031
0.044423 0.069480 0.239573
0.045441 0.069294 0.238963
0.046433 0.069079 0.238249
0.047312 0.068709 0.237004
0.048115 0.068249 0.235446
0.048857 0.067725 0.233666
0.049660 0.067307 0.232250
0.050528 0.066993 0.231194
0.051498 0.066825 0.230639
0.052368 0.066536 0.229669
0.053214 0.066230 0.228634
0.053883 0.065719 0.226893
0.054629 0.065321 0.225540
0.055366 0.064928 0.224202
0.056235 0.064702 0.223438
0.057086 0.064463 0.222628
0.057816 0.064099 0.221387
0.058653 0.063864 0.220588
0.059418 0.063561 0.219552
0.060087 0.063166 0.218197
0.060853 0.062887 0.217238
0.061387 0.062379 0.215490
0.061916 0.061884 0.213780
0.062595 0.061552 0.212634
0.063456 0.061407 0.212130
0.064149 0.061106 0.211087
0.064780 0.060757 0.209872
0.065470 0.060471 0.208877
0.066168 0.060202 0.207935
0.066964 0.060029 0.207320
0.067584 0.059706 0.206184
0.068181 0.059371 0.205006
0.068696 0.058975 0.203614
0.069076 0.058476 0.201863
0.069540 0.058062 0.200400
0.070285 0.057889 0.199768
0.071027 0.057718 0.199141
0.071707 0.057502 0.198353
0.072367 0.057277 0.197530
0.072742 0.056834 0.195951
0.072742 0.056113 0.193411
0.073308 0.055841 0.192416
0.073778 0.055504 0.191191
0.074290 0.055206 0.190099
0.074732 0.054864 0.188848
0.075416 0.054705 0.188227
0.076002 0.054480 0.187373
0.076749 0.054375 0.186924
0.077425 0.054221 0.186306
0.078008 0.054007 0.185475
0.078799 0.053940 0.185143
0.079240 0.053638 0.183999
0.079744 0.053384 0.183016
0.080291 0.053164 0.182144
0.080765 0.052902 0.181119
0.081363 0.052725 0.180382
0.081869 0.052493 0.179452
0.082486 0.052335 0.178771
0.082804 0.051994 0.177455
0.082937 0.051544 0.175765
0.083505 0.051372 0.175013
0.083907 0.051101 0.173920
0.084300 0.050830 0.172822
0.084876 0.050674 0.172105
0.085321 0.050443 0.171128
0.085842 0.050261 0.170311
0.086473 0.050147 0.169714
0.086875 0.049903 0.168668
0.087734 0.049923 0.168510
0.088218 0.049732 0.167626
0.088711 0.049549 0.166763
-1.007544 0.569644 1.905865
-0.988940 0.564243 1.890228
-0.973819 0.560748 1.880834
-0.960679 0.558340 1.874960
-0.950601 0.557683 1.874858
-0.942791 0.558358 1.879137
-0.934625 0.558832 1.882657
-0.925714 0.558867 1.884608
-0.917287 0.559197 1.887472
-0.907800 0.558882 1.888075
-0.901077 0.560280 1.894387
-0.980318 0.615696 2.083419
-0.971520 0.616385 2.087332
-0.957442 0.613703 2.079746
-0.934340 0.605123 2.052065
-0.925697 0.605825 2.055771
-0.815669 0.539485 1.831774
-0.806607 0.539218 1.831921
-0.795499 0.537563 1.827290
-0.787046 0.537686 1.828639
-0.777706 0.537199 1.827859
-0.880995 0.667823 2.278765
-0.857787 0.658247 2.246632
-0.841627 0.653908 2.232314
-0.830766 0.653629 2.231803
-0.825796 0.658037 2.247253
-0.811750 0.655234 2.238032
-0.802248 0.656074 2.241209
-0.659025 0.553496 1.891205
-0.643032 0.547453 1.870713
-0.631999 0.545523 1.864243
-0.624426 0.546569 1.867909
-0.617518 0.548235 1.873668
-0.607773 0.547395 1.870832
-0.599128 0.547535 1.871320
-0.273781 0.298438 1.019212
-0.269304 0.298795 1.020300
-0.261106 0.294962 1.007076
-0.251943 0.289877 0.989571
-0.245388 0.287657 0.981847
-0.237612 0.283894 0.968852
-0.226526 0.275951 0.941591
-0.222338 0.276263 0.942497
-0.206534 0.261859 0.893203
-0.199261 0.257897 0.879533
-0.193339 0.255552 0.871375
-0.187290 0.252935 0.862293
-0.182056 0.251326 0.856645
-0.176663 0.249421 0.849987
-0.169852 0.245378 0.836044
-0.164396 0.243147 0.828281
-0.125944 0.205872 0.700737
-0.121970 0.204761 0.696813
-0.119646 0.206436 0.702372
-0.115631 0.205207 0.698047
-0.111790 0.204223 0.694559
-0.108597 0.204398 0.695014
-0.048987 0.095081 0.323239
-0.047519 0.095206 0.323600
-0.046195 0.095638 0.325003
-0.044648 0.095621 0.324882
-0.043231 0.095892 0.325738
-0.041682 0.095881 0.325639
-0.042814 0.102272 0.347280
-0.041196 0.102342 0.347455
-0.039818 0.103040 0.349759
-0.038595 0.104215 0.353685
-0.037181 0.104960 0.356153
-0.035670 0.105491 0.357893
-0.034015 0.105624 0.358284
-0.032259 0.105444 0.357616
-0.030489 0.105196 0.356719
-0.028734 0.104973 0.355911
-0.026900 0.104415 0.353967
-0.025134 0.104065 0.352733
-0.023447 0.104016 0.352516
-0.021708 0.103710 0.351436
-0.020006 0.103548 0.350843
-0.018379 0.103776 0.351574
-0.016718 0.103845 0.351770
-0.015093 0.104172 0.352838
-0.013423 0.104234 0.353015
-0.011744 0.104235 0.352987
-0.010113 0.104734 0.354644
-0.008412 0.104566 0.354048
-0.006745 0.104833 0.354927
-0.005056 0.104847 0.354951
-0.002819 0.087786 0.297174
-0.001379 0.086198 0.291784
0.000010 0.085847 0.290583
0.001394 0.085898 0.290744
0.002777 0.085866 0.290626
0.004149 0.085610 0.289753
0.005516 0.085415 0.289086
0.006863 0.085053 0.287861
0.008213 0.084832 0.287109
0.009543 0.084509 0.286017
0.010843 0.084026 0.284385
0.012175 0.083869 0.283859
0.013483 0.083595 0.282936
0.014690 0.082804 0.280266
0.016008 0.082715 0.279976
0.017246 0.082258 0.278440
0.018460 0.081764 0.276779
0.019683 0.081368 0.275453
0.020882 0.080930 0.273985
0.022001 0.080251 0.271703
0.023159 0.079783 0.270137
0.024313 0.079349 0.268687
0.025467 0.078960 0.267390
0.026609 0.078570 0.266092
0.027756 0.078231 0.264966
0.028921 0.077971 0.264112
0.030016 0.077550 0.262709
0.030952 0.076768 0.260088
0.031875 0.076017 0.257567
0.033007 0.075801 0.256863
0.034122 0.075561 0.256077
0.035093 0.075029 0.254304
0.036025 0.074455 0.252385
0.036962 0.073925 0.250618
0.037997 0.073619 0.249610
0.038957 0.073192 0.248191
0.039942 0.072834 0.247006
0.040920 0.072483 0.245846
0.041806 0.071995 0.244221
0.042697 0.071542 0.242712
0.043544 0.071039 0.241035
0.044387 0.070557 0.239428
0.045436 0.070416 0.238979
0.046413 0.070175 0.238190
0.047198 0.069662 0.236475
0.048032 0.069243 0.235079
0.048978 0.069000 0.234282
0.049684 0.068438 0.232399
0.050459 0.067993 0.230911
0.051307 0.067663 0.229814
0.052347 0.067595 0.229604
0.053141 0.067219 0.228349
0.053857 0.066760 0.226809
0.054586 0.066336 0.225388
0.055413 0.066044 0.224413
0.056390 0.065939 0.224072
0.056963 0.065375 0.222168
0.057634 0.064941 0.220704
0.058495 0.064733 0.220007
0.059315 0.064487 0.219181
0.060034 0.064142 0.218014
0.060836 0.063896 0.217182
0.061561 0.063577 0.216102
0.061763 0.062739 0.213252
0.062634 0.062596 0.212765
0.063400 0.062355 0.211940
0.064114 0.062070 0.210965
0.064896 0.061859 0.210237
0.065516 0.061503 0.209013
0.066161 0.061179 0.207898
0.066941 0.060989 0.207234
0.067584 0.060681 0.206163
0.068293 0.060440 0.205320
0.068755 0.059990 0.203765
0.069407 0.059717 0.202804
0.069882 0.059300 0.201355
0.070462 0.058983 0.200239
0.071251 0.058846 0.199734
0.071805 0.058522 0.198587
0.072263 0.058129 0.197204
0.072739 0.057760 0.195899
0.073371 0.057523 0.195037
0.073813 0.057145 0.193694
0.073724 0.056370 0.191001
0.073830 0.055761 0.188869
0.074634 0.055688 0.188547
0.075444 0.055620 0.188238
0.075971 0.055348 0.187235
0.076777 0.055283 0.186928
0.077507 0.055166 0.186437
0.078155 0.054993 0.185754
0.078893 0.054887 0.185291
0.079532 0.054716 0.184600
0.080115 0.054509 0.183786
0.080561 0.054215 0.182673
0.080873 0.053838 0.181276
0.081486 0.053668 0.180567
0.081886 0.053361 0.179396
0.082285 0.053061 0.178240
0.082593 0.052709 0.176905
0.083067 0.052469 0.175940
0.083453 0.052179 0.174798
0.083994 0.051990 0.173992
0.084623 0.051859 0.173372
0.085070 0.051620 0.172383
0.085506 0.051379 0.171380
0.085957 0.051152 0.170417
0.086442 0.050948 0.169524
0.086989 0.050785 0.168759
0.087878 0.050823 0.168650
0.088429 0.050666 0.167886
0.088865 0.050446 0.166907
-1.007032 0.578548 1.903452
-0.987104 0.572289 1.885339
-0.974005 0.569911 1.879866
-0.960482 0.567238 1.873300
-0.950144 0.566415 1.872728
-0.942682 0.567307 1.877732
-0.934672 0.567883 1.881605
-0.925665 0.567860 1.883404
-0.917850 0.568574 1.887566
-0.909883 0.569209 1.891383
-0.901240 0.569428 1.893744
-0.978118 0.624233 2.077707
-0.969325 0.624921 2.081618
-0.961218 0.626072 2.086992
-0.934324 0.614882 2.051129
-0.925667 0.615586 2.054840
-0.812913 0.546343 1.824853
-0.803499 0.545813 1.824165
-0.794395 0.545484 1.824089
-0.787444 0.546643 1.828930
-0.777504 0.545730 1.826783
-0.880142 0.677949 2.276104
-0.859835 0.670473 2.251582
-0.842088 0.664831 2.233158
-0.832902 0.665892 2.237197
-0.826580 0.669299 2.249073
-0.812636 0.666543 2.240194
-0.658021 0.561577 1.888165
-0.642394 0.555742 1.868725
-0.631650 0.554028 1.863110
-0.623686 0.554739 1.865617
-0.616273 0.555967 1.869837
-0.606347 0.554931 1.866411
-0.596360 0.553808 1.862667
-0.264129 0.297789 1.000835
-0.256728 0.294703 0.990340
-0.250850 0.293284 0.985440
-0.242525 0.288896 0.970564
-0.235095 0.285426 0.958766
-0.226365 0.280213 0.941109
-0.217673 0.274838 0.922911
-0.209125 0.269430 0.904603
-0.200883 0.264199 0.886892
-0.195367 0.262408 0.880728
-0.189646 0.260257 0.873354
-0.183986 0.258098 0.865954
-0.179350 0.257309 0.863147
-0.172820 0.253703 0.850890
-0.165211 0.248305 0.832628
-0.126897 0.210786 0.706272
-0.122308 0.208651 0.698981
-0.119845 0.210126 0.703784
-0.115757 0.208754 0.699053
-0.111864 0.207665 0.695269
-0.108667 0.207841 0.695723
-0.049485 0.097604 0.326655
-0.047858 0.097438 0.326036
-0.046931 0.098736 0.330316
-0.045166 0.098298 0.328788
-0.043587 0.098250 0.328566
-0.042339 0.098970 0.330912
-0.042285 0.102644 0.343136
-0.041328 0.104335 0.348725
-0.039948 0.105052 0.351058
-0.038765 0.106374 0.355415
-0.037430 0.107379 0.358712
-0.035916 0.107941 0.360533
-0.034349 0.108396 0.361991
-0.032605 0.108306 0.361636
-0.030783 0.107934 0.360341
-0.029027 0.107767 0.359728
-0.027115 0.106962 0.356990
-0.025306 0.106485 0.355349
-0.023570 0.106267 0.354575
-0.021814 0.105916 0.353362
-0.020068 0.105565 0.352147
-0.018418 0.105699 0.352552
-0.016823 0.106206 0.354206
-0.015177 0.106467 0.355042
-0.013478 0.106380 0.354715
-0.011828 0.106709 0.355783
-0.010165 0.107014 0.356767
-0.008457 0.106877 0.356284
-0.006760 0.106830 0.356103
-0.005067 0.106845 0.356127
-0.002811 0.089050 0.296798
-0.001386 0.088261 0.294154
0.000013 0.087448 0.291431
0.001400 0.087403 0.291269
0.002783 0.087316 0.290971
0.004154 0.087021 0.289980
0.005525 0.086886 0.289524
0.006849 0.086202 0.287241
0.008188 0.085901 0.286238
0.009522 0.085642 0.285375
0.010858 0.085464 0.284782
0.012189 0.085290 0.284206
0.013496 0.085000 0.283244
0.014784 0.084654 0.282099
0.016027 0.084130 0.280364
0.017207 0.083380 0.277872
0.018399 0.082788 0.275913
0.019700 0.082737 0.275755
0.020857 0.082120 0.273714
0.022004 0.081543 0.271807
0.023108 0.080878 0.269607
0.024266 0.080460 0.268230
0.025457 0.080188 0.267346
0.026565 0.079696 0.265723
0.027719 0.079376 0.264678
0.028863 0.079060 0.263649
0.029904 0.078496 0.261792
0.030964 0.078027 0.260249
0.031983 0.077494 0.258498
0.033120 0.077277 0.257798
0.034087 0.076692 0.255876
0.035071 0.076185 0.254208
0.035960 0.075511 0.251987
0.037067 0.075325 0.251392
0.037964 0.074735 0.249453
0.038911 0.074277 0.247951
0.039866 0.073860 0.246588
0.040914 0.073636 0.245866
0.041884 0.073287 0.244728
0.042783 0.072835 0.243247
0.043612 0.072291 0.241457
0.044508 0.071883 0.240123
0.045514 0.071669 0.239433
0.046533 0.071486 0.238847
0.047421 0.071114 0.237629
0.048092 0.070441 0.235406
0.048904 0.070001 0.233962
0.049694 0.069550 0.232477
0.050544 0.069201 0.231333
0.051411 0.068889 0.230309
0.052450 0.068816 0.230084
0.053219 0.068399 0.228709
0.053787 0.067744 0.226538
0.054509 0.067306 0.225090
0.055399 0.067088 0.224373
0.056381 0.066988 0.224053
0.056797 0.066231 0.221534
0.057566 0.065905 0.220453
0.058219 0.065461 0.218975
0.059193 0.065388 0.218737
0.059888 0.065013 0.217486
0.060768 0.064850 0.216941
0.061241 0.064263 0.214978
0.061854 0.063841 0.213563
0.062256 0.063219 0.211478
0.062975 0.062932 0.210510
0.063780 0.062739 0.209855
0.064626 0.062592 0.209352
0.065368 0.062350 0.208526
0.066155 0.062157 0.207861
0.066954 0.061982 0.207254
0.067760 0.061817 0.206679
0.068367 0.061479 0.205520
0.069218 0.061365 0.205111
0.069854 0.061067 0.204080
0.070206 0.060533 0.202256
0.070785 0.060206 0.201121
0.071541 0.060036 0.200511
0.072113 0.059718 0.199400
0.072444 0.059212 0.197656
0.072918 0.058833 0.196336
0.073695 0.058706 0.195851
0.074249 0.058406 0.194786
0.074787 0.058102 0.193700
0.075184 0.057696 0.192275
0.075176 0.056994 0.189856
0.075933 0.056881 0.189397
0.076319 0.056496 0.188028
0.077050 0.056372 0.187523
0.077817 0.056277 0.187112
0.078318 0.055994 0.186068
0.079044 0.055877 0.185567
0.079789 0.055775 0.185114
0.080373 0.055564 0.184295
0.080733 0.055204 0.182976
0.081171 0.054906 0.181853
0.081635 0.054631 0.180805
0.082043 0.054324 0.179645
0.082618 0.054133 0.178864
0.083022 0.053835 0.177720
0.083239 0.053424 0.176198
0.083644 0.053139 0.175090
0.084189 0.052949 0.174283
0.084668 0.052721 0.173347
0.085147 0.052498 0.172420
0.085547 0.052230 0.171339
0.086182 0.052110 0.170734
0.086573 0.051846 0.169651
0.087158 0.051702 0.168951
0.087997 0.051710 0.168738
0.088416 0.051473 0.167718
0.088909 0.051284 0.166842
-0.992024 0.584281 1.893298
-0.976973 0.580731 1.884213
-0.962325 0.577358 1.875569
-0.949698 0.575145 1.870574
-0.941638 0.575683 1.874422
-0.934569 0.576843 1.880209
-0.925642 0.576869 1.882212
-0.917255 0.577235 1.885239
-0.909329 0.577901 1.889165
-0.901304 0.578518 1.892853
-0.970761 0.629381 2.061005
-0.962017 0.630065 2.064892
-0.951318 0.629469 2.064508
-0.935328 0.625324 2.052391
-0.926646 0.626029 2.056110
-0.810796 0.553580 1.819337
-0.801896 0.553380 1.819796
-0.793461 0.553501 1.821246
-0.786863 0.554921 1.826915
-0.777924 0.554703 1.827137
-0.872907 0.683063 2.256912
-0.857588 0.679349 2.245252
-0.840802 0.674366 2.229340
-0.836931 0.679748 2.247640
-0.827215 0.680459 2.250455
-0.813626 0.677962 2.242612
-0.655245 0.568097 1.880019
-0.642119 0.564334 1.867772
-0.631814 0.562981 1.863466
-0.625888 0.565547 1.872102
-0.616904 0.565383 1.871673
-0.607081 0.564435 1.868617
-0.599346 0.565430 1.871965
-0.281224 0.316459 1.047181
-0.270744 0.310101 1.026034
-0.259025 0.302069 0.999345
-0.252272 0.299638 0.991179
-0.244177 0.295491 0.977336
-0.236062 0.291160 0.962882
-0.227338 0.285894 0.945330
-0.217978 0.279602 0.924390
-0.208557 0.272974 0.902337
-0.200923 0.268457 0.887265
-0.194585 0.265517 0.877405
-0.188538 0.262855 0.868464
-0.183203 0.261090 0.862482
-0.178002 0.259440 0.856884
-0.173025 0.258048 0.852134
-0.166023 0.253497 0.836956
-0.127357 0.214919 0.709059
-0.121949 0.211353 0.697163
-0.119194 0.212314 0.700201
-0.115825 0.212206 0.699711
-0.111647 0.210565 0.694170
-0.108455 0.210742 0.694622
-0.049391 0.098971 0.326157
-0.047793 0.098858 0.325721
-0.046916 0.100278 0.330341
-0.045128 0.099783 0.328649
-0.043562 0.099759 0.328512
-0.042636 0.101254 0.333374
-0.042339 0.104417 0.343729
-0.041188 0.105641 0.347696
-0.040229 0.107480 0.353689
-0.038979 0.108669 0.357541
-0.037601 0.109592 0.360521
-0.036139 0.110347 0.362944
-0.034542 0.110745 0.364199
-0.032828 0.110792 0.364298
-0.030986 0.110388 0.362915
-0.029201 0.110151 0.362084
-0.027314 0.109474 0.359810
-0.025423 0.108690 0.357185
-0.023685 0.108496 0.356500
-0.021916 0.108122 0.355228
-0.020268 0.108332 0.355877
-0.018566 0.108262 0.355609
-0.016910 0.108479 0.356282
-0.015372 0.109578 0.359857
-0.013623 0.109265 0.358794
-0.011957 0.109630 0.359959
-0.010310 0.110310 0.362162
-0.008561 0.109955 0.360971
-0.006842 0.109920 0.360830
-0.005127 0.109934 0.360854
-0.002787 0.089811 0.294783
-0.001382 0.089617 0.294133
0.000017 0.089176 0.292671
0.001404 0.088864 0.291635
0.002788 0.088757 0.291276
0.004159 0.088441 0.290230
0.005522 0.088149 0.289268
0.006866 0.087744 0.287933
0.008218 0.087543 0.287273
0.009550 0.087226 0.286231
0.010867 0.086867 0.285054
0.012188 0.086615 0.284230
0.013502 0.086362 0.283405
0.014770 0.085898 0.281888
0.016051 0.085571 0.280825
0.017312 0.085198 0.279611
0.018487 0.084487 0.277287
0.019653 0.083833 0.275153
0.020882 0.083510 0.274107
0.022010 0.082846 0.271942
0.023216 0.082531 0.270925
0.024283 0.081783 0.268486
0.025363 0.081150 0.266428
0.026525 0.080827 0.265384
0.027648 0.080418 0.264062
0.028816 0.080171 0.263273
0.029895 0.079709 0.261777
0.030987 0.079315 0.260508
0.032025 0.078820 0.258904
0.033168 0.078607 0.258230
0.034157 0.078061 0.256458
0.035023 0.077280 0.253920
0.035722 0.076195 0.250377
0.037003 0.076379 0.251010
0.038015 0.076016 0.249841
0.038873 0.075375 0.247762
0.039914 0.075116 0.246935
0.040877 0.074730 0.245693
0.041798 0.074290 0.244270
0.042700 0.073840 0.242817
0.043476 0.073203 0.240749
0.044307 0.072688 0.239079
0.045325 0.072497 0.238477
0.046343 0.072317 0.237907
0.047199 0.071899 0.236554
0.048162 0.071658 0.235784
0.049071 0.071349 0.234791
0.049613 0.070533 0.232127
0.050503 0.070237 0.231173
0.051385 0.069941 0.230217
0.052296 0.069697 0.229431
0.053154 0.069393 0.228448
0.053839 0.068882 0.226778
0.054466 0.068316 0.224929
0.055300 0.068026 0.223988
0.056025 0.067617 0.222651
0.056926 0.067430 0.222045
0.057483 0.066851 0.220144
0.058315 0.066606 0.219344
0.059133 0.066355 0.218519
0.059949 0.066109 0.217711
0.060748 0.065853 0.216868
0.061390 0.065439 0.215501
0.061670 0.064658 0.212925
0.062404 0.064371 0.211973
0.063235 0.064191 0.211369
0.063917 0.063868 0.210292
0.064721 0.063675 0.209644
0.065470 0.063434 0.208832
0.066093 0.063081 0.207648
0.066602 0.062631 0.206141
0.067602 0.062648 0.206172
0.068461 0.062536 0.205773
0.069098 0.062228 0.204724
0.069849 0.062029 0.204033
0.070502 0.061749 0.203072
0.070901 0.061259 0.201414
0.071534 0.060980 0.200450
0.072065 0.060623 0.199224
0.072804 0.060447 0.198591
0.073407 0.060165 0.197604
0.073825 0.059740 0.196144
0.074045 0.059167 0.194196
0.073731 0.058188 0.190910
0.074635 0.058182 0.190813
0.075287 0.057981 0.190075
0.075659 0.057573 0.188650
0.076324 0.057393 0.187972
0.077018 0.057240 0.187374
0.077733 0.057106 0.186835
0.078443 0.056971 0.186285
0.079180 0.056859 0.185806
0.079888 0.056728 0.185260
0.080586 0.056593 0.184696
0.081352 0.056508 0.184290
0.081697 0.056136 0.182938
0.082061 0.055785 0.181651
0.082526 0.055508 0.180602
0.082904 0.055180 0.179377
0.083421 0.054950 0.178468
0.083536 0.054463 0.176717
0.083745 0.054045 0.175187
0.084183 0.053783 0.174153
0.084546 0.053479 0.172978
0.084987 0.053228 0.171971
0.085450 0.052997 0.171018
0.085949 0.052792 0.170141
0.086487 0.052615 0.169346
0.087014 0.052434 0.168531
0.087806 0.052414 0.168226
0.088389 0.052272 0.167516
0.088959 0.052124 0.166780
-0.991373 0.593032 1.890564
-0.975402 0.588868 1.879755
-0.961999 0.586191 1.873560
-0.950573 0.584681 1.870973
-0.941607 0.584670 1.873083
-0.934118 0.585584 1.878067
-0.925342 0.585703 1.880411
-0.916579 0.585833 1.882702
-0.908620 0.586484 1.886585
-0.901257 0.587537 1.891686
-0.968795 0.637933 2.055715
-0.960052 0.638614 2.059602
-0.953351 0.640683 2.067886
-0.934278 0.634394 2.049104
-0.925591 0.635099 2.052825
-0.810098 0.561756 1.816972
-0.801380 0.561675 1.817860
-0.794935 0.563204 1.823897
-0.785811 0.562848 1.823774
-0.777006 0.562716 1.824315
-0.881129 0.700284 2.277646
-0.862652 0.694052 2.258027
-0.841756 0.685695 2.231427
-0.832793 0.686970 2.236117
-0.827502 0.691346 2.250858
-0.813870 0.688776 2.242939
-0.808925 0.693588 2.259017
-0.655346 0.577075 1.880102
-0.640301 0.571542 1.862304
-0.629093 0.569328 1.855288
-0.624164 0.572815 1.866817
-0.615578 0.572996 1.867547
-0.605348 0.571632 1.863208
-0.599372 0.574304 1.871995
-0.280850 0.320986 1.045903
-0.269204 0.313165 1.020322
-0.262826 0.311301 1.014142
-0.253542 0.305862 0.996313
-0.243718 0.299554 0.975651
-0.236124 0.295798 0.963296
-0.227637 0.290754 0.946742
-0.219724 0.286256 0.931970
-0.210988 0.280481 0.913034
-0.203007 0.275491 0.896658
-0.195409 0.270818 0.881314
-0.189734 0.268667 0.874175
-0.184399 0.266912 0.868324
-0.178745 0.264606 0.860678
-0.173291 0.262494 0.853665
-0.169429 0.262753 0.854361
-0.127395 0.218353 0.709490
-0.122511 0.215656 0.700601
-0.119590 0.216360 0.702760
-0.116128 0.216099 0.701784
-0.111695 0.213960 0.694712
-0.108500 0.214138 0.695164
-0.049482 0.100709 0.326876
-0.047706 0.100228 0.325255
-0.046819 0.101643 0.329789
-0.045073 0.101226 0.328378
-0.043456 0.101079 0.327846
-0.042246 0.101904 0.330463
-0.043162 0.108119 0.350559
-0.041530 0.108191 0.350734
-0.040377 0.109573 0.355153
-0.039131 0.110808 0.359100
-0.037903 0.112209 0.363583
-0.036438 0.113011 0.366122
-0.034881 0.113593 0.367953
-0.033147 0.113629 0.368016
-0.031268 0.113148 0.366405
-0.029387 0.112600 0.364580
-0.027497 0.111947 0.362417
-0.025509 0.110779 0.358590
-0.023726 0.110403 0.357327
-0.022048 0.110493 0.357576
-0.020340 0.110435 0.357348
-0.018688 0.110702 0.358171
-0.017060 0.111178 0.359677
-0.015546 0.112581 0.364179
-0.013826 0.112665 0.364418
-0.012078 0.112507 0.363875
-0.010428 0.113365 0.366620
-0.008727 0.113911 0.368356
-0.006924 0.113055 0.365565
-0.005188 0.113070 0.365589
-0.002791 0.091482 0.295771
-0.001370 0.090494 0.292563
0.000021 0.090295 0.291908
0.001408 0.090213 0.291629
0.002791 0.090098 0.291250
0.004162 0.089809 0.290307
0.005527 0.089551 0.289466
0.006866 0.089064 0.287889
0.008208 0.088764 0.286916
0.009550 0.088553 0.286233
0.010862 0.088151 0.284935
0.012176 0.087853 0.283974
0.013477 0.087529 0.282932
0.014758 0.087146 0.281698
0.016018 0.086708 0.280291
0.017221 0.086055 0.278188
0.018490 0.085804 0.277387
0.019681 0.085248 0.275601
0.020894 0.084845 0.274312
0.022053 0.084288 0.272523
0.023234 0.083872 0.271194
0.024300 0.083106 0.268733
0.025420 0.082591 0.267085
0.026537 0.082115 0.265564
0.027631 0.081615 0.263967
0.028809 0.081394 0.263271
0.029971 0.081148 0.262498
0.031036 0.080671 0.260973
0.032079 0.080176 0.259397
0.033130 0.079737 0.257997
0.034145 0.079244 0.256425
0.035084 0.078614 0.254410
0.035934 0.077834 0.251910
0.036921 0.077393 0.250507
0.037996 0.077157 0.249767
0.038846 0.076492 0.247638
0.039826 0.076114 0.246438
0.040756 0.075666 0.245010
0.041749 0.075356 0.244030
0.042657 0.074912 0.242619
0.043507 0.074394 0.240962
0.044329 0.073855 0.239239
0.045279 0.073550 0.238275
0.046276 0.073336 0.237602
0.047155 0.072948 0.236368
0.048032 0.072576 0.235181
0.048761 0.072001 0.233339
0.049621 0.071642 0.232195
0.050425 0.071219 0.230840
0.051255 0.070850 0.229661
0.052173 0.070615 0.228914
0.053094 0.070394 0.228212
0.054037 0.070209 0.227627
0.054849 0.069867 0.226527
0.055417 0.069231 0.224478
0.055356 0.067849 0.220003
0.056541 0.068017 0.220554
0.057556 0.067978 0.220432
0.058183 0.067490 0.218853
0.059068 0.067312 0.218279
0.059822 0.066995 0.217248
0.060655 0.066775 0.216533
0.061565 0.066646 0.216109
0.062044 0.066063 0.214209
0.062542 0.065517 0.212428
0.063384 0.065344 0.211856
0.064236 0.065186 0.211326
0.064991 0.064936 0.210500
0.065795 0.064742 0.209848
0.066594 0.064548 0.209197
0.067359 0.064328 0.208457
0.068015 0.064012 0.207402
0.068654 0.063689 0.206323
0.069407 0.063479 0.205607
0.069973 0.063106 0.204357
0.070582 0.062783 0.203265
0.071207 0.062480 0.202239
0.071821 0.062178 0.201209
0.072256 0.061729 0.199703
0.072414 0.061060 0.197478
0.073125 0.060867 0.196793
0.073807 0.060656 0.196042
0.074438 0.060408 0.195168
0.074988 0.060102 0.194105
0.075395 0.059690 0.192693
0.075664 0.059179 0.190960
0.075951 0.058695 0.189308
0.076496 0.058419 0.188325
0.077156 0.058236 0.187636
0.077822 0.058062 0.186970
0.078473 0.057880 0.186275
0.079263 0.057805 0.185915
0.080000 0.057692 0.185433
0.080666 0.057532 0.184788
0.081410 0.057430 0.184326
0.081918 0.057165 0.183335
0.082322 0.056834 0.182126
0.082521 0.056369 0.180486
0.082884 0.056026 0.179226
0.083175 0.055641 0.177830
0.083547 0.055318 0.176624
0.083906 0.054993 0.175407
0.084315 0.054706 0.174304
0.084671 0.054392 0.173107
0.085043 0.054093 0.171955
0.085579 0.053904 0.171142
0.086036 0.053669 0.170176
0.086475 0.053427 0.169180
0.087095 0.053300 0.168542
0.087759 0.053202 0.167985
0.088296 0.053030 0.167184
0.089023 0.052975 0.166740
-0.990058 0.601368 1.886514
-0.975868 0.598225 1.879170
-0.962446 0.595497 1.873002
-0.951432 0.594224 1.871289
-0.941920 0.593873 1.872378
-0.933574 0.594258 1.875691
-0.925206 0.594638 1.878896
-0.916555 0.594841 1.881458
-0.908177 0.595228 1.884515
-0.900546 0.596117 1.889083
-0.963226 0.644036 2.042745
-0.954517 0.644713 2.046615
-0.950803 0.648813 2.061280
-0.933633 0.643721 2.046664
-0.924936 0.644426 2.050387
-0.811591 0.571460 1.819481
-0.800406 0.569635 1.814851
-0.795607 0.572364 1.824671
-0.787916 0.573050 1.827923
-0.779571 0.573270 1.829634
-0.880265 0.710375 2.274853
-0.859474 0.702149 2.249192
-0.845614 0.699450 2.241172
-0.836974 0.701056 2.246897
-0.828314 0.702686 2.252653
-0.818084 0.703010 2.254175
-0.808059 0.703521 2.256253
-0.798417 0.704384 2.259414
-0.651002 0.582083 1.867408
-0.638849 0.579033 1.857878
-0.629266 0.578260 1.855622
-0.623528 0.581049 1.864763
-0.614972 0.581254 1.865583
-0.605620 0.580702 1.863945
-0.598661 0.582463 1.869700
-0.280475 0.325500 1.044608
-0.268109 0.316701 1.016284
-0.260164 0.312900 1.003994
-0.252928 0.309827 0.994034
-0.243645 0.304083 0.975501
-0.235801 0.299949 0.962127
-0.227606 0.295198 0.946774
-0.219635 0.290554 0.931758
-0.211475 0.285465 0.915315
-0.203334 0.280190 0.898279
-0.195919 0.275714 0.883801
-0.190762 0.274291 0.879107
-0.185202 0.272210 0.872306
-0.179208 0.269384 0.863113
-0.174481 0.268376 0.859746
-0.167626 0.263968 0.845490
-0.128498 0.223645 0.715851
-0.122635 0.219208 0.701529
-0.120720 0.221778 0.709630
-0.115725 0.218675 0.699580
-0.111336 0.216569 0.692720
-0.051380 0.102972 0.329311
-0.049517 0.102340 0.327232
-0.047712 0.101790 0.325418
-0.046639 0.102818 0.328647
-0.045121 0.102901 0.328857
-0.043464 0.102661 0.328035
-0.042318 0.103658 0.331164
-0.043171 0.109814 0.350775
-0.041537 0.109886 0.350949
-0.040516 0.111650 0.356525
-0.039226 0.112798 0.360133
-0.037975 0.114165 0.364443
-0.036611 0.115308 0.368038
-0.035105 0.116095 0.370495
-0.033436 0.116400 0.371415
-0.031483 0.115695 0.369114
-0.029628 0.115286 0.367758
-0.027648 0.114311 0.364601
-0.025721 0.113438 0.361772
-0.023953 0.113197 0.360958
-0.022208 0.113030 0.360385
-0.020554 0.113340 0.361333
-0.018890 0.113646 0.362270
-0.017313 0.114591 0.365244
-0.015852 0.116601 0.371616
-0.014067 0.116430 0.371039
-0.012304 0.116416 0.370963
-0.010610 0.117173 0.373345
-0.008873 0.117650 0.374836
-0.007038 0.116760 0.371975
-0.005272 0.116775 0.371999
-0.002764 0.092109 0.293407
-0.001370 0.092168 0.293581
0.000025 0.091862 0.292593
0.001413 0.091702 0.292071
0.002798 0.091607 0.291761
0.004166 0.091179 0.290389
0.005531 0.090934 0.289603
0.006864 0.090349 0.287733
0.008196 0.089956 0.286481
0.009526 0.089655 0.285521
0.010846 0.089344 0.284530
0.012157 0.089034 0.283546
0.013463 0.088753 0.282655
0.014779 0.088589 0.282136
0.016043 0.088160 0.280778
0.017275 0.087633 0.279105
0.018465 0.086990 0.277066
0.019682 0.086543 0.275655
0.020931 0.086291 0.274863
0.022137 0.085894 0.273613
0.023270 0.085280 0.271671
0.024383 0.084657 0.269700
0.025400 0.083782 0.266928
0.026625 0.083643 0.266502
0.027736 0.083173 0.265023
0.028817 0.082659 0.263404
0.029929 0.082272 0.262190
0.031041 0.081915 0.261071
0.031961 0.081100 0.258495
0.032984 0.080597 0.256911
0.034201 0.080586 0.256899
0.035032 0.079697 0.254086
0.036022 0.079218 0.252581
0.037006 0.078756 0.251130
0.038030 0.078406 0.250036
0.038840 0.077648 0.247643
0.039859 0.077342 0.246689
0.040755 0.076821 0.245049
0.041843 0.076680 0.244622
0.042473 0.075730 0.241612
0.043453 0.075437 0.240698
0.044301 0.074936 0.239122
0.045285 0.074686 0.238343
0.046200 0.074335 0.237244
0.047073 0.073935 0.235986
0.047952 0.073563 0.234816
0.048622 0.072895 0.232700
0.049425 0.072451 0.231300
0.050369 0.072229 0.230607
0.051209 0.071870 0.229474
0.052049 0.071526 0.228390
0.053038 0.071396 0.227988
0.053863 0.071055 0.226910
0.054632 0.070656 0.225642
0.055303 0.070147 0.224026
0.056143 0.069867 0.223138
0.056997 0.069616 0.222339
0.057587 0.069056 0.220554
0.058293 0.068653 0.219266
0.059002 0.068267 0.218034
0.059771 0.067963 0.217058
0.060524 0.067652 0.216059
0.061238 0.067308 0.214951
0.061918 0.066938 0.213761
0.062570 0.066551 0.212510
0.063444 0.066408 0.212040
0.064239 0.066188 0.211319
0.065029 0.065969 0.210599
0.065833 0.065772 0.209945
0.066423 0.065369 0.208634
0.067023 0.064989 0.207390
0.067860 0.064845 0.206897
0.068450 0.064473 0.205674
0.069226 0.064284 0.205034
0.070057 0.064151 0.204565
0.070716 0.063866 0.203607
0.071281 0.063504 0.202405
0.071988 0.063278 0.201628
0.072692 0.063055 0.200859
0.073202 0.062671 0.199574
0.073612 0.062212 0.198047
0.073863 0.061633 0.196132
0.074537 0.061416 0.195367
0.074758 0.060836 0.193445
0.075333 0.060555 0.192466
0.075701 0.060116 0.190983
0.076446 0.059983 0.190469
0.076933 0.059654 0.189324
0.077429 0.059338 0.188220
0.078083 0.059150 0.187515
0.078840 0.059043 0.187061
0.079332 0.058743 0.185990
0.079940 0.058533 0.185200
0.080668 0.058415 0.184697
0.081141 0.058117 0.183617
0.081640 0.057844 0.182609
0.082075 0.057532 0.181474
0.082493 0.057215 0.180316
0.082852 0.056863 0.179044
0.083131 0.056465 0.177621
0.083470 0.056115 0.176343
0.083827 0.055784 0.175118
0.084233 0.055491 0.174009
0.084537 0.055138 0.172702
0.085048 0.054926 0.171831
0.085383 0.054605 0.170611
0.086030 0.054488 0.170021
0.086604 0.054327 0.169285
0.087071 0.054102 0.168343
0.087691 0.053977 0.167699
0.088290 0.053840 0.167012
0.088742 0.053617 0.166048
-0.997644 0.615170 1.899358
-0.978856 0.609160 1.883380
-0.963199 0.605006 1.872988
-0.950779 0.602825 1.868579
-0.940988 0.602287 1.869149
-0.933572 0.603274 1.874357
-0.925426 0.603803 1.878057
-0.915939 0.603460 1.878953
-0.907612 0.603882 1.882145
-0.901001 0.605466 1.888879
-0.963087 0.653713 2.041246
