ply
format ascii 1.0
element vertex 1687
property float x
property float y
property float z
end_header
0.055254 -0.026978 0.245395
0.056284 -0.026907 0.244841
0.057235 -0.026803 0.243981
0.058178 -0.026698 0.243118
0.059188 -0.026628 0.242572
0.060122 -0.026527 0.241741
0.060990 -0.026401 0.240682
0.061749 -0.026234 0.239243
0.062390 -0.026023 0.237406
0.063000 -0.025808 0.235522
0.063552 -0.025576 0.233492
0.064411 -0.025474 0.232639
0.065034 -0.025284 0.230978
0.065233 -0.024938 0.227893
0.065066 -0.024466 0.223649
0.065794 -0.024340 0.222566
0.066826 -0.024328 0.222531
0.067547 -0.024206 0.221479
0.068323 -0.024107 0.220633
0.069129 -0.024021 0.219910
0.069838 -0.023904 0.218902
0.070565 -0.023797 0.217978
0.071041 -0.023610 0.216315
0.071716 -0.023494 0.215299
0.072461 -0.023403 0.214511
0.073173 -0.023304 0.213650
0.073982 -0.023238 0.213090
0.074665 -0.023135 0.212186
0.075311 -0.023024 0.211197
0.076205 -0.022990 0.210919
0.076880 -0.022892 0.210048
0.077435 -0.022761 0.208871
0.078003 -0.022638 0.207756
0.078435 -0.022478 0.206306
0.078720 -0.022281 0.204506
0.079120 -0.022120 0.203044
0.079584 -0.021982 0.201775
0.079892 -0.021804 0.200139
0.080524 -0.021717 0.199340
0.081123 -0.021624 0.198476
0.081658 -0.021516 0.197470
0.082492 -0.021488 0.197199
0.082730 -0.021308 0.195518
0.082852 -0.021102 0.193599
0.082877 -0.020876 0.191493
0.082931 -0.020662 0.189493
0.083372 -0.020548 0.188409
0.083782 -0.020429 0.187268
0.083990 -0.020264 0.185700
0.084284 -0.020123 0.184348
0.084614 -0.019993 0.183095
0.084958 -0.019869 0.181890
0.085194 -0.019723 0.180476
0.085390 -0.019570 0.178997
0.085501 -0.019402 0.177365
0.085717 -0.019260 0.175973
0.086189 -0.019177 0.175122
0.086672 -0.019099 0.174302
0.086939 -0.018975 0.173059
0.087517 -0.018921 0.172443
0.088041 -0.018856 0.171725
0.088561 -0.018792 0.171003
0.089204 -0.018754 0.170520
-1.424739 -0.336704 3.254292
-1.411757 -0.337247 3.259889
-1.404454 -0.339175 3.278776
-1.396861 -0.341075 3.297318
-1.384558 -0.341855 3.304954
-1.372112 -0.342617 3.312341
-1.358951 -0.343216 3.318077
-1.345616 -0.343785 3.323448
-0.068850 -0.025609 0.245792
-0.067794 -0.025650 0.246081
-0.066041 -0.025424 0.243808
-0.064515 -0.025279 0.242311
-0.063172 -0.025201 0.241462
-0.061681 -0.025061 0.240012
-0.060102 -0.024879 0.238162
-0.057422 -0.024225 0.231803
-0.055911 -0.024049 0.230012
-0.054579 -0.023944 0.228908
-0.051148 -0.022896 0.218785
-0.048399 -0.022115 0.211230
-0.046952 -0.021910 0.209170
-0.046194 -0.022023 0.210158
-0.045461 -0.022154 0.211309
-0.044674 -0.022264 0.212261
-0.043854 -0.022362 0.213100
-0.043295 -0.022601 0.215283
-0.042239 -0.022586 0.215041
-0.041346 -0.022660 0.215647
-0.040485 -0.022755 0.216456
-0.039486 -0.022776 0.216560
-0.038660 -0.022901 0.217654
-0.037760 -0.022987 0.218378
-0.036805 -0.023044 0.218825
-0.035894 -0.023133 0.219575
-0.034969 -0.023218 0.220288
-0.033991 -0.023272 0.220706
-0.033024 -0.023337 0.221232
-0.032054 -0.023404 0.221783
-0.031045 -0.023447 0.222102
-0.030061 -0.023512 0.222631
-0.029072 -0.023578 0.223171
-0.028079 -0.023645 0.223728
-0.027112 -0.023742 0.224557
-0.026094 -0.023799 0.225024
-0.025071 -0.023857 0.225490
-0.024060 -0.023932 0.226126
-0.023025 -0.023990 0.226596
-0.021991 -0.024053 0.227124
-0.020950 -0.024116 0.227651
-0.019890 -0.024162 0.228023
-0.018813 -0.024192 0.228241
-0.017753 -0.024251 0.228731
-0.016683 -0.024300 0.229136
-0.015671 -0.024449 0.230484
-0.014577 -0.024481 0.230740
-0.013485 -0.024525 0.231101
-0.012410 -0.024608 0.231838
-0.011300 -0.024634 0.232037
-0.010197 -0.024679 0.232422
-0.009092 -0.024735 0.232908
-0.007985 -0.024795 0.233441
-0.006872 -0.024858 0.234002
-0.005753 -0.024919 0.234543
-0.004625 -0.024958 0.234885
-0.003493 -0.025003 0.235288
-0.002359 -0.025059 0.235796
-0.001218 -0.025082 0.235996
-0.000075 -0.025128 0.236414
0.001073 -0.025171 0.236815
0.002221 -0.025179 0.236879
0.003375 -0.025224 0.237308
0.004531 -0.025257 0.237619
0.005688 -0.025280 0.237835
0.006845 -0.025298 0.238013
0.008015 -0.025348 0.238498
0.009175 -0.025359 0.238616
0.010333 -0.025364 0.238676
0.011530 -0.025452 0.239529
0.012724 -0.025520 0.240189
0.014001 -0.025727 0.242167
0.015204 -0.025778 0.242679
0.016417 -0.025837 0.243263
0.017614 -0.025864 0.243555
0.018840 -0.025927 0.244188
0.020022 -0.025926 0.244230
0.021277 -0.026014 0.245102
0.022505 -0.026062 0.245609
0.024104 -0.026513 0.249905
0.025131 -0.026322 0.248162
0.026530 -0.026520 0.250085
0.027773 -0.026552 0.250448
0.029014 -0.026578 0.250761
0.030381 -0.026714 0.252110
0.031618 -0.026729 0.252322
0.032879 -0.026763 0.252711
0.034140 -0.026794 0.253081
0.035483 -0.026885 0.254020
0.036868 -0.027001 0.255195
0.038327 -0.027162 0.256796
0.039762 -0.027296 0.258144
0.041112 -0.027365 0.258887
0.042320 -0.027339 0.258725
0.043565 -0.027337 0.258798
0.044841 -0.027354 0.259051
0.046089 -0.027354 0.259136
0.047306 -0.027335 0.259056
0.048512 -0.027312 0.258927
0.049747 -0.027305 0.258961
0.050972 -0.027294 0.258952
0.052220 -0.027295 0.259057
0.052772 -0.026941 0.255788
0.052538 -0.026211 0.248949
0.053426 -0.026060 0.247613
0.054121 -0.025824 0.245463
0.055327 -0.025837 0.245676
0.056313 -0.025748 0.244925
0.057184 -0.025612 0.243720
0.058150 -0.025523 0.242963
0.059084 -0.025423 0.242107
0.060051 -0.025341 0.241415
0.060954 -0.025236 0.240504
0.061753 -0.025092 0.239221
0.062415 -0.024900 0.237468
0.063071 -0.024711 0.235753
0.063608 -0.024483 0.233665
0.064175 -0.024275 0.231758
0.064603 -0.024022 0.229418
0.064892 -0.023727 0.226673
0.065598 -0.023591 0.225451
0.066192 -0.023420 0.223888
0.066862 -0.023281 0.222628
0.067520 -0.023142 0.221367
0.068269 -0.023038 0.220438
0.069062 -0.022952 0.219675
0.069822 -0.022857 0.218832
0.070553 -0.022757 0.217922
0.071099 -0.022600 0.216476
0.071699 -0.022464 0.215231
0.072469 -0.022385 0.214522
0.073207 -0.022299 0.213737
0.073952 -0.022217 0.212992
0.074744 -0.022151 0.212399
0.075259 -0.022005 0.211041
0.076207 -0.021989 0.210915
0.077035 -0.021939 0.210462
0.077502 -0.021788 0.209045
0.078171 -0.021698 0.208197
0.078764 -0.021589 0.207167
0.078952 -0.021373 0.205106
0.079382 -0.021227 0.203714
0.079509 -0.021004 0.201582
0.080077 -0.020902 0.200603
0.080530 -0.020773 0.199358
0.081028 -0.020658 0.198246
0.081622 -0.020570 0.197388
0.082196 -0.020478 0.196496
0.082752 -0.020385 0.195576
0.082964 -0.020210 0.193868
0.082751 -0.019936 0.191212
0.083038 -0.019788 0.189750
0.083472 -0.019677 0.188644
0.083796 -0.019543 0.187312
0.084073 -0.019401 0.185898
0.084520 -0.019300 0.184880
0.084629 -0.019126 0.183143
0.085009 -0.019015 0.182017
0.085073 -0.018837 0.180237
0.085331 -0.018705 0.178892
0.085583 -0.018574 0.177555
0.085632 -0.018403 0.175821
0.086104 -0.018324 0.174972
0.086574 -0.018247 0.174129
0.086819 -0.018124 0.172845
0.087224 -0.018036 0.171891
0.087914 -0.018009 0.171505
0.088380 -0.017936 0.170682
0.089020 -0.017900 0.170199
-1.412697 -0.318644 3.226872
-1.415300 -0.322687 3.268136
-1.404892 -0.323819 3.279849
-1.400192 -0.326308 3.305212
-1.382341 -0.325753 3.299673
-1.371096 -0.326760 3.309880
-1.358232 -0.327401 3.316296
-0.067707 -0.024449 0.245727
-0.066136 -0.024300 0.244117
-0.064934 -0.024283 0.243844
-0.063771 -0.024280 0.243712
-0.062171 -0.024108 0.241874
-0.061117 -0.024145 0.242138
-0.057148 -0.023010 0.230654
-0.055122 -0.022628 0.226722
-0.053289 -0.022312 0.223454
-0.052304 -0.022346 0.223683
-0.048040 -0.020950 0.209621
-0.046825 -0.020854 0.208557
-0.046086 -0.020970 0.209621
-0.045448 -0.021137 0.211201
-0.044627 -0.021226 0.211988
-0.043750 -0.021292 0.212545
-0.043050 -0.021448 0.214012
-0.042210 -0.021541 0.214844
-0.041309 -0.021607 0.215403
-0.040408 -0.021676 0.215995
-0.039521 -0.021757 0.216697
-0.038636 -0.021843 0.217463
-0.037759 -0.021939 0.218317
-0.036764 -0.021969 0.218524
-0.035853 -0.022053 0.219265
-0.034933 -0.022136 0.219999
-0.034015 -0.022226 0.220803
-0.033036 -0.022281 0.221254
-0.032056 -0.022338 0.221734
-0.031077 -0.022400 0.222263
-0.030090 -0.022461 0.222782
-0.029102 -0.022526 0.223336
-0.028153 -0.022627 0.224253
-0.027154 -0.022694 0.224840
-0.026138 -0.022752 0.225333
-0.025132 -0.022823 0.225964
-0.024088 -0.022866 0.226311
-0.023037 -0.022907 0.226641
-0.021985 -0.022949 0.226988
-0.020944 -0.023008 0.227503
-0.019888 -0.023057 0.227922
-0.018818 -0.023095 0.228232
-0.017746 -0.023134 0.228552
-0.016679 -0.023186 0.229011
-0.015604 -0.023233 0.229418
-0.014560 -0.023336 0.230387
-0.013467 -0.023374 0.230708
-0.012407 -0.023478 0.231691
-0.011320 -0.023550 0.232353
-0.010213 -0.023588 0.232692
-0.009101 -0.023626 0.233025
-0.007998 -0.023700 0.233713
-0.006879 -0.023743 0.234111
-0.005768 -0.023840 0.235040
-0.004632 -0.023852 0.235126
-0.003502 -0.023916 0.235738
-0.002363 -0.023946 0.236013
-0.001221 -0.023976 0.236290
-0.000076 -0.024010 0.236622
0.001072 -0.024035 0.236852
0.002223 -0.024063 0.237120
0.003376 -0.024087 0.237357
0.004531 -0.024111 0.237600
0.005688 -0.024136 0.237844
0.006848 -0.024158 0.238073
0.008015 -0.024197 0.238471
0.009176 -0.024211 0.238616
0.010336 -0.024218 0.238710
0.011501 -0.024234 0.238885
0.012703 -0.024317 0.239730
0.014038 -0.024622 0.242759
0.015274 -0.024717 0.243734
0.016446 -0.024703 0.243626
0.017648 -0.024734 0.243972
0.018883 -0.024803 0.244697
0.020101 -0.024844 0.245137
0.021329 -0.024890 0.245646
0.022534 -0.024908 0.245868
0.023826 -0.025013 0.246965
0.025218 -0.025210 0.248957
0.026429 -0.025216 0.249078
0.027625 -0.025207 0.249049
0.028905 -0.025273 0.249765
0.030270 -0.025404 0.251132
0.031623 -0.025515 0.252304
0.032907 -0.025566 0.252874
0.034124 -0.025562 0.252908
0.035471 -0.025652 0.253880
0.036852 -0.025760 0.255024
0.038358 -0.025945 0.256946
0.039664 -0.025988 0.257455
0.041080 -0.026098 0.258627
0.042365 -0.026121 0.258944
0.043598 -0.026111 0.258936
0.044875 -0.026128 0.259194
0.046123 -0.026127 0.259273
0.047328 -0.026102 0.259126
0.048552 -0.026089 0.259092
0.049762 -0.026070 0.258991
0.050961 -0.026045 0.258844
0.052163 -0.026023 0.258722
0.053068 -0.025858 0.257175
0.052840 -0.025160 0.250334
0.053505 -0.024909 0.247933
0.054183 -0.024675 0.245697
0.055242 -0.024622 0.245257
0.056278 -0.024559 0.244730
0.057165 -0.024437 0.243599
0.058085 -0.024332 0.242650
0.058936 -0.024204 0.241460
0.059998 -0.024165 0.241164
0.060905 -0.024067 0.240272
0.061728 -0.023939 0.239089
0.062662 -0.023859 0.238373
0.063271 -0.023660 0.236469
0.063257 -0.023239 0.232346
0.063308 -0.022856 0.228597
0.064382 -0.022849 0.228606
0.064953 -0.022667 0.226860
0.065672 -0.022541 0.225680
0.066243 -0.022370 0.224034
0.066937 -0.022245 0.222855
0.067669 -0.022136 0.221832
0.068402 -0.022031 0.220845
0.069142 -0.021931 0.219909
0.069878 -0.021834 0.218989
0.070567 -0.021724 0.217949
0.071108 -0.021573 0.216487
0.071897 -0.021500 0.215811
0.072495 -0.021373 0.214584
0.073173 -0.021273 0.213624
0.074006 -0.021220 0.213136
0.074534 -0.021082 0.211790
0.075215 -0.020991 0.210907
0.075904 -0.020904 0.210067
0.076754 -0.020863 0.209688
0.077508 -0.020797 0.209055
0.078096 -0.020690 0.207992
0.078815 -0.020619 0.207297
0.079292 -0.020487 0.205988
0.079626 -0.020322 0.204340
0.079984 -0.020167 0.202788
0.080164 -0.019971 0.200821
0.080737 -0.019877 0.199870
0.081125 -0.019740 0.198486
0.081576 -0.019621 0.197279
0.082428 -0.019601 0.197055
0.082608 -0.019423 0.195243
0.082945 -0.019285 0.193832
0.082713 -0.019019 0.191132
0.082889 -0.018852 0.189418
0.083529 -0.018793 0.188783
0.083566 -0.018601 0.186809
0.083946 -0.018489 0.185629
0.084419 -0.018399 0.184672
0.084713 -0.018273 0.183339
0.084955 -0.018138 0.181916
0.085161 -0.017998 0.180439
0.085412 -0.017870 0.179079
0.085673 -0.017747 0.177761
0.085926 -0.017625 0.176444
0.086244 -0.017518 0.175279
0.086636 -0.017428 0.174276
0.087055 -0.017345 0.173337
0.087552 -0.017280 0.172563
0.088114 -0.017228 0.171922
0.088613 -0.017165 0.171159
0.089300 -0.017139 0.170761
-1.424085 -0.305877 3.252962
-1.417097 -0.307671 3.272348
-1.408150 -0.309074 3.287499
-1.400718 -0.310845 3.306479
-1.391024 -0.312148 3.320409
-1.380842 -0.313370 3.333397
-0.070343 -0.023779 0.251048
-0.068031 -0.023393 0.246863
-0.066533 -0.023278 0.245544
-0.064957 -0.023131 0.243889
-0.063562 -0.023045 0.242871
-0.062480 -0.023071 0.243036
-0.061091 -0.022982 0.241995
-0.060034 -0.023017 0.242256
-0.055155 -0.021560 0.226818
-0.053261 -0.021235 0.223293
-0.051104 -0.020790 0.218510
-0.047939 -0.019907 0.209139
-0.046746 -0.019824 0.208167
-0.046166 -0.020002 0.209941
-0.045392 -0.020103 0.210896
-0.044597 -0.020199 0.211804
-0.043856 -0.020324 0.213016
-0.043032 -0.020415 0.213878
-0.042239 -0.020526 0.214944
-0.041333 -0.020586 0.215475
-0.040438 -0.020656 0.216106
-0.039557 -0.020736 0.216844
-0.038700 -0.020834 0.217769
-0.037766 -0.020894 0.218304
-0.036862 -0.020975 0.219049
-0.035908 -0.021031 0.219542
-0.034998 -0.021118 0.220352
-0.034037 -0.021177 0.220885
-0.033039 -0.021218 0.221216
-0.032074 -0.021283 0.221802
-0.031092 -0.021340 0.222309
-0.030106 -0.021399 0.222840
-0.029139 -0.021476 0.223557
-0.028171 -0.021559 0.224329
-0.027209 -0.021653 0.225228
-0.026191 -0.021708 0.225720
-0.025179 -0.021774 0.226325
-0.024124 -0.021806 0.226580
-0.023086 -0.021858 0.227050
-0.022021 -0.021888 0.227286
-0.020941 -0.021905 0.227401
-0.019911 -0.021980 0.228108
-0.018840 -0.022016 0.228424
-0.017747 -0.022029 0.228489
-0.016703 -0.022109 0.229259
-0.015662 -0.022204 0.230194
-0.014552 -0.022209 0.230186
-0.013471 -0.022262 0.230689
-0.012411 -0.022363 0.231692
-0.011316 -0.022415 0.232181
-0.010217 -0.022468 0.232694
-0.009111 -0.022520 0.233194
-0.008001 -0.022576 0.233730
-0.006880 -0.022609 0.234043
-0.005758 -0.022659 0.234527
-0.004632 -0.022708 0.235010
-0.003497 -0.022733 0.235248
-0.002363 -0.022794 0.235860
-0.001221 -0.022808 0.235985
-0.000077 -0.022839 0.236298
0.001071 -0.022880 0.236714
0.002222 -0.022912 0.237044
0.003374 -0.022929 0.237217
0.004527 -0.022945 0.237381
0.005684 -0.022970 0.237638
0.006840 -0.022981 0.237763
0.008000 -0.023002 0.237994
0.009159 -0.023014 0.238128
0.010329 -0.023046 0.238486
0.011494 -0.023064 0.238686
0.012965 -0.023635 0.244628
0.014267 -0.023829 0.246658
0.015405 -0.023741 0.245780
0.016517 -0.023627 0.244634
0.017690 -0.023609 0.244487
0.018878 -0.023614 0.244578
0.020092 -0.023647 0.244967
0.021312 -0.023684 0.245394
0.022556 -0.023742 0.246050
0.023776 -0.023770 0.246392
0.025092 -0.023887 0.247658
0.026504 -0.024081 0.249729
0.027747 -0.024110 0.250097
0.028983 -0.024131 0.250385
0.030229 -0.024159 0.250739
0.031569 -0.024256 0.251817
0.032912 -0.024349 0.252856
0.034182 -0.024383 0.253283
0.035422 -0.024394 0.253471
0.036835 -0.024519 0.254852
0.038270 -0.024650 0.256300
0.039716 -0.024780 0.257735
0.041051 -0.024835 0.258390
0.042307 -0.024840 0.258535
0.043583 -0.024856 0.258792
0.044838 -0.024860 0.258925
0.046124 -0.024880 0.259230
0.047368 -0.024877 0.259294
0.048560 -0.024848 0.259081
0.049778 -0.024833 0.259021
0.051017 -0.024829 0.259081
0.052250 -0.024822 0.259107
0.052992 -0.024588 0.256760
0.052810 -0.023946 0.250148
0.053467 -0.023704 0.247715
0.054137 -0.023477 0.245447
0.055189 -0.023424 0.244980
0.056178 -0.023346 0.244257
0.057178 -0.023275 0.243617
0.058078 -0.023168 0.242585
0.058977 -0.023064 0.241592
0.059984 -0.023006 0.241075
0.060892 -0.022913 0.240187
0.061862 -0.022846 0.239577
0.062723 -0.022742 0.238574
0.063395 -0.022575 0.236902
0.062599 -0.021899 0.229900
0.063284 -0.021757 0.228482
0.063970 -0.021619 0.227117
0.065124 -0.021642 0.227432
0.065585 -0.021437 0.225356
0.065966 -0.021213 0.223077
0.066595 -0.021075 0.221692
0.067526 -0.021035 0.221342
0.068328 -0.020957 0.220587
0.069072 -0.020863 0.219667
0.069916 -0.020803 0.219091
0.070681 -0.020721 0.218284
0.071285 -0.020594 0.217011
0.071842 -0.020458 0.215629
0.072461 -0.020343 0.214471
0.073182 -0.020260 0.213637
0.073888 -0.020175 0.212784
0.074480 -0.020061 0.211626
0.075084 -0.019954 0.210531
0.075871 -0.019897 0.209969
0.076734 -0.019862 0.209626
0.077410 -0.019780 0.208785
0.078166 -0.019720 0.208174
0.078870 -0.019648 0.207439
0.079214 -0.019490 0.205781
0.079618 -0.019350 0.204316
0.080220 -0.019261 0.203384
0.080410 -0.019077 0.201438
0.080421 -0.018854 0.199090
0.080828 -0.018729 0.197762
0.081358 -0.018635 0.196755
0.081721 -0.018505 0.195370
0.082574 -0.018488 0.195168
0.082528 -0.018272 0.192864
0.082257 -0.018012 0.190086
0.082598 -0.017889 0.188760
0.083009 -0.017785 0.187617
0.083396 -0.017678 0.186439
0.083868 -0.017590 0.185468
0.084229 -0.017482 0.184268
0.084549 -0.017367 0.182997
0.084860 -0.017253 0.181728
0.085128 -0.017132 0.180385
0.085371 -0.017009 0.179011
0.085726 -0.016910 0.177888
0.086020 -0.016802 0.176656
0.086256 -0.016684 0.175322
0.086630 -0.016595 0.174284
0.087066 -0.016520 0.173382
0.087609 -0.016466 0.172699
0.088069 -0.016397 0.171858
0.088578 -0.016339 0.171118
0.089182 -0.016300 0.170563
-1.428479 -0.291438 3.263072
-1.415488 -0.291913 3.268687
-1.408136 -0.293575 3.287505
-1.401135 -0.295348 3.307486
-1.391531 -0.296605 3.321622
-1.381352 -0.297768 3.334616
-0.070381 -0.022598 0.251146
-0.068224 -0.022282 0.247529
-0.066173 -0.021990 0.244179
-0.066054 -0.022342 0.247971
-0.064729 -0.022290 0.247290
-0.062439 -0.021899 0.242837
-0.061381 -0.021933 0.243104
-0.050181 -0.018275 0.202463
-0.048974 -0.018184 0.201366
-0.053292 -0.020182 0.223383
-0.051134 -0.019759 0.218599
-0.047646 -0.018793 0.207822
-0.046487 -0.018725 0.206971
-0.045969 -0.018918 0.209003
-0.045442 -0.019116 0.211090
-0.044651 -0.019208 0.212017
-0.043831 -0.019293 0.212848
-0.043062 -0.019404 0.213978
-0.042242 -0.019498 0.214911
-0.041362 -0.019567 0.215579
-0.040453 -0.019627 0.216133
-0.039557 -0.019695 0.216793
-0.038706 -0.019791 0.217752
-0.037846 -0.019887 0.218709
-0.036839 -0.019910 0.218859
-0.035926 -0.019986 0.219601
-0.034987 -0.020051 0.220226
-0.034018 -0.020103 0.220704
-0.033041 -0.020154 0.221173
-0.032068 -0.020211 0.221701
-0.031084 -0.020264 0.222197
-0.030098 -0.020320 0.222718
-0.029138 -0.020398 0.223489
-0.028203 -0.020500 0.224522
-0.027180 -0.020544 0.224923
-0.026164 -0.020597 0.225423
-0.025136 -0.020645 0.225873
-0.024087 -0.020680 0.226171
-0.023043 -0.020722 0.226555
-0.021981 -0.020751 0.226807
-0.020919 -0.020783 0.227091
-0.019866 -0.020830 0.227528
-0.018803 -0.020870 0.227903
-0.017753 -0.020930 0.228498
-0.016700 -0.020994 0.229138
-0.015613 -0.021023 0.229395
-0.014570 -0.021119 0.230388
-0.013472 -0.021146 0.230633
-0.012393 -0.021209 0.231277
-0.011322 -0.021299 0.232209
-0.010225 -0.021357 0.232805
-0.009118 -0.021405 0.233282
-0.008012 -0.021469 0.233943
-0.006892 -0.021511 0.234376
-0.005764 -0.021540 0.234655
-0.004634 -0.021572 0.234986
-0.003500 -0.021606 0.235334
-0.002362 -0.021629 0.235557
-0.001221 -0.021651 0.235781
-0.000078 -0.021679 0.236080
0.001069 -0.021718 0.236495
0.002219 -0.021745 0.236780
0.003371 -0.021770 0.237050
0.004527 -0.021797 0.237350
0.005689 -0.021839 0.237804
0.006850 -0.021863 0.238077
0.008027 -0.021923 0.238737
0.009179 -0.021908 0.238591
0.010350 -0.021938 0.238943
0.011499 -0.021919 0.238754
0.013208 -0.022873 0.249168
0.014362 -0.022787 0.248265
0.015485 -0.022668 0.246996
0.016549 -0.022486 0.245052
0.017696 -0.022434 0.244524
0.018876 -0.022427 0.244490
0.020095 -0.022465 0.244951
0.021348 -0.022534 0.245753
0.022599 -0.022595 0.246466
0.023871 -0.022669 0.247325
0.025180 -0.022769 0.248476
0.026414 -0.022796 0.248823
0.027637 -0.022811 0.249050
0.028864 -0.022827 0.249299
0.030115 -0.022861 0.249733
0.031543 -0.023022 0.251561
0.032844 -0.023080 0.252274
0.034041 -0.023065 0.252181
0.035429 -0.023175 0.253467
0.036877 -0.023316 0.255088
0.038341 -0.023458 0.256723
0.039680 -0.023516 0.257450
0.040977 -0.023547 0.257875
0.042265 -0.023571 0.258224
0.043525 -0.023579 0.258400
0.044806 -0.023597 0.258691
0.046062 -0.023601 0.258832
0.047280 -0.023586 0.258763
0.048498 -0.023572 0.258702
0.049714 -0.023558 0.258643
0.050900 -0.023530 0.258438
0.052168 -0.023540 0.258653
0.052915 -0.023321 0.256343
0.052803 -0.022742 0.250070
0.053762 -0.022639 0.249040
0.054208 -0.022330 0.245731
0.055376 -0.022325 0.245771
0.056343 -0.022240 0.244938
0.057178 -0.022108 0.243576
0.058120 -0.022022 0.242723
0.059039 -0.021931 0.241811
0.059973 -0.021849 0.240997
0.060818 -0.021738 0.239862
0.061853 -0.021698 0.239510
0.062684 -0.021588 0.238394
0.063324 -0.021419 0.236608
0.062759 -0.020855 0.230458
0.063113 -0.020610 0.227836
0.064340 -0.020654 0.228404
0.064806 -0.020456 0.226297
0.065338 -0.020286 0.224484
0.065893 -0.020127 0.222807
0.066677 -0.020043 0.221945
0.067524 -0.019980 0.221314
0.068213 -0.019873 0.220197
0.068912 -0.019772 0.219140
0.069776 -0.019720 0.218635
0.070616 -0.019664 0.218066
0.070914 -0.019460 0.215865
0.071625 -0.019374 0.214964
0.072150 -0.019241 0.213535
0.073042 -0.019208 0.213216
0.073737 -0.019124 0.212338
0.074362 -0.019025 0.211281
0.075069 -0.018950 0.210478
0.075788 -0.018879 0.209731
0.076616 -0.018837 0.209295
0.077314 -0.018765 0.208518
0.078011 -0.018694 0.207754
0.078653 -0.018612 0.206863
0.079190 -0.018507 0.205716
0.079880 -0.018441 0.204986
0.080064 -0.018260 0.202987
0.079908 -0.018007 0.200179
0.080601 -0.017949 0.199537
0.080661 -0.017754 0.197355
0.081107 -0.017646 0.196152
0.081930 -0.017623 0.195874
0.081933 -0.017425 0.193657
0.082880 -0.017430 0.193692
0.082027 -0.017061 0.189561
0.082415 -0.016955 0.188351
0.082925 -0.016877 0.187437
0.083251 -0.016762 0.186126
0.083704 -0.016676 0.185116
0.084131 -0.016586 0.184065
0.084307 -0.016449 0.182486
0.084531 -0.016325 0.181035
0.084912 -0.016232 0.179942
0.085334 -0.016150 0.178948
0.085734 -0.016065 0.177923
0.085978 -0.015952 0.176587
0.086206 -0.015839 0.175240
0.086643 -0.015766 0.174331
0.087073 -0.015693 0.173417
0.087637 -0.015646 0.172776
0.088195 -0.015598 0.172126
0.088637 -0.015531 0.171256
0.089074 -0.015464 0.170381
-1.417152 -0.276831 3.272580
-1.412110 -0.278864 3.296814
-1.403837 -0.280298 3.313881
-1.401711 -0.283005 3.345924
-1.387720 -0.283351 3.349973
-1.374307 -0.283824 3.355458
-0.069948 -0.021273 0.249567
-0.067921 -0.021012 0.246393
-0.067398 -0.021215 0.248664
-0.066068 -0.021166 0.247987
-0.063493 -0.020710 0.242533
-0.062472 -0.020753 0.242929
-0.051644 -0.017479 0.204506
-0.050343 -0.017366 0.203085
-0.049647 -0.017460 0.204098
-0.048898 -0.017540 0.204931
-0.047972 -0.017558 0.205046
-0.047303 -0.017672 0.206289
-0.046796 -0.017854 0.208309
-0.046104 -0.017971 0.209581
-0.045299 -0.018049 0.210382
-0.044458 -0.018115 0.211055
-0.043586 -0.018172 0.211617
-0.042858 -0.018292 0.212923
-0.042131 -0.018419 0.214299
-0.041310 -0.018510 0.215263
-0.040361 -0.018548 0.215598
-0.039441 -0.018601 0.216114
-0.038555 -0.018673 0.216854
-0.037647 -0.018738 0.217510
-0.036806 -0.018841 0.218614
-0.035887 -0.018909 0.219311
-0.034959 -0.018977 0.219997
-0.034043 -0.019055 0.220814
-0.033052 -0.019096 0.221189
-0.032062 -0.019139 0.221604
-0.031094 -0.019199 0.222207
-0.030097 -0.019246 0.222656
-0.029115 -0.019305 0.223252
-0.028134 -0.019369 0.223918
-0.027159 -0.019444 0.224691
-0.026139 -0.019490 0.225144
-0.025120 -0.019542 0.225668
-0.024080 -0.019581 0.226045
-0.023041 -0.019625 0.226473
-0.021996 -0.019668 0.226896
-0.020937 -0.019702 0.227221
-0.019877 -0.019740 0.227586
-0.018839 -0.019804 0.228262
-0.017768 -0.019841 0.228624
-0.016725 -0.019915 0.229420
-0.015633 -0.019937 0.229612
-0.014541 -0.019963 0.229865
-0.013478 -0.020036 0.230650
-0.012378 -0.020063 0.230912
-0.011317 -0.020165 0.232043
-0.010225 -0.020228 0.232725
-0.009122 -0.020282 0.233307
-0.008021 -0.020356 0.234121
-0.006892 -0.020372 0.234274
-0.005764 -0.020400 0.234566
-0.004633 -0.020425 0.234823
-0.003496 -0.020437 0.234945
-0.002359 -0.020458 0.235162
-0.001220 -0.020472 0.235307
-0.000078 -0.020473 0.235314
0.001065 -0.020511 0.235741
0.002218 -0.020594 0.236687
0.003358 -0.020548 0.236152
0.004516 -0.020602 0.236772
0.005686 -0.020678 0.237660
0.006973 -0.021083 0.242317
0.008074 -0.020891 0.240122
0.009192 -0.020784 0.238908
0.010393 -0.020868 0.239895
0.011560 -0.020873 0.239970
0.013221 -0.021687 0.249363
0.014385 -0.021619 0.248605
0.015472 -0.021454 0.246739
0.016599 -0.021364 0.245741
0.017739 -0.021302 0.245069
0.018927 -0.021301 0.245102
0.020135 -0.021322 0.245390
0.021342 -0.021340 0.245639
0.022586 -0.021390 0.246266
0.023838 -0.021442 0.246926
0.025127 -0.021522 0.247897
0.026404 -0.021584 0.248678
0.027605 -0.021582 0.248713
0.028833 -0.021599 0.248981
0.030125 -0.021662 0.249769
0.031483 -0.021765 0.251027
0.032747 -0.021798 0.251484
0.033973 -0.021804 0.251628
0.035269 -0.021853 0.252271
0.036696 -0.021977 0.253790
0.038342 -0.022220 0.256680
0.039660 -0.022264 0.257267
0.040943 -0.022286 0.257610
0.042255 -0.022321 0.258114
0.043512 -0.022327 0.258274
0.044791 -0.022344 0.258555
0.046049 -0.022349 0.258711
0.047253 -0.022328 0.258568
0.048484 -0.022321 0.258583
0.049702 -0.022308 0.258533
0.050850 -0.022266 0.258139
0.052036 -0.022242 0.257958
0.053204 -0.022211 0.257699
0.052777 -0.021531 0.249907
0.053529 -0.021351 0.247920
0.054359 -0.021210 0.246377
0.055532 -0.021206 0.246424
0.056455 -0.021108 0.245386
0.057318 -0.020993 0.244140
0.058266 -0.020912 0.243298
0.059107 -0.020797 0.242057
0.060022 -0.020712 0.241160
0.060947 -0.020634 0.240339
0.061915 -0.020573 0.239720
0.062715 -0.020459 0.238481
0.062950 -0.020168 0.235181
0.062889 -0.019795 0.230908
0.063091 -0.019515 0.227732
0.063633 -0.019349 0.225868
0.064213 -0.019199 0.224202
0.065065 -0.019134 0.223522
0.065583 -0.018975 0.221737
0.066415 -0.018910 0.221050
0.067342 -0.018874 0.220699
0.068120 -0.018798 0.219876
0.068892 -0.018723 0.219058
0.069694 -0.018658 0.218362
0.070397 -0.018568 0.217374
0.070788 -0.018400 0.215468
0.071550 -0.018332 0.214726
0.072181 -0.018233 0.213615
0.072963 -0.018174 0.212975
0.073572 -0.018075 0.211852
0.074250 -0.017994 0.210951
0.075011 -0.017936 0.210307
0.075753 -0.017875 0.209626
0.076457 -0.017806 0.208854
0.077176 -0.017743 0.208140
0.077902 -0.017683 0.207458
0.078646 -0.017628 0.206840
0.079093 -0.017509 0.205461
0.079587 -0.017403 0.204232
0.080136 -0.017312 0.203169
0.080355 -0.017152 0.201300
0.080829 -0.017050 0.200101
0.080892 -0.016865 0.197922
0.081565 -0.016810 0.197261
0.081264 -0.016557 0.194285
0.082492 -0.016618 0.194983
0.081347 -0.016205 0.190114
0.082068 -0.016169 0.189661
0.082405 -0.016059 0.188334
0.082834 -0.015969 0.187240
0.083515 -0.015928 0.186725
0.083776 -0.015810 0.185285
0.084198 -0.015724 0.184224
0.084260 -0.015573 0.182396
0.084403 -0.015440 0.180775
0.084924 -0.015378 0.179981
0.085330 -0.015297 0.178956
0.085603 -0.015194 0.177666
0.085920 -0.015101 0.176485
0.086259 -0.015013 0.175364
0.086836 -0.014968 0.174738
0.087301 -0.014904 0.173891
0.087820 -0.014851 0.173157
0.088240 -0.014783 0.172235
0.088665 -0.014716 0.171333
0.089055 -0.014645 0.170371
-1.422631 -0.262416 3.285275
-1.414981 -0.263861 3.303548
-1.411030 -0.266035 3.330874
-1.402171 -0.267323 3.347021
-1.388797 -0.267769 3.352556
-0.587089 -0.114490 1.433402
-0.579634 -0.114345 1.431502
-0.572577 -0.114277 1.430527
-0.566825 -0.114470 1.432800
-0.070466 -0.020236 0.251384
-0.069388 -0.020269 0.251682
-0.067431 -0.020042 0.248753
-0.059942 -0.018133 0.224963
-0.058480 -0.018012 0.223352
-0.057510 -0.018040 0.223601
-0.051605 -0.016492 0.204323
-0.050423 -0.016423 0.203373
-0.049631 -0.016481 0.203997
-0.048859 -0.016549 0.204735
-0.048134 -0.016635 0.205702
-0.047439 -0.016735 0.206845
-0.046655 -0.016808 0.207645
-0.045957 -0.016915 0.208873
-0.045305 -0.017044 0.210372
-0.044355 -0.017065 0.210531
-0.043558 -0.017147 0.211439
-0.042783 -0.017242 0.212508
-0.042081 -0.017371 0.214004
-0.041201 -0.017432 0.214651
-0.040347 -0.017507 0.215479
-0.039507 -0.017593 0.216428
-0.038564 -0.017636 0.216860
-0.037759 -0.017745 0.218112
-0.036805 -0.017790 0.218560
-0.035818 -0.017821 0.218843
-0.034914 -0.017896 0.219668
-0.033993 -0.017966 0.220444
-0.033009 -0.018007 0.220852
-0.032065 -0.018073 0.221569
-0.031085 -0.018123 0.222090
-0.030081 -0.018162 0.222479
-0.029115 -0.018228 0.223198
-0.028128 -0.018285 0.223809
-0.027162 -0.018361 0.224658
-0.026160 -0.018417 0.225266
-0.025122 -0.018453 0.225622
-0.024087 -0.018494 0.226048
-0.023053 -0.018540 0.226528
-0.022002 -0.018576 0.226901
-0.020941 -0.018607 0.227207
-0.019904 -0.018663 0.227827
-0.018881 -0.018741 0.228706
-0.017828 -0.018797 0.229330
-0.016726 -0.018804 0.229362
-0.015680 -0.018880 0.230233
-0.014585 -0.018905 0.230482
-0.013478 -0.018917 0.230575
-0.012404 -0.018983 0.231323
-0.011313 -0.019032 0.231876
-0.010228 -0.019104 0.232715
-0.009114 -0.019132 0.233012
-0.008003 -0.019174 0.233497
-0.006881 -0.019204 0.233823
-0.005753 -0.019223 0.234026
-0.004623 -0.019241 0.234215
-0.003492 -0.019266 0.234500
-0.002356 -0.019280 0.234652
-0.001218 -0.019284 0.234685
-0.000079 -0.019298 0.234845
0.001062 -0.019320 0.235107
0.002205 -0.019346 0.235410
0.003350 -0.019360 0.235577
0.004512 -0.019440 0.236557
0.005685 -0.019527 0.237616
0.006948 -0.019840 0.241433
0.008086 -0.019757 0.240438
0.009192 -0.019627 0.238871
0.010407 -0.019733 0.240181
0.011572 -0.019731 0.240176
0.013230 -0.020494 0.249487
0.014477 -0.020545 0.250147
0.015470 -0.020256 0.246662
0.016627 -0.020208 0.246111
0.017765 -0.020144 0.245375
0.018904 -0.020091 0.244762
0.020153 -0.020153 0.245565
0.021351 -0.020159 0.245692
0.022540 -0.020157 0.245718
0.023850 -0.020259 0.247009
0.025089 -0.020292 0.247473
0.026368 -0.020354 0.248286
0.027617 -0.020388 0.248768
0.028860 -0.020415 0.249165
0.030179 -0.020491 0.250165
0.031474 -0.020546 0.250909
0.032738 -0.020577 0.251364
0.034065 -0.020644 0.252258
0.035474 -0.020755 0.253693
0.036974 -0.020910 0.255664
0.038278 -0.020947 0.256203
0.039571 -0.020976 0.256645
0.040873 -0.021008 0.257124
0.042146 -0.021023 0.257402
0.043466 -0.021061 0.257957
0.044725 -0.021067 0.258128
0.045986 -0.021074 0.258311
0.047206 -0.021063 0.258269
0.048425 -0.021051 0.258223
0.049606 -0.021025 0.257995
0.050804 -0.021006 0.257866
0.051999 -0.020987 0.257729
0.052297 -0.020616 0.253269
0.052704 -0.020303 0.249522
0.053522 -0.020159 0.247851
0.054387 -0.020038 0.246464
0.055468 -0.020001 0.246102
0.056338 -0.019891 0.244844
0.057295 -0.019815 0.244007
0.058265 -0.019746 0.243260
0.059137 -0.019648 0.242148
0.060000 -0.019551 0.241042
0.060924 -0.019477 0.240219
0.061777 -0.019383 0.239153
0.062505 -0.019254 0.237657
0.062447 -0.018892 0.233276
0.062147 -0.018471 0.228161
0.062704 -0.018315 0.226310
0.063120 -0.018123 0.224024
0.063903 -0.018042 0.223096
0.064749 -0.017980 0.222416
0.065575 -0.017916 0.221689
0.066335 -0.017835 0.220765
0.067159 -0.017774 0.220080
0.067955 -0.017708 0.219327
0.068799 -0.017655 0.218746
0.069612 -0.017597 0.218087
0.070373 -0.017527 0.217285
0.071008 -0.017429 0.216121
0.071676 -0.017341 0.215091
0.072359 -0.017260 0.214129
0.073124 -0.017199 0.213432
0.073775 -0.017114 0.212424
0.074020 -0.016939 0.210290
0.074705 -0.016868 0.209442
0.075453 -0.016812 0.208787
0.076155 -0.016748 0.208022
0.076763 -0.016665 0.207019
0.077778 -0.016671 0.207124
0.078443 -0.016603 0.206301
0.079065 -0.016528 0.205386
0.079613 -0.016439 0.204296
0.080233 -0.016367 0.203412
0.080677 -0.016262 0.202105
0.080913 -0.016117 0.200310
0.081164 -0.015979 0.198588
0.081518 -0.015864 0.197150
0.081872 -0.015752 0.195742
0.081692 -0.015540 0.193097
0.082984 -0.015610 0.193946
0.082343 -0.015319 0.190303
0.082631 -0.015206 0.188859
0.082961 -0.015102 0.187533
0.082959 -0.014941 0.185490
0.083500 -0.014880 0.184684
0.083823 -0.014782 0.183414
0.084069 -0.014672 0.181994
0.084362 -0.014573 0.180699
0.084822 -0.014504 0.179777
0.085251 -0.014432 0.178803
0.085611 -0.014349 0.177698
0.085933 -0.014262 0.176527
0.086343 -0.014190 0.175553
0.086845 -0.014136 0.174773
0.087116 -0.014044 0.173539
0.087572 -0.013985 0.172687
0.088038 -0.013928 0.171863
0.088592 -0.013886 0.171213
0.089112 -0.013839 0.170501
-1.423557 -0.249796 3.323595
-1.410317 -0.250210 3.329203
-1.403438 -0.251775 3.350042
-0.595326 -0.109245 1.453498
-0.582958 -0.108214 1.439691
-0.581579 -0.109223 1.452990
-0.564515 -0.107276 1.426929
-0.558770 -0.107458 1.429175
-0.070498 -0.019050 0.251468
-0.062568 -0.017198 0.226919
-0.061220 -0.017121 0.225811
-0.059556 -0.016953 0.223483
-0.057149 -0.016562 0.218237
-0.056201 -0.016588 0.218481
-0.051759 -0.015565 0.204901
-0.050393 -0.015444 0.203223
-0.049709 -0.015533 0.204290
-0.048935 -0.015596 0.205020
-0.048117 -0.015647 0.205596
-0.047462 -0.015755 0.206914
-0.046611 -0.015800 0.207417
-0.045887 -0.015892 0.208520
-0.045186 -0.015996 0.209782
-0.044484 -0.016104 0.211102
-0.043479 -0.016105 0.211019
-0.042672 -0.016182 0.211920
-0.041951 -0.016295 0.213302
-0.041219 -0.016410 0.214707
-0.040336 -0.016469 0.215376
-0.039447 -0.016529 0.216058
-0.038537 -0.016582 0.216661
-0.037646 -0.016647 0.217414
-0.036708 -0.016695 0.217937
-0.035789 -0.016755 0.218619
-0.034866 -0.016815 0.219315
-0.033952 -0.016884 0.220124
-0.032970 -0.016923 0.220539
-0.032042 -0.016994 0.221361
-0.031071 -0.017045 0.221938
-0.030076 -0.017087 0.222393
-0.029084 -0.017133 0.222911
-0.028097 -0.017186 0.223514
-0.027093 -0.017232 0.224029
-0.026099 -0.017289 0.224687
-0.025118 -0.017360 0.225533
-0.024065 -0.017386 0.225784
-0.023028 -0.017425 0.226225
-0.021994 -0.017472 0.226759
-0.020930 -0.017498 0.227029
-0.019866 -0.017527 0.227336
-0.018801 -0.017559 0.227685
-0.017720 -0.017579 0.227876
-0.016733 -0.017701 0.229397
-0.015629 -0.017707 0.229417
-0.014556 -0.017753 0.229966
-0.013502 -0.017831 0.230919
-0.012402 -0.017857 0.231211
-0.011301 -0.017887 0.231556
-0.010214 -0.017950 0.232318
-0.009125 -0.018021 0.233207
-0.008022 -0.018085 0.233992
-0.006898 -0.018111 0.234305
-0.005767 -0.018129 0.234496
-0.004632 -0.018137 0.234583
-0.003496 -0.018148 0.234696
-0.002361 -0.018173 0.235003
-0.001220 -0.018170 0.234944
-0.000080 -0.018161 0.234824
0.001063 -0.018216 0.235518
0.002218 -0.018316 0.236804
0.003366 -0.018306 0.236684
0.004507 -0.018274 0.236265
0.005685 -0.018374 0.237563
0.006919 -0.018593 0.240399
0.008081 -0.018581 0.240258
0.009176 -0.018437 0.238409
0.010368 -0.018498 0.239227
0.011521 -0.018485 0.239075
0.012947 -0.018873 0.244123
0.014393 -0.019221 0.248655
0.015485 -0.019080 0.246854
0.016603 -0.018989 0.245717
0.017739 -0.018929 0.244977
0.018885 -0.018886 0.244470
0.020145 -0.018956 0.245419
0.021393 -0.019007 0.246135
0.022646 -0.019057 0.246825
0.023895 -0.019099 0.247423
0.025107 -0.019108 0.247606
0.026318 -0.019116 0.247769
0.027583 -0.019161 0.248418
0.028821 -0.019184 0.248779
0.030225 -0.019311 0.250497
0.031427 -0.019305 0.250485
0.032735 -0.019361 0.251292
0.034004 -0.019391 0.251762
0.035769 -0.019693 0.255756
0.037023 -0.019701 0.255952
0.038301 -0.019722 0.256308
0.039566 -0.019735 0.256566
0.040825 -0.019744 0.256774
0.042109 -0.019765 0.257133
0.043397 -0.019786 0.257499
0.044668 -0.019799 0.257756
0.045917 -0.019801 0.257881
0.047124 -0.019785 0.257777
0.048357 -0.019781 0.257823
0.049575 -0.019771 0.257789
0.050732 -0.019738 0.257457
0.051882 -0.019704 0.257113
0.052592 -0.019508 0.254655
0.052837 -0.019153 0.250117
0.053509 -0.018964 0.247756
0.054245 -0.018806 0.245787
0.055233 -0.018741 0.245029
0.056268 -0.018693 0.244507
0.057269 -0.018637 0.243865
0.058196 -0.018559 0.242941
0.059112 -0.018481 0.242013
0.060057 -0.018414 0.241237
0.060863 -0.018309 0.239950
0.061641 -0.018199 0.238600
0.062271 -0.018050 0.236739
0.063089 -0.017960 0.235649
0.062878 -0.017585 0.230816
0.063164 -0.017360 0.227948
0.062614 -0.016917 0.222208
0.063393 -0.016841 0.221293
0.064273 -0.016795 0.220758
0.065198 -0.016761 0.220395
0.065995 -0.016697 0.219616
0.066837 -0.016645 0.219008
0.067729 -0.016607 0.218578
0.068580 -0.016561 0.218034
0.069267 -0.016476 0.216989
0.069960 -0.016396 0.215994
0.070666 -0.016321 0.215067
0.071516 -0.016281 0.214597
0.072274 -0.016222 0.213866
0.072974 -0.016151 0.212982
0.073732 -0.016095 0.212290
0.074115 -0.015960 0.210550
0.074323 -0.015791 0.208362
0.075146 -0.015755 0.207930
0.076107 -0.015749 0.207884
0.076666 -0.015661 0.206752
0.077417 -0.015614 0.206157
0.078195 -0.015574 0.205645
0.078867 -0.015514 0.204866
0.079469 -0.015441 0.203925
0.079872 -0.015332 0.202497
0.080357 -0.015242 0.201304
0.080781 -0.015142 0.199985
0.081248 -0.015052 0.198796
0.081600 -0.014943 0.197350
0.082066 -0.014858 0.196208
0.082179 -0.014711 0.194252
0.081841 -0.014487 0.191279
0.082483 -0.014440 0.190631
0.082850 -0.014347 0.189365
0.083155 -0.014244 0.187978
0.083482 -0.014148 0.186667
0.083600 -0.014019 0.184913
0.083959 -0.013932 0.183720
0.084288 -0.013843 0.182479
0.084364 -0.013714 0.180715
0.084607 -0.013614 0.179334
0.084905 -0.013525 0.178089
0.085382 -0.013467 0.177235
0.085901 -0.013416 0.176477
0.086298 -0.013347 0.175477
0.086774 -0.013291 0.174647
0.087219 -0.013232 0.173764
0.087645 -0.013171 0.172850
0.088296 -0.013145 0.172384
0.088729 -0.013087 0.171498
0.089029 -0.013011 0.170364
-1.437629 -0.228935 3.249097
-1.445442 -0.232642 3.302051
-1.431493 -0.232890 3.305817
-1.418346 -0.233275 3.311451
-1.418150 -0.235822 3.347702
-1.408770 -0.236883 3.362765
-1.395346 -0.237280 3.368329
-0.595505 -0.102425 1.453921
-0.590442 -0.102730 1.458153
-0.581759 -0.102405 1.453415
-0.569703 -0.101472 1.440011
-0.558143 -0.100606 1.427536
-0.067860 -0.016625 0.234324
-0.066731 -0.016620 0.234152
-0.064653 -0.016374 0.230593
-0.062595 -0.016126 0.226990
-0.060909 -0.015966 0.224638
-0.059309 -0.015823 0.222530
-0.057272 -0.015557 0.218681
-0.055397 -0.015325 0.215325
-0.051785 -0.014595 0.204977
-0.050454 -0.014493 0.203442
-0.049616 -0.014531 0.203875
-0.048890 -0.014604 0.204803
-0.048072 -0.014651 0.205375
-0.047270 -0.014706 0.206045
-0.046556 -0.014791 0.207139
-0.045714 -0.014838 0.207698
-0.045305 -0.015032 0.210303
-0.044368 -0.015054 0.210519
-0.043560 -0.015123 0.211375
-0.042670 -0.015165 0.211870
-0.041840 -0.015232 0.212704
-0.041055 -0.015319 0.213814
-0.040314 -0.015427 0.215223
-0.039384 -0.015466 0.215672
-0.038481 -0.015519 0.216305
-0.037567 -0.015570 0.216920
-0.036647 -0.015621 0.217533
-0.035775 -0.015697 0.218487
-0.034893 -0.015772 0.219442
-0.033973 -0.015834 0.220215
-0.032997 -0.015874 0.220675
-0.032026 -0.015919 0.221205
-0.031051 -0.015965 0.221750
-0.030046 -0.015998 0.222121
-0.029058 -0.016043 0.222656
-0.028074 -0.016094 0.223276
-0.027080 -0.016143 0.223873
-0.026062 -0.016181 0.224323
-0.025059 -0.016232 0.224953
-0.024057 -0.016288 0.225652
-0.023041 -0.016341 0.226303
-0.021998 -0.016378 0.226739
-0.020957 -0.016421 0.227266
-0.019924 -0.016474 0.227936
-0.018884 -0.016529 0.228622
-0.017802 -0.016551 0.228867
-0.016721 -0.016577 0.229169
-0.015665 -0.016633 0.229885
-0.014577 -0.016661 0.230222
-0.013483 -0.016688 0.230539
-0.012400 -0.016733 0.231112
-0.011302 -0.016766 0.231515
-0.010218 -0.016828 0.232329
-0.009111 -0.016864 0.232794
-0.008008 -0.016917 0.233485
-0.006891 -0.016956 0.233988
-0.005761 -0.016970 0.234157
-0.004628 -0.016980 0.234264
-0.003493 -0.016988 0.234360
-0.002357 -0.017000 0.234500
-0.001220 -0.017009 0.234608
-0.000081 -0.017015 0.234672
0.001059 -0.017028 0.234847
0.002200 -0.017034 0.234923
0.003344 -0.017049 0.235136
0.004494 -0.017080 0.235566
0.005647 -0.017110 0.235983
0.006939 -0.017479 0.241073
0.008087 -0.017430 0.240408
0.009176 -0.017281 0.238373
0.010399 -0.017391 0.239912
0.011548 -0.017367 0.239599
0.012720 -0.017379 0.239792
0.013980 -0.017500 0.241485
0.015432 -0.017822 0.245967
0.016641 -0.017838 0.246229
0.017830 -0.017832 0.246187
0.018874 -0.017692 0.244285
0.020256 -0.017865 0.246725
0.021540 -0.017938 0.247779
0.022690 -0.017897 0.247269
0.023898 -0.017903 0.247408
0.025142 -0.017935 0.247905
0.026339 -0.017932 0.247930
0.027562 -0.017946 0.248183
0.028854 -0.018002 0.249024
0.030108 -0.018030 0.249489
0.031429 -0.018095 0.250461
0.032664 -0.018107 0.250702
0.033927 -0.018134 0.251151
0.035528 -0.018333 0.253983
0.037077 -0.018493 0.256283
0.038308 -0.018488 0.256312
0.039524 -0.018478 0.256249
0.040803 -0.018496 0.256593
0.042083 -0.018514 0.256931
0.043357 -0.018528 0.257220
0.044602 -0.018529 0.257337
0.045850 -0.018532 0.257468
0.047080 -0.018527 0.257497
0.048262 -0.018504 0.257273
0.049504 -0.018505 0.257383
0.050726 -0.018498 0.257391
0.051785 -0.018433 0.256594
0.052454 -0.018236 0.253952
0.052827 -0.017948 0.250034
0.053478 -0.017764 0.247576
0.054362 -0.017665 0.246287
0.055330 -0.017596 0.245427
0.056361 -0.017550 0.244878
0.057256 -0.017464 0.243778
0.058184 -0.017391 0.242863
0.059025 -0.017296 0.241626
0.059966 -0.017233 0.240845
0.060982 -0.017194 0.240390
0.061530 -0.017027 0.238143
0.062318 -0.016931 0.236893
0.061378 -0.016377 0.229234
0.062421 -0.016362 0.229116
0.062624 -0.016132 0.225977
0.063445 -0.016066 0.225134
0.063833 -0.015895 0.222809
0.064429 -0.015780 0.221275
0.065209 -0.015713 0.220414
0.066203 -0.015699 0.220290
0.066957 -0.015629 0.219384
0.067724 -0.015565 0.218547
0.068622 -0.015532 0.218152
0.069113 -0.015409 0.216492
0.069835 -0.015341 0.215595
0.070629 -0.015290 0.214941
0.071471 -0.015251 0.214449
0.072112 -0.015171 0.213376
0.072737 -0.015089 0.212283
0.073474 -0.015033 0.211539
0.074124 -0.014961 0.210565
0.074842 -0.014904 0.209809
0.075575 -0.014852 0.209109
0.076263 -0.014792 0.208304
0.076894 -0.014723 0.207363
0.077428 -0.014637 0.206183
0.078308 -0.014619 0.205939
0.078777 -0.014524 0.204631
0.079216 -0.014427 0.203272
0.079695 -0.014339 0.202045
0.080159 -0.014251 0.200807
0.080557 -0.014153 0.199429
0.081041 -0.014072 0.198289
0.081473 -0.013984 0.197046
0.081888 -0.013896 0.195785
0.081590 -0.013690 0.192862
0.082032 -0.013611 0.191728
0.082383 -0.013518 0.190404
0.082837 -0.013445 0.189340
0.083194 -0.013358 0.188074
0.083551 -0.013272 0.186829
0.083844 -0.013179 0.185463
0.084105 -0.013082 0.184048
0.084340 -0.012983 0.182600
0.084307 -0.012845 0.180602
0.084636 -0.012765 0.179406
0.084893 -0.012676 0.178078
0.085305 -0.012611 0.177089
0.085880 -0.012572 0.176446
0.086161 -0.012490 0.175212
0.086609 -0.012434 0.174329
0.086709 -0.012330 0.172763
0.087300 -0.012297 0.172187
0.087993 -0.012279 0.171811
0.088533 -0.012240 0.171137
0.089076 -0.012202 0.170473
-1.455158 -0.216225 3.288769
-1.445813 -0.217135 3.302945
-1.431041 -0.217241 3.304806
-1.433464 -0.219989 3.346767
-1.420144 -0.220355 3.352416
-1.409155 -0.221095 3.363678
-0.604277 -0.095883 1.458701
-0.605540 -0.097183 1.478408
-0.594175 -0.096463 1.467354
-0.585656 -0.096193 1.463125
-0.575055 -0.095572 1.453510
-0.569207 -0.095735 1.455800
-0.071090 -0.015736 0.237885
-0.069723 -0.015682 0.236961
-0.067887 -0.015518 0.234392
-0.066209 -0.015386 0.232297
-0.064565 -0.015257 0.230252
-0.062391 -0.014997 0.226223
-0.061008 -0.014921 0.224976
-0.059593 -0.014834 0.223567
-0.057785 -0.014645 0.220610
-0.055859 -0.014418 0.217095
-0.050904 -0.013386 0.201463
-0.050300 -0.013481 0.202793
-0.049680 -0.013575 0.204114
-0.048776 -0.013594 0.204297
-0.048016 -0.013654 0.205106
-0.047296 -0.013729 0.206128
-0.046568 -0.013805 0.207161
-0.045761 -0.013859 0.207883
-0.045086 -0.013957 0.209253
-0.044468 -0.014078 0.210959
-0.043559 -0.014110 0.211338
-0.042673 -0.014151 0.211853
-0.041856 -0.014218 0.212748
-0.041070 -0.014298 0.213855
-0.040310 -0.014392 0.215162
-0.039462 -0.014459 0.216061
-0.038521 -0.014495 0.216490
-0.037645 -0.014557 0.217328
-0.036744 -0.014614 0.218067
-0.035812 -0.014661 0.218671
-0.034915 -0.014725 0.219542
-0.033995 -0.014784 0.220317
-0.033042 -0.014831 0.220929
-0.032051 -0.014864 0.221332
-0.031088 -0.014913 0.221968
-0.030069 -0.014938 0.222244
-0.029084 -0.014982 0.222811
-0.028108 -0.015034 0.223501
-0.027106 -0.015076 0.224040
-0.026094 -0.015116 0.224550
-0.025093 -0.015165 0.225203
-0.024071 -0.015207 0.225740
-0.023042 -0.015247 0.226261
-0.021990 -0.015275 0.226605
-0.020926 -0.015298 0.226876
-0.019882 -0.015338 0.227403
-0.018820 -0.015370 0.227799
-0.017739 -0.015388 0.228008
-0.016673 -0.015422 0.228452
-0.015614 -0.015469 0.229086
-0.014572 -0.015541 0.230096
-0.013509 -0.015599 0.230915
-0.012419 -0.015636 0.231402
-0.011325 -0.015673 0.231913
-0.010226 -0.015713 0.232456
-0.009132 -0.015770 0.233255
-0.008009 -0.015785 0.233443
-0.006883 -0.015801 0.233648
-0.005758 -0.015823 0.233951
-0.004625 -0.015832 0.234056
-0.003489 -0.015833 0.234038
-0.002356 -0.015850 0.234276
-0.001219 -0.015855 0.234334
-0.000081 -0.015849 0.234227
0.001058 -0.015883 0.234731
0.002229 -0.016110 0.238071
0.003384 -0.016101 0.237940
0.004515 -0.016016 0.236685
0.005675 -0.016045 0.237122
0.006789 -0.015957 0.235829
0.007935 -0.015959 0.235863
0.009143 -0.016068 0.237490
0.010343 -0.016140 0.238582
0.011603 -0.016283 0.240709
0.012762 -0.016270 0.240550
0.013944 -0.016286 0.240816
0.015114 -0.016287 0.240860
0.016277 -0.016281 0.240808
0.017485 -0.016317 0.241387
0.018689 -0.016345 0.241842
0.020346 -0.016744 0.247786
0.021542 -0.016738 0.247754
0.022696 -0.016703 0.247291
0.023891 -0.016700 0.247302
0.025115 -0.016717 0.247600
0.026312 -0.016715 0.247633
0.027593 -0.016764 0.248424
0.028845 -0.016791 0.248901
0.030163 -0.016854 0.249899
0.031458 -0.016899 0.250648
0.032819 -0.016975 0.251851
0.034144 -0.017028 0.252714
0.035596 -0.017139 0.254433
0.036981 -0.017210 0.255579
0.038266 -0.017232 0.255990
0.039512 -0.017236 0.256134
0.040814 -0.017263 0.256628
0.042082 -0.017274 0.256890
0.043337 -0.017280 0.257068
0.044605 -0.017290 0.257313
0.045832 -0.017284 0.257324
0.047057 -0.017279 0.257335
0.048281 -0.017272 0.257341
0.049515 -0.017270 0.257403
0.050758 -0.017271 0.257518
0.051898 -0.017237 0.257120
0.052397 -0.016997 0.253644
0.052933 -0.016780 0.250503
0.053400 -0.016551 0.247185
0.054247 -0.016448 0.245733
0.055136 -0.016361 0.244535
0.056184 -0.016324 0.244077
0.057141 -0.016262 0.243258
0.057994 -0.016174 0.242041
0.058928 -0.016112 0.241202
0.059856 -0.016050 0.240377
0.060547 -0.015929 0.238652
0.061228 -0.015809 0.236952
0.061197 -0.015513 0.232606
0.061409 -0.015289 0.229327
0.061461 -0.015033 0.225573
0.062552 -0.015035 0.225697
0.063292 -0.014955 0.224573
0.063943 -0.014857 0.223173
0.064615 -0.014766 0.221895
0.065392 -0.014702 0.221013
0.066209 -0.014649 0.220292
0.067012 -0.014595 0.219548
0.067762 -0.014531 0.218654
0.068625 -0.014493 0.218149
0.069301 -0.014417 0.217068
0.070057 -0.014360 0.216269
0.070777 -0.014297 0.215380
0.071595 -0.014255 0.214810
0.072218 -0.014176 0.213677
0.072789 -0.014090 0.212424
0.073542 -0.014040 0.211726
0.074266 -0.013987 0.210962
0.074889 -0.013916 0.209934
0.075546 -0.013853 0.209022
0.076206 -0.013792 0.208142
0.076575 -0.013681 0.206496
0.076923 -0.013569 0.204833
0.077419 -0.013486 0.203597
0.077975 -0.013415 0.202543
0.078812 -0.013393 0.202234
0.079491 -0.013346 0.201527
0.080051 -0.013280 0.200536
0.080484 -0.013194 0.199248
0.080926 -0.013112 0.198008
0.081459 -0.013047 0.197013
0.081920 -0.012971 0.195863
0.081897 -0.012822 0.193590
0.082141 -0.012717 0.191986
0.082567 -0.012643 0.190836
0.083057 -0.012579 0.189849
0.083260 -0.012474 0.188228
0.083525 -0.012381 0.186778
0.083341 -0.012223 0.184358
0.083489 -0.012117 0.182709
0.083899 -0.012051 0.181655
0.084454 -0.012007 0.180928
0.084663 -0.011915 0.179474
0.085122 -0.011860 0.178568
0.085458 -0.011789 0.177417
0.085791 -0.011719 0.176277
0.085966 -0.011629 0.174828
0.086393 -0.011574 0.173909
0.086975 -0.011541 0.173308
0.087378 -0.011485 0.172356
0.087808 -0.011434 0.171467
0.088299 -0.011391 0.170703
0.089183 -0.011400 0.170697
-1.455500 -0.200771 3.289597
-1.435189 -0.200087 3.278716
-1.433418 -0.202001 3.310323
-1.426946 -0.203288 3.331567
-1.428061 -0.205697 3.371110
-0.614879 -0.089557 1.467724
-0.609276 -0.089744 1.470760
-0.605699 -0.090238 1.478783
-0.601282 -0.090617 1.484887
-0.590136 -0.089979 1.474295
-0.584218 -0.090132 1.476641
-0.072890 -0.014744 0.240188
-0.071115 -0.014613 0.237949
-0.069270 -0.014462 0.235400
-0.067949 -0.014418 0.234585
-0.066547 -0.014355 0.233458
-0.064907 -0.014238 0.231450
-0.062644 -0.013978 0.227116
-0.061036 -0.013857 0.225054
-0.058945 -0.013621 0.221113
-0.057681 -0.013570 0.220190
-0.056726 -0.013592 0.220437
-0.051921 -0.012674 0.205463
-0.050840 -0.012648 0.204947
