ply
format ascii 1.0
element vertex 1745
property float x
property float y
property float z
end_header
-0.028719 0.030790 0.213324
-0.027833 0.030943 0.214304
-0.027184 0.031381 0.217265
-0.026364 0.031649 0.219042
-0.025398 0.031756 0.219711
-0.024377 0.031801 0.219951
-0.023362 0.031857 0.220271
-0.022399 0.031995 0.221155
-0.021449 0.032165 0.222267
-0.020419 0.032227 0.222631
-0.019384 0.032286 0.222977
-0.018378 0.032405 0.223743
-0.017339 0.032476 0.224173
-0.016286 0.032530 0.224497
-0.015248 0.032623 0.225085
-0.014225 0.032764 0.226006
-0.013169 0.032847 0.226532
-0.012132 0.032997 0.227524
-0.011064 0.033083 0.228073
-0.009995 0.033188 0.228764
-0.008903 0.033228 0.229005
-0.007818 0.033314 0.229563
-0.006724 0.033382 0.229999
-0.005635 0.033511 0.230860
-0.004521 0.033514 0.230856
-0.003406 0.033511 0.230820
-0.002302 0.033658 0.231813
-0.001186 0.033766 0.232542
-0.000063 0.033879 0.233307
0.001068 0.033993 0.234086
0.002202 0.034054 0.234495
0.003346 0.034161 0.235231
0.004494 0.034250 0.235846
0.005656 0.034388 0.236798
0.006815 0.034463 0.237318
0.007993 0.034600 0.238275
0.009166 0.034681 0.238846
0.010345 0.034764 0.239432
0.011523 0.034828 0.239895
0.012698 0.034872 0.240219
0.013886 0.034941 0.240717
0.015084 0.035022 0.241309
0.016286 0.035100 0.241874
0.017464 0.035121 0.242051
0.018663 0.035177 0.242475
0.019865 0.035231 0.242887
0.021071 0.035287 0.243315
0.022314 0.035396 0.244113
0.023554 0.035488 0.244797
0.024826 0.035618 0.245742
0.026085 0.035717 0.246485
0.027311 0.035766 0.246874
0.028561 0.035840 0.247447
0.029783 0.035874 0.247739
0.031032 0.035937 0.248243
0.032310 0.036027 0.248929
0.033567 0.036089 0.249423
0.034832 0.036154 0.249943
0.036093 0.036210 0.250406
0.037310 0.036221 0.250551
0.038589 0.036289 0.251101
0.039846 0.036333 0.251483
0.041047 0.036324 0.251498
0.042276 0.036340 0.251690
0.043514 0.036364 0.251933
0.044669 0.036317 0.251691
0.045903 0.036336 0.251907
0.047093 0.036319 0.251879
0.048264 0.036290 0.251758
0.049516 0.036321 0.252061
0.050712 0.036310 0.252075
0.051741 0.036184 0.251284
0.052727 0.036033 0.250324
0.052325 0.034962 0.242966
0.053196 0.034769 0.241713
0.054161 0.034645 0.240933
0.054904 0.034387 0.239221
0.056010 0.034362 0.239131
0.056824 0.034162 0.237826
0.057191 0.033707 0.234737
0.057663 0.033331 0.232194
0.058308 0.033066 0.230427
0.059412 0.033066 0.230508
0.060172 0.032879 0.229278
0.060960 0.032713 0.228199
0.061833 0.032598 0.227466
0.062594 0.032429 0.226360
0.063372 0.032274 0.225349
0.064364 0.032231 0.225119
0.065233 0.032130 0.224475
0.065967 0.031966 0.223395
0.066886 0.031895 0.222965
0.067699 0.031777 0.222200
0.068394 0.031608 0.221077
0.069084 0.031442 0.219971
0.069816 0.031300 0.219027
0.070189 0.031003 0.217002
0.070751 0.030797 0.215608
0.071436 0.030650 0.214621
0.072096 0.030496 0.213585
0.072658 0.030306 0.212290
0.073087 0.030066 0.210645
0.073420 0.029793 0.208768
0.074055 0.029649 0.207788
0.074133 0.029289 0.205285
0.074158 0.028917 0.202702
0.074376 0.028629 0.200699
0.074849 0.028445 0.199426
0.075304 0.028259 0.198132
0.076044 0.028184 0.197609
0.076660 0.028064 0.196774
0.076835 0.027788 0.194837
0.076066 0.027182 0.190580
0.076503 0.027015 0.189401
0.077276 0.026970 0.189070
0.077760 0.026826 0.188040
0.078163 0.026657 0.186838
0.078347 0.026419 0.185137
0.079042 0.026356 0.184665
0.079671 0.026273 0.184046
0.080010 0.026097 0.182769
0.080341 0.025922 0.181499
0.080778 0.025785 0.180485
0.081286 0.025672 0.179643
0.081788 0.025561 0.178801
0.082415 0.025490 0.178239
0.082680 0.025310 0.176905
0.082651 0.025045 0.174971
0.082856 0.024855 0.173561
0.083099 0.024680 0.172248
0.083392 0.024523 0.171057
0.083751 0.024389 0.170017
0.084009 0.024227 0.168784
0.084277 0.024072 0.167587
0.084807 0.023994 0.166922
0.085318 0.023912 0.166222
0.085479 0.023734 0.164850
0.085924 0.023638 0.164038
-0.989994 0.287728 1.955276
-0.980174 0.287557 1.955295
-0.967908 0.286658 1.950282
-0.956896 0.286117 1.947626
-0.954339 0.288118 1.962205
-0.941815 0.287120 1.956290
-0.935132 0.287900 1.962426
-0.928076 0.288580 1.967813
-0.921417 0.289399 1.974085
-0.916797 0.293875 2.005828
-0.908754 0.294326 2.009419
-0.887448 0.290446 1.983380
-0.861183 0.284843 1.945505
-0.836637 0.279695 1.910666
-0.831978 0.281156 1.920921
-0.811753 0.277330 1.895009
-0.795113 0.274659 1.876926
-1.426541 0.498303 3.405463
-1.397130 0.493566 3.373238
-1.383502 0.494360 3.378734
-1.368003 0.494496 3.379660
-1.348657 0.493229 3.370921
-1.334980 0.494030 3.376244
-1.316765 0.493150 3.370015
-1.303378 0.494080 3.376081
-1.289612 0.494886 3.381246
-1.275800 0.495696 3.386363
-0.870311 0.342422 2.338939
-0.852452 0.339688 2.319902
-0.842881 0.340229 2.323193
-0.294069 0.149776 1.018058
-0.289521 0.149914 1.018613
-0.284700 0.149912 1.018215
-0.280029 0.149990 1.018355
-0.275589 0.150196 1.019359
-0.271017 0.150338 1.019917
-0.266189 0.150339 1.019518
-0.261398 0.150363 1.019265
-0.256352 0.150237 1.017997
-0.251083 0.149974 1.015793
-0.245845 0.149719 1.013649
-0.240337 0.149287 1.010299
-0.234898 0.148880 1.007124
-0.230438 0.149091 1.008122
-0.055278 0.036524 0.246864
-0.053386 0.036039 0.243481
-0.051539 0.035564 0.240172
-0.050016 0.035296 0.238261
-0.048883 0.035297 0.238165
-0.047702 0.035263 0.237836
-0.046365 0.035108 0.236696
-0.045217 0.035094 0.236498
-0.043741 0.034817 0.234535
-0.041750 0.034104 0.229641
-0.040499 0.033974 0.228673
-0.039179 0.033778 0.227260
-0.037651 0.033387 0.224536
-0.036448 0.033268 0.223649
-0.035380 0.033270 0.223573
-0.033541 0.032524 0.218478
-0.031366 0.031394 0.210809
-0.030508 0.031551 0.211781
-0.029775 0.031852 0.213722
-0.028786 0.031891 0.213907
-0.027901 0.032053 0.214918
-0.026982 0.032185 0.215733
-0.026307 0.032632 0.218654
-0.025384 0.032796 0.219680
-0.024410 0.032904 0.220337
-0.023350 0.032902 0.220250
-0.022365 0.033010 0.220908
-0.021387 0.033140 0.221714
-0.020385 0.033245 0.222353
-0.019351 0.033306 0.222703
-0.018324 0.033387 0.223186
-0.017315 0.033513 0.223975
-0.016259 0.033559 0.224226
-0.015211 0.033628 0.224638
-0.014186 0.033764 0.225500
-0.013136 0.033859 0.226084
-0.012094 0.033990 0.226919
-0.011027 0.034073 0.227430
-0.009975 0.034229 0.228431
-0.008892 0.034297 0.228850
-0.007812 0.034402 0.229518
-0.006717 0.034464 0.229904
-0.005636 0.034637 0.231032
-0.004531 0.034715 0.231525
-0.003418 0.034765 0.231842
-0.002301 0.034794 0.232012
-0.001186 0.034925 0.232874
-0.000061 0.035019 0.233490
0.001068 0.035074 0.233843
0.002201 0.035144 0.234305
0.003340 0.035219 0.234805
0.004489 0.035336 0.235586
0.005663 0.035567 0.237130
0.006823 0.035642 0.237636
0.007970 0.035640 0.237633
0.009171 0.035847 0.239024
0.010337 0.035887 0.239307
0.011501 0.035915 0.239510
0.012692 0.036012 0.240179
0.013869 0.036055 0.240494
0.015073 0.036157 0.241200
0.016273 0.036235 0.241752
0.017479 0.036316 0.242326
0.018679 0.036375 0.242755
0.019868 0.036406 0.243002
0.021090 0.036491 0.243614
0.022317 0.036575 0.244220
0.023533 0.036634 0.244659
0.024780 0.036731 0.245360
0.026070 0.036882 0.246421
0.027325 0.036972 0.247076
0.028571 0.037043 0.247610
0.029773 0.037053 0.247736
0.030979 0.037066 0.247888
0.032249 0.037154 0.248538
0.033498 0.037211 0.248986
0.034780 0.037299 0.249642
0.036074 0.037394 0.250350
0.037337 0.037452 0.250809
0.038559 0.037466 0.250980
0.039787 0.037484 0.251180
0.041002 0.037491 0.251299
0.042223 0.037501 0.251449
0.043472 0.037535 0.251754
0.044638 0.037497 0.251586
0.045808 0.037466 0.251454
0.047058 0.037499 0.251762
0.048139 0.037399 0.251172
0.049333 0.037390 0.251196
0.050553 0.037399 0.251348
0.051537 0.037239 0.250353
0.051961 0.036690 0.246747
0.052184 0.036026 0.242369
0.052959 0.035765 0.240695
0.053909 0.035630 0.239868
0.054930 0.035547 0.239391
0.055917 0.035445 0.238785
0.056618 0.035170 0.237012
0.056836 0.034611 0.233328
0.057603 0.034402 0.231996
0.058380 0.034207 0.230757
0.059261 0.034079 0.229966
0.060047 0.033901 0.228844
0.060953 0.033797 0.228210
0.061799 0.033663 0.227380
0.062610 0.033515 0.226453
0.063484 0.033406 0.225781
0.064376 0.033309 0.225196
0.065327 0.033246 0.224832
0.065992 0.033041 0.223509
0.066830 0.032928 0.222807
0.067568 0.032770 0.221799
0.068276 0.032603 0.220721
0.068914 0.032407 0.219453
0.069721 0.032297 0.218754
0.070256 0.032064 0.217229
0.070774 0.031831 0.215695
0.071453 0.031676 0.214689
0.072074 0.031500 0.213536
0.072743 0.031350 0.212555
0.073326 0.031167 0.211347
0.073731 0.030915 0.209666
0.074245 0.030714 0.208331
0.074497 0.030411 0.206302
0.073787 0.029729 0.201695
0.074279 0.029543 0.200444
0.074596 0.029292 0.198758
0.075439 0.029252 0.198492
0.075494 0.028911 0.196181
0.075480 0.028551 0.193745
0.075586 0.028246 0.191668
0.075992 0.028058 0.190390
0.076658 0.027970 0.189781
0.077230 0.027850 0.188950
0.077525 0.027634 0.187465
0.078084 0.027516 0.186639
0.078536 0.027363 0.185573
0.079149 0.027269 0.184903
0.079840 0.027204 0.184422
0.080230 0.027039 0.183258
0.080635 0.026882 0.182145
0.081080 0.026742 0.181143
0.081556 0.026615 0.180221
0.082091 0.026509 0.179442
0.082605 0.026399 0.178627
0.082843 0.026204 0.177230
0.082611 0.025866 0.174862
0.082854 0.025681 0.173528
0.083196 0.025531 0.172421
0.083518 0.025377 0.171286
0.083618 0.025160 0.169713
0.083956 0.025018 0.168645
0.084417 0.024914 0.167831
0.084847 0.024804 0.166964
0.085501 0.024760 0.166539
0.085837 0.024626 0.165500
0.086315 0.024535 0.164742
-0.989589 0.296878 1.954113
-0.973981 0.294948 1.942599
-0.966957 0.295604 1.948044
-0.960611 0.296483 1.954883
-0.951052 0.296378 1.955162
-0.941245 0.296192 1.954841
-0.931923 0.296157 1.955444
-0.924868 0.296849 1.960783
-0.920212 0.298333 1.971292
-0.919528 0.301148 1.990542
-0.911539 0.301604 1.994144
-0.909376 0.304017 2.010634
-0.897464 0.303188 2.005620
-0.859878 0.293575 1.942434
-0.832735 0.287360 1.901652
-0.825172 0.287840 1.905120
-0.813309 0.286814 1.898568
-0.795806 0.283755 1.878504
-1.412948 0.509456 3.372941
-1.393084 0.507992 3.363426
-1.368123 0.504615 3.341161
-1.365013 0.509312 3.372285
-1.346519 0.508313 3.365615
-1.326743 0.506800 3.355475
-1.314373 0.508114 3.363983
-1.301792 0.509377 3.372090
-1.288791 0.510505 3.379236
-0.869742 0.353222 2.337544
-0.845292 0.347687 2.300566
-0.842315 0.350954 2.321802
-0.289231 0.154588 1.017789
-0.284420 0.154589 1.017417
-0.280060 0.154840 1.018681
-0.275418 0.154940 1.018949
-0.270789 0.155051 1.019284
-0.266134 0.155151 1.019542
-0.261248 0.155118 1.018919
-0.256000 0.154865 1.016848
-0.250876 0.154678 1.015210
-0.245125 0.154090 1.010937
-0.239643 0.153652 1.007644
-0.233968 0.153069 1.003409
-0.229524 0.153284 1.004402
-0.055227 0.037666 0.246704
-0.053731 0.037441 0.245128
-0.050817 0.036196 0.236878
-0.049360 0.035955 0.235206
-0.048258 0.035969 0.235196
-0.047211 0.036025 0.235463
-0.045205 0.035333 0.230849
-0.043849 0.035128 0.229416
-0.042544 0.034955 0.228189
-0.041156 0.034703 0.226451
-0.040117 0.034739 0.226594
-0.039173 0.034862 0.227307
-0.037830 0.034627 0.225686
-0.036565 0.034451 0.224452
-0.034944 0.033919 0.220902
-0.032220 0.032250 0.209952
-0.031274 0.032311 0.210266
-0.030378 0.032429 0.210961
-0.029408 0.032473 0.211167
-0.028585 0.032689 0.212499
-0.027917 0.033104 0.215123
-0.027090 0.033356 0.216684
-0.026137 0.033467 0.217334
-0.025186 0.033589 0.218054
-0.024226 0.033710 0.218769
-0.023265 0.033839 0.219545
-0.022313 0.033996 0.220493
-0.021385 0.034207 0.221800
-0.020373 0.034297 0.222321
-0.019332 0.034346 0.222580
-0.018336 0.034486 0.223431
-0.017307 0.034578 0.223971
-0.016270 0.034665 0.224483
-0.015233 0.034764 0.225075
-0.014187 0.034856 0.225621
-0.013123 0.034918 0.225977
-0.012094 0.035089 0.227040
-0.011022 0.035162 0.227470
-0.009986 0.035372 0.228795
-0.008908 0.035473 0.229413
-0.007801 0.035469 0.229355
-0.006713 0.035560 0.229915
-0.005620 0.035664 0.230557
-0.004514 0.035708 0.230820
-0.003404 0.035751 0.231076
-0.002296 0.035853 0.231714
-0.001182 0.035985 0.232556
-0.000060 0.036092 0.233237
0.001069 0.036189 0.233855
0.002202 0.036257 0.234284
0.003338 0.036318 0.234677
0.004484 0.036422 0.235351
0.005648 0.036605 0.236538
0.006818 0.036756 0.237518
0.008000 0.036916 0.238561
0.009157 0.036940 0.238732
0.010335 0.037031 0.239330
0.011503 0.037071 0.239609
0.012677 0.037121 0.239955
0.013860 0.037186 0.240399
0.015052 0.037264 0.240932
0.016262 0.037374 0.241673
0.017461 0.037444 0.242156
0.018646 0.037476 0.242401
0.019851 0.037542 0.242868
0.021090 0.037663 0.243689
0.022295 0.037713 0.244057
0.023523 0.037793 0.244623
0.024754 0.037871 0.245180
0.025986 0.037944 0.245703
0.027231 0.038029 0.246304
0.028490 0.038124 0.246982
0.029745 0.038208 0.247579
0.031005 0.038290 0.248177
0.032247 0.038345 0.248598
0.033519 0.038430 0.249214
0.034770 0.038487 0.249649
0.036021 0.038539 0.250054
0.037264 0.038580 0.250393
0.038518 0.038629 0.250784
0.039707 0.038611 0.250745
0.040947 0.038643 0.251030
0.042189 0.038675 0.251315
0.043365 0.038647 0.251208
0.044610 0.038679 0.251502
0.045869 0.038721 0.251856
0.047018 0.038671 0.251612
0.048162 0.038620 0.251359
0.049366 0.038617 0.251425
0.050544 0.038596 0.251369
0.051365 0.038308 0.249578
0.051689 0.037672 0.245518
0.051838 0.036939 0.240821
0.052829 0.036824 0.240157
0.053773 0.036683 0.239316
0.054835 0.036627 0.239028
0.055651 0.036411 0.237703
0.056620 0.036303 0.237073
0.057122 0.035905 0.234552
0.057527 0.035462 0.231736
0.058413 0.035327 0.230931
0.059129 0.035096 0.229496
0.059926 0.034921 0.228424
0.060817 0.034806 0.227741
0.061683 0.034681 0.226993
0.062525 0.034547 0.226184
0.063347 0.034406 0.225332
0.064312 0.034347 0.225006
0.065165 0.034230 0.224306
0.066011 0.034114 0.223606
0.066892 0.034019 0.223045
0.067501 0.033791 0.221606
0.068168 0.033599 0.220398
0.068911 0.033449 0.219470
0.069541 0.033249 0.218210
0.070216 0.033077 0.217128
0.070892 0.032910 0.216075
0.071604 0.032765 0.215161
0.072173 0.032559 0.213846
0.072752 0.032363 0.212595
0.073125 0.032082 0.210782
0.073711 0.031901 0.209620
0.073892 0.031552 0.207351
0.074672 0.031464 0.206795
0.074989 0.031186 0.204987
0.075187 0.030866 0.202901
0.074820 0.030325 0.199356
0.074658 0.029880 0.196438
0.074898 0.029605 0.194631
0.075405 0.029441 0.193551
0.075729 0.029210 0.192031
0.075937 0.028941 0.190249
0.076343 0.028752 0.188994
0.076712 0.028554 0.187677
0.077075 0.028358 0.186369
0.077693 0.028260 0.185694
0.078122 0.028095 0.184583
0.078787 0.028019 0.184045
0.079559 0.027981 0.183758
0.080095 0.027862 0.182933
0.080582 0.027729 0.182010
0.081272 0.027668 0.181552
0.081634 0.027498 0.180373
0.082113 0.027370 0.179467
0.082682 0.027274 0.178769
0.083048 0.027114 0.177644
0.083304 0.026922 0.176301
0.083126 0.026595 0.174070
0.083273 0.026377 0.172549
0.083594 0.026218 0.171410
0.083914 0.026061 0.170281
0.084216 0.025903 0.169132
0.084279 0.025674 0.167519
0.084876 0.025611 0.166982
0.085590 0.025584 0.166673
0.085816 0.025413 0.165418
0.086006 0.025235 0.164110
-0.989174 0.306018 1.952912
-0.970649 0.303115 1.935595
-0.956133 0.301420 1.925903
-0.950183 0.302420 1.933345
-0.948614 0.304846 1.949850
-0.938192 0.304447 1.948220
-0.929951 0.304756 1.951046
-0.923961 0.305816 1.958617
-0.917512 0.306743 1.965282
-0.920088 0.313936 2.012655
-0.903506 0.311483 1.997481
-0.896990 0.312486 2.004405
-0.852160 0.300022 1.924868
-0.833787 0.296704 1.903942
-0.826447 0.297284 1.907965
-0.809644 0.294434 1.889933
-0.794747 0.292223 1.875944
-1.412125 0.525052 3.370893
-1.384423 0.520592 3.342459
-1.373542 0.522427 3.354367
-1.359948 0.523261 3.359772
-1.346313 0.524099 3.365128
-1.327461 0.522902 3.357346
-1.310541 0.522446 3.354259
-1.299033 0.524163 3.365055
-0.849230 0.360209 2.311431
-0.298003 0.161561 1.032068
-0.289844 0.159752 1.020148
-0.284691 0.159566 1.018594
-0.279892 0.159577 1.018285
-0.275414 0.159774 1.019156
-0.270818 0.159908 1.019622
-0.265834 0.159814 1.018631
-0.260964 0.159786 1.018053
-0.255917 0.159648 1.016769
-0.250879 0.159509 1.015480
-0.244923 0.158770 1.010368
-0.240202 0.158818 1.010264
-0.234791 0.158403 1.007211
-0.228855 0.157609 1.001753
-0.054154 0.038913 0.247129
-0.053050 0.038966 0.247360
-0.051501 0.038686 0.245484
-0.048891 0.037578 0.238352
-0.047550 0.037416 0.237228
-0.044756 0.036074 0.228630
-0.043301 0.035772 0.226624
-0.042068 0.035644 0.225717
-0.040544 0.035254 0.223162
-0.039509 0.035281 0.223243
-0.038514 0.035345 0.223562
-0.037038 0.034960 0.221038
-0.035558 0.034549 0.218352
-0.033901 0.033935 0.214390
-0.032153 0.033188 0.209597
-0.031194 0.033235 0.209810
-0.030296 0.033351 0.210471
-0.029352 0.033423 0.210850
-0.028423 0.033519 0.211379
-0.027934 0.034160 0.215347
-0.027044 0.034340 0.216407
-0.026153 0.034534 0.217561
-0.025202 0.034660 0.218287
-0.024251 0.034799 0.219091
-0.023257 0.034885 0.219565
-0.022284 0.035013 0.220308
-0.021295 0.035127 0.220965
-0.020263 0.035179 0.221230
-0.019248 0.035267 0.221721
-0.018247 0.035392 0.222455
-0.017263 0.035570 0.223516
-0.016227 0.035654 0.223996
-0.015188 0.035748 0.224533
-0.014148 0.035850 0.225128
-0.013123 0.036010 0.226084
-0.012076 0.036136 0.226837
-0.011025 0.036273 0.227656
-0.009948 0.036345 0.228071
-0.008877 0.036460 0.228755
-0.007801 0.036583 0.229495
-0.006685 0.036526 0.229110
-0.005613 0.036739 0.230420
-0.004525 0.036925 0.231562
-0.003414 0.036992 0.231963
-0.002291 0.036928 0.231544
-0.001180 0.037110 0.232672
-0.000058 0.037140 0.232845
0.001067 0.037205 0.233248
0.002200 0.037337 0.234066
0.003360 0.037679 0.236207
0.004495 0.037641 0.235970
0.005639 0.037675 0.236189
0.006794 0.037759 0.236717
0.007958 0.037861 0.237366
0.009166 0.038121 0.239011
0.010326 0.038147 0.239190
0.011493 0.038187 0.239454
0.012671 0.038255 0.239903
0.013842 0.038292 0.240161
0.015023 0.038349 0.240547
0.016230 0.038459 0.241267
0.017452 0.038587 0.242103
0.018635 0.038618 0.242329
0.019846 0.038701 0.242887
0.021059 0.038778 0.243412
0.022315 0.038921 0.244351
0.023535 0.038989 0.244830
0.024726 0.039007 0.244986
0.025984 0.039122 0.245761
0.027216 0.039191 0.246252
0.028500 0.039326 0.247152
0.029733 0.039381 0.247560
0.030965 0.039431 0.247935
0.032190 0.039469 0.248231
0.033491 0.039594 0.249084
0.034749 0.039661 0.249575
0.035987 0.039702 0.249897
0.037242 0.039758 0.250322
0.038521 0.039835 0.250881
0.039767 0.039874 0.251199
0.040969 0.039868 0.251237
0.042168 0.039861 0.251266
0.043386 0.039869 0.251399
0.044503 0.039788 0.250963
0.045717 0.039795 0.251091
0.046915 0.039789 0.251129
0.047902 0.039608 0.250069
0.049246 0.039724 0.250881
0.050356 0.039650 0.250496
0.051150 0.039337 0.248601
0.051327 0.038573 0.243857
0.051684 0.037976 0.240162
0.052621 0.037822 0.239267
0.053800 0.037845 0.239493
0.054649 0.037640 0.238271
0.055451 0.037411 0.236903
0.055503 0.036695 0.232446
0.056675 0.036734 0.232766
0.057641 0.036640 0.232244
0.058316 0.036368 0.230592
0.059198 0.036233 0.229810
0.060007 0.036059 0.228777
0.060817 0.035891 0.227785
0.061676 0.035757 0.227005
0.062534 0.035629 0.226255
0.063087 0.035333 0.224440
0.063896 0.035188 0.223584
0.065210 0.035322 0.224495
0.065515 0.034913 0.221958
0.066361 0.034801 0.221305
0.067268 0.034724 0.220869
0.068039 0.034580 0.220007
0.068808 0.034440 0.219165
0.069526 0.034279 0.218188
0.070198 0.034100 0.217093
0.070879 0.033930 0.216057
0.071494 0.033734 0.214848
0.072175 0.033575 0.213869
0.072761 0.033376 0.212638
0.073303 0.033163 0.211310
0.073676 0.032880 0.209533
0.074348 0.032736 0.208641
0.074862 0.032527 0.207329
0.074954 0.032143 0.204898
0.074571 0.031568 0.201243
0.075051 0.031367 0.199975
0.074857 0.030894 0.196963
0.075429 0.030745 0.196013
0.074593 0.030032 0.191467
0.075100 0.029871 0.190430
0.075185 0.029548 0.188361
0.075949 0.029496 0.188015
0.076477 0.029354 0.187093
0.077068 0.029240 0.186342
0.077776 0.029172 0.185883
0.078323 0.029046 0.185045
0.078867 0.028921 0.184217
0.079471 0.028821 0.183538
0.080123 0.028741 0.182979
0.080652 0.028619 0.182147
0.081067 0.028459 0.181073
0.081573 0.028334 0.180215
0.082143 0.028234 0.179510
0.082623 0.028105 0.178617
0.083094 0.027975 0.177716
0.082820 0.027600 0.175249
0.082752 0.027301 0.173257
0.083130 0.027153 0.172223
0.083464 0.026993 0.171109
0.083699 0.026805 0.169810
0.084119 0.026680 0.168900
0.084393 0.026511 0.167708
0.084965 0.026438 0.167118
0.085559 0.026372 0.166570
0.085910 0.026234 0.165555
0.086339 0.026122 0.164698
-0.976138 0.311128 1.926780
-0.970756 0.312326 1.935434
-0.966078 0.313776 1.945579
-0.953274 0.312588 1.939299
-0.945003 0.312879 1.942113
-0.938720 0.313841 1.949023
-0.930836 0.314280 1.952626
-0.924074 0.315112 1.958600
-0.920889 0.317192 1.972276
-0.927684 0.322787 2.007762
-0.919607 0.323270 2.011397
-0.923349 0.327961 2.041163
-0.915134 0.328458 2.044780
-0.847928 0.307569 1.915167
-0.826348 0.302959 1.886833
-0.817235 0.302869 1.886593
-0.808340 0.302858 1.886801
-0.790409 0.299425 1.865632
-1.407710 0.539255 3.360256
-1.386733 0.537246 3.347969
-1.363224 0.534198 3.329129
-1.359743 0.539019 3.359254
-1.343285 0.538749 3.357577
-1.326608 0.538384 3.355235
-1.318493 0.541527 3.374686
-1.297979 0.539592 3.362426
-0.863402 0.372538 2.320761
-0.852217 0.372418 2.319707
-0.842665 0.373018 2.323098
-0.297749 0.166309 1.031387
-0.289489 0.164386 1.019103
-0.284318 0.164181 1.017471
-0.280081 0.164519 1.019191
-0.275340 0.164566 1.019106
-0.270500 0.164555 1.018659
-0.265722 0.164583 1.018442
-0.260876 0.164569 1.017961
-0.255524 0.164228 1.015461
-0.250641 0.164182 1.014778
-0.244786 0.163485 1.010067
-0.239769 0.163331 1.008716
-0.234044 0.162679 1.004287
-0.229594 0.162905 1.005277
-0.053160 0.040229 0.247948
-0.051094 0.039543 0.243621
-0.049145 0.038917 0.239667
-0.047811 0.038760 0.238608
-0.046621 0.038715 0.238234
-0.044802 0.038133 0.234560
-0.042796 0.037358 0.229700
-0.040045 0.035875 0.220493
-0.038846 0.035739 0.219573
-0.037190 0.035164 0.215957
-0.036998 0.035980 0.220881
-0.034278 0.034314 0.210571
-0.032889 0.033918 0.208065
-0.032021 0.034053 0.208813
-0.031159 0.034203 0.209660
-0.030137 0.034182 0.209452
-0.029235 0.034299 0.210098
-0.028344 0.034438 0.210877
-0.028036 0.035323 0.216219
-0.027048 0.035386 0.216537
-0.026109 0.035520 0.217285
-0.025154 0.035643 0.217966
-0.024108 0.035642 0.217894
-0.023158 0.035789 0.218731
-0.022160 0.035874 0.219184
-0.021240 0.036098 0.220492
-0.020237 0.036199 0.221047
-0.019246 0.036333 0.221807
-0.018234 0.036441 0.222410
-0.017249 0.036619 0.223446
-0.016220 0.036721 0.224017
-0.015186 0.036827 0.224614
-0.014148 0.036937 0.225236
-0.013090 0.037012 0.225652
-0.012046 0.037141 0.226396
-0.010985 0.037239 0.226955
-0.009915 0.037324 0.227433
-0.008841 0.037417 0.227965
-0.007754 0.037467 0.228238
-0.006676 0.037587 0.228945
-0.005587 0.037684 0.229510
-0.004516 0.037983 0.231302
-0.003409 0.038071 0.231821
-0.002292 0.038074 0.231818
-0.001179 0.038223 0.232714
-0.000057 0.038297 0.233154
0.001069 0.038325 0.233312
0.002201 0.038454 0.234096
0.003340 0.038570 0.234795
0.004481 0.038642 0.235234
0.005631 0.038744 0.235857
0.006792 0.038881 0.236697
0.007983 0.039119 0.238155
0.009157 0.039229 0.238835
0.010332 0.039315 0.239374
0.011495 0.039344 0.239568
0.012667 0.039395 0.239904
0.013840 0.039440 0.240198
0.015015 0.039483 0.240486
0.016233 0.039625 0.241383
0.017454 0.039755 0.242205
0.018669 0.039855 0.242849
0.019856 0.039888 0.243088
0.021118 0.040058 0.244162
0.022331 0.040123 0.244602
0.023565 0.040218 0.245226
0.024740 0.040207 0.245206
0.025964 0.040272 0.245656
0.027217 0.040374 0.246331
0.028500 0.040511 0.247223
0.029721 0.040553 0.247533
0.030917 0.040559 0.247631
0.032159 0.040621 0.248073
0.033372 0.040644 0.248277
0.034628 0.040717 0.248784
0.035902 0.040804 0.249385
0.037140 0.040846 0.249709
0.038406 0.040916 0.250208
0.039668 0.040977 0.250653
0.040927 0.041031 0.251059
0.042099 0.040996 0.250922
0.043313 0.041004 0.251048
0.044524 0.041009 0.251155
0.045654 0.040941 0.250816
0.046827 0.040914 0.250727
0.047954 0.040849 0.250410
0.049055 0.040765 0.249974
0.050278 0.040784 0.250174
0.051243 0.040598 0.249114
0.050558 0.039143 0.240261
0.051472 0.038963 0.239236
0.052417 0.038814 0.238398
0.053555 0.038811 0.238457
0.054454 0.038639 0.237476
0.055477 0.038559 0.237065
0.056384 0.038404 0.236187
0.056446 0.037691 0.231872
0.057418 0.037601 0.231393
0.058422 0.037535 0.231060
0.059163 0.037306 0.229719
0.059989 0.037137 0.228750
0.060799 0.036965 0.227758
0.061679 0.036840 0.227056
0.062446 0.036654 0.225972
0.063112 0.036415 0.224565
0.063962 0.036289 0.223851
0.064944 0.036241 0.223613
0.065604 0.036017 0.222290
0.066363 0.035854 0.221339
0.067170 0.035722 0.220575
0.067970 0.035589 0.219810
0.068686 0.035418 0.218802
0.069336 0.035219 0.217615
0.070005 0.035034 0.216519
0.070789 0.034911 0.215801
0.071397 0.034707 0.214576
0.072054 0.034532 0.213528
0.072539 0.034280 0.212003
0.073111 0.034076 0.210767
0.073543 0.033813 0.209166
0.074121 0.033623 0.208013
0.074706 0.033441 0.206905
0.074963 0.033119 0.204930
0.074975 0.032698 0.202338
0.075047 0.032314 0.199969
0.075507 0.032105 0.198675
0.075247 0.031598 0.195539
0.074975 0.031099 0.192445
0.075165 0.030801 0.190593
0.075590 0.030605 0.189370
0.076092 0.030444 0.188361
0.076729 0.030341 0.187702
0.077178 0.030167 0.186598
0.077834 0.030076 0.186008
0.078490 0.029988 0.185426
0.078987 0.029841 0.184482
0.079581 0.029734 0.183775
0.080177 0.029630 0.183085
0.080604 0.029466 0.182019
0.081110 0.029335 0.181147
0.081435 0.029141 0.179887
0.081954 0.029020 0.179071
0.082412 0.028881 0.178134
0.082839 0.028733 0.177142
0.082738 0.028407 0.175045
0.082965 0.028199 0.173671
0.083549 0.028115 0.173057
0.083799 0.027921 0.171761
0.083799 0.027649 0.169978
0.084133 0.027491 0.168890
0.084606 0.027381 0.168091
0.084994 0.027246 0.167133
0.085526 0.027159 0.166462
0.086016 0.027061 0.165714
0.086408 0.026934 0.164783
-0.979243 0.321289 1.932494
-0.968882 0.320883 1.931306
-0.958787 0.320558 1.930524
-0.953752 0.321936 1.939921
-0.946496 0.322582 1.944850
-0.936229 0.322206 1.943539
-0.929076 0.322904 1.948645
-0.926808 0.325331 1.964121
-0.919486 0.326015 1.969019
-0.929459 0.332908 2.011367
-0.921358 0.333403 2.015009
-0.909110 0.332391 2.009488
-0.911136 0.336633 2.035666
-0.846865 0.316209 1.912613
-0.825569 0.311566 1.884921
-0.812957 0.310136 1.876604
-0.806832 0.311176 1.883184
-0.789338 0.307806 1.863027
-1.406850 0.554761 3.358092
-1.383035 0.551557 3.338959
-1.361312 0.549123 3.324409
-1.358000 0.554146 3.354927
-1.341470 0.553829 3.353046
-1.327380 0.554525 3.357224
-1.317613 0.557066 3.372499
-1.297702 0.555328 3.361801
-0.862793 0.383214 2.319248
-0.856397 0.385241 2.331228
-0.837974 0.381841 2.310324
-0.298719 0.171754 1.034949
-0.289500 0.169223 1.019348
-0.283987 0.168809 1.016500
-0.279322 0.168894 1.016648
-0.275038 0.169216 1.018218
-0.270345 0.169294 1.018312
-0.265526 0.169294 1.017930
-0.260772 0.169337 1.017802
-0.255553 0.169073 1.015829
-0.250281 0.168764 1.013580
-0.245027 0.168456 1.011335
-0.239577 0.167997 1.008187
-0.233216 0.166868 1.001017
-0.051242 0.040822 0.244401
-0.050144 0.040875 0.244620
-0.048556 0.040521 0.242403
-0.046534 0.039779 0.237869
-0.044797 0.039250 0.234611
-0.043124 0.038751 0.231540
-0.041969 0.038704 0.231169
-0.040422 0.038283 0.228566
-0.039933 0.038868 0.231968
-0.038634 0.038676 0.230735
-0.034180 0.035221 0.210048
-0.032960 0.034991 0.208598
-0.032095 0.035136 0.209383
-0.031143 0.035191 0.209635
-0.030163 0.035216 0.209714
-0.029213 0.035281 0.210025
-0.028276 0.035367 0.210463
-0.027243 0.035334 0.210198
-0.026926 0.036263 0.215653
-0.025991 0.036400 0.216398
-0.025018 0.036494 0.216890
-0.023979 0.036495 0.216830
-0.023046 0.036665 0.217775
-0.022033 0.036718 0.218027
-0.021061 0.036849 0.218744
-0.020091 0.036996 0.219561
-0.019096 0.037110 0.220183
-0.018237 0.037520 0.222555
-0.017242 0.037681 0.223461
-0.016220 0.037804 0.224137
-0.015170 0.037872 0.224491
-0.014139 0.038001 0.225212
-0.013084 0.038086 0.225672
-0.012037 0.038209 0.226358
-0.010983 0.038329 0.227030
-0.009894 0.038344 0.227083
-0.008827 0.038461 0.227742
-0.007747 0.038542 0.228189
-0.006638 0.038483 0.227813
-0.005597 0.038871 0.230083
-0.004509 0.039054 0.231146
-0.003400 0.039100 0.231396
-0.002289 0.039172 0.231805
-0.001175 0.039279 0.232426
-0.000055 0.039389 0.233063
0.001070 0.039447 0.233398
0.002201 0.039553 0.234017
0.003337 0.039645 0.234562
0.004472 0.039677 0.234750
0.005615 0.039756 0.235222
0.006765 0.039854 0.235806
0.007948 0.040084 0.237174
0.009134 0.040272 0.238297
0.010309 0.040373 0.238910
0.011473 0.040414 0.239171
0.012650 0.040491 0.239643
0.013818 0.040528 0.239889
0.015007 0.040616 0.240436
0.016233 0.040785 0.241464
0.017502 0.041030 0.242945
0.018684 0.041054 0.243125
0.019888 0.041121 0.243554
0.021097 0.041190 0.244005
0.022341 0.041316 0.244795
0.023554 0.041376 0.245192
0.024747 0.041395 0.245353
0.025959 0.041443 0.245685
0.027177 0.041496 0.246049
0.028403 0.041556 0.246462
0.029631 0.041614 0.246863
0.030870 0.041683 0.247328
0.032097 0.041731 0.247678
0.033322 0.041772 0.247984
0.034615 0.041893 0.248764
0.035837 0.041923 0.249010
0.037084 0.041980 0.249412
0.038338 0.042040 0.249840
0.039575 0.042078 0.250135
0.040788 0.042089 0.250277
0.042012 0.042111 0.250479
0.043214 0.042110 0.250547
0.044391 0.042086 0.250478
0.045593 0.042085 0.250550
0.046748 0.042042 0.250374
0.047889 0.041989 0.250136
0.049058 0.041963 0.250058
0.050205 0.041919 0.249877
0.051154 0.041717 0.248748
0.050350 0.040125 0.239337
0.051284 0.039959 0.238421
0.052207 0.039792 0.237499
0.053279 0.039743 0.237284
0.054237 0.039613 0.236582
0.055166 0.039468 0.235788
0.056070 0.039310 0.234923
0.056922 0.039124 0.233879
0.057742 0.038922 0.232746
0.058351 0.038589 0.230823
0.059054 0.038329 0.229340
0.059837 0.038129 0.228213
0.060506 0.037865 0.226700
0.061412 0.037757 0.226116
0.062150 0.037550 0.224941
0.062907 0.037362 0.223874
0.063840 0.037283 0.223459
0.064667 0.037145 0.222690
0.065482 0.037005 0.221907
0.066255 0.036846 0.221011
0.067145 0.036756 0.220523
0.067916 0.036605 0.219665
0.068565 0.036393 0.218440
0.069249 0.036206 0.217363
0.069903 0.036009 0.216224
0.070655 0.035868 0.215412
0.071318 0.035686 0.214356
0.071957 0.035497 0.213254
0.072421 0.035228 0.211672
0.072871 0.034960 0.210087
0.073534 0.034800 0.209150
0.074050 0.034576 0.207822
0.074694 0.034417 0.206880
0.074930 0.034076 0.204844
0.075176 0.033748 0.202883
0.075132 0.033300 0.200196
0.075620 0.033096 0.198973
0.075981 0.032842 0.197444
0.076287 0.032571 0.195810
0.075785 0.031966 0.192160
0.075906 0.031635 0.190155
0.076057 0.031323 0.188266
0.076442 0.031115 0.186991
0.077011 0.030985 0.186182
0.077630 0.030878 0.185507
0.078122 0.030723 0.184544
0.078706 0.030608 0.183810
0.079188 0.030456 0.182852
0.079888 0.030390 0.182405
0.080515 0.030298 0.181798
0.080943 0.030134 0.180752
0.081313 0.029952 0.179594
0.081770 0.029805 0.178643
0.082294 0.029686 0.177851
0.082696 0.029525 0.176806
0.082857 0.029283 0.175266
0.082836 0.028981 0.173368
0.082918 0.028722 0.171714
0.083314 0.028575 0.170730
0.083723 0.028435 0.169785
0.084128 0.028297 0.168840
0.084291 0.028080 0.167424
0.084666 0.027938 0.166444
0.085344 0.027897 0.166063
0.085837 0.027798 0.165322
0.086167 0.027647 0.164273
-0.980513 0.330891 1.934567
-0.972282 0.331202 1.937669
-0.967087 0.332564 1.946843
-0.952694 0.330759 1.937400
-0.942712 0.330465 1.936728
-0.934949 0.330951 1.940557
-0.927641 0.331609 1.945328
-0.925989 0.334323 1.962099
-0.920066 0.335534 1.969994
-0.924898 0.340731 2.001245
-0.916828 0.341234 2.004869
-0.907014 0.341091 2.004642
-0.898484 0.341434 2.007207
-0.890383 0.341949 2.010726
-0.821370 0.318830 1.875191
-0.818088 0.321002 1.888322
-0.802907 0.318502 1.873918
-0.789010 0.316461 1.862164
-1.407354 0.570801 3.359166
-1.384549 0.567922 3.342518
-1.363661 0.565772 3.330079
-1.357542 0.569772 3.353760
-1.340578 0.569260 3.350812
-1.324057 0.568927 3.348842
-1.307797 0.568699 3.347426
-1.296805 0.570784 3.359558
-0.861052 0.393357 2.314684
-0.852359 0.394369 2.320371
-0.854129 0.400312 2.355025
-0.298342 0.176434 1.033845
-0.289768 0.174215 1.020499
-0.284049 0.173666 1.016935
-0.279479 0.173813 1.017441
-0.275039 0.174048 1.018452
-0.270414 0.174171 1.018808
-0.265396 0.174042 1.017680
-0.260366 0.173900 1.016469
-0.254834 0.173411 1.013231
-0.248983 0.172682 1.008589
-0.244160 0.172652 1.008029
-0.239717 0.172894 1.009053
-0.043410 0.040122 0.233158
-0.042349 0.040170 0.233345
-0.041244 0.040176 0.233295
-0.039888 0.039933 0.231795
-0.038590 0.039735 0.230562
-0.035337 0.037453 0.217239
-0.033578 0.036665 0.212591
-0.031968 0.035996 0.208635
-0.031066 0.036106 0.209201
-0.030082 0.036126 0.209239
-0.029183 0.036252 0.209902
-0.028222 0.036307 0.210146
-0.027586 0.036801 0.212938
-0.026820 0.037152 0.214898
-0.025926 0.037347 0.215958
-0.024956 0.037444 0.216452
-0.023957 0.037503 0.216729
-0.022964 0.037578 0.217099
-0.022024 0.037752 0.218040
-0.021085 0.037945 0.219096
-0.020104 0.038078 0.219807
-0.019079 0.038137 0.220093
-0.018055 0.038207 0.220443
-0.017208 0.038683 0.223135
-0.016174 0.038776 0.223620
-0.015169 0.038953 0.224594
-0.014102 0.038989 0.224756
-0.013055 0.039088 0.225284
-0.012011 0.039216 0.225982
-0.010955 0.039328 0.226584
-0.009887 0.039416 0.227057
-0.008799 0.039439 0.227157
-0.007731 0.039565 0.227851
-0.006641 0.039607 0.228065
-0.005546 0.039632 0.228183
-0.004501 0.040108 0.230903
-0.003401 0.040255 0.231730
-0.002286 0.040268 0.231784
-0.001173 0.040411 0.232595
-0.000053 0.040503 0.233114
0.001071 0.040527 0.233243
0.002200 0.040627 0.233809
0.003335 0.040731 0.234407
0.004487 0.040934 0.235576
0.005636 0.041034 0.236155
0.006786 0.041102 0.236549
0.007939 0.041173 0.236965
0.009114 0.041321 0.237831
0.010296 0.041466 0.238678
0.011463 0.041525 0.239035
0.012636 0.041593 0.239445
0.013805 0.041641 0.239744
0.014967 0.041658 0.239869
0.016189 0.041829 0.240882
0.017380 0.041903 0.241338
0.018635 0.042111 0.242571
0.019891 0.042297 0.243674
0.021055 0.042277 0.243601
0.022277 0.042368 0.244168
0.023536 0.042520 0.245085
0.024751 0.042579 0.245469
0.025936 0.042584 0.245546
0.027152 0.042637 0.245907
0.028368 0.042687 0.246246
0.029595 0.042747 0.246648
0.030826 0.042808 0.247059
0.032039 0.042841 0.247309
0.033262 0.042884 0.247618
0.034530 0.042981 0.248239
0.035782 0.043051 0.248707
0.037003 0.043081 0.248948
0.038259 0.043148 0.249404
0.039519 0.043215 0.249861
0.040780 0.043280 0.250305
0.041959 0.043256 0.250242
0.043129 0.043224 0.250128
0.044316 0.043211 0.250129
0.045463 0.043160 0.249908
0.046647 0.043146 0.249905
0.047681 0.042997 0.249118
0.048853 0.042978 0.249083
0.050078 0.043004 0.249311
0.050943 0.042727 0.247782
0.050467 0.041364 0.239955
0.051490 0.041263 0.239440
0.052190 0.040913 0.237483
0.053373 0.040948 0.237762
0.054080 0.040624 0.235954
0.055057 0.040512 0.235377
0.055891 0.040301 0.234224
0.056697 0.040079 0.233003
0.057441 0.039822 0.231581
0.058191 0.039579 0.230237
0.059034 0.039407 0.229305
0.059841 0.039218 0.228270
0.060510 0.038947 0.226755
0.061326 0.038778 0.225838
0.062104 0.038591 0.224811
0.062887 0.038414 0.223838
0.063605 0.038203 0.222669
0.064456 0.038079 0.221998
0.065271 0.037937 0.221224
0.066100 0.037807 0.220521
0.066940 0.037688 0.219875
0.067763 0.037563 0.219196
0.068417 0.037350 0.217995
0.069181 0.037202 0.217174
0.069908 0.037038 0.216260
0.070541 0.036830 0.215083
0.071203 0.036644 0.214027
0.071943 0.036502 0.213229
0.072478 0.036261 0.211851
0.072763 0.035904 0.209788
0.073173 0.035617 0.208135
0.073764 0.035424 0.207029
0.074391 0.035254 0.206049
0.075068 0.035111 0.205226
0.075366 0.034798 0.203400
0.075324 0.034337 0.200709
0.075653 0.034054 0.199059
0.076113 0.033837 0.197787
0.075898 0.033329 0.194806
0.074887 0.032488 0.189878
0.075405 0.032322 0.188894
0.076059 0.032217 0.188262
0.076687 0.032104 0.187578
0.077259 0.031971 0.186769
0.077786 0.031822 0.185867
0.078293 0.031668 0.184932
0.078737 0.031493 0.183866
0.079258 0.031352 0.182994
0.079827 0.031232 0.182244
0.080410 0.031121 0.181538
0.080741 0.030915 0.180275
0.081168 0.030751 0.179248
0.081566 0.030579 0.178170
0.082171 0.030487 0.177556
0.082558 0.030316 0.176479
0.082730 0.030071 0.174964
0.082617 0.029729 0.172875
0.082775 0.029490 0.171382
0.083149 0.029331 0.170355
0.083418 0.029139 0.169127
0.083710 0.028959 0.167959
0.084255 0.028869 0.167310
0.084653 0.028730 0.166373
0.085125 0.028619 0.165589
0.085596 0.028510 0.164808
0.086229 0.028456 0.164340
-0.988390 0.342807 1.949648
-0.980475 0.343264 1.953560
-0.967593 0.341974 1.947451
-0.959182 0.342254 1.950205
-0.946209 0.340897 1.943548
-0.937105 0.340921 1.944689
-0.930489 0.341860 1.950978
-0.926586 0.343823 1.963059
-0.923938 0.346298 1.977999
-0.920541 0.348539 1.991551
-0.919251 0.351632 2.009922
-0.917520 0.354619 2.027635
-0.904710 0.353342 2.020909
-0.896544 0.353871 2.024452
-0.817363 0.326081 1.865891
-0.811697 0.327334 1.873436
-0.803821 0.327714 1.875934
-0.786223 0.324095 1.855487
-1.407790 0.586825 3.360064
-1.389348 0.585707 3.353990
-1.367427 0.583081 3.339197
-1.361224 0.587174 3.362805
-1.343637 0.586395 3.358439
-1.325366 0.585295 3.352165
-1.310200 0.585557 3.353619
-1.293198 0.584995 3.350287
-0.864724 0.405998 2.324666
-0.856259 0.407169 2.331120
-0.853484 0.411112 2.353398
-0.295284 0.179473 1.023448
-0.288924 0.178529 1.017735
-0.283627 0.178222 1.015642
-0.279286 0.178515 1.016963
-0.274778 0.178709 1.017717
-0.269823 0.178615 1.016821
-0.264788 0.178464 1.015594
-0.259850 0.178373 1.014711
-0.253678 0.177416 1.008896
-0.247220 0.176219 1.001716
-0.242710 0.176391 1.002316
-0.236550 0.175347 0.996004
-0.041197 0.041245 0.233117
-0.040091 0.041251 0.233064
-0.039007 0.041280 0.233142
-0.040097 0.043679 0.246602
-0.034687 0.038929 0.219702
-0.032218 0.037285 0.210350
-0.030944 0.036964 0.208468
-0.029928 0.036939 0.208256
-0.029108 0.037163 0.209447
-0.028097 0.037151 0.209310
-0.030888 0.042351 0.238530
-0.026804 0.038162 0.214865
-0.025706 0.038058 0.214217
-0.024887 0.038377 0.215945
-0.023906 0.038463 0.216367
-0.022921 0.038551 0.216799
-0.021966 0.038699 0.217569
-0.021025 0.038888 0.218575
-0.020095 0.039119 0.219812
-0.019103 0.039248 0.220482
-0.018122 0.039416 0.221372
-0.017181 0.039699 0.222908
-0.016163 0.039826 0.223575
-0.015122 0.039915 0.224028
-0.014078 0.040007 0.224500
-0.013034 0.040112 0.225047
-0.011978 0.040200 0.225498
-0.010923 0.040309 0.226072
-0.009857 0.040394 0.226513
-0.008786 0.040480 0.226964
-0.007703 0.040524 0.227176
-0.006621 0.040596 0.227552
-0.005548 0.040756 0.228424
-0.004492 0.041156 0.230644
-0.003397 0.041342 0.231670
-0.002286 0.041426 0.232119
-0.001171 0.041502 0.232533
-0.000051 0.041590 0.233012
0.001071 0.041607 0.233099
0.002201 0.041733 0.233801
0.003332 0.041797 0.234155
0.004471 0.041899 0.234729
0.005610 0.041965 0.235101
0.006753 0.042031 0.235472
0.007929 0.042250 0.236712
0.009102 0.042403 0.237580
0.010263 0.042469 0.237962
0.011433 0.042558 0.238477
0.012626 0.042707 0.239332
0.013790 0.042743 0.239554
0.014990 0.042873 0.240305
0.016144 0.042865 0.240288
0.017382 0.043064 0.241434
0.018592 0.043174 0.242084
0.019875 0.043429 0.243551
0.021064 0.043464 0.243784
0.022269 0.043524 0.244164
0.023499 0.043626 0.244776
0.024721 0.043703 0.245252
0.025910 0.043718 0.245387
0.027127 0.043777 0.245769
0.028340 0.043824 0.246084
0.029573 0.043897 0.246547
0.030773 0.043917 0.246716
0.032001 0.043975 0.247098
0.033214 0.044008 0.247343
0.034438 0.044052 0.247653
0.035678 0.044113 0.248063
0.036938 0.044194 0.248583
0.038168 0.044237 0.248888
0.039401 0.044278 0.249189
0.040693 0.044382 0.249845
0.041911 0.044402 0.250025
0.043042 0.044331 0.249700
0.044269 0.044360 0.249936
0.045427 0.044320 0.249781
0.046550 0.044249 0.249456
0.047696 0.044202 0.249268
0.048816 0.044134 0.248960
0.049982 0.044110 0.248900
0.050995 0.043956 0.248105
0.050215 0.042297 0.238815
0.051167 0.042139 0.237996
0.052107 0.041979 0.237162
0.053086 0.041856 0.236541
0.054029 0.041710 0.235786
0.054953 0.041555 0.234985
0.055892 0.041418 0.234281
0.056634 0.041143 0.232795
0.057315 0.040836 0.231124
0.058112 0.040620 0.229971
0.058952 0.040443 0.229032
0.059779 0.040263 0.228077
0.060558 0.040058 0.226980
0.061344 0.039864 0.225945
0.062200 0.039722 0.225198
0.063061 0.039588 0.224494
0.063789 0.039376 0.223349
0.064598 0.039220 0.222520
0.065498 0.039123 0.222023
0.066188 0.038906 0.220845
0.066964 0.038746 0.219982
0.067626 0.038526 0.218777
0.068389 0.038368 0.217927
0.069028 0.038148 0.216714
0.069730 0.037968 0.215730
0.070218 0.037678 0.214118
0.071024 0.037565 0.213507
0.071673 0.037372 0.212444
0.072367 0.037209 0.211541
0.072867 0.036951 0.210100
0.073629 0.036832 0.209439
0.074156 0.036599 0.208135
0.074785 0.036423 0.207146
0.074311 0.035721 0.203161
0.074725 0.035458 0.201671
0.075146 0.035205 0.200236
0.075779 0.035057 0.199390
0.076171 0.034802 0.197933
0.074803 0.033759 0.191993
0.074991 0.033434 0.190135
0.075321 0.033181 0.188674
0.075671 0.032942 0.187293
0.076462 0.032897 0.187016
0.077087 0.032784 0.186341
0.077369 0.032529 0.184855
0.078028 0.032436 0.184288
0.078732 0.032364 0.183835
0.079230 0.032210 0.182909
0.079809 0.032091 0.182182
0.080559 0.032043 0.181851
0.081080 0.031906 0.181006
0.081053 0.031558 0.178966
0.081294 0.031321 0.177547
0.081726 0.031162 0.176563
0.082143 0.031000 0.175559
0.082180 0.030700 0.173765
0.082433 0.030485 0.172454
0.082762 0.030302 0.171317
0.083355 0.030219 0.170737
0.083564 0.030000 0.169380
0.084127 0.029910 0.168752
0.084054 0.029598 0.166864
0.084454 0.029457 0.165933
0.084980 0.029363 0.165258
0.085496 0.029266 0.164563
0.085885 0.029128 0.163631
-0.983162 0.350204 1.938858
-0.958622 0.344677 1.909572
-0.962473 0.349351 1.936716
-0.955050 0.349984 1.941397
-0.944422 0.349443 1.939494
-0.936483 0.349896 1.943035
-0.931814 0.351592 1.953415
-0.928091 0.353683 1.965928
-0.924232 0.355763 1.978327
-0.918378 0.357111 1.986592
-0.921680 0.362083 2.014971
-0.913856 0.362742 2.019298
-0.905690 0.363278 2.022877
-0.839565 0.340331 1.895603
-0.820356 0.336114 1.872558
-0.817778 0.338693 1.887324
-0.803067 0.336249 1.874047
-0.787828 0.333527 1.859169
-1.404109 0.601097 3.351114
-1.385445 0.599835 3.344439
-1.366195 0.598288 3.336090
-1.359259 0.602161 3.357887
-1.343568 0.602200 3.358232
-1.328921 0.602714 3.361155
-1.313360 0.602821 3.361738
-1.297460 0.602773 3.361389
-0.852796 0.411211 2.292703
-0.845948 0.413130 2.303173
-0.844526 0.417783 2.328843
-0.296856 0.185302 1.029102
-0.288979 0.183386 1.018137
-0.283905 0.183215 1.016853
-0.279206 0.183284 1.016898
-0.274508 0.183356 1.016951
-0.269555 0.183257 1.016052
-0.264718 0.183236 1.015573
-0.259708 0.183091 1.014413
-0.254049 0.182475 1.010635
-0.249052 0.182321 1.009409
-0.242648 0.181110 1.002335
-0.238228 0.181360 1.003350
-0.123883 0.102497 0.566196
-0.121596 0.102837 0.567859
-0.119052 0.102969 0.568374
-0.041181 0.044758 0.246229
-0.040050 0.044807 0.246407
-0.038915 0.044854 0.246580
-0.033891 0.040282 0.221367
-0.030978 0.038004 0.208780
-0.030020 0.038054 0.208981
-0.028914 0.037914 0.208142
-0.032247 0.043791 0.240329
-0.030850 0.043442 0.238339
-0.027637 0.040412 0.221642
-0.026091 0.039673 0.217523
-0.024798 0.039275 0.215280
-0.023841 0.039397 0.215882
-0.022891 0.039543 0.216620
-0.021981 0.039774 0.217827
-0.021033 0.039957 0.218771
-0.020069 0.040126 0.219639
-0.019051 0.040200 0.219993
-0.017995 0.040201 0.219941
-0.017077 0.040527 0.221677
-0.016138 0.040843 0.223355
-0.015120 0.040991 0.224119
-0.014056 0.041026 0.224267
-0.013017 0.041148 0.224891
-0.011963 0.041240 0.225356
-0.010912 0.041359 0.225969
-0.009847 0.041449 0.226426
-0.008774 0.041524 0.226801
-0.007698 0.041600 0.227187
-0.006615 0.041665 0.227511
-0.005554 0.041916 0.228857
-0.004480 0.042170 0.230221
-0.003388 0.042364 0.231264
-0.002279 0.042448 0.231702
-0.001167 0.042540 0.232190
-0.000049 0.042598 0.232499
0.001072 0.042678 0.232927
0.002197 0.042744 0.233277
0.003328 0.042854 0.233878
0.004460 0.042905 0.234151
0.005595 0.042966 0.234491
0.006735 0.043033 0.234858
0.007888 0.043155 0.235532
0.009069 0.043380 0.236771
0.010243 0.043522 0.237561
0.011414 0.043625 0.238141
0.012583 0.043704 0.238590
0.013766 0.043813 0.239204
0.014940 0.043879 0.239588
0.016156 0.044049 0.240543
0.017384 0.044227 0.241547
0.018609 0.044374 0.242383
0.019838 0.044513 0.243177
0.021018 0.044535 0.243334
0.022224 0.044604 0.243752
0.023451 0.044707 0.244357
0.024676 0.044798 0.244897
0.025881 0.044843 0.245191
0.027080 0.044877 0.245425
0.028302 0.044942 0.245830
0.029509 0.044981 0.246097
0.030725 0.045029 0.246412
0.031949 0.045085 0.246775
0.033171 0.045134 0.247104
0.034419 0.045213 0.247599
0.035660 0.045279 0.248020
0.036874 0.045306 0.248235
0.038100 0.045346 0.248518
0.039354 0.045417 0.248971
0.040598 0.045472 0.249341
0.041784 0.045459 0.249343
0.043005 0.045486 0.249561
0.044149 0.045432 0.249332
0.045340 0.045427 0.249376
0.046520 0.045411 0.249364
0.047562 0.045265 0.248634
0.048815 0.045323 0.249024
0.049919 0.045242 0.248654
0.050838 0.045001 0.247403
0.050915 0.044042 0.242206
0.051522 0.043575 0.239709
0.051771 0.042832 0.235690
0.052783 0.042738 0.235246
0.053701 0.042574 0.234412
0.054598 0.042399 0.233520
0.055466 0.042210 0.232548
0.056278 0.041987 0.231383
0.057313 0.041935 0.231163
0.058136 0.041733 0.230116
0.058941 0.041526 0.229036
0.059765 0.041338 0.228067
0.060439 0.041056 0.226572
0.061161 0.040816 0.225307
0.061976 0.040645 0.224422
0.062786 0.040478 0.223552
0.063657 0.040353 0.222921
0.064504 0.040218 0.222227
0.065319 0.040068 0.221450
0.066103 0.039904 0.220589
0.066795 0.039690 0.219453
0.067603 0.039551 0.218727
0.068162 0.039272 0.217227
0.068787 0.039039 0.215980
0.069552 0.038892 0.215199
0.070261 0.038717 0.214266
0.070941 0.038532 0.213273
0.071551 0.038314 0.212096
0.072145 0.038095 0.210903
0.072704 0.037863 0.209641
0.073312 0.037662 0.208549
0.073653 0.037331 0.206731
0.074331 0.037178 0.205893
0.074972 0.037010 0.204972
0.075087 0.036591 0.202651
0.075527 0.036337 0.201250
0.075768 0.035996 0.199357
0.076243 0.035774 0.198117
0.074288 0.034430 0.190664
0.075219 0.034441 0.190707
0.075772 0.034279 0.189794
0.076136 0.034038 0.188433
0.076659 0.033872 0.187487
0.077185 0.033711 0.186563
0.077789 0.033587 0.185842
0.078194 0.033382 0.184664
0.078699 0.033223 0.183737
0.078942 0.032958 0.182222
0.079511 0.032834 0.181479
0.080274 0.032791 0.181182
0.080614 0.032578 0.179940
0.080757 0.032291 0.178284
0.081327 0.032179 0.177587
0.081632 0.031965 0.176325
0.081760 0.031688 0.174705
0.081539 0.031282 0.172374
0.082338 0.031271 0.172217
0.081954 0.030816 0.169606
0.083042 0.030918 0.170054
0.083298 0.030711 0.168798
0.083633 0.030536 0.167714
0.084009 0.030380 0.166727
0.084172 0.030151 0.165329
0.084807 0.030093 0.164868
0.085419 0.030028 0.164361
0.085701 0.029850 0.163224
-0.991896 0.362607 1.955577
-0.977376 0.360663 1.946455
-0.961584 0.358208 1.934480
-0.955099 0.359207 1.941071
-0.943768 0.358385 1.937749
-0.934209 0.358226 1.937939
-0.929585 0.359975 1.948384
-0.925132 0.361827 1.959323
-0.921370 0.363989 1.971885
-0.936447 0.373713 2.025377
-0.928247 0.374253 2.029048
-0.923006 0.376009 2.039257
-0.914748 0.376561 2.042873
-0.835292 0.347503 1.885757
-0.817890 0.343916 1.866752
-0.807597 0.343272 1.863670
-0.802020 0.344642 1.871464
-0.786653 0.341788 1.856277
-1.405871 0.617679 3.355140
-1.389000 0.617189 3.352873
-1.370327 0.615879 3.346066
-1.359244 0.617989 3.357768
-1.344020 0.618244 3.359314
-1.330593 0.619342 3.365366
-1.315673 0.619763 3.367673
-1.301868 0.620726 3.372856
-0.871830 0.426060 2.314889
-0.857920 0.424561 2.306575
-0.848320 0.425183 2.309749
-0.834808 0.423836 2.302183
-0.297455 0.190559 1.031383
-0.289778 0.188730 1.021163
-0.283372 0.187680 1.015160
-0.279157 0.188071 1.016942
-0.274424 0.188121 1.016871
-0.269479 0.188025 1.016007
-0.264669 0.188020 1.015634
-0.259806 0.187978 1.015052
-0.254486 0.187597 1.012639
-0.248404 0.186629 1.007053
-0.243785 0.186744 1.007308
-0.239341 0.187001 1.008325
-0.123746 0.105078 0.565752
-0.120942 0.104974 0.564984
-0.118845 0.105495 0.567573
-0.116294 0.105627 0.568076
-0.108583 0.100967 0.542811
-0.105723 0.100702 0.541181
-0.102297 0.099870 0.536514
