ply
format ascii 1.0
element vertex 1746
property float x
property float y
property float z
end_header
0.102959 0.075722 0.224447
0.103793 0.075538 0.223675
0.104415 0.075206 0.222455
0.105158 0.074965 0.221499
0.105914 0.074739 0.220575
0.106601 0.074469 0.219512
0.107134 0.074098 0.218142
0.107702 0.073758 0.216856
0.108377 0.073497 0.215789
0.109204 0.073343 0.215027
0.109613 0.072914 0.213447
0.110355 0.072712 0.212523
0.111212 0.072589 0.211815
0.112045 0.072453 0.211055
0.112791 0.072263 0.210125
-1.002234 0.637458 1.841208
-1.000248 0.641910 1.857222
-1.068834 0.692145 2.005828
-1.060305 0.692905 2.011168
-1.050710 0.692977 2.014385
-1.041805 0.693510 2.018822
-0.902885 0.606690 1.768513
-0.887060 0.601721 1.756332
-0.876983 0.600592 1.755244
-0.870759 0.602108 1.761791
-0.855305 0.597208 1.749466
-0.973812 0.737712 2.177410
-0.958701 0.734061 2.168273
-0.947245 0.733160 2.167172
-0.943289 0.738108 2.183292
-0.930791 0.736410 2.179683
-0.921247 0.737036 2.182880
-0.308015 0.317762 0.947531
-0.310692 0.325234 0.969932
-0.307462 0.326653 0.974268
-0.304428 0.328326 0.979350
-0.299800 0.328305 0.979365
-0.295731 0.328906 0.981222
-0.291436 0.329270 0.982358
-0.287049 0.329541 0.983205
-0.282363 0.329473 0.983027
-0.277019 0.328621 0.980498
-0.272230 0.328410 0.979874
-0.266545 0.327093 0.975937
-0.257489 0.321521 0.959296
-0.245882 0.312507 0.932377
-0.237668 0.307558 0.917575
-0.228484 0.301145 0.898404
-0.219940 0.295352 0.881075
-0.212722 0.291151 0.868487
-0.205225 0.286394 0.854240
-0.201408 0.286688 0.855050
-0.153582 0.227717 0.679054
-0.147832 0.223856 0.667475
-0.144229 0.223146 0.665291
-0.139585 0.220759 0.658106
-0.135262 0.218784 0.652146
-0.131306 0.217324 0.647722
-0.127467 0.215992 0.643676
-0.124224 0.215631 0.642521
-0.121116 0.215493 0.642031
-0.117744 0.214864 0.640076
-0.114755 0.214922 0.640165
-0.111892 0.215225 0.640983
-0.109029 0.215544 0.641847
-0.106326 0.216206 0.643733
-0.103391 0.216425 0.644295
-0.100562 0.216883 0.645573
-0.097731 0.217367 0.646923
-0.094844 0.217753 0.647983
-0.092061 0.218412 0.649853
-0.089262 0.219078 0.651745
-0.086253 0.219259 0.652195
-0.083255 0.219481 0.652766
-0.080373 0.220039 0.654339
-0.077354 0.220250 0.654877
-0.074329 0.220464 0.655428
-0.071351 0.220842 0.656467
-0.068246 0.220841 0.656379
-0.065072 0.220609 0.655608
-0.061773 0.219908 0.653446
-0.058428 0.218962 0.650556
-0.055105 0.217998 0.647615
-0.051172 0.214364 0.636749
-0.047084 0.209587 0.622487
-0.016409 0.116991 0.347267
-0.014766 0.117016 0.347311
-0.013131 0.117121 0.347594
-0.011486 0.117146 0.347644
-0.005875 0.084036 0.249353
-0.004693 0.084049 0.249373
-0.003470 0.083083 0.246494
-0.002284 0.082480 0.244692
-0.001112 0.081606 0.242086
0.000037 0.081319 0.241226
0.001171 0.080605 0.239099
0.002295 0.080232 0.237984
0.003413 0.079976 0.237216
0.004528 0.079780 0.236630
0.005629 0.079475 0.235721
0.006717 0.079113 0.234643
0.007769 0.078490 0.232792
0.008829 0.078089 0.231600
0.009903 0.077896 0.231026
0.010986 0.077796 0.230731
0.012074 0.077748 0.230590
0.013118 0.077449 0.229704
0.013837 0.075422 0.223697
0.014788 0.074860 0.222033
0.015805 0.074684 0.221517
0.016895 0.074856 0.222033
0.018009 0.075102 0.222769
0.019096 0.075219 0.223123
0.020210 0.075424 0.223736
0.021374 0.075782 0.224807
0.022540 0.076116 0.225809
0.023694 0.076378 0.226594
0.024837 0.076587 0.227224
0.026005 0.076849 0.228013
0.027142 0.077003 0.228480
0.028321 0.077259 0.229251
0.029547 0.077621 0.230338
0.030712 0.077802 0.230886
0.031880 0.077976 0.231415
0.033312 0.078764 0.233765
0.034430 0.078782 0.233831
0.035709 0.079156 0.234955
0.036910 0.079340 0.235513
0.038135 0.079562 0.236185
0.039445 0.079945 0.237335
0.040578 0.079958 0.237383
0.041851 0.080236 0.238220
0.043016 0.080300 0.238422
0.044257 0.080498 0.239022
0.045486 0.080665 0.239528
0.046762 0.080905 0.240248
0.047942 0.080970 0.240451
0.049229 0.081211 0.241173
0.050443 0.081321 0.241507
0.051727 0.081538 0.242157
0.053081 0.081852 0.243093
0.054450 0.082176 0.244058
0.055841 0.082520 0.245081
0.057110 0.082672 0.245532
0.058412 0.082865 0.246103
0.059819 0.083194 0.247080
0.061126 0.083377 0.247616
0.062283 0.083351 0.247532
0.063481 0.083379 0.247607
0.064745 0.083493 0.247932
0.066018 0.083613 0.248274
0.067543 0.084042 0.249532
0.068809 0.084141 0.249805
0.070113 0.084280 0.250197
0.071526 0.084545 0.250958
0.072820 0.084662 0.251277
0.074189 0.084860 0.251834
0.075613 0.085115 0.252556
0.076947 0.085262 0.252950
0.078144 0.085255 0.252888
0.079433 0.085346 0.253112
0.080640 0.085348 0.253068
0.082186 0.085703 0.254067
0.083722 0.086038 0.255000
0.084621 0.085719 0.253990
0.085792 0.085679 0.253805
0.084190 0.082909 0.245528
0.084732 0.082298 0.243644
0.085709 0.082120 0.243037
0.086704 0.081964 0.242490
0.087525 0.081650 0.241471
0.088145 0.081159 0.239922
0.088993 0.080887 0.239019
0.089845 0.080626 0.238141
0.090682 0.080358 0.237239
0.091477 0.080060 0.236242
0.092019 0.079551 0.234615
0.092888 0.079332 0.233839
0.093832 0.079182 0.233263
0.094712 0.078983 0.232532
0.095525 0.078732 0.231645
0.096369 0.078513 0.230842
0.097170 0.078264 0.229946
0.098004 0.078047 0.229136
0.098775 0.077784 0.228186
0.099554 0.077534 0.227264
0.100371 0.077319 0.226437
0.101210 0.077124 0.225663
0.102025 0.076916 0.224841
0.102828 0.076703 0.223997
0.103662 0.076517 0.223221
0.104414 0.076276 0.222276
0.105053 0.075956 0.221095
0.105869 0.075771 0.220294
0.106578 0.075513 0.219272
0.106975 0.075042 0.217621
0.107537 0.074693 0.216318
0.107952 0.074251 0.214733
0.108981 0.074235 0.214371
0.109720 0.074024 0.213433
0.110339 0.073737 0.212263
0.111268 0.073660 0.211685
0.112012 0.073463 0.210750
0.112970 0.073408 0.210207
-0.997146 0.643171 1.829803
-0.997463 0.649156 1.850039
-1.068575 0.701741 2.003234
-1.058912 0.701759 2.006484
-1.049696 0.702077 2.010463
-0.902391 0.614914 1.765923
-0.883859 0.608009 1.748441
-0.875882 0.608302 1.751537
-0.867943 0.608629 1.754638
-0.854439 0.605021 1.746294
-0.971660 0.746467 2.171295
-0.956421 0.742648 2.161868
-0.950624 0.746157 2.173695
-0.941345 0.746981 2.177630
-0.927962 0.744531 2.171944
-0.919230 0.745799 2.177030
-0.312126 0.326549 0.960040
-0.307954 0.326919 0.961260
-0.306521 0.330250 0.971174
-0.302939 0.331332 0.974460
-0.298674 0.331690 0.975603
-0.294990 0.332715 0.978692
-0.291139 0.333580 0.981301
-0.286738 0.333833 0.982097
-0.281958 0.333646 0.981586
-0.276628 0.332792 0.979099
-0.271117 0.331687 0.975865
-0.265055 0.329858 0.970489
-0.254765 0.322612 0.949165
-0.245008 0.315795 0.929094
-0.237745 0.312004 0.917915
-0.228749 0.305754 0.899498
-0.220317 0.300038 0.882646
-0.212460 0.294900 0.867487
-0.205831 0.291299 0.856844
-0.153354 0.230593 0.678135
-0.148125 0.227469 0.668890
-0.144525 0.226765 0.666758
-0.139848 0.224303 0.659456
-0.135607 0.222443 0.653922
-0.131789 0.221207 0.650222
-0.128428 0.220699 0.648657
-0.125104 0.220231 0.647209
-0.122064 0.220251 0.647193
-0.118866 0.219982 0.646326
-0.115702 0.219761 0.645599
-0.112704 0.219855 0.645795
-0.109811 0.220162 0.646618
-0.107064 0.220789 0.648376
-0.104005 0.220792 0.648301
-0.101276 0.221516 0.650343
-0.098363 0.221872 0.651302
-0.095422 0.222185 0.652135
-0.092768 0.223210 0.655058
-0.089704 0.223284 0.655192
-0.086927 0.224104 0.657512
-0.083743 0.223898 0.656822
-0.080640 0.223902 0.656751
-0.077661 0.224263 0.657725
-0.074482 0.224054 0.657028
-0.071529 0.224536 0.658360
-0.068349 0.224318 0.657640
-0.065170 0.224082 0.656871
-0.061858 0.223340 0.654618
-0.058435 0.222104 0.650919
-0.055085 0.221019 0.647666
-0.051503 0.218824 0.641163
-0.047254 0.213341 0.625032
-0.016525 0.119515 0.349946
-0.014702 0.118186 0.346026
-0.013113 0.118647 0.347348
-0.007167 0.130259 0.381241
-0.002277 0.083495 0.244347
-0.001103 0.082368 0.241034
0.000040 0.081670 0.238983
0.001165 0.081108 0.237328
0.002284 0.080872 0.236630
0.003394 0.080569 0.235737
0.004512 0.080566 0.235723
0.005611 0.080290 0.234909
0.006701 0.079996 0.234044
0.007737 0.079228 0.231794
0.008769 0.078623 0.230022
0.009845 0.078501 0.229663
0.010922 0.078410 0.229396
0.011969 0.078132 0.228586
0.013083 0.078308 0.229103
0.014124 0.078054 0.228360
0.015114 0.077569 0.226946
0.015794 0.075666 0.221380
0.016871 0.075786 0.221737
0.017984 0.076040 0.222487
0.019042 0.076048 0.222515
0.020159 0.076277 0.223192
0.021279 0.076495 0.223836
0.022419 0.076761 0.224622
0.023605 0.077153 0.225778
0.024750 0.077380 0.226452
0.025921 0.077669 0.227307
0.027113 0.077993 0.228265
0.028300 0.078279 0.229112
0.029568 0.078759 0.230526
0.030687 0.078824 0.230728
0.031844 0.078976 0.231183
0.033083 0.079315 0.232186
0.034310 0.079605 0.233046
0.035482 0.079752 0.233487
0.036798 0.080205 0.234825
0.037998 0.080386 0.235364
0.039250 0.080661 0.236181
0.040449 0.080816 0.236645
0.041619 0.080907 0.236920
0.043107 0.081595 0.238943
0.044338 0.081773 0.239474
0.045532 0.081876 0.239782
0.046738 0.081995 0.240137
0.047967 0.082146 0.240588
0.049182 0.082269 0.240952
0.050473 0.082509 0.241659
0.051769 0.082746 0.242357
0.053048 0.082947 0.242948
0.054270 0.083052 0.243254
0.055555 0.083247 0.243825
0.056994 0.083659 0.245029
0.058195 0.083712 0.245180
0.059524 0.083944 0.245853
0.060849 0.084162 0.246483
0.062243 0.084464 0.247359
0.063435 0.084488 0.247415
0.064688 0.084588 0.247694
0.065997 0.084758 0.248174
0.067296 0.084909 0.248597
0.068587 0.085045 0.248971
0.069915 0.085221 0.249462
0.071166 0.085299 0.249661
0.072624 0.085617 0.250561
0.074059 0.085899 0.251352
0.075510 0.086191 0.252166
0.076821 0.086315 0.252489
0.078014 0.086306 0.252415
0.079277 0.086373 0.252562
0.080607 0.086509 0.252906
0.082348 0.087077 0.254506
0.083237 0.086740 0.253459
0.083856 0.086135 0.251624
0.084136 0.085204 0.248833
0.084392 0.084275 0.246045
0.083902 0.082636 0.241181
0.084772 0.082362 0.240301
0.085973 0.082414 0.240363
0.086705 0.082020 0.239121
0.087765 0.081942 0.238795
0.088605 0.081665 0.237882
0.089360 0.081316 0.236757
0.090391 0.081224 0.236373
0.091184 0.080923 0.235375
0.092101 0.080739 0.234711
0.092836 0.080400 0.233594
0.093481 0.079993 0.232270
0.094482 0.079897 0.231843
0.095344 0.079686 0.231077
0.096067 0.079365 0.229986
0.096889 0.079132 0.229142
0.097582 0.078801 0.228006
0.098436 0.078605 0.227256
0.099258 0.078388 0.226436
0.100027 0.078135 0.225504
0.100897 0.077964 0.224803
0.101697 0.077744 0.223951
0.102452 0.077495 0.223005
0.103203 0.077248 0.222057
0.103922 0.076981 0.221045
0.104470 0.076595 0.219680
0.105257 0.076390 0.218826
0.105953 0.076123 0.217786
0.106582 0.075815 0.216616
0.107396 0.075642 0.215824
0.107999 0.075326 0.214610
0.108719 0.075096 0.213633
0.109664 0.075025 0.213093
0.110244 0.074707 0.211843
0.111137 0.074606 0.211192
0.111916 0.074430 0.210317
0.112745 0.074290 0.209529
-0.997980 0.652667 1.829203
-1.075505 0.709687 1.992542
-1.066520 0.710138 1.997205
-1.057776 0.710762 2.002221
-1.048389 0.710960 2.005913
-0.881188 0.614607 1.741552
-0.874783 0.615993 1.747782
-0.866537 0.616098 1.750285
-0.852660 0.612162 1.741208
-0.970197 0.755715 2.166668
-0.954935 0.751812 2.157207
-0.951310 0.757087 2.174003
-0.939478 0.755873 2.172098
-0.926229 0.753482 2.166724
-0.920282 0.757044 2.178401
-0.310228 0.333918 0.968216
-0.304328 0.332453 0.964099
-0.304301 0.337456 0.978726
-0.298740 0.336384 0.975719
-0.294692 0.337007 0.977616
-0.291002 0.338066 0.980766
-0.286418 0.338105 0.980941
-0.281824 0.338133 0.981074
-0.276579 0.337367 0.978891
-0.270905 0.336044 0.975082
-0.264289 0.333487 0.967678
-0.260010 0.333842 0.968714
-0.244670 0.319753 0.927829
-0.236213 0.314311 0.912027
-0.227739 0.308646 0.895568
-0.218423 0.301604 0.875107
-0.211408 0.297529 0.863251
-0.204645 0.293657 0.851976
-0.153126 0.233460 0.677204
-0.148138 0.230661 0.669035
-0.145969 0.232224 0.673514
-0.140177 0.227965 0.661105
-0.135618 0.225563 0.654081
-0.131991 0.224636 0.651330
-0.128553 0.223995 0.649407
-0.125324 0.223695 0.648472
-0.122356 0.223859 0.648877
-0.119495 0.224232 0.649886
-0.116423 0.224217 0.649770
-0.113364 0.224228 0.649728
-0.110582 0.224804 0.651320
-0.107804 0.225421 0.653029
-0.104843 0.225680 0.653703
-0.102164 0.226579 0.656227
-0.099134 0.226734 0.656595
-0.096265 0.227280 0.658093
-0.093366 0.227789 0.659486
-0.090498 0.228410 0.661203
-0.087595 0.228984 0.662782
-0.084376 0.228746 0.662012
-0.081258 0.228773 0.662009
-0.078100 0.228688 0.661681
-0.074880 0.228405 0.660785
-0.071813 0.228585 0.661225
-0.068609 0.228327 0.660402
-0.065504 0.228388 0.660503
-0.062161 0.227584 0.658102
-0.058568 0.225735 0.652684
-0.055399 0.225402 0.651650
-0.051794 0.223154 0.645081
-0.047770 0.218707 0.632160
-0.016832 0.123463 0.356667
-0.015147 0.123496 0.356732
-0.013605 0.124856 0.360633
-0.012221 0.128262 0.370445
-0.010468 0.128286 0.370490
-0.008918 0.131316 0.379216
-0.007149 0.131837 0.380698
-0.005345 0.131853 0.380722
0.000044 0.083387 0.240743
0.001185 0.083389 0.240740
0.002270 0.081354 0.234855
0.003375 0.081157 0.234280
0.004470 0.080861 0.233420
0.005484 0.079506 0.229503
0.006578 0.079578 0.229707
0.007669 0.079596 0.229754
0.008738 0.079399 0.229185
0.009808 0.079266 0.228799
0.010882 0.079180 0.228549
0.011961 0.079141 0.228437
0.012995 0.078841 0.227570
0.013992 0.078379 0.226240
0.014979 0.077930 0.224945
0.015799 0.076726 0.221474
0.016800 0.076500 0.220825
0.017871 0.076600 0.221117
0.018965 0.076778 0.221636
0.020141 0.077256 0.223023
0.021215 0.077314 0.223195
0.022329 0.077502 0.223747
0.023517 0.077921 0.224962
0.024748 0.078439 0.226466
0.025911 0.078706 0.227243
0.027044 0.078866 0.227715
0.028208 0.079099 0.228396
0.029449 0.079524 0.229631
0.030659 0.079834 0.230536
0.031758 0.079847 0.230584
0.032990 0.080181 0.231558
0.034201 0.080446 0.232330
0.035442 0.080759 0.233245
0.036649 0.080980 0.233891
0.038019 0.081538 0.235511
0.039206 0.081682 0.235936
0.040425 0.081883 0.236525
0.041552 0.081891 0.236555
0.042715 0.081969 0.236788
0.044033 0.082331 0.237839
0.045089 0.082198 0.237462
0.046645 0.082961 0.239669
0.047816 0.083018 0.239839
0.049080 0.083232 0.240459
0.050325 0.083403 0.240954
0.051598 0.083612 0.241560
0.052903 0.083862 0.242281
0.054170 0.084043 0.242803
0.055486 0.084291 0.243514
0.056827 0.084566 0.244306
0.058146 0.084797 0.244964
0.059428 0.084967 0.245448
0.060707 0.085126 0.245895
0.061968 0.085254 0.246251
0.063215 0.085357 0.246533
0.064413 0.085392 0.246618
0.065680 0.085517 0.246956
0.067664 0.086553 0.249928
0.068842 0.086540 0.249863
0.069910 0.086393 0.249409
0.071245 0.086574 0.249900
0.072451 0.086594 0.249923
0.073738 0.086710 0.250219
0.075146 0.086962 0.250904
0.076259 0.086869 0.250592
0.077679 0.087124 0.251277
0.078855 0.087102 0.251160
0.080564 0.087659 0.252709
0.082201 0.088123 0.253985
0.082956 0.087642 0.252533
0.083989 0.087465 0.251950
0.084349 0.086601 0.249385
0.084700 0.085752 0.246862
0.084143 0.084019 0.241791
0.084100 0.082839 0.238310
0.084844 0.082456 0.237116
0.086026 0.082504 0.237156
0.087053 0.082402 0.236761
0.087936 0.082169 0.235986
0.088906 0.082022 0.235450
0.089750 0.081764 0.234589
0.090922 0.081807 0.234587
0.091876 0.081655 0.234018
0.092715 0.081406 0.233167
0.093595 0.081199 0.232427
0.094446 0.080971 0.231624
0.095114 0.080594 0.230385
0.095973 0.080384 0.229621
0.096697 0.080069 0.228545
0.097456 0.079788 0.227563
0.098301 0.079583 0.226790
0.099123 0.079365 0.225970
0.099985 0.079183 0.225247
0.100872 0.079023 0.224579
0.101489 0.078659 0.223319
0.102200 0.078374 0.222278
0.103034 0.078188 0.221508
0.103704 0.077883 0.220392
0.104341 0.077559 0.219214
0.104947 0.077219 0.217981
0.105404 0.076777 0.216452
0.106383 0.076721 0.215999
0.107153 0.076516 0.215118
0.107737 0.076183 0.213865
0.108511 0.075990 0.212993
0.109287 0.075801 0.212122
0.110239 0.075738 0.211588
0.110978 0.075530 0.210636
0.111815 0.075392 0.209867
0.112808 0.075361 0.209378
-0.997592 0.661369 1.826286
-1.066833 0.720098 1.995536
-1.057174 0.720107 1.998895
-1.042796 0.716874 1.993104
-0.898919 0.629597 1.755715
-0.882832 0.624205 1.743132
-0.872750 0.622997 1.742108
-0.865968 0.624144 1.747572
-0.852802 0.620669 1.739993
-0.969018 0.765157 2.162622
-0.950995 0.758987 2.146955
-0.944122 0.761680 2.156268
-0.937518 0.764650 2.166301
-0.923181 0.761311 2.158381
-0.914460 0.762580 2.163449
-0.310575 0.338883 0.969139
-0.306867 0.339830 0.971995
-0.303923 0.341667 0.977381
-0.298859 0.341140 0.975990
-0.294982 0.341972 0.978473
-0.290869 0.342554 0.980229
-0.286118 0.342391 0.979838
-0.281334 0.342181 0.979302
-0.276281 0.341634 0.977788
-0.270380 0.340001 0.973156
-0.262202 0.335399 0.960013
-0.251589 0.327468 0.937329
-0.242146 0.320803 0.918260
-0.234487 0.316303 0.905376
-0.227095 0.312003 0.893061
-0.218713 0.306155 0.876303
-0.210627 0.300505 0.860107
-0.205377 0.298759 0.855079
-0.151873 0.234734 0.671732
-0.147713 0.233162 0.667191
-0.144961 0.233792 0.668945
-0.140285 0.231279 0.661706
-0.135849 0.229056 0.655293
-0.132224 0.228130 0.652587
-0.128820 0.227549 0.650868
-0.125826 0.227683 0.651189
-0.122884 0.227919 0.651802
-0.119740 0.227783 0.651347
-0.116827 0.228093 0.652164
-0.113850 0.228290 0.652658
-0.111120 0.229009 0.654642
-0.108437 0.229867 0.657022
-0.105558 0.230348 0.658324
-0.102938 0.231443 0.661377
-0.099858 0.231538 0.661571
-0.096957 0.232070 0.663016
-0.093976 0.232438 0.663989
-0.091024 0.232906 0.665248
-0.088110 0.233508 0.666890
-0.084752 0.232937 0.665180
-0.081634 0.233007 0.665303
-0.078367 0.232639 0.664176
-0.075037 0.232046 0.662406
-0.071851 0.231866 0.661817
-0.068543 0.231259 0.660013
-0.065239 0.230612 0.658091
-0.062088 0.230463 0.657596
-0.058700 0.229374 0.654420
-0.055190 0.227662 0.649467
-0.051814 0.226335 0.645614
-0.048154 0.223524 0.637533
-0.045155 0.223611 0.637722
-0.016906 0.125737 0.358435
-0.015212 0.125769 0.358499
-0.013577 0.126353 0.360137
-0.012009 0.127815 0.364276
-0.010523 0.130794 0.372743
-0.008864 0.132389 0.377263
-0.007084 0.132519 0.377613
-0.005278 0.132120 0.376456
-0.003527 0.133344 0.379924
-0.001744 0.134735 0.383868
0.001890 0.134427 0.382957
0.002416 0.087661 0.249723
0.003600 0.087659 0.249709
0.004712 0.086335 0.245930
0.005497 0.080739 0.229982
0.006558 0.080381 0.228961
0.007644 0.080383 0.228962
0.008687 0.079986 0.227827
0.009814 0.080367 0.228911
0.010866 0.080123 0.228216
0.011757 0.078834 0.224544
0.013049 0.080229 0.228517
0.014029 0.079642 0.226845
0.014798 0.078022 0.222232
0.015736 0.077452 0.220610
0.016744 0.077274 0.220107
0.017840 0.077496 0.220743
0.018858 0.077376 0.220405
0.020000 0.077751 0.221479
0.021131 0.078048 0.222328
0.022286 0.078399 0.223334
0.023363 0.078459 0.223512
0.024648 0.079178 0.225567
0.025561 0.078694 0.224194
0.027051 0.079953 0.227789
0.028149 0.080005 0.227942
0.029396 0.080456 0.229234
0.030560 0.080657 0.229817
0.031683 0.080741 0.230063
0.032940 0.081147 0.231226
0.034127 0.081361 0.231844
0.035406 0.081775 0.233032
0.036599 0.081969 0.233591
0.037780 0.082126 0.234046
0.038978 0.082312 0.234581
0.040221 0.082578 0.235346
0.041383 0.082668 0.235608
0.042606 0.082871 0.236192
0.043829 0.083065 0.236747
0.045115 0.083365 0.237606
0.046499 0.083827 0.238927
0.047732 0.084001 0.239424
0.048943 0.084129 0.239790
0.050250 0.084413 0.240598
0.051554 0.084677 0.241350
0.052881 0.084970 0.242180
0.054200 0.085235 0.242931
0.055365 0.085253 0.242975
0.056669 0.085479 0.243613
0.057930 0.085633 0.244042
0.059307 0.085949 0.244928
0.060668 0.086231 0.245718
0.062029 0.086500 0.246469
0.063304 0.086643 0.246858
0.064528 0.086710 0.247031
0.065772 0.086803 0.247271
0.067134 0.087046 0.247936
0.068476 0.087254 0.248500
0.069800 0.087432 0.248975
0.070983 0.087430 0.248936
0.072231 0.087508 0.249119
0.073557 0.087676 0.249555
0.074760 0.087694 0.249561
0.076037 0.087797 0.249806
0.077485 0.088091 0.250589
0.078794 0.088221 0.250900
0.080236 0.088493 0.251612
0.081904 0.089003 0.252998
0.082754 0.088621 0.251843
0.083732 0.088386 0.251100
0.084924 0.088380 0.251002
0.083303 0.085487 0.242705
0.083453 0.084467 0.239722
0.084175 0.084045 0.238433
0.085268 0.083999 0.238207
0.086186 0.083785 0.237498
0.087121 0.083591 0.236844
0.087927 0.083282 0.235854
0.088870 0.083107 0.235243
0.089953 0.083067 0.235004
0.090765 0.082780 0.234062
0.091698 0.082609 0.233442
0.092764 0.082560 0.233162
0.093517 0.082238 0.232102
0.094389 0.082026 0.231348
0.095123 0.081701 0.230265
0.095920 0.081436 0.229349
0.096687 0.081152 0.228370
0.097418 0.080845 0.227319
0.098316 0.080681 0.226665
0.099146 0.080467 0.225859
0.099817 0.080129 0.224699
0.100571 0.079863 0.223735
0.101232 0.079531 0.222575
0.101892 0.079204 0.221422
0.102686 0.078987 0.220570
0.103362 0.078685 0.219469
0.104079 0.078420 0.218463
0.104902 0.078240 0.217681
0.105545 0.077929 0.216529
0.106186 0.077623 0.215378
0.107073 0.077502 0.214730
0.107701 0.077197 0.213560
0.108380 0.076933 0.212495
0.109128 0.076724 0.211567
0.109964 0.076580 0.210806
0.110848 0.076471 0.210128
0.111685 0.076332 0.209353
0.112628 0.076267 0.208766
-0.988204 0.664018 1.806839
-1.074496 0.728488 1.985946
-1.065467 0.728915 1.990649
-1.055040 0.728386 1.992601
-1.041170 0.725450 1.987818
-1.032251 0.725940 1.992285
-0.898449 0.637789 1.752997
-0.881113 0.631426 1.738011
-0.873887 0.632256 1.742701
-0.866149 0.632729 1.746315
-0.852400 0.628777 1.737612
-0.968263 0.774915 2.159466
-0.952684 0.770632 2.149356
-0.940051 0.768666 2.145610
-0.933815 0.771945 2.156430
-0.922979 0.771452 2.156641
-0.914002 0.772521 2.161144
-0.311161 0.344123 0.970791
-0.303964 0.341177 0.962639
-0.302610 0.344801 0.973010
-0.298923 0.345837 0.976064
-0.294754 0.346338 0.977596
-0.290658 0.346944 0.979411
-0.285997 0.346884 0.979331
-0.281077 0.346503 0.978330
-0.276015 0.345932 0.976783
-0.271181 0.345631 0.975985
-0.263046 0.341040 0.963064
-0.252033 0.332494 0.938959
-0.242535 0.325675 0.919722
-0.235169 0.321525 0.908011
-0.226579 0.315515 0.891042
-0.218894 0.310564 0.877051
-0.211455 0.305778 0.863522
-0.204576 0.301630 0.851788
-0.152204 0.238437 0.673253
-0.147177 0.235467 0.664832
-0.145437 0.237743 0.671217
-0.140627 0.234989 0.663397
-0.136272 0.232888 0.657421
-0.132750 0.232146 0.655277
-0.129844 0.232471 0.656142
-0.126841 0.232636 0.656551
-0.123654 0.232462 0.656003
-0.120578 0.232494 0.656031
-0.117707 0.232933 0.657208
-0.114648 0.233014 0.657374
-0.111891 0.233731 0.659328
-0.109170 0.234566 0.661614
-0.106219 0.234941 0.662605
-0.103420 0.235688 0.664640
-0.100433 0.236039 0.665558
-0.097418 0.236344 0.666344
-0.094461 0.236815 0.667600
-0.091424 0.237113 0.668367
-0.088479 0.237680 0.669890
-0.085177 0.237293 0.668726
-0.081881 0.236894 0.667528
-0.078642 0.236635 0.666725
-0.075186 0.235675 0.663949
-0.071892 0.235163 0.662434
-0.068572 0.234515 0.660539
-0.065148 0.233431 0.657416
-0.061902 0.232913 0.655889
-0.058236 0.230672 0.649514
-0.054945 0.229754 0.646862
-0.051760 0.229197 0.645232
-0.047932 0.225540 0.634877
-0.043870 0.220226 0.619859
-0.040464 0.217680 0.612640
-0.018595 0.127421 0.358523
-0.016835 0.126943 0.357150
-0.015228 0.127641 0.359087
-0.013631 0.128619 0.361812
-0.011902 0.128446 0.361299
-0.010470 0.131965 0.371173
-0.008941 0.135419 0.380865
-0.007120 0.135105 0.379960
-0.005316 0.135001 0.379648
-0.003550 0.136264 0.383179
-0.001736 0.136316 0.383310
0.000080 0.136171 0.382882
0.001892 0.136004 0.382400
0.003720 0.136578 0.383998
0.003646 0.089894 0.252736
0.004802 0.089102 0.250502
0.005955 0.088592 0.249060
0.007135 0.088586 0.249038
0.008315 0.088575 0.249005
0.008658 0.080767 0.227051
0.009690 0.080395 0.226001
0.010645 0.079526 0.223558
0.011705 0.079528 0.223561
0.012784 0.079641 0.223879
0.013897 0.079940 0.224720
0.014791 0.079020 0.222135
0.015691 0.078256 0.219987
0.016677 0.077989 0.219239
0.017715 0.077981 0.219220
0.018720 0.077835 0.218812
0.019761 0.077845 0.218846
0.021024 0.078688 0.221218
0.022225 0.079229 0.222745
0.023349 0.079460 0.223398
0.024452 0.079599 0.223795
0.025660 0.080056 0.225084
0.026980 0.080813 0.227217
0.028111 0.080964 0.227649
0.029275 0.081196 0.228308
0.030391 0.081285 0.228564
0.031505 0.081361 0.228782
0.032714 0.081671 0.229661
0.034046 0.082256 0.231312
0.035235 0.082471 0.231922
0.036578 0.083021 0.233473
0.037727 0.083112 0.233733
0.038875 0.083195 0.233971
0.040071 0.083372 0.234475
0.041256 0.083520 0.234894
0.042495 0.083764 0.235584
0.043889 0.084295 0.237079
0.045116 0.084485 0.237613
0.046423 0.084813 0.238538
0.047646 0.084974 0.238989
0.048923 0.085223 0.239687
0.050129 0.085340 0.240013
0.051466 0.085669 0.240935
0.052736 0.085874 0.241504
0.054019 0.086092 0.242111
0.055219 0.086170 0.242320
0.056520 0.086401 0.242959
0.057843 0.086654 0.243659
0.059023 0.086687 0.243737
0.060324 0.086893 0.244298
0.061678 0.087167 0.245050
0.063351 0.087872 0.247010
0.064405 0.087709 0.246529
0.065694 0.087866 0.246943
0.067006 0.088047 0.247423
0.068320 0.088225 0.247893
0.069604 0.088358 0.248230
0.070817 0.088399 0.248306
0.072058 0.088472 0.248471
0.073425 0.088696 0.249053
0.074656 0.088750 0.249157
0.075875 0.088788 0.249211
0.077335 0.089103 0.250039
0.078302 0.088849 0.249266
0.079901 0.089309 0.250491
0.081400 0.089644 0.251362
0.082427 0.089459 0.250768
0.083454 0.089277 0.250180
0.083698 0.088276 0.247292
0.084237 0.087609 0.245338
0.083017 0.085156 0.238376
0.083715 0.084710 0.237034
0.084658 0.084520 0.236403
0.085711 0.084444 0.236086
0.086615 0.084224 0.235361
0.087584 0.084073 0.234822
0.088554 0.083926 0.234290
0.089369 0.083638 0.233358
0.090575 0.083718 0.233448
0.091452 0.083496 0.232687
0.092303 0.083256 0.231871
0.093289 0.083141 0.231397
0.094047 0.082829 0.230365
0.094885 0.082593 0.229542
0.095749 0.082385 0.228787
0.096653 0.082216 0.228134
0.097441 0.081952 0.227211
0.098170 0.081647 0.226163
0.098881 0.081331 0.225083
0.099599 0.081029 0.224030
0.100315 0.080732 0.222984
0.100889 0.080328 0.221633
0.101531 0.079986 0.220446
0.102364 0.079800 0.219680
0.103111 0.079551 0.218733
0.103776 0.079244 0.217617
0.104561 0.079035 0.216758
0.105336 0.078821 0.215877
0.106147 0.078639 0.215072
0.106922 0.078434 0.214191
0.107679 0.078220 0.213275
0.108466 0.078031 0.212417
0.109173 0.077789 0.211400
0.109826 0.077513 0.210278
0.110714 0.077406 0.209603
0.111489 0.077223 0.208706
0.112157 0.076970 0.207605
-0.987725 0.672565 1.803624
-0.976649 0.670998 1.802837
-1.065546 0.738711 1.988384
-1.054477 0.737726 1.989201
-1.028692 0.726334 1.961764
-1.019856 0.726807 1.966197
-0.911304 0.655560 1.776187
-0.880654 0.639531 1.735317
-0.872912 0.639990 1.739022
-0.864406 0.639893 1.741120
-0.855264 0.639320 1.741822
-1.000119 0.802582 2.203487
-0.971110 0.787579 2.164277
-0.950358 0.779023 2.142637
-0.939724 0.778666 2.143444
-0.931068 0.779959 2.148715
-0.921596 0.780590 2.152086
-0.911758 0.780922 2.154563
-0.319304 0.352666 0.981374
-0.315017 0.353045 0.982622
-0.304464 0.346308 0.964045
-0.303619 0.350576 0.976087
-0.299553 0.351199 0.977967
-0.294592 0.350778 0.976924
-0.290224 0.351059 0.977824
-0.285656 0.351104 0.978052
-0.280412 0.350307 0.975922
-0.275114 0.349414 0.973512
-0.269371 0.347917 0.969406
-0.261720 0.343862 0.958159
-0.257473 0.344214 0.959183
-0.244062 0.332111 0.925487
-0.235624 0.326457 0.909752
-0.228977 0.323121 0.900469
-0.219900 0.316166 0.881089
-0.212887 0.311968 0.869388
-0.206712 0.308859 0.860710
-0.154474 0.245234 0.683344
-0.148164 0.240221 0.669348
-0.146043 0.241930 0.674078
-0.141073 0.238891 0.665573
-0.136626 0.236620 0.659206
-0.133250 0.236142 0.657829
-0.130103 0.236056 0.657544
-0.127104 0.236241 0.658008
-0.124013 0.236261 0.658014
-0.121008 0.236450 0.658486
-0.118284 0.237213 0.660553
-0.115408 0.237703 0.661859
-0.112644 0.238459 0.663900
-0.109867 0.239230 0.665985
-0.107051 0.239958 0.667947
-0.103934 0.240038 0.668104
-0.101158 0.240934 0.670528
-0.097994 0.240934 0.670461
-0.094833 0.240940 0.670410
-0.091833 0.241373 0.671545
-0.088637 0.241302 0.671279
-0.085389 0.241081 0.670594
-0.082192 0.240990 0.670272
-0.078813 0.240340 0.668394
-0.075455 0.239701 0.666549
-0.072004 0.238698 0.663690
-0.068580 0.237698 0.660844
-0.065188 0.236723 0.658068
-0.061802 0.235671 0.655077
-0.058365 0.234302 0.651209
-0.054926 0.232775 0.646904
-0.051821 0.232563 0.646253
-0.048370 0.230680 0.640963
-0.044520 0.226514 0.629330
-0.041033 0.223729 0.621539
-0.018558 0.128896 0.357997
-0.016874 0.128968 0.358171
-0.015200 0.129149 0.358645
-0.013548 0.129587 0.359838
-0.011914 0.130351 0.361934
-0.010415 0.133085 0.369502
-0.008850 0.135913 0.377331
-0.007111 0.136842 0.379888
-0.005312 0.136827 0.379828
-0.003542 0.137969 0.382978
-0.001736 0.138603 0.384720
0.000086 0.138551 0.384559
0.001907 0.138423 0.384187
0.003720 0.138156 0.383433
0.005536 0.138153 0.383412
0.004793 0.090054 0.249916
0.005911 0.089063 0.247159
0.007026 0.088351 0.245180
0.008209 0.088571 0.245784
0.009400 0.088818 0.246465
0.010623 0.089284 0.247754
0.011198 0.084747 0.235163
0.011584 0.079726 0.221228
0.012620 0.079647 0.221008
0.013594 0.079220 0.219824
0.014624 0.079152 0.219634
0.015695 0.079302 0.220051
0.016447 0.077923 0.216225
0.017521 0.078140 0.216830
0.018592 0.078320 0.217333
0.019511 0.077872 0.216091
0.020557 0.077954 0.216321
0.022182 0.080118 0.222331
0.023312 0.080377 0.223052
0.024611 0.081174 0.225268
0.025787 0.081513 0.226214
0.026946 0.081775 0.226945
0.028074 0.081925 0.227366
0.029172 0.081980 0.227521
0.030401 0.082387 0.228655
0.031454 0.082302 0.228426
0.032810 0.082991 0.230342
0.033939 0.083081 0.230595
0.035144 0.083343 0.231327
0.036365 0.083629 0.232123
0.037651 0.084040 0.233268
0.038771 0.084071 0.233355
0.040030 0.084389 0.234242
0.041202 0.084514 0.234588
0.042477 0.084837 0.235488
0.043774 0.085188 0.236460
0.044926 0.085244 0.236615
0.046219 0.085558 0.237485
0.047476 0.085794 0.238136
0.048764 0.086072 0.238905
0.049951 0.086162 0.239150
0.051217 0.086384 0.239758
0.052467 0.086569 0.240262
0.053823 0.086916 0.241215
0.055033 0.087018 0.241487
0.056313 0.087224 0.242046
0.057615 0.087456 0.242673
0.058934 0.087703 0.243343
0.060207 0.087874 0.243798
0.061479 0.088037 0.244227
0.062858 0.088344 0.245055
0.064180 0.088561 0.245630
0.065408 0.088644 0.245831
0.066872 0.089037 0.246887
0.068318 0.089392 0.247837
0.069609 0.089537 0.248200
0.070822 0.089578 0.248271
0.072033 0.089615 0.248329
0.073280 0.089695 0.248503
0.074633 0.089899 0.249017
0.075894 0.089989 0.249207
0.076929 0.089811 0.248656
0.078102 0.089798 0.248555
0.079503 0.090043 0.249165
0.081248 0.090665 0.250812
0.082477 0.090701 0.250835
0.083455 0.090463 0.250094
0.084188 0.089972 0.248648
0.083671 0.088175 0.243592
0.082940 0.086206 0.238058
0.083512 0.085626 0.236358
0.084355 0.085336 0.235454
0.085438 0.085293 0.235226
0.086435 0.085165 0.234760
0.087280 0.084893 0.233890
0.088172 0.084674 0.233159
0.089276 0.084660 0.232990
0.090170 0.084450 0.232274
0.091147 0.084323 0.231777
0.092225 0.084290 0.231534
0.093145 0.084115 0.230896
0.094024 0.083908 0.230160
0.094878 0.083684 0.229372
0.095851 0.083568 0.228872
0.096665 0.083318 0.228000
0.097510 0.083100 0.227204
0.098305 0.082844 0.226300
0.099021 0.082528 0.225223
0.099520 0.082040 0.223669
0.100283 0.081778 0.222724
0.100837 0.081353 0.221325
0.101566 0.081076 0.220324
0.102339 0.080840 0.219423
0.102891 0.080435 0.218055
0.103684 0.080225 0.217207
0.104482 0.080024 0.216370
0.105082 0.079676 0.215128
0.105833 0.079449 0.214201
0.106664 0.079284 0.213433
0.107397 0.079051 0.212467
0.108180 0.078859 0.211599
0.108818 0.078566 0.210449
0.109558 0.078351 0.209494
0.110252 0.078107 0.208450
0.110986 0.077896 0.207477
0.111869 0.077793 0.206777
-0.980359 0.676355 1.787774
-0.987589 0.687463 1.820665
-1.064054 0.747406 1.983103
-1.052758 0.746237 1.983542
-1.033362 0.739254 1.968348
-1.024460 0.739718 1.972822
-0.897156 0.653894 1.746681
-0.884748 0.650977 1.741521
-0.875838 0.650604 1.743046
-0.867256 0.650470 1.745113
-0.857266 0.649268 1.744209
-0.999377 0.812562 2.200163
-0.968302 0.795658 2.156420
-0.952703 0.791245 2.146389
-0.938718 0.788092 2.139674
-0.931195 0.790354 2.147578
-0.922188 0.791393 2.152086
-0.909822 0.789542 2.148658
-0.317314 0.355093 0.975026
-0.311099 0.353255 0.970185
-0.305385 0.351939 0.966761
-0.303523 0.355091 0.975593
-0.298584 0.354685 0.974636
-0.294164 0.354891 0.975346
-0.290129 0.355576 0.977361
-0.285836 0.355963 0.978542
-0.280504 0.355047 0.976126
-0.274794 0.353616 0.972281
-0.268810 0.351776 0.967299
-0.262073 0.348871 0.959378
-0.253435 0.343290 0.944083
-0.245354 0.338278 0.930342
-0.237461 0.333347 0.916813
-0.228943 0.327340 0.900317
-0.221232 0.322283 0.886422
-0.213760 0.317386 0.872959
-0.206796 0.313066 0.861076
-0.154243 0.248103 0.682360
-0.148487 0.243926 0.670852
-0.146993 0.246723 0.678518
-0.141806 0.243307 0.669092
-0.137315 0.240958 0.662599
-0.134152 0.240883 0.662355
-0.130922 0.240683 0.661764
-0.128081 0.241206 0.663161
-0.125131 0.241544 0.664041
-0.122200 0.241938 0.665078
-0.119395 0.242609 0.666869
-0.116289 0.242687 0.667030
-0.113598 0.243662 0.669652
-0.110805 0.244467 0.671806
-0.107687 0.244581 0.672061
-0.104848 0.245355 0.674127
-0.101906 0.245930 0.675642
-0.098659 0.245782 0.675172
-0.095638 0.246207 0.676277
-0.092410 0.246111 0.675946
-0.089195 0.246040 0.675688
-0.085995 0.246011 0.675540
-0.082594 0.245384 0.673753
-0.079119 0.244476 0.671195
-0.075534 0.243140 0.667462
-0.072140 0.242329 0.665172
-0.068699 0.241279 0.662225
-0.065282 0.240217 0.659248
-0.061653 0.238229 0.653731
-0.058177 0.236659 0.649362
-0.054694 0.234879 0.644420
-0.051441 0.233938 0.641780
-0.048269 0.233271 0.639895
-0.044710 0.230523 0.632304
-0.041330 0.228368 0.626340
-0.038381 0.228445 0.626500
-0.018499 0.130209 0.357038
-0.016829 0.130359 0.357423
-0.015224 0.131100 0.359430
-0.013496 0.130838 0.358685
-0.011865 0.131572 0.360674
-0.010347 0.134031 0.367393
-0.008840 0.137634 0.377247
-0.007076 0.138059 0.378390
-0.005291 0.138227 0.378832
-0.003517 0.139027 0.381005
-0.001714 0.139088 0.381154
0.000092 0.139171 0.381364
0.001893 0.138797 0.380324
0.003693 0.138773 0.380244
0.005458 0.137847 0.377695
0.007257 0.138043 0.378221
0.009029 0.137732 0.377359
0.010758 0.136986 0.375306
0.008335 0.091079 0.249527
0.009475 0.090668 0.248397
0.010609 0.090301 0.247386
0.011411 0.087466 0.239618
0.012578 0.087681 0.240203
0.013519 0.086419 0.236744
0.013521 0.079805 0.218626
0.014447 0.079201 0.216970
0.015449 0.079069 0.216607
0.016375 0.078585 0.215283
0.017430 0.078739 0.215705
0.018498 0.078934 0.216241
0.019504 0.078857 0.216030
0.020466 0.078617 0.215376
0.022093 0.080831 0.221443
0.023202 0.081038 0.222011
0.024441 0.081660 0.223718
0.025569 0.081875 0.224311
0.026922 0.082764 0.226749
0.027998 0.082766 0.226758
0.029083 0.082795 0.226841
0.030256 0.083062 0.227575
0.031374 0.083164 0.227857
0.032573 0.083467 0.228690
0.033706 0.083586 0.229019
0.034884 0.083808 0.229628
0.036396 0.084793 0.232329
0.037539 0.084884 0.232578
0.038654 0.084911 0.232653
0.039990 0.085405 0.234008
0.041312 0.085846 0.235215
0.042545 0.086083 0.235863
0.043697 0.086149 0.236041
0.044855 0.086220 0.236233
0.046078 0.086411 0.236753
0.047358 0.086698 0.237533
0.048617 0.086933 0.238171
0.049828 0.087074 0.238550
0.051133 0.087370 0.239349
0.052429 0.087637 0.240071
0.053737 0.087911 0.240808
0.055006 0.088114 0.241349
0.056249 0.088265 0.241748
0.057533 0.088474 0.242303
0.058823 0.088683 0.242856
0.060115 0.088887 0.243392
0.061562 0.089309 0.244522
0.062782 0.089393 0.244723
0.064111 0.089624 0.245327
0.065367 0.089747 0.245631
0.066729 0.090010 0.246313
0.068149 0.090338 0.247174
0.069460 0.090515 0.247616
0.070770 0.090684 0.248033
0.072306 0.091133 0.249212
0.073908 0.091647 0.250566
0.075077 0.091619 0.250430
0.076063 0.091370 0.249691
0.077364 0.091502 0.249988
0.078549 0.091494 0.249897
0.079666 0.091409 0.249593
0.080689 0.091220 0.248999
0.081790 0.091123 0.248654
0.082776 0.090903 0.247967
0.083633 0.090549 0.246910
0.083332 0.088969 0.242507
0.083340 0.087757 0.239104
0.083540 0.086776 0.236331
0.084124 0.086217 0.234699
0.085198 0.086167 0.234451
0.086327 0.086173 0.234349
0.086963 0.085694 0.232920
0.087889 0.085507 0.232283
0.089047 0.085550 0.232262
0.089948 0.085346 0.231566
0.090847 0.085146 0.230874
0.091967 0.085155 0.230742
0.092956 0.085044 0.230277
0.093924 0.084917 0.229760
0.094832 0.084739 0.229101
0.095672 0.084505 0.228281
0.096652 0.084398 0.227797
0.097399 0.084093 0.226771
0.097887 0.083573 0.225158
0.098083 0.082818 0.222906
0.098948 0.082637 0.222194
0.099741 0.082402 0.221326
0.100273 0.081958 0.219888
0.101085 0.081750 0.219074
0.101871 0.081525 0.218207
0.102683 0.081325 0.217397
0.103443 0.081088 0.216478
0.104352 0.080972 0.215870
0.105195 0.080807 0.215121
0.105978 0.080600 0.214249
0.106737 0.080378 0.213328
0.107578 0.080222 0.212567
0.108227 0.079927 0.211425
0.108715 0.079520 0.209976
0.109168 0.079095 0.208468
0.109882 0.078865 0.207462
0.110431 0.078522 0.206144
0.111246 0.078373 0.205320
-1.000882 0.699504 1.822661
-1.070949 0.755196 1.971685
-1.061865 0.755579 1.976446
-1.051822 0.755281 1.979279
-1.028535 0.745380 1.956760
-1.019649 0.745829 1.961234
-0.896675 0.662051 1.743744
-0.886619 0.660846 1.743268
-0.876945 0.659907 1.743376
-0.870041 0.661054 1.748896
-0.859315 0.659292 1.746617
-0.997646 0.821715 2.194599
-0.972232 0.809288 2.163503
-0.949983 0.799257 2.138666
-0.937925 0.797676 2.136325
-0.928743 0.798535 2.140433
-0.918684 0.798649 2.142470
-0.907541 0.797815 2.141883
-0.315588 0.357763 0.969475
-0.313265 0.360348 0.976703
-0.304432 0.355412 0.963528
-0.303217 0.359355 0.974405
-0.298745 0.359499 0.974969
-0.293985 0.359297 0.974580
-0.289658 0.359625 0.975614
-0.285236 0.359844 0.976340
-0.280330 0.359451 0.975390
-0.274381 0.357685 0.970702
-0.268467 0.355906 0.965962
-0.262194 0.353582 0.959733
-0.254168 0.348771 0.946741
-0.244915 0.342073 0.928616
-0.241313 0.343170 0.931638
-0.228956 0.331627 0.900333
-0.219826 0.324410 0.880764
-0.212900 0.320231 0.869436
-0.206084 0.316058 0.858113
-0.153274 0.249760 0.678099
-0.148050 0.246381 0.668909
-0.146620 0.249307 0.676836
-0.141812 0.246493 0.669171
-0.137705 0.244796 0.664537
-0.134753 0.245121 0.665389
-0.131898 0.245642 0.666771
-0.128965 0.246041 0.667814
-0.126471 0.247319 0.671243
-0.123280 0.247264 0.671049
-0.120320 0.247681 0.672136
-0.117339 0.248079 0.673166
-0.114266 0.248298 0.673710
-0.111437 0.249074 0.675762
-0.108373 0.249356 0.676474
-0.105397 0.249866 0.677800
-0.102323 0.250165 0.678554
-0.099253 0.250496 0.679394
-0.096139 0.250736 0.679984
-0.092878 0.250594 0.679537
-0.089675 0.250604 0.679503
-0.086475 0.250626 0.679502
-0.082916 0.249569 0.676573
-0.079455 0.248730 0.674238
-0.075813 0.247237 0.670130
-0.072299 0.246047 0.666843
-0.068811 0.244844 0.663523
-0.065053 0.242518 0.657161
-0.061523 0.240852 0.652588
-0.057862 0.238469 0.646075
-0.054569 0.237427 0.643197
-0.051353 0.236613 0.640936
-0.048035 0.235198 0.637051
-0.045028 0.235226 0.637073
-0.041686 0.233376 0.632012
-0.038025 0.229318 0.620976
-0.035099 0.229389 0.621122
-0.018490 0.131878 0.357062
-0.016813 0.131967 0.357277
-0.015118 0.131923 0.357133
-0.013466 0.132298 0.358127
-0.011799 0.132607 0.358940
-0.010204 0.133969 0.362604
-0.008794 0.138794 0.375643
-0.007129 0.141022 0.381651
-0.005296 0.140314 0.379715
-0.003516 0.141015 0.381595
-0.001713 0.141338 0.382449
0.000098 0.141275 0.382265
0.001904 0.141005 0.381519
0.003698 0.140538 0.380241
0.005475 0.139928 0.378575
0.007251 0.139591 0.377652
0.009019 0.139277 0.376792
0.010745 0.138523 0.374742
0.012519 0.138507 0.374692
0.014082 0.136453 0.369128
0.010533 0.090789 0.245594
0.011442 0.088807 0.240230
0.012499 0.088234 0.238677
0.013650 0.088369 0.239038
0.014795 0.088441 0.239232
0.015863 0.088076 0.238244
0.016988 0.088051 0.238175
0.016389 0.079657 0.215467
0.017396 0.079592 0.215293
0.018416 0.079589 0.215284
0.019453 0.079656 0.215465
0.020461 0.079604 0.215327
0.022848 0.084667 0.229023
0.023882 0.084484 0.228529
0.024627 0.083339 0.225433
0.025707 0.083375 0.225532
0.026898 0.083753 0.226557
0.027972 0.083751 0.226553
0.029076 0.083838 0.226789
0.030229 0.084054 0.227375
0.031342 0.084148 0.227632
0.032438 0.084191 0.227747
0.033598 0.084390 0.228286
0.034815 0.084717 0.229171
0.035938 0.084802 0.229402
0.037105 0.084983 0.229890
0.038364 0.085358 0.230905
0.039896 0.086303 0.233459
0.041148 0.086606 0.234275
0.042359 0.086811 0.234826
0.043532 0.086930 0.235142
0.044572 0.086781 0.234735
0.046047 0.087467 0.236583
0.047254 0.087624 0.237001
0.048566 0.087963 0.237909
0.049780 0.088113 0.238303
0.051067 0.088382 0.239020
0.052384 0.088692 0.239843
0.053623 0.088857 0.240274
0.054973 0.089197 0.241178
0.056222 0.089362 0.241604
0.057508 0.089577 0.242164
0.058748 0.089713 0.242510
0.060039 0.089922 0.243049
0.061307 0.090088 0.243469
0.062675 0.090391 0.244259
0.064045 0.090688 0.245028
0.065273 0.090776 0.245230
0.066516 0.090880 0.245473
0.067698 0.090900 0.245483
0.069257 0.091416 0.246832
0.071207 0.092423 0.249501
0.073001 0.093197 0.251540
0.074331 0.093363 0.251931
0.075200 0.092954 0.250765
0.076242 0.092769 0.250202
0.077380 0.092704 0.249959
0.078414 0.092517 0.249384
0.079415 0.092299 0.248718
0.080479 0.092159 0.248259
0.081463 0.091932 0.247564
0.082577 0.091856 0.247268
0.083299 0.091353 0.245821
0.083643 0.090455 0.243303
0.083018 0.088547 0.238071
0.083635 0.087999 0.236489
0.084228 0.087439 0.234873
0.085125 0.087206 0.234130
0.086053 0.087010 0.233480
0.086879 0.086717 0.232564
0.087794 0.086520 0.231900
0.088711 0.086328 0.231246
0.089714 0.086225 0.230823
0.090719 0.086125 0.230401
0.091626 0.085937 0.229735
0.092667 0.085876 0.229404
0.093752 0.085858 0.229178
0.094663 0.085682 0.228526
0.095558 0.085495 0.227836
0.096524 0.085376 0.227318
0.097310 0.085103 0.226381
0.098032 0.084780 0.225305
0.098681 0.084400 0.224072
0.099360 0.084055 0.222923
0.099643 0.083385 0.220904
0.100100 0.082875 0.219300
0.100801 0.082574 0.218244
0.101605 0.082363 0.217417
0.102366 0.082122 0.216500
0.103179 0.081927 0.215693
0.104021 0.081759 0.214947
0.104784 0.081532 0.214035
0.105560 0.081320 0.213151
0.106330 0.081107 0.212254
0.107048 0.080859 0.211252
0.107696 0.080563 0.210113
0.107990 0.080011 0.208295
0.108657 0.079743 0.207204
0.109331 0.079484 0.206124
0.109871 0.079134 0.204793
0.110559 0.078896 0.203739
-1.000560 0.708268 1.819450
-0.990013 0.707097 1.820135
-1.063595 0.766538 1.976991
-1.050992 0.764386 1.975130
-1.021677 0.749927 1.941252
-1.012824 0.750359 1.945719
-0.898178 0.671685 1.744594
-0.886912 0.669562 1.741839
-0.882271 0.672448 1.752010
-0.873080 0.671889 1.753111
-0.861359 0.669354 1.748943
-0.991007 0.826738 2.178183
-0.963123 0.812010 2.141510
-0.946730 0.806758 2.129685
-0.940792 0.810399 2.141247
-0.931270 0.810999 2.144700
-0.917738 0.808083 2.138766
-0.901061 0.802301 2.125152
-0.315212 0.361932 0.968049
-0.305318 0.355724 0.951677
-0.305836 0.361643 0.967732
-0.302930 0.363632 0.973256
-0.296871 0.361839 0.968645
-0.292883 0.362554 0.970732
-0.288870 0.363260 0.972781
-0.284379 0.363379 0.973243
-0.279506 0.363006 0.972373
-0.273578 0.361227 0.967724
-0.267160 0.358730 0.961138
-0.260810 0.356241 0.954561
-0.254459 0.353664 0.947733
-0.246945 0.349348 0.936235
-0.240975 0.347101 0.930269
-0.232985 0.341807 0.916126
-0.220789 0.330026 0.884587
-0.213845 0.325794 0.873270
-0.204496 0.317660 0.851484
-0.200671 0.317954 0.852284
-0.153404 0.253191 0.678686
-0.148566 0.250424 0.671263
-0.147526 0.254080 0.681050
-0.142270 0.250474 0.671369
-0.138460 0.249309 0.668225
-0.135776 0.250164 0.670492
-0.133152 0.251174 0.673171
-0.130262 0.251719 0.674602
-0.127425 0.252397 0.676384
-0.124306 0.252536 0.676718
-0.121131 0.252566 0.676759
-0.118014 0.252723 0.677137
-0.115071 0.253273 0.678564
-0.111890 0.253315 0.678628
-0.108932 0.253877 0.680085
-0.105803 0.254065 0.680537
-0.102824 0.254636 0.682015
-0.099726 0.254941 0.682776
-0.096450 0.254797 0.682336
-0.093317 0.255032 0.682908
-0.090082 0.254996 0.682756
-0.086623 0.254301 0.680836
-0.083133 0.253456 0.678519
-0.079513 0.252134 0.674921
-0.075896 0.250710 0.671053
-0.072466 0.249811 0.668589
-0.068845 0.248139 0.664057
-0.065153 0.246040 0.658383
-0.061477 0.243792 0.652314
-0.057919 0.241806 0.646945
-0.054508 0.240243 0.642712
-0.051151 0.238749 0.638662
-0.047983 0.238002 0.636614
-0.044918 0.237706 0.635774
-0.041285 0.234144 0.626199
-0.038009 0.232215 0.620994
-0.035084 0.232286 0.621139
-0.018364 0.132693 0.354799
-0.016697 0.132780 0.355008
-0.015105 0.133549 0.357041
-0.013373 0.133121 0.355874
-0.011714 0.133398 0.356591
-0.010117 0.134596 0.359774
-0.008613 0.137768 0.368232
-0.006984 0.140047 0.374302
-0.005254 0.141146 0.377219
-0.003476 0.141450 0.378015
-0.001700 0.142540 0.380909
0.000104 0.143202 0.382662
0.001913 0.143035 0.382200
0.003716 0.142786 0.381521
0.005504 0.142314 0.380246
0.007269 0.141629 0.378405
0.008995 0.140586 0.375607
0.010708 0.139727 0.373300
0.012461 0.139569 0.372869
0.014064 0.137962 0.368567
0.015807 0.137941 0.368504
0.016833 0.132287 0.353395
0.012743 0.091085 0.243323
0.013634 0.089366 0.238727
0.014712 0.089046 0.237871
0.015791 0.088776 0.237147
0.016915 0.088778 0.237151
0.017557 0.086407 0.230814
0.017499 0.081071 0.216560
0.018572 0.081275 0.217105
0.019588 0.081220 0.216956
0.020632 0.081286 0.217132
0.022920 0.086009 0.229750
0.023983 0.085915 0.229497
0.024944 0.085478 0.228331
0.025928 0.085157 0.227473
0.026862 0.084701 0.226255
0.027914 0.084640 0.226093
0.029011 0.084713 0.226287
0.030089 0.084726 0.226321
0.031243 0.084946 0.226911
0.032404 0.085170 0.227507
0.033562 0.085372 0.228046
0.034731 0.085586 0.228616
0.035844 0.085654 0.228797
0.036989 0.085795 0.229170
0.038232 0.086146 0.230104
0.039928 0.087471 0.233641
0.041167 0.087748 0.234375
0.042385 0.087970 0.234960
0.043548 0.088066 0.235213
0.044735 0.088206 0.235577
0.045824 0.088151 0.235421
0.047102 0.088453 0.236217
0.048337 0.088663 0.236768
0.049548 0.088818 0.237168
0.050921 0.089252 0.238312
0.052242 0.089576 0.239163
0.053516 0.089809 0.239765
0.054808 0.090061 0.240420
0.056116 0.090329 0.241114
0.057462 0.090646 0.241935
0.058701 0.090784 0.242278
0.059967 0.090958 0.242714
0.061257 0.091162 0.243226
0.062407 0.091152 0.243168
0.063552 0.091137 0.243090
0.064770 0.091225 0.243285
0.066113 0.091482 0.243929
0.068791 0.093545 0.249384
0.070847 0.094707 0.252434
0.072433 0.095212 0.253726
0.073610 0.095172 0.253562
0.074459 0.094717 0.252287
0.075536 0.094560 0.251806
0.076410 0.094159 0.250669
0.077309 0.093799 0.249640
0.078320 0.093585 0.248994
0.079356 0.093407 0.248440
0.080399 0.093242 0.247915
0.081353 0.092979 0.247126
0.082311 0.092729 0.246367
0.083320 0.092542 0.245773
0.083189 0.091111 0.241869
0.083485 0.090182 0.239294
0.083753 0.089247 0.236703
0.084362 0.088696 0.235124
0.084756 0.087936 0.232989
0.085696 0.087755 0.232381
0.086598 0.087540 0.231680
0.087432 0.087263 0.230806
0.088369 0.087093 0.230212
0.089382 0.087003 0.229821
0.090308 0.086829 0.229204
0.091230 0.086658 0.228585
0.092364 0.086688 0.228492
0.093291 0.086526 0.227883
0.094201 0.086352 0.227236
0.095151 0.086219 0.226689
0.096013 0.086009 0.225932
0.096886 0.085813 0.225205
0.097620 0.085501 0.224163
0.098088 0.084964 0.222525
0.098720 0.084580 0.221281
0.099361 0.084211 0.220070
0.100056 0.083895 0.218987
0.100685 0.083532 0.217772
0.101543 0.083364 0.217056
0.102341 0.083150 0.216212
0.103148 0.082948 0.215389
0.103992 0.082780 0.214640
0.104680 0.082491 0.213569
0.105403 0.082235 0.212572
0.106038 0.081917 0.211402
0.106727 0.081646 0.210342
0.107025 0.081084 0.208523
0.107352 0.080554 0.206774
0.108076 0.080329 0.205798
0.108718 0.080047 0.204662
0.109383 0.079788 0.203568
0.110142 0.079602 0.202647
-0.997168 0.714827 1.810574
-0.989869 0.715968 1.817239
-1.053082 0.768595 1.954710
-1.050127 0.773450 1.970828
-1.041057 0.773851 1.975476
-0.896671 0.679069 1.739521
-0.886675 0.677879 1.739295
-0.879912 0.679162 1.745306
-0.872952 0.680317 1.750891
-0.862663 0.678875 1.749690
-0.978080 0.826310 2.147910
-0.958649 0.818495 2.129776
-0.943371 0.814099 2.120412
-0.940056 0.820043 2.137896
-0.930523 0.820634 2.141357
-0.916984 0.817666 2.135444
-0.888137 0.800830 2.093190
-0.306501 0.356399 0.941012
-0.309198 0.364819 0.963495
