ply
format ascii 1.0
element vertex 1747
property float x
property float y
property float z
end_header
-0.480208 0.142488 1.431718
-0.470598 0.141629 1.422602
-0.460460 0.140583 1.411605
-0.451630 0.139911 1.404360
-0.442339 0.139075 1.395449
-0.431095 0.137590 1.380027
-0.310223 0.103719 1.039056
-0.303202 0.103003 1.031464
-0.296742 0.102459 1.025576
-0.293103 0.102886 1.029411
-0.288579 0.103012 1.030223
-0.283390 0.102901 1.028654
-0.278738 0.102984 1.029028
-0.274024 0.103047 1.029193
-0.268937 0.102969 1.027946
-0.263628 0.102802 1.025806
-0.257902 0.102463 1.021951
-0.251916 0.102006 1.016917
-0.245010 0.101152 1.007923
-0.238131 0.100274 0.998707
-0.231659 0.099536 0.990884
-0.226395 0.099296 0.988030
-0.220005 0.098543 0.980068
-0.033591 0.025224 0.248747
-0.032316 0.025163 0.248049
-0.031051 0.025105 0.247386
-0.029926 0.025160 0.247832
-0.028724 0.025153 0.247669
-0.026576 0.024280 0.238993
-0.025452 0.024307 0.239179
-0.024290 0.024297 0.239004
-0.022883 0.024031 0.236307
-0.021582 0.023853 0.234486
-0.020485 0.023893 0.234804
-0.018718 0.023112 0.227064
-0.017624 0.023114 0.227024
-0.016471 0.023036 0.226197
-0.015279 0.022887 0.224677
-0.014173 0.022854 0.224309
-0.013033 0.022757 0.223304
-0.011823 0.022509 0.220826
-0.010681 0.022357 0.219286
-0.009637 0.022395 0.219627
-0.007520 0.022420 0.219799
-0.006461 0.022439 0.219951
-0.005405 0.022476 0.220284
-0.004341 0.022490 0.220397
-0.000073 0.023224 0.227522
0.001027 0.023161 0.226904
0.002142 0.023324 0.228490
0.003259 0.023397 0.229203
0.004406 0.023588 0.231080
0.005523 0.023576 0.230966
0.006649 0.023597 0.231180
0.007796 0.023679 0.231995
0.008938 0.023726 0.232471
0.010109 0.023828 0.233490
0.011260 0.023870 0.233922
0.012412 0.023906 0.234293
0.013598 0.023995 0.235197
0.014795 0.024087 0.236134
0.015979 0.024148 0.236764
0.017191 0.024239 0.237694
0.018374 0.024280 0.238140
0.019543 0.024299 0.238366
0.020746 0.024356 0.238970
0.021908 0.024362 0.239080
0.023132 0.024432 0.239821
0.024360 0.024499 0.240538
0.025611 0.024582 0.241412
0.026899 0.024692 0.242553
0.028163 0.024772 0.243398
0.029353 0.024782 0.243567
0.030550 0.024797 0.243787
0.031749 0.024813 0.244019
0.032946 0.024826 0.244219
0.034162 0.024852 0.244548
0.035303 0.024824 0.244348
0.036499 0.024834 0.244534
0.037821 0.024928 0.245535
0.039924 0.025514 0.251396
0.041231 0.025572 0.252058
0.042204 0.025425 0.250702
0.043313 0.025367 0.250213
0.044615 0.025421 0.250840
0.051516 0.027145 0.268162
0.050529 0.025974 0.256694
0.051783 0.025984 0.256883
0.052950 0.025950 0.256648
0.052408 0.025099 0.248330
0.055221 0.025857 0.255930
0.056375 0.025821 0.255682
0.058027 0.026011 0.257661
0.059456 0.026095 0.258593
0.060753 0.026118 0.258929
0.061988 0.026115 0.258997
0.063201 0.026102 0.258977
0.064676 0.026197 0.260012
0.066449 0.026405 0.262188
0.067856 0.026464 0.262867
0.069084 0.026451 0.262847
0.070311 0.026439 0.262825
0.073127 0.027014 0.268641
0.074675 0.027109 0.269684
0.076058 0.027142 0.270107
0.077134 0.027066 0.269448
0.078467 0.027081 0.269691
0.079886 0.027125 0.270220
0.081222 0.027139 0.270454
0.082464 0.027122 0.270375
0.083659 0.027091 0.270145
0.085013 0.027111 0.270430
0.086228 0.027087 0.270269
0.087042 0.026939 0.268875
0.087308 0.026628 0.265848
0.086113 0.025888 0.258520
0.086772 0.025717 0.256882
0.087665 0.025620 0.255972
0.088933 0.025633 0.256163
0.089830 0.025541 0.255294
0.090686 0.025439 0.254326
0.091699 0.025384 0.253818
0.092628 0.025307 0.253090
0.093374 0.025182 0.251886
0.094028 0.025037 0.250461
0.095002 0.024979 0.249909
0.095728 0.024858 0.248723
0.096495 0.024750 0.247665
0.095377 0.024168 0.241850
0.095848 0.023997 0.240147
0.096541 0.023885 0.239030
0.097597 0.023864 0.238823
0.098382 0.023779 0.237958
0.099052 0.023667 0.236831
0.099395 0.023481 0.234952
0.100173 0.023401 0.234125
0.100948 0.023322 0.233302
0.101815 0.023266 0.232701
0.102632 0.023199 0.231991
0.103498 0.023145 0.231399
0.104383 0.023096 0.230854
0.105329 0.023062 0.230446
0.106052 0.022979 0.229554
0.106780 0.022900 0.228684
0.107529 0.022826 0.227864
0.108027 0.022702 0.226528
0.108368 0.022547 0.224882
0.109291 0.022515 0.224455
0.110124 0.022465 0.223844
0.110724 0.022369 0.222763
0.111746 0.022360 0.222534
0.112460 0.022289 0.221689
0.113121 0.022210 0.220745
0.113985 0.022171 0.220199
0.114900 0.022143 0.219749
-1.555425 0.324007 3.106643
-1.559006 0.327842 3.144933
-1.560658 0.331341 3.179920
-1.561388 0.334710 3.213573
-1.554208 0.336433 3.231327
-1.549966 0.338832 3.255482
-1.541818 0.340417 3.271718
-1.526628 0.340464 3.273066
-1.523787 0.343293 3.301075
-1.531349 0.348549 3.352332
-0.672688 0.154703 1.488201
-0.671743 0.156109 1.501967
-0.671259 0.157654 1.517026
-0.666812 0.158291 1.523312
-0.662720 0.159027 1.530513
-0.659487 0.159988 1.539838
-0.653139 0.160206 1.541976
-0.645758 0.160173 1.541660
-0.637582 0.159940 1.539380
-0.629186 0.159645 1.536478
-0.619944 0.159127 1.531387
-0.610436 0.158527 1.525485
-0.600541 0.157811 1.518433
-0.592125 0.157472 1.514973
-0.583524 0.157074 1.510928
-0.575209 0.156744 1.507509
-0.566656 0.156341 1.503356
-0.557251 0.155690 1.496791
-0.548456 0.155194 1.491702
-0.538889 0.154464 1.484342
-0.528936 0.153603 1.475700
-0.519894 0.152987 1.469397
-0.508394 0.151622 1.455876
-0.498728 0.150773 1.447307
-0.487873 0.149537 1.434999
-0.477415 0.148389 1.423534
-0.468273 0.147623 1.415722
-0.459228 0.146867 1.407982
-0.448645 0.145589 1.395238
-0.440785 0.145170 1.390714
-0.438193 0.146499 1.402924
-0.306198 0.107236 1.025721
-0.301233 0.107196 1.024915
-0.296980 0.107412 1.026552
-0.292734 0.107637 1.028274
-0.288110 0.107730 1.028711
-0.283267 0.107742 1.028379
-0.278478 0.107775 1.028241
-0.273747 0.107833 1.028331
-0.268754 0.107787 1.027430
-0.263408 0.107596 1.025141
-0.257581 0.107197 1.020871
-0.251609 0.106721 1.015872
-0.244295 0.105647 1.005180
-0.238429 0.105168 1.000157
-0.230982 0.103959 0.988190
-0.226658 0.104134 0.989391
-0.221804 0.104067 0.988295
-0.033672 0.026486 0.249421
-0.032364 0.026398 0.248493
-0.031105 0.026343 0.247886
-0.029976 0.026399 0.248323
-0.028676 0.026304 0.247333
-0.027199 0.026030 0.244675
-0.025691 0.025701 0.241500
-0.024328 0.025492 0.239463
-0.022988 0.025288 0.237465
-0.021580 0.024984 0.234536
-0.020344 0.024856 0.233268
-0.019017 0.024596 0.230769
-0.017593 0.024170 0.226710
-0.016447 0.024095 0.225947
-0.015340 0.024071 0.225668
-0.014089 0.023799 0.223063
-0.012939 0.023668 0.221786
-0.011778 0.023492 0.220086
-0.010732 0.023531 0.220412
-0.006447 0.023457 0.219576
-0.005391 0.023488 0.219841
-0.001173 0.024299 0.227350
0.002137 0.024361 0.227908
0.003262 0.024523 0.229418
0.004395 0.024644 0.230552
0.005513 0.024643 0.230551
0.006647 0.024709 0.231175
0.007782 0.024754 0.231603
0.008933 0.024835 0.232383
0.010085 0.024899 0.232994
0.011270 0.025023 0.234182
0.012407 0.025027 0.234241
0.013553 0.025048 0.234468
0.014782 0.025208 0.235988
0.015958 0.025258 0.236495
0.017104 0.025259 0.236543
0.018341 0.025385 0.237762
0.019546 0.025455 0.238461
0.020726 0.025486 0.238802
0.021916 0.025526 0.239219
0.023130 0.025588 0.239852
0.024311 0.025609 0.240105
0.025577 0.025714 0.241148
0.026858 0.025824 0.242241
0.028151 0.025935 0.243352
0.029386 0.025986 0.243898
0.030566 0.025988 0.243977
0.031776 0.026013 0.244284
0.032994 0.026042 0.244635
0.034183 0.026047 0.244760
0.035381 0.026059 0.244947
0.036559 0.026055 0.244993
0.037765 0.026071 0.245223
0.039101 0.026173 0.246267
0.041031 0.026655 0.250888
0.042054 0.026537 0.249866
0.043006 0.026382 0.248492
0.044440 0.026522 0.249909
0.051917 0.028655 0.270307
0.051055 0.027490 0.259419
0.051551 0.027094 0.255780
0.052866 0.027138 0.256291
0.053946 0.027061 0.255665
0.055080 0.027014 0.255323
0.056539 0.027125 0.256472
0.057947 0.027208 0.257353
0.059199 0.027215 0.257521
0.060760 0.027361 0.259006
0.062044 0.027379 0.259278
0.063435 0.027442 0.259977
0.064824 0.027503 0.260649
0.066619 0.027729 0.262899
0.067743 0.027674 0.262471
0.069077 0.027704 0.262860
0.070721 0.027856 0.264396
0.072730 0.028143 0.267222
0.074544 0.028346 0.269247
0.075950 0.028390 0.269759
0.077107 0.028341 0.269386
0.078294 0.028304 0.269130
0.079798 0.028381 0.269954
0.081091 0.028382 0.270049
0.082332 0.028364 0.269971
0.083610 0.028360 0.270018
0.084868 0.028350 0.269997
0.085983 0.028292 0.269526
0.086719 0.028113 0.267899
0.087649 0.028002 0.266910
0.088184 0.027769 0.264759
0.086892 0.026975 0.257257
0.087755 0.026864 0.256252
0.088695 0.026778 0.255494
0.089783 0.026739 0.255174
0.090581 0.026616 0.254047
0.091572 0.026552 0.253479
0.092447 0.026457 0.252609
0.093072 0.026293 0.251080
0.093954 0.026205 0.250270
0.094684 0.026077 0.249079
0.095226 0.025901 0.247423
0.095232 0.025586 0.244428
0.095697 0.025400 0.242662
0.095891 0.025148 0.240257
0.096504 0.025009 0.238937
0.097434 0.024956 0.238421
0.098200 0.024862 0.237514
0.098808 0.024730 0.236243
0.099121 0.024529 0.234299
0.099786 0.024418 0.233213
0.100736 0.024378 0.232804
0.101398 0.024271 0.231737
0.102328 0.024229 0.231294
0.103248 0.024186 0.230828
0.104088 0.024125 0.230189
0.105030 0.024088 0.229778
0.105818 0.024018 0.229030
0.106551 0.023936 0.228176
0.107219 0.023842 0.227189
0.107898 0.023752 0.226237
0.108607 0.023670 0.225356
0.109236 0.023573 0.224319
0.109901 0.023485 0.223365
0.110781 0.023444 0.222850
0.111552 0.023381 0.222119
0.112334 0.023322 0.221410
0.113143 0.023269 0.220756
0.113923 0.023211 0.220046
0.114796 0.023174 0.219514
-1.590574 0.346361 3.176504
-1.562704 0.343528 3.152076
-1.575725 0.349717 3.210318
-1.548779 0.347069 3.187345
-1.548048 0.350302 3.218261
-1.563970 0.357404 3.284655
-1.550607 0.357889 3.290147
-1.540337 0.359104 3.302259
-1.530936 0.360550 3.316384
-1.530779 0.364224 3.350925
-1.524593 0.366526 3.372748
-0.657805 0.159805 1.470752
-0.661914 0.162511 1.495864
-0.663493 0.164648 1.515695
-0.660300 0.165634 1.524901
-0.656269 0.166429 1.532309
-0.652064 0.167198 1.539433
-0.646647 0.167669 1.543786
-0.638154 0.167344 1.540775
-0.630041 0.167113 1.538589
-0.621091 0.166652 1.534251
-0.611827 0.166095 1.528998
-0.602206 0.165426 1.522691
-0.593883 0.165103 1.519527
-0.585350 0.164712 1.515719
-0.577490 0.164503 1.513560
-0.569390 0.164220 1.510690
-0.560662 0.163747 1.506040
-0.551131 0.163024 1.499074
-0.542152 0.162447 1.493434
-0.531617 0.161383 1.483291
-0.521601 0.160451 1.474340
-0.510929 0.159288 1.463262
-0.496812 0.157006 1.441879
-0.484497 0.155237 1.425207
-0.476945 0.154966 1.422276
-0.467024 0.153907 1.412096
-0.452957 0.151431 1.388912
-0.443281 0.150371 1.378718
-0.440513 0.151659 1.390025
-0.437943 0.153055 1.402302
-0.305785 0.111948 1.024485
-0.301348 0.112100 1.025460
-0.296435 0.112077 1.024827
-0.292051 0.112256 1.026038
-0.287657 0.112438 1.027264
-0.282920 0.112490 1.027293
-0.278118 0.112517 1.027093
-0.273404 0.112581 1.027227
-0.268441 0.112544 1.026424
-0.263036 0.112316 1.023887
-0.257343 0.111954 1.020127
-0.251088 0.111330 1.013974
-0.244599 0.110575 1.006636
-0.237235 0.109387 0.995358
-0.232058 0.109179 0.993007
-0.224992 0.108056 0.982333
-0.218814 0.107320 0.975192
-0.033486 0.027534 0.248118
-0.032206 0.027460 0.247358
-0.030925 0.027379 0.246534
-0.029655 0.027302 0.245748
-0.028421 0.027253 0.245220
-0.026761 0.026773 0.240821
-0.025639 0.026813 0.241097
-0.024391 0.026718 0.240161
-0.022291 0.025634 0.230348
-0.021172 0.025624 0.230187
-0.019799 0.025288 0.227107
-0.018740 0.025338 0.227491
-0.017700 0.025422 0.228178
-0.016433 0.025167 0.225834
-0.015182 0.024904 0.223425
-0.014034 0.024783 0.222286
-0.012910 0.024687 0.221370
-0.011824 0.024654 0.221030
-0.006453 0.024548 0.219901
-0.005383 0.024519 0.219618
-0.002262 0.025272 0.226295
-0.001168 0.025327 0.226768
-0.000071 0.025406 0.227463
0.001032 0.025437 0.227740
0.002136 0.025445 0.227802
0.003258 0.025589 0.229093
0.004377 0.025646 0.229602
0.005501 0.025701 0.230093
0.006614 0.025696 0.230059
0.007756 0.025785 0.230869
0.008911 0.025892 0.231840
0.010121 0.026116 0.233861
0.011244 0.026093 0.233679
0.012391 0.026127 0.234004
0.013562 0.026198 0.234672
0.014734 0.026262 0.235271
0.015930 0.026355 0.236143
0.017084 0.026372 0.236330
0.018271 0.026433 0.236921
0.019477 0.026514 0.237688
0.020697 0.026602 0.238523
0.021891 0.026651 0.239012
0.023136 0.026753 0.239976
0.024421 0.026889 0.241252
0.025608 0.026911 0.241502
0.026831 0.026965 0.242053
0.028050 0.027012 0.242539
0.029263 0.027050 0.242943
0.030455 0.027065 0.243149
0.031663 0.027093 0.243471
0.032918 0.027159 0.244129
0.034183 0.027227 0.244820
0.035347 0.027213 0.244769
0.036608 0.027272 0.245377
0.037811 0.027285 0.245583
0.039088 0.027350 0.246244
0.040443 0.027463 0.247349
0.041691 0.027500 0.247767
0.042866 0.027487 0.247742
0.044083 0.027501 0.247958
0.045782 0.027808 0.250815
0.051881 0.029932 0.270176
0.051441 0.028953 0.261435
0.052197 0.028677 0.259040
0.052961 0.028418 0.256801
0.053902 0.028264 0.255507
0.055324 0.028363 0.256505
0.056393 0.028281 0.255858
0.057880 0.028408 0.257105
0.059259 0.028477 0.257829
0.060692 0.028569 0.258762
0.062177 0.028681 0.259879
0.063378 0.028660 0.259791
0.065166 0.028900 0.262067
0.066368 0.028877 0.261950
0.067937 0.029010 0.263262
0.068872 0.028874 0.262120
0.070156 0.028885 0.262320
0.072927 0.029498 0.267984
0.074429 0.029585 0.268871
0.075873 0.029646 0.269521
0.076977 0.029575 0.268965
0.078213 0.029556 0.268884
0.079648 0.029611 0.269477
0.081122 0.029679 0.270183
0.082295 0.029636 0.269880
0.083477 0.029598 0.269614
0.084780 0.029603 0.269743
0.085834 0.029523 0.269086
0.086704 0.029382 0.267878
0.086870 0.029011 0.264560
0.086095 0.028340 0.258508
0.086602 0.028104 0.256417
0.087603 0.028033 0.255825
0.088604 0.027963 0.255247
0.089574 0.027886 0.254595
0.090452 0.027783 0.253697
0.091292 0.027671 0.252719
0.092124 0.027559 0.251736
0.093067 0.027483 0.251075
0.093713 0.027322 0.249637
0.094598 0.027235 0.248860
0.094896 0.026982 0.246572
0.095424 0.026800 0.244924
0.095515 0.026501 0.242202
0.095947 0.026303 0.240398
0.096611 0.026172 0.239204
0.097377 0.026072 0.238280
0.098173 0.025982 0.237445
0.098607 0.025799 0.235758
0.098910 0.025586 0.233793
0.099625 0.025484 0.232830
0.100457 0.025413 0.232151
0.101359 0.025361 0.231639
0.102237 0.025305 0.231076
0.103112 0.025249 0.230511
0.104025 0.025203 0.230035
0.104921 0.025154 0.229522
0.105790 0.025100 0.228953
0.106599 0.025033 0.228259
0.107318 0.024946 0.227377
0.107864 0.024821 0.226144
0.108554 0.024731 0.225222
0.109310 0.024658 0.224445
0.109855 0.024540 0.223245
0.110492 0.024443 0.222240
0.111332 0.024393 0.221650
0.111831 0.024270 0.220388
0.112582 0.024204 0.219628
0.113341 0.024140 0.218888
0.114140 0.024086 0.218224
-1.590055 0.361275 3.175102
-1.579213 0.362224 3.185034
-1.583803 0.366765 3.226454
-1.579481 0.369310 3.250226
-1.566537 0.369870 3.256421
-1.580979 0.376970 3.320117
-1.567763 0.377551 3.326312
-1.559429 0.379333 3.342974
-1.546120 0.379927 3.349083
-1.526642 0.379003 3.341699
-1.523993 0.382281 3.371270
-1.522969 0.386039 3.404997
-0.663866 0.170063 1.500226
-0.657878 0.170338 1.502831
-0.660733 0.172935 1.525871
-0.660419 0.174749 1.541979
-0.652406 0.174544 1.540230
-0.650115 0.175882 1.552064
-0.642768 0.175868 1.551923
-0.633091 0.175208 1.546054
-0.623367 0.174520 1.539903
-0.613696 0.173831 1.533705
-0.605687 0.173602 1.531540
-0.596281 0.172962 1.525718
-0.588101 0.172666 1.522908
-0.580676 0.172588 1.521984
-0.573012 0.172435 1.520381
-0.564323 0.171967 1.515966
-0.554986 0.171287 1.509658
-0.545285 0.170475 1.502171
-0.534030 0.169149 1.490140
-0.523459 0.168008 1.479713
-0.511817 0.166488 1.465933
-0.498120 0.164249 1.445810
-0.488979 0.163470 1.438536
-0.483012 0.163746 1.440519
-0.466024 0.160240 1.409227
-0.460148 0.160509 1.411126
-0.440254 0.158146 1.389385
-0.302549 0.115568 1.013792
-0.299691 0.116320 1.019980
-0.296338 0.116901 1.024656
-0.291201 0.116785 1.023222
-0.287215 0.117136 1.025861
-0.282554 0.117218 1.026145
-0.277868 0.117293 1.026353
-0.273006 0.117295 1.025922
-0.268109 0.117281 1.025351
-0.263092 0.117213 1.024305
-0.257116 0.116709 1.019434
-0.251201 0.116212 1.014638
-0.244895 0.115512 1.008066
-0.239052 0.115007 1.003201
-0.230715 0.113257 0.987482
-0.225632 0.113064 0.985351
-0.221261 0.113228 0.986323
-0.033460 0.028707 0.248007
-0.032170 0.028620 0.247162
-0.030923 0.028565 0.246599
-0.029627 0.028460 0.245597
-0.028335 0.028349 0.244557
-0.026745 0.027918 0.240755
-0.025409 0.027725 0.239014
-0.024328 0.027806 0.239633
-0.023096 0.027713 0.238753
-0.021390 0.027011 0.232642
-0.020282 0.027030 0.232732
-0.018872 0.026625 0.229183
-0.017639 0.026433 0.227469
-0.016385 0.026184 0.225272
-0.015226 0.026061 0.224155
-0.014076 0.025936 0.223033
-0.012959 0.025858 0.222310
-0.011780 0.025630 0.220309
-0.007442 0.025359 0.217829
-0.006414 0.025459 0.218654
-0.005386 0.025602 0.219861
-0.001168 0.026436 0.226943
-0.000069 0.026475 0.227268
0.001034 0.026557 0.227963
0.002138 0.026560 0.227981
0.003247 0.026601 0.228326
0.004363 0.026662 0.228857
0.005485 0.026729 0.229437
0.006612 0.026795 0.230010
0.007751 0.026883 0.230774
0.008897 0.026971 0.231542
0.010081 0.027137 0.232991
0.011228 0.027184 0.233410
0.012363 0.027194 0.233519
0.013517 0.027241 0.233954
0.014720 0.027372 0.235104
0.015902 0.027448 0.235794
0.017089 0.027521 0.236453
0.018293 0.027611 0.237268
0.019487 0.027675 0.237861
0.020696 0.027753 0.238579
0.021879 0.027790 0.238944
0.023138 0.027914 0.240065
0.024409 0.028040 0.241201
0.025618 0.028087 0.241658
0.026807 0.028109 0.241908
0.028021 0.028153 0.242353
0.029256 0.028215 0.242949
0.030455 0.028238 0.243212
0.031704 0.028304 0.243854
0.032964 0.028375 0.244534
0.034176 0.028400 0.244827
0.035420 0.028451 0.245339
0.036556 0.028413 0.245088
0.037753 0.028424 0.245263
0.039057 0.028512 0.246107
0.040451 0.028659 0.247457
0.041694 0.028693 0.247843
0.042909 0.028707 0.248044
0.044095 0.028701 0.248084
0.045749 0.028992 0.250687
0.047043 0.029045 0.251243
0.051843 0.031207 0.270039
0.051492 0.030237 0.261749
0.052061 0.029842 0.258423
0.053012 0.029679 0.257105
0.053918 0.029498 0.255634
0.055223 0.029538 0.256085
0.056481 0.029553 0.256309
0.059102 0.030265 0.262584
0.060000 0.030083 0.261103
0.060932 0.029925 0.259835
0.061981 0.029830 0.259104
0.063355 0.029891 0.259740
0.064565 0.029875 0.259694
0.066690 0.030274 0.263265
0.067735 0.030178 0.262523
0.069884 0.030568 0.266012
0.071333 0.030643 0.266764
0.072949 0.030786 0.268105
0.074312 0.030819 0.268484
0.075634 0.030834 0.268709
0.076885 0.030820 0.268681
0.078204 0.030833 0.268888
0.079531 0.030849 0.269115
0.080893 0.030878 0.269451
0.082203 0.030887 0.269611
0.083425 0.030862 0.269475
0.084607 0.030824 0.269219
0.085575 0.030710 0.268301
0.085938 0.030385 0.265537
0.085098 0.029651 0.259185
0.085640 0.029412 0.257162
0.086523 0.029296 0.256204
0.087411 0.029184 0.255283
0.088519 0.029148 0.255021
0.089514 0.029076 0.254441
0.090327 0.028948 0.253363
0.091334 0.028884 0.252846
0.092022 0.028722 0.251467
0.093026 0.028662 0.250974
0.093976 0.028587 0.250346
0.094527 0.028394 0.248679
0.095251 0.028257 0.247499
0.095839 0.028084 0.245992
0.095711 0.027707 0.242703
0.095655 0.027360 0.239666
0.096305 0.027221 0.238443
0.097293 0.027179 0.238072
0.097707 0.026980 0.236314
0.098411 0.026864 0.235285
0.098584 0.026608 0.233017
0.099370 0.026521 0.232226
0.100181 0.026442 0.231503
0.101026 0.026374 0.230865
0.101971 0.026334 0.230462
0.102867 0.026281 0.229948
0.103721 0.026219 0.229346
0.104532 0.026148 0.228653
0.105423 0.026098 0.228141
0.106176 0.026015 0.227332
0.106699 0.025878 0.226044
0.107563 0.025825 0.225488
0.108125 0.025702 0.224306
0.108822 0.025613 0.223416
0.109809 0.025593 0.223123
0.110511 0.025508 0.222250
0.111219 0.025426 0.221394
0.111739 0.025302 0.220173
0.112606 0.025259 0.219641
0.113362 0.025192 0.218890
0.114058 0.025113 0.218027
-1.583244 0.381886 3.224974
-1.578912 0.384533 3.248737
-1.573381 0.402707 3.407922
-1.559798 0.403340 3.414085
-1.540451 0.402480 3.407511
-1.522337 0.401928 3.403441
-0.682821 0.184150 1.559767
-0.676585 0.184448 1.562447
-0.674110 0.185790 1.573923
-0.665404 0.185425 1.570904
-0.657977 0.185413 1.570832
-0.645860 0.184063 1.559398
-0.636617 0.183511 1.554682
-0.626402 0.182663 1.547426
-0.616139 0.181781 1.539849
-0.607730 0.181431 1.536752
-0.598296 0.180763 1.530929
-0.589723 0.180343 1.527171
-0.582300 0.180268 1.526312
-0.574802 0.180167 1.525212
-0.565911 0.179622 1.520323
-0.557353 0.179170 1.516197
-0.546909 0.178093 1.506754
-0.532239 0.175592 1.485257
-0.522540 0.174687 1.477239
-0.508900 0.172423 1.457710
-0.502879 0.172713 1.459764
-0.269826 0.099474 0.839434
-0.264804 0.099077 0.835798
-0.261291 0.099241 0.836884
-0.304189 0.121027 1.019445
-0.299944 0.121259 1.021000
-0.295472 0.121406 1.021829
-0.291229 0.121653 1.023494
-0.286765 0.121815 1.024433
-0.282176 0.121929 1.024957
-0.277611 0.122057 1.025596
-0.272608 0.121994 1.024622
-0.267851 0.122040 1.024568
-0.262790 0.121947 1.023337
-0.257334 0.121664 1.020510
-0.251484 0.121181 1.015999
-0.244867 0.120301 1.008172
-0.239216 0.119871 1.004111
-0.232080 0.118664 0.993551
-0.227684 0.118837 0.994547
-0.033449 0.029891 0.248009
-0.032199 0.029838 0.247471
-0.030978 0.029807 0.247123
-0.029674 0.029691 0.246075
-0.028003 0.029183 0.241779
-0.026533 0.028849 0.238934
-0.025333 0.028792 0.238384
-0.024281 0.028906 0.239250
-0.022952 0.028686 0.237356
-0.021527 0.028316 0.234221
-0.020050 0.027833 0.230160
-0.018909 0.027786 0.229710
-0.017790 0.027770 0.229514
-0.016469 0.027413 0.226510
-0.015267 0.027220 0.224857
-0.014075 0.027014 0.223111
-0.012868 0.026746 0.220846
-0.011786 0.026711 0.220515
-0.010673 0.026592 0.219493
-0.001162 0.027415 0.226033
-0.000068 0.027570 0.227301
0.001036 0.027684 0.228234
0.002134 0.027602 0.227552
0.003250 0.027726 0.228572
0.004359 0.027738 0.228668
0.005494 0.027883 0.229874
0.006596 0.027839 0.229514
0.007766 0.028049 0.231256
0.008920 0.028159 0.232181
0.010059 0.028200 0.232533
0.011209 0.028263 0.233074
0.012370 0.028337 0.233711
0.013514 0.028365 0.233962
0.014703 0.028474 0.234890
0.015882 0.028550 0.235556
0.017063 0.028618 0.236152
0.018240 0.028673 0.236644
0.019435 0.028746 0.237290
0.020641 0.028828 0.238006
0.021840 0.028891 0.238578
0.023129 0.029061 0.240029
0.024345 0.029127 0.240631
0.025549 0.029173 0.241069
0.026772 0.029236 0.241648
0.027968 0.029266 0.241954
0.029215 0.029344 0.242667
0.030410 0.029366 0.242916
0.031681 0.029457 0.243735
0.033039 0.029620 0.245155
0.034174 0.029578 0.244877
0.035352 0.029575 0.244931
0.036615 0.029640 0.245549
0.037783 0.029628 0.245523
0.039019 0.029667 0.245931
0.040405 0.029815 0.247236
0.041945 0.030065 0.249396
0.043087 0.030023 0.249133
0.044164 0.029940 0.248532
0.045445 0.029995 0.249081
0.047007 0.030228 0.251110
0.050541 0.031686 0.263316
0.051441 0.031462 0.261546
0.052154 0.031137 0.258941
0.052536 0.030633 0.254849
0.053562 0.030520 0.254001
0.054728 0.030489 0.253841
0.056068 0.030555 0.254486
0.059179 0.031563 0.262975
0.059814 0.031235 0.260345
0.060934 0.031169 0.259891
0.062072 0.031114 0.259532
0.063224 0.031069 0.259249
0.064635 0.031150 0.260023
0.066204 0.031302 0.261393
0.068396 0.031738 0.265131
0.069621 0.031718 0.265055
0.070791 0.031673 0.264776
0.072473 0.031856 0.266396
0.074099 0.032007 0.267753
0.075688 0.032138 0.268942
0.077073 0.032179 0.269375
0.078188 0.032108 0.268867
0.079566 0.032145 0.269269
0.080868 0.032152 0.269404
0.082069 0.032118 0.269202
0.083336 0.032110 0.269219
0.084525 0.032074 0.268988
0.085529 0.031969 0.268183
0.086372 0.031807 0.266901
0.084676 0.030730 0.257923
0.085451 0.030567 0.256617
0.086376 0.030461 0.255788
0.087578 0.030455 0.255789
0.088506 0.030354 0.254998
0.089400 0.030246 0.254132
0.090313 0.030146 0.253338
0.090674 0.029867 0.251030
0.091658 0.029797 0.250484
0.092771 0.029771 0.250296
0.093164 0.029518 0.248191
0.093911 0.029381 0.247063
0.094960 0.029342 0.246747
0.095486 0.029143 0.245090
0.095764 0.028874 0.242838
0.095479 0.028445 0.239225
0.096052 0.028277 0.237816
0.096906 0.028196 0.237123
0.097534 0.028051 0.235892
0.097998 0.027863 0.234290
0.098764 0.027764 0.233435
0.099546 0.027672 0.232629
0.100242 0.027558 0.231634
0.101030 0.027472 0.230864
0.101809 0.027385 0.230083
0.102697 0.027329 0.229554
0.103422 0.027231 0.228668
0.104184 0.027144 0.227874
0.105047 0.027086 0.227306
0.105780 0.026995 0.226463
0.106532 0.026911 0.225667
0.107258 0.026823 0.224824
0.107967 0.026732 0.223953
0.108777 0.026667 0.223296
0.109493 0.026580 0.222449
0.110413 0.026545 0.222021
0.110916 0.026411 0.220756
0.111680 0.026340 0.220021
0.112536 0.026293 0.219466
0.113014 0.026159 0.218179
0.114000 0.026144 0.217876
-0.924171 0.229612 1.863478
-0.890448 0.223358 1.813586
-0.881989 0.223381 1.814573
-0.884398 0.226183 1.838087
-0.676419 0.193871 1.579287
-0.670088 0.194187 1.581945
-0.661703 0.193908 1.579721
-0.652490 0.193378 1.575409
-0.639534 0.191713 1.561821
-0.630859 0.191308 1.558460
-0.620769 0.190460 1.551455
-0.611205 0.189754 1.545582
-0.601612 0.189023 1.539467
-0.593383 0.188707 1.536712
-0.584151 0.188061 1.531239
-0.576724 0.187987 1.530395
-0.567875 0.187442 1.525691
-0.557297 0.186305 1.516145
-0.547850 0.185522 1.509456
-0.536249 0.183979 1.496566
-0.531689 0.184842 1.503231
-0.525491 0.185152 1.505370
-0.280316 0.104401 0.847851
-0.275873 0.104233 0.846216
-0.269657 0.103380 0.839016
-0.263768 0.102629 0.832638
-0.256213 0.101198 0.820735
-0.248196 0.099537 0.806971
-0.246056 0.100218 0.812191
-0.303988 0.125775 1.018930
-0.299545 0.125932 1.019808
-0.294858 0.125990 1.019875
-0.290243 0.126082 1.020206
-0.286356 0.126498 1.023154
-0.281694 0.126580 1.023395
-0.277361 0.126816 1.024868
-0.272494 0.126811 1.024395
-0.267683 0.126833 1.024132
-0.262464 0.126658 1.022278
-0.257100 0.126406 1.019797
-0.251875 0.126215 1.017802
-0.247243 0.126318 1.018182
-0.240404 0.125276 1.009333
-0.235951 0.125460 1.010361
-0.033400 0.031040 0.247730
-0.032191 0.031021 0.247492
-0.030854 0.030873 0.246219
-0.029482 0.030677 0.244572
-0.027951 0.030292 0.241417
-0.026478 0.029939 0.238527
-0.025340 0.029951 0.238540
-0.024090 0.029825 0.237466
-0.022705 0.029511 0.234893
-0.021340 0.029191 0.232273
-0.020179 0.029131 0.231732
-0.018792 0.028718 0.228386
-0.017667 0.028679 0.228013
-0.016449 0.028474 0.226327
-0.015284 0.028339 0.225199
-0.014056 0.028056 0.222905
-0.012873 0.027826 0.221028
-0.011763 0.027725 0.220182
-0.010627 0.027537 0.218649
-0.005393 0.027775 0.220372
-0.001164 0.028593 0.226785
-0.000067 0.028638 0.227130
0.001035 0.028717 0.227751
0.002135 0.028700 0.227606
0.003241 0.028736 0.227893
0.004356 0.028816 0.228524
0.005473 0.028878 0.229021
0.006602 0.028966 0.229729
0.007783 0.029226 0.231802
0.008903 0.029221 0.231772
0.010054 0.029307 0.232472
0.011214 0.029401 0.233237
0.012362 0.029446 0.233622
0.013504 0.029471 0.233843
0.014667 0.029535 0.234379
0.015836 0.029601 0.234935
0.017023 0.029690 0.235674
0.018210 0.029765 0.236312
0.019413 0.029858 0.237090
0.020571 0.029875 0.237271
0.021817 0.030011 0.238394
0.023039 0.030102 0.239169
0.024330 0.030269 0.240553
0.025541 0.030327 0.241066
0.026746 0.030372 0.241484
0.027939 0.030401 0.241773
0.029157 0.030453 0.242253
0.030349 0.030475 0.242493
0.031522 0.030477 0.242577
0.032725 0.030508 0.242890
0.033931 0.030538 0.243204
0.035185 0.030608 0.243834
0.036347 0.030596 0.243815
0.037625 0.030680 0.244557
0.038956 0.030800 0.245594
0.040400 0.030999 0.247268
0.041747 0.031115 0.248278
0.042994 0.031152 0.248658
0.044038 0.031044 0.247881
0.045311 0.031099 0.248405
0.046682 0.031216 0.249432
0.048121 0.031372 0.250769
0.051052 0.032469 0.259628
0.051970 0.032264 0.258082
0.052606 0.031897 0.255243
0.053496 0.031698 0.253742
0.054735 0.031710 0.253932
0.055989 0.031729 0.254180
0.058699 0.032555 0.260899
0.059859 0.032505 0.260591
0.060930 0.032410 0.259925
0.062074 0.032356 0.259592
0.063286 0.032339 0.259552
0.064823 0.032486 0.260827
0.066168 0.032533 0.261295
0.067445 0.032545 0.261489
0.069449 0.032901 0.264443
0.070939 0.033005 0.265373
0.072581 0.033175 0.266832
0.073908 0.033198 0.267105
0.075491 0.033333 0.268280
0.076811 0.033349 0.268496
0.078307 0.033439 0.269313
0.079455 0.033381 0.268928
0.080756 0.033387 0.269062
0.082031 0.033383 0.269108
0.083258 0.033360 0.268997
0.084388 0.033299 0.268580
0.085441 0.033210 0.267933
0.086193 0.033008 0.266373
0.086470 0.032633 0.263410
0.085749 0.031897 0.257533
0.086507 0.031724 0.256196
0.087654 0.031697 0.256030
0.088621 0.031606 0.255348
0.089501 0.031488 0.254433
0.090548 0.031430 0.254009
0.091419 0.031313 0.253105
0.091925 0.031076 0.251224
0.093012 0.031040 0.250956
0.093992 0.030968 0.250405
0.094609 0.030781 0.248906
0.095150 0.030573 0.247245
0.095764 0.030394 0.245806
0.095862 0.030057 0.243089
0.096140 0.029784 0.240880
0.096767 0.029625 0.239586
0.097343 0.029453 0.238187
0.097450 0.029145 0.235683
0.097918 0.028951 0.234093
0.098579 0.028818 0.232989
0.099390 0.028731 0.232253
0.100158 0.028634 0.231427
0.100928 0.028539 0.230618
0.101617 0.028424 0.229634
0.102429 0.028345 0.228938
0.103253 0.028271 0.228278
0.103896 0.028150 0.227225
0.104675 0.028067 0.226479
0.105226 0.027926 0.225254
0.106172 0.027891 0.224880
0.107056 0.027841 0.224374
0.107645 0.027715 0.223257
0.108362 0.027625 0.222414
0.109256 0.027582 0.221936
0.109980 0.027496 0.221116
0.110489 0.027359 0.219872
0.111079 0.027244 0.218800
0.111783 0.027160 0.217959
0.112565 0.027095 0.217273
0.113489 0.027066 0.216856
-0.942318 0.236370 1.844007
-0.941227 0.238299 1.860184
-0.934774 0.238894 1.865884
-0.923829 0.238342 1.862552
-0.908714 0.236693 1.850567
-0.896135 0.235679 1.843472
-0.884050 0.234777 1.837176
-0.877908 0.235450 1.843148
-0.661379 0.201255 1.578937
-0.653337 0.201063 1.577454
-0.647212 0.201464 1.580585
-0.632094 0.199043 1.561534
-0.622445 0.198306 1.555675
-0.616422 0.198722 1.558818
-0.605767 0.197636 1.550153
-0.597696 0.197377 1.547948
-0.587566 0.196423 1.540263
-0.578040 0.195650 1.533971
-0.568700 0.194922 1.528001
-0.558889 0.194011 1.520579
-0.550284 0.193501 1.516274
-0.535877 0.190910 1.495646
-0.531373 0.191825 1.502467
-0.293731 0.110448 0.864400
-0.286630 0.109293 0.855116
-0.280139 0.108341 0.847416
-0.274191 0.107575 0.841160
-0.266321 0.106021 0.828743
-0.259514 0.104851 0.819322
-0.256348 0.105138 0.821282
-0.249380 0.103851 0.810940
-0.245889 0.103995 0.811766
-0.244436 0.105018 0.819451
-0.298878 0.130476 1.017707
-0.293808 0.130362 1.016421
-0.289874 0.130756 1.019091
-0.285049 0.130755 1.018671
-0.280376 0.130825 1.018799
-0.276077 0.131075 1.020324
-0.271265 0.131086 1.019980
-0.266111 0.130929 1.018329
-0.260784 0.130680 1.015953
-0.256353 0.130879 1.017061
-0.250023 0.130097 1.010545
-0.247345 0.131222 1.018839
-0.240986 0.130400 1.012012
-0.033466 0.032296 0.248309
-0.032229 0.032251 0.247871
-0.030886 0.032092 0.246564
-0.029488 0.031862 0.244711
-0.028157 0.031687 0.243287
-0.026653 0.031295 0.240191
-0.025246 0.030987 0.237750
-0.023945 0.030785 0.236128
-0.022803 0.030777 0.235999
-0.021438 0.030452 0.233437
-0.020275 0.030395 0.232932
-0.018993 0.030142 0.230930
-0.017849 0.030089 0.230467
-0.016389 0.029462 0.225609
-0.015304 0.029467 0.225589
-0.014122 0.029274 0.224062
-0.012880 0.028913 0.221254
-0.011781 0.028834 0.220608
-0.010663 0.028693 0.219490
-0.006390 0.028544 0.218210
-0.005342 0.028575 0.218421
-0.001162 0.029682 0.226807
0.001033 0.029737 0.227208
0.002135 0.029773 0.227474
0.003239 0.029809 0.227752
0.004351 0.029884 0.228326
0.005461 0.029915 0.228561
0.006579 0.029970 0.228989
0.007718 0.030093 0.229938
0.008927 0.030420 0.232452
0.010061 0.030449 0.232692
0.011207 0.030505 0.233137
0.012346 0.030533 0.233377
0.013496 0.030580 0.233761
0.014656 0.030642 0.234267
0.015814 0.030691 0.234668
0.016980 0.030748 0.235141
0.018169 0.030836 0.235851
0.019355 0.030908 0.236444
0.020541 0.030973 0.236983
0.021761 0.031080 0.237848
0.022975 0.031167 0.238567
0.024230 0.031299 0.239629
0.025465 0.031395 0.240415
0.026708 0.031491 0.241206
0.027904 0.031526 0.241535
0.029108 0.031568 0.241918
0.030330 0.031624 0.242412
0.031510 0.031633 0.242554
0.032714 0.031666 0.242872
0.033920 0.031698 0.243190
0.035097 0.031702 0.243290
0.036301 0.031729 0.243571
0.037489 0.031741 0.243742
0.038720 0.031787 0.244172
0.040225 0.032048 0.246262
0.041855 0.032392 0.248984
0.043097 0.032424 0.249319
0.044068 0.032256 0.248112
0.045345 0.032315 0.248654
0.047066 0.032679 0.251542
0.048519 0.032844 0.252899
0.049634 0.032777 0.252478
0.050914 0.032820 0.252898
0.052284 0.032917 0.253740
0.053496 0.032913 0.253797
0.054651 0.032875 0.253594
0.055983 0.032942 0.254208
0.057336 0.033019 0.254892
0.058776 0.033141 0.255931
0.060420 0.033371 0.257799
0.062078 0.033599 0.259659
0.063282 0.033578 0.259587
0.064586 0.033609 0.259920
0.065916 0.033652 0.260348
0.067254 0.033698 0.260792
0.068654 0.033772 0.261459
0.070532 0.034074 0.263893
0.072600 0.034457 0.266946
0.074083 0.034553 0.267779
0.075375 0.034558 0.267907
0.076760 0.034605 0.268359
0.078071 0.034617 0.268538
0.079340 0.034611 0.268573
0.080615 0.034608 0.268628
0.081915 0.034615 0.268759
0.083188 0.034610 0.268802
0.084353 0.034562 0.268499
0.085298 0.034426 0.267513
0.085390 0.033955 0.263918
0.085756 0.033605 0.261260
0.085969 0.033206 0.258216
0.086865 0.033078 0.257276
0.087621 0.032901 0.255953
0.088717 0.032855 0.255643
0.089484 0.032689 0.254400
0.090409 0.032586 0.253634
0.091391 0.032505 0.253040
0.092198 0.032365 0.251981
0.093023 0.032234 0.250995
0.094007 0.032162 0.250452
0.094725 0.032001 0.249219
0.095661 0.031917 0.248578
0.096348 0.031753 0.247307
0.096830 0.031526 0.245543
0.095945 0.030864 0.240390
0.096631 0.030718 0.239246
0.097603 0.030665 0.238821
0.098365 0.030548 0.237891
0.098829 0.030342 0.236265
0.099440 0.030185 0.235015
0.099862 0.029975 0.233345
0.100282 0.029769 0.231700
0.100843 0.029610 0.230409
0.101541 0.029493 0.229447
0.102285 0.029391 0.228600
0.103037 0.029295 0.227780
0.103735 0.029184 0.226850
0.104423 0.029074 0.225912
0.105051 0.028949 0.224855
0.105624 0.028812 0.223693
0.106432 0.028740 0.223037
0.107027 0.028614 0.221946
0.107490 0.028455 0.220592
0.108372 0.028408 0.220107
0.109312 0.028378 0.219738
0.109775 0.028226 0.218414
0.110770 0.028211 0.218152
0.111577 0.028150 0.217515
0.112252 0.028057 0.216624
0.113318 0.028062 0.216484
-0.983463 0.248912 1.868362
-0.975927 0.249246 1.872265
-0.968916 0.249722 1.877153
-0.951013 0.247374 1.860721
-0.945669 0.248279 1.868678
-0.924875 0.245106 1.845862
-0.927901 0.248246 1.870509
-0.913079 0.246626 1.859224
-0.901465 0.245849 1.854220
-0.891217 0.245433 1.851868
-0.877545 0.244057 1.842201
-0.867611 0.243703 1.840184
-0.858432 0.243557 1.839672
-0.847603 0.242934 1.835504
-0.839748 0.243160 1.837689
-0.828369 0.242360 1.832062
-0.817715 0.241757 1.827873
-0.807144 0.241166 1.823721
-0.798740 0.241217 1.824371
-0.803197 0.245196 1.854681
-0.773190 0.243979 1.845853
-0.663094 0.211612 1.601009
-0.650918 0.210110 1.589642
-0.641027 0.209320 1.583623
-0.626254 0.206898 1.565226
-0.616704 0.206164 1.559574
-0.606169 0.205080 1.551234
-0.597851 0.204729 1.548411
-0.586925 0.203464 1.538656
-0.575857 0.202118 1.528259
-0.566110 0.201209 1.521135
-0.561244 0.202033 1.527090
-0.550004 0.200553 1.515612
-0.543775 0.200887 1.517814
-0.279956 0.112274 0.846964
-0.270604 0.110094 0.830263
-0.263244 0.108671 0.819277
-0.259292 0.108635 0.818734
-0.254857 0.108392 0.816625
-0.247781 0.107001 0.805864
-0.244560 0.107257 0.807505
-0.241829 0.107740 0.810842
-0.299033 0.135370 1.018407
-0.294688 0.135587 1.019644
-0.290842 0.136044 1.022681
-0.286201 0.136137 1.022981
-0.281552 0.136231 1.023270
-0.276813 0.136284 1.023249
-0.271991 0.136297 1.022922
-0.267187 0.136319 1.022662
-0.262230 0.136263 1.021809
-0.258077 0.136631 1.024128
-0.252910 0.136465 1.022449
-0.248423 0.136668 1.023521
-0.033433 0.033458 0.248156
-0.032071 0.033280 0.246749
-0.030743 0.033126 0.245518
-0.029407 0.032950 0.244130
-0.028016 0.032695 0.242159
-0.026556 0.032335 0.239414
-0.025132 0.031987 0.236765
-0.023962 0.031946 0.236387
-0.022756 0.031850 0.235604
-0.021439 0.031581 0.233548
-0.020209 0.031417 0.232271
-0.018881 0.031072 0.229656
-0.017666 0.030882 0.228196
-0.016524 0.030804 0.227563
-0.015370 0.030691 0.226674
-0.014019 0.030135 0.222520
-0.012886 0.029996 0.221445
-0.011714 0.029735 0.219476
-0.010656 0.029738 0.219455
-0.006385 0.029580 0.218159
-0.005439 0.030177 0.222535
-0.004395 0.030395 0.224117
-0.001151 0.030526 0.225030
-0.000064 0.030674 0.226114
0.001033 0.030796 0.227004
0.002132 0.030812 0.227117
0.003239 0.030897 0.227741
0.004361 0.031045 0.228829
0.005474 0.031085 0.229126
0.006591 0.031125 0.229432
0.007721 0.031209 0.230060
0.008870 0.031340 0.231036
0.010021 0.031444 0.231818
0.011178 0.031546 0.232593
0.012322 0.031595 0.232977
0.013485 0.031682 0.233644
0.014644 0.031746 0.234146
0.015802 0.031798 0.234560
0.016962 0.031846 0.234947
0.018120 0.031886 0.235281
0.019292 0.031944 0.235749
0.020486 0.032030 0.236422
0.021738 0.032193 0.237669
0.022976 0.032318 0.238643
0.024214 0.032433 0.239542
0.025435 0.032515 0.240204
0.026672 0.032609 0.240957
0.027836 0.032610 0.241019
0.029033 0.032648 0.241361
0.030227 0.032679 0.241659
0.031444 0.032732 0.242116
0.032627 0.032747 0.242293
0.033819 0.032770 0.242533
0.035051 0.032829 0.243042
0.036285 0.032886 0.243535
0.037447 0.032875 0.243529
0.038716 0.032956 0.244211
0.040277 0.033274 0.246648
0.041718 0.033477 0.248235
0.042853 0.033431 0.247972
0.044043 0.033428 0.248033
0.045350 0.033512 0.248741
0.047070 0.033889 0.251627
0.048580 0.034100 0.253283
0.049660 0.034005 0.252670
0.050908 0.034028 0.252926
0.052234 0.034100 0.253556
0.053570 0.034176 0.254208
0.054767 0.034161 0.254191
0.055971 0.034151 0.254211
0.057310 0.034222 0.254829
0.058625 0.034277 0.255327
0.059834 0.034268 0.255351
0.061196 0.034345 0.256021
0.062570 0.034426 0.256713
0.064496 0.034801 0.259608
0.065881 0.034877 0.260259
0.067187 0.034907 0.260581
0.069233 0.035314 0.263709
0.070900 0.035518 0.265317
0.072462 0.035662 0.266482
0.073657 0.035623 0.266280
0.075266 0.035783 0.267561
0.076647 0.035830 0.268001
0.077976 0.035852 0.268250
0.079165 0.035810 0.268018
0.080501 0.035835 0.268282
0.081753 0.035822 0.268261
0.083042 0.035826 0.268362
0.084318 0.035824 0.268418
0.085397 0.035739 0.267850
0.086018 0.035468 0.265887
0.084738 0.034432 0.258183
0.085572 0.034273 0.257045
0.086589 0.034190 0.256479
0.087653 0.034129 0.256065
0.088606 0.034026 0.255340
0.089442 0.033881 0.254298
0.090485 0.033818 0.253859
0.091371 0.033698 0.252997
0.092290 0.033594 0.252244
0.093076 0.033444 0.251146
0.093929 0.033322 0.250249
0.094988 0.033275 0.249915
0.095551 0.033058 0.248293
0.096055 0.032826 0.246556
0.096654 0.032631 0.245096
0.096536 0.032202 0.241871
0.097122 0.032015 0.240458
0.097878 0.031888 0.239488
0.098486 0.031716 0.238177
0.098901 0.031486 0.236426
0.099053 0.031179 0.234091
0.099475 0.030963 0.232430
0.100050 0.030798 0.231151
0.100681 0.030654 0.230024
0.101417 0.030545 0.229148
0.102214 0.030456 0.228422
0.102953 0.030352 0.227574
0.103646 0.030237 0.226634
0.104379 0.030136 0.225793
0.105039 0.030016 0.224804
0.105734 0.029908 0.223899
0.106246 0.029751 0.222620
0.106982 0.029659 0.221820
0.107304 0.029455 0.220177
0.107998 0.029357 0.219312
0.108832 0.029297 0.218735
0.109300 0.029142 0.217429
0.110319 0.029135 0.217222
0.111365 0.029135 0.217059
0.111898 0.029002 0.215897
0.113028 0.029025 0.215883
-0.996186 0.258798 1.873788
-0.976002 0.255835 1.853818
-0.973441 0.257479 1.867144
-0.968566 0.258536 1.876140
-0.951645 0.256367 1.861643
-0.947551 0.257646 1.872097
-0.938336 0.257543 1.872445
-0.927831 0.257081 1.870103
-0.918401 0.256911 1.869812
-0.905394 0.255727 1.862071
-0.893866 0.254942 1.857160
-0.887066 0.255504 1.861989
-0.879081 0.255732 1.864329
-0.869734 0.255564 1.863725
-0.862468 0.256011 1.867543
-0.851706 0.255418 1.863719
-0.839275 0.254308 1.856059
-0.832476 0.254899 1.860761
-0.823383 0.254792 1.860319
-0.815194 0.254966 1.861877
-0.802797 0.253814 1.853695
-0.792648 0.253354 1.850526
-0.786431 0.254155 1.856519
-0.772787 0.252548 1.844869
-0.776015 0.256480 1.873645
-0.650568 0.217486 1.588793
-0.642606 0.217318 1.587540
-0.633044 0.216599 1.582226
-0.620842 0.214949 1.570076
-0.608911 0.213354 1.558301
-0.600837 0.213088 1.556206
-0.589365 0.211596 1.545123
-0.574358 0.208781 1.524363
-0.567920 0.209050 1.526090
-0.554824 0.206843 1.509721
-0.549664 0.207577 1.514789
-0.271398 0.114354 0.832806
-0.267909 0.114541 0.833909
-0.258843 0.112314 0.817430
-0.254810 0.112236 0.816593
-0.249050 0.111384 0.810115
-0.244640 0.111118 0.807898
-0.240812 0.111113 0.807568
-0.294469 0.140317 1.019067
-0.284218 0.137686 0.999575
-0.281800 0.138824 1.007443
-0.277562 0.139090 1.008972
-0.276598 0.141034 1.022663
-0.034692 0.034719 0.248829
-0.033532 0.034754 0.248983
-0.032149 0.034552 0.247446
-0.030803 0.034374 0.246088
-0.029581 0.034328 0.245674
-0.028312 0.034220 0.244816
-0.027089 0.034161 0.244318
-0.025880 0.034116 0.243916
-0.024727 0.034142 0.244032
-0.022643 0.032824 0.234536
-0.021447 0.032720 0.233729
-0.020291 0.032671 0.233315
-0.019255 0.032820 0.234318
-0.018111 0.032792 0.234055
-0.016932 0.032692 0.233282
-0.015531 0.032120 0.229152
-0.014378 0.032011 0.228323
-0.013101 0.031586 0.225248
-0.011959 0.031440 0.224164
-0.010627 0.030717 0.218968
-0.009499 0.030487 0.217291
-0.006351 0.030476 0.217117
-0.005297 0.030443 0.216859
-0.000062 0.031741 0.226010
0.001034 0.031888 0.227050
0.002137 0.031965 0.227594
0.003228 0.031874 0.226945
0.004357 0.032114 0.228654
0.005483 0.032236 0.229526
0.006592 0.032231 0.229498
0.007717 0.032297 0.229980
0.008864 0.032429 0.230932
0.010010 0.032525 0.231626
0.011155 0.032599 0.232171
0.012308 0.032681 0.232781
0.013459 0.032744 0.233256
0.014613 0.032804 0.233710
0.015768 0.032858 0.234123
0.016928 0.032913 0.234549
0.018086 0.032958 0.234906
0.019286 0.033070 0.235749
0.020519 0.033221 0.236868
0.021758 0.033368 0.237959
0.022988 0.033486 0.238844
0.024180 0.033539 0.239273
0.025444 0.033683 0.240358
0.026666 0.033761 0.240968
0.027808 0.033736 0.240845
0.029015 0.033788 0.241281
0.030214 0.033827 0.241622
0.031396 0.033845 0.241815
0.032583 0.033867 0.242037
0.033751 0.033868 0.242114
0.034949 0.033898 0.242401
0.036192 0.033969 0.242977
0.037400 0.034002 0.243294
0.038713 0.034127 0.244264
0.040001 0.034223 0.245024
0.041352 0.034365 0.246122
0.042620 0.034432 0.246686
0.043930 0.034530 0.247466
0.045274 0.034647 0.248393
0.047547 0.035451 0.254244
0.048638 0.035356 0.253647
0.049674 0.035226 0.252804
0.050943 0.035264 0.253161
0.052190 0.035285 0.253403
0.053338 0.035240 0.253168
0.054609 0.035275 0.253514
0.055841 0.035285 0.253675
0.057031 0.035269 0.253646
0.058450 0.035391 0.254616
0.059955 0.035560 0.255921
0.061659 0.035837 0.258010
0.063057 0.035929 0.258762
0.064106 0.035823 0.258086
0.065662 0.035998 0.259442
0.066874 0.035982 0.259411
0.068365 0.036114 0.260451
0.071156 0.036915 0.266320
0.072680 0.037043 0.267327
0.073881 0.037004 0.267131
0.075228 0.037038 0.267464
0.076629 0.037098 0.267978
0.078037 0.037158 0.268497
0.079275 0.037137 0.268426
0.080562 0.037140 0.268519
0.081737 0.037091 0.268241
0.082999 0.037083 0.268254
0.084132 0.037018 0.267855
0.084984 0.036833 0.266584
0.083866 0.035812 0.259259
0.084952 0.035749 0.258858
0.085623 0.035515 0.257222
0.086624 0.035423 0.256604
0.087565 0.035309 0.255827
0.088513 0.035201 0.255088
0.089394 0.035069 0.254175
0.090351 0.034971 0.253498
0.091314 0.034877 0.252853
0.092260 0.034779 0.252172
0.092892 0.034567 0.250656
0.093896 0.034497 0.250168
0.094879 0.034421 0.249632
0.095559 0.034238 0.248317
0.096186 0.034042 0.246895
0.096415 0.033710 0.244490
0.096494 0.033335 0.241763
0.097318 0.033223 0.240938
0.097987 0.033061 0.239748
0.098718 0.032923 0.238729
0.098976 0.032633 0.236597
0.099190 0.032335 0.234402
0.099306 0.032012 0.232023
0.099786 0.031811 0.230526
0.100688 0.031749 0.230022
0.101543 0.031673 0.229415
0.102166 0.031527 0.228294
0.102905 0.031419 0.227446
0.103642 0.031313 0.226602
0.104254 0.031172 0.225498
0.104857 0.031031 0.224386
0.105347 0.030860 0.223050
0.106131 0.030778 0.222347
0.106256 0.030507 0.220282
0.106821 0.030368 0.219153
0.107670 0.030311 0.218611
0.108290 0.030191 0.217608
0.109079 0.030120 0.216950
0.109954 0.030074 0.216462
0.110730 0.030001 0.215777
0.111659 0.029971 0.215387
0.112758 0.029987 0.215317
-0.990655 0.266225 1.862975
-0.991761 0.268919 1.883358
-0.975413 0.266887 1.870555
-0.969878 0.267802 1.878327
-0.964360 0.268740 1.886180
-0.952580 0.267934 1.881717
-0.943973 0.268013 1.883393
-0.933668 0.267608 1.881588
-0.923760 0.267310 1.880460
-0.911233 0.266240 1.873834
-0.898334 0.265040 1.866214
-0.888615 0.264764 1.865030
-0.881876 0.265380 1.870063
-0.873313 0.265453 1.871215
-0.865006 0.265606 1.872874
-0.856429 0.265679 1.873907
-0.846877 0.265448 1.872740
-0.836625 0.264991 1.869919
-0.824769 0.264010 1.863352
-0.816653 0.264218 1.865123
-0.806359 0.263719 1.861848
-0.794389 0.262654 1.854535
-0.785059 0.262449 1.853239
-0.775151 0.262043 1.850486
-0.775592 0.265167 1.872611
-0.645978 0.225981 1.595885
-0.639518 0.226349 1.598433
-0.621956 0.222749 1.572930
-0.611272 0.221556 1.564393
-0.603142 0.221271 1.562235
-0.587079 0.218033 1.539200
-0.583811 0.219525 1.549533
-0.572947 0.218162 1.539689
-0.566638 0.218521 1.541971
-0.264330 0.116902 0.822879
-0.258500 0.116027 0.816462
-0.255005 0.116189 0.817341
-0.248326 0.114884 0.807888
-0.241974 0.113691 0.799224
-0.240631 0.114852 0.807099
-0.036946 0.035787 0.248215
-0.035794 0.035824 0.248379
-0.034142 0.035346 0.244976
-0.032989 0.035369 0.245046
-0.031787 0.035339 0.244753
-0.030545 0.035261 0.244126
-0.029422 0.035319 0.244447
-0.028062 0.035087 0.242757
-0.026718 0.034854 0.241067
-0.025853 0.035254 0.243757
-0.023566 0.033661 0.232672
-0.022403 0.033595 0.232147
-0.021333 0.033669 0.232595
-0.020188 0.033626 0.232232
-0.019234 0.033915 0.234164
-0.017232 0.032276 0.222797
-0.015961 0.031880 0.220008
-0.014872 0.031818 0.219528
-0.013866 0.031938 0.220312
-0.013086 0.032639 0.225098
-0.011592 0.031528 0.217395
-0.010572 0.031612 0.217933
-0.009472 0.031449 0.216778
-0.008435 0.031484 0.216982
-0.007380 0.031449 0.216713
-0.006343 0.031493 0.216985
-0.005313 0.031598 0.217682
-0.002181 0.031894 0.219664
-0.001115 0.031742 0.218601
0.002131 0.032945 0.226860
0.003242 0.033104 0.227952
0.004367 0.033283 0.229187
0.005474 0.033282 0.229185
0.006584 0.033294 0.229271
0.007716 0.033398 0.229998
0.008861 0.033528 0.230908
0.010026 0.033693 0.232056
0.011160 0.033732 0.232347
0.012301 0.033782 0.232712
0.013452 0.033850 0.233204
0.014610 0.033923 0.233734
0.015765 0.033978 0.234140
0.016906 0.033999 0.234319
0.018071 0.034060 0.234780
0.019247 0.034136 0.235338
0.020458 0.034261 0.236241
0.021760 0.034517 0.238050
0.022967 0.034603 0.238693
0.024179 0.034690 0.239343
0.025402 0.034782 0.240033
0.026562 0.034785 0.240103
0.027779 0.034859 0.240671
0.028948 0.034868 0.240797
0.030148 0.034913 0.241166
0.031392 0.035003 0.241856
0.032572 0.035018 0.242025
0.033740 0.035021 0.242109
0.034938 0.035052 0.242397
0.036135 0.035080 0.242663
0.037413 0.035183 0.243450
0.038634 0.035227 0.243828
0.039876 0.035288 0.244324
0.041175 0.035394 0.245139
0.042457 0.035480 0.245809
0.043807 0.035616 0.246835
0.045425 0.035957 0.249282
0.047651 0.036750 0.254866
0.048611 0.036551 0.253572
0.049770 0.036507 0.253354
0.049762 0.035630 0.247354
0.050915 0.035606 0.247270
0.053637 0.036655 0.254644
0.055014 0.036759 0.255454
0.056144 0.036696 0.255108
0.057430 0.036736 0.255476
0.058494 0.036635 0.254864
0.059865 0.036727 0.255591
0.061418 0.036924 0.257053
0.063038 0.037154 0.258739
0.064189 0.037103 0.258472
0.065481 0.037133 0.258774
0.066766 0.037159 0.259043
0.069871 0.038179 0.266235
0.071203 0.038210 0.266539
0.072672 0.038312 0.267340
0.073847 0.038259 0.267052
0.075088 0.038241 0.267010
0.076448 0.038283 0.267385
0.077843 0.038341 0.267870
0.079020 0.038291 0.267600
0.080282 0.038283 0.267620
0.081595 0.038300 0.267810
0.082865 0.038296 0.267852
